# .PCD v0.7 - Point Cloud Data file format
VERSION 0.7
FIELDS x y z rgb
SIZE 4 4 4 4
TYPE F F F F
COUNT 1 1 1 1
WIDTH 836
HEIGHT 1
VIEWPOINT 0 0 0 1 0 0 0
POINTS 836
DATA ascii
-0.005377685651 -0.495759964 0.1038607806 4.577411499e-40
-0.1497918665 -0.3612010479 0.3310669065 3.567951117e-39
-0.144178912 -0.08665211499 -0.04208700731 1.006280134e-38
0.1466461867 -0.4763559401 -0.2351593524 9.151249686e-40
0.3199293315 -0.3376304805 0.01698279567 4.1168117e-39
-0.1627764851 -0.01367534325 0.2006148994 1.170938309e-38
0.02616030723 -0.4915523827 -0.1399950534 5.492179136e-40
0.1080527306 -0.1240356192 -0.2206659615 9.148033706e-39
-0.08504735678 -0.4874488413 0.3129986823 6.406946774e-40
-0.06129166111 -0.4925947785 -0.1637858003 5.492179136e-40
-0.1918802112 -0.4653794169 0.2025081217 1.18955526e-39
0.2734749317 -0.4782840014 -0.06027782708 8.236482049e-40
0.4359443188 -0.3480173051 0.2480664998 3.933858172e-39
0.01030345261 -0.4684693217 0.2634160519 1.098078496e-39
0.01433552615 -0.4019837677 0.1766534746 2.65318348e-39
-0.01487660408 -0.4981024861 -0.1083212942 3.662643861e-40
-0.02258371189 -0.3129643202 0.09744106978 4.757149046e-39
-0.1125692055 -0.4828481078 0.3086133599 7.321714411e-40
0.2565633059 -0.4360111356 -0.01162437163 1.829892606e-39
-0.1733023077 -0.1422114968 -0.02279848419 8.690649887e-39
0.100785166 -0.4101478159 -0.2308674008 2.470229952e-39
-0.06796379387 -0.4891231656 0.1057822183 6.406946774e-40
-0.1652773321 -0.2533928454 0.2272016108 6.129300502e-39
0.3974960446 -0.4191682637 -0.05350292102 2.287276425e-39
-0.1599816978 -0.09509366751 0.2229000628 9.879847816e-39
0.3821714222 -0.3839471042 0.05962923914 3.110567299e-39
-0.1424081028 -0.1509141028 -0.07782595605 8.50769636e-39
0.2331284583 -0.3010000288 -0.2126070559 5.031579337e-39
-0.05393546075 -0.4887944162 -0.2261446863 6.406946774e-40
-0.04614862427 -0.1158452109 -0.213138178 9.330987234e-39
-0.1565761417 -0.06024629995 0.3395846784 1.061166193e-38
0.1013714895 -0.4057935476 0.1678873748 2.561706716e-39
0.06990815699 -0.4848462343 -0.1493210047 7.321714411e-40
0.1980315298 -0.3387292624 0.2075695544 4.1168117e-39
0.1422144324 -0.4843413532 0.1852856576 7.321714411e-40
-0.1574913412 -0.2638242543 0.04926215112 5.854870211e-39
0.1950116754 -0.3373689353 0.2510376871 4.208288464e-39
-0.1472444534 -0.266975224 0.144394204 5.854870211e-39
-0.1385376155 -0.478038311 0.255315125 8.236482049e-40
0.2411327958 -0.3904668093 0.2953309417 2.927613771e-39
0.3174235225 -0.4533758461 -0.04077526927 1.463985551e-39
-0.05022078007 -0.4494526684 0.08033966273 1.555462315e-39
-0.1640025079 -0.1597259939 0.05792500824 8.324742832e-39
0.1732117087 -0.4868438244 0.2030064017 6.406946774e-40
-0.1505683213 -0.483877331 0.1762070954 7.321714411e-40
0.1945826262 -0.3991820812 -0.2490698695 2.744660244e-39
-0.1535099596 -0.3110404015 0.2591446638 4.757149046e-39
0.28556481 -0.4667005837 0.05019392818 1.098078496e-39
-0.119101122 -0.4831618071 0.03719132394 7.321714411e-40
0.1580337882 -0.4146132469 0.01677604765 2.378753189e-39
0.1928815097 -0.490740478 0.07399742305 5.492179136e-40
0.1640334725 -0.2341469526 -0.2085219026 6.586684321e-39
0.02872389182 -0.4858392775 -0.1727796495 6.406946774e-40
-0.1862481534 -0.4885352552 0.2456008196 6.406946774e-40
-0.01706483588 -0.4776397049 0.3047923744 9.151249686e-40
-0.1869734824 -0.4312549233 0.00199039001 1.92136937e-39
-0.07975164056 -0.4661737978 0.3801752925 1.18955526e-39
-0.1157233268 -0.4695424438 0.1951538324 1.098078496e-39
0.1125066429 -0.3756200075 0.07458655536 3.293520826e-39
0.2447576225 -0.07632448524 -0.2111041546 1.024575487e-38
0.2449966073 -0.4879346192 -0.1387708485 6.406946774e-40
0.206551373 -0.4862470329 -0.004070084542 6.406946774e-40
-0.1578389257 0.001318960101 0.02543604746 1.207529015e-38
-0.1055878699 -0.4758755267 -0.0988785997 9.151249686e-40
-0.1463222802 -0.3250672817 -0.08628941327 4.482718755e-39
-0.1348582357 -0.4526735246 -0.2265043259 1.463985551e-39
0.3601970971 -0.362983793 0.169951573 3.567951117e-39
0.06956655532 -0.3669254184 0.1758513898 3.476474354e-39
-0.1640732437 -0.4841713309 0.2651577294 7.321714411e-40
0.2435653061 -0.4208580554 0.2244767547 2.195799661e-39
0.09697374701 -0.4799163342 0.02657295391 8.236482049e-40
0.1601210237 -0.3860094845 -0.05203127488 3.019090535e-39
-0.2024405897 -0.1659300178 0.2137527019 8.141789305e-39
-0.05346470699 -0.4921313822 -0.1930467784 5.492179136e-40
0.1224272177 -0.4837337136 -0.04260731861 7.321714411e-40
-0.1457356811 -0.3971918821 -0.07095073909 2.744660244e-39
0.04037047923 -0.0610254854 -0.2089295089 1.061166193e-38
-0.139814347 -0.4662185609 0.2615329325 1.18955526e-39
-0.1419028342 -0.362680465 0.2889021933 3.567951117e-39
0.1696467996 -0.3361464441 0.04127997532 4.208288464e-39
0.408279568 -0.3382822573 0.009827406146 4.1168117e-39
0.05872890353 -0.06186405197 0.0994926244 1.061166193e-38
0.2861938477 -0.4050142467 0.02965105884 2.561706716e-39
0.2058359683 -0.4877514541 0.259867847 6.406946774e-40
-0.1343394965 -0.4716775715 -0.1654887795 1.006601732e-39
0.1752339005 -0.4903044999 0.01989551261 5.492179136e-40
0.3199814856 -0.4659455419 0.1900300086 1.18955526e-39
0.169655174 -0.4869938791 -0.1419445127 6.406946774e-40
-0.1550556272 -0.3422423303 0.1081042588 4.025334936e-39
-0.148245737 -0.06017370149 -0.2160693854 1.061166193e-38
-0.1607670188 -0.4030282199 -0.1984862685 2.65318348e-39
-0.1776709408 -0.4847159088 0.01547158509 7.321714411e-40
0.0417811051 -0.2878515422 -0.2348847091 5.306009629e-39
0.08271027356 -0.0153340362 -0.238687247 1.170938309e-38
0.237815693 -0.4244848192 -0.1154809743 2.104322897e-39
-0.1772381961 -0.4838867784 -0.2306886464 7.321714411e-40
0.01697526127 -0.478204459 0.2646177411 8.236482049e-40
-0.1448870152 -0.1117829978 -0.1285903603 9.422463997e-39
0.07047516108 -0.187149778 -0.2290555835 7.684405486e-39
0.2659004331 -0.4894208908 0.09522922337 6.406946774e-40
0.04880720004 -0.437192142 -0.21463871 1.829892606e-39
0.1802935302 -0.3267159164 -0.169177562 4.391241991e-39
-0.1581662148 -0.007384236902 -0.09662486613 1.189233662e-38
-0.002680584323 -0.4909394383 0.1307627261 5.492179136e-40
-0.178317368 -0.2889649868 0.2830194533 5.306009629e-39
0.2881361544 -0.3570716977 -0.07480338216 3.659427881e-39
-0.159452796 -0.1539501846 0.2944756746 8.416219596e-39
0.1887219846 -0.4818891883 -0.1228267252 8.236482049e-40
0.4021929502 -0.3215088546 0.1369949728 4.574195519e-39
0.1181108207 -0.4656975269 -0.1667809337 1.18955526e-39
0.02985678613 -0.4512396455 0.2193107009 1.463985551e-39
-0.04059705883 -0.4689474404 0.2908475399 1.098078496e-39
0.3380913436 -0.3335391879 0.1869160384 4.208288464e-39
-0.1560296118 -0.1999709457 0.2485607862 7.409975195e-39
-0.122424975 -0.3773238063 -0.1467240453 3.202044062e-39
-0.1806410551 -0.03559808806 0.2578629851 1.125199927e-38
-0.1630057096 -0.4563871026 0.01854711585 1.372508787e-39
-0.1129979268 -0.489890039 0.1877199411 5.492179136e-40
-0.2054389417 -0.3340474367 -0.1634327173 4.208288464e-39
0.1290777475 -0.3612021208 0.1248590499 3.567951117e-39
0.2948317528 -0.3912146091 0.177518189 2.927613771e-39
0.2316050082 -0.3756249547 0.03013346717 3.293520826e-39
-0.1450370997 -0.02258255519 0.3418149352 1.152642956e-38
-0.1221626326 -0.1860540807 0.1659826934 7.684405486e-39
0.4518013895 -0.349886179 0.09979148209 3.842381409e-39
0.0771414414 -0.4863670766 0.3673135936 6.406946774e-40
0.2220712602 -0.4068943858 -0.1859780848 2.561706716e-39
-0.1476105899 -0.001270622015 -0.2105693519 1.207529015e-38
0.1552540362 -0.4252342582 0.2870545685 2.104322897e-39
0.1087558046 -0.4914408028 0.1097583547 5.492179136e-40
0.3454999924 -0.4529978335 0.2277332544 1.463985551e-39
-0.1782821268 -0.2428623289 0.3035215139 6.403730794e-39
-0.06615864486 -0.4833886027 0.1129516065 7.321714411e-40
-0.1672856808 -0.380007118 0.2189737111 3.202044062e-39
-0.1777766645 -0.1660366952 -0.08229206502 8.141789305e-39
0.3540219963 -0.4089813828 0.1129801422 2.470229952e-39
0.1882413328 -0.4767947793 -0.1722196937 9.151249686e-40
-0.1779798865 -0.4862736166 0.2519065142 6.406946774e-40
0.02925881371 -0.4590346813 -0.01907633059 1.281032024e-39
-0.03321040049 -0.478702873 -0.04772702977 8.236482049e-40
0.290938437 -0.1843263954 -0.1966052949 7.77588225e-39
0.01673082076 -0.3604835868 0.1847443581 3.659427881e-39
0.2546024621 -0.4619685709 -0.1241427809 1.281032024e-39
0.123523511 -0.4875533879 0.0375097841 6.406946774e-40
0.1069867164 -0.07477779686 -0.2124334723 1.033723163e-38
-0.1497832686 -0.4386698008 0.1385164857 1.829892606e-39
-0.1549330056 -0.3748393655 -0.02336004004 3.293520826e-39
0.254245013 -0.3333485126 0.1534053236 4.299765227e-39
-0.1646028012 -0.009971657768 -0.1903225482 1.180085986e-38
-0.1435220689 -0.2052820772 0.3624622226 7.227021667e-39
0.2063429654 -0.482554853 0.09222953022 7.321714411e-40
-0.06881500036 -0.07173278928 -0.1992124021 1.04287084e-38
0.2294819802 -0.4893172681 -0.1742664427 6.406946774e-40
-0.1592697203 -0.1163480803 0.3712555468 9.330987234e-39
-0.1439910382 -0.2380941212 -0.1044706106 6.495207557e-39
0.2536090016 -0.4917138815 -0.05303329602 5.492179136e-40
0.02818341553 -0.4246205091 0.1088368148 2.104322897e-39
0.339089632 -0.3836119771 0.2624732852 3.110567299e-39
0.2861301899 -0.4489053488 -0.08333407342 1.555462315e-39
-0.1648458093 -0.472599864 0.07590856403 1.006601732e-39
-0.1924168468 -0.4679262042 -0.2059136927 1.098078496e-39
-0.1649699509 -0.2828527391 0.3257769942 5.397486392e-39
0.07623921335 -0.4893096089 0.09287326038 6.406946774e-40
0.02621141449 -0.4736185968 0.3629810214 1.006601732e-39
0.1336548775 -0.398178041 -0.02142970264 2.744660244e-39
0.01871379279 -0.01008449122 -0.2204895467 1.180085986e-38
0.01250846405 -0.3689413369 -0.2227377892 3.38499759e-39
-0.1039107516 -0.4735118151 -0.2020065039 1.006601732e-39
-0.1486090422 -0.06174502149 -0.2067048103 1.061166193e-38
-0.1612737775 -0.1234849095 0.1005036384 9.148033706e-39
-0.1060420275 -0.4461965263 -0.2447988391 1.646939079e-39
0.2524418235 -0.4711676836 -0.2139496803 1.006601732e-39
-0.1502388418 -0.08209665865 0.3002618253 1.015427811e-38
-0.149984017 -0.2100872993 -0.2060980201 7.135544904e-39
0.07967489213 -0.3185042739 -0.2288985252 4.574195519e-39
-0.1304098666 -0.4788725674 0.3364929259 8.236482049e-40
-0.1481584758 -0.3115649521 0.173655808 4.757149046e-39
-0.1260083914 -0.4908920825 0.04547844082 5.492179136e-40
0.4217885435 -0.387853086 0.2229534239 3.019090535e-39
0.04880802706 -0.06143479049 0.1416577101 1.061166193e-38
-0.1182824001 -0.01223094761 -0.2388907373 1.180085986e-38
0.1474370807 -0.4243634045 -0.188658312 2.104322897e-39
-0.08358990401 -0.4882851541 0.2766328454 6.406946774e-40
-0.001570960507 -0.4955990314 -0.02538924664 4.577411499e-40
0.02607043646 -0.1986130327 -0.2218952328 7.409975195e-39
0.1665934026 -0.3377886713 0.1629510075 4.1168117e-39
-0.07321506739 -0.497290343 -0.1162403673 4.577411499e-40
0.1532701403 -0.4702923596 -0.04762524366 1.006601732e-39
-0.0959424302 -0.4179202616 -0.1864545345 2.287276425e-39
-0.08763636649 -0.3204688728 -0.2551141977 4.574195519e-39
0.1404086798 -0.4921595454 0.05034938082 5.492179136e-40
-0.176213637 -0.00879803393 0.115832679 1.189233662e-38
0.1419828236 -0.3846429288 0.2945079803 3.019090535e-39
0.1263732612 -0.4819571078 0.07225008309 7.321714411e-40
-0.1468300968 -0.4339448214 0.005183873698 1.92136937e-39
-0.1237567365 -0.429867208 0.3355321884 2.012846134e-39
-0.1440327764 -0.2131520659 0.07322237641 7.04406814e-39
-0.1479112208 -0.2988985181 -0.1890599281 5.031579337e-39
-0.0398376137 -0.1683187634 -0.2395251393 8.141789305e-39
0.3261151314 -0.3325178027 0.08603803813 4.299765227e-39
0.1421595514 -0.4923534095 0.1463545561 5.492179136e-40
-0.1812066734 -0.4706667662 -0.09931343794 1.006601732e-39
0.1956856698 -0.4197073877 0.2065776587 2.195799661e-39
-0.160942629 -0.014723951 0.06175551564 1.170938309e-38
0.1874364018 -0.4891029894 0.1071969792 6.406946774e-40
0.3133829832 -0.3929173946 0.232255429 2.836137007e-39
0.0830892399 -0.4916379452 0.1695106328 5.492179136e-40
-0.1596057266 -0.3508814275 0.05165028572 3.842381409e-39
0.1338558942 -0.2998129129 -0.2276862711 5.031579337e-39
-0.1428329051 -0.1602324396 -0.2499984056 8.324742832e-39
-0.1164618507 -0.4877455533 0.3347829878 6.406946774e-40
0.13264063 -0.4865157604 -0.2260744423 6.406946774e-40
0.2966032028 -0.4032367766 -0.2083030045 2.65318348e-39
0.1236988604 -0.4868330359 0.160176605 6.406946774e-40
0.02821479738 -0.04576995969 -0.2487202883 1.097756898e-38
-0.1623537689 -0.03407732397 0.2124982029 1.125199927e-38
0.091647394 -0.4873659909 0.0377875343 6.406946774e-40
-0.005066867918 -0.4603903294 -0.125564605 1.281032024e-39
0.3620093465 -0.3793837428 0.005314332433 3.202044062e-39
0.09235884249 -0.06028557941 0.07914467901 1.061166193e-38
0.4313513041 -0.3574558198 0.2456394434 3.659427881e-39
-0.1072027981 -0.2191775441 -0.01232877374 6.952591376e-39
-0.1659516394 -0.1864958405 0.2729591727 7.684405486e-39
0.2072178721 -0.448744148 -0.2439901531 1.555462315e-39
0.2415042967 -0.3198316991 0.2231380641 4.574195519e-39
0.1778078377 -0.4794634879 -0.08172187954 8.236482049e-40
-0.190415293 -0.3764657974 0.2926999927 3.202044062e-39
-0.1878416389 -0.4698756933 -0.03814937547 1.098078496e-39
0.00821762532 -0.37782076 0.1402594447 3.202044062e-39
0.1035738215 -0.484059155 -0.005890002474 7.321714411e-40
-0.1713041812 -0.3539513946 0.02430742048 3.750904645e-39
0.1864051372 -0.147899583 -0.2234436125 8.599173124e-39
0.3219277859 -0.4761800468 0.1142542064 9.151249686e-40
0.3804035187 -0.3793967068 -0.1263316572 3.202044062e-39
-0.1506601721 -0.2520859241 0.3486849368 6.129300502e-39
0.2821305692 -0.4714943767 -0.1326141506 1.006601732e-39
0.2783085406 -0.4907281995 0.006735600531 5.492179136e-40
-0.1460451484 -0.461037755 -0.1005330011 1.281032024e-39
-0.1619958431 -0.2430700511 0.01326132193 6.403730794e-39
0.3391032219 -0.4605125189 -0.0673828125 1.281032024e-39
-0.1474496275 -0.3634904623 0.3854680955 3.567951117e-39
0.2813094258 -0.364482522 -0.1266606301 3.567951117e-39
-0.1443811953 -0.4861310422 0.2961944938 6.406946774e-40
-0.1369136721 -0.03373265266 0.3062439859 1.125199927e-38
-0.1708429605 -0.08632416278 0.04371618107 1.006280134e-38
-0.08021375537 -0.4801622033 0.3599247634 8.236482049e-40
-0.06019246206 -0.4864653647 0.1431184113 6.406946774e-40
-0.0770073086 -0.3570464253 -0.2396685928 3.659427881e-39
0.3644911349 -0.3551643193 0.2338425666 3.750904645e-39
0.0474261269 -0.5102171302 0.01431855932 9.183409486e-41
0.08828647435 -0.4813997447 0.2175815701 8.236482049e-40
0.2722687125 -0.3592317998 0.1055113673 3.659427881e-39
-0.1684754491 -0.3652094305 0.1303498149 3.476474354e-39
-0.1602468342 -0.1292529255 0.1948894411 9.056556942e-39
0.2833922803 -0.4879843593 -0.1899128705 6.406946774e-40
-0.1542794406 -0.2991280556 0.4119524956 5.031579337e-39
-0.1642860472 -0.2670970857 0.137256518 5.763393447e-39
-0.01739658229 -0.4880354404 0.3730044067 6.406946774e-40
0.1169084907 -0.467328608 0.3486357033 1.098078496e-39
0.243064791 -0.3035851419 -0.1852666736 4.940102574e-39
0.4460117221 -0.3128510118 0.132058233 4.757149046e-39
-0.1344237477 -0.4785991311 -0.1826332808 8.236482049e-40
-0.1315902323 -0.4804194868 0.1592485756 8.236482049e-40
-0.1838598549 -0.4905230105 0.1128767431 5.492179136e-40
0.1009814069 -0.211909771 -0.2317411304 7.135544904e-39
0.355199635 -0.335187912 0.05913279206 4.208288464e-39
0.01524929423 -0.4697538316 0.07442442328 1.098078496e-39
-0.01532595605 -0.4850364923 -0.107819438 7.321714411e-40
-0.1712795198 -0.478430301 0.3703148961 8.236482049e-40
-0.1058290526 -0.2141414881 -0.2524044812 7.04406814e-39
0.009529518895 -0.471824795 -0.2421212941 1.006601732e-39
0.1290399581 -0.07373982668 -0.2296426296 1.033723163e-38
-0.07608095556 -0.4705331624 -0.06325305998 1.006601732e-39
-0.06240807101 0.02911301143 -0.2244123369 1.271562749e-38
-0.04614159837 -0.4909572601 0.1457089335 5.492179136e-40
0.1647691429 -0.4412813783 -0.2192073762 1.738415842e-39
0.1439903527 -0.4037009478 0.2396592051 2.65318348e-39
-0.1466366798 -0.2374664992 0.2766695619 6.495207557e-39
-0.1258759946 -0.2794410884 -0.2133775204 5.488963156e-39
0.03712813556 -0.1267981231 -0.2113039643 9.056556942e-39
0.3815063536 -0.3901185989 0.2009948194 2.927613771e-39
0.1904589534 -0.4208001196 -0.09490547329 2.195799661e-39
-0.1284557879 -0.1532032639 -0.06621357799 8.50769636e-39
0.3108652532 -0.3102199435 -0.2091519982 4.757149046e-39
-0.1428170949 -0.4038884342 0.08209235221 2.561706716e-39
-0.1432748139 -0.4887395203 0.1127859801 6.406946774e-40
-0.1448093057 -0.4329628944 -0.1419816911 1.92136937e-39
0.3149369955 -0.4609866738 -0.1507135332 1.281032024e-39
-0.1659292132 -0.3569624424 0.2193998247 3.659427881e-39
0.09446708858 -0.4014397562 0.1260115206 2.65318348e-39
-0.1555300057 -0.4672168195 0.1363787055 1.098078496e-39
-0.1567893773 -0.2750282884 -0.07876968384 5.58043992e-39
-0.1537912935 -0.06260658056 -0.06309180707 1.061166193e-38
-0.1253769398 -0.2137909532 -0.1418893337 7.04406814e-39
0.3951396346 -0.3542637229 0.0008793261368 3.750904645e-39
0.01535081863 -0.497983098 0.1331406087 3.662643861e-40
-0.1660886407 -0.0678922087 0.3296204805 1.04287084e-38
0.3066925406 -0.421670109 0.1800853759 2.195799661e-39
0.01328985766 -0.4755775928 0.1716859937 9.151249686e-40
0.2045491636 -0.4742179513 0.1421473473 9.151249686e-40
-0.1459978074 -0.06226307154 0.1856862009 1.061166193e-38
0.281650722 -0.2231052667 -0.2067968547 6.861114612e-39
-0.1663662493 -0.418273896 0.2958911955 2.287276425e-39
-0.1621054113 -0.274089396 0.005078533199 5.671916684e-39
0.2199323773 -0.4551821053 -0.2316574603 1.372508787e-39
-0.0479978174 -0.4749057591 0.04047876224 9.151249686e-40
0.1401467919 -0.4719274342 0.2239309549 1.006601732e-39
0.05825190991 -0.4845799506 -0.1537559032 7.321714411e-40
-0.1702811271 -0.002677097917 -0.03660248965 1.198381338e-38
0.1776527166 -0.4836212397 0.04255919904 7.321714411e-40
-0.1465460211 -0.2577917278 0.2267357111 6.037823739e-39
0.4016802311 -0.3846981525 0.003692794591 3.019090535e-39
-0.143909201 -0.1872755736 0.3146180511 7.684405486e-39
-0.1418023109 0.03523613513 -0.09493055195 1.289858102e-38
-0.1924259216 -0.3373121619 -0.1463412046 4.208288464e-39
0.2091656476 -0.3627335429 -0.2150564045 3.567951117e-39
-0.07923559844 -0.2754888833 -0.2262877226 5.58043992e-39
-0.1413052231 -0.4381105006 0.1982213259 1.829892606e-39
0.158220157 -0.450537324 0.02394701913 1.555462315e-39
-0.04886633158 -0.488009423 0.1476445943 6.406946774e-40
-0.003361007199 -0.3496827781 0.09973789006 3.842381409e-39
-0.1301463544 -0.2885036767 0.1079846919 5.306009629e-39
-0.1241785437 -4.680536222e-06 -0.2274300903 1.207529015e-38
0.03387350217 -0.3848070502 -0.2279575467 3.019090535e-39
0.420024395 -0.3997523189 -0.0441875346 2.744660244e-39
0.23278974 -0.489009589 -0.1868211627 6.406946774e-40
0.195596844 -0.362426579 0.1379260123 3.567951117e-39
0.4313117266 -0.4440582693 0.08144710958 1.646939079e-39
-0.1846406609 -0.4843277633 -0.08235645294 7.321714411e-40
0.2026425898 -0.4820291698 -0.1558413953 7.321714411e-40
0.03588558361 -0.489320606 0.1521303952 6.406946774e-40
-0.1583757699 -0.4652261734 0.0984435305 1.18955526e-39
0.2324921936 -0.1273489594 -0.2455026209 9.056556942e-39
0.2324210554 -0.4828743935 -0.1377788335 7.321714411e-40
-0.05533455312 -0.367487222 0.2072943747 3.476474354e-39
0.1345847398 -0.09329531342 0.05600418895 9.879847816e-39
0.1537393183 -0.3374240696 0.2352486402 4.1168117e-39
-0.05490491167 -0.495154947 0.1429457963 4.577411499e-40
-0.1144575626 -0.1676396132 -0.2084226608 8.141789305e-39
0.1245429739 -0.4145305157 0.2989805639 2.378753189e-39
0.1021803692 -0.4725954235 -0.2280051261 1.006601732e-39
-0.1447970569 -0.01351555251 -0.11636208 1.170938309e-38
0.1649316847 -0.4680030048 -0.2315907627 1.098078496e-39
-0.1687716693 -0.1683881879 0.1617604047 8.141789305e-39
-0.1557296515 -0.1129202694 0.01091635041 9.422463997e-39
-0.1311289668 -0.02476387843 0.01431850716 1.152642956e-38
-0.1484246552 -0.1283978373 0.2616327405 9.056556942e-39
0.2328814119 -0.3253420293 -0.127896592 4.482718755e-39
0.1683309227 -0.4810990095 -0.04954278842 8.236482049e-40
-0.02919883654 -0.3758318126 -0.2261252105 3.293520826e-39
-0.0538052544 -0.4881105125 -0.1892786622 6.406946774e-40
0.246194765 -0.2131105214 -0.2142786682 7.04406814e-39
0.2086947411 -0.4881105125 0.06072133407 6.406946774e-40
-0.1413052231 0.02438946627 0.1357213259 1.262415073e-38
0.1100278869 -0.262773633 -0.214610815 5.946346975e-39
-0.1568286419 -0.1259006411 -0.1877457052 9.148033706e-39
-0.1758808792 -0.4157339036 -0.1916324049 2.287276425e-39
-0.1456635296 -0.1623296589 0.1072394401 8.233266069e-39
-0.09157475084 -0.4809035659 0.0434420146 8.236482049e-40
0.1497502476 -0.3833120465 -0.08409038931 3.110567299e-39
-0.1413643062 -0.3131140769 -0.05084910616 4.757149046e-39
0.3455851674 -0.4519296587 0.2360017002 1.463985551e-39
0.2566096783 -0.3596259356 -0.24983643 3.659427881e-39
0.3692380488 -0.3625937402 -0.06517615169 3.567951117e-39
0.3263747096 -0.3405915499 0.1365953088 4.1168117e-39
0.06670831144 -0.4723694324 -0.05816114694 1.006601732e-39
-0.1518730819 -0.4072448611 0.1721148789 2.561706716e-39
-0.1573014408 -0.4831158221 0.2195127904 7.321714411e-40
0.08329737186 -0.4817170501 -0.1865686029 8.236482049e-40
0.1236389577 -0.3603312373 -0.2207680792 3.659427881e-39
-0.005052434281 -0.4648254216 0.1548974663 1.18955526e-39
0.1710148454 -0.3737957776 1.790374517e-05 3.293520826e-39
0.1269541979 -0.4727086723 0.1631157249 1.006601732e-39
0.01296093035 -0.4858083129 -0.05471786112 7.321714411e-40
0.3505504131 -0.3503830433 0.04268533736 3.842381409e-39
0.1638936549 -0.3354427516 0.08846677095 4.208288464e-39
0.182407558 -0.1996993721 -0.2237485945 7.409975195e-39
0.3284790814 -0.3842811286 0.2701198161 3.019090535e-39
0.4464162886 -0.3362828493 0.04913061857 4.208288464e-39
-0.1612387151 0.00201119855 -0.1453917027 1.207529015e-38
-0.1353798509 -0.4873590767 -0.1124648303 6.406946774e-40
-0.02943940088 -0.2608249485 -0.2220434546 5.946346975e-39
-0.1127943918 -0.4613418579 -0.2407176197 1.281032024e-39
-0.1468696296 -0.4744623303 -0.1192845255 9.151249686e-40
-0.02906255424 -0.4923631549 0.07667764276 5.492179136e-40
-0.140792951 -0.09399607778 -0.1964884102 9.879847816e-39
-0.187228784 -0.3600715995 0.363961041 3.659427881e-39
-0.1585722119 0.03578049317 0.0777021125 1.289858102e-38
-0.1444121599 -0.4897124767 0.1444621682 6.406946774e-40
-0.1646656394 -0.162279278 0.3466618955 8.233266069e-39
-0.1632442921 -0.05302492157 0.1194930971 1.079461545e-38
-0.1555082053 -0.4235047996 -0.2244475335 2.104322897e-39
0.2324445844 -0.3366199732 0.1433125436 4.208288464e-39
0.25778386 -0.4878210127 -0.06278049946 6.406946774e-40
0.03367585689 -0.4642508626 0.2684776783 1.18955526e-39
0.05111286417 -0.3986088336 0.1686796695 2.744660244e-39
0.3809478283 -0.4267150462 0.09525462985 2.104322897e-39
-0.1384291351 -0.4629882574 -0.2466605604 1.18955526e-39
0.2682783604 -0.3756863773 -0.02763496339 3.293520826e-39
0.3617199659 -0.440761894 0.1845111847 1.738415842e-39
-0.1383530647 -0.3471731544 0.3204566538 3.933858172e-39
-0.1361730546 -0.4762081504 0.2425853759 9.151249686e-40
0.276840359 -0.4680394232 -0.1526707709 1.098078496e-39
0.01114573795 -0.4324840009 -0.2219356745 1.92136937e-39
0.1951589733 -0.06265237182 -0.2122476697 1.061166193e-38
-0.1509407163 -0.05876596272 -0.1417229474 1.070313869e-38
0.1801549047 -0.2876581848 -0.2272205055 5.306009629e-39
-0.1474982053 -0.18731381 -0.1129917204 7.684405486e-39
0.03281120583 -0.4734994769 -0.1999510378 1.006601732e-39
0.3567351103 -0.4636126459 -0.01601526327 1.18955526e-39
-0.01068299823 -0.4216397107 0.1441293508 2.195799661e-39
0.03932308406 -0.4771306515 0.04076941311 9.151249686e-40
0.2699425519 -0.1791632324 -0.2294013351 7.867359014e-39
-0.1555996835 -0.4903110862 -0.008994724602 5.492179136e-40
0.267617166 -0.424498558 -0.2282415926 2.104322897e-39
0.08958935738 -0.03125230595 0.06399243325 1.134347604e-38
-0.1601038277 -0.03728662059 0.07491080463 1.116052251e-38
-0.1408108026 -0.4369431436 0.1082909182 1.829892606e-39
0.1533313543 -0.4784217477 0.1161936074 8.236482049e-40
0.2629869878 -0.4096778035 0.2990946174 2.470229952e-39
0.4196608365 -0.3125347793 0.2342726439 4.757149046e-39
0.1776015013 -0.4906679094 -0.02494588494 5.492179136e-40
-0.02307027392 -0.1075270921 -0.2121987045 9.513940761e-39
-0.1381767392 -0.4735553861 0.190257296 1.006601732e-39
0.1452476233 -0.0694880113 0.1078729331 1.04287084e-38
0.0620415099 -0.06179664657 -0.2326413095 1.061166193e-38
-0.1798992753 -0.2184733152 -0.0517135188 6.952591376e-39
-0.162393868 -0.4846841097 0.02219950408 7.321714411e-40
0.1391928941 -0.4828923643 -0.1656808704 7.321714411e-40
-0.1871940792 -0.2467581481 0.3469418883 6.31225403e-39
0.006652850658 -0.4721763134 -0.1100220382 1.006601732e-39
0.1968807876 -0.4828667641 0.120509088 7.321714411e-40
-0.07306858152 -0.4676994979 0.02084496059 1.098078496e-39
0.01162753627 -0.1980007738 -0.224104166 7.409975195e-39
0.2134421021 -0.4936154187 -0.02879313566 5.492179136e-40
-0.1353289187 -0.4938000143 0.1225961298 4.577411499e-40
0.3613168299 -0.4530001283 0.1172456518 1.463985551e-39
-0.1140540689 -0.2863709927 -0.1907527596 5.397486392e-39
-0.08688879758 -0.4784357548 0.3240466118 8.236482049e-40
-0.1643743515 -0.4728698432 0.004387636669 1.006601732e-39
0.3082042336 -0.3367679715 0.03915510699 4.208288464e-39
0.2031662762 -0.4355461001 0.2386047691 1.829892606e-39
-0.1533314586 -0.3696766198 0.1259648353 3.38499759e-39
0.1721076965 -0.490521729 0.04027850926 5.492179136e-40
-0.1553644985 -0.03606623411 -0.04762195051 1.125199927e-38
-0.1465275139 -0.1256666929 -0.1202066839 9.148033706e-39
-0.1905916631 -0.4698787332 0.2837460637 1.098078496e-39
0.2152329087 -0.3377308547 0.05720932782 4.1168117e-39
-0.1181078106 -0.4695518911 0.3783747256 1.098078496e-39
-0.1549334973 -0.1871739626 0.04330981523 7.684405486e-39
0.1547334492 -0.3992625475 0.1689552069 2.744660244e-39
0.1559467912 -0.435318023 -0.05776083469 1.829892606e-39
-0.1050747931 0.02307266742 -0.2173803002 1.262415073e-38
-0.1407679468 -0.4364356399 0.3364773691 1.829892606e-39
0.2567954063 -0.2875417769 -0.2409750521 5.306009629e-39
0.2320151627 -0.4062774777 0.2638728023 2.561706716e-39
-0.1413745582 -0.2996679544 0.07426904887 5.031579337e-39
0.1376549602 -0.1992879659 -0.2372291982 7.409975195e-39
0.07124341279 -0.2222869545 -0.1963252872 6.861114612e-39
0.4035882652 -0.3620535433 0.1707406491 3.567951117e-39
0.1065799072 -0.4873767793 0.3228183091 6.406946774e-40
0.3158755004 -0.465394944 -0.1286279708 1.18955526e-39
-0.1542726904 -0.4309721291 0.3575471342 2.012846134e-39
0.1389145106 -0.4595036805 -0.2291916013 1.281032024e-39
-0.03262946382 -0.02580227144 -0.2298088074 1.14349528e-38
0.02525833994 -0.3107978404 -0.2128371149 4.757149046e-39
0.4229946136 -0.4179670215 -0.002537238179 2.287276425e-39
0.08992165327 -0.06337803602 0.1603293717 1.061166193e-38
0.1713472605 -0.363535732 -0.1239079982 3.567951117e-39
-0.1752460599 -0.04954376072 0.1747108549 1.088609222e-38
-0.1302802116 -0.3471415341 0.01335100923 3.933858172e-39
0.2468566149 -0.3250953257 -0.2153840661 4.482718755e-39
0.1079304889 -0.475466758 0.07380519807 9.151249686e-40
-0.1415589899 -0.3002554476 -0.1388788521 5.031579337e-39
-0.1324590147 -0.4667938352 0.01000590157 1.098078496e-39
-0.1660492122 -0.4673641324 0.2312369943 1.098078496e-39
0.2788661122 -0.453551054 -0.2142954171 1.463985551e-39
-0.168024987 -0.05451112986 0.006586728618 1.079461545e-38
-0.1645374 -0.04396026582 -0.1816895455 1.106904574e-38
-0.142243132 -0.1380105019 0.1844887435 8.873603415e-39
0.184934482 -0.3912070096 0.2935438752 2.927613771e-39
-0.1551860869 0.01220886968 0.275955677 1.234972044e-38
-0.1496886015 -0.4256069958 -0.1304894239 2.104322897e-39
-0.1693971753 -0.4895114303 0.06423094869 6.406946774e-40
-0.1418171972 -0.3502429128 -0.2117815763 3.842381409e-39
0.06792588532 -0.484946996 0.2713266611 7.321714411e-40
-0.04512246326 -0.4836434126 -0.219249934 7.321714411e-40
-0.09876220673 -0.4749678969 0.1522988379 9.151249686e-40
-0.1590912491 -0.2875830531 0.3562548459 5.306009629e-39
0.03922101855 -0.1620126218 -0.2251477093 8.233266069e-39
-0.1640292108 -0.4417743385 -0.05094303191 1.738415842e-39
-0.05419288948 -0.4688848853 -0.1277559251 1.098078496e-39
-0.1424328387 -0.3888147473 0.3121332228 2.927613771e-39
0.1073544621 -0.4501871765 -0.2128887326 1.555462315e-39
0.233542949 -0.4235696495 -0.04420173168 2.104322897e-39
0.01189579722 -0.4763027132 0.3336689472 9.151249686e-40
-0.1319971085 0.01574527659 -0.05758689716 1.24411972e-38
0.1414711177 -0.3932729959 0.08038500696 2.836137007e-39
0.3691796064 -0.3889639974 0.2463665158 2.927613771e-39
0.04136828706 -0.4724956751 -0.2263762653 1.006601732e-39
0.2207400799 -0.1644575447 -0.2126294374 8.233266069e-39
0.2432802618 -0.3765313625 -0.1155489758 3.202044062e-39
0.1446393728 -0.4939052463 -0.02301974595 4.577411499e-40
0.4073840678 -0.4000932574 -0.0776065439 2.65318348e-39
-0.1528044194 0.01190891303 -0.2283532768 1.234972044e-38
-0.1551985145 -0.4865536094 -0.2110637724 6.406946774e-40
0.08115241677 -0.3680976629 -0.2134938091 3.476474354e-39
-0.07297584414 -0.4833683372 0.2559014261 7.321714411e-40
0.3235718608 -0.473092854 -0.05242576078 1.006601732e-39
-0.08583049476 -0.4903660119 -0.2402563989 5.492179136e-40
-0.1485294104 0.01899752021 0.1937519759 1.253267397e-38
0.05813208967 -0.4858682752 0.07699108124 6.406946774e-40
-0.1439858377 -0.03745270893 0.3680001497 1.116052251e-38
0.1122203544 -0.1099270955 -0.2280867994 9.513940761e-39
0.2360113859 -0.475952059 0.1605955213 9.151249686e-40
-0.1537204236 -0.3071818948 -0.2096316516 4.84862581e-39
0.0113462694 -0.4823741317 0.218154937 7.321714411e-40
-0.2277398705 -0.4900770485 0.2100687623 5.492179136e-40
0.2972198725 -0.4904474318 0.04938446358 5.492179136e-40
-0.1576295346 -0.2499641478 -0.04135558009 6.220777266e-39
-0.08968439698 -0.05053912848 -0.229525134 1.088609222e-38
0.156681478 -0.1108890325 -0.2110418528 9.422463997e-39
-0.1260620356 -0.2353151143 -0.2466254383 6.586684321e-39
-0.1350131631 -0.4780208468 -0.1942532361 8.236482049e-40
0.279773742 -0.4259328544 -0.01428159885 2.104322897e-39
0.05575238168 -0.23826693 -0.2252305597 6.495207557e-39
0.07982178777 -0.3648697138 0.1860836744 3.476474354e-39
-0.1290905327 -0.1262406409 0.03601356968 9.148033706e-39
0.02519563958 -0.4969801307 -0.055483751 4.577411499e-40
-0.157198146 -0.174203366 -0.1815735996 7.958835777e-39
-0.1399128139 -0.4375634193 0.04415042326 1.829892606e-39
0.148508653 -0.4879709184 -0.1240202785 6.406946774e-40
-0.1615861058 -0.4866626561 0.3189800084 6.406946774e-40
-0.1075491607 -0.3664887249 -0.2151922137 3.476474354e-39
-0.0955606252 -0.4875206351 0.1907973289 6.406946774e-40
0.07080830634 -0.05253487825 -0.1934418827 1.079461545e-38
-0.1305865198 -0.4662322402 0.1749750525 1.18955526e-39
-0.1596904844 -0.1873477846 0.1465061307 7.684405486e-39
0.2070287168 -0.46963498 -0.1528140604 1.098078496e-39
-0.1632175297 -0.4632877111 0.3026494682 1.18955526e-39
0.2697909772 -0.3630303442 0.2451877147 3.567951117e-39
0.2593765855 -0.4495692849 -0.1057436913 1.555462315e-39
-0.1596330553 -0.4648502469 -0.07038769126 1.18955526e-39
0.1630944908 -0.4893554449 -0.03272866085 6.406946774e-40
0.151640147 -0.4601332247 0.2567023337 1.281032024e-39
0.1347323358 -0.4109850228 0.08761762828 2.470229952e-39
0.3666295111 -0.3874359727 -0.1117603853 3.019090535e-39
-0.06319213659 -0.4698505402 0.07722920924 1.098078496e-39
0.07175058872 -0.4767105877 0.3388395607 9.151249686e-40
0.3362396657 -0.4043028057 0.2971584797 2.561706716e-39
0.3445072174 -0.3370786607 0.181945011 4.208288464e-39
-0.1625020653 -0.4877372682 0.2180977613 6.406946774e-40
0.05306163803 -0.07457552105 0.1074359417 1.033723163e-38
0.1720984876 -0.4695594311 -0.08106608689 1.098078496e-39
-0.1660190225 -0.02730543539 0.3173823655 1.14349528e-38
-0.1718535274 -0.1852206588 0.2310613841 7.684405486e-39
-0.1412212104 -0.1494687349 -0.02367118746 8.599173124e-39
0.1617912948 -0.4035536051 -0.2106711268 2.65318348e-39
-0.1338459253 -0.2807696462 0.3233228028 5.488963156e-39
0.1922027469 -0.4705816805 0.09751987457 1.006601732e-39
-0.05562762916 -0.1758141369 -0.213040635 7.958835777e-39
-0.1405017376 -0.287825346 0.1360669285 5.306009629e-39
-0.1297573447 -0.06404673308 0.1094390675 1.052018516e-38
-0.02123058215 -0.3198733926 -0.2291685641 4.574195519e-39
-0.141152367 -0.2377561778 -0.1645175517 6.495207557e-39
-0.141836822 -0.3755207658 -0.2259893715 3.293520826e-39
-0.004188963212 -0.3258120716 0.1238985658 4.391241991e-39
0.121154137 -0.4874509275 -0.07368063927 6.406946774e-40
0.4547911286 -0.3594997227 0.1751539707 3.659427881e-39
0.2589708269 -0.3609622121 0.1732987314 3.567951117e-39
-0.157562688 -0.1627907455 -0.2159785777 8.233266069e-39
0.0578376092 -0.4845853746 0.04687798023 7.321714411e-40
0.2196469903 -0.4070908725 -0.2506377697 2.561706716e-39
0.01904129051 -0.3997770846 -0.2473385334 2.744660244e-39
0.1903053969 -0.374293685 0.2387820631 3.293520826e-39
0.3449327052 -0.4320138693 -0.04620156437 1.92136937e-39
0.2726739049 -0.3617971838 -0.2101089209 3.567951117e-39
-0.1358675212 -0.1703159958 0.286655724 8.050312541e-39
0.09218699485 -0.4252130091 0.185407877 2.104322897e-39
0.1423043758 -0.3261759877 0.1877725571 4.391241991e-39
0.03369580582 -0.4890814424 0.1816473007 6.406946774e-40
0.3909362257 -0.3644824624 0.1309964508 3.567951117e-39
0.04177208617 -0.4666676223 -0.1544066072 1.098078496e-39
0.210151732 -0.4742303491 -0.2179419994 9.151249686e-40
-0.008804880083 -0.4888643324 0.2106936425 6.406946774e-40
0.1682470143 -0.4931266308 0.03141715378 5.492179136e-40
0.1319137812 -0.4373508394 0.03774107993 1.829892606e-39
-0.1615971327 -0.3892514408 -0.1110147461 2.927613771e-39
0.1830948442 -0.4493737519 -0.225053966 1.555462315e-39
0.3328650892 -0.3673585653 0.1360252351 3.476474354e-39
-0.1412306428 -0.0378508307 0.2481098473 1.116052251e-38
-0.0914972499 -0.4880809188 -0.2014850825 6.406946774e-40
0.1836720854 -0.3132133186 0.03579291701 4.757149046e-39
-0.1425367892 -0.2001673132 0.2362463623 7.409975195e-39
0.04063870758 -0.4653552771 -0.2545604706 1.18955526e-39
0.05786960945 -0.0004382892803 -0.227800414 1.207529015e-38
0.1291352808 -0.4702228606 -0.1745066494 1.006601732e-39
0.1856695861 -0.4711017311 0.1789209545 1.006601732e-39
-0.04618109763 -0.4952183366 -0.09641470015 4.577411499e-40
-0.02684794553 -0.05437127501 -0.22875534 1.079461545e-38
0.1592945307 -0.4500629306 0.3486482501 1.555462315e-39
0.1740476042 -0.3848294318 -0.05085851252 3.019090535e-39
-0.1527894586 0.02695799991 -0.1755920351 1.271562749e-38
0.219860822 -0.2497468889 -0.2276754379 6.220777266e-39
-0.1405685395 -0.1158962697 -0.1707701087 9.330987234e-39
0.2191927582 -0.4765839577 -0.003022674471 9.151249686e-40
-0.06730306894 -0.4876060188 0.3979043663 6.406946774e-40
0.2822319865 -0.470926702 0.005551990122 1.006601732e-39
0.1006093845 -0.3449704945 -0.2274134159 4.025334936e-39
-0.1434047222 -0.3379604816 0.2585574389 4.1168117e-39
-0.1395400316 -0.434619844 -0.1702766418 1.92136937e-39
0.3675317764 -0.3821485341 0.2055262774 3.110567299e-39
0.01145258732 -0.4808247685 -0.2557913065 8.236482049e-40
-0.03167059645 -0.4990157187 0.09826262295 3.662643861e-40
-0.1751258373 -0.4888166785 0.158202827 6.406946774e-40
0.009596586227 -0.4855918586 0.3516259491 7.321714411e-40
-0.160873428 -0.1098984703 0.3608573675 9.513940761e-39
-0.1153087914 -0.2460432351 -0.2125333846 6.31225403e-39
-0.1648121923 -0.3611094654 -0.1967680752 3.567951117e-39
0.1184659079 -0.3287283182 0.04925439507 4.391241991e-39
0.170189783 -0.4006748796 -0.1269117147 2.65318348e-39
0.1429591179 -0.262300849 -0.225706622 5.946346975e-39
0.2806009352 -0.3996391594 0.006792537868 2.744660244e-39
0.4394006729 -0.3528438509 0.07391121984 3.842381409e-39
-0.02108040079 -0.463668704 -0.1596533805 1.18955526e-39
-0.1449265182 -0.2652204335 0.05052615702 5.854870211e-39
-0.1580029428 -0.3381306827 0.4091335833 4.1168117e-39
-0.1560056657 -0.0878867358 0.147935003 9.97132458e-39
0.2577288151 -0.473616004 -0.03222834691 1.006601732e-39
0.04326760396 -0.475523591 0.1016279235 9.151249686e-40
-0.1660871208 -0.08836241066 0.2657617629 9.97132458e-39
-0.237816304 -0.4596179724 0.1454437077 1.281032024e-39
-0.1810233146 -0.4811739922 0.1259960234 8.236482049e-40
-0.07196824998 -0.4768487215 0.1854761839 9.151249686e-40
0.2014447749 -0.486251533 -0.04647529498 6.406946774e-40
-0.1140691414 -0.1824813038 0.4125705063 7.77588225e-39
-0.09944605827 -0.4864747822 -0.09345620871 6.406946774e-40
-0.003939018119 -0.3593903184 0.1740701497 3.659427881e-39
-0.1295641363 -0.4083943665 0.04647037759 2.470229952e-39
-0.07914123684 -0.1253099442 -0.213738814 9.148033706e-39
0.05694385618 -0.03796732053 0.08683334291 1.116052251e-38
-0.1352940798 -0.4903993011 -0.02581335232 5.492179136e-40
-0.159401387 -0.1303094327 -0.01600713842 9.056556942e-39
0.2700958848 -0.1136043519 -0.2151891291 9.422463997e-39
0.202698499 -0.4131228924 -0.01523277629 2.378753189e-39
-0.1602550596 -0.4647479951 0.01158516016 1.18955526e-39
0.3155203462 -0.4749739468 -0.1739366055 9.151249686e-40
0.1946998239 -0.313170135 -0.1219880283 4.757149046e-39
-0.1624592394 0.0005262568593 0.2210365087 1.207529015e-38
0.01286213472 -0.25911659 -0.2319684029 6.037823739e-39
0.2627912462 -0.3386083245 0.08540607989 4.1168117e-39
-0.1667308509 -0.4894747138 0.3049988747 6.406946774e-40
0.1184342653 -0.4850734472 0.2575752437 7.321714411e-40
0.1437457055 -0.06193000078 0.08024641126 1.061166193e-38
-0.1702060997 -0.4690177441 0.06544834375 1.098078496e-39
-0.1230036467 -0.481474787 0.2524216771 8.236482049e-40
-0.1155501083 -0.2157714069 -0.2553405464 7.04406814e-39
-0.040090736 -0.4245032668 -0.2290775478 2.104322897e-39
0.08088451624 -0.3628361225 0.08810510486 3.567951117e-39
0.08346287906 -0.4132547975 -0.2263616323 2.378753189e-39
0.1214763373 -0.1750783473 -0.2131673247 7.958835777e-39
-0.1619832367 -0.1563409269 0.07773015648 8.416219596e-39
0.198539272 -0.353928417 0.1748697758 3.750904645e-39
-0.07950037718 0.01132111624 -0.2119578272 1.234972044e-38
0.08952089399 -0.472491473 -0.05927846581 1.006601732e-39
0.345297724 -0.3649281859 -0.01095815562 3.476474354e-39
0.03664542735 -0.07429142296 -0.2183811963 1.033723163e-38
0.02849726565 -0.4726960659 0.1778263599 1.006601732e-39
0.1202071831 -0.3753608763 0.2267933637 3.293520826e-39
-0.1323883235 -0.0259363614 -0.02173334733 1.14349528e-38
0.2277412564 -0.350222528 0.006412565708 3.842381409e-39
0.07731116563 -0.05288720503 0.1772202998 1.079461545e-38
0.09073991328 -0.4834288359 -0.1940548122 7.321714411e-40
0.2957133949 -0.4877502322 -0.1976495981 6.406946774e-40
0.2452422976 -0.3462913632 0.2242925614 3.933858172e-39
0.3069655895 -0.4842689633 0.04593241215 7.321714411e-40
-0.1430211663 0.03814028203 0.04541428387 1.299005778e-38
-0.1597026289 -0.2506226897 0.2460820526 6.220777266e-39
0.09321028739 -0.4987481534 0.2115788758 3.662643861e-40
-0.1362838447 -0.4868448973 0.09189663082 6.406946774e-40
0.1997773647 -0.4801937938 -0.1480133832 8.236482049e-40
-0.19001773 -0.3597174883 0.1778383702 3.659427881e-39
-0.1676706374 -0.04943206906 0.3198532164 1.088609222e-38
-0.1632429361 -0.005932146683 -0.1770234108 1.189233662e-38
0.258536309 -0.41072613 -0.07497361302 2.470229952e-39
-0.1377052069 -0.2119736671 -0.1007016152 7.135544904e-39
0.007474119309 -0.1755547971 -0.2139388621 7.958835777e-39
-0.0660315305 -0.4878799021 0.2353203446 6.406946774e-40
-0.1548588276 -0.3636007309 -0.02593749017 3.567951117e-39
0.2700625062 -0.3259956241 -0.1384936422 4.391241991e-39
-0.1846563071 -0.4676516056 -0.03036366962 1.098078496e-39
-0.02285551466 -0.469234556 0.2822595537 1.098078496e-39
0.1946880221 -0.4000150561 0.3323794901 2.65318348e-39
0.1229702085 -0.03655125946 -0.2292752266 1.125199927e-38
-0.01471165847 -0.4080437422 0.1713643372 2.470229952e-39
-0.1223227531 -0.4870953858 -0.1083863303 6.406946774e-40
-0.1555045694 -0.1993482858 0.1021855026 7.409975195e-39
0.269628495 -0.2819562256 -0.2132242769 5.488963156e-39
-0.1571377814 -0.05002360791 0.3833895922 1.088609222e-38
0.4335482419 -0.4008785784 -0.01686917059 2.65318348e-39
-0.1144837812 -0.4811410904 -0.2307162732 8.236482049e-40
-0.1556040794 -0.1150701568 -0.07392439991 9.330987234e-39
-0.1906184107 -0.4880842268 0.1197866723 6.406946774e-40
-0.1626382917 -0.356390655 0.1669552028 3.750904645e-39
-0.15264678 -0.2999003232 -0.07886778563 5.031579337e-39
0.2071370482 -0.06327880919 -0.2238924652 1.061166193e-38
-0.2046110034 -0.4846720994 0.281519711 7.321714411e-40
0.3576759696 -0.3379823864 0.2462898344 4.1168117e-39
-0.1521147341 -0.3486091793 0.07407131791 3.933858172e-39
-0.1633971035 -0.2751092613 0.3834261596 5.58043992e-39
-0.1408196539 -0.3493570387 -0.1759645939 3.842381409e-39
-0.1502429843 -0.4381309748 -0.07843111455 1.829892606e-39
-0.05522842705 -0.4985362291 0.01027814578 3.662643861e-40
0.008589322679 -0.4883975089 -0.1248933077 6.406946774e-40
-0.1538965851 -0.1759886742 0.324336499 7.958835777e-39
0.1595005244 -0.3631480932 0.03519705683 3.567951117e-39
0.3090272248 -0.438996613 -0.2114256173 1.738415842e-39
-0.1497553289 -0.4212836921 0.3760512173 2.195799661e-39
-0.2000652254 -0.2920189798 -0.05759626999 5.214532865e-39
0.1138295978 -0.4765071273 -0.2552054524 9.151249686e-40
0.04956033826 -0.4954631627 0.1188336909 4.577411499e-40
-0.149728775 -0.1506106108 0.255033493 8.50769636e-39
-0.09812856466 -0.4033066034 -0.1896850318 2.65318348e-39
0.1237936467 -0.4787729084 0.2320653945 8.236482049e-40
-0.0526047051 -0.09422031045 -0.2254803777 9.879847816e-39
0.01528132986 -0.4899333417 -0.01499286667 5.492179136e-40
-0.1426402181 -0.03783711419 -0.1041075364 1.116052251e-38
-0.1398524642 -0.3876422644 0.270781368 3.019090535e-39
-0.03036975861 -0.4876683056 -0.2124939859 6.406946774e-40
-0.02923594601 -0.4880441129 0.1613799185 6.406946774e-40
0.1961438954 -0.125841096 -0.2141181529 9.148033706e-39
0.3970772922 -0.3257844448 0.1143463105 4.391241991e-39
-0.1533560455 0.002866012976 0.04385274649 1.216676691e-38
0.274692893 -0.4834928811 0.1399424076 7.321714411e-40
0.2092229873 -0.4112434089 -0.2216173708 2.470229952e-39
0.06159521267 -0.4706191123 -0.09053242952 1.006601732e-39
-0.1568776369 -0.1996981651 0.1896831095 7.409975195e-39
0.3183228672 -0.3889569044 0.02508913912 2.927613771e-39
-0.1594958901 -0.4818909168 0.3058328032 8.236482049e-40
-0.1427989453 -0.003733381629 0.1376008242 1.198381338e-38
-0.1521745324 -0.1734184325 0.0173729118 7.958835777e-39
0.1271418929 -0.4272284508 0.1730439067 2.012846134e-39
0.01773805544 -0.3370827734 -0.2124815136 4.208288464e-39
0.3032250106 -0.4880765676 -0.1519529969 6.406946774e-40
0.3368669152 -0.468788147 0.2172774971 1.098078496e-39
-0.1618594974 -0.4689703584 -0.1350527108 1.098078496e-39
0.3365867138 -0.4663091004 -0.06321644038 1.098078496e-39
-0.1674298942 -0.3507280052 0.3236671388 3.842381409e-39
-0.05386677757 -0.3383029401 -0.2277107686 4.1168117e-39
0.02003975585 0.01143829338 -0.214332208 1.234972044e-38
0.035900563 -0.4677092731 0.3034648597 1.098078496e-39
0.4552190304 -0.3434426486 0.2244291008 4.025334936e-39
-0.144481346 -0.08780030906 -0.2266257554 9.97132458e-39
-0.06932884455 -0.4870285988 -0.1239357293 6.406946774e-40
0.314592272 -0.3537717164 -0.2188250571 3.750904645e-39
-0.1409998089 -0.1598490179 -0.1438302696 8.324742832e-39
0.1462572664 -0.4265298843 0.3239254653 2.104322897e-39
-0.1439817399 -0.4778499603 0.2317547798 9.151249686e-40
0.28313905 -0.3367751241 0.0269203987 4.208288464e-39
0.1655816287 -0.3648973405 -0.2154121995 3.476474354e-39
0.4843299389 -0.3489601612 0.01230388787 3.933858172e-39
0.1650018841 -0.3679955006 0.1393639743 3.476474354e-39
0.1207617 -0.07527184486 0.1228219867 1.033723163e-38
0.2074119002 -0.4135938883 0.2732830048 2.378753189e-39
0.05603866279 -0.4011200368 0.1363834292 2.65318348e-39
-0.1741738468 -0.4900795221 0.04483116791 5.492179136e-40
0.2416389734 -0.4888392091 0.05267421529 6.406946774e-40
-0.1672017723 -0.4694351554 -0.2323949039 1.098078496e-39
0.05946268514 -0.477440536 0.2037857026 9.151249686e-40
-0.1470456421 -0.08809245378 0.2351922542 9.97132458e-39
-0.1553931683 0.0001360590104 0.3836177886 1.207529015e-38
0.2641261816 -0.4770084321 -0.07589524984 9.151249686e-40
-0.1825434864 -0.4656606317 0.3539976776 1.18955526e-39
-0.1443153471 -0.06310748309 -0.04150222987 1.061166193e-38
-0.001767734531 -0.3372997046 0.08314336836 4.208288464e-39
-0.152547732 -0.3272322416 0.2128323019 4.391241991e-39
-0.129025057 -0.1879049391 0.1352466941 7.684405486e-39
0.1847050786 -0.2258212864 -0.2246002108 6.769637849e-39
0.1083435267 -0.4820207357 0.02334551513 7.321714411e-40
0.3221223354 -0.3841724694 0.1048497856 3.110567299e-39
0.1370233595 -0.4881736934 0.1123452634 6.406946774e-40
-0.147136271 -0.3858257532 0.1755906641 3.019090535e-39
-0.1423357874 0.01976124756 -0.1292267889 1.253267397e-38
-0.1622115225 -0.2553229034 -0.07882300764 6.129300502e-39
-0.1425397843 -0.2249958813 0.2967437804 6.769637849e-39
0.1812755466 -0.4777682126 -0.0161341019 9.151249686e-40
0.4206819534 -0.3131901622 0.2253496945 4.757149046e-39
0.1169422492 -0.06161912158 0.03879474476 1.061166193e-38
-0.09713472426 -0.496272862 -0.1951747835 4.577411499e-40
0.09482369572 -0.1564418972 -0.2283996344 8.416219596e-39
-0.15424411 0.03849637136 -0.003989554942 1.299005778e-38
0.2464733273 -0.1918455511 -0.2236405909 7.592928722e-39
0.3451012969 -0.4602755606 -0.1351602674 1.281032024e-39
-0.1312874109 -0.2810221016 0.07895914465 5.488963156e-39
0.3635962009 -0.3980648518 -0.04538300633 2.744660244e-39
-0.1552507132 -0.1374741197 0.3859582543 8.873603415e-39
0.3609828949 -0.4019584954 -0.1269158125 2.65318348e-39
-0.1436756998 -0.03871195391 -0.1999966353 1.116052251e-38
-0.1049275994 -0.2772385776 -0.2238163054 5.58043992e-39
-0.1457264274 -0.4917044342 0.09215105325 5.492179136e-40
0.1374236196 -0.09783300012 -0.2237939835 9.788371052e-39
-0.170710206 -0.4745996296 -0.1965992153 9.151249686e-40
0.2529998124 -0.3867635727 -0.2136975229 3.019090535e-39
0.2623229325 -0.3609997928 0.1395692676 3.567951117e-39
0.1054015979 -0.4810313284 0.1065125018 8.236482049e-40
0.09303104877 -0.2847317159 -0.2254422307 5.397486392e-39
0.2683792114 -0.4711726606 -0.05457035825 1.006601732e-39
-0.1144596338 -0.4685622156 0.1627490968 1.098078496e-39
-0.148143813 -0.4500600398 0.2959683239 1.555462315e-39
0.165210247 -0.471044302 0.2341703773 1.006601732e-39
0.1621176451 -0.4754636884 -0.2040683031 9.151249686e-40
0.0443450287 -0.3747823834 0.1856583357 3.293520826e-39
0.2378685623 -0.4715245664 -0.148830384 1.006601732e-39
0.1866159439 -0.4920575917 0.1245368198 5.492179136e-40
-0.08424695581 -0.2101058662 -0.214743942 7.135544904e-39
-0.1291499287 -0.2754044533 0.1320787072 5.58043992e-39
0.08572553843 -0.4730417728 0.3113219738 1.006601732e-39
-0.1145447642 -0.4941291809 0.05374030769 4.577411499e-40
0.3655951321 -0.4321312904 0.1077437028 1.92136937e-39
0.0422334522 -0.4365010858 -0.2111196518 1.829892606e-39
-0.1375322789 -0.3149746656 -0.1387403607 4.665672282e-39
0.1938052028 -0.3387516737 0.2363497764 4.1168117e-39
-0.02837219089 -0.475471884 0.2467090338 9.151249686e-40
-0.1827530712 -0.4919452965 0.199431628 5.492179136e-40
0.3843926191 -0.3362383544 0.05953940004 4.208288464e-39
-0.1430732161 -0.06834247708 0.2107520998 1.04287084e-38
0.2329054624 -0.324873507 -0.2259266078 4.482718755e-39
-0.1413052231 -0.3131105006 0.3857213259 4.757149046e-39
-0.1413052231 -0.4881105125 -0.02677867189 6.406946774e-40
-0.1538974494 -0.2380963117 -0.01413767692 6.495207557e-39
-0.1538161337 -0.02565987781 0.06075569615 1.14349528e-38
0.1207903251 -0.4878546298 -0.1382337064 6.406946774e-40
-0.1611794382 -0.3652868569 -0.07927764952 3.476474354e-39
-0.1533257365 -0.3870809376 0.1247591525 3.019090535e-39
0.3199989498 -0.362247169 0.2111593336 3.567951117e-39
0.1463022381 -0.3877362311 0.2480606437 3.019090535e-39
