# .PCD v0.7 - Point Cloud Data file format
VERSION 0.7
FIELDS x y z rgb
SIZE 4 4 4 4
TYPE F F F F
COUNT 1 1 1 1
WIDTH 830
HEIGHT 1
VIEWPOINT 0 0 0 1 0 0 0
POINTS 830
DATA ascii
-0.04604706168 -0.4805065989 -0.1573462486 8.236482049e-40
-0.009352952242 -0.4872276187 -0.1510592699 6.406946774e-40
0.07441290468 -0.2948693633 -0.2191891223 5.123056101e-39
-0.1445170641 -0.4300614893 0.02390814759 2.012846134e-39
0.005357727408 -0.4658031464 -0.1192676499 1.098078496e-39
-0.1612049937 -0.4805331826 -0.1858437359 8.236482049e-40
-0.2079701275 -0.3634484708 0.2767322063 3.567951117e-39
0.03234627843 -0.4907277822 -0.1841673553 5.492179136e-40
-0.2331986725 0.0256215632 -0.1917911917 1.262415073e-38
-0.09620033205 0.06646418571 -0.03010255098 1.363039513e-38
0.4331884384 0.07667525113 -0.2155601382 1.381334866e-38
-0.2084679008 -0.05272949487 0.298977077 1.079461545e-38
-0.1372836083 -0.09861963987 -0.06431316584 9.696894289e-39
0.1424122751 -0.4671171308 -0.2124804109 1.098078496e-39
0.01422484033 -0.387026757 0.3785271049 3.019090535e-39
0.1339018047 0.06476353109 -0.06020148844 1.353891837e-38
-0.2209863067 -0.3639107943 0.01481918897 3.476474354e-39
-0.07472317666 -0.004706520587 -0.2208739221 1.189233662e-38
0.1383780092 -0.4231244028 -0.2172518671 2.104322897e-39
-0.1393458694 -0.3357231617 0.1904094219 4.208288464e-39
-0.0424131155 -0.4699010849 -0.1206468046 1.006601732e-39
-0.2285676301 0.002811443061 0.1910956204 1.207529015e-38
0.1208649129 -0.0367196165 0.1342387497 1.116052251e-38
-0.1263314635 -0.4578459859 -0.05773776397 1.281032024e-39
0.2063508928 -0.3659290969 0.3377237022 3.476474354e-39
-0.05777406693 -0.4862918556 -0.1700408161 6.406946774e-40
-0.1579185873 -0.2411981821 0.2833286822 6.403730794e-39
-0.2229820192 -0.1723937988 -0.1977451146 8.050312541e-39
-0.06062711775 -0.4990352392 -0.2368126214 3.662643861e-40
-0.02439421043 -0.487863481 -0.172876209 6.406946774e-40
0.03355890512 -0.4943966866 -0.1714357585 4.577411499e-40
-0.1273330599 -0.2281740755 0.01369764097 6.678161085e-39
-0.04061540961 -0.4940667748 -0.1624239981 4.577411499e-40
-0.0002501159906 -0.4572715163 -0.1720691323 1.372508787e-39
0.3481535017 0.06799385697 0.02004421875 1.363039513e-38
-0.1281152368 -0.4618046284 -0.1605924964 1.18955526e-39
-0.1761341095 -0.4639930129 -0.07272709906 1.18955526e-39
0.267301172 -0.01575199142 -0.2294804454 1.170938309e-38
-0.1238338649 0.07321047783 0.09566944838 1.372187189e-38
-0.2318945527 0.0005355346948 -0.07089872658 1.207529015e-38
-0.1349976808 -0.3899088502 -0.222313866 2.927613771e-39
-0.08028021455 -0.4883158207 -0.1935400218 6.406946774e-40
-0.1990113556 -0.4579100609 -0.07255294919 1.281032024e-39
-0.129752025 -0.4646955729 -0.06513658166 1.18955526e-39
-0.04821006581 -0.1150011346 -0.2284946889 9.330987234e-39
0.0429061763 -0.4668746293 -0.2268108428 1.098078496e-39
-0.1413980126 -0.4613730013 -0.1316120327 1.281032024e-39
0.4157325327 -0.1114611179 -0.205965966 9.422463997e-39
-0.1103181988 0.06593760103 -0.1302796155 1.363039513e-38
-0.0806401819 -0.474204123 -0.213850528 9.151249686e-40
-0.1862035096 -0.4632671177 -0.1015734971 1.18955526e-39
0.1430821121 -0.0860729441 -0.226027444 1.006280134e-38
-0.2060612291 -0.4778303504 -0.2275995165 8.236482049e-40
0.1137236506 -0.4365845919 -0.1356587708 1.829892606e-39
0.345475018 -0.4828574359 -0.1047063544 7.321714411e-40
-0.1455296874 -0.4420516491 -0.1397637874 1.646939079e-39
-0.0660758391 -0.4714543223 -0.1816828102 1.006601732e-39
-0.1290362477 -0.3244744241 0.09332479537 4.482718755e-39
0.2319658399 -0.4826849699 -0.2055242062 7.321714411e-40
0.09910565615 -0.3397236168 0.3421992958 4.1168117e-39
-0.1618788242 -0.3981283009 -0.2204237729 2.744660244e-39
-0.09686523676 -0.4756940603 -0.08393044025 9.151249686e-40
-0.1646099687 -0.2644199729 -0.223033905 5.854870211e-39
-0.1930495054 0.06631464511 0.1231442243 1.363039513e-38
0.1835051775 -0.3094306588 -0.2247185707 4.757149046e-39
0.1647410095 0.0304018613 -0.2232509404 1.271562749e-38
-0.2167251259 -0.2223966122 0.1347149014 6.861114612e-39
-0.0748725906 -0.4781410992 -0.1025015861 8.236482049e-40
0.01272845268 -0.4436127245 -0.1309630871 1.646939079e-39
-0.02315953001 0.08246198297 -0.2070986032 1.399630219e-38
0.4142099321 0.06475777179 -0.2053265721 1.353891837e-38
-0.1939319372 -0.2249832153 -0.04368708655 6.769637849e-39
-0.01207197085 -0.353227675 0.4176151156 3.750904645e-39
0.1537349522 -0.4764860272 -0.1323623657 9.151249686e-40
-0.2195542008 -0.3173596859 0.2245695889 4.574195519e-39
-0.1600409746 -0.1080735847 -0.1293935329 9.513940761e-39
0.01423866861 -0.2447677702 -0.2179966271 6.31225403e-39
0.3914545774 -0.4668960273 -0.2124156952 1.098078496e-39
-0.2045489103 0.06799665093 -0.1924713105 1.363039513e-38
-0.08149196953 -0.5031579733 -0.1818289161 2.747876224e-40
-0.1222428158 -0.4720688462 -0.1539449394 1.006601732e-39
-0.09003484994 -0.4779095054 -0.1395746619 8.236482049e-40
-0.1075319797 -0.4755983651 -0.1620900333 9.151249686e-40
-0.1891251951 0.0797611326 0.04012378678 1.390482542e-38
0.3865131438 0.07856755704 -0.05640626326 1.390482542e-38
-0.07043590397 -0.4252484143 -0.19135499 2.104322897e-39
-0.03801137209 -0.4516717196 -0.06131263077 1.463985551e-39
-0.2194001824 -0.3864029646 -0.004300208762 3.019090535e-39
-0.03125525638 0.05179662257 0.1507217884 1.326448808e-38
-0.08617016673 -0.5004292727 -0.1220525354 3.662643861e-40
0.3905088902 -0.3215947747 -0.1785077304 4.482718755e-39
0.3203477859 -0.1170084029 -0.2211825252 9.330987234e-39
-0.1319632679 -0.4665590525 -0.1380853355 1.098078496e-39
-0.2047417313 -0.4008213878 -0.07687738538 2.65318348e-39
-0.06442531943 -0.4869824648 -0.1902522594 6.406946774e-40
-0.08086445183 -0.2958799601 -0.2223787606 5.123056101e-39
-0.1160270721 -0.4658127427 -0.1836529076 1.098078496e-39
0.01132708788 -0.4454843402 -0.1323823482 1.646939079e-39
0.07780300826 -0.06774211675 0.1074519306 1.04287084e-38
0.1431510746 -0.3494980037 0.3966518044 3.842381409e-39
0.1371056736 -0.4794825912 -0.2269737124 8.236482049e-40
0.2830617726 0.06999173015 0.00893526338 1.372187189e-38
0.2903774381 0.06145226583 -0.2051870525 1.34474416e-38
-0.1892113239 -0.2429296374 -0.06767673045 6.31225403e-39
-0.1429443359 -0.4100786448 0.1094639525 2.470229952e-39
-0.2009694129 -0.4718380272 -0.1827542782 1.006601732e-39
-0.2339973748 0.01852470636 -0.1289798915 1.24411972e-38
-0.1437971741 -0.3032951951 -0.0324504897 4.940102574e-39
-0.2049718201 -0.1151721776 0.2734186351 9.330987234e-39
0.4255172014 -0.05635779724 -0.2007675469 1.070313869e-38
-0.002006106079 -0.4734788835 -0.1697920859 9.151249686e-40
-0.1324512959 -0.4825955629 -0.1521267295 7.321714411e-40
-0.05816447735 -0.4730563164 -0.118094407 1.006601732e-39
-0.1583955586 0.07782126218 -0.04899421707 1.390482542e-38
0.01268320996 -0.4501250088 -0.2231105268 1.463985551e-39
-0.13936463 -0.07792980224 0.1520752013 1.024575487e-38
-0.1432614625 -0.4183514714 -0.1378474236 2.287276425e-39
-0.2220005095 -0.1225431263 -0.1935124844 9.148033706e-39
0.1377529353 -0.1529859006 -0.202503264 8.416219596e-39
-0.2203551233 -0.334267199 0.09541840851 4.208288464e-39
-0.0410683006 -0.4961379468 -0.1670487821 4.577411499e-40
0.3727505207 -0.4859390557 -0.1286264509 6.406946774e-40
-0.1615787446 -0.4545217454 -0.03595316038 1.372508787e-39
-0.01619202644 -0.04308335111 -0.2191406786 1.106904574e-38
-0.07804857194 -0.4624737501 -0.1697664559 1.18955526e-39
-0.1235179007 -0.4667310715 -0.1965391934 1.098078496e-39
0.02990010381 -0.4949262738 -0.1748455763 4.577411499e-40
-0.1167841256 -0.489079535 -0.1609021574 5.492179136e-40
0.0107257897 -0.3593997359 0.3129884303 3.659427881e-39
-0.125984475 0.06893274188 0.1798498929 1.363039513e-38
-0.1412887126 -0.2234338671 0.2219630927 6.769637849e-39
-0.135205254 -0.1492667943 -0.0123819029 8.50769636e-39
-0.03370663524 -0.5041183829 -0.1967018545 2.747876224e-40
-0.01980267465 -0.4935313463 -0.1818545908 4.577411499e-40
-0.0602004528 -0.4977875352 -0.1722185314 3.662643861e-40
-0.113043189 -0.4453854561 -0.1473538727 1.646939079e-39
0.4192471802 -0.1412511766 -0.2034566402 8.690649887e-39
-0.1991634071 -0.3557154536 -0.1569613516 3.750904645e-39
-0.01264742017 -0.4733813703 -0.1343467236 9.151249686e-40
0.06820873171 0.07708894461 0.1098285168 1.381334866e-38
-0.202541858 -0.4290281832 -0.1593943536 2.012846134e-39
-0.1067564785 -0.3398577869 0.1971588135 4.1168117e-39
0.3969250619 0.07341869175 -0.2112356871 1.372187189e-38
0.2328334004 -0.4577607214 -0.2331044972 1.281032024e-39
-0.01527040452 -0.4823283255 -0.1700742543 7.321714411e-40
-0.2204062343 -0.393199563 -0.1943503916 2.836137007e-39
-0.004348494112 -0.3603933454 0.4463136196 3.567951117e-39
-0.07406978309 -0.4763126373 -0.1357316375 9.151249686e-40
0.1708819121 -0.03538994491 0.1224283651 1.125199927e-38
-0.0597140938 0.06675028801 -0.08545211703 1.363039513e-38
-0.2032657564 0.05029611662 0.1958136111 1.326448808e-38
-0.1465909034 -0.462792486 -0.1491014957 1.18955526e-39
-0.2209295332 -0.2224639207 0.2401263267 6.861114612e-39
-0.1891345829 -0.398781538 -0.1064983755 2.744660244e-39
0.3780028224 -0.3913662434 -0.2079191953 2.836137007e-39
-0.1373168975 -0.4651053846 -0.1763643324 1.18955526e-39
-0.1876268536 0.06071652472 -0.1983465105 1.34474416e-38
0.1980871856 0.02577537484 -0.2265614122 1.262415073e-38
-0.1396921277 -0.473310709 -0.1962668598 9.151249686e-40
0.1281612366 0.06962128729 -0.01787401922 1.363039513e-38
-0.1470825672 -0.4728167951 -0.1349004805 1.006601732e-39
-0.1777403802 -0.4481784105 -0.01595202088 1.555462315e-39
0.3820984662 0.07848613709 0.01058265753 1.390482542e-38
-0.1698917001 -0.1818199009 -0.2201706171 7.77588225e-39
-0.2300734669 -0.03833007812 0.2756798863 1.116052251e-38
0.1098239124 -0.450319767 -0.1767072529 1.463985551e-39
0.07583326101 -0.3946982026 0.33079952 2.836137007e-39
-0.01912565716 -0.1478461772 -0.2246617228 8.599173124e-39
-0.1295961738 -0.4116077125 -0.1535090804 2.378753189e-39
0.1192507744 -0.4904023409 -0.2110750675 5.492179136e-40
0.3819875121 -0.2703825831 -0.1719788015 5.671916684e-39
0.1361228675 -0.328546524 -0.216701597 4.391241991e-39
-0.1665233672 -0.4591373801 -0.161774084 1.281032024e-39
-0.219666779 -0.3928802311 0.1458000392 2.836137007e-39
0.09661526978 -0.4368245006 -0.1544886678 1.829892606e-39
0.002515071072 0.07965543866 0.03986111656 1.390482542e-38
0.3920309246 -0.4819396436 -0.2295799702 7.321714411e-40
-0.04499228299 -0.4546471536 -0.1648364514 1.372508787e-39
-0.1356524527 -0.2961639464 0.06061862409 5.123056101e-39
0.02350856364 -0.4958718717 -0.2105959803 4.577411499e-40
-0.2207758874 -0.08282022923 -0.174028784 1.006280134e-38
-0.1229262426 -0.4995875955 -0.1936689764 3.662643861e-40
-0.0423020944 0.01869680174 -0.225157097 1.24411972e-38
-0.1633448303 -0.4879594445 -0.2063229978 6.406946774e-40
0.2571725547 -0.4755978286 -0.1418438554 9.151249686e-40
-0.2179711908 -0.4783220887 -0.1786135435 8.236482049e-40
-0.1949611008 -0.420793891 -0.08797967434 2.195799661e-39
-0.1327356845 -0.4821562767 -0.1209768951 7.321714411e-40
0.2271591276 0.05592856929 0.06414604932 1.335596484e-38
-0.1702853888 -0.4116538167 0.07365048677 2.378753189e-39
-0.2322288752 -0.4448875189 -0.129712522 1.646939079e-39
-0.2029753178 -0.2080558836 -0.02034472674 7.135544904e-39
-0.05054109171 -0.3985887766 -0.2232759595 2.744660244e-39
0.1111774817 0.04623574391 -0.1956722438 1.308153455e-38
0.3953858018 -0.02989922278 -0.2277688086 1.134347604e-38
-0.0433755219 -0.485391736 -0.1307751536 6.406946774e-40
0.06992360204 -0.3249667585 0.4043677449 4.391241991e-39
0.1771632582 -0.1106389314 0.0789558664 9.422463997e-39
0.06502152979 0.06925736368 -0.06790342927 1.363039513e-38
-0.116696313 -0.4242848158 -0.09640401602 2.104322897e-39
-0.0157373026 -0.4891518354 -0.1526575387 5.492179136e-40
-0.2059286088 -0.3495357037 -0.1190996468 3.842381409e-39
-0.0711184442 -0.4953919649 -0.1830234975 4.577411499e-40
-0.09572338313 -0.4771690369 -0.1541360319 9.151249686e-40
0.4194550216 0.07610475272 -0.1412518173 1.381334866e-38
-0.1338914931 -0.4479188025 -0.09485263377 1.555462315e-39
0.1268195659 -0.1500566453 -0.2079527974 8.50769636e-39
-0.1991219223 -0.2964978814 -0.2185585648 5.123056101e-39
-0.1564981639 -0.4604411721 -0.1242948696 1.281032024e-39
-0.04800460488 -0.2998033762 -0.2246320695 5.031579337e-39
0.2696325183 -0.05519847199 -0.2281336039 1.079461545e-38
-0.09804150462 0.06225929782 0.1580941081 1.353891837e-38
-0.08402869105 -0.4721774459 -0.152838558 1.006601732e-39
-0.2114951611 -0.4607182145 -0.1316761672 1.281032024e-39
0.2903736234 -0.2638116479 -0.2083711326 5.854870211e-39
0.4153854251 -0.1403934062 -0.199879244 8.782126651e-39
-0.07635523379 -0.4877001047 -0.2020293772 6.406946774e-40
-0.01882194914 0.06576467305 -0.1839108169 1.353891837e-38
-0.07757014036 -0.4505696893 -0.1064674407 1.463985551e-39
-0.1451879442 0.0809032321 0.006289606914 1.390482542e-38
-0.1686253101 0.06554859877 -0.1915402114 1.353891837e-38
0.1949610859 -0.361035198 0.3984275758 3.567951117e-39
-0.1334507018 -0.4647921324 -0.1138465106 1.18955526e-39
0.1403030008 -0.2644583881 -0.2164797783 5.854870211e-39
0.1799332649 -0.4553703666 -0.07471156865 1.372508787e-39
-0.0653077662 -0.462020576 -0.08076827973 1.18955526e-39
-0.1123707741 -0.4788008034 -0.1950367391 8.236482049e-40
-0.2116301805 0.01666461676 0.2732315063 1.24411972e-38
-0.1382085979 -0.3343111873 -0.05829296634 4.208288464e-39
0.1973469704 0.06528605521 -0.1503486782 1.353891837e-38
-0.1947541237 -0.4726631045 -0.1106896475 1.006601732e-39
-0.0004499480128 0.05565730482 0.1424406767 1.335596484e-38
0.1998478472 -0.4700916409 -0.2249650508 1.006601732e-39
-0.2284568101 -0.1237401962 0.02207762748 9.148033706e-39
0.1186841279 -0.4614254236 -0.1177461743 1.281032024e-39
0.3644040525 0.06926777959 -0.001493746415 1.363039513e-38
0.3862158358 -0.3620707393 -0.209425956 3.567951117e-39
-0.02720809914 -0.3612263203 0.433902055 3.567951117e-39
-0.2297462374 -0.1232931763 -0.1996088177 9.148033706e-39
0.3447152972 -0.004830982536 -0.2321121991 1.189233662e-38
0.08190046251 -0.06150086224 -0.2276435941 1.061166193e-38
-0.1995690465 -0.3586596847 0.2570124567 3.659427881e-39
-0.1962223649 -0.2919209898 -0.1070162654 5.214532865e-39
-0.1107928082 -0.5000148416 -0.1996124387 3.662643861e-40
-0.1564316005 -0.476906985 -0.181594193 9.151249686e-40
-0.2255491912 -0.4621463716 -0.09344002604 1.18955526e-39
-0.1412301511 -0.05164667219 -0.203262195 1.079461545e-38
0.005825607106 -0.2034213096 -0.2200352848 7.318498431e-39
-0.1775766164 -0.4674692154 -0.1654199213 1.098078496e-39
0.05607788265 -0.3981223404 -0.2196433544 2.744660244e-39
-0.220164746 -0.2365956157 -0.03939881921 6.495207557e-39
-0.003266675398 0.07501535118 -0.1334554255 1.381334866e-38
0.0436001569 -0.4578530192 -0.1620448828 1.281032024e-39
-0.1306352764 -0.1062357873 -0.05841813609 9.513940761e-39
0.1996534467 -0.4761908054 -0.1425108165 9.151249686e-40
0.1706488132 -0.04861132428 0.1232598796 1.088609222e-38
-0.2081804723 -0.1242794544 -0.01805278659 9.148033706e-39
-0.1662620902 -0.4488174319 -0.05170387402 1.555462315e-39
-0.2290038168 -0.06085477769 0.2968508303 1.061166193e-38
0.1203262955 0.06648207456 0.03626556322 1.363039513e-38
-0.209045127 0.04369061813 -0.2012943774 1.308153455e-38
0.3088640273 -0.4854702055 -0.2292693108 6.406946774e-40
-0.08571460098 -0.395904094 -0.1637861282 2.744660244e-39
-0.07140965015 -0.4773718417 -0.17783162 8.236482049e-40
-0.1105821729 -0.3768298924 0.1665140837 3.202044062e-39
0.3928095102 -0.1936689466 -0.1821580678 7.501451959e-39
0.2964364886 0.07570527494 0.03341724724 1.381334866e-38
-0.1665055603 -0.3581911325 -0.2136218548 3.659427881e-39
-0.1224995106 -0.416337043 -0.1979801655 2.287276425e-39
-0.1215915829 -0.295587033 0.002877088264 5.123056101e-39
0.119382903 -0.4347951412 -0.1281477213 1.829892606e-39
-0.1082953215 -0.4911472797 -0.141364187 5.492179136e-40
0.1146108806 -0.3432506919 0.3606559038 4.025334936e-39
-0.05363661051 0.04914495349 0.004706265405 1.317301131e-38
-0.0363356173 -0.4816156328 -0.1801884621 7.321714411e-40
-0.04702768102 -0.4755288661 -0.215895012 9.151249686e-40
0.4291169643 0.0753223449 -0.2042924762 1.381334866e-38
-0.1470846981 -0.4734177589 -0.1683148146 9.151249686e-40
0.07552859932 -0.4915502667 -0.1883126646 5.492179136e-40
-0.1618211716 -0.4645437896 -0.1197916418 1.18955526e-39
-0.2171151936 -0.4796447456 -0.2075152993 8.236482049e-40
-0.1654216349 -0.4664105773 -0.2033516169 1.098078496e-39
0.06247204542 -0.501850605 -0.1739138365 2.747876224e-40
-0.1724648625 -0.2529071271 0.2860755324 6.129300502e-39
0.2189447731 0.07700446248 -0.2210258394 1.381334866e-38
-0.1999535561 -0.2669845819 -0.03670567274 5.763393447e-39
0.1785447001 -0.1021497399 0.0519522503 9.696894289e-39
-0.1445205659 0.05324109644 -0.1016603559 1.326448808e-38
0.008445980027 -0.3479946852 0.3183347583 3.933858172e-39
-0.01730567217 -0.4862960577 -0.1925710142 6.406946774e-40
-0.1391390413 0.05584745109 0.1813760549 1.335596484e-38
-0.110700354 -0.497151196 -0.1382435262 3.662643861e-40
0.07445880026 0.04547905922 -0.2026083469 1.308153455e-38
0.1089870408 -0.4658230543 -0.2326131463 1.098078496e-39
-0.1564076245 -0.4310353994 0.05108605325 1.92136937e-39
-0.2000857145 -0.1047767028 -0.1173887104 9.605417525e-39
-0.07777263224 -0.4824553728 -0.1754668653 7.321714411e-40
0.3659496009 -0.472227633 -0.2044963092 1.006601732e-39
-0.05281163752 -0.0211363025 -0.2270472348 1.152642956e-38
0.3532486558 -0.08689477295 -0.2233040184 9.97132458e-39
-0.1450884938 -0.458509624 -0.1176456511 1.281032024e-39
0.07479529828 -0.05511297286 0.1313110292 1.079461545e-38
-0.08108114451 -0.4009869993 -0.226043418 2.65318348e-39
0.02212798595 -0.4921121597 -0.203617081 5.492179136e-40
-0.1335095018 -0.1835757643 0.01426675636 7.77588225e-39
-0.1898786575 -0.2087129503 -0.2237262428 7.135544904e-39
0.3891150355 -0.269682169 -0.2063542753 5.763393447e-39
-0.1413466334 -0.04962468147 0.1468831301 1.088609222e-38
0.06564687192 0.05552613363 0.009567518719 1.335596484e-38
0.2325951904 -0.4761914015 -0.1115030423 9.151249686e-40
-0.19465518 -0.3403885365 -0.006147274747 4.1168117e-39
-0.05028002709 -0.3625361323 0.3959342539 3.567951117e-39
-0.2281142622 0.02616330609 0.2851966321 1.262415073e-38
-0.144242689 -0.2808268964 0.1474411488 5.488963156e-39
-0.1828239858 -0.4567695856 -0.06521900743 1.372508787e-39
-0.2300191671 0.0761417225 -0.1146212518 1.381334866e-38
0.2084504068 -0.326906085 -0.1260475814 4.391241991e-39
0.2594486475 -0.3614904881 -0.2222095728 3.567951117e-39
-0.09863954782 0.07444167882 0.1040730402 1.381334866e-38
-0.2050593942 -0.2756372094 -0.05122667551 5.58043992e-39
0.3959851265 0.07753086835 -0.02670477703 1.390482542e-38
-0.110078603 -0.3461446762 0.2359412313 3.933858172e-39
-0.2013610303 -0.35429129 -0.2219935954 3.750904645e-39
0.2843490541 0.07616699487 -0.2291262299 1.381334866e-38
-0.1002921537 -0.4855707884 -0.169854939 6.406946774e-40
0.4168913364 -0.08635213971 -0.2049513757 1.006280134e-38
0.1789391339 -0.357850641 0.3719645441 3.659427881e-39
-0.04912821949 0.05936610326 -0.1344936639 1.34474416e-38
-0.1086997688 -0.4632213116 -0.1351095587 1.18955526e-39
0.1169314533 0.03864108771 0.09514132142 1.299005778e-38
-0.2287712842 0.07571074367 -0.2239854485 1.381334866e-38
-0.08749610931 -0.4798482955 -0.1826023757 8.236482049e-40
-0.1063383818 -0.3658798337 -0.1767103374 3.476474354e-39
0.3494077325 -0.4717460275 -0.1214770898 1.006601732e-39
-0.2325116396 -0.05024709925 0.007518044207 1.088609222e-38
0.002962246537 -0.4510207176 -0.1499043405 1.463985551e-39
-0.1987131536 -0.2526239157 -0.02791759372 6.129300502e-39
-0.1961634755 -0.3249950707 0.2856447995 4.391241991e-39
0.418479085 0.07539447397 -0.2276658416 1.381334866e-38
-0.1742939353 -0.4740921855 -0.1956959367 9.151249686e-40
0.02265413105 -0.4636297524 -0.1302360594 1.18955526e-39
-0.2136416733 -0.1739713848 0.1347816586 7.958835777e-39
-0.0906978175 -0.4719106853 -0.2049094141 1.006601732e-39
-0.1673020273 0.06607186794 0.01991614327 1.363039513e-38
-0.139506191 -0.4698061943 -0.2599583566 1.006601732e-39
-0.05242247134 -0.4874730706 -0.199813202 6.406946774e-40
0.02035629749 -0.4843235314 -0.1815281212 7.321714411e-40
0.3857403994 -0.4243589044 -0.2108570784 2.104322897e-39
-0.1405149698 -0.2240812033 -0.04334900156 6.769637849e-39
0.1690975428 -0.4627937078 -0.2304807305 1.18955526e-39
-0.1364265233 -0.0193565581 -0.1981600374 1.161790633e-38
0.1902030259 0.06584692746 -0.03407151252 1.363039513e-38
-0.1283355951 -0.3768422604 0.05045940727 3.202044062e-39
0.08241979033 -0.3615432978 0.4473298192 3.567951117e-39
0.02582363598 0.04368659481 0.127629593 1.308153455e-38
0.244146198 -0.4152003527 -0.1757739782 2.287276425e-39
-0.113040477 -0.4834723771 -0.1322117746 7.321714411e-40
-0.03516195714 0.04974596202 -0.06061188132 1.317301131e-38
0.2476056963 -0.4574006498 -0.06583923846 1.372508787e-39
-0.2064690292 -0.4651665092 -0.1233150959 1.18955526e-39
0.158421576 -0.08550525457 -0.219620958 1.006280134e-38
-0.1669555902 -0.2363150269 -0.2147632539 6.495207557e-39
-0.1095705181 -0.365365535 0.2887372971 3.476474354e-39
-0.03855231404 -0.4786831141 -0.1709898561 8.236482049e-40
0.09499421716 -0.4313976169 -0.1336548328 1.92136937e-39
0.05065205693 -0.05276305228 0.04999932647 1.079461545e-38
0.405287534 -0.2848317027 -0.2147631794 5.397486392e-39
-0.1995298117 -0.2133632302 -0.01485480368 7.04406814e-39
0.3831058145 0.07841610909 -0.1091728657 1.390482542e-38
-0.1461937129 -0.05202674866 -0.02771214768 1.079461545e-38
-0.2052969187 -0.4238014221 0.02850016952 2.104322897e-39
0.1594113857 0.07565997541 -0.2138038576 1.381334866e-38
-0.0538807027 -0.00226885546 -0.2253908217 1.198381338e-38
-0.05409611389 0.07635380328 0.1589425355 1.381334866e-38
-0.1537434906 -0.313516736 -0.1171258464 4.665672282e-39
-0.1655966341 -0.2492538244 0.3096025586 6.220777266e-39
0.03271248564 -0.3539384604 0.3215409815 3.750904645e-39
-0.1125503406 -0.4723470807 -0.1717311144 1.006601732e-39
0.04791424796 -0.3649401665 -0.1987428963 3.476474354e-39
-0.2165216208 0.04403246194 0.03378209844 1.308153455e-38
-0.2155896872 -0.4667318761 -0.2247885019 1.098078496e-39
0.1631216109 -0.05943706632 0.1212606505 1.061166193e-38
-0.1911635548 -0.2545591593 0.003702187911 6.037823739e-39
0.2946349978 -0.4801594615 -0.1958874017 8.236482049e-40
0.4330955446 0.02534499578 -0.2280001044 1.262415073e-38
0.03489923105 -0.2340542823 -0.1773768514 6.586684321e-39
-0.04092390463 -0.3742619157 0.4211788476 3.293520826e-39
0.1949751228 -0.3736146092 0.3714851737 3.293520826e-39
-0.202381596 -0.05643908307 0.2872484624 1.070313869e-38
-0.01898918301 -0.4737348557 -0.1933125257 9.151249686e-40
-0.03782426566 -0.4681378901 -0.1847767532 1.098078496e-39
0.3187147379 -0.3734392226 -0.1817873418 3.293520826e-39
-0.154155463 -0.2231839895 0.1831628084 6.861114612e-39
0.2051630169 0.06073411927 -0.1038553417 1.34474416e-38
-0.1745681763 -0.3201818764 -0.2053376138 4.574195519e-39
-0.1384381652 -0.4629664719 -0.1582384259 1.18955526e-39
-0.1458340734 -0.4233586192 -0.06920360774 2.104322897e-39
-0.1173411459 0.07632118464 -0.2107137889 1.381334866e-38
-0.1841191351 -0.4582860768 -0.1861647964 1.281032024e-39
-0.1967145652 -0.1275819689 -0.00361164473 9.056556942e-39
-0.2147397995 -0.4563269317 -0.1029464826 1.372508787e-39
0.1575829238 -0.1599346101 -0.2233287692 8.324742832e-39
0.1878931522 0.03931922838 0.0542935282 1.299005778e-38
-0.229806602 -0.1729147732 0.2730306089 7.958835777e-39
0.08623553813 -0.4899412692 -0.1755879223 5.492179136e-40
-0.1405761093 -0.3642733097 -0.02362633683 3.476474354e-39
-0.1824406981 -0.4807407856 -0.1873958409 8.236482049e-40
-0.1843202859 -0.2092075795 -0.1242962033 7.135544904e-39
0.02753514051 -0.4872851074 -0.1886188686 6.406946774e-40
-0.1990475655 0.07224674523 0.18050915 1.372187189e-38
-0.01773366891 -0.4779272974 -0.2245545834 8.236482049e-40
0.3853468001 -0.09451492131 -0.2318932861 9.788371052e-39
-0.1142124534 -0.1253508776 -0.2210653722 9.148033706e-39
0.3184089959 0.05205256119 -0.207918644 1.326448808e-38
-0.1461352855 -0.4598973095 -0.1729096472 1.281032024e-39
0.3863941729 -0.4580615163 -0.1815433651 1.281032024e-39
0.0006203651428 0.05110572278 -0.05536679178 1.326448808e-38
0.1393548548 -0.4706625938 -0.2232841253 1.006601732e-39
0.3964882493 0.07575746626 -0.05404952168 1.381334866e-38
-0.1023606732 -0.3914070427 -0.1981797367 2.836137007e-39
-0.132392928 -0.2461214513 0.08876696974 6.31225403e-39
0.144518435 -0.360945493 0.4338510334 3.567951117e-39
-0.1516801715 -0.09012582898 -0.1045537516 9.97132458e-39
-0.2150764763 -0.2482085079 -0.06716345996 6.220777266e-39
0.0726685524 -0.0568713136 -0.2033706456 1.070313869e-38
-0.1085971966 -0.333691597 0.3521704376 4.208288464e-39
0.1130722389 -0.1177586466 0.07027835399 9.330987234e-39
0.4086905718 -0.2484786212 -0.2152262181 6.220777266e-39
-0.2278465182 -0.1437488794 0.1582243741 8.690649887e-39
0.1054983735 -0.2627221942 -0.1724325866 5.854870211e-39
0.09023821354 0.07547882199 -0.05790603161 1.381334866e-38
-0.2271924913 0.05055231601 -0.2213745266 1.326448808e-38
0.2727610469 0.05615950376 0.01974683255 1.335596484e-38
0.07526643574 -0.4693693817 -0.1670690179 1.006601732e-39
0.03405086696 0.07607423514 0.1230809614 1.381334866e-38
-0.2087336183 -0.09462377429 -0.07826919854 9.788371052e-39
-0.1415373832 -0.4782820642 -0.1982452273 8.236482049e-40
-0.01725323871 0.07497925311 -0.2260284275 1.381334866e-38
0.1840579212 -0.3635203242 -0.1972979009 3.567951117e-39
-0.1443493366 -0.2416691333 0.03666006029 6.403730794e-39
-0.2181413174 -0.3231395185 0.228378728 4.482718755e-39
0.2456062585 -0.1056422889 -0.2038245499 9.605417525e-39
-0.09095720947 0.03163490072 -0.0534888953 1.280710426e-38
0.009378422052 -0.3609804213 0.4457569718 3.567951117e-39
0.008845930919 -0.3350321054 -0.1951029748 4.208288464e-39
-0.2293720543 -0.01109210588 0.2966720164 1.180085986e-38
-0.1544394195 -0.4231398702 0.07197127491 2.104322897e-39
-0.1884773523 -0.2739028931 -0.1041166335 5.671916684e-39
0.2575248182 0.05154822767 -0.1414457858 1.326448808e-38
0.395383507 -0.3974029422 -0.2273752689 2.744660244e-39
-0.1548220962 -0.4477081299 -0.131100297 1.555462315e-39
-0.1897463799 -0.1949263364 -0.2114235163 7.501451959e-39
0.291087389 -0.2107501477 -0.2090067267 7.135544904e-39
0.4074567854 0.07022406906 -0.2074564695 1.372187189e-38
-0.1731898189 0.06046959758 0.06935747713 1.34474416e-38
-0.1007226259 -0.332819581 0.2384140939 4.208288464e-39
0.009516634047 -0.4741478264 -0.1756002903 9.151249686e-40
-0.1029825881 -0.478176713 -0.1572494805 8.236482049e-40
0.1870512962 -0.3583087325 0.3307283819 3.659427881e-39
-0.2029158473 -0.2114798576 0.04411901906 7.135544904e-39
0.4002611041 -0.1537843645 -0.2012689859 8.416219596e-39
-0.04963636771 -0.1347917765 -0.1658262461 8.873603415e-39
-0.1339729726 -0.4788273573 -0.1483981013 8.236482049e-40
-0.06784787774 -0.4626494646 -0.06736086309 1.18955526e-39
-0.04778505489 -0.4501058161 -0.222790733 1.463985551e-39
-0.2070640326 -0.1778495908 0.258682847 7.867359014e-39
0.1097928584 -0.447716713 -0.1720959842 1.555462315e-39
-0.1419254839 -0.1339425445 0.005546804518 8.873603415e-39
0.08399679512 0.07643181086 -0.1928389072 1.381334866e-38
-0.2240671068 -0.4088369012 -0.1921991408 2.470229952e-39
0.08354362845 -0.06419883668 0.1074510962 1.052018516e-38
0.06409581751 -0.356438607 0.3151273429 3.659427881e-39
0.201814875 -0.4779756367 -0.1662341058 8.236482049e-40
-0.05237705633 0.06635539234 0.1356425583 1.363039513e-38
0.1469096243 -0.4973685145 -0.1647893935 3.662643861e-40
-0.129284516 -0.484840095 -0.1419405639 7.321714411e-40
-0.01109326817 -0.2368736565 -0.172080636 6.495207557e-39
-0.1791301817 -0.4592722356 -0.164172262 1.281032024e-39
-0.12010362 0.07756057382 -0.1270292699 1.390482542e-38
0.2467831671 -0.4524225593 -0.1655847877 1.463985551e-39
-0.1650189757 -0.443662107 -0.08596178889 1.646939079e-39
0.05556796491 -0.4902487993 -0.1744562387 5.492179136e-40
0.1340484321 0.06459975988 0.09600701928 1.353891837e-38
-0.20092538 -0.0818741098 -0.1400118321 1.015427811e-38
-0.2293153107 -0.3359845579 0.009025795385 4.208288464e-39
-0.1827283353 -0.2688115835 -0.2115308046 5.763393447e-39
-0.2326993793 0.06341115385 0.2453163266 1.353891837e-38
0.08052383363 -0.4901155829 -0.1375732571 5.492179136e-40
-0.09551294148 -0.4479781389 -0.1669740081 1.555462315e-39
-0.007725320756 -0.4867837727 -0.1881994903 6.406946774e-40
0.001772373915 -0.4668642282 -0.2046817392 1.098078496e-39
-0.1493017823 -0.4423947334 -0.09089076519 1.646939079e-39
0.3400147557 0.08904764056 0.004539873451 1.408777895e-38
0.2945573926 -0.4633523524 -0.2177177817 1.18955526e-39
-0.02170299739 -0.500239253 -0.1936263293 3.662643861e-40
-0.131852299 -0.4226354957 -0.22694166 2.104322897e-39
0.3548983037 -0.0537025407 -0.2322852463 1.079461545e-38
-0.1527938992 -0.03679885343 -0.2199438959 1.116052251e-38
-0.1016736776 -0.4770838618 -0.1466685832 9.151249686e-40
0.04241093248 -0.3949993253 0.3627910912 2.836137007e-39
0.1831937879 -0.4737653732 -0.1852957755 9.151249686e-40
-0.2308109403 0.07675204426 0.03735584393 1.381334866e-38
-0.2155255079 -0.4607959688 -0.1794423759 1.281032024e-39
-0.01780280657 -0.05597576499 -0.1694738567 1.070313869e-38
-0.01631845534 -0.4474560022 -0.1689430475 1.555462315e-39
-0.2008681893 -0.09930193424 -0.009317977354 9.696894289e-39
-0.16161713 -0.4613771141 -0.1153756529 1.281032024e-39
0.2464101017 -0.4856145084 -0.07747407258 6.406946774e-40
-0.2163406312 0.05474036932 -0.1927593052 1.335596484e-38
-0.08113104105 -0.3516480029 0.3660970032 3.842381409e-39
0.1426653564 -0.1127084047 0.05360503495 9.422463997e-39
-0.01839826256 0.06164807826 -0.1310214996 1.34474416e-38
-0.2291147709 -0.09461848438 0.2610281408 9.788371052e-39
-0.1595125943 -0.3697223365 -0.1472514272 3.38499759e-39
0.3807484806 -0.4854587018 -0.1658701301 6.406946774e-40
-0.07676466554 -0.4210199714 -0.06099406257 2.195799661e-39
-0.128671065 -0.2657164335 0.2200884223 5.854870211e-39
-0.1431537271 0.07756004483 0.1947488338 1.390482542e-38
0.1170617193 -0.4464656711 -0.1758699268 1.555462315e-39
0.4174263477 0.009975960478 -0.2224721909 1.225824367e-38
-0.08252946287 0.05950456858 -0.003695266321 1.34474416e-38
0.4222912788 -0.16135782 -0.2163096368 8.233266069e-39
0.1844815314 -0.362162143 -0.2257991433 3.567951117e-39
0.264629066 0.03353089467 -0.2070676982 1.280710426e-38
-0.1368368268 -0.3902457952 -0.002219479531 2.927613771e-39
0.01153973397 -0.4818071127 -0.1991131604 7.321714411e-40
-0.1387879848 -0.189949736 0.03601556271 7.592928722e-39
-0.06153765321 -0.2509066164 -0.1651295424 6.129300502e-39
0.2196765244 0.07629760355 0.04708892852 1.381334866e-38
-0.1886175275 -0.3419413567 0.2952115536 4.025334936e-39
-0.178105846 -0.1260441393 -0.09757896513 9.056556942e-39
-0.1999892294 -0.4447709322 -0.1446595788 1.646939079e-39
0.3938047588 0.07740848511 -0.06422986835 1.381334866e-38
0.03151090816 -0.3599920869 -0.2228547484 3.567951117e-39
-0.14113006 -0.4526879489 -0.1330079138 1.463985551e-39
0.02032297663 0.02232453227 0.1253011525 1.253267397e-38
-0.03576346114 0.0416844897 -0.2149317414 1.299005778e-38
0.1833099872 -0.210548386 -0.2234019488 7.135544904e-39
-0.1868712008 -0.150185436 0.0344646126 8.50769636e-39
-0.2295469642 0.07697811723 0.1217162013 1.381334866e-38
-0.09067676216 -0.4708728194 -0.1664438248 1.006601732e-39
-0.1423507631 -0.1112238616 -0.05119242147 9.422463997e-39
0.07195367664 -0.1030710861 -0.2045229375 9.605417525e-39
-0.2097367644 -0.01179693267 0.28148669 1.180085986e-38
0.1752655655 -0.3557963371 0.337479949 3.750904645e-39
-0.085827142 -0.4701420665 -0.1761602759 1.006601732e-39
-0.1081821099 -0.1550196111 -0.1981699765 8.416219596e-39
0.1506274045 -0.07328704 0.1143713072 1.033723163e-38
0.3862810135 -0.2960292399 -0.2002519965 5.123056101e-39
-0.1779585332 -0.4245637357 0.06275393069 2.104322897e-39
-0.02110339701 -0.3714039624 0.4087746143 3.38499759e-39
-0.1770744324 -0.4052067399 -0.1856134087 2.561706716e-39
0.02520721406 0.0123870261 -0.0798279196 1.234972044e-38
-0.1459709257 -0.2040236145 0.1353434175 7.227021667e-39
-0.2281477898 -0.07499605417 -0.2234577686 1.024575487e-38
0.2097975612 -0.4774348438 -0.2270087898 8.236482049e-40
0.207941398 -0.02440006845 -0.2283607274 1.14349528e-38
0.1784661114 -0.4722480178 -0.1783957779 1.006601732e-39
0.3648610413 -0.4674240649 -0.1529371589 1.098078496e-39
-0.1337828934 -0.4679224491 -0.1484048069 1.098078496e-39
-0.05815741792 0.05661540851 0.1655126512 1.335596484e-38
0.2919290066 0.07200437039 -0.1105265617 1.372187189e-38
-0.06142064929 -0.492313087 -0.1629216671 5.492179136e-40
-0.1252385378 -0.3947666287 -0.07431096584 2.836137007e-39
-0.2276908904 0.07675226778 -0.2101713717 1.381334866e-38
-0.1663559377 -0.2645669878 -0.126448065 5.854870211e-39
-0.2238218784 -0.1152476147 0.1954937726 9.330987234e-39
0.358093977 0.07600934803 0.00942801591 1.381334866e-38
0.4335289299 0.01349564176 -0.215932712 1.234972044e-38
-0.0461429134 -0.4738371968 -0.2002049685 9.151249686e-40
-0.1692506224 -0.4629431069 -0.09470292926 1.18955526e-39
0.09140027314 -0.3526957035 0.3171053827 3.750904645e-39
0.04810070992 -0.05990450829 0.09033293277 1.061166193e-38
-0.2161163986 -0.2487699538 0.01112130936 6.220777266e-39
-0.1543016881 -0.2621532083 0.2927909195 5.946346975e-39
0.1344062984 -0.4114024937 -0.1714862436 2.378753189e-39
-0.197745651 -0.4336494803 -0.02280470915 1.92136937e-39
-0.1745474041 0.05760099366 0.04074951261 1.335596484e-38
0.4210108817 -0.1490875334 -0.227976203 8.50769636e-39
-0.1005331948 -0.4668903947 -0.2083148956 1.098078496e-39
0.2968849838 -0.4820998311 -0.0908934176 7.321714411e-40
0.1337345839 0.03877466917 -0.19670479 1.299005778e-38
-0.1153433919 -0.06129733473 -0.1833612025 1.061166193e-38
0.3221306205 0.07635055482 -0.2298910022 1.381334866e-38
0.1181513965 -0.4551935792 -0.2140517533 1.372508787e-39
0.1722240448 0.07575277239 0.07083976269 1.381334866e-38
0.2701106071 -0.3859650195 -0.2273475677 3.019090535e-39
-0.1727590263 -0.0501748994 0.07873596251 1.088609222e-38
-0.09788098931 -0.4821314812 -0.1339489371 7.321714411e-40
0.007563345134 -0.4785027206 -0.2254339755 8.236482049e-40
0.09558253735 -0.3604326844 0.3930386901 3.567951117e-39
-0.2293670475 -0.2115254998 -0.2158160359 7.135544904e-39
-0.2234827429 -0.3950537145 -0.1585766971 2.836137007e-39
0.03661333397 -0.1575236917 -0.2074252516 8.324742832e-39
0.1563223749 -0.4802493155 -0.2049165815 8.236482049e-40
0.06284999847 -0.3401261568 -0.03949534148 4.1168117e-39
-0.2004244626 -0.0381206274 -0.09419001639 1.116052251e-38
-0.2295987755 -0.4815278947 -0.2155760676 7.321714411e-40
-0.04324872047 0.07636234909 -0.0005256628501 1.381334866e-38
-0.2194231451 -0.4626572728 -0.09079803526 1.18955526e-39
0.1462421119 0.06022677571 -0.07355670631 1.34474416e-38
0.2679620385 -0.1633720547 -0.2028220594 8.233266069e-39
-0.0883563906 -0.3712456524 0.3493005931 3.38499759e-39
-0.02939787507 0.07676146179 -0.2208258063 1.381334866e-38
-0.1888199747 -0.117208682 -0.002138931304 9.330987234e-39
0.2073746473 -0.4843910933 -0.08961231261 7.321714411e-40
-0.1680327207 -0.4039402008 -0.1000948697 2.561706716e-39
-0.1830530167 -0.3616417646 -0.2117426544 3.567951117e-39
0.3941531479 0.04224118218 -0.1283618361 1.299005778e-38
-0.08162694424 -0.4797845781 -0.1481487453 8.236482049e-40
-0.2271303982 -0.3734740913 0.2719779313 3.293520826e-39
-0.147154972 -0.24678877 0.03202615678 6.220777266e-39
-0.2281893045 0.07597971708 0.2226418406 1.381334866e-38
0.4090715051 -0.2615352869 -0.2154864818 5.946346975e-39
-0.2292102724 -0.1112907827 0.2717579007 9.422463997e-39
0.04574134946 -0.2466944903 -0.1683132648 6.31225403e-39
0.2853217125 0.06639956683 -0.0124850357 1.363039513e-38
-0.1340120584 -0.3168927431 -0.1158140078 4.665672282e-39
-0.1223203391 0.04494232684 -0.07295186818 1.308153455e-38
0.2889221311 -0.3242093623 -0.1672033817 4.482718755e-39
0.180774346 -0.3719050586 0.3569850326 3.293520826e-39
-0.1030329019 -0.1238011345 -0.2191492021 9.148033706e-39
-0.214584738 0.02585668862 -0.2025051117 1.262415073e-38
-0.116545096 -0.3481012583 0.1963811368 3.933858172e-39
0.06552016735 -0.372659266 -0.1961093992 3.293520826e-39
0.05659811571 0.03907996416 -0.2269675881 1.299005778e-38
0.07484517992 -0.2690541744 -0.1151965186 5.763393447e-39
-0.1549490988 -0.4567564726 -0.1207189262 1.372508787e-39
-0.1942255199 -0.1874784231 -0.08409630507 7.684405486e-39
-0.1030905098 -0.2615230083 -0.2202094197 5.946346975e-39
0.03340590745 -0.3619394302 0.4487250745 3.567951117e-39
-0.00269189477 0.04973315448 0.1299319267 1.317301131e-38
-0.02259410918 -0.4765292704 -0.1832526624 9.151249686e-40
0.3721982837 -0.05985101312 -0.2301368415 1.061166193e-38
0.2308356315 0.04840789735 -0.1618692428 1.317301131e-38
-0.1684326082 -0.4688697159 -0.05058056116 1.098078496e-39
-0.207470566 -0.4623954296 -0.08027997613 1.18955526e-39
-0.2125197351 0.03912932426 -0.08112999797 1.299005778e-38
0.271799475 -0.2700943351 -0.2056174278 5.763393447e-39
0.2714463174 -0.4827463031 -0.2147430182 7.321714411e-40
0.05943527073 0.07622097433 -0.06642352045 1.381334866e-38
0.00323645398 -0.1081001461 -0.1706680059 9.513940761e-39
-0.1581375003 -0.3774967492 -0.1654532254 3.202044062e-39
-0.1411173344 -0.1982816756 0.1467557847 7.409975195e-39
0.01375877857 -0.4668546319 -0.1581143737 1.098078496e-39
-0.1533723772 0.04583536834 0.1646569669 1.308153455e-38
-0.09066431969 0.076458022 -0.2145177871 1.381334866e-38
0.08629500121 0.04646918923 0.09098476917 1.317301131e-38
0.3968909979 -0.1688925922 -0.2084736824 8.050312541e-39
0.3849647343 -0.4743422568 -0.2285784483 9.151249686e-40
0.1837876439 -0.1364322454 -0.2258476019 8.873603415e-39
0.3489634097 0.04322993383 -0.008316164836 1.308153455e-38
-0.2290410399 -0.0483921729 0.1216323003 1.088609222e-38
-0.2019686997 -0.1263424456 -0.2012847066 9.056556942e-39
-0.1924490929 -0.2064286321 0.2754026651 7.227021667e-39
-0.1330650449 -0.4889205396 -0.132343635 5.492179136e-40
0.04349283129 -0.482498914 -0.1661656797 7.321714411e-40
0.07789941132 -0.4745185971 -0.146824494 9.151249686e-40
0.09845101088 -0.04852152616 0.1205154806 1.088609222e-38
0.01405614614 -0.4726638496 -0.1998741031 1.006601732e-39
-0.07730028033 -0.3639943004 -0.1902698874 3.476474354e-39
-0.1133188233 -0.2451270372 -0.01729293913 6.31225403e-39
0.1399325877 -0.3661971688 0.3187417984 3.476474354e-39
0.1949537694 0.06421209872 -0.2280863523 1.353891837e-38
-0.1130406559 -0.4664936066 -0.1945000738 1.098078496e-39
-0.2153112292 -0.4673537612 -0.05176261812 1.098078496e-39
-0.2115571052 -0.01554645784 0.2750687599 1.170938309e-38
-0.1724743396 -0.4660411775 -0.1529939622 1.098078496e-39
0.07357481122 -0.4879209399 -0.1668347567 6.406946774e-40
0.4254906774 0.01583231241 -0.2107169479 1.24411972e-38
-0.04528615996 -0.3612573445 0.4187875986 3.567951117e-39
0.06999178231 -0.4848740399 -0.1888117939 7.321714411e-40
-0.1967963129 -0.3088139296 -0.07746549696 4.84862581e-39
-0.06467826664 -0.4455346763 -0.08644382656 1.646939079e-39
-0.1534469575 0.001648187521 -0.2275829464 1.207529015e-38
-0.2207017392 -0.3526909351 0.2190679014 3.750904645e-39
0.0896473825 -0.4856422842 -0.201321885 6.406946774e-40
-0.1374278963 -0.4711856544 -0.1023342237 1.006601732e-39
-0.2132902145 -0.1971042603 0.0359300226 7.409975195e-39
-0.06648422033 0.07781246305 0.01045008563 1.390482542e-38
0.4076484442 0.07711221278 -0.1261648089 1.381334866e-38
0.009335084818 -0.2404307127 -0.1675077975 6.403730794e-39
-0.1412609816 -0.2860482037 -0.02849116921 5.306009629e-39
0.04205523059 -0.1389416605 -0.1604336351 8.782126651e-39
-0.07578930259 -0.4746434689 -0.1885112524 9.151249686e-40
-0.1988724321 -0.1498857737 0.02081656083 8.50769636e-39
0.2541368604 0.05552192405 -0.06031104922 1.335596484e-38
-0.1540864557 -0.2605392635 0.3083655238 5.946346975e-39
-0.227941528 -0.2623173296 -0.2116570771 5.946346975e-39
-0.1934743822 -0.06659993529 -0.1302220076 1.052018516e-38
-0.06481356919 0.03996292502 0.1586139351 1.299005778e-38
-0.1190971285 -0.3317909837 0.1730065644 4.299765227e-39
0.3292692304 -0.4847702682 -0.1133926436 7.321714411e-40
-0.186529085 -0.3348934054 -0.1017475128 4.208288464e-39
-0.0794673413 -0.4786290526 -0.1854548007 8.236482049e-40
-0.009639084339 -0.4836986661 -0.1636714339 7.321714411e-40
-0.1125100181 -0.4731992483 -0.1849754602 1.006601732e-39
0.1300437599 -0.09581527114 0.05793784186 9.788371052e-39
-0.1217363924 -0.4717438221 -0.176238507 1.006601732e-39
0.1205723882 -0.3618459404 0.4365672171 3.567951117e-39
0.2102183253 -0.4730750322 -0.2099289894 1.006601732e-39
-0.2056986094 -0.1189029887 0.2595124543 9.23951047e-39
0.06260892749 -0.4937926233 -0.1955588311 4.577411499e-40
-0.1103815958 0.04417000711 -0.09602593631 1.308153455e-38
0.002542108297 -0.4852618873 -0.1646199673 6.406946774e-40
-0.1911323816 -0.3868127465 -0.0283325091 3.019090535e-39
0.3828670681 -0.376181066 -0.1984212399 3.202044062e-39
-0.1555734873 -0.4473015964 -0.1584011316 1.555462315e-39
-0.1672634184 -0.4637228251 -0.1012332737 1.18955526e-39
0.01125484984 -0.354588151 -0.2005126625 3.750904645e-39
0.133277595 0.07730892301 0.08343802392 1.381334866e-38
0.1570248157 -0.242293492 -0.1674527228 6.403730794e-39
-0.138286978 -0.09465636313 -0.01810608804 9.788371052e-39
0.08012785017 0.05814749002 -0.1724297404 1.34474416e-38
-0.1937540919 -0.02258054912 -0.07663157582 1.152642956e-38
0.365444839 0.04241107404 -0.02764098719 1.308153455e-38
-0.09472234547 -0.485390991 -0.1483959258 6.406946774e-40
-0.2221774608 -0.3014529645 0.1886778176 4.940102574e-39
0.4204799533 -0.07314604521 -0.215395689 1.033723163e-38
-0.1611009389 -0.07422878593 0.1371986121 1.033723163e-38
-0.0007616970688 0.04463900626 0.007080573589 1.308153455e-38
-0.2091074437 0.01386644319 0.2422902733 1.234972044e-38
0.3834047616 -0.4834310114 -0.2149464041 7.321714411e-40
-0.1841646433 0.05856650323 -0.1787711233 1.34474416e-38
0.02269122377 -0.3644753397 0.4161157906 3.476474354e-39
0.2963886261 0.06376492977 -0.228019923 1.353891837e-38
-0.09155893326 -0.2239669412 -0.2256476134 6.769637849e-39
-0.191542387 -0.4455511868 -0.1721324027 1.646939079e-39
0.03168849647 -0.06064818799 -0.2264599204 1.061166193e-38
-0.1467912793 -0.4540516138 -0.1662961543 1.372508787e-39
0.2716417611 -0.1490024626 -0.2105102092 8.599173124e-39
0.04507451504 -0.07620279491 0.08772859722 1.024575487e-38
-0.05621472001 -0.4612067938 -0.1987899691 1.281032024e-39
-0.1531963795 -0.2108617425 -0.05342260376 7.135544904e-39
0.2705237567 -0.3347939849 -0.2280403674 4.208288464e-39
-0.2022146881 -0.2415809035 0.08996418118 6.403730794e-39
-0.1062310562 -0.1075115874 -0.1715454161 9.513940761e-39
0.1835921109 -0.3605267107 0.3967570662 3.567951117e-39
0.1583761275 0.07628939301 -0.07774097472 1.381334866e-38
-0.1807214618 -0.4033583999 -0.1960019171 2.561706716e-39
-0.228047654 -0.1113036722 -0.2245934159 9.422463997e-39
-0.03292342648 0.06700333208 -0.1684968621 1.363039513e-38
0.07230304182 -0.1917184889 -0.1967882365 7.592928722e-39
0.1830979288 -0.01399240922 0.0854883045 1.170938309e-38
0.1368568391 -0.3942137361 -0.2015310228 2.836137007e-39
-0.1153175905 -0.4332979023 -0.1425310075 1.92136937e-39
0.3923036456 -0.264384836 -0.1946575642 5.854870211e-39
-0.1319906861 -0.4317725003 -0.02444212884 1.92136937e-39
-0.2140506059 -0.06379924715 0.2751525044 1.052018516e-38
-0.123696439 0.04165329784 0.0362306796 1.299005778e-38
0.3761222363 0.07651184499 -0.1888298988 1.381334866e-38
-0.1277711093 -0.4652373195 -0.1554051042 1.18955526e-39
0.04675846174 -0.4780129194 -0.2051652074 8.236482049e-40
0.1824654639 -0.02402960695 -0.2259648442 1.152642956e-38
-0.007326385006 -0.3508481085 0.3404285908 3.842381409e-39
-0.1884907037 -0.4658425152 -0.1073938012 1.098078496e-39
-0.1611226797 -0.4481630921 -0.2094946504 1.555462315e-39
0.256809175 0.07761975378 0.02331430465 1.390482542e-38
0.2572755516 -0.2103834003 -0.2237806916 7.135544904e-39
-0.1834751666 -0.1275513172 -0.08957463503 9.056556942e-39
-0.2042001635 0.01788735762 0.07603163272 1.24411972e-38
-0.0621823296 -0.350440532 -0.1987735182 3.842381409e-39
0.02034008317 0.07643716037 -0.08896250278 1.381334866e-38
-0.1745488793 -0.4307259619 -0.03450198472 1.92136937e-39
-0.2291570604 0.01385059394 -0.2137386799 1.234972044e-38
-0.04174109176 0.07581824064 0.1477453858 1.381334866e-38
0.3456445038 -0.4864297509 -0.126367107 6.406946774e-40
-0.08785290271 -0.4728070498 -0.1588334143 1.006601732e-39
-0.1544822305 -0.2279426008 0.1744633317 6.678161085e-39
0.4134536684 -0.02328101732 -0.2118404955 1.152642956e-38
0.1848417819 -0.4862096608 -0.1161216423 6.406946774e-40
0.1159023494 -0.3117506802 -0.1699962169 4.757149046e-39
0.4078648984 -0.1863711923 -0.2279385924 7.684405486e-39
-0.2300856709 -0.2114108652 0.2718999684 7.135544904e-39
0.09503471106 -0.3736082017 0.3478256762 3.293520826e-39
-0.2043744922 -0.0966296196 0.1370961368 9.788371052e-39
-0.1934597045 -0.3061675429 -0.05195204914 4.84862581e-39
-0.1161648408 -0.07315088063 -0.2278042883 1.033723163e-38
0.3962249756 -0.423607409 -0.2280360013 2.104322897e-39
-0.1250091493 -0.3318849206 -0.2111754417 4.299765227e-39
-0.05455327407 -0.3612540066 0.4097312093 3.567951117e-39
0.2203713655 0.06358793378 -0.228512615 1.353891837e-38
-0.2162111849 0.07693802565 -0.09021448344 1.381334866e-38
-0.03718011081 -0.05738054588 0.04809385538 1.070313869e-38
-0.0858047083 0.03667447343 -0.2065332234 1.289858102e-38
0.3837742805 0.07622203231 -0.02691831067 1.381334866e-38
-0.1291448772 -0.4565107226 -0.09789903462 1.372508787e-39
0.1463203132 -0.06121557951 0.1223203316 1.061166193e-38
0.2437141091 -0.462556541 -0.1655226648 1.18955526e-39
-0.1885651648 -0.3346416652 0.279589206 4.208288464e-39
-0.2290911376 0.01380729489 0.2849726677 1.234972044e-38
-0.2289412469 -0.04939187318 0.02265809476 1.088609222e-38
0.1583628654 -0.1487718374 -0.2271776646 8.599173124e-39
-0.1433310211 -0.426499486 -0.1229165494 2.012846134e-39
0.1170362532 -0.4761593938 -0.2116060704 9.151249686e-40
-0.162681967 -0.4024934173 0.1312994808 2.65318348e-39
-0.01841992885 -0.214874953 -0.1718154699 7.04406814e-39
-0.1477259099 0.0395770818 0.1310174763 1.299005778e-38
-0.2255832106 -0.1362864822 -0.2265689373 8.873603415e-39
0.3595795631 -0.04062495008 -0.2387006283 1.106904574e-38
0.1215137318 0.03835083172 -0.2257343233 1.289858102e-38
0.08295787126 0.07604502141 0.09671409428 1.381334866e-38
-0.09666512161 0.05408256501 -0.0822828263 1.335596484e-38
0.3238378167 -0.3436352611 -0.165987581 4.025334936e-39
-0.1876137853 -0.1849015653 0.01554434374 7.684405486e-39
0.1838072091 -0.3605687618 0.3838958442 3.567951117e-39
0.09562364221 0.07647579163 -0.05262740701 1.381334866e-38
0.02370625362 -0.3716432154 -0.2038259804 3.38499759e-39
-0.141327709 -0.4807348251 -0.2275609076 8.236482049e-40
0.3090684116 0.02907368541 -0.1113852561 1.271562749e-38
0.03336464986 -0.03578584641 -0.2289493382 1.116052251e-38
0.2468044311 -0.4568534791 -0.1808229387 1.372508787e-39
-0.1309194416 -0.1003050506 0.07587123662 9.696894289e-39
0.2597765326 -0.4856299758 -0.2166129947 6.406946774e-40
-0.1655892581 -0.2362883985 0.2840341926 6.495207557e-39
-0.2007803768 -0.2375674844 -0.1888913363 6.495207557e-39
0.3818028569 -0.3028891683 -0.2040695697 4.940102574e-39
-0.2176356614 -0.18093355 0.1599266529 7.77588225e-39
-0.1477915645 -0.4698418677 -0.1770478487 1.006601732e-39
-0.2158014774 0.05010205507 -0.2278697342 1.317301131e-38
-0.1669978052 -0.3197617531 -0.1222854704 4.574195519e-39
0.1394715756 -0.2870335877 -0.03860011697 5.306009629e-39
0.2594985366 -0.04778304324 -0.2289927155 1.088609222e-38
-0.1421064883 -0.3195122778 0.02817300707 4.574195519e-39
-0.09535098821 -0.2368760258 -0.2030307055 6.495207557e-39
-0.2285950035 0.05100204423 0.2593984902 1.326448808e-38
-0.1412267387 -0.04934271425 -0.02878517658 1.088609222e-38
-0.07966398448 -0.3609832227 0.3722306192 3.567951117e-39
0.08784033358 -0.3349989653 -0.1894153059 4.208288464e-39
0.3090818524 -0.4855593443 -0.1029510424 6.406946774e-40
