# .PCD v0.7 - Point Cloud Data file format
VERSION 0.7
FIELDS x y z rgb
SIZE 4 4 4 4
TYPE F F F F
COUNT 1 1 1 1
WIDTH 837
HEIGHT 1
VIEWPOINT 0 0 0 1 0 0 0
POINTS 837
DATA ascii
-0.2084994912 -0.3446680605 -0.11279203 3.659427881e-39
-0.2182566971 -0.3844152987 -0.1746474206 2.744660244e-39
-0.1803566515 -0.3630051911 -0.2127658427 3.202044062e-39
-0.2280636728 -0.385531038 -0.2078107744 2.744660244e-39
-0.2491152287 -0.4114103913 -0.3146388829 2.104322897e-39
0.1010167077 -0.06210355833 -0.1382296234 1.024575487e-38
-0.1753917783 -0.3998824954 -0.3733608723 2.378753189e-39
0.08711130172 -0.08727838099 0.3747852147 9.696894289e-39
-0.1380654424 -0.3739608526 -0.3606142402 2.927613771e-39
-0.0008444593986 -0.410389483 0.4752946198 2.104322897e-39
0.05302123725 -0.3861200213 0.3342896104 2.65318348e-39
-0.03405017778 -0.3617593646 0.2669198513 3.293520826e-39
0.05001132563 -0.4110524058 0.2609594762 2.104322897e-39
0.01121857297 -0.4854372442 0.3614577949 3.662643861e-40
0.08594401181 -0.4115565121 0.3736004531 2.104322897e-39
-0.001076854765 -0.199195683 0.4860442281 7.04406814e-39
0.003804394975 -0.3417922556 -0.270467639 3.750904645e-39
-0.03717998415 -0.369730562 -0.2901875675 3.110567299e-39
-0.01156600937 -0.3746893704 -0.3643283546 2.927613771e-39
0.1869264394 -0.2370404452 0.3619092405 6.220777266e-39
-0.4346871376 -0.1192763746 0.2513940334 8.965080179e-39
-0.4745895565 -0.1495975256 0.1600089818 8.233266069e-39
0.0119490996 -0.2362845093 0.4853572249 6.220777266e-39
0.4616108239 -0.1983636618 -0.1388541758 7.04406814e-39
0.1543669701 -0.1091925204 0.3494001031 9.148033706e-39
0.1732733101 -0.1237265766 0.3601413965 8.873603415e-39
-0.05231573433 -0.4478498697 -0.3500969112 1.281032024e-39
-0.4382559359 -0.3362754285 0.174257189 3.842381409e-39
0.1749117821 -0.1123183072 -0.1629817635 9.056556942e-39
0.08732876182 -0.4498042166 0.2621836364 1.18955526e-39
0.07482877374 -0.09980422258 -0.1003163382 9.422463997e-39
-0.3876712024 -0.4373042285 0.1871836483 1.463985551e-39
-0.0001712145313 -0.2498042285 0.4121836722 5.854870211e-39
-0.0001712145313 -0.04980424047 -0.1253163517 1.052018516e-38
-0.1002220958 -0.4497919679 -0.3003336489 1.18955526e-39
-0.0002446892322 -0.2121231109 0.3364786804 6.769637849e-39
-0.4881994724 -0.4120354056 0.173250556 2.104322897e-39
-0.2282303274 -0.06888347864 -0.04769310728 1.015427811e-38
-0.2550912499 -0.09210674465 -0.04522205144 9.605417525e-39
-0.2504416704 -0.1000244021 -0.1402871609 9.422463997e-39
0.06105738506 -0.1741160899 0.4858986735 7.684405486e-39
-0.01010967791 -0.3406404555 -0.2452695221 3.750904645e-39
-0.04240529984 -0.3605394065 -0.2530484796 3.293520826e-39
-0.03820826113 -0.3747320175 -0.3144071102 2.927613771e-39
-0.462549299 -0.2622635365 0.174346 5.58043992e-39
0.1867969781 -0.474740684 0.3234446049 6.406946774e-40
-0.273991406 -0.09980853647 -0.1002151668 9.422463997e-39
-0.3080264032 -0.1003290415 -0.03559427336 9.422463997e-39
-0.3248927891 -0.1001750082 -0.1260777563 9.422463997e-39
0.08745981753 -0.03662524745 0.3854875267 1.088609222e-38
0.02367693745 -0.03598985076 0.324085176 1.088609222e-38
0.03977584839 -0.1538773775 0.3632631004 8.141789305e-39
-0.001400884939 -0.1863001883 0.3603359461 7.409975195e-39
-0.1400410831 -0.3521328568 -0.2118638903 3.476474354e-39
-0.1637318134 -0.3742236495 -0.2884769142 2.927613771e-39
0.1000522897 -0.4370211661 0.4366354942 1.463985551e-39
-0.2009074986 -0.08599278331 0.1732644886 9.696894289e-39
0.08641075343 -0.2097564489 0.3974582255 6.861114612e-39
-0.0505810231 -0.3300453424 0.4568012357 4.025334936e-39
0.01850953698 -0.3574185967 0.4351904392 3.38499759e-39
-0.001608992461 -0.3601016104 0.4346415401 3.293520826e-39
0.1611438543 -0.1851160526 0.260948509 7.409975195e-39
0.06222292408 -0.03693696484 0.424287647 1.088609222e-38
0.4623498619 -0.1373034567 -0.1378670633 8.50769636e-39
0.09890993685 -0.4870148897 0.2748749256 3.662643861e-40
0.187338084 -0.2497834116 0.2747000158 5.854870211e-39
-0.3751653433 -0.312107116 0.1625825465 4.391241991e-39
-0.2497327328 -0.4363884628 -0.3709047735 1.555462315e-39
0.07469508797 -0.1998431534 0.487061739 7.04406814e-39
-0.1502995938 -0.4498412907 -0.3625469208 1.18955526e-39
-0.4001580179 -0.3998273015 0.1746924669 2.378753189e-39
0.01234860998 -0.4622918665 0.262173295 9.151249686e-40
-0.2753255963 -0.0996253863 -0.1630373895 9.422463997e-39
0.09920722246 -0.2490249872 0.4744415283 5.854870211e-39
0.1609056443 -0.08641879261 0.3626565039 9.696894289e-39
0.1628688574 -0.3699573576 0.3214044273 3.110567299e-39
0.1857087761 -0.4235661924 0.3354788423 1.829892606e-39
-0.07064326108 -0.09725978971 0.1964162588 9.422463997e-39
-0.06459378451 -0.09877279401 0.1724098027 9.422463997e-39
-0.002069175709 -0.2858327627 0.2733674049 5.031579337e-39
0.06839124858 -0.1109169126 0.4007940888 9.148033706e-39
0.1000703424 -0.112166822 0.3614349067 9.148033706e-39
0.01198177692 -0.1740799695 0.486056596 7.684405486e-39
0.1873149425 -0.4742251933 0.3617123663 6.406946774e-40
-0.1760505736 -0.4497857392 -0.3127688169 1.18955526e-39
-0.0008314136066 -0.2741539776 0.474708885 5.306009629e-39
0.1363554299 -0.09971508384 -0.07527980208 9.422463997e-39
0.07489752769 -0.1194398999 -0.08148469031 8.965080179e-39
0.1491799504 -0.08696875721 -0.1523702294 9.696894289e-39
-0.07597581297 -0.4618116021 -0.289803952 9.151249686e-40
0.1132120416 -0.387163192 -0.3644526303 2.65318348e-39
-0.2951104641 -0.1162094474 -0.04588401318 8.965080179e-39
-0.3243415952 -0.1132007688 -0.1510808915 9.056556942e-39
0.1625956893 -0.1492664665 0.3606207371 8.233266069e-39
-0.001172383549 -0.348341912 0.4109714627 3.567951117e-39
0.123967886 -0.1461014599 0.3101507723 8.324742832e-39
0.1352220327 -0.1437991858 0.2778766453 8.324742832e-39
0.1849502176 -0.1355641633 0.2726984024 8.599173124e-39
-0.1642470956 -0.4233041704 -0.2355566025 1.829892606e-39
-0.1775126755 -0.4721661806 -0.2781830132 6.406946774e-40
-0.01564031094 -0.1357679069 -0.02448528074 8.50769636e-39
-0.07494711876 -0.1309702992 -0.03092896007 8.690649887e-39
-0.06392153352 -0.1110473052 -0.1043917835 9.148033706e-39
0.004708098248 -0.04359576106 0.4417071939 1.070313869e-38
-0.00169328542 -0.04803130403 0.4333705902 1.061166193e-38
-0.1417542845 -0.06193703413 0.1868950427 1.024575487e-38
-0.09973208606 -0.09760986269 0.1724987775 9.422463997e-39
0.100080274 -0.1731981337 0.258628875 7.684405486e-39
-0.3194843829 -0.2438040227 0.3205083013 6.037823739e-39
-0.3927891552 -0.2504082918 0.2588457465 5.854870211e-39
-0.3608731031 -0.2630839348 0.231639117 5.58043992e-39
-0.3967938423 -0.2659104466 0.1918767095 5.488963156e-39
-0.4373308122 -0.2737821341 0.159704715 5.306009629e-39
0.1307841837 -0.2188693434 0.2824694514 6.586684321e-39
0.1244002432 -0.236922577 0.2618966997 6.220777266e-39
0.1241658777 -0.4232276678 -0.3146613836 1.829892606e-39
0.03539827093 -0.3737020791 -0.3345973194 3.019090535e-39
0.01251451578 -0.3175660968 0.4549620152 4.299765227e-39
0.0863975212 -0.3733384907 0.4842110276 3.019090535e-39
0.02317022532 -0.03532662243 0.3602237105 1.088609222e-38
-0.08137702942 -0.3927122056 -0.2136681974 2.561706716e-39
-0.1464258581 -0.4013306499 -0.2070245892 2.287276425e-39
-0.1479968578 -0.4370831847 -0.2633851469 1.463985551e-39
-0.07491654158 -0.08644603938 -0.1261774153 9.696894289e-39
-0.3887609243 -0.2235326171 0.174083069 6.495207557e-39
0.2045812011 -0.06477379799 0.2761255801 1.024575487e-38
0.1855783165 -0.07189933956 0.2590901852 1.006280134e-38
-0.0126638636 -0.02053692937 0.3146663308 1.125199927e-38
-0.03078101575 -0.08604204655 0.2657347023 9.696894289e-39
-0.02536921203 -0.0736798048 0.2472826093 9.97132458e-39
0.0480674319 -0.04830462858 0.2595387995 1.061166193e-38
-0.4768001735 -0.248288855 0.1598357111 5.946346975e-39
-0.03846372291 -0.08540041745 -0.1274409443 9.696894289e-39
-0.001388985896 -0.3092577755 0.3729800284 4.482718755e-39
-0.005943797529 -0.2872072458 0.4791460335 5.031579337e-39
-0.05745291337 -0.2712460756 0.4718490839 5.397486392e-39
0.01072034799 -0.2969008088 0.4843384326 4.757149046e-39
0.1852383167 -0.2215773612 0.2602159083 6.495207557e-39
-0.06380140781 -0.1106283292 -0.1521414667 9.148033706e-39
0.1258861274 -0.3364987373 0.2614651322 3.842381409e-39
-0.4070442915 -0.3756675124 0.2410107255 2.927613771e-39
-0.4191294014 -0.3868231177 0.2061715722 2.65318348e-39
-0.4240100086 -0.4356878698 0.1847601086 1.555462315e-39
-0.4006654918 -0.1220777854 0.1607047468 8.873603415e-39
-0.03235437721 -0.1536703259 0.3496251404 8.141789305e-39
-0.06586867571 -0.132331118 0.3401778638 8.599173124e-39
-0.0006902306923 -0.149478361 0.3228988647 8.233266069e-39
0.09850267321 -0.4355053902 0.3607490957 1.555462315e-39
0.08698493987 -0.3492743969 0.4235655069 3.567951117e-39
-0.1133280918 -0.4363193512 -0.2638634443 1.555462315e-39
-0.0460694544 -0.07469558716 -0.07674113661 9.97132458e-39
-0.065726161 -0.105365321 -0.06936052442 9.23951047e-39
-0.06247847155 -0.06291852891 -0.127401039 1.024575487e-38
-0.3491380811 -0.2023658752 0.255387187 6.952591376e-39
-0.4248787761 -0.2493072748 0.1704532355 5.854870211e-39
-0.0007763602771 -0.4611406326 0.4358171821 9.151249686e-40
0.08392142504 -0.06907492876 0.3031027615 1.015427811e-38
0.08565658331 -0.03646831959 0.2978056371 1.088609222e-38
-0.04965031892 -0.05504083633 0.3842579722 1.04287084e-38
-0.0007162070251 -0.04897893965 0.3600726724 1.061166193e-38
0.09889495373 -0.122979939 0.2600684762 8.873603415e-39
0.1110986397 -0.3727610707 0.2609125674 3.019090535e-39
-0.02928806469 -0.2669257522 0.301756531 5.488963156e-39
-0.0008270299295 -0.2741340697 0.2976062894 5.306009629e-39
0.1866262555 -0.07270360738 0.2856106758 1.006280134e-38
0.024202222 -0.4226533175 0.4856226444 1.829892606e-39
-0.1387845874 -0.09763091803 -0.1258269101 9.422463997e-39
-0.06461814046 -0.1436935663 0.4074426889 8.324742832e-39
-0.001674170489 -0.1488032639 0.3973835707 8.233266069e-39
0.1858617514 -0.1105315983 -0.1143783256 9.148033706e-39
-0.0004986925633 -0.2362336814 0.4742558897 6.220777266e-39
0.03732079268 -0.06215891987 0.4868223667 1.024575487e-38
0.1868417263 -0.398756355 0.3363635838 2.378753189e-39
0.07405822724 -0.03553625196 0.3483046591 1.088609222e-38
0.1206375808 -0.1369068921 0.3669310212 8.50769636e-39
0.1357085556 -0.16125305 0.3596560359 7.958835777e-39
0.06114522368 -0.03541575372 0.3983968794 1.088609222e-38
0.461889863 -0.2488864511 -0.1506995559 5.946346975e-39
-0.4626722932 -0.2123006433 0.1621820778 6.769637849e-39
-0.2376712263 -0.4748042226 -0.2878163457 6.406946774e-40
-0.0001712145313 -0.0248042345 0.1746836603 1.116052251e-38
0.1622772664 -0.4121923745 0.3619946837 2.104322897e-39
0.1246751696 -0.336108923 0.361795187 3.842381409e-39
0.01993294433 -0.4724805355 -0.2765773237 6.406946774e-40
0.0363407284 -0.2508327961 0.2617533207 5.854870211e-39
0.02436075732 -0.2490371317 0.2603503168 5.854870211e-39
0.1616614163 -0.4861578345 0.2859132588 3.662643861e-40
0.06214302778 -0.3740725815 -0.3257372677 2.927613771e-39
0.1498048753 -0.06236089766 -0.1251588762 1.024575487e-38
0.1247793958 -0.1246790588 0.3619410992 8.782126651e-39
0.1874696463 -0.2113595754 0.3361898959 6.769637849e-39
-0.1151142493 -0.04935503751 -0.1227611452 1.061166193e-38
0.02918609232 -0.3393118382 0.5051659346 3.750904645e-39
0.06143570319 -0.3849985898 0.484935075 2.744660244e-39
0.06327270716 -0.2292996347 0.4702419639 6.403730794e-39
0.03658681735 -0.2860783339 0.485668391 5.031579337e-39
-0.01314453222 -0.3861708641 -0.375728935 2.65318348e-39
-0.08795405179 -0.1116548553 -0.1132672876 9.148033706e-39
-0.487636447 -0.4367018938 0.1741656512 1.463985551e-39
-0.09993305802 -0.4744699001 -0.2879377604 6.406946774e-40
-0.3066209853 -0.2568116486 0.172135964 5.671916684e-39
-0.3746593893 -0.2747557461 0.1741687804 5.306009629e-39
-0.02520748414 -0.4491092861 -0.3506535292 1.18955526e-39
0.1373543143 -0.4744804204 0.3618349135 6.406946774e-40
-0.287527442 -0.08652387559 -0.1131597906 9.696894289e-39
0.08650229871 -0.4485343695 0.4120230377 1.18955526e-39
0.02038741298 -0.36763677 0.2561670244 3.110567299e-39
0.02481834777 -0.3993248641 0.2611727417 2.378753189e-39
-0.03822429106 -0.04919129238 -0.1256199479 1.061166193e-38
-0.4128704369 -0.2869373262 0.1744754165 5.031579337e-39
-0.2877586186 -0.1122782305 -0.1628246456 9.056556942e-39
0.1371444464 -0.3124452829 0.2618232965 4.391241991e-39
0.07470942289 -0.1121865362 -0.16343759 9.056556942e-39
-0.02907240391 -0.4207394123 -0.1864473522 1.92136937e-39
-0.03684419766 -0.4621974528 -0.2757217288 9.151249686e-40
0.1874367893 -0.2375293821 0.2868576646 6.129300502e-39
-0.038695544 -0.1124203429 -0.1385883838 9.056556942e-39
0.04506938159 -0.3526262939 -0.2435508668 3.476474354e-39
0.08651866764 -0.3748327792 -0.3135213256 2.927613771e-39
-0.3879006803 -0.3118903935 0.1741516292 4.391241991e-39
0.02389936708 -0.08695764095 0.4867015183 9.696894289e-39
-0.07640372962 -0.3870087862 -0.3758452237 2.65318348e-39
0.3544844985 -0.2106888145 -0.1021071225 6.769637849e-39
0.4618384838 -0.1986683905 -0.1529126316 7.04406814e-39
0.04662761465 -0.03495821729 0.3460077941 1.088609222e-38
-0.364577055 -0.1829144806 0.2923288345 7.409975195e-39
-0.326785177 -0.2366705537 0.2280529141 6.220777266e-39
-0.3363152146 -0.2380041182 0.1845546663 6.129300502e-39
-0.3999844193 -0.2246059179 0.1576667428 6.495207557e-39
-0.02318799496 -0.07622522116 0.3773603141 9.97132458e-39
-1.223394065e-05 -0.04960163683 0.3229653537 1.061166193e-38
0.03527044877 -0.1613699049 0.4864461124 7.958835777e-39
-0.4181694984 -0.1543911695 0.2251739055 8.141789305e-39
-0.4616904855 -0.1500850618 0.1598027647 8.233266069e-39
-0.3704486191 -0.3935417831 0.2281761765 2.470229952e-39
-0.4620896876 -0.4359325469 0.161160171 1.555462315e-39
0.08735469729 -0.2234827727 0.3986551464 6.495207557e-39
0.02946177125 -0.288477838 0.3639225066 4.940102574e-39
-0.04141454771 -0.2699156702 0.3478325903 5.397486392e-39
-0.0004588437441 -0.3229526579 0.3605441153 4.208288464e-39
0.02339306287 -0.3714398444 0.2594807446 3.019090535e-39
0.02341698483 -0.05960390717 -0.1402447522 1.033723163e-38
0.01828945428 -0.3956098855 0.4956362844 2.470229952e-39
0.08472944051 -0.3831299543 0.4752592444 2.744660244e-39
0.08581413329 -0.4438200891 0.4825378954 1.372508787e-39
-0.01678148657 -0.3298253417 0.4890030026 4.025334936e-39
-0.01182662323 -0.3151226938 0.4495972395 4.391241991e-39
0.01089056116 -0.3727277815 0.4845764637 3.019090535e-39
0.4604731798 -0.1469448656 -0.1383089274 8.324742832e-39
-0.001096895547 -0.1485369503 0.2985633612 8.233266069e-39
-0.1489731222 -0.4625717103 -0.2753762305 9.151249686e-40
-0.1993191391 -0.3663811088 -0.2635302544 3.110567299e-39
-0.2622680366 -0.4250567257 -0.3004304171 1.738415842e-39
-0.4741802216 -0.4128543139 0.1872442365 2.104322897e-39
-0.4874357581 -0.2248741686 0.1621377468 6.495207557e-39
0.4623735845 -0.3125023842 -0.1502411813 4.391241991e-39
-0.3251712024 -0.09980422258 -0.1503163576 9.422463997e-39
0.1248272359 -0.4247984886 -0.2878030539 1.738415842e-39
-0.1252004355 -0.3872483671 -0.3752816617 2.65318348e-39
-0.0003117186716 -0.1743264645 0.3744204938 7.684405486e-39
-0.1507644951 -0.4487093389 -0.3497855663 1.18955526e-39
-0.01216702908 -0.3746658862 0.305785954 2.927613771e-39
-0.06022227556 -0.3665228188 0.2769910097 3.110567299e-39
0.04960307851 -0.3983522356 0.2604423463 2.378753189e-39
0.04789304733 -0.03483613953 0.3854063153 1.088609222e-38
-0.1582579613 -0.2723039687 0.4234329462 5.397486392e-39
-0.2061414719 -0.362187326 0.314979881 3.202044062e-39
0.1649247408 -0.3360161781 0.3729295731 3.842381409e-39
0.1309653819 -0.3967483044 0.2975937724 2.470229952e-39
0.1152935475 -0.383045733 0.279047519 2.744660244e-39
0.08225513995 -0.4075327516 0.2944640815 2.195799661e-39
0.1738936603 -0.4478986561 0.2601312697 1.281032024e-39
-0.4507772923 -0.247957617 0.1737919897 5.946346975e-39
0.1751133054 -0.1492586285 0.2615341544 8.233266069e-39
-0.3549355567 -0.3527782261 0.2338249683 3.476474354e-39
-0.3890309632 -0.4225917161 0.1736935824 1.829892606e-39
-0.02434840798 -0.1504259706 0.4669419229 8.233266069e-39
-0.002309920732 -0.1715921015 0.4717982113 7.684405486e-39
0.1184351146 -0.1207156628 0.3862497807 8.873603415e-39
0.06779190898 -0.1053677648 0.334069252 9.23951047e-39
0.09825410694 -0.1316458285 0.322422266 8.690649887e-39
0.1163538843 -0.1143307984 0.2986859083 9.056556942e-39
0.1835398972 -0.09826944768 0.2833462059 9.422463997e-39
0.07423958182 -0.3737841249 -0.1989963353 3.019090535e-39
0.01675461978 -0.389313072 -0.2467991412 2.65318348e-39
0.1363364607 -0.4089575112 -0.3104064763 2.195799661e-39
-0.02003158629 -0.168808341 0.4994475245 7.77588225e-39
0.008254148066 -0.2491886765 0.4758023322 5.854870211e-39
-0.01260634512 -0.1924695224 0.4435938597 7.227021667e-39
0.01016775332 -0.2100189328 0.485096544 6.769637849e-39
0.07350797206 -0.03448135033 0.3078966439 1.088609222e-38
-0.05080137029 -0.1101836413 -0.1263588965 9.148033706e-39
0.01440547407 -0.06550016999 -0.02312410623 1.015427811e-38
-0.06443247944 -0.1147095859 -0.01421478391 9.056556942e-39
-0.02869856358 -0.08693704009 -0.06643094122 9.696894289e-39
-0.02758365124 -0.06223423779 -0.127493456 1.024575487e-38
0.1699566245 -0.0829603523 -0.1274487823 9.788371052e-39
0.1735322326 -0.09828615189 -0.1645659953 9.422463997e-39
-0.02474011481 -0.1088819206 -0.07597413659 9.148033706e-39
-0.1420968324 -0.1187186241 -0.04060615599 8.965080179e-39
-0.08693873137 -0.1000356376 -0.1396895498 9.422463997e-39
-0.01162107289 -0.03652899712 0.1724227071 1.088609222e-38
0.06272316724 -0.2237037569 0.484041363 6.495207557e-39
-0.2165135145 -0.2484512031 0.3261398673 5.946346975e-39
-0.2679912448 -0.2284019738 0.248896718 6.403730794e-39
-0.3850950897 -0.2176321894 0.2127411515 6.678161085e-39
-0.4180400372 -0.2053948641 0.1948817372 6.952591376e-39
-0.4242832661 -0.2187428623 0.1621933877 6.586684321e-39
-0.4626672566 -0.2118175775 0.170717746 6.769637849e-39
0.02443575673 -0.4605822861 -0.2892420292 9.151249686e-40
-0.1394634247 -0.4355761111 -0.2638959587 1.555462315e-39
0.05951435119 -0.3710663319 0.3062823415 3.019090535e-39
0.01018616557 -0.4079405665 0.2908042967 2.195799661e-39
0.1493546218 -0.4851996005 0.2853085101 3.662643861e-40
-0.3897610605 -0.2470788509 0.1734664142 5.946346975e-39
-0.4644434452 -0.2728345692 0.1737141609 5.306009629e-39
-0.04982277751 -0.09414631128 0.2078655064 9.513940761e-39
-0.1226640344 -0.1125132442 0.1705856621 9.056556942e-39
-0.06394755095 -0.08623372763 0.1723211855 9.696894289e-39
0.08647996187 -0.1894551963 0.3055146933 7.318498431e-39
0.1742545962 -0.223524034 0.2605312765 6.495207557e-39
0.0482121855 -0.06104142591 0.4860359728 1.033723163e-38
0.1111162007 -0.43648386 0.3612545729 1.463985551e-39
0.1862372607 -0.2248773277 0.3488467932 6.495207557e-39
-0.01344195008 -0.3792543709 -0.2389412671 2.836137007e-39
0.1219069809 -0.3989183903 -0.3239715993 2.378753189e-39
-0.04558573291 -0.3816591799 0.3060753942 2.836137007e-39
0.08534273505 -0.2598782778 0.2841209471 5.671916684e-39
0.03042996675 -0.2837950289 0.318867743 5.123056101e-39
-0.05853337049 -0.1396168172 0.09810104966 8.416219596e-39
-0.0176169835 -0.1060400307 0.002658501267 9.23951047e-39
-0.03941484541 -0.1736025363 -0.05225754902 7.684405486e-39
-0.03683042526 -0.1347289383 -0.1076749265 8.599173124e-39
-0.02504470386 -0.09953155369 -0.1404983401 9.422463997e-39
0.09656494111 -0.4854605496 0.2609139681 3.662643861e-40
0.1219049916 -0.3101582527 0.2618029416 4.482718755e-39
0.2904224098 -0.297947377 0.0370580554 4.757149046e-39
0.3317655921 -0.3361673951 -0.02785020694 3.842381409e-39
0.308092922 -0.3182390332 -0.05561599135 4.299765227e-39
0.3082336187 -0.3205381632 -0.07075659931 4.208288464e-39
0.448115021 -0.3115017414 -0.1520906836 4.391241991e-39
-0.4264431298 -0.2865075767 0.1745420396 5.031579337e-39
-0.05095568672 -0.4736927152 -0.2846280634 6.406946774e-40
-0.08728005737 -0.461121738 -0.2870764136 9.151249686e-40
0.04987600818 -0.3864904642 0.2593569458 2.65318348e-39
-0.3902000785 -0.3727496266 0.2620148957 3.019090535e-39
-0.4410960078 -0.4054431915 0.219473213 2.195799661e-39
-0.4204381406 -0.3859717846 0.2042586952 2.65318348e-39
-0.4846292436 -0.4243811667 0.1835792661 1.829892606e-39
-0.3568611741 -0.249213025 0.2145749032 5.854870211e-39
-0.3852511942 -0.2609835565 0.1591733247 5.58043992e-39
-0.02272455394 -0.3249609172 0.429314822 4.1168117e-39
-0.1881810427 -0.2414176464 0.3404911757 6.037823739e-39
-0.2230870724 -0.3917511106 0.3428434432 2.561706716e-39
-0.2497714907 -0.3107076287 0.1824770868 4.482718755e-39
-0.07112892717 -0.4164469838 0.1265578419 2.012846134e-39
0.1468305141 -0.2455176264 0.1666319519 5.946346975e-39
0.08286773413 -0.154330343 0.3394113183 8.141789305e-39
-0.1157051772 -0.3167079687 0.3818152845 4.299765227e-39
-0.2516897619 -0.1410315931 0.3511995375 8.416219596e-39
-0.3188306689 -0.4530112445 0.2169876695 1.098078496e-39
-0.05945214629 -0.3678142726 0.1806446612 3.110567299e-39
-0.08543498814 -0.3409894705 0.332395792 3.750904645e-39
0.0659352541 -0.07982736826 0.3404415846 9.879847816e-39
0.1825833917 -0.1023397148 0.3248481154 9.330987234e-39
0.1476396769 -0.1101114303 0.309757024 9.148033706e-39
0.06521417946 -0.1161899567 0.2739961445 8.965080179e-39
0.1868568808 -0.08619130403 0.2707596123 9.696894289e-39
0.06031719595 -0.03561097756 0.333869338 1.088609222e-38
-0.05374036729 -0.08845357597 0.1337919831 9.696894289e-39
-0.1232862324 -0.1047527939 0.02130506933 9.23951047e-39
-0.1445478052 -0.1207704544 -0.03210494667 8.873603415e-39
-0.1091900766 -0.08053919673 -0.0567170307 9.879847816e-39
-0.08669749647 -0.10004583 -0.1297483593 9.422463997e-39
-0.3795830011 -0.1918086261 0.2580899 7.227021667e-39
-0.4152902365 -0.2257983685 0.2151019126 6.403730794e-39
-0.4743300974 -0.2210780829 0.1691886485 6.586684321e-39
-0.1815772951 -0.3944523931 0.3997725844 2.470229952e-39
-0.1174385697 -0.1824417859 0.2956398129 7.501451959e-39
-0.008989799768 -0.4318386912 0.3005150855 1.646939079e-39
0.07071214914 -0.04488933086 0.3448572755 1.070313869e-38
-0.1223345101 -0.4679297805 0.3058475554 7.321714411e-40
-0.2259076238 -0.238204807 0.2575676441 6.129300502e-39
-0.1573504508 -0.4218167663 0.2069688886 1.829892606e-39
0.03421856463 -0.3356382549 0.1600367129 3.842381409e-39
0.07238397747 -0.3027659953 0.338073194 4.665672282e-39
0.0383233279 -0.3105834723 0.07693083584 4.482718755e-39
-0.03732023388 -0.42588377 -0.08485224098 1.738415842e-39
0.02980596013 -0.375456214 -0.1869681776 2.927613771e-39
0.07310638577 -0.3988953233 -0.2194795907 2.378753189e-39
0.1227641478 -0.4187912047 -0.2852008045 1.92136937e-39
-0.03737774491 -0.3381989896 0.4233997166 3.842381409e-39
-0.2681251764 -0.2391655743 0.3258704245 6.129300502e-39
-0.07609267533 -0.280859381 0.3754112124 5.123056101e-39
-0.02916095033 -0.2844210565 0.2617965639 5.031579337e-39
-0.01232749969 -0.2056503147 0.3052040339 6.952591376e-39
-0.1020050198 -0.3677975535 0.3254553974 3.110567299e-39
-0.263199687 -0.2087053061 0.236857146 6.861114612e-39
-0.2653771341 -0.4485036433 0.2763050199 1.18955526e-39
0.2282622308 -0.292196095 0.08162668347 4.84862581e-39
-0.1191932261 -0.3300785422 0.32546404 4.025334936e-39
-0.205136314 -0.2207100838 0.3231309652 6.586684321e-39
-0.150268957 -0.3726082444 0.195714727 3.019090535e-39
0.1352984011 -0.3959130049 0.1354798824 2.470229952e-39
-0.05356653035 -0.2185789943 0.3882518411 6.586684321e-39
-0.1158148646 -0.2620831132 0.2994232774 5.58043992e-39
-0.1041893736 -0.3159886599 0.2395552099 4.299765227e-39
0.1238549203 -0.3372842073 0.2814093828 3.842381409e-39
0.005740279332 -0.05817405879 0.3730558455 1.033723163e-38
-0.2137888372 -0.4096325934 0.3769829869 2.104322897e-39
-0.2726123333 -0.2122037262 0.2540277541 6.769637849e-39
-0.1541563869 -0.4018109143 0.09529460967 2.287276425e-39
0.1987501532 -0.2542481422 0.1225376129 5.763393447e-39
0.07203021646 -0.3710824251 0.3353295922 3.019090535e-39
-0.219096452 -0.08967539668 0.3797596097 9.605417525e-39
-0.1901215613 -0.3962881863 0.2911095917 2.470229952e-39
0.02421735227 -0.3875086308 0.04494960979 2.65318348e-39
0.002134762704 -0.2661567032 0.3848098516 5.488963156e-39
-0.1837871373 -0.1573753953 0.3636695445 8.050312541e-39
-0.2584762573 -0.4171734154 0.2853214443 1.92136937e-39
-0.1222536117 -0.2340646088 0.2624151111 6.220777266e-39
-0.1783088744 -0.4683075547 0.1336812675 7.321714411e-40
0.04630316794 -0.2053626478 0.2266756296 6.952591376e-39
0.1609388441 -0.3044681549 0.2609707117 4.574195519e-39
-0.1514321715 -0.2370666862 0.4071192741 6.220777266e-39
-0.266808033 -0.1669454128 0.3825982809 7.77588225e-39
-0.1704005897 -0.474473536 0.2031918913 6.406946774e-40
0.2607768178 -0.3328074813 0.002573296428 3.933858172e-39
0.1136347502 -0.3413170278 0.3532572985 3.750904645e-39
-0.01124688983 -0.1115058064 0.3624315262 9.148033706e-39
-0.2491399348 -0.2863877416 0.3707327843 5.031579337e-39
-0.2715477049 -0.3893251121 0.1915972084 2.65318348e-39
-0.06943669915 -0.3817308545 0.0868422389 2.744660244e-39
-0.051485762 -0.4243046343 0.2484076768 1.829892606e-39
-0.09801068902 -0.1712577492 0.2998864055 7.684405486e-39
0.0895922929 -0.3444978595 0.1895126104 3.659427881e-39
0.08013479412 -0.2071050555 0.3532184958 6.861114612e-39
-0.06901492178 -0.1900456548 0.3860509396 7.318498431e-39
-0.2389702201 -0.2414032966 0.3492523432 6.037823739e-39
-0.1651678681 -0.4427033961 0.1668522358 1.372508787e-39
-0.156019181 -0.3871550858 0.167100504 2.65318348e-39
-0.08859506249 -0.3609530628 0.2587628961 3.293520826e-39
0.248153612 -0.3103505969 0.1128291935 4.482718755e-39
0.09833588451 -0.2479862124 0.3635175228 5.946346975e-39
-0.1347326636 -0.1326721013 0.418527782 8.599173124e-39
-0.3074715734 -0.4013988972 0.2952831686 2.287276425e-39
-0.1335593015 -0.4092565775 0.09562119842 2.104322897e-39
-0.09320425987 -0.4554098845 0.2420325875 1.098078496e-39
-0.04153233767 -0.1080821753 0.297388047 9.23951047e-39
-0.141391933 -0.3822012246 0.2797961831 2.744660244e-39
-0.0261124745 -0.3560729921 0.1561132222 3.38499759e-39
0.1626554132 -0.2243691683 0.2444018275 6.495207557e-39
-0.03587380052 -0.1708274037 0.3816094995 7.684405486e-39
-0.2108053416 -0.27339679 0.3915165365 5.306009629e-39
-0.2752058208 -0.2692130506 0.2058179826 5.397486392e-39
-0.1998208761 -0.4609553814 0.09796950221 9.151249686e-40
0.04246713221 -0.3030069768 0.1842166483 4.665672282e-39
0.2008851171 -0.2705563605 0.1862379909 5.397486392e-39
0.01879033446 -0.203104794 0.3998950124 6.952591376e-39
-0.1810256392 -0.09912914038 0.3517962992 9.422463997e-39
-0.2987703085 -0.3979330063 0.2405467927 2.378753189e-39
-0.1111347377 -0.3832445741 0.07719418406 2.744660244e-39
0.1972784251 -0.4204372764 0.1353637874 1.92136937e-39
0.06910953671 -0.1001273841 0.3503878117 9.422463997e-39
0.0402457118 -0.2717227936 0.4190309644 5.397486392e-39
-0.2165088058 -0.2260837406 0.3960184455 6.403730794e-39
-0.1896506399 -0.2962635756 0.280272454 4.757149046e-39
-0.2582171261 -0.4579505622 0.103558749 1.006601732e-39
0.07851534337 -0.3365547359 0.08454248309 3.842381409e-39
0.1083206534 -0.4195246696 0.2730894983 1.92136937e-39
-0.1006977558 -0.1010531485 0.3554792702 9.330987234e-39
-0.2266615033 -0.2226486951 0.4252736568 6.495207557e-39
-0.134095028 -0.426143527 0.2417398244 1.738415842e-39
-0.1689311564 -0.1844467372 0.2025510818 7.409975195e-39
-0.2664878666 -0.4335363507 0.240768224 1.555462315e-39
-0.1399793178 -0.2251637727 0.2571057975 6.495207557e-39
0.1731083244 -0.3388973176 0.2098145783 3.750904645e-39
0.02713786811 -0.2361983359 0.3437966704 6.220777266e-39
-0.07448939979 -0.1859816313 0.4043762088 7.409975195e-39
-0.2211317122 -0.4259014428 0.1771172583 1.738415842e-39
-0.1674778163 -0.4159394801 0.2123383284 2.012846134e-39
0.311811626 -0.3712850809 0.03683259338 3.019090535e-39
0.08818738163 -0.2089173198 0.3560498953 6.861114612e-39
-0.03559970856 -0.2185127884 0.4015663564 6.586684321e-39
-0.2735669911 -0.3406610489 0.3145809174 3.750904645e-39
-0.2848346829 -0.4198761582 0.1640819162 1.92136937e-39
0.1439270824 -0.4604750276 -0.03110216744 9.151249686e-40
0.1255006343 -0.1992286444 0.277095288 7.04406814e-39
-0.02622936293 -0.1312593222 0.3992396593 8.690649887e-39
-0.2744859457 -0.2664912939 0.3605450094 5.488963156e-39
-0.2866846323 -0.3215965033 0.2757344544 4.208288464e-39
-0.1692997068 -0.3684597909 0.08617810905 3.110567299e-39
0.1133785248 -0.4360518157 0.06287333369 1.555462315e-39
0.09827487171 -0.02707761526 0.3182791471 1.106904574e-38
-0.08259256184 -0.4695344567 0.3439712226 7.321714411e-40
-0.1755416393 -0.0689290911 0.3384391963 1.015427811e-38
-0.2150766551 -0.4458943903 0.3073759079 1.281032024e-39
-0.04711516201 -0.1674789339 0.2103961855 7.77588225e-39
-0.1022880822 -0.442835778 0.2166880369 1.372508787e-39
-0.1521195173 -0.1715072095 0.2614607513 7.684405486e-39
0.143210873 -0.4256609082 0.2031954527 1.738415842e-39
0.09910801798 -0.1225199848 0.3220540583 8.873603415e-39
0.009724333882 -0.3380919099 0.4262257814 3.842381409e-39
-0.1915402561 -0.1094071865 0.3793171644 9.148033706e-39
-0.1797979623 -0.4182844162 0.282055825 1.92136937e-39
-0.2089001536 -0.3892133832 0.1124223024 2.65318348e-39
-0.02843956649 -0.4574605525 0.2068742216 1.006601732e-39
-0.02407432348 -0.06699615717 0.3343212008 1.015427811e-38
-0.2812646627 -0.4166228771 0.3088490665 2.012846134e-39
-0.2454131097 -0.2943401933 0.2425757498 4.84862581e-39
0.03527092189 -0.403075397 0.08363808692 2.287276425e-39
-0.05621013045 -0.3264831305 0.2934236825 4.1168117e-39
0.03614410013 -0.00535556674 0.3549105227 1.161790633e-38
-0.1775081158 -0.4046487212 0.3590303063 2.287276425e-39
-0.167918846 -0.2040592432 0.2903678119 6.952591376e-39
-0.1580725461 -0.2022312582 0.3010107279 6.952591376e-39
-0.01760391891 -0.498904407 0.1824568212 9.183409486e-41
0.01470783353 -0.06178763509 0.3264779747 1.024575487e-38
-0.1311220229 -0.4423767924 0.2335255444 1.372508787e-39
-0.1077027023 -0.1162271798 0.3105338216 8.965080179e-39
-0.06019543111 -0.4859415591 0.2920653522 3.662643861e-40
-0.1202390119 -0.2129626423 0.2605224848 6.769637849e-39
0.1042592674 -0.4234908223 0.2773315012 1.829892606e-39
-0.03034357727 -0.1895448864 0.3167757988 7.318498431e-39
-0.18231076 -0.2428787947 0.411700815 6.037823739e-39
-0.2554906607 -0.4302057624 0.178573966 1.646939079e-39
0.2039686441 -0.2633553743 0.01907778531 5.58043992e-39
0.04252128303 -0.3183458149 0.4123670757 4.299765227e-39
-0.2046661973 -0.08432894945 0.3621749878 9.788371052e-39
-0.2909493446 -0.3257880807 0.2317684591 4.1168117e-39
-0.04332902655 -0.4205992818 0.03169625998 1.92136937e-39
0.001405797899 -0.3771122098 0.2846635282 2.927613771e-39
-0.180002287 -0.08965840936 0.350174427 9.605417525e-39
-0.08357040584 -0.4162457883 0.3139210641 2.012846134e-39
-0.1795812845 -0.2102234364 0.2405456007 6.769637849e-39
-0.1550452113 -0.4441254735 0.2901150882 1.372508787e-39
-0.05054271594 -0.1798982322 0.2161437869 7.501451959e-39
-0.005597561598 -0.4195655584 0.3086180687 1.92136937e-39
-0.1712525189 -0.134911254 0.3447704017 8.599173124e-39
-0.1248712689 -0.4217214882 0.3063646257 1.829892606e-39
0.08691820502 -0.2231244892 0.2671483755 6.495207557e-39
0.1263044775 -0.2847530246 0.3465003669 5.031579337e-39
-0.03944301605 -0.2323923111 0.3644232154 6.31225403e-39
-0.2497733533 -0.1996854693 0.3648496568 7.04406814e-39
-0.3053972125 -0.4501365721 0.1817786396 1.18955526e-39
0.1667189151 -0.3953871429 -0.02796808071 2.470229952e-39
0.002847351134 -0.2189898789 0.3176865578 6.586684321e-39
-0.2723292708 -0.2776556015 0.362520963 5.214532865e-39
-0.1502043158 -0.2158592939 0.2433552295 6.678161085e-39
-0.1019062698 -0.45503968 0.1818588227 1.098078496e-39
-0.1493408531 -0.1257196814 0.267972976 8.782126651e-39
0.02529661357 -0.2795142531 0.3458386064 5.214532865e-39
-0.02079795301 -0.3810455501 0.2551731765 2.836137007e-39
-0.2056451589 -0.1538432837 0.2753117681 8.141789305e-39
-0.2658429742 -0.3742520511 0.25772053 2.927613771e-39
-0.008213015273 -0.3420620561 0.1863827109 3.750904645e-39
0.1975948364 -0.4246086478 0.1710290462 1.829892606e-39
0.029409796 -0.1721849442 0.3748996854 7.684405486e-39
-0.1229927391 -0.1347496808 0.4071318507 8.599173124e-39
-0.250133872 -0.4634300172 0.254692167 9.151249686e-40
-0.05568283796 -0.2079222798 0.2685009539 6.861114612e-39
-0.09139945358 -0.4115175009 0.2495098859 2.104322897e-39
-0.08631934226 -0.1502289474 0.3462381959 8.233266069e-39
0.1587181389 -0.3064289093 0.2968559563 4.574195519e-39
-0.1893867105 -0.3034422696 0.3614460826 4.665672282e-39
-0.1599252075 -0.1059865057 0.3689377904 9.23951047e-39
-0.02983159944 -0.4215474129 0.07288423181 1.829892606e-39
-0.09260198474 -0.1867425293 0.3096866906 7.318498431e-39
-0.2179022133 -0.3160917759 0.3955131769 4.299765227e-39
-0.2009217441 -0.1897010952 0.2056824565 7.318498431e-39
-0.0829192698 -0.4302175343 0.2445511073 1.646939079e-39
0.01756907254 -0.1884937286 0.2236806005 7.318498431e-39
-0.1067110598 -0.4646650255 0.2965708673 8.236482049e-40
-0.1245372668 -0.1617501974 0.2785205841 7.958835777e-39
0.002541437745 -0.424688518 0.3089407682 1.738415842e-39
0.04839329422 -0.1920769364 0.2792713046 7.227021667e-39
0.1466114819 -0.3193188608 0.3517884016 4.208288464e-39
-0.01855273545 -0.1658925116 0.3578263521 7.867359014e-39
-0.2645787001 -0.2953064442 0.3698378205 4.84862581e-39
-0.2999155521 -0.4037274122 0.1919537336 2.287276425e-39
0.09448166192 -0.4537785947 -0.0276893042 1.098078496e-39
0.1062234342 -0.1426135004 0.2494149953 8.416219596e-39
-0.1432104707 -0.2639159858 0.4233365953 5.58043992e-39
-0.268464148 -0.1256104112 0.3390854597 8.782126651e-39
-0.2500463724 -0.4630040228 0.247089237 9.151249686e-40
-0.2389160097 -0.2546370029 0.2584590316 5.763393447e-39
-0.08251571655 -0.374812156 0.2497885078 2.927613771e-39
-0.02018599212 -0.3207648695 0.2128317952 4.208288464e-39
0.07029829174 -0.07390169799 0.3379914761 9.97132458e-39
-0.05196090043 -0.487157613 0.2874895632 3.662643861e-40
-0.1989020556 -0.1026045978 0.329877317 9.330987234e-39
-0.07709562778 -0.4775305986 0.2398938984 5.492179136e-40
0.1416766346 -0.2344393283 0.1911097765 6.220777266e-39
-0.09342908859 -0.3613667488 0.4111007452 3.293520826e-39
-0.2156026065 -0.2593302727 0.2765479684 5.671916684e-39
-0.1378577948 -0.3784376681 0.1790753007 2.836137007e-39
0.2559979558 -0.440300703 0.0782969594 1.463985551e-39
0.125841558 -0.05874502659 0.3244094849 1.033723163e-38
-0.1350602955 -0.3531174362 0.4431883693 3.476474354e-39
-0.3094106019 -0.221556887 0.2951045632 6.586684321e-39
-0.02608501911 -0.3982210457 0.04515060037 2.378753189e-39
-0.1205327511 -0.3485864997 0.292526722 3.567951117e-39
-0.005615599453 -0.08768410981 0.3559210896 9.696894289e-39
0.1199178845 -0.3595328629 0.2046148032 3.293520826e-39
0.0003233850002 -0.160007298 0.3807075024 7.958835777e-39
-0.197518304 -0.3805323541 0.355120331 2.836137007e-39
-0.2502265573 -0.2160728127 0.2463290095 6.678161085e-39
-0.2241666317 -0.4607971609 0.1636511981 9.151249686e-40
-0.0953586027 -0.3561487198 0.130338043 3.38499759e-39
0.06822809577 -0.2863625884 0.3013986647 5.031579337e-39
0.01970232278 -0.3166741431 0.2945381701 4.299765227e-39
-0.0770252049 -0.06447091699 0.3563436866 1.024575487e-38
-0.232090205 -0.42688483 0.3218825758 1.738415842e-39
0.01250651665 -0.2329614908 0.2191103399 6.31225403e-39
0.1778467298 -0.4356576204 0.2708453536 1.555462315e-39
0.01847495139 -0.06027242541 0.3443091214 1.033723163e-38
-0.2371822298 -0.3463609815 0.3936803937 3.659427881e-39
-0.2535985708 -0.3094615936 0.1817145795 4.482718755e-39
-0.1419371963 -0.4243956208 0.1235335171 1.829892606e-39
-0.2185503691 -0.2291518301 0.2319412977 6.403730794e-39
-0.07204285264 -0.3589200974 0.2935599089 3.293520826e-39
0.04425893724 -0.2573054731 0.2368741632 5.671916684e-39
-0.02658222616 -0.1797511876 0.3635445237 7.501451959e-39
-0.1683101505 -0.2597199678 0.3549642861 5.671916684e-39
-0.053315714 -0.2185565531 0.2636125386 6.586684321e-39
-0.02048800886 -0.4830811322 0.2703547776 4.577411499e-40
-0.2014912367 -0.1042169333 0.3649207354 9.330987234e-39
-0.2935008407 -0.4396678209 0.2712809145 1.463985551e-39
0.01520307921 -0.3452020288 0.1132508069 3.659427881e-39
0.09968541563 -0.4560906291 0.2164476514 1.006601732e-39
0.07212127745 -0.09130936861 0.3175857365 9.605417525e-39
0.04172474891 -0.3652559221 0.3823626637 3.202044062e-39
-0.1039908826 -0.09700253606 0.3966867328 9.422463997e-39
-0.3043875396 -0.3497883379 0.2913725376 3.567951117e-39
-0.06473851204 -0.3938606381 0.1076488495 2.470229952e-39
0.147765398 -0.3280157149 0.1332616061 4.025334936e-39
-0.1123298183 -0.172748059 0.3660039008 7.684405486e-39
-0.1980167329 -0.3535462022 0.3771650791 3.476474354e-39
-0.1685271412 -0.2888356447 0.2223138362 4.940102574e-39
-0.1964742839 -0.4332361221 0.1922186166 1.555462315e-39
0.1699899733 -0.3220989406 0.1428386271 4.208288464e-39
0.0083360672 -0.1038453877 0.393956095 9.330987234e-39
-0.2950892448 -0.4161151052 0.3159561753 2.012846134e-39
-0.2111279368 -0.2905368209 0.2504194081 4.940102574e-39
0.2200722843 -0.4307163358 0.02972482145 1.646939079e-39
-0.04646400735 -0.117436111 0.3842944205 8.965080179e-39
-0.00523608923 -0.1794538796 0.4205726981 7.501451959e-39
-0.1703041494 -0.4471681118 0.2955667675 1.281032024e-39
-0.1556337029 -0.1486760229 0.2778835297 8.233266069e-39
-0.1515337229 -0.4558641315 0.2288613468 1.098078496e-39
0.2042476833 -0.1925058812 0.1428003162 7.227021667e-39
0.06909962744 -0.4026189148 0.3535018563 2.287276425e-39
-0.1739384532 -0.1138958037 0.3379939795 9.056556942e-39
-0.1840491444 -0.3893610537 0.3168013692 2.65318348e-39
-0.1604382098 -0.3911087513 0.05167656392 2.561706716e-39
-0.08519665897 -0.4058369398 0.3025205731 2.195799661e-39
-0.1397297382 -0.09020256996 0.3793365359 9.605417525e-39
-0.1219261438 -0.3903281093 0.2910436392 2.561706716e-39
-0.1012582928 -0.2363911569 0.2819581628 6.220777266e-39
-0.01186639071 -0.2486976981 0.3413521051 5.946346975e-39
-0.2606948018 -0.3120940626 0.3192489743 4.391241991e-39
-0.0748038739 -0.2401961684 0.2143283188 6.129300502e-39
-0.186883539 -0.47973454 0.2113617212 4.577411499e-40
-0.2136932015 -0.210106656 0.2780436575 6.769637849e-39
-0.06142083928 -0.426771313 0.2453233302 1.738415842e-39
0.2506711483 -0.2604329586 0.1038557738 5.671916684e-39
0.04091629013 -0.2816888988 0.3891841769 5.123056101e-39
-0.05887056887 -0.1929526478 0.400182873 7.227021667e-39
-0.2762896717 -0.3174182773 0.2653413713 4.299765227e-39
-0.2308433801 -0.4813075066 0.135329321 4.577411499e-40
0.2737762332 -0.2659015357 0.04566961154 5.488963156e-39
0.08017133176 -0.3768158257 0.3635752797 2.927613771e-39
-0.1420649588 -0.01498124003 0.3811820447 1.134347604e-38
-0.2407838404 -0.3995162845 0.3036161959 2.378753189e-39
-0.1403673887 -0.3410154581 0.03291450068 3.750904645e-39
0.0812048018 -0.3420804739 0.2469192743 3.750904645e-39
0.02084762603 -0.2527932823 0.3278320134 5.854870211e-39
-0.2147767246 -0.1416904479 0.3452438414 8.416219596e-39
-0.2741226554 -0.4042403102 0.3138834834 2.287276425e-39
-0.1481915712 -0.3494214714 0.07017526776 3.567951117e-39
0.1045795083 -0.3426905572 0.2840306163 3.659427881e-39
-0.04067753255 -0.2858075202 0.3480582237 5.031579337e-39
-0.2170420885 -0.191434294 0.3273130655 7.227021667e-39
0.0783906579 -0.4830437601 0.2041632682 4.577411499e-40
0.155462712 -0.1532029808 0.2652276456 8.141789305e-39
-0.003889322281 -0.3262193203 0.4109690785 4.1168117e-39
-0.1526107341 -0.2995710075 0.2993781269 4.757149046e-39
-0.1611310691 -0.3425713181 0.237620458 3.750904645e-39
-0.2478102446 -0.4564896822 0.1210844964 1.006601732e-39
-0.002362674102 -0.2964564562 0.2591766119 4.757149046e-39
-0.01844632998 -0.2306582332 0.3043591082 6.31225403e-39
-0.2462919801 -0.3452555537 0.3535835445 3.659427881e-39
-0.1459797472 -0.1553720832 0.2952329516 8.050312541e-39
-0.1806182265 -0.4573462605 0.3391299546 1.006601732e-39
-0.08854408562 -0.1584317982 0.2785077691 8.050312541e-39
0.01620709337 -0.4025803506 0.1877228171 2.287276425e-39
-0.0602683872 -0.2393582463 0.2859985232 6.129300502e-39
-0.02378167957 -0.064958781 0.3827335536 1.024575487e-38
-0.2967844009 -0.4388761222 0.2975991964 1.463985551e-39
-0.1675332189 -0.232735455 0.2017317712 6.31225403e-39
0.05579659343 -0.4510502815 0.06531558931 1.18955526e-39
0.07811945677 -0.1552570015 0.2771607339 8.050312541e-39
-0.06466406584 -0.3765234053 0.417204082 2.927613771e-39
-0.2343153059 -0.2093426138 0.3159935474 6.861114612e-39
-0.1661278605 -0.4141616225 0.2646269202 2.012846134e-39
0.1585766971 -0.3739113212 0.1085904092 2.927613771e-39
0.1550953537 -0.0941311121 0.3693065047 9.513940761e-39
-0.001797929406 -0.3792669475 0.4093032479 2.836137007e-39
-0.163859427 -0.09111408889 0.3402016461 9.605417525e-39
-0.2359354794 -0.4581690133 0.2372090816 1.006601732e-39
-0.08187350631 -0.2521187067 0.09506383538 5.854870211e-39
0.02416265756 -0.4060382247 0.3375957906 2.195799661e-39
-0.1363248825 -0.1385885477 0.2999540269 8.50769636e-39
-0.1573787332 -0.3871806264 0.3104346395 2.65318348e-39
-0.2339378595 -0.2836152315 0.267539978 5.123056101e-39
-0.1278302222 -0.425037235 0.2425280362 1.738415842e-39
-0.1210357025 -0.182191968 0.2675104737 7.501451959e-39
-0.1705190986 -0.4267654717 0.2415064573 1.738415842e-39
0.0696227327 -0.1267596632 0.3166264892 8.782126651e-39
0.09980946779 -0.3780945539 0.2817933559 2.836137007e-39
-0.07748110592 -0.1380413473 0.3528381586 8.50769636e-39
0.03621859103 -0.2665058672 0.3823022246 5.488963156e-39
-0.1228619665 -0.3940611184 0.3278194368 2.470229952e-39
-0.2914777398 -0.2757076621 0.2701342106 5.306009629e-39
-0.2059578151 -0.4578445554 0.1388362646 1.006601732e-39
0.2520210147 -0.3803396821 -0.006268909201 2.836137007e-39
0.09560964257 -0.1513137817 0.3702656031 8.141789305e-39
-0.1866863966 -0.1967948973 0.4117684662 7.135544904e-39
-0.2663312256 -0.3303391337 0.2762282491 4.025334936e-39
-0.07586164773 -0.4125515223 0.1010362506 2.104322897e-39
0.05832836032 -0.3915296793 0.06558503211 2.561706716e-39
0.03186799586 -0.05900037289 0.3899850547 1.033723163e-38
-0.2147473544 -0.3453443944 0.3387119174 3.659427881e-39
-0.2812857032 -0.2785836756 0.2462837845 5.214532865e-39
-0.1070700586 -0.3392049074 0.1817740649 3.750904645e-39
0.007215723395 -0.498558253 0.1465318799 9.183409486e-41
-0.01063575782 -0.1046996117 0.2737952471 9.23951047e-39
0.002113178372 -0.4530243874 0.3083688617 1.098078496e-39
-0.09505411983 -0.07778728008 0.3881870508 9.879847816e-39
-0.1412436813 -0.4043849111 0.3999850154 2.287276425e-39
-0.2312935591 -0.2367802262 0.1866645962 6.220777266e-39
-0.123641178 -0.4681789279 0.1617629379 7.321714411e-40
0.1649576426 -0.306987226 0.0745844543 4.574195519e-39
-0.05715252087 -0.380295217 0.34148103 2.836137007e-39
-0.04278472066 0.01337951422 0.407682538 1.207529015e-38
-0.2157984078 -0.3781761825 0.282584846 2.836137007e-39
-0.05506789684 -0.2490658015 0.1818432361 5.854870211e-39
0.1576189399 -0.447678417 0.2433974743 1.281032024e-39
-0.1259663999 -0.08761048317 0.3737547994 9.696894289e-39
-0.1460428387 -0.3517512381 0.4189780354 3.476474354e-39
-0.2168022394 -0.3029357791 0.1745292842 4.665672282e-39
-0.1211947352 -0.4310787618 0.1775289327 1.646939079e-39
0.02567723393 -0.2286345214 0.26380077 6.403730794e-39
-0.05056130886 -0.402918756 0.2455394119 2.287276425e-39
-0.1466442794 -0.1505286694 0.3220690787 8.233266069e-39
-0.0664165318 -0.4077329338 0.3603304625 2.195799661e-39
-0.1769686341 -0.2341724634 0.3142774403 6.220777266e-39
0.001052297652 -0.3357524276 0.2914357781 3.842381409e-39
0.04722802341 -0.2780524194 0.3840737343 5.214532865e-39
-0.1462034136 -0.213049829 0.2909530699 6.769637849e-39
-0.3047536016 -0.4493600428 0.2062026709 1.18955526e-39
0.2236213237 -0.3646146059 0.04254052788 3.202044062e-39
0.01342557371 -0.3592135012 0.3293474615 3.293520826e-39
-0.1707801819 -0.08873206377 0.4071752429 9.696894289e-39
-0.1704801917 -0.2743552923 0.3291569948 5.306009629e-39
-0.2448607534 -0.4228854179 0.1718999892 1.829892606e-39
-0.2002179176 -0.2905133367 0.2115751058 4.940102574e-39
-0.1162140816 -0.4558073878 0.2026895285 1.098078496e-39
0.1015866548 -0.2800451517 0.1633620262 5.214532865e-39
0.1266167909 -0.2537001371 0.3226708174 5.763393447e-39
-0.01646062732 -0.1967133582 0.3689124584 7.135544904e-39
-0.215149641 -0.2023600191 0.3546008766 6.952591376e-39
-0.1937585771 -0.4708580375 0.193677634 7.321714411e-40
-0.2637737691 -0.2730088234 0.1843034178 5.306009629e-39
-0.08702820539 -0.453894347 0.2548192441 1.098078496e-39
0.1621859819 -0.2593325973 0.1563926786 5.671916684e-39
0.07279400527 -0.3681776524 0.3199716806 3.110567299e-39
0.02834115177 -0.1250059903 0.3420028985 8.782126651e-39
-0.02808968723 -0.2046701759 0.3904448748 6.952591376e-39
-0.2287938893 -0.2784787416 0.3505429924 5.214532865e-39
-0.3240397871 -0.2870660722 0.1836004704 5.031579337e-39
-0.01635287702 -0.4161564112 0.02396347746 2.012846134e-39
0.108120352 -0.2700041533 0.1556606442 5.397486392e-39
0.05421175435 -0.1883453876 0.3613955379 7.318498431e-39
-0.1592080891 -0.1085175425 0.3522531986 9.148033706e-39
-0.1129206717 -0.4264244735 0.3467127085 1.738415842e-39
-0.2000131309 -0.2193648964 0.1706447899 6.586684321e-39
-0.02166008204 -0.4396128953 0.2406297177 1.463985551e-39
-0.001892641187 -0.09265729785 0.2849160731 9.513940761e-39
-0.2636080384 -0.4501237273 0.3469054997 1.18955526e-39
-0.2002800405 -0.2654463351 0.2411547899 5.488963156e-39
0.2181301415 -0.4180079103 0.0657325834 1.92136937e-39
-0.06346088648 -0.1241525859 0.329601109 8.782126651e-39
-0.006125628948 -0.2853096724 0.399990499 5.031579337e-39
0.03016059101 -0.2540779114 0.2633183002 5.763393447e-39
-0.09507592022 -0.344627291 0.3525092304 3.659427881e-39
-0.2160575688 -0.1736836433 0.3056071699 7.684405486e-39
-0.2430349588 -0.4113130271 0.2108570933 2.104322897e-39
-0.07687306404 -0.4241269529 0.0838855505 1.829892606e-39
0.1717210561 -0.3281721175 0.1720101684 4.025334936e-39
-0.1252519637 -0.08347180486 0.4147050977 9.788371052e-39
-0.1910482347 -0.3656275272 0.3556841016 3.202044062e-39
-0.1935072243 -0.2038965225 0.2494941503 6.952591376e-39
-0.2724567056 -0.4343699515 0.2126457989 1.555462315e-39
-0.1937182844 -0.2026855052 0.2662530541 6.952591376e-39
0.09206291288 -0.3208176196 0.2402251363 4.208288464e-39
0.2250675261 -0.3472137451 0.2174996436 3.567951117e-39
0.03061065078 -0.1422787309 0.3695871234 8.416219596e-39
-0.1695577055 -0.4160146415 0.3481817842 2.012846134e-39
-0.2663918138 -0.2783749998 0.2908923924 5.214532865e-39
-0.2445217073 -0.4142023027 0.1345441043 2.012846134e-39
0.07553572953 -0.3915462792 0.1651686281 2.561706716e-39
-0.05598989129 -0.2643051147 0.3478726149 5.58043992e-39
-0.1401330978 -0.2392869741 0.2903676033 6.129300502e-39
0.07862594724 -0.4544185996 0.1509785652 1.098078496e-39
0.09055843949 -0.1346314698 0.3552647829 8.599173124e-39
-0.1842859685 -0.3409817219 0.4151415229 3.750904645e-39
-0.1888099611 -0.1524070054 0.3152026534 8.141789305e-39
-0.1561655402 -0.4373363554 0.1026726216 1.463985551e-39
0.1184080243 -0.3550258279 0.06036567315 3.38499759e-39
-0.003094967455 -0.2856390476 0.3746666908 5.031579337e-39
-0.03154355288 -0.1305116564 0.3708110452 8.690649887e-39
-0.30033499 -0.3156242371 0.3003153205 4.299765227e-39
-0.2734684944 -0.4034638405 0.1352472752 2.287276425e-39
0.04322441667 -0.3419580758 0.1659319252 3.750904645e-39
-0.006311565638 -0.3386384249 0.3761984706 3.842381409e-39
-0.2237534225 -0.1722628772 0.2742551565 7.684405486e-39
-0.01378823072 -0.4280539751 0.2615615726 1.738415842e-39
0.2048446238 -0.2288310528 0.1977719367 6.403730794e-39
-0.04413208365 -0.3438397944 0.36828655 3.659427881e-39
-0.02001914382 -0.1033602953 0.4200560451 9.330987234e-39
-0.1919860989 -0.4251132011 0.269830972 1.738415842e-39
-0.3179579377 -0.3704673052 0.1985671669 3.019090535e-39
0.183393836 -0.4077651799 0.03451633826 2.195799661e-39
0.06261490285 -0.1787306964 0.2899470627 7.501451959e-39
-0.2300040126 -0.295088917 0.4297767282 4.84862581e-39
-0.1725719869 -0.2290674746 0.2491071075 6.403730794e-39
