# .PCD v0.7 - Point Cloud Data file format
VERSION 0.7
FIELDS x y z rgb
SIZE 4 4 4 4
TYPE F F F F
COUNT 1 1 1 1
WIDTH 836
HEIGHT 1
VIEWPOINT 0 0 0 1 0 0 0
POINTS 836
DATA ascii
-0.2747639716 -0.2749868631 -0.2261167318 5.031579337e-39
0.4433190227 -0.07893428206 -0.1750156283 9.605417525e-39
0.461537838 -0.06204632297 -0.1901509911 1.006280134e-38
0.3739906549 -0.2369967103 -0.2134661078 5.946346975e-39
0.3369528353 -0.1743763685 -0.1881293803 7.409975195e-39
-0.2501429617 -0.2622345388 -0.2254817188 5.306009629e-39
-0.2876712084 -0.4873042405 -0.2128163576 9.183409486e-41
-0.2751712203 -0.4873042405 -0.2503163517 9.183409486e-41
0.3873285055 -0.07480864972 -0.2128190994 9.696894289e-39
0.3498301506 -0.2497868836 -0.1878267229 5.58043992e-39
0.3621911705 -0.1624862403 -0.2127611488 7.684405486e-39
0.3498333693 -0.3123156726 -0.2128236592 4.1168117e-39
0.3623361886 -0.2873060703 -0.1878031492 4.757149046e-39
0.3498288095 -0.2748042345 -0.2128163576 5.031579337e-39
-0.2876712084 -0.3123042285 -0.2003163397 4.1168117e-39
0.3373287618 -0.2123042345 -0.1878163517 6.495207557e-39
0.3373287618 -0.09980422258 -0.1878163517 9.148033706e-39
-0.2505686283 -0.3120619059 -0.2006014436 4.208288464e-39
0.3617537916 -0.09952892363 -0.2132471949 9.148033706e-39
0.3985162675 -0.04954940453 -0.188155666 1.033723163e-38
0.2840574384 -0.1521660537 -0.1217815205 7.867359014e-39
0.3738483787 -0.1495639086 -0.1889916062 7.958835777e-39
0.3367518783 -0.07463225722 -0.1881665736 9.696894289e-39
0.3367073536 -0.1492794603 -0.1883763075 7.958835777e-39
0.373808533 -0.2617609799 -0.2136828303 5.306009629e-39
0.3345324397 -0.2990893126 -0.188457489 4.482718755e-39
0.2452823967 -0.1131206155 -0.1299548149 8.782126651e-39
0.2771061063 -0.09234416485 -0.1682289094 9.330987234e-39
0.3583503366 -0.07559334487 -0.217742011 9.696894289e-39
0.2934794128 -0.2253882885 -0.02510278672 6.220777266e-39
-0.08969318867 -0.2492528856 0.06783226877 5.671916684e-39
0.0415994823 -0.2057929784 -0.03778208047 6.678161085e-39
0.3040424585 -0.1297982633 -0.06479538977 8.416219596e-39
0.2869538069 -0.09224691987 -0.1426732987 9.330987234e-39
0.2861001492 -0.07712757587 -0.1509981006 9.696894289e-39
0.3706014752 -0.0492288135 -0.2049423903 1.033723163e-38
0.04072210193 -0.2891446948 -0.02624941804 4.665672282e-39
-0.1116835773 -0.2983920574 -0.05702603608 4.482718755e-39
-0.1482158452 -0.3060533702 -0.09491302073 4.299765227e-39
-0.2763086557 -0.3476898074 -0.1220051497 3.293520826e-39
-0.2146925926 -0.3816759884 -0.1314547956 2.561706716e-39
-0.2572454214 -0.3787975907 -0.1736955345 2.561706716e-39
-0.2623217106 -0.4248956442 -0.2254360765 1.555462315e-39
-0.2531164289 -0.3480333984 -0.2249920964 3.293520826e-39
0.4227308631 -0.07442899793 -0.2138125449 9.696894289e-39
0.3076915443 -0.1705953181 -0.1408362985 7.501451959e-39
0.2888364792 -0.1894163638 -0.1610054225 7.04406814e-39
0.3486393392 -0.1748619825 -0.2152330428 7.409975195e-39
-0.2168019712 -0.2741487026 -0.182225123 5.031579337e-39
-0.2880474925 -0.2619878948 -0.2263687402 5.306009629e-39
0.350158304 -0.1373052001 -0.2134458721 8.233266069e-39
-0.2750786543 -0.299667716 -0.2255578488 4.482718755e-39
-0.26265499 -0.4873521328 -0.2003197521 9.183409486e-41
0.3998287618 -0.07480421662 -0.1878163517 9.696894289e-39
0.3623287976 -0.2373042405 -0.1878163517 5.946346975e-39
0.3623287976 -0.2998042405 -0.2128163576 4.482718755e-39
0.3748287857 -0.1123042405 -0.2128163576 8.873603415e-39
0.3498288095 -0.2373042405 -0.2128163576 5.946346975e-39
0.3498288095 -0.1998042166 -0.2128163576 6.769637849e-39
0.3494779766 -0.1121027097 -0.1880926341 8.873603415e-39
-0.2763881087 -0.4741390347 -0.2264361233 3.662643861e-40
-0.2765769064 -0.2362034619 -0.2261140645 5.946346975e-39
0.3715952039 -0.09367421269 -0.1036109924 9.23951047e-39
0.3619661331 -0.09834936261 -0.1569896191 9.148033706e-39
0.4472465813 -0.06159064546 -0.2048665136 1.006280134e-38
0.2796193957 -0.07353763282 -0.119324252 9.788371052e-39
0.2976680994 -0.06001460552 -0.1647924185 1.006280134e-38
0.3480044007 -0.04938038811 -0.2041429877 1.033723163e-38
0.3059210181 -0.1672283113 -0.07149977982 7.592928722e-39
0.2654614747 -0.2159910202 -0.1046022251 6.403730794e-39
0.2966487408 -0.2513012588 -0.1864519566 5.58043992e-39
0.3733280599 -0.2110443711 -0.2015474737 6.495207557e-39
0.3602763712 -0.1863092035 -0.1901926845 7.135544904e-39
0.4103863835 -0.0494610779 -0.2015732676 1.033723163e-38
0.2985170484 -0.2089719772 -0.09886866808 6.586684321e-39
0.1753240228 -0.214361161 -0.141021505 6.495207557e-39
0.348944068 -0.2245925218 -0.1895953566 6.220777266e-39
0.3615522981 -0.312119633 -0.2006100118 4.208288464e-39
0.3745126426 -0.2745350003 -0.2006289959 5.031579337e-39
0.3748137653 -0.1247684136 -0.2003560662 8.50769636e-39
0.3373287618 -0.2873042226 -0.2003163397 4.757149046e-39
0.3373287618 -0.2498042285 -0.2003163397 5.58043992e-39
0.4748288095 -0.1623042226 -0.1878163517 7.684405486e-39
0.3998287618 -0.1623042226 -0.2003163397 7.684405486e-39
0.2871238291 -0.3121700287 -0.200503841 4.208288464e-39
-0.2260011137 -0.2618502975 -0.2261113971 5.306009629e-39
-0.2767176628 -0.3869452775 -0.2258969843 2.378753189e-39
0.2611107826 -0.1629035175 -0.1387255937 7.684405486e-39
0.2410316765 -0.158949703 -0.1587993503 7.77588225e-39
0.3357815444 -0.137000531 -0.2025884688 8.233266069e-39
0.335957557 -0.1993533969 -0.2011946738 6.769637849e-39
0.4105789959 -0.06177626178 -0.2139756233 1.006280134e-38
0.2897074819 -0.0731985867 -0.1529120207 9.788371052e-39
0.3737571239 -0.06213327497 -0.214562729 1.006280134e-38
0.3738315701 -0.1617512703 -0.2010277361 7.684405486e-39
0.3619388044 -0.09950096905 -0.1887394488 9.148033706e-39
-0.179948926 -0.3848354816 -0.1560606509 2.470229952e-39
-0.2221307755 -0.4405082762 -0.1647797525 1.18955526e-39
-0.2360620499 -0.4870112538 -0.2504166663 9.183409486e-41
0.3757523298 -0.2500003576 -0.2001960427 5.58043992e-39
0.3374812901 -0.1621858627 -0.2009033561 7.684405486e-39
-0.3116935492 -0.3124442697 -0.2128546089 4.1168117e-39
-0.2020170391 -0.3868663609 -0.1972402334 2.378753189e-39
-0.2988673449 -0.4869142473 -0.2501841784 9.183409486e-41
-0.2364487499 -0.4879826605 -0.1997394115 9.183409486e-41
-0.2751748264 -0.2247892916 -0.2379784584 6.220777266e-39
-0.2626696229 -0.4498317838 -0.2253246158 9.151249686e-40
-0.2626712024 -0.3123042285 -0.1878163517 4.1168117e-39
-0.2626712024 -0.4873042405 -0.2628163397 9.183409486e-41
-0.2626712024 -0.3248042166 -0.2253163457 3.842381409e-39
0.3373287618 -0.04980424047 -0.2128163576 1.033723163e-38
-0.3001712263 -0.4873042405 -0.2253163457 9.183409486e-41
-0.2879418135 -0.3121311069 -0.2255720347 4.208288464e-39
0.4242370129 -0.07435468584 -0.1886039078 9.696894289e-39
0.4737652242 -0.07452183217 -0.2016141564 9.696894289e-39
0.2995407581 -0.2822238207 -0.113421604 4.84862581e-39
0.2030215859 -0.2691218257 -0.1234678924 5.214532865e-39
0.3480932117 -0.2614996135 -0.1895180941 5.306009629e-39
-0.2654367983 -0.4869104028 -0.2384345382 9.183409486e-41
0.283441186 -0.3101635277 -0.1048327833 4.208288464e-39
0.2827540934 -0.2998911738 -0.1345919967 4.482718755e-39
0.3349485695 -0.3115565777 -0.2026474625 4.208288464e-39
0.3292500377 -0.1992434263 -0.1456753165 6.769637849e-39
0.3602930903 -0.2117894739 -0.1884258986 6.495207557e-39
-0.2631548047 -0.3995472789 -0.2255918682 2.104322897e-39
-0.2379581928 -0.2496125996 -0.2254953831 5.671916684e-39
0.4498104751 -0.07476267964 -0.2128672302 9.696894289e-39
0.3748287857 -0.04980424047 -0.1878163517 1.033723163e-38
-0.2629236281 -0.3746433556 -0.2255266607 2.744660244e-39
0.3743720353 -0.2245128006 -0.2133572102 6.220777266e-39
0.3486312032 -0.09957421571 -0.2134489119 9.148033706e-39
0.2788609862 -0.159017399 -0.1502295732 7.77588225e-39
0.3738740683 -0.1369352937 -0.2136508375 8.233266069e-39
0.3742748499 -0.1747822613 -0.2133157402 7.409975195e-39
0.337141037 -0.124581635 -0.2130257487 8.599173124e-39
0.3498300612 -0.07475417107 -0.2129076868 9.696894289e-39
0.3873300254 -0.04980509728 -0.2128178477 1.033723163e-38
0.3373276293 -0.2123038322 -0.212817207 6.495207557e-39
0.4498287737 -0.07480421662 -0.1878163517 9.696894289e-39
0.3373287618 -0.1873042285 -0.1878163517 7.04406814e-39
0.3995684385 -0.0746376738 -0.2130583525 9.696894289e-39
0.3742067814 -0.07425372303 -0.1885854006 9.696894289e-39
0.3733671308 -0.1997111142 -0.2133758366 6.769637849e-39
0.321751982 -0.1219093353 -0.1203798354 8.599173124e-39
0.2624427676 -0.1138496995 -0.1558153331 8.782126651e-39
0.3734765351 -0.1001052707 -0.2022769451 9.148033706e-39
0.4098851681 -0.06168912351 -0.1887236238 1.006280134e-38
-0.2101644725 -0.2241305113 -0.144397825 6.220777266e-39
-0.2226075679 -0.2218979448 -0.1578813493 6.31225403e-39
-0.2620511949 -0.2241566181 -0.2255407572 6.220777266e-39
-0.245121181 -0.4857904911 -0.2251000851 9.183409486e-41
0.3623459637 -0.2747626901 -0.1878975779 5.031579337e-39
-0.2751934826 -0.4875781834 -0.2127669901 9.183409486e-41
0.3498518765 -0.0623011142 -0.1878207326 9.97132458e-39
0.3498197496 -0.2873034775 -0.2128213346 4.757149046e-39
0.3499490321 -0.1373066157 -0.1878502816 8.233266069e-39
0.3623559773 -0.1623102576 -0.1877993792 7.684405486e-39
0.3748331964 -0.2998060882 -0.200319171 4.482718755e-39
-0.1126712263 -0.06230422854 -0.3753163517 9.97132458e-39
-0.3126712143 -0.2498042285 -0.2253163457 5.58043992e-39
-0.2251712084 -0.3123042285 -0.1878163517 4.1168117e-39
0.2994989753 -0.3121116161 -0.2005756199 4.208288464e-39
-0.2884378731 -0.3117487729 -0.1888356358 4.208288464e-39
-0.2864796221 -0.4851576686 -0.2390318811 9.183409486e-41
0.2439603508 -0.165889442 -0.1254418492 7.592928722e-39
0.2656069398 -0.1253547966 -0.1677362472 8.50769636e-39
0.3333429992 -0.08624397963 -0.2040939927 9.422463997e-39
0.3697816432 -0.08380813897 -0.1231081486 9.513940761e-39
0.3459182978 -0.07150344551 -0.1306443661 9.788371052e-39
0.4352676868 -0.06259018928 -0.1916014254 9.97132458e-39
0.3602246046 -0.1246343255 -0.1883241981 8.599173124e-39
0.3619625568 -0.2745106816 -0.2130779475 5.031579337e-39
0.3498759866 -0.2872741222 -0.1880043596 4.757149046e-39
0.3623287976 -0.1873042285 -0.2128163576 7.04406814e-39
0.3373287618 -0.2248042226 -0.2003163397 6.220777266e-39
-0.2751712203 -0.4498042166 -0.2253163457 9.151249686e-40
0.3373287618 -0.1123042405 -0.2003163397 8.873603415e-39
-0.2629730999 -0.2746598423 -0.2255428433 5.031579337e-39
-0.2881212234 -0.2494216114 -0.225869 5.671916684e-39
-0.2632367015 -0.3121575713 -0.200795874 4.208288464e-39
0.3011512756 -0.2477315813 -0.1868644953 5.671916684e-39
0.3367577195 -0.2493326813 -0.2143201679 5.671916684e-39
0.3366466761 -0.1622115374 -0.2133664489 7.684405486e-39
0.3736295402 -0.2368980795 -0.1891919225 5.946346975e-39
0.2742024064 -0.3034968078 -0.1498894095 4.391241991e-39
0.3602062762 -0.3119306266 -0.1897210032 4.208288464e-39
0.3173922896 -0.1061270535 -0.1703647077 8.965080179e-39
0.3857700229 -0.07409033179 -0.202864036 9.696894289e-39
0.3039156199 -0.1267174482 -0.1414183527 8.50769636e-39
0.3371917903 -0.06125381961 -0.2024020851 1.006280134e-38
-0.238706395 -0.3897295892 -0.1572604477 2.378753189e-39
-0.287915796 -0.4869354069 -0.2006930858 9.183409486e-41
-0.2993372083 -0.3123652637 -0.2004785389 4.1168117e-39
-0.2742739916 -0.3242136836 -0.225118503 3.842381409e-39
0.3373192549 -0.2623086274 -0.1877775639 5.306009629e-39
0.3748166263 -0.1374002546 -0.1877955794 8.233266069e-39
0.3373287618 -0.2748042345 -0.2128163576 5.031579337e-39
0.424518913 -0.06214300916 -0.2005532533 1.006280134e-38
0.3619181216 -0.1494829059 -0.213450253 7.958835777e-39
0.3615929484 -0.2245549858 -0.2131403834 6.220777266e-39
0.3040584326 -0.1898342669 -0.1426792145 7.04406814e-39
0.3734547496 -0.1869088858 -0.2032586038 7.135544904e-39
-0.2194201648 -0.3449667096 -0.1299480945 3.38499759e-39
-0.2230610847 -0.3552349806 -0.1643035114 3.110567299e-39
-0.2079670727 -0.4186002314 -0.1893033534 1.646939079e-39
-0.2496115267 -0.486566782 -0.2505955994 9.183409486e-41
-0.2741840482 -0.2624263465 -0.2252111733 5.306009629e-39
-0.2475637496 -0.4859558344 -0.2125434875 9.183409486e-41
0.3616500795 -0.04920968041 -0.1886664629 1.033723163e-38
0.3735265136 -0.2874676287 -0.1891146451 4.757149046e-39
0.3044587374 -0.1172220558 -0.1153309643 8.690649887e-39
0.2548240423 -0.08255548775 -0.147695601 9.513940761e-39
0.3612436056 -0.0745119229 -0.1893917024 9.696894289e-39
-0.2642122209 -0.4867654145 -0.1886712015 9.183409486e-41
-0.2754030228 -0.4243259728 -0.2258791924 1.555462315e-39
-0.2739607096 -0.348822087 -0.2253390998 3.293520826e-39
-0.2684603631 -0.4835453629 -0.2607939541 1.833108586e-40
0.3371993005 -0.3122400343 -0.2127833366 4.1168117e-39
0.3497959077 -0.1750649512 -0.1877785325 7.409975195e-39
-0.2501750886 -0.2497818768 -0.2253100872 5.58043992e-39
-0.2626712024 -0.2998042405 -0.2253163457 4.482718755e-39
0.3748287857 -0.2998042405 -0.2128163576 4.482718755e-39
0.4119204879 -0.0495471023 -0.2131178677 1.033723163e-38
0.4365744293 -0.07439778745 -0.2134395093 9.696894289e-39
0.3610568345 -0.2495921403 -0.1877514869 5.671916684e-39
0.2448686361 -0.1385053098 -0.1606344283 8.233266069e-39
0.348885566 -0.1123267263 -0.2149571627 8.873603415e-39
-0.1792251915 -0.2852266729 -0.14540869 4.757149046e-39
-0.2378963679 -0.3114739954 -0.2009367496 4.208288464e-39
-0.2702117562 -0.3968735933 -0.2245730907 2.195799661e-39
-0.260964334 -0.3607972264 -0.2250365019 3.019090535e-39
-0.2751432657 -0.4610983729 -0.2252328098 6.406946774e-40
0.3872932494 -0.04998306185 -0.2002737969 1.033723163e-38
-0.3004376292 -0.4871462584 -0.2130254805 9.183409486e-41
-0.2379949391 -0.4873474836 -0.2258976251 9.183409486e-41
0.3484075665 -0.2617138922 -0.2138141543 5.306009629e-39
0.2817159593 -0.1711203456 -0.1352823973 7.501451959e-39
0.3349301815 -0.1754390597 -0.2166404575 7.409975195e-39
0.3268127441 -0.2419340611 -0.02552419156 5.763393447e-39
0.06600937247 -0.2372404486 -0.01832531393 5.946346975e-39
-0.2708136141 -0.3372501135 0.09953748435 3.567951117e-39
-0.2451035082 -0.3741998672 -0.03290275112 2.744660244e-39
0.3183789551 -0.1986368299 -0.0861621052 6.861114612e-39
0.3817129433 -0.08401688933 -0.1107730269 9.513940761e-39
0.3197630048 -0.0922652334 -0.1055612639 9.330987234e-39
0.3893963099 -0.08350765705 -0.1615545154 9.513940761e-39
0.4593968987 -0.07281149924 -0.191000998 9.788371052e-39
0.3480101526 -0.04912349582 -0.2162205875 1.033723163e-38
-0.1745575368 -0.3203969896 -0.05519767851 3.933858172e-39
-0.1865179241 -0.4010603428 -0.0937351957 2.104322897e-39
-0.2386669219 -0.412328124 -0.1107686609 1.829892606e-39
-0.2493201643 -0.3666583896 -0.1556709409 2.927613771e-39
-0.2622639537 -0.4368259311 -0.2262460589 1.281032024e-39
-0.2743704021 -0.2875387371 -0.2250563502 4.757149046e-39
-0.1592688411 -0.2920316458 -0.1016267389 4.665672282e-39
-0.249410376 -0.3121418059 -0.1881092191 4.208288464e-39
-0.2622207999 -0.3372410536 -0.2254989892 3.567951117e-39
-0.2626906633 -0.4120267928 -0.2255386859 1.829892606e-39
-0.2740219533 -0.3740240633 -0.2250883579 2.744660244e-39
-0.2750022709 -0.3120785356 -0.2002359182 4.208288464e-39
0.3368682265 -0.07466180623 -0.2130929232 9.696894289e-39
0.3366998732 -0.2367137223 -0.2133581936 5.946346975e-39
-0.2750489712 -0.4863584042 -0.2380045503 9.183409486e-41
0.2868671417 -0.1001749039 -0.1656059027 9.148033706e-39
0.3612870276 -0.08739361912 -0.2145648003 9.422463997e-39
-0.2636041939 -0.2369431704 -0.2258724123 5.946346975e-39
0.3494694233 -0.2119466811 -0.2131646723 6.495207557e-39
0.3498574197 -0.1497302055 -0.1879880279 7.958835777e-39
0.3498288095 -0.1498042345 -0.2128163576 7.958835777e-39
-0.3003827929 -0.3121750951 -0.2129933238 4.208288464e-39
0.3620015681 -0.06195877865 -0.2132945508 1.006280134e-38
0.3488223851 -0.2997193933 -0.1887547672 4.482718755e-39
0.2372820079 -0.2028088421 -0.1356379092 6.769637849e-39
0.3365691006 -0.186903134 -0.2010947913 7.135544904e-39
0.3368239105 -0.09976328164 -0.2132404149 9.148033706e-39
0.3746381998 -0.2121172696 -0.1880599856 6.495207557e-39
0.37480551 -0.2497452945 -0.2128750682 5.58043992e-39
0.3748287857 -0.1248042285 -0.2128163576 8.50769636e-39
0.3373287618 -0.2248042226 -0.1878163517 6.220777266e-39
0.3748287857 -0.09980422258 -0.1878163517 9.148033706e-39
0.3373287618 -0.0873042345 -0.1878163517 9.422463997e-39
0.3748287857 -0.1873042285 -0.1878163517 7.04406814e-39
0.3373287618 -0.1123042405 -0.1878163517 8.873603415e-39
-0.2751712203 -0.2248042226 -0.2128163576 6.220777266e-39
0.3748287857 -0.2748042345 -0.2128163576 5.031579337e-39
0.3748287857 -0.1623042226 -0.1878163517 7.684405486e-39
0.4123288095 -0.04980424047 -0.1878163517 1.033723163e-38
-0.2626712024 -0.4748042226 -0.2253163457 3.662643861e-40
0.4123288095 -0.07480421662 -0.1878163517 9.696894289e-39
0.3373287618 -0.06230422854 -0.1878163517 9.97132458e-39
0.4123288095 -0.07480421662 -0.2128163576 9.696894289e-39
0.3373287618 -0.2748042345 -0.2003163397 5.031579337e-39
0.3873287737 -0.06230422854 -0.2128163576 9.97132458e-39
0.3373287618 -0.3123042285 -0.1878163517 4.1168117e-39
0.4373287857 -0.07480421662 -0.2003163397 9.696894289e-39
0.3748732507 -0.2748014927 -0.1879260093 5.031579337e-39
0.3372565508 -0.1997524649 -0.1873309612 6.769637849e-39
0.3373329639 -0.1373080462 -0.1878823787 8.233266069e-39
0.3748352826 -0.1247651502 -0.1878496855 8.50769636e-39
0.474845618 -0.1622968316 -0.2002881169 7.684405486e-39
0.3748292923 -0.1623041928 -0.2128176391 7.684405486e-39
0.3373279274 -0.1373036057 -0.2128106654 8.233266069e-39
0.3748288453 -0.09980426729 -0.2128171176 9.148033706e-39
0.3873288631 -0.04980378225 -0.1878167391 1.033723163e-38
0.3744538128 -0.249550879 -0.1881070286 5.671916684e-39
0.3742807209 -0.2120097727 -0.2132772207 6.495207557e-39
0.3359636366 -0.2493936121 -0.1876317561 5.671916684e-39
0.3063437641 -0.06502531469 -0.1139622703 9.97132458e-39
0.3854952455 -0.07468638569 -0.1895007789 9.696894289e-39
0.3979835212 -0.161854431 -0.1888447255 7.684405486e-39
0.4006826282 -0.1034431905 -0.1500487924 9.056556942e-39
0.460975647 -0.07417426258 -0.2023883164 9.696894289e-39
-0.2891990542 -0.4866150022 -0.2273533195 9.183409486e-41
-0.2089333087 -0.3474535048 -0.1141938716 3.293520826e-39
-0.2058369964 -0.4768392444 -0.1055719405 2.747876224e-40
-0.2478127331 -0.4865663648 -0.2005215883 9.183409486e-41
-0.1948626935 -0.4017059803 -0.1308026463 2.104322897e-39
-0.2745295465 -0.4876692593 -0.2015967518 9.183409486e-41
0.3508167565 -0.3004086018 -0.2125841528 4.482718755e-39
-0.2626121342 -0.2622616589 -0.2254457623 5.306009629e-39
0.3373560905 -0.2000024617 -0.2127552181 6.769637849e-39
-0.1251712143 -0.06230422854 -0.3753163517 9.97132458e-39
0.3373287618 -0.2873042226 -0.1878163517 4.757149046e-39
-0.2751712203 -0.3123042285 -0.2253163457 4.1168117e-39
0.3373287618 -0.1623042226 -0.1878163517 7.684405486e-39
-0.3126712143 -0.2623042166 -0.2253163457 5.306009629e-39
-0.2251712084 -0.2623042166 -0.2253163457 5.306009629e-39
0.3493935466 -0.04952785373 -0.1881218255 1.033723163e-38
0.3741613626 -0.2369994968 -0.2007833272 5.946346975e-39
0.3731939495 -0.1369388103 -0.2007427067 8.233266069e-39
0.3541917503 -0.07572029531 -0.1329699755 9.696894289e-39
0.4483912289 -0.06201794371 -0.1897633523 1.006280134e-38
0.3610669374 -0.08762744814 -0.1882079393 9.422463997e-39
0.3619896173 -0.1994830072 -0.1882364899 6.769637849e-39
0.3623546362 -0.1747303158 -0.2129007131 7.409975195e-39
0.3498288095 -0.1248042285 -0.2128163576 8.50769636e-39
0.3621196747 -0.1121684164 -0.1879624575 8.873603415e-39
-0.2878844738 -0.4873141348 -0.2509382367 9.183409486e-41
0.363293469 -0.224576205 -0.1873937696 6.220777266e-39
-0.1917116344 -0.3734951615 -0.1858276129 2.744660244e-39
-0.2625389695 -0.4868503213 -0.2506277859 9.183409486e-41
0.3756985962 -0.0500231646 -0.2124963403 1.033723163e-38
-0.2756307721 -0.2495786399 -0.2256502211 5.671916684e-39
0.3369053602 -0.2870357931 -0.2134720534 4.757149046e-39
0.3491084278 -0.2496293932 -0.2137210667 5.671916684e-39
0.3109183908 -0.08581192791 -0.1340560913 9.422463997e-39
0.4241086245 -0.06224111095 -0.2141382843 9.97132458e-39
0.3614682257 -0.2626006305 -0.1882906556 5.306009629e-39
0.3620740175 -0.1745631546 -0.1880728453 7.409975195e-39
0.3623349965 -0.1997431219 -0.2129486799 6.769637849e-39
0.3373287618 -0.04980424047 -0.2003163397 1.033723163e-38
0.3746748269 -0.08719858527 -0.2004059106 9.422463997e-39
0.3495537043 -0.2247698158 -0.2133510858 6.220777266e-39
-0.2497140914 -0.4872152805 -0.2371080667 9.183409486e-41
-0.1969714612 -0.406765759 -0.1323547363 1.92136937e-39
-0.2628356814 -0.4865436256 -0.2141761631 9.183409486e-41
0.286834687 -0.3120822906 -0.2010980844 4.208288464e-39
0.3447861075 -0.1956711113 -0.1604700983 6.861114612e-39
0.3987509012 -0.1620948464 -0.2014135271 7.684405486e-39
0.3615238965 -0.2872656286 -0.2135008872 4.757149046e-39
0.3496288955 -0.09947594255 -0.1880267262 9.148033706e-39
0.3498728573 -0.2122512162 -0.1879832149 6.495207557e-39
0.3623411655 -0.1123034731 -0.2128468454 8.873603415e-39
0.3623087108 -0.2622898221 -0.2126813531 5.306009629e-39
0.3498299718 -0.07480528206 -0.1878347099 9.696894289e-39
0.3623577058 -0.1497916877 -0.1878924668 7.958835777e-39
0.3497894704 -0.2372706383 -0.1875126064 5.946346975e-39
0.3498313725 -0.1248065606 -0.1878565997 8.50769636e-39
0.3998327255 -0.06228040904 -0.1878366768 9.97132458e-39
0.3623390496 -0.2997997403 -0.1877991408 4.482718755e-39
0.3498288095 -0.1623042226 -0.2128163576 7.684405486e-39
-0.2751712203 -0.2248042226 -0.2253163457 6.220777266e-39
0.3495812714 -0.08712223172 -0.2130206674 9.422463997e-39
0.3992578089 -0.06211348996 -0.2131775171 1.006280134e-38
0.3736494184 -0.07444018126 -0.213837713 9.696894289e-39
0.3438847661 -0.09645992517 -0.1560700089 9.23951047e-39
0.4233337939 -0.04940790683 -0.1898450255 1.033723163e-38
0.3102067113 -0.18748568 -0.1527954489 7.04406814e-39
0.348605305 -0.1868694425 -0.2138614804 7.135544904e-39
0.3619216681 -0.2373041064 -0.2134377509 5.946346975e-39
0.349601239 -0.274594903 -0.1880340576 5.031579337e-39
0.3498016894 -0.1872466058 -0.1879328042 7.04406814e-39
0.3623276949 -0.1373051256 -0.2128179669 8.233266069e-39
-0.3126605451 -0.3122888803 -0.2003208995 4.1168117e-39
-0.300055474 -0.4872296751 -0.200286746 9.183409486e-41
0.3748247623 -0.06229527295 -0.1878136992 9.97132458e-39
0.4623271227 -0.07481709868 -0.2128135711 9.696894289e-39
0.3498288095 -0.3123042285 -0.2003163397 4.1168117e-39
0.3498344719 -0.06230111793 -0.2128156871 9.97132458e-39
0.4748474061 -0.07480355352 -0.1878610402 9.696894289e-39
-0.3010540903 -0.4870061576 -0.2501713336 9.183409486e-41
-0.2502525747 -0.4870272577 -0.1882763952 9.183409486e-41
-0.2500973642 -0.4876284301 -0.2633371353 9.183409486e-41
-0.1986210048 -0.2293943167 -0.1633223891 6.129300502e-39
-0.2618094981 -0.2246825099 -0.2382407188 6.220777266e-39
-0.2729377151 -0.4858392775 -0.1875262558 9.183409486e-41
0.374705255 -0.2870178819 -0.200502336 4.757149046e-39
0.3372750878 -0.1500310153 -0.2003127486 7.958835777e-39
0.3370555937 -0.09963896126 -0.200553745 9.148033706e-39
0.3368406594 -0.2369792461 -0.201057449 5.946346975e-39
0.3738077581 -0.1994917095 -0.2009657025 6.769637849e-39
0.2941975594 -0.08196149766 -0.1163318306 9.513940761e-39
0.3989712 -0.0745343864 -0.2018274218 9.696894289e-39
0.3739166558 -0.1502687335 -0.2008530796 7.958835777e-39
0.3370752335 -0.2620659769 -0.2005730867 5.306009629e-39
0.3373472691 -0.1747468263 -0.2004816234 7.409975195e-39
0.3748287857 -0.2248042226 -0.2003163397 6.220777266e-39
0.3748287857 -0.1123042405 -0.2003163397 8.873603415e-39
0.3369730413 -0.212073341 -0.2005937397 6.495207557e-39
0.3367620111 -0.124507688 -0.2008079886 8.599173124e-39
0.3734231293 -0.2621303201 -0.2000731081 5.306009629e-39
0.2571517825 -0.0886631757 -0.1386141777 9.422463997e-39
0.3362251222 -0.0746704042 -0.2011908144 9.696894289e-39
0.36153391 -0.04974805936 -0.2006348222 1.033723163e-38
0.3744942844 -0.1744342595 -0.2015456557 7.409975195e-39
0.4010564387 -0.05006916076 -0.2008886188 1.033723163e-38
-0.1886415929 -0.2112442255 -0.1591933519 6.495207557e-39
-0.2363372594 -0.2493896037 -0.2256160229 5.671916684e-39
-0.2993911207 -0.2498448044 -0.2258657813 5.58043992e-39
-0.2876859903 -0.4871693552 -0.2630813718 9.183409486e-41
-0.2377405316 -0.4874596596 -0.2003772855 9.183409486e-41
-0.2875632942 -0.3121500611 -0.2253623009 4.208288464e-39
-0.1116000265 -0.06147444993 -0.3750873506 1.006280134e-38
0.2998767495 -0.3121973574 -0.2006936967 4.208288464e-39
0.3380304873 -0.2996648252 -0.2001176029 4.482718755e-39
-0.2221351713 -0.4035930634 -0.1655038893 2.012846134e-39
-0.274676621 -0.4870091379 -0.2264779359 9.183409486e-41
-0.2067055553 -0.2776688933 -0.1684761047 4.940102574e-39
-0.2512921095 -0.2622103393 -0.226400435 5.306009629e-39
-0.2794025838 -0.2618157566 -0.2265396267 5.306009629e-39
0.4352812767 -0.06323157996 -0.2018582523 9.97132458e-39
0.3149038851 -0.249126941 -0.01972601004 5.671916684e-39
0.09508959949 -0.2172878832 -0.03766562045 6.403730794e-39
-0.2741127908 -0.3350107968 0.092943497 3.659427881e-39
-0.3031542301 -0.3912310302 0.006512455642 2.287276425e-39
0.2093513012 -0.3268082142 -0.06495579332 3.842381409e-39
0.3252917826 -0.1610630751 -0.05081077665 7.684405486e-39
0.3454190195 -0.04172313213 -0.05439909548 1.052018516e-38
0.3871481419 -0.09786695242 -0.1011541337 9.148033706e-39
0.3647544384 -0.1046462059 -0.1511696726 9.056556942e-39
0.4592682421 -0.06050970033 -0.1913737804 1.006280134e-38
-0.2395146191 -0.3115830421 -0.1885601133 4.208288464e-39
-0.2754524946 -0.3119548857 -0.1882855594 4.208288464e-39
-0.2750879228 -0.3997564614 -0.2256561518 2.104322897e-39
-0.2626712024 -0.3498042226 -0.2253163457 3.293520826e-39
-0.2626712024 -0.4373042285 -0.2253163457 1.18955526e-39
-0.2626712024 -0.2873042226 -0.2253163457 4.757149046e-39
-0.2626712024 -0.3748042285 -0.2253163457 2.65318348e-39
-0.2751712203 -0.4623042345 -0.2253163457 6.406946774e-40
-0.2626825273 -0.3248136044 -0.2253329307 3.842381409e-39
-0.2379614413 -0.4870007336 -0.2256388664 9.183409486e-41
-0.2987791896 -0.485771209 -0.2254163027 9.183409486e-41
0.4243927598 -0.07461879402 -0.1999774575 9.696894289e-39
0.3046181202 -0.3313315511 -0.1469658315 3.750904645e-39
0.3619645238 -0.3118236661 -0.2022125721 4.208288464e-39
-0.2107177377 -0.2861917019 -0.1288336366 4.757149046e-39
-0.2499582171 -0.3122988939 -0.2018411011 4.1168117e-39
-0.1799779087 -0.3912165761 -0.1714237928 2.287276425e-39
-0.262449652 -0.4120060205 -0.226032868 1.829892606e-39
0.3382356167 -0.3126821518 -0.2124588937 4.1168117e-39
0.3374514282 -0.04975496978 -0.2128998488 1.033723163e-38
-0.2251396179 -0.2499527633 -0.2252658308 5.58043992e-39
0.4498287737 -0.07480421662 -0.2003163397 9.696894289e-39
0.4748288095 -0.07480421662 -0.2003163397 9.696894289e-39
0.4123288095 -0.04980424047 -0.2128163576 1.033723163e-38
-0.2751712203 -0.3373042345 -0.2253163457 3.567951117e-39
0.4248287976 -0.06230422854 -0.1878163517 9.97132458e-39
-0.3003560901 -0.312212795 -0.2129654586 4.1168117e-39
-0.2752043605 -0.2748828232 -0.2258490175 5.031579337e-39
-0.2749789059 -0.2990110815 -0.2255273759 4.482718755e-39
-0.1831893325 -0.3768849373 -0.2179605514 2.65318348e-39
-0.2627658248 -0.4869865477 -0.2634021938 9.183409486e-41
-0.2561714947 -0.4597463012 -0.2231243253 7.321714411e-40
0.4369352162 -0.0620854944 -0.2129908949 1.006280134e-38
-0.2751649022 -0.3124552667 -0.2007711083 4.1168117e-39
-0.2629137933 -0.2370866239 -0.2254608274 5.946346975e-39
-0.1989222467 -0.337415874 -0.1439621449 3.567951117e-39
-0.2742467523 -0.3868975639 -0.2260450572 2.378753189e-39
-0.2167887688 -0.2239665538 -0.1289637387 6.220777266e-39
-0.2898609936 -0.2524961233 -0.1494080722 5.58043992e-39
-0.3109573126 -0.2625845075 -0.2258837521 5.306009629e-39
-0.2524542809 -0.3121918142 -0.2257364094 4.208288464e-39
0.3751693368 -0.2999005318 -0.2012164146 4.482718755e-39
-0.2729308605 -0.2252304703 -0.2127494663 6.220777266e-39
-0.2391862124 -0.4100361168 -0.1187337786 1.829892606e-39
-0.2858151197 -0.4873717427 -0.2008147538 9.183409486e-41
0.3386882842 -0.1003459916 -0.2127689123 9.148033706e-39
0.3374445736 -0.1622580886 -0.2128711492 7.684405486e-39
0.3373338878 -0.2250499427 -0.2126579136 6.220777266e-39
0.3373392522 -0.262311399 -0.1878289431 5.306009629e-39
0.3748303056 -0.1998001188 -0.2128506452 6.769637849e-39
0.3748109639 -0.2372914702 -0.1876965314 5.946346975e-39
0.3748298287 -0.1248051748 -0.2128326446 8.50769636e-39
0.3373303711 -0.1997945756 -0.1878245771 6.769637849e-39
0.3373339474 -0.1373023242 -0.1878119111 8.233266069e-39
0.3748271167 -0.2623030245 -0.212805137 5.306009629e-39
0.3748288751 -0.04980432987 -0.1878178716 1.033723163e-38
0.3373289108 -0.0748033151 -0.1878171116 9.696894289e-39
0.3748291731 -0.1123040691 -0.187815696 8.873603415e-39
0.3373287618 -0.2748042345 -0.2128163576 5.031579337e-39
0.3748287857 -0.1873042285 -0.1878163517 7.04406814e-39
0.3748287857 -0.2748042345 -0.1878163517 5.031579337e-39
0.3998287618 -0.07480421662 -0.1878163517 9.696894289e-39
0.3748287857 -0.1498042345 -0.1878163517 7.958835777e-39
0.3748287857 -0.04980424047 -0.2128163576 1.033723163e-38
0.3373287618 -0.1873042285 -0.2128163576 7.04406814e-39
0.3373287618 -0.1123042405 -0.1878163517 8.873603415e-39
0.3373287618 -0.2373042405 -0.1878163517 5.946346975e-39
0.3748287857 -0.2248042226 -0.2128163576 6.220777266e-39
0.3373287618 -0.2873042226 -0.1878163517 4.757149046e-39
0.3748287857 -0.09980422258 -0.2128163576 9.148033706e-39
0.3623287976 -0.2998042405 -0.2128163576 4.482718755e-39
0.3373287618 -0.1748042405 -0.1878163517 7.409975195e-39
0.3373287618 -0.1248042285 -0.2128163576 8.50769636e-39
0.3998287618 -0.07480421662 -0.2128163576 9.696894289e-39
0.3373287618 -0.07480421662 -0.2128163576 9.696894289e-39
0.3498288095 -0.04980424047 -0.1878163517 1.033723163e-38
0.3998287618 -0.04980424047 -0.1878163517 1.033723163e-38
0.3748287857 -0.0873042345 -0.1878163517 9.422463997e-39
0.3998287618 -0.1623042226 -0.1878163517 7.684405486e-39
0.3623287976 -0.07480421662 -0.2128163576 9.696894289e-39
-0.2626712024 -0.4873042405 -0.1878163517 9.183409486e-41
-0.2627283037 -0.4247843325 -0.225320816 1.555462315e-39
0.4497647583 -0.07455442846 -0.2134082317 9.696894289e-39
-0.2620820403 -0.3627243936 -0.225524947 3.019090535e-39
-0.2205629349 -0.2422443032 -0.1613458842 5.763393447e-39
-0.2738098502 -0.2493175566 -0.2248135209 5.671916684e-39
-0.2497639209 -0.3123381138 -0.1882338673 4.1168117e-39
-0.3003001511 -0.3118622601 -0.2015840262 4.208288464e-39
-0.2750078738 -0.4874338508 -0.2641830444 9.183409486e-41
-0.04579171538 -0.09857696295 -0.2800892591 9.148033706e-39
-0.1241279393 -0.06211218238 -0.3754362762 1.006280134e-38
-0.2573054135 -0.4854343832 -0.2382415533 9.183409486e-41
0.4373244941 -0.0744144544 -0.1878973842 9.696894289e-39
-0.2627236545 -0.4876270294 -0.2129471153 9.183409486e-41
0.3623283505 -0.1498016566 -0.2128156275 7.958835777e-39
0.3498288095 -0.2498042285 -0.2128163576 5.58043992e-39
0.3623287976 -0.07480421662 -0.1878163517 9.696894289e-39
0.3623287976 -0.1748042405 -0.2128163576 7.409975195e-39
0.3748287857 -0.2873042226 -0.2128163576 4.757149046e-39
0.3498288095 -0.3123042285 -0.2128163576 4.1168117e-39
-0.3001811504 -0.4873124659 -0.2128308713 9.183409486e-41
-0.2750751376 -0.3496660292 -0.225357458 3.293520826e-39
-0.2617482841 -0.4490893781 -0.2251327485 9.151249686e-40
-0.2751116753 -0.4120104313 -0.2256714851 1.829892606e-39
0.3498421013 -0.3118856251 -0.18816787 4.208288464e-39
-0.219050169 -0.3842092156 -0.1482197642 2.470229952e-39
-0.2871871889 -0.4231098294 -0.1968895644 1.555462315e-39
-0.2863178551 -0.4874398708 -0.237271145 9.183409486e-41
-0.2499808669 -0.2496571243 -0.2256939858 5.671916684e-39
0.424477607 -0.07487910986 -0.2131581455 9.696894289e-39
0.3211945891 -0.2163021863 -0.1280412525 6.403730794e-39
0.3480825126 -0.2128123641 -0.1888130307 6.495207557e-39
0.34944731 -0.1623215973 -0.1883008629 7.684405486e-39
0.362044394 -0.1246275231 -0.18801938 8.599173124e-39
0.3622671962 -0.2497340292 -0.1879186183 5.58043992e-39
0.3498288095 -0.09980422258 -0.1878163517 9.148033706e-39
0.3498288095 -0.2123042345 -0.2128163576 6.495207557e-39
0.3623287976 -0.2873042226 -0.1878163517 4.757149046e-39
-0.2629697919 -0.3996049762 -0.2255533189 2.104322897e-39
-0.2632688284 -0.3119973242 -0.2007748932 4.208288464e-39
0.3736687005 -0.2245290875 -0.1877778322 6.220777266e-39
0.3141159415 -0.07145634294 -0.1680291295 9.788371052e-39
0.3867489994 -0.04971902817 -0.2141463608 1.033723163e-38
0.3364984393 -0.1370239854 -0.2133159041 8.233266069e-39
0.3745812476 -0.1744680107 -0.1880459338 7.409975195e-39
0.3748647273 -0.2372501045 -0.2129760683 5.946346975e-39
-0.2626712024 -0.2248042226 -0.2378163636 6.220777266e-39
0.3623287976 -0.04980424047 -0.2128163576 1.033723163e-38
0.2873288095 -0.3123042285 -0.2003163397 4.1168117e-39
0.3498288095 -0.1123042405 -0.2128163576 8.873603415e-39
0.3623287976 -0.1998042166 -0.1878163517 6.769637849e-39
0.3623287976 -0.2748042345 -0.2128163576 5.031579337e-39
0.4123288095 -0.07480421662 -0.1878163517 9.696894289e-39
0.4498287737 -0.06230422854 -0.2003163397 9.97132458e-39
-0.2501712143 -0.4873042405 -0.2503163517 9.183409486e-41
-0.2751712203 -0.3248042166 -0.2253163457 3.842381409e-39
0.3748287857 -0.1373042166 -0.2128163576 8.233266069e-39
0.3373287618 -0.2373042405 -0.2128163576 5.946346975e-39
0.3744101524 -0.1870443374 -0.2131214142 7.135544904e-39
0.3366685808 -0.149521932 -0.1883143485 7.958835777e-39
0.3359859884 -0.08704576641 -0.1880029291 9.422463997e-39
0.2381107807 -0.2486754507 -0.1449983716 5.671916684e-39
0.3364445269 -0.2620511353 -0.2144252658 5.306009629e-39
0.3740641773 -0.2620325983 -0.188194558 5.306009629e-39
0.3744763434 -0.1369575113 -0.1881767809 8.233266069e-39
-0.2876980901 -0.2497190535 -0.2253946066 5.58043992e-39
-0.2626712024 -0.2998042405 -0.2253163457 4.482718755e-39
0.3373287618 -0.06230422854 -0.1878163517 9.97132458e-39
0.3373287618 -0.2998042405 -0.2128163576 4.482718755e-39
0.3498288095 -0.0873042345 -0.2128163576 9.422463997e-39
0.3498288095 -0.2748042345 -0.1878163517 5.031579337e-39
0.3747138083 -0.08720815182 -0.2129588872 9.422463997e-39
-0.2631047964 -0.4747153223 -0.2262571305 3.662643861e-40
0.348370105 -0.1881736368 -0.1895905435 7.04406814e-39
0.2913303077 -0.2710657716 -0.03516215459 5.123056101e-39
0.2184100449 -0.2388011962 -0.06689183414 5.854870211e-39
-0.03526734561 -0.2267118543 -0.004052266479 6.129300502e-39
0.2285716534 -0.1932641566 -0.07550049573 6.952591376e-39
0.3218406737 -0.1205234975 -0.127646178 8.690649887e-39
0.3619685173 -0.09422400594 -0.1539608687 9.23951047e-39
0.4222102463 -0.04857879505 -0.1904758215 1.033723163e-38
-0.1744282991 -0.2621013224 -0.128328234 5.306009629e-39
-0.2260044217 -0.3060649037 -0.17035079 4.299765227e-39
-0.2628625035 -0.261933744 -0.2267219126 5.306009629e-39
0.2793367505 -0.1017005146 -0.1463572234 9.056556942e-39
0.3370863199 -0.04914686456 -0.2030592412 1.033723163e-38
0.3736484647 -0.1618545353 -0.2014733106 7.684405486e-39
0.3863757253 -0.06165358424 -0.1882738173 1.006280134e-38
-0.2513334751 -0.487005353 -0.2136424482 9.183409486e-41
0.296238482 -0.2069488913 -0.1597594917 6.586684321e-39
0.3490811586 -0.2245099694 -0.189150691 6.220777266e-39
0.3492951691 -0.1996835917 -0.2126230747 6.769637849e-39
-0.2755183876 -0.4870579243 -0.2130418271 9.183409486e-41
0.3745093346 -0.2120653242 -0.2006030232 6.495207557e-39
-0.2633541226 -0.3369200528 -0.2258975804 3.567951117e-39
0.4485366344 -0.0746730566 -0.1880916655 9.696894289e-39
0.3386915326 -0.08787819743 -0.1657223403 9.422463997e-39
0.3990935981 -0.04955631495 -0.2138347924 1.033723163e-38
0.3365205824 -0.2496059984 -0.1883985251 5.671916684e-39
0.3370843232 -0.17449826 -0.2130267173 7.409975195e-39
-0.2876280844 -0.4872542024 -0.2630096674 9.183409486e-41
0.3623287976 -0.04980424047 -0.1878163517 1.033723163e-38
-0.2501712143 -0.4873042405 -0.1878163517 9.183409486e-41
0.2998287976 -0.3123042285 -0.2003163397 4.1168117e-39
0.3373287618 -0.1498042345 -0.2128163576 7.958835777e-39
-0.2376712263 -0.4873042405 -0.2253163457 9.183409486e-41
0.3498288095 -0.06230422854 -0.2128163576 9.97132458e-39
-0.2751712203 -0.4873042405 -0.1878163517 9.183409486e-41
0.3498288095 -0.1248042285 -0.1878163517 8.50769636e-39
0.3623287976 -0.2373042405 -0.2128163576 5.946346975e-39
-0.2251712084 -0.2498042285 -0.2253163457 5.58043992e-39
0.3623287976 -0.09980422258 -0.1878163517 9.148033706e-39
0.4123288095 -0.07480421662 -0.2128163576 9.696894289e-39
-0.2626712024 -0.2248042226 -0.2253163457 6.220777266e-39
0.3623287976 -0.1248042285 -0.2128163576 8.50769636e-39
0.4748288095 -0.07480421662 -0.2003163397 9.696894289e-39
0.3373287618 -0.2123042345 -0.2003163397 6.495207557e-39
0.3623287976 -0.1498042345 -0.1878163517 7.958835777e-39
0.3373287618 -0.3123042285 -0.2003163397 4.1168117e-39
0.3744790852 -0.2870782614 -0.1881151646 4.757149046e-39
0.3741717637 -0.2493580878 -0.2012364566 5.671916684e-39
0.374191761 -0.07466369867 -0.2130170763 9.696894289e-39
0.3174189627 -0.1303879917 -0.130993709 8.416219596e-39
0.361243099 -0.09939411283 -0.2144480199 9.148033706e-39
-0.2952195704 -0.4867343009 -0.2011098564 9.183409486e-41
0.4619770646 -0.06189089268 -0.1879544854 1.006280134e-38
-0.2751236558 -0.4873556197 -0.2381494939 9.183409486e-41
0.3373287022 -0.2873039544 -0.2003162503 4.757149046e-39
-0.3001712263 -0.2498042285 -0.2253163457 5.58043992e-39
0.3623287976 -0.2998042405 -0.1878163517 4.482718755e-39
0.3498288095 -0.1623042226 -0.2128163576 7.684405486e-39
0.3623287976 -0.2123042345 -0.2128163576 6.495207557e-39
0.3744626939 -0.0745863989 -0.1880828738 9.696894289e-39
-0.2508353293 -0.487047255 -0.2633015215 9.183409486e-41
0.3736017942 -0.1120037287 -0.2001588494 8.873603415e-39
0.2614663541 -0.1139870286 -0.1458099931 8.782126651e-39
0.33661443 -0.1121162027 -0.2018966973 8.873603415e-39
0.3490538001 -0.2744824886 -0.2130694091 5.031579337e-39
0.4369073808 -0.06193154305 -0.1881937087 1.006280134e-38
-0.2752864063 -0.2746555805 -0.2260002345 5.031579337e-39
-0.2367949188 -0.3125599325 -0.18743065 4.1168117e-39
-0.2138388008 -0.2706210315 -0.1225406975 5.123056101e-39
-0.2744711339 -0.3121107221 -0.1881993711 4.208288464e-39
0.3380311728 -0.1876335293 -0.1876961589 7.04406814e-39
0.3370890915 -0.08711640537 -0.2131287754 9.422463997e-39
0.3743537664 -0.2746856511 -0.2132231295 5.031579337e-39
0.3868152499 -0.04952044785 -0.1883199215 1.033723163e-38
0.276563257 -0.2367747575 -0.1243644953 5.946346975e-39
0.34877038 -0.2620081306 -0.1884218305 5.306009629e-39
-0.3004582226 -0.4873183668 -0.2256155014 9.183409486e-41
0.3621180654 -0.1871730089 -0.213006556 7.135544904e-39
0.3498054445 -0.2372653782 -0.1878734231 5.946346975e-39
0.3495389223 -0.07462699711 -0.1880600154 9.696894289e-39
0.4117704034 -0.04947097972 -0.2135278583 1.033723163e-38
0.4365389049 -0.07458055019 -0.2133740485 9.696894289e-39
0.3120865822 -0.0667553395 -0.1076633483 9.879847816e-39
0.4113557637 -0.06224561483 -0.1892581135 9.97132458e-39
0.3367003798 -0.2123466581 -0.1885422617 6.495207557e-39
0.3370695114 -0.09952569753 -0.188024506 9.148033706e-39
0.3748352826 -0.1247590184 -0.1880061179 8.50769636e-39
0.3373321295 -0.2123065442 -0.2128204107 6.495207557e-39
0.3498257697 -0.0498031415 -0.2128186822 1.033723163e-38
0.3623287976 -0.1623042226 -0.1878163517 7.684405486e-39
0.3623287976 -0.2498042285 -0.2128163576 5.58043992e-39
0.3623287976 -0.3123042285 -0.2003163397 4.1168117e-39
0.3368943334 -0.2495370358 -0.2006317526 5.671916684e-39
0.3742210865 -0.06193653867 -0.2131784111 1.006280134e-38
0.361199826 -0.2247071117 -0.1877915263 6.220777266e-39
0.3073182702 -0.1617922187 -0.1346418858 7.684405486e-39
0.3985082805 -0.1619690955 -0.1884938478 7.684405486e-39
-0.28836748 -0.262137413 -0.2256986052 5.306009629e-39
0.3370517492 -0.2745462954 -0.188076809 5.031579337e-39
0.3372163177 -0.1621904969 -0.200438872 7.684405486e-39
0.400067836 -0.07474626601 -0.2009619027 9.696894289e-39
0.3385716081 -0.06251481175 -0.2125679553 9.97132458e-39
-0.2273797691 -0.4210545123 -0.1337710023 1.646939079e-39
-0.260891825 -0.4871585369 -0.2008315921 9.183409486e-41
-0.2988027334 -0.3129296601 -0.1998748332 4.1168117e-39
-0.125043571 -0.06233412027 -0.3754073977 9.97132458e-39
0.3498542309 -0.3000128865 -0.1877527386 4.482718755e-39
0.3623287976 -0.1373042166 -0.2128163576 8.233266069e-39
0.3498288095 -0.2248042226 -0.2128163576 6.220777266e-39
0.3622758389 -0.1872855276 -0.1878280044 7.04406814e-39
0.337247014 -0.1372786313 -0.2009960115 8.233266069e-39
0.3630457222 -0.1624280214 -0.213010326 7.684405486e-39
-0.2584196925 -0.2716071308 -0.150657326 5.123056101e-39
-0.2746086717 -0.2987679839 -0.2272269428 4.482718755e-39
-0.1770730615 -0.2536949813 -0.1263029277 5.488963156e-39
-0.2243741751 -0.2744500637 -0.1231380701 5.031579337e-39
-0.2628909349 -0.2499374896 -0.2262076735 5.58043992e-39
0.3219704032 -0.1197062433 -0.2037431449 8.690649887e-39
0.3365972638 -0.1120033786 -0.2148555517 8.873603415e-39
0.373965323 -0.174555555 -0.2008308619 7.409975195e-39
-0.2629480958 -0.4869404137 -0.2505748272 9.183409486e-41
-0.2501575351 -0.4872552752 -0.225431785 9.183409486e-41
-0.2876712084 -0.4873042405 -0.2253163457 9.183409486e-41
0.3373019099 -0.1873264611 -0.200355649 7.04406814e-39
0.3625280559 -0.2621332407 -0.1878709793 5.306009629e-39
-0.2759262919 -0.483518064 -0.2488913238 1.833108586e-40
0.3625390828 -0.04972220957 -0.200381279 1.033723163e-38
0.3997654915 -0.04999597371 -0.200242877 1.033723163e-38
-0.2376785427 -0.2497855425 -0.2253102213 5.58043992e-39
0.3497738838 -0.1497625858 -0.1878277957 7.958835777e-39
0.3747515082 -0.09969122708 -0.200853914 9.148033706e-39
-0.261696279 -0.3999760449 -0.2253220528 2.104322897e-39
-0.1965333968 -0.2896548212 -0.1457381845 4.665672282e-39
-0.2490403354 -0.3120750785 -0.2005400509 4.208288464e-39
0.3754678071 -0.1502047181 -0.2002425194 7.958835777e-39
0.3625062704 -0.08732698858 -0.1877991557 9.422463997e-39
0.4247274995 -0.06260914356 -0.1998990029 9.97132458e-39
0.3498597443 -0.1873560995 -0.2128074169 7.04406814e-39
0.3498044014 -0.2622968853 -0.2128427625 5.306009629e-39
0.3373235464 -0.08730234951 -0.2003203332 9.422463997e-39
0.3748287857 -0.2748042345 -0.2003163397 5.031579337e-39
0.3498288095 -0.1248042285 -0.2128163576 8.50769636e-39
0.3748287857 -0.06230422854 -0.1878163517 9.97132458e-39
0.3497050405 -0.1747643352 -0.1878851503 7.409975195e-39
0.3996790946 -0.06233277172 -0.2133123875 9.97132458e-39
0.3747428358 -0.2999725342 -0.20072411 4.482718755e-39
-0.2179189026 -0.4270727336 -0.1473208964 1.463985551e-39
-0.2632108331 -0.4620445967 -0.2262247205 6.406946774e-40
0.3612609804 -0.1380675286 -0.190389052 8.233266069e-39
0.3148607612 -0.2709647417 -0.01037665643 5.123056101e-39
0.1766194254 -0.2605408132 -0.04893930256 5.397486392e-39
-0.03141173348 -0.2824034393 -0.01982674003 4.84862581e-39
0.2127718627 -0.2865314484 -0.07370512187 4.757149046e-39
0.2384009361 -0.2531588674 -0.1191099808 5.58043992e-39
0.3058413565 -0.2460000515 -0.1760493964 5.671916684e-39
0.3338121474 -0.2234564573 -0.2017681152 6.220777266e-39
-0.2772820294 -0.3119394183 -0.2016757131 4.208288464e-39
0.355255425 -0.2310994565 -0.1750936508 6.037823739e-39
0.3749324381 -0.2248521745 -0.2018557787 6.220777266e-39
-0.2043795586 -0.3407849967 -0.1851591766 3.476474354e-39
-0.276789844 -0.3236756623 -0.2272239923 3.933858172e-39
0.4617321789 -0.07456991822 -0.201022476 9.696894289e-39
0.3702074885 -0.09581935406 -0.1645879894 9.23951047e-39
0.436719358 -0.06235027313 -0.2152494341 9.97132458e-39
-0.2556414306 -0.349709183 -0.2249709368 3.293520826e-39
0.3736594021 -0.1614833474 -0.1884910911 7.684405486e-39
0.3363518119 -0.3120640516 -0.2135185748 4.208288464e-39
0.294303745 -0.09720511734 -0.1596930176 9.23951047e-39
0.3608804941 -0.08685007691 -0.2144129425 9.422463997e-39
-0.2884381115 -0.4870512486 -0.2130246758 9.183409486e-41
0.3745016158 -0.1869924515 -0.200661853 7.135544904e-39
0.362306565 -0.2372422516 -0.1878651381 5.946346975e-39
0.3495343924 -0.2371392399 -0.2130378187 5.946346975e-39
-0.2758056223 -0.4871251583 -0.2631681859 9.183409486e-41
0.336296916 -0.04942144454 -0.2126598507 1.033723163e-38
0.3045734167 -0.2723949254 -0.14208664 5.123056101e-39
0.3486261666 -0.2869645357 -0.1884112954 4.757149046e-39
-0.2630167007 -0.2247464508 -0.2379833609 6.220777266e-39
0.4496642053 -0.06214598194 -0.1879688501 1.006280134e-38
0.2873122692 -0.3122636974 -0.2003596425 4.1168117e-39
0.33732903 -0.07480669767 -0.2003141046 9.696894289e-39
0.3748202026 -0.1248245761 -0.2002597898 8.50769636e-39
0.3373344541 -0.2998081446 -0.2003231943 4.482718755e-39
0.3623236418 -0.199802354 -0.2128202766 6.769637849e-39
0.3373287618 -0.2623042166 -0.2003163397 5.306009629e-39
0.3623287976 -0.2623042166 -0.2128163576 5.306009629e-39
0.3873287737 -0.04980424047 -0.2003163397 1.033723163e-38
0.3373287618 -0.1998042166 -0.2003163397 6.769637849e-39
0.4248287976 -0.07480421662 -0.2003163397 9.696894289e-39
0.3373287618 -0.1248042285 -0.2003163397 8.50769636e-39
0.3622089922 -0.06227430329 -0.2128652632 9.97132458e-39
-0.250292033 -0.4872177839 -0.1886358559 9.183409486e-41
0.4259481728 -0.05007047206 -0.1880077571 1.033723163e-38
-0.2042887211 -0.4739092886 -0.1357073933 3.662643861e-40
-0.274289757 -0.4869285226 -0.226075992 9.183409486e-41
0.3505866826 -0.1751826853 -0.2126703858 7.409975195e-39
0.3498574495 -0.3122707605 -0.1879259944 4.1168117e-39
-0.2751850486 -0.3124756515 -0.2253074646 4.1168117e-39
-0.2501712143 -0.3123042285 -0.1878163517 4.1168117e-39
0.3623287976 -0.2748042345 -0.1878163517 5.031579337e-39
0.3498288095 -0.0873042345 -0.1878163517 9.422463997e-39
0.3998287618 -0.07480421662 -0.1878163517 9.696894289e-39
-0.2626712024 -0.2373042405 -0.2253163457 5.946346975e-39
0.3498288095 -0.2498042285 -0.1878163517 5.58043992e-39
0.3498288095 -0.07480421662 -0.2128163576 9.696894289e-39
-0.2751712203 -0.2623042166 -0.2253163457 5.306009629e-39
-0.3004736602 -0.2496512085 -0.2255397439 5.671916684e-39
0.4114916921 -0.06194948405 -0.2135492712 1.006280134e-38
0.3731657565 -0.2368384004 -0.2015010118 5.946346975e-39
0.2581324875 -0.2324992269 -0.1149546653 6.037823739e-39
0.2594090104 -0.2616249621 -0.1621375829 5.306009629e-39
0.3360329568 -0.2747243643 -0.2141336501 5.031579337e-39
0.348788023 -0.1245101914 -0.1881384701 8.599173124e-39
-0.2637561858 -0.3243276179 -0.2260831594 3.842381409e-39
0.3737525642 -0.2620590925 -0.200692445 5.306009629e-39
0.3023891449 -0.2281289697 -0.1403250843 6.129300502e-39
0.3362447321 -0.2370470911 -0.201148659 5.946346975e-39
0.3996082842 -0.04976928234 -0.1880536079 1.033723163e-38
-0.2504245043 -0.4871460199 -0.2505286336 9.183409486e-41
0.3748002052 -0.1997601241 -0.2128831446 6.769637849e-39
0.3748287857 -0.1123042405 -0.1878163517 8.873603415e-39
0.4748288095 -0.07480421662 -0.2003163397 9.696894289e-39
0.3373287618 -0.1748042405 -0.1878163517 7.409975195e-39
0.3373287618 -0.1123042405 -0.1878163517 8.873603415e-39
-0.2504276335 -0.2496573776 -0.2255268693 5.671916684e-39
0.4369114339 -0.07447881997 -0.1885076463 9.696894289e-39
0.374505192 -0.2245997488 -0.2133353353 6.220777266e-39
0.2623006105 -0.1148119569 -0.1172022372 8.782126651e-39
0.336994648 -0.09937695414 -0.2141460329 9.148033706e-39
0.3618255556 -0.04979682714 -0.1884373426 1.033723163e-38
0.3991508484 -0.07431378216 -0.2133782208 9.696894289e-39
0.3742399812 -0.2869896889 -0.1883580983 4.757149046e-39
0.3358887434 -0.06198890135 -0.2002926022 1.006280134e-38
0.3141477704 -0.1658887267 -0.1110834107 7.592928722e-39
0.3983099461 -0.1617159396 -0.1897886693 7.684405486e-39
0.3607773185 -0.149566561 -0.2137562484 7.958835777e-39
0.2977827489 -0.1192887723 -0.1279308349 8.690649887e-39
0.3744199872 -0.0994656682 -0.2143175304 9.148033706e-39
0.3742178082 -0.1872915924 -0.1882969886 7.04406814e-39
0.3371101618 -0.137052238 -0.2130315453 8.233266069e-39
0.374838531 -0.04975850508 -0.20049496 1.033723163e-38
0.3748287857 -0.1248042285 -0.2128163576 8.50769636e-39
