# .PCD v0.7 - Point Cloud Data file format
VERSION 0.7
FIELDS x y z rgb
SIZE 4 4 4 4
TYPE F F F F
COUNT 1 1 1 1
WIDTH 847
HEIGHT 1
VIEWPOINT 0 0 0 1 0 0 0
POINTS 847
DATA ascii
0.073853679 0.0499769412 0.1754956543 1.198381338e-38
0.2297918051 -0.3190177679 0.09574262053 3.38499759e-39
0.05658032 -0.1190471053 0.257122159 8.050312541e-39
0.2852127254 -0.07381252944 0.09958357364 9.056556942e-39
0.3962777257 -0.32418859 0.09884221852 3.202044062e-39
0.08483552933 -0.07512466609 0.1070167795 9.056556942e-39
0.3563359678 -0.03901461139 0.09391580522 9.879847816e-39
0.2488158643 -0.3984418809 0.11255119 1.463985551e-39
0.1245593205 -0.1995797455 0.2379305512 6.129300502e-39
0.0779889226 -0.2971828282 0.2776872814 3.842381409e-39
0.07478629053 -0.1762944907 0.1126051098 6.678161085e-39
0.1607522517 -0.3482577801 0.3015888929 2.65318348e-39
0.05497558042 -0.08412189037 0.1410103738 8.873603415e-39
0.08647228032 -0.2322649211 0.3625510037 5.397486392e-39
0.1892033964 -0.1498539299 0.09554922581 7.318498431e-39
0.08092436194 -0.3905383646 0.1059603691 1.646939079e-39
0.07288767397 -0.4375765622 0.1019141078 5.492179136e-40
0.1604354084 -0.2993686795 0.4129992723 3.842381409e-39
0.1243099347 -0.1255632788 0.1892140657 7.867359014e-39
0.0712286979 -0.2584677339 0.1727994978 4.757149046e-39
0.3223799467 -0.2078309357 0.09644639492 5.946346975e-39
0.07367598265 0.007609734312 0.2015746683 1.097756898e-38
0.1212740615 -0.2835161686 0.1454022527 4.208288464e-39
0.1991353333 -0.2262698114 0.1009841934 5.488963156e-39
0.173702836 -0.03817354888 0.1018461287 9.97132458e-39
0.3481540978 -0.3619427383 0.1114155352 2.378753189e-39
0.1619654745 -0.3509898186 0.1015962064 2.561706716e-39
0.4005644023 -0.06411085278 0.1788488328 9.330987234e-39
0.07817544043 -0.2578989565 0.111135751 4.757149046e-39
0.1111487374 -0.08617150784 0.3741392791 8.782126651e-39
0.1507288367 -0.2672534585 0.3208082914 4.574195519e-39
0.07338356227 -0.4047636986 0.1907422245 1.372508787e-39
0.07511491328 0.008383890614 0.1035373285 1.097756898e-38
0.05211867765 -0.08027908951 0.239839375 8.965080179e-39
0.3372730017 -0.1213865727 0.08448094875 7.958835777e-39
0.3043970466 -0.03007446229 0.08620487154 1.015427811e-38
0.1878860295 0.03530275822 0.1025969014 1.161790633e-38
0.137422055 -0.1412720382 0.1035955474 7.501451959e-39
0.09196612984 -0.06800433993 0.1121179312 9.23951047e-39
0.1356217414 -0.3471652269 0.3497133553 2.65318348e-39
0.1732247919 -0.3316432238 0.09931647778 3.019090535e-39
0.07295491546 -0.3713691831 0.09565751255 2.104322897e-39
0.07047486305 -0.001648694277 0.1015579998 1.079461545e-38
0.1233061999 -0.09915189445 0.2635613978 8.50769636e-39
0.2257289886 -0.2670624256 0.08488724381 4.574195519e-39
0.06876233965 -0.3139154911 0.1767861992 3.476474354e-39
0.08227239549 -0.3009439111 0.1089851186 3.750904645e-39
0.08375153691 -0.175271675 0.2460244596 6.678161085e-39
0.410954982 -0.2741189301 0.1007096246 4.391241991e-39
0.3907462656 -0.06462277472 0.2310607731 9.330987234e-39
0.07875355333 -0.3778674304 0.1839294732 2.012846134e-39
0.109416157 -0.4192923009 0.1037760675 1.006601732e-39
0.08495952189 -0.02732231654 0.1838494539 1.015427811e-38
0.310744226 -0.1742459387 0.1026438847 6.769637849e-39
0.07276728749 -0.1194487363 0.1096889824 8.050312541e-39
0.2830980122 0.01276277937 0.1138617545 1.116052251e-38
0.07323532552 -0.2868167162 0.3989006281 4.1168117e-39
0.06608240306 -0.04896575958 0.2532781065 9.696894289e-39
0.08651464432 -0.1882568151 0.1012094393 6.403730794e-39
0.2109814733 -0.4119271636 0.1130241975 1.18955526e-39
0.2227510512 -0.1865411252 0.101388596 6.495207557e-39
0.1086387783 -0.2458875179 0.245265767 5.031579337e-39
0.09367444366 0.02983180806 0.1127925813 1.152642956e-38
0.3981803358 -0.1359143406 0.1125132367 7.684405486e-39
0.05825337023 -0.2162211239 0.1474479884 5.763393447e-39
0.1485150009 -0.2985854745 0.1113218963 3.842381409e-39
0.2234806269 -0.09951785207 0.100266479 8.50769636e-39
0.1481466889 -0.2368698418 0.4110206962 5.306009629e-39
0.1031344831 -0.3259904981 0.2480897307 3.202044062e-39
0.3983064294 -0.0492449142 0.1133002639 9.696894289e-39
0.12355268 -0.1489517689 0.2375597656 7.318498431e-39
0.07077880949 -0.1937300563 0.2769134045 6.31225403e-39
0.07484818995 -0.2825904191 0.1116290241 4.208288464e-39
0.08545459807 -0.09895402193 0.1126387939 8.50769636e-39
0.09980146587 -0.003518456593 0.09523545951 1.070313869e-38
0.06423564255 -0.05487333611 0.2508293092 9.513940761e-39
0.05911821499 -0.01227523107 0.1283189952 1.052018516e-38
0.2267877609 -0.2776434124 0.08415107429 4.299765227e-39
0.05465666205 -0.132536307 0.1781227589 7.684405486e-39
0.1231065094 -0.2124087662 0.1768554002 5.854870211e-39
0.160906896 -0.3245051801 0.3890852332 3.202044062e-39
0.07345443219 -0.4243453145 0.2128821611 9.151249686e-40
0.08746357262 -0.2985446155 0.2771428227 3.842381409e-39
0.1961812675 -0.08501651883 0.08712167293 8.873603415e-39
0.1144924834 -0.3444596231 0.09497754276 2.744660244e-39
0.3911797702 -0.07616536319 0.2281484455 9.056556942e-39
0.1987475902 -0.3312886357 0.1012285203 3.110567299e-39
0.1590765864 -0.4233095348 0.1006420106 9.151249686e-40
0.07444475591 -0.1220376566 0.2484847456 7.958835777e-39
0.08322016895 -0.01276413351 0.2714313269 1.052018516e-38
0.09115584195 -0.09782045335 0.09315163642 8.50769636e-39
0.08096660674 -0.4047503173 0.10798195 1.372508787e-39
0.2728198767 -0.2251408994 0.1027171686 5.58043992e-39
0.07720558345 -0.04847441241 0.1184558272 9.696894289e-39
0.2381063998 0.003633946879 0.09950041026 1.088609222e-38
0.1606553644 -0.2607691586 0.312387675 4.757149046e-39
0.07410600036 -0.1369210482 0.3872071505 7.592928722e-39
0.07595124096 -0.3272019327 0.1413519979 3.202044062e-39
0.3735974133 -0.1795977354 0.1101914942 6.586684321e-39
0.07186371088 -0.2339241952 0.2012432218 5.306009629e-39
0.0727545321 -0.3610031009 0.3876837194 2.378753189e-39
0.411095053 -0.3124511838 0.09961999953 3.476474354e-39
0.08511385322 -0.3783720136 0.1089254171 1.92136937e-39
0.0977069363 -0.01843005233 0.1019912884 1.04287084e-38
0.1471722275 -0.1450598836 0.09609380364 7.409975195e-39
0.1860580891 -0.2630638182 0.1027037352 4.665672282e-39
0.08566985279 -0.2244822234 0.39928478 5.58043992e-39
0.116499804 -0.2811714411 0.1917858124 4.208288464e-39
0.3737134337 -0.01125020906 0.1114801168 1.052018516e-38
0.1403244287 -0.3486069739 0.2832305729 2.65318348e-39
0.0871078521 -0.06592915952 0.2699629366 9.23951047e-39
0.08704584092 -0.3628524542 0.1029059812 2.287276425e-39
0.08127653599 -0.2072435915 0.1056343764 5.946346975e-39
0.2559891045 -0.3888447881 0.08812819421 1.738415842e-39
0.1865414232 -0.03813304752 0.1010594293 9.97132458e-39
0.0616161339 -0.3613453209 0.3004886806 2.378753189e-39
0.05789670348 -0.0856622681 0.143463105 8.782126651e-39
0.1366831362 -0.1753065139 0.1021724641 6.678161085e-39
0.3142198026 -0.1027380303 0.09057965875 8.416219596e-39
0.07409708202 0.02458851784 0.2263496667 1.14349528e-38
0.3985366821 -0.2235931754 0.1006985083 5.58043992e-39
0.1672444642 0.01366125233 0.09943611175 1.116052251e-38
0.1062114909 -0.1074705943 0.2467697412 8.324742832e-39
0.07432434708 -0.3011018336 0.1017315909 3.750904645e-39
0.4233852923 -0.07454800606 0.2354933769 9.056556942e-39
0.0882576853 0.06049526855 0.1150185317 1.225824367e-38
0.1415268779 -0.3173950315 0.3733702898 3.38499759e-39
0.0806440115 -0.2375605255 0.2607405782 5.306009629e-39
0.07679011673 -0.1470639408 0.1264511943 7.409975195e-39
0.07468549162 -0.08985991776 0.1042638794 8.690649887e-39
0.309890449 -0.1619713753 0.1016064137 7.04406814e-39
0.1768540889 -0.3232338428 0.09398756921 3.293520826e-39
0.06720928103 -0.03447607905 0.3270377517 9.97132458e-39
0.07657438517 -0.3662756979 0.1673638821 2.287276425e-39
0.0639507398 -0.2745052278 0.09235875309 4.391241991e-39
0.3603913486 -0.3143130243 0.09789276123 3.476474354e-39
0.1299077272 -0.4000809491 0.1188793555 1.463985551e-39
0.1414172053 -0.2114516795 0.08566173911 5.854870211e-39
0.07406233251 -0.3599139154 0.1291236281 2.378753189e-39
0.1357217282 -0.2728718817 0.3375014663 4.391241991e-39
0.1007496119 -0.0955870375 0.3429738879 8.599173124e-39
0.07638354599 -0.2573822141 0.1358336359 4.757149046e-39
0.2354082316 -0.3984223604 0.1012872607 1.463985551e-39
0.07976727933 -0.05849775672 0.143831417 9.422463997e-39
0.07598917186 -0.1833361089 0.2783315182 6.495207557e-39
0.07188235223 -0.0266841799 0.1067029461 1.015427811e-38
0.1029131711 -0.2477108538 0.1047338769 5.031579337e-39
0.2311085761 -0.2321012318 0.08930771053 5.397486392e-39
0.2364831865 -0.05472450703 0.08769556135 9.513940761e-39
0.1478622556 -0.2709109485 0.1044152454 4.482718755e-39
0.08589107543 -0.3495527208 0.3986361325 2.65318348e-39
0.161030069 -0.1124534756 0.1005705744 8.233266069e-39
0.3504494429 -0.02285081334 0.08982148767 1.024575487e-38
0.1087556183 -0.2058251947 0.2193834782 6.037823739e-39
0.1009350121 -0.01543814223 0.1039925516 1.04287084e-38
0.1607078761 -0.3478897214 0.3265295029 2.65318348e-39
0.06588198245 -0.1266674697 0.1676263213 7.867359014e-39
0.1244488657 -0.3535652161 0.1083645374 2.561706716e-39
0.398224026 -0.1487771571 0.113025181 7.318498431e-39
0.06926855445 -0.1525376439 0.3581492901 7.227021667e-39
0.2249673754 0.0236857757 0.101692535 1.134347604e-38
0.06634482741 -0.3243550658 0.237163648 3.202044062e-39
0.0947105661 -0.2010908127 0.09473498166 6.129300502e-39
0.07273276895 -0.3319507539 0.1007029563 3.019090535e-39
0.07360269129 0.01149188448 0.2646515071 1.106904574e-38
0.08993821591 -0.1362764686 0.1115747616 7.592928722e-39
0.09984977543 -0.449611187 0.09863977134 2.747876224e-40
0.07185550034 -0.2279474586 0.2800198793 5.488963156e-39
0.3871147037 -0.06194112077 0.2268057168 9.330987234e-39
0.3922598064 -0.3147058189 0.1004334837 3.476474354e-39
0.07512816787 -0.4002568424 0.2328727096 1.463985551e-39
0.3110305965 -0.3754101098 0.102207303 2.012846134e-39
0.05540218204 -0.1998196542 0.2040230334 6.129300502e-39
0.2986791432 5.423859693e-05 0.1012795717 1.079461545e-38
0.3853732646 -0.08645225316 0.09995873272 8.782126651e-39
0.06643103063 -0.2720476687 0.2814360559 4.482718755e-39
0.07175734639 -0.09343464673 0.1114177033 8.599173124e-39
0.2559607923 -0.1384972781 0.09535756707 7.592928722e-39
0.1128064096 -0.0966559127 0.2502105236 8.599173124e-39
0.106127806 -0.314694494 0.09648312628 3.476474354e-39
0.3886780143 -0.2331491113 0.094958812 5.397486392e-39
0.1599735916 -0.2861152887 0.4119009078 4.1168117e-39
0.1523603052 -0.04260904342 0.09197931737 9.788371052e-39
0.2869306803 -0.2765056491 0.1019184664 4.391241991e-39
0.1234009638 -0.137081787 0.1741874069 7.592928722e-39
0.0861305818 -0.434266001 0.1107696965 6.406946774e-40
0.08937747031 -0.3560071588 0.2259083986 2.470229952e-39
0.1994857192 -0.1882156134 0.1022898331 6.403730794e-39
0.06860673428 -0.2981431186 0.3530386388 3.842381409e-39
0.07265612483 -0.1897917092 0.1108626872 6.403730794e-39
0.07087521255 -0.06496005505 0.1771707535 9.330987234e-39
0.1227359176 -0.2730958462 0.1884969473 4.391241991e-39
0.05810723826 -0.04778683931 0.117637299 9.696894289e-39
0.1108267382 -0.07367800176 0.3755451441 9.056556942e-39
0.1010750607 -0.2264785022 0.3208646774 5.488963156e-39
0.1245139688 0.05000367388 0.114112772 1.198381338e-38
0.07048341632 -0.1496360749 0.2329219878 7.318498431e-39
0.1601012647 -0.2853604257 0.2875218987 4.1168117e-39
0.06533310562 -0.2108913809 0.1112366319 5.854870211e-39
0.07366948575 0.006165679544 0.1764003783 1.097756898e-38
0.216807276 -0.3778033257 0.1106285006 2.012846134e-39
0.1492062062 -0.0386477299 0.1006280631 9.879847816e-39
0.07870574296 -0.3882502615 0.1061566174 1.738415842e-39
0.3099928796 -0.05298024788 0.1012332439 9.605417525e-39
0.08394542336 -0.3337561786 0.3517056108 3.019090535e-39
0.2087683082 -0.2474841923 0.09285750985 5.031579337e-39
0.3976302743 -0.06102979183 0.2489838451 9.422463997e-39
0.06756827235 -0.2590926588 0.1925976872 4.757149046e-39
0.07434885949 -0.02329616249 0.3181316257 1.024575487e-38
0.06681464612 -0.3538893461 0.1191136464 2.561706716e-39
0.07388436794 -0.1491608322 0.3874924779 7.318498431e-39
0.3857771754 -0.3362982571 0.1016661525 2.927613771e-39
0.1014918387 -0.2621136308 0.1114361137 4.665672282e-39
0.3442153037 -0.1505173296 0.09823818505 7.318498431e-39
0.1849182695 -0.1149725541 0.09135626256 8.141789305e-39
0.1098151207 -0.09819622338 0.1733008623 8.50769636e-39
0.1744614691 -0.3507550955 0.1023296192 2.65318348e-39
0.1059302688 -0.2005942911 0.2118729055 6.129300502e-39
0.3607358932 -0.0582469888 0.0876192078 9.422463997e-39
0.2041950226 0.01004766952 0.09462283552 1.106904574e-38
0.143304199 -0.3158207536 0.3612856269 3.38499759e-39
0.07081122696 -0.1595541537 0.111892283 7.04406814e-39
0.07582176477 -0.05369678885 0.1044859737 9.605417525e-39
0.1046057492 -0.3270116448 0.2658364177 3.202044062e-39
0.1374566555 -0.2649072707 0.07850893587 4.665672282e-39
0.0677267164 -0.07253345102 0.1556117833 9.148033706e-39
0.3675219715 -0.266141057 0.08479088545 4.574195519e-39
0.07559998333 -0.01197151095 0.1018960401 1.052018516e-38
0.09028851986 -0.09518736601 0.2856810093 8.599173124e-39
0.09964518249 -0.4250881672 0.105591476 8.236482049e-40
0.0737785697 -0.4124889374 0.2493661791 1.18955526e-39
0.2442061603 -0.3830961585 0.1122658774 1.829892606e-39
0.08553530276 -0.2371931374 0.3974760473 5.306009629e-39
0.1621138155 -0.2512507141 0.1026207507 4.940102574e-39
0.07402057201 0.001114072278 0.2417882383 1.088609222e-38
0.2996782064 -0.1128970459 0.1006926969 8.141789305e-39
0.07572117448 -0.3222981393 0.1503348798 3.293520826e-39
0.4033158422 -0.06300102919 0.1899109185 9.330987234e-39
0.3159734011 -0.3245380819 0.1061181426 3.202044062e-39
0.07144330442 -0.1735465527 0.181967929 6.769637849e-39
0.1115315631 -0.2489537895 0.3004151881 5.031579337e-39
0.08023905754 -0.2597389817 0.1126554981 4.757149046e-39
0.1193180978 -0.1377391368 0.1028012857 7.592928722e-39
0.1619786322 0.03705920652 0.1014136449 1.170938309e-38
0.3885623515 -0.1611227989 0.09611098468 7.04406814e-39
0.07160723209 -0.3383449614 0.2191189378 2.927613771e-39
0.07363764197 -0.0986218527 0.3857873082 8.50769636e-39
0.1081046984 -0.3114262223 0.3767486215 3.567951117e-39
0.3636990488 -0.02569552511 0.09860365093 1.024575487e-38
0.0753352195 -0.3694832027 0.1189914793 2.195799661e-39
0.1173392981 -0.3319656253 0.08841274679 3.019090535e-39
0.2980870008 -0.2053847909 0.08739314973 6.037823739e-39
0.06433601677 -0.04036049172 0.1012888476 9.879847816e-39
0.1601375937 -0.01503998134 0.08686542511 1.04287084e-38
0.1084309742 -0.269186914 0.2204006016 4.482718755e-39
0.1601260155 -0.2611472309 0.3497102261 4.665672282e-39
0.1369213313 -0.3492636085 0.1009260416 2.65318348e-39
0.09894704819 -0.0511790961 0.1008038297 9.605417525e-39
0.09291826934 -0.03522339463 0.3261167407 9.97132458e-39
0.1834449768 -0.4026719034 0.1082119346 1.372508787e-39
0.1233680919 -0.1368115991 0.2382720113 7.592928722e-39
0.4107511938 -0.2872014046 0.1004093215 4.1168117e-39
0.07524499297 -0.3989874423 0.1798249185 1.463985551e-39
0.08217773587 -0.1794446707 0.2615401745 6.586684321e-39
0.0843751803 -0.2509054244 0.09501071274 4.940102574e-39
0.1529059112 -0.09451970458 0.08589842916 8.599173124e-39
0.0669619143 -0.2662000954 0.1471223086 4.574195519e-39
0.1397838295 -0.3379200697 0.3141301274 2.927613771e-39
0.0540108867 -0.103208825 0.1408532709 8.416219596e-39
0.2361582071 -0.2255480587 0.1035960466 5.58043992e-39
0.08272107691 -0.3191677332 0.1120766029 3.38499759e-39
0.08801951259 -0.1787111759 0.101749815 6.678161085e-39
0.07482998818 0.03674562648 0.1011167392 1.170938309e-38
0.07957948744 -0.04102921486 0.2081291974 9.879847816e-39
0.1201947182 -0.2186612934 0.3554460704 5.671916684e-39
0.4233890474 -0.06091088802 0.2381589264 9.422463997e-39
0.2766871154 -0.335075289 0.1118151918 3.019090535e-39
0.07318419218 -0.3746250272 0.3489211798 2.012846134e-39
0.3608134687 -0.01240456849 0.1000298709 1.052018516e-38
0.3753422201 -0.2030683756 0.1029072553 6.037823739e-39
0.07946002483 -0.3346501589 0.1233084127 3.019090535e-39
0.07671584934 -0.2685149014 0.311568737 4.574195519e-39
0.1742781401 -0.1759831607 0.1067399606 6.678161085e-39
0.06922415644 -0.104960531 0.2213399559 8.324742832e-39
0.1356004775 -0.06758116931 0.1097786352 9.23951047e-39
0.1503952593 -0.2882350087 0.3904859424 4.1168117e-39
0.07351130992 0.0383493118 0.1880091429 1.170938309e-38
0.07398089021 -0.4247233272 0.1000207216 9.151249686e-40
0.2734650075 -0.286847502 0.09975516051 4.1168117e-39
0.2734094858 -0.06179487333 0.09944535792 9.422463997e-39
0.1235159189 -0.1620083451 0.1866647303 7.04406814e-39
0.2735091448 -0.3865950406 0.1006473675 1.738415842e-39
0.153738156 0.02481351048 0.1006143615 1.14349528e-38
0.09492442012 -0.3954188526 0.1038413197 1.555462315e-39
0.06686061621 -0.1844312549 0.3506049812 6.495207557e-39
0.0779299885 -0.3612523973 0.1776947826 2.378753189e-39
0.1445032209 -0.292876035 0.2764437795 3.933858172e-39
0.09763322771 -0.07358399034 0.3875055015 9.056556942e-39
0.05447790027 -0.2019268274 0.2041019052 6.129300502e-39
0.08287125826 -0.08031543344 0.1185380667 8.965080179e-39
0.2838627994 -0.1480142772 0.1058949381 7.318498431e-39
0.08254173398 -0.3227573335 0.3797509968 3.293520826e-39
0.1230169684 -0.08617781103 0.2617495656 8.782126651e-39
0.053302221 -0.07849417627 0.2211956233 8.965080179e-39
0.3856590986 -0.07328297198 0.1015238687 9.148033706e-39
0.07951430976 -0.1855147928 0.1218114868 6.495207557e-39
0.2869292796 -0.0002658851445 0.1008682549 1.079461545e-38
0.1655097157 -0.2706677914 0.1061113998 4.482718755e-39
0.3933233023 -0.06391008198 0.1766020209 9.330987234e-39
0.06898373365 -0.2117797285 0.284060955 5.854870211e-39
0.2771426439 -0.2901528478 0.09942753613 4.025334936e-39
0.07302220911 -0.01113175321 0.348406285 1.052018516e-38
0.1149872094 -0.2788326442 0.1677136868 4.299765227e-39
0.08262263238 -0.4341851175 0.1165606081 6.406946774e-40
0.0745197013 -0.3990313411 0.2742478848 1.463985551e-39
0.08563420177 -0.07964123785 0.1212358326 8.965080179e-39
0.3972969353 -0.1612265408 0.1094672009 7.04406814e-39
0.07550466061 -0.3157513142 0.1050609276 3.38499759e-39
0.04104721546 -0.02444422059 0.1755153388 1.024575487e-38
0.210194841 -0.1241397634 0.100683935 7.958835777e-39
0.08001582325 -0.003233619034 0.1015448198 1.070313869e-38
0.3363709152 -0.3531744182 0.1007241756 2.561706716e-39
0.3126288354 -0.2004737705 0.1007912382 6.129300502e-39
0.07398383319 -0.2415362448 0.3223930299 5.123056101e-39
0.1597840041 -0.3355121315 0.3491597474 2.927613771e-39
0.1234281585 -0.2249280661 0.2364539355 5.58043992e-39
0.149721384 -0.1896146536 0.1038289368 6.403730794e-39
0.1460915655 -0.329564482 0.09984616935 3.110567299e-39
0.0768237263 -0.3774034381 0.124801442 2.012846134e-39
0.2129211426 0.007246003486 0.09913663566 1.097756898e-38
0.06750708818 -0.1424295008 0.1462403685 7.501451959e-39
0.382050693 -0.243374154 0.08998247981 5.123056101e-39
0.1736866087 -0.4110693932 0.1010552421 1.18955526e-39
0.09945409745 -0.09328731894 0.3186309934 8.599173124e-39
0.08203350008 -0.3292438388 0.1910726428 3.110567299e-39
0.1484464407 -0.2483983189 0.4113928378 5.031579337e-39
0.08144335449 -0.2487858981 0.1106640249 5.031579337e-39
0.3852170706 -0.06067059562 0.2381557077 9.422463997e-39
0.07650130987 -0.02463939972 0.2135412693 1.024575487e-38
0.1244525611 -0.1142313778 0.1026923954 8.141789305e-39
0.3234691918 -0.08674106747 0.1005322933 8.782126651e-39
0.07590990514 -0.161045447 0.3547264934 7.04406814e-39
0.2004220486 -0.2322033346 0.08802978694 5.397486392e-39
0.1738764048 0.03741665184 0.1009405851 1.170938309e-38
0.1236390248 -0.3493018448 0.2879787982 2.65318348e-39
0.08355630934 -0.3292118609 0.3622854054 3.110567299e-39
0.3451889455 -0.01907063834 0.09159164131 1.033723163e-38
0.06402141601 -0.00251006335 0.1105665937 1.079461545e-38
0.1005893797 -0.2410813123 0.1046015546 5.214532865e-39
0.4100694358 -0.2988848686 0.1001623273 3.842381409e-39
0.2887562811 -0.3641310632 0.0913393721 2.287276425e-39
0.08284187317 -0.4024794102 0.1068959981 1.372508787e-39
0.1986808181 -0.05031512678 0.1006948277 9.605417525e-39
0.1331721842 -0.3329828382 0.1023814157 3.019090535e-39
0.0727230832 -0.2350902855 0.2101170719 5.306009629e-39
0.06751382351 -0.1126394868 0.1081544757 8.141789305e-39
0.1232455522 -0.1490799785 0.1859972328 7.318498431e-39
0.0877084136 -0.01353417337 0.1031445637 1.052018516e-38
0.07323437929 -0.02526224218 0.129763633 1.024575487e-38
0.2736856937 -0.2987833917 0.09964517504 3.842381409e-39
0.06323691458 -0.3011156321 0.1137492135 3.750904645e-39
0.0743034631 -0.1503959894 0.3019813895 7.318498431e-39
0.1460984647 -0.2712620795 0.2899448276 4.482718755e-39
0.07361505181 -0.4235854745 0.2007043809 9.151249686e-40
0.07017461956 -0.3089663088 0.3049729168 3.567951117e-39
0.2277517617 -0.1408249289 0.1270409971 7.501451959e-39
0.07793458551 -0.1079853773 0.3573935926 8.324742832e-39
0.1136382371 -0.1962830871 0.09537292272 6.220777266e-39
0.197119996 -0.4106305242 0.1123110577 1.18955526e-39
0.4103292525 -0.06239874661 0.1982411891 9.330987234e-39
0.075060606 0.0600515604 0.1414347291 1.225824367e-38
0.07009232789 -0.03762216121 0.2857095897 9.97132458e-39
0.2573372126 -0.2651702464 0.09315245599 4.574195519e-39
0.3979787827 -0.1736050546 0.1118052751 6.769637849e-39
0.1158615425 -0.1134213805 0.2450544238 8.141789305e-39
0.2768382132 -0.009731886908 0.09800896794 1.061166193e-38
0.08684463054 -0.3505140245 0.1019039825 2.65318348e-39
0.1233284026 -0.3244603872 0.411277622 3.202044062e-39
0.07517854124 -0.3756838143 0.2563070059 2.012846134e-39
0.07362094522 -0.2277846038 0.1556690335 5.488963156e-39
0.1220649332 -0.04845293984 0.09722295403 9.696894289e-39
0.08711440861 -0.164192006 0.1023355275 6.952591376e-39
0.08898378164 -0.2446176112 0.3666816652 5.123056101e-39
0.3494996428 -0.1117089763 0.1000403017 8.233266069e-39
0.08368745446 -0.3099839985 0.105635941 3.567951117e-39
0.3601995409 -0.3481300771 0.1128316596 2.65318348e-39
0.1195508689 -0.4253129363 0.1107390299 8.236482049e-40
0.1478532255 -0.3495020866 0.3015399277 2.65318348e-39
0.08643653989 -0.06792452186 0.09621566534 9.23951047e-39
0.1219077483 -0.2540608644 0.08785241842 4.84862581e-39
0.07526930422 -0.3494289517 0.2755454779 2.65318348e-39
0.1229081973 -0.1993407309 0.2254150361 6.129300502e-39
0.2731688917 -0.3868832588 0.1144295782 1.738415842e-39
0.1129382774 -0.09455839545 0.1581884027 8.599173124e-39
0.1283965856 0.006718661636 0.1025043949 1.097756898e-38
0.07084534317 -0.1624953002 0.1922411472 7.04406814e-39
0.3117933571 -0.1878342628 0.1012200937 6.403730794e-39
0.07378040999 -0.0368986614 0.3750415444 9.97132458e-39
0.1488813609 -0.236482814 0.3756210804 5.306009629e-39
0.3873143792 -0.2991901934 0.09609933943 3.842381409e-39
0.3587963879 -0.03146937862 0.09324846417 1.006280134e-38
0.07508295774 0.02331298776 0.2135458142 1.134347604e-38
0.1950605512 -0.118107602 0.1001906246 8.050312541e-39
0.07067521662 -0.1665609032 0.1112665385 6.952591376e-39
0.09034197778 -0.3349730372 0.09159623086 3.019090535e-39
0.07741373032 -0.2699420154 0.1249257848 4.482718755e-39
0.07483189553 -0.05532098189 0.1757763922 9.513940761e-39
0.07142236829 -0.3604770005 0.1285867542 2.378753189e-39
0.2804033458 -0.2301551849 0.08774572611 5.397486392e-39
0.07193695754 -0.1614536345 0.3882303834 7.04406814e-39
0.4220131934 -0.06209178641 0.2123381048 9.330987234e-39
0.1915374845 -0.00810817536 0.09556081146 1.061166193e-38
0.2232923508 -0.198946625 0.09869028628 6.129300502e-39
0.09444522113 -0.2678282559 0.1828330308 4.574195519e-39
0.1716664135 -0.3074250221 0.08631847799 3.659427881e-39
0.1116714999 -0.08898995072 0.1017909572 8.782126651e-39
0.07317680866 -0.4152752757 0.1015067101 1.098078496e-39
0.06725450605 -0.1075881198 0.1611196101 8.324742832e-39
0.1174402237 -0.3389787376 0.336607933 2.927613771e-39
0.07156122476 -0.1035106257 0.2737420797 8.416219596e-39
0.1218715161 -0.2806257904 0.1075911745 4.208288464e-39
0.07395301759 -0.0001699315617 0.2878622413 1.079461545e-38
0.2862283587 -0.08713331074 0.100897789 8.782126651e-39
0.06320025772 -0.3233827055 0.1947725266 3.293520826e-39
0.08253693581 -0.4100754559 0.1000692695 1.18955526e-39
0.06857760996 -0.2184472084 0.2989275455 5.671916684e-39
0.06195519865 -0.05032524467 0.112296924 9.605417525e-39
0.160902977 -0.2989457846 0.2881199121 3.842381409e-39
0.07378793508 -0.3370014429 0.4007138908 2.927613771e-39
0.1113384962 -0.08605154604 0.3012696505 8.782126651e-39
0.1187191159 -0.1933326125 0.1018558443 6.31225403e-39
0.1942324936 -0.3852442503 0.09813874215 1.829892606e-39
0.1497526765 -0.01555927843 0.10001982 1.04287084e-38
0.07553585619 0.05879809707 0.1276663244 1.216676691e-38
0.2869126797 -0.2385088056 0.1018882245 5.214532865e-39
0.3856590092 -0.06109409034 0.0997421965 9.422463997e-39
0.09877953678 -0.08683289587 0.3525896072 8.782126651e-39
0.0628194958 -0.382984221 0.2747760117 1.829892606e-39
0.1605113745 -0.3111048937 0.3998369277 3.567951117e-39
0.2331117988 0.00379249081 0.1004139408 1.088609222e-38
0.07389642298 -0.1872427166 0.3011454344 6.403730794e-39
0.3750864267 -0.1786144376 0.09608713537 6.678161085e-39
0.07540727407 -0.2157862782 0.125080198 5.763393447e-39
0.2287347913 -0.3632441461 0.09251563996 2.287276425e-39
0.07223403454 -0.3405297995 0.1130547747 2.836137007e-39
0.123146303 -0.1617117971 0.2244765908 7.04406814e-39
0.06572120637 -0.2619819045 0.1719696969 4.665672282e-39
0.072685197 -0.1403882354 0.1045270711 7.501451959e-39
0.2361912429 -0.1371242702 0.1006167307 7.592928722e-39
0.1479597837 -0.2369273603 0.4008455575 5.306009629e-39
0.1233795881 -0.2369579673 0.1753605604 5.306009629e-39
0.08191610128 0.01212069765 0.1576147079 1.106904574e-38
0.3975716829 -0.06144061685 0.197769329 9.422463997e-39
0.08758611977 -0.3896309435 0.1017129719 1.738415842e-39
0.1969890893 -0.2931220233 0.08739896119 3.933858172e-39
0.4104011953 -0.2980137169 0.1115610749 3.842381409e-39
0.1224440411 -0.0889017731 0.1940838248 8.782126651e-39
0.1042278782 -0.2567038536 0.2633658051 4.84862581e-39
0.08188055456 -0.402300626 0.1426420957 1.372508787e-39
0.1736584902 0.036993213 0.1132014096 1.170938309e-38
0.3240703046 -0.1641363949 0.1032868549 6.952591376e-39
0.3479323685 -0.01233891305 0.1017742679 1.052018516e-38
0.0639629066 -0.1861286312 0.1679747105 6.495207557e-39
0.1744543165 -0.3007563949 0.102975823 3.750904645e-39
0.1432988644 -0.1142547354 0.09817942977 8.141789305e-39
0.1799344718 -0.3997080624 0.1005685329 1.463985551e-39
0.07941634208 -0.01414876152 0.2717237473 1.052018516e-38
0.09508933872 -0.04662569612 0.1090786234 9.696894289e-39
0.1357537508 -0.05605442077 0.09224378318 9.513940761e-39
0.3961321712 -0.2366815805 0.1000252515 5.306009629e-39
0.1191675812 -0.1816915274 0.09409645945 6.586684321e-39
0.09063088894 -0.32532686 0.1951557398 3.202044062e-39
0.07560705394 -0.273047924 0.3366477489 4.391241991e-39
0.08196277916 -0.1755019575 0.3540322185 6.678161085e-39
0.07007725537 -0.08639634401 0.1752568483 8.782126651e-39
0.07342720777 -0.4483314455 0.124996759 3.662643861e-40
0.07372646034 -0.3743758202 0.3262480199 2.012846134e-39
0.08661945164 -0.2729654312 0.1218461171 4.391241991e-39
0.1385029405 -0.3384225667 0.2880104184 2.927613771e-39
0.2602256835 -0.2881617248 0.0864064768 4.1168117e-39
0.3238365054 -0.09837052226 0.09958746284 8.50769636e-39
0.08406542242 -0.3911767304 0.1196245551 1.646939079e-39
0.1104058027 -0.07282160223 0.3256908357 9.148033706e-39
0.0748372525 -0.04915758595 0.1003724188 9.696894289e-39
0.09412170947 -0.1678979099 0.09336210787 6.861114612e-39
0.2984418273 -0.372546941 0.09916573018 2.104322897e-39
0.08937734365 -0.05608434603 0.1184875518 9.513940761e-39
0.1364670694 -0.2934436202 0.3748708665 3.933858172e-39
0.3707224727 -0.1471756697 0.09746439755 7.409975195e-39
0.1000852957 -0.1059870869 0.121594198 8.324742832e-39
0.1564312428 -0.2391907424 0.1057233736 5.214532865e-39
0.07199186087 -0.3391616046 0.3568976223 2.836137007e-39
0.3836021423 -0.06333785504 0.1759780496 9.330987234e-39
0.07345452905 -0.2865178883 0.211253956 4.1168117e-39
0.07321949303 -0.4125162959 0.2362852395 1.18955526e-39
0.1378268152 0.03526930884 0.1055146083 1.161790633e-38
0.07175856829 -0.211561352 0.1148696616 5.854870211e-39
0.1235689521 -0.4362928569 0.09934078902 6.406946774e-40
0.07430429012 -0.1618037522 0.2997765541 7.04406814e-39
0.3147648573 -0.2080536783 0.1019859985 5.946346975e-39
0.1420934796 -0.3240437508 0.1141121387 3.202044062e-39
0.3829155266 -0.3264954984 0.08647087216 3.202044062e-39
0.3857687414 -0.02453828417 0.1126797795 1.024575487e-38
0.2495609671 0.01315974724 0.09890378267 1.116052251e-38
0.08729420602 -0.2471138537 0.1464917213 5.031579337e-39
0.130987674 -0.2376081347 0.3684855998 5.214532865e-39
0.07269242406 -0.02347860485 0.3617760837 1.024575487e-38
0.07598347962 0.002048902214 0.1158144474 1.088609222e-38
0.2355901301 -0.07421846688 0.1013090089 9.056556942e-39
0.1485054493 -0.2619350851 0.2994072139 4.665672282e-39
0.1249940023 -0.351757288 0.1041045338 2.561706716e-39
0.06783796847 -0.2641720772 0.1150584146 4.665672282e-39
0.05787975341 -0.1097803116 0.152725637 8.233266069e-39
0.07347844541 -0.1109394431 0.3871456087 8.233266069e-39
0.1087679118 -0.1446070969 0.2149034292 7.409975195e-39
0.248309046 -0.2119630426 0.1005402729 5.854870211e-39
0.2345496416 -0.06094877049 0.08740383387 9.422463997e-39
0.1064144373 -0.04682858288 0.09480011463 9.696894289e-39
0.07224484533 -0.3109534979 0.3968850076 3.567951117e-39
0.1066332236 -0.2100128829 0.1133148447 5.946346975e-39
0.2390542477 -0.3660362065 0.1054200754 2.287276425e-39
0.4043300152 -0.06499877572 0.2023536563 9.330987234e-39
0.08632855862 -0.008657716215 0.113403827 1.061166193e-38
0.07642140239 -0.4031903744 0.138919875 1.372508787e-39
0.07406169176 -0.1317870021 0.1138270944 7.77588225e-39
0.09570987523 -0.1632221043 0.08998392522 7.04406814e-39
0.1596315056 -0.3362273276 0.2994807363 2.927613771e-39
0.3685692847 -0.3213739693 0.1040798426 3.293520826e-39
0.07836121321 -0.06672003865 0.1908576638 9.23951047e-39
0.08807933331 -0.3398780227 0.09382179379 2.836137007e-39
0.0814865306 -0.1368277669 0.2753186226 7.592928722e-39
0.3855215907 -0.1353139728 0.1016960964 7.684405486e-39
0.07699423283 -0.3123562634 0.115752548 3.476474354e-39
0.1112834886 -0.2242640406 0.3496820629 5.58043992e-39
0.07684405148 -0.3141685426 0.1954313517 3.476474354e-39
0.3232440948 -0.01230137236 0.09929845482 1.052018516e-38
0.1368921548 -0.1138134226 0.1018613502 8.141789305e-39
0.2980318964 -0.2869480848 0.1004312932 4.1168117e-39
0.07350657135 -0.3670424521 0.3049714863 2.195799661e-39
0.1856386364 -0.2751669884 0.09739394486 4.391241991e-39
0.1505370438 0.01931781694 0.1055879071 1.125199927e-38
0.111960724 -0.1883959174 0.2512307763 6.403730794e-39
0.1777629405 -0.1474166363 0.08818382025 7.409975195e-39
0.1354754567 -0.4350372255 0.1118680164 6.406946774e-40
0.08466546237 -0.06319491565 0.1633480191 9.330987234e-39
0.385607481 -0.2526112199 0.08636254817 4.940102574e-39
0.08115828782 -0.09642961621 0.1205758974 8.599173124e-39
0.08748132735 -0.0382421799 0.3102221489 9.97132458e-39
0.08661873639 -0.2648442984 0.3748159409 4.665672282e-39
0.09985381365 -0.2515320778 0.1030779183 4.940102574e-39
0.07218410075 -0.3843098581 0.1091532707 1.829892606e-39
0.1430525482 -0.359136492 0.1021549925 2.378753189e-39
0.1604983807 -0.3236740828 0.3744367063 3.202044062e-39
0.06827262044 -0.1822826415 0.1668617874 6.586684321e-39
0.3574598134 -0.08160229772 0.1062935069 8.873603415e-39
0.07326453179 -0.1737648398 0.3879558742 6.769637849e-39
0.1222617477 -0.260915041 0.2140925527 4.757149046e-39
0.06423606724 -0.01591694728 0.1133695245 1.04287084e-38
0.09417899698 -0.3839696646 0.2161097378 1.829892606e-39
0.3232800663 -0.2113312632 0.1014930308 5.854870211e-39
0.2520676851 -0.3349786401 0.1086732745 3.019090535e-39
0.1242499277 -0.1127865314 0.1742751002 8.141789305e-39
0.08567730337 -0.23465994 0.222987473 5.306009629e-39
0.4233081341 -0.0604009442 0.2242502272 9.422463997e-39
0.08074320108 -0.01145789865 0.1454472542 1.052018516e-38
0.161989525 -0.0506942831 0.1026100293 9.605417525e-39
0.07578475773 -0.09058592469 0.2744839191 8.690649887e-39
0.262591064 -0.005768680014 0.09042241424 1.070313869e-38
0.08741066605 -0.3384301662 0.1021690518 2.927613771e-39
0.39857921 -0.1861943156 0.1138546541 6.495207557e-39
0.07218261063 -0.2157841176 0.1073214933 5.763393447e-39
0.14505364 -0.2639346123 0.3782845438 4.665672282e-39
0.07502707839 0.02169701457 0.1017744541 1.134347604e-38
0.149615854 -0.2016776949 0.1040084809 6.129300502e-39
0.06984874606 -0.1485646069 0.2094455808 7.318498431e-39
0.1991862208 -0.4000451267 0.1002730578 1.463985551e-39
0.1296378672 -0.3236902952 0.2607662976 3.202044062e-39
0.3977627158 -0.3238441348 0.1002001539 3.202044062e-39
0.1109238863 -0.08703543246 0.3618029952 8.782126651e-39
0.3871504962 -0.03848071024 0.1008748561 9.879847816e-39
0.07776317 -0.3243232071 0.1383338571 3.202044062e-39
0.0562661998 -0.07979178429 0.1377681494 8.965080179e-39
0.07450442016 -0.4248241782 0.1213382185 9.151249686e-40
0.1225152984 -0.3498835862 0.3763537705 2.65318348e-39
0.2229585499 -0.1447386593 0.09741944075 7.409975195e-39
0.08074967563 -0.1530665308 0.1169605404 7.227021667e-39
0.09536480159 -0.2709361315 0.1034362763 4.482718755e-39
0.122531645 -0.08573497832 0.2483120412 8.782126651e-39
0.1257510036 0.02552569099 0.104493618 1.14349528e-38
0.2276340425 -0.2133227289 0.09804479033 5.854870211e-39
0.142933622 -0.2688110173 0.3242336214 4.574195519e-39
0.07382285595 0.000494156382 0.2755812407 1.079461545e-38
0.2366098613 -0.06157156453 0.1005274281 9.422463997e-39
0.07562455535 -0.2855791152 0.1169003248 4.1168117e-39
0.07369016111 -0.03485159576 0.3314287364 9.97132458e-39
0.2604483664 -0.3863246143 0.09962990135 1.738415842e-39
0.3239480853 -0.1122956425 0.09952611476 8.233266069e-39
0.06714843214 -0.3825035989 0.2131684422 1.829892606e-39
0.06757649034 -0.3236219287 0.336055547 3.202044062e-39
0.08687389642 -0.08830074966 0.1021025777 8.782126651e-39
0.07571770996 -0.1883645058 0.3523796797 6.403730794e-39
0.113336131 -0.2021577358 0.1777579635 6.129300502e-39
0.2491739094 -0.3008680344 0.1013985947 3.750904645e-39
0.2106472254 0.02580293454 0.1132609993 1.14349528e-38
0.07414239645 -0.2875244915 0.3126128316 4.1168117e-39
0.120842576 -0.4238203764 0.1010547355 9.151249686e-40
0.0817617476 -0.06254245341 0.1021506786 9.330987234e-39
0.3246568143 -0.3632759154 0.1141184196 2.287276425e-39
0.3984933794 -0.04958805814 0.2117578089 9.696894289e-39
0.07164779305 -0.2473856807 0.1812395453 5.031579337e-39
0.3978269398 -0.2478857189 0.09967955947 5.031579337e-39
0.1585746706 -0.1305303872 0.1021137834 7.77588225e-39
0.3303997517 -0.02602799609 0.08792784065 1.024575487e-38
0.1270834208 -0.313231796 0.09953953326 3.476474354e-39
0.2359785438 -0.2129237354 0.1001588479 5.854870211e-39
0.09678091109 -0.3734540343 0.112224862 2.104322897e-39
0.0759491846 -0.2156134546 0.3087890148 5.763393447e-39
0.08406172693 -0.06400712579 0.105852887 9.330987234e-39
0.07710544765 -0.0958147496 0.1729242504 8.599173124e-39
0.3703304231 -0.1154270619 0.09637806565 8.141789305e-39
0.07108655572 -0.354439646 0.1138911098 2.561706716e-39
0.07361674309 -0.1220257133 0.3520157039 7.958835777e-39
0.07393708825 0.02455423772 0.2004961818 1.14349528e-38
0.09446239471 -0.193963781 0.09458584338 6.31225403e-39
0.241146788 0.008826090023 0.09633229673 1.106904574e-38
0.0810553655 -0.2198191434 0.126493603 5.671916684e-39
0.07529010624 -0.3384850323 0.2064484656 2.927613771e-39
0.1043307632 -0.2333042026 0.3758984804 5.397486392e-39
0.392470777 -0.1978463084 0.09820275009 6.220777266e-39
0.1394901127 -0.3507743776 0.09123437107 2.65318348e-39
0.1219825372 -0.1243627965 0.2368325144 7.867359014e-39
0.3056973219 -0.2818940282 0.1023447439 4.208288464e-39
0.07063262165 -0.3917710483 0.1836895943 1.646939079e-39
0.2046661824 -0.1559889019 0.08282363415 7.135544904e-39
0.111255154 0.04719632864 0.1134334356 1.189233662e-38
0.07347083092 -0.3047147393 0.1452169716 3.659427881e-39
0.1199381575 -0.06223914772 0.09001083672 9.330987234e-39
0.08032141626 -0.03942982107 0.270103395 9.879847816e-39
0.1048199832 -0.325429976 0.3376862407 3.202044062e-39
0.1802845746 -0.3744455576 0.1021683663 2.012846134e-39
0.3830945492 -0.07090900838 0.2133798748 9.148033706e-39
0.1027856767 -0.2532203197 0.2233750224 4.84862581e-39
0.1118115038 -0.06156059727 0.1195392311 9.422463997e-39
0.08681744337 -0.1466822028 0.1186537072 7.409975195e-39
0.1413621008 -0.2809479237 0.1005897596 4.208288464e-39
0.08578886092 -0.1774489731 0.2829146683 6.678161085e-39
0.07722207159 -0.05820321292 0.2050229758 9.422463997e-39
0.09964580834 -0.3468126357 0.2534534335 2.744660244e-39
0.276322335 -0.02774402127 0.09971942008 1.015427811e-38
0.1404327899 -0.2851814926 0.3256416917 4.1168117e-39
0.08922119439 -0.3503911793 0.1059278473 2.65318348e-39
0.1487434208 -0.1510422677 0.1015419066 7.318498431e-39
0.0859682858 -0.2709629834 0.1191262826 4.482718755e-39
0.340143472 -0.3475324512 0.09612123668 2.65318348e-39
0.3606392145 -0.03087160736 0.08520364016 1.006280134e-38
0.08769345284 -0.4224310219 0.1096282899 9.151249686e-40
0.1363050193 -0.2773798406 0.1024825871 4.299765227e-39
0.07759808749 -0.290391326 0.3296070099 4.025334936e-39
0.09883075207 -0.0952764526 0.227126196 8.599173124e-39
0.3883614242 -0.2646669745 0.09447667003 4.665672282e-39
0.07619148493 -0.0626796484 0.1123579741 9.330987234e-39
0.1465654969 0.0173960682 0.08844014257 1.125199927e-38
0.07012955844 -0.1838487089 0.1139308959 6.495207557e-39
0.3087511361 -0.1725357473 0.09368024766 6.769637849e-39
0.1480026096 -0.2989342511 0.4115100503 3.842381409e-39
0.08746734262 0.01632302999 0.1086769775 1.116052251e-38
0.2487972528 -0.1038769856 0.09690735489 8.416219596e-39
0.1236864924 -0.1237702891 0.1746958792 7.958835777e-39
0.08619814366 -0.07367628813 0.3880597949 9.056556942e-39
0.07925400138 -0.2329474986 0.3557074368 5.397486392e-39
0.2810518742 -0.3785987794 0.110687241 1.92136937e-39
0.07286787033 -0.3604326248 0.1146129817 2.378753189e-39
0.385024786 -0.1106452346 0.1123489663 8.233266069e-39
0.1159993559 -0.2651256621 0.1737817973 4.574195519e-39
0.261945039 -0.2641352117 0.1033417881 4.665672282e-39
0.07147949934 -0.1481217593 0.2841739357 7.318498431e-39
0.07065993547 -0.2857536674 0.2452922761 4.1168117e-39
0.1482385099 -0.3239964247 0.2873238921 3.202044062e-39
0.1607123613 -0.4114489257 0.1013360694 1.18955526e-39
0.1033667251 -0.1860193312 0.2346308976 6.495207557e-39
0.2108376026 -0.1618596613 0.1010606959 7.04406814e-39
0.08162244409 -0.02669609711 0.1171014085 1.015427811e-38
0.08841527253 -0.3282608092 0.1052818894 3.110567299e-39
0.145139426 -0.06735309958 0.09968779236 9.23951047e-39
0.07358397543 -0.3989543617 0.2625900805 1.463985551e-39
0.3355781436 -0.2371436656 0.100254342 5.306009629e-39
0.07362438738 0.0003339003306 0.2601991892 1.079461545e-38
0.1791745871 -0.3304926753 0.09823253751 3.110567299e-39
0.147680372 -0.2354254127 0.3880319297 5.306009629e-39
0.06762958318 -0.1452315748 0.1301531196 7.409975195e-39
0.09961675853 -0.2015257627 0.1035576612 6.129300502e-39
0.08480833471 -0.02796850726 0.1230586395 1.015427811e-38
0.4048550427 -0.06016791612 0.187721923 9.422463997e-39
0.1836944669 0.01693930104 0.09488356858 1.125199927e-38
0.3249305785 -0.07572166622 0.1016386822 9.056556942e-39
0.2870155275 -0.3271971345 0.1022162363 3.202044062e-39
0.08528856933 -0.1020318791 0.2250535339 8.416219596e-39
0.110125266 -0.4477373958 0.111953333 3.662643861e-40
0.1469768882 -0.1136852354 0.09066104889 8.141789305e-39
0.08265865594 -0.2063369453 0.2442544103 5.946346975e-39
0.07728521526 -0.02072085813 0.2961556911 1.033723163e-38
0.07737345248 -0.3411976993 0.2099637836 2.836137007e-39
0.1477776319 -0.3361625075 0.3746355176 2.927613771e-39
0.09901081771 -0.1251408011 0.1021989435 7.867359014e-39
0.2731345892 -0.008417394012 0.09890575707 1.061166193e-38
0.1877206862 -0.2258177847 0.1006829515 5.58043992e-39
0.07454622537 -0.4237537384 0.1360137165 9.151249686e-40
0.07315118611 -0.1234550998 0.3872337639 7.958835777e-39
0.3719400167 -0.2646970451 0.1088379323 4.665672282e-39
0.04943385348 -0.08325745165 0.1449364126 8.873603415e-39
0.07436782122 -0.2690318227 0.1378820837 4.482718755e-39
0.1128724292 -0.27053985 0.2593771815 4.482718755e-39
0.2096375972 -0.3998550177 0.122516863 1.463985551e-39
0.1229867637 -0.08637672663 0.174641341 8.782126651e-39
0.08597951382 -0.2622082531 0.397395581 4.665672282e-39
0.1014150158 -0.3645513058 0.1021153629 2.287276425e-39
0.3371207118 -0.1543770581 0.08727411181 7.227021667e-39
0.1238258928 -0.1856441349 0.1987665296 6.495207557e-39
0.3738742173 -0.3366731703 0.1121704206 2.927613771e-39
0.07336240262 -0.349522233 0.3878553808 2.65318348e-39
0.3606416881 -0.01167655922 0.1122990176 1.052018516e-38
0.1121199504 0.02544346452 0.106725201 1.14349528e-38
0.06886129081 -0.08549659699 0.2256925553 8.782126651e-39
0.1072455496 -0.2956297398 0.09476059675 3.933858172e-39
0.1601991057 -0.3362077475 0.3242686093 2.927613771e-39
0.2616139948 -0.1754950583 0.1015879512 6.678161085e-39
0.08158507198 -0.3036513031 0.1368607432 3.750904645e-39
0.3999637961 -0.0634400174 0.1879173219 9.330987234e-39
0.1114349514 -0.08645774424 0.3499948382 8.782126651e-39
0.07609499991 -0.1944617927 0.1900597364 6.31225403e-39
0.2354696244 0.01360521279 0.09876327962 1.116052251e-38
0.08728206903 -0.03913779929 0.1025758535 9.879847816e-39
0.1233073771 -0.2237416804 0.3643062711 5.58043992e-39
0.0807107836 -0.01746215671 0.138025701 1.04287084e-38
0.1265794337 -0.1323367059 0.08531701565 7.684405486e-39
0.3853748441 -0.08558183908 0.1119100153 8.782126651e-39
0.06445669383 -0.3794464767 0.1169421077 1.92136937e-39
0.08497819304 -0.1877573878 0.1115955934 6.403730794e-39
0.3233789206 -0.2359146476 0.1009366736 5.306009629e-39
0.2550914586 -0.3588593006 0.09459608793 2.378753189e-39
0.07456663251 -0.2458451837 0.1315251291 5.031579337e-39
0.1367232502 -0.3005281687 0.3904805183 3.750904645e-39
0.07374723256 -0.2745602131 0.3126911521 4.391241991e-39
0.08956196904 -0.4416843355 0.09766573459 4.577411499e-40
0.0787775293 -0.4016471803 0.2048267424 1.372508787e-39
0.2606810629 -0.0629972443 0.1010502353 9.330987234e-39
0.3980127573 -0.2249594927 0.1108428687 5.58043992e-39
0.2245799452 -0.2649009228 0.102435708 4.665672282e-39
0.07466404885 -0.01175462082 0.323213309 1.052018516e-38
0.1326011568 -0.3665914536 0.08642808348 2.195799661e-39
0.07372362912 -0.3732102811 0.3113488257 2.104322897e-39
0.124535419 -0.2613536417 0.187955752 4.665672282e-39
0.1045197994 -0.09363993257 0.2178736031 8.599173124e-39
0.1733979732 -0.04802847281 0.1002585664 9.696894289e-39
0.3025431037 -0.1529781669 0.08802888542 7.227021667e-39
0.08392365277 -0.1286968142 0.1116353273 7.77588225e-39
0.1503571123 -0.2149269879 0.1020793244 5.763393447e-39
0.30957371 -0.3108967543 0.125686571 3.567951117e-39
0.1602119207 -0.2748109698 0.3355693817 4.391241991e-39
0.08750470728 -0.3029474914 0.1047087982 3.750904645e-39
0.05962885544 -0.0421779789 0.1104409397 9.879847816e-39
0.07360586524 -0.0650549978 0.3420034051 9.330987234e-39
0.07236792147 -0.2231841683 0.3874571919 5.58043992e-39
0.114078477 0.00622638315 0.1064729989 1.097756898e-38
0.06161394343 -0.1524282396 0.2830679119 7.227021667e-39
0.0392431803 -0.1074919775 0.1757086217 8.324742832e-39
0.1238107234 -0.1866190881 0.2241749913 6.495207557e-39
0.07365137339 -0.3508031368 0.3550918102 2.65318348e-39
0.1854932904 -0.4109353125 0.1117952392 1.18955526e-39
0.3752265573 -0.3139484525 0.09634187073 3.476474354e-39
0.2996507585 -0.00108970562 0.1142432392 1.079461545e-38
0.1367681772 -0.3363354206 0.2865551412 2.927613771e-39
0.09180989116 -0.04905191064 0.1927262247 9.696894289e-39
0.197324723 0.02721045911 0.09878137708 1.14349528e-38
0.3244095445 -0.06941188127 0.09057044983 9.23951047e-39
0.1603183448 -0.1379293054 0.1022649556 7.592928722e-39
0.2070298791 -0.1814701706 0.0881632641 6.586684321e-39
0.100771144 -0.3566094041 0.1082409844 2.470229952e-39
0.08181402087 -0.2153639942 0.1357257664 5.763393447e-39
0.3861290514 -0.1482385695 0.1002719477 7.318498431e-39
0.1180465445 -0.07399020344 0.1444190443 9.056556942e-39
0.1353660226 -0.2491196543 0.4119076431 5.031579337e-39
0.07898778468 -0.3044860661 0.2477926463 3.659427881e-39
0.1148314625 -0.202538833 0.101687938 6.037823739e-39
0.260176897 -0.3850150108 0.1121435687 1.829892606e-39
0.2481661588 -0.2701750696 0.08918817341 4.482718755e-39
0.08755049109 -0.2975004613 0.118821837 3.842381409e-39
0.3849108517 -0.06128751114 0.1877901703 9.422463997e-39
0.08389968425 -0.04980498552 0.1506996155 9.696894289e-39
0.2436215878 -0.08194693178 0.1046007946 8.873603415e-39
0.09104195982 0.01130385511 0.114690274 1.106904574e-38
0.07517728209 -0.09268248826 0.2502626181 8.690649887e-39
0.3855723441 -0.2288026959 0.101228781 5.488963156e-39
0.06880092621 -0.3914861381 0.1116512641 1.646939079e-39
0.1740874946 -0.3246819675 0.104460001 3.202044062e-39
0.08833454549 -0.2376728505 0.1162206754 5.214532865e-39
0.07502024621 -0.3892242908 0.2890095413 1.738415842e-39
0.07335437834 -0.2113738507 0.3115148842 5.854870211e-39
0.3307369649 -0.3244148791 0.09150920808 3.202044062e-39
0.148881495 -0.324305892 0.3981497288 3.202044062e-39
0.0995676592 -0.113441661 0.1013325155 8.141789305e-39
0.08681602776 -0.4159329534 0.1061003134 1.098078496e-39
0.1078129187 -0.2704100013 0.1834060103 4.482718755e-39
0.07613790035 -0.1425534487 0.1902741194 7.501451959e-39
0.260243535 0.0138923768 0.1112956256 1.116052251e-38
0.09790061414 -0.05684884638 0.1135908589 9.513940761e-39
0.3094400764 -0.08570760489 0.08886124939 8.782126651e-39
0.07546848804 -0.1411929131 0.2906695604 7.501451959e-39
0.2114600539 -0.1378455013 0.1002808884 7.592928722e-39
0.07504668832 0.0118225133 0.2141171992 1.106904574e-38
0.06829243153 -0.3279377222 0.1147584021 3.110567299e-39
0.07501888275 -0.189691782 0.1118432879 6.403730794e-39
0.07519851625 -0.3091858923 0.3092365563 3.567951117e-39
0.1066498607 -0.1705178916 0.2088080943 6.861114612e-39
0.1701208055 -0.3964553177 0.1118583679 1.555462315e-39
0.3513656855 -0.2070287913 0.1058213562 5.946346975e-39
0.200378567 -0.2653751671 0.1024958566 4.574195519e-39
0.1609699577 0.03728626296 0.1138102487 1.170938309e-38
0.0730753839 -0.04915585741 0.3740782738 9.696894289e-39
0.2871202826 -0.3499913216 0.08746441454 2.65318348e-39
0.06945757568 -0.03869204596 0.1082611978 9.879847816e-39
0.1869290024 -0.06264800578 0.102527611 9.330987234e-39
0.05047985911 -0.1088917404 0.1684750617 8.233266069e-39
0.1293954551 -0.2387225181 0.3671739101 5.214532865e-39
0.161014542 -0.2985033691 0.2990711927 3.842381409e-39
0.3796746731 -0.06520507485 0.1798211783 9.330987234e-39
0.2623164356 -0.2012594938 0.1021906361 6.129300502e-39
0.3989053369 -0.3114985824 0.09967560321 3.567951117e-39
0.07158697397 -0.287355274 0.1757937968 4.1168117e-39
0.07298684865 -0.2361941636 0.3859650791 5.306009629e-39
0.07428868115 -0.4133265316 0.2137824148 1.18955526e-39
0.123607941 -0.09896466136 0.1884351671 8.50769636e-39
0.06983501464 -0.1145050898 0.2489478141 8.141789305e-39
0.07325199246 -0.3602905273 0.3618727326 2.378753189e-39
0.3582898676 -0.1623258889 0.09998364747 7.04406814e-39
0.08577556163 -0.4357437789 0.1013835147 6.406946774e-40
0.1171083078 -0.3021568954 0.1000782698 3.750904645e-39
0.07096019387 -0.216987893 0.2534617782 5.763393447e-39
0.3054734766 -0.3138580918 0.1019138321 3.476474354e-39
0.1003216803 -0.1522885859 0.1033772156 7.227021667e-39
0.09252350777 -0.02990637347 0.2482681125 1.015427811e-38
0.3361532688 -0.0110173244 0.1123883501 1.052018516e-38
0.1302965879 -0.3266350329 0.3764306903 3.202044062e-39
0.2859793305 -0.111573711 0.1019008756 8.233266069e-39
0.06952522695 -0.09658981115 0.1067414209 8.599173124e-39
0.07089424133 -0.3327963948 0.2010772675 3.019090535e-39
0.06886863708 -0.248179391 0.1005568653 5.031579337e-39
