# .PCD v0.7 - Point Cloud Data file format
VERSION 0.7
FIELDS x y z rgb
SIZE 4 4 4 4
TYPE F F F F
COUNT 1 1 1 1
WIDTH 837
HEIGHT 1
VIEWPOINT 0 0 0 1 0 0 0
POINTS 837
DATA ascii
0.1687259525 -0.2556900978 0.08114717156 6.129300502e-39
0.183445245 -0.4736673832 0.01014641766 1.006601732e-39
0.05208537728 -0.4704885483 -0.1789409071 1.098078496e-39
0.1526038349 -0.1546012163 -0.3187549114 8.50769636e-39
0.1711448878 -0.08513570577 -0.152797997 1.015427811e-38
0.007903098129 -0.2003606558 0.3097783029 7.409975195e-39
-0.2060974538 -0.4675735533 0.2951763272 1.18955526e-39
-0.3291435838 -0.3239983618 0.1726335734 4.574195519e-39
-0.2977488637 -0.3203626275 -0.1410232037 4.574195519e-39
0.09406527132 -0.4435359538 -0.09568834305 1.738415842e-39
0.1185906306 -0.387830019 -0.3021352887 3.019090535e-39
0.1374211609 -0.2063913047 -0.06663633138 7.318498431e-39
0.1092353165 -0.4744548798 0.2883515954 1.006601732e-39
-0.2034592628 -0.3622389138 0.04705786332 3.659427881e-39
-0.07881120592 -0.1116976887 0.2972719371 9.513940761e-39
0.1685486287 -0.3942337036 -0.04717481509 2.927613771e-39
0.1683235019 -0.3275139928 0.1844631881 4.482718755e-39
0.1593932807 -0.3937797248 0.02731571719 2.927613771e-39
0.0846144855 -0.472091794 0.1604278684 1.098078496e-39
0.1630168855 -0.2086987495 -0.2138109803 7.227021667e-39
-0.336283356 -0.3114355505 0.09398899227 4.84862581e-39
0.02137671039 -0.361866504 0.3085696399 3.659427881e-39
-0.06832037121 -0.4622877836 0.2578859925 1.281032024e-39
-0.1187638044 -0.3539566994 -0.3171324134 3.842381409e-39
0.0584481433 -0.3621909618 -0.1020711213 3.659427881e-39
0.1701004803 -0.3206830919 -0.2712191641 4.574195519e-39
-0.2060412467 -0.3119550049 0.3114194572 4.84862581e-39
0.07917740941 -0.4530181885 -0.0465208292 1.463985551e-39
0.1135839671 -0.4717878401 -0.03914812952 1.098078496e-39
0.1604729891 -0.2657214701 -0.05639831722 5.854870211e-39
0.09865663946 -0.4727535844 -0.1256246269 1.006601732e-39
0.1340253949 -0.2989843786 0.269064337 5.123056101e-39
0.06506717205 -0.3950345814 -0.2250882238 2.836137007e-39
-0.1926078051 -0.3736207485 -0.236714229 3.38499759e-39
0.1056005657 -0.116231069 -0.3099009693 9.422463997e-39
0.02883795649 -0.4564627409 0.1991276294 1.463985551e-39
0.0148452986 -0.4045931697 -0.3071266115 2.65318348e-39
-0.3622345924 -0.3076757491 -0.0162572246 4.940102574e-39
0.1070949659 -0.0741814971 0.2988848984 1.033723163e-38
0.09643168747 -0.4740149677 0.09329093248 1.006601732e-39
0.1661866009 -0.4133787453 0.1827088594 2.470229952e-39
0.1161035448 -0.1857945621 -0.1361275613 7.77588225e-39
0.1183810085 -0.4789861441 0.1085534394 9.151249686e-40
-0.3268061578 -0.4348510504 0.1906347275 1.92136937e-39
-0.0118227005 -0.3929392695 -0.2621243298 2.927613771e-39
0.08213838935 -0.4655608535 -0.0698171705 1.18955526e-39
0.1149765849 -0.4590078294 0.01851562411 1.372508787e-39
-0.01399872545 -0.1345011294 0.3048791885 8.965080179e-39
0.08256277442 -0.2741785944 -0.3360263109 5.671916684e-39
0.180693835 -0.08756111562 0.1749160886 1.006280134e-38
0.09169015288 -0.4633098543 -0.08771007508 1.281032024e-39
0.1315703541 -0.4689348638 -0.1024381071 1.098078496e-39
-0.2497406006 -0.291557312 0.1276175231 5.306009629e-39
0.08707974106 -0.4245669842 0.2434308529 2.195799661e-39
0.1624098718 -0.3698556423 0.07876688987 3.476474354e-39
0.0612417981 -0.4752551317 -0.04984292388 1.006601732e-39
0.05067875236 -0.4778888226 -0.2927799225 9.151249686e-40
-0.1286613941 -0.4748646915 0.3089079261 1.006601732e-39
0.1819880605 -0.07402000576 -0.04088254645 1.04287084e-38
-0.09897146374 -0.3284362853 -0.2539592087 4.391241991e-39
0.1835598052 -0.2111445367 0.1851003915 7.135544904e-39
-0.2793869972 -0.3703778684 -0.2144814581 3.476474354e-39
-0.3869026601 -0.3713744879 0.07583238184 3.38499759e-39
0.1757493913 -0.3314411938 -0.1859523356 4.391241991e-39
-0.1961700171 -0.3949249089 0.2972863317 2.836137007e-39
0.1730123162 -0.1509086639 -0.226761654 8.599173124e-39
-0.1418387741 -0.1748137474 0.2971841991 8.050312541e-39
0.09601358324 -0.2867379487 0.2222545892 5.397486392e-39
-0.04147804528 -0.2993515432 0.3098430932 5.123056101e-39
-0.2042027265 -0.3767899573 0.04765596986 3.293520826e-39
-0.0788186565 -0.08641734719 -0.328548789 1.006280134e-38
-0.4248114526 -0.3619502187 0.1719367206 3.659427881e-39
0.1364524364 -0.1922862977 -0.3248082697 7.592928722e-39
0.1073253453 -0.4640953243 -0.2063527256 1.281032024e-39
-0.2408708483 -0.4784221351 0.2545393407 9.151249686e-40
-0.3552874625 -0.3168980777 -0.07525325567 4.665672282e-39
0.08385688066 -0.486800015 0.01033367869 7.321714411e-40
0.1825938076 -0.2124401033 -0.1147291064 7.135544904e-39
0.1072661877 -0.4864307642 0.2975564301 7.321714411e-40
-0.06718751788 -0.2486835271 -0.3400655985 6.31225403e-39
-0.1835456342 -0.3436487019 0.1968649477 4.025334936e-39
0.09941246361 -0.3291192651 -0.1250563711 4.391241991e-39
-0.3159145117 -0.3235259354 0.009171629325 4.574195519e-39
0.1832695752 -0.448890835 0.08399152011 1.646939079e-39
0.05864649266 -0.3591043651 -0.3057794869 3.750904645e-39
0.1833273321 -0.1857735813 0.09608656168 7.77588225e-39
-0.1597994119 -0.3158929348 -0.2709678411 4.757149046e-39
0.1537125409 -0.1993714273 0.2973037064 7.409975195e-39
0.1279856116 -0.387168318 0.295922935 3.019090535e-39
0.06236679852 -0.4829306901 -0.1761556864 8.236482049e-40
0.1828543991 -0.1996428967 -0.2518795133 7.409975195e-39
0.1831806302 -0.3985933661 -0.05257784203 2.744660244e-39
-0.008959660307 -0.3920735419 0.2881107926 2.927613771e-39
0.02876559272 -0.1439819634 -0.3395795524 8.782126651e-39
0.156169787 -0.3271345496 -0.3027848005 4.482718755e-39
0.04142929614 -0.4596558213 -0.2643254101 1.372508787e-39
-0.4317088723 -0.3504989147 -0.1277193874 3.933858172e-39
0.1826971769 -0.07415257394 0.01031640172 1.033723163e-38
0.07535588741 -0.473547399 0.138905853 1.006601732e-39
-0.2361961603 -0.3196161091 -0.2120195329 4.665672282e-39
0.0001953803003 -0.2200892866 0.2925944924 6.952591376e-39
0.1660653949 -0.282741487 0.003054013243 5.488963156e-39
0.1075723469 -0.4765188694 -0.2648472488 9.151249686e-40
-0.05441513285 -0.4861623049 0.2975156307 7.321714411e-40
0.1330427229 -0.1564908624 0.2064139396 8.416219596e-39
0.1820267141 -0.1445403546 -0.1483702809 8.690649887e-39
-0.2666809857 -0.3765797317 0.0786178112 3.293520826e-39
-0.1294358671 -0.3618188202 0.3099855781 3.659427881e-39
0.02298094518 -0.4659348726 -0.07764675468 1.18955526e-39
-0.005253599957 -0.08732925355 0.2977977693 1.006280134e-38
0.1026780158 -0.4527648091 -0.2529838085 1.555462315e-39
0.09630055726 -0.3346461654 -0.1955188513 4.299765227e-39
-0.1542445719 -0.2375333905 0.3005544841 6.586684321e-39
0.04546195269 -0.2745554447 0.3089117706 5.671916684e-39
-0.1892243773 -0.471088469 0.2567407489 1.098078496e-39
-0.3206733167 -0.3285166323 0.1883478165 4.391241991e-39
0.1107565984 -0.4678496718 -0.05026077852 1.18955526e-39
0.1822729409 -0.2731242478 0.1861948371 5.763393447e-39
0.1698831767 -0.1366249919 -0.319146961 8.873603415e-39
-0.192201525 -0.3232755959 0.13437365 4.574195519e-39
0.01246483251 -0.220251143 -0.3299583197 6.952591376e-39
-0.4011065364 -0.3628189564 0.09194087982 3.659427881e-39
0.1118911281 -0.4681023657 0.1163272262 1.18955526e-39
-0.2882814109 -0.3778414726 -0.1478152275 3.293520826e-39
0.12445122 -0.4653863609 -0.10090065 1.18955526e-39
0.03302147239 -0.4639545977 0.07172596455 1.281032024e-39
0.1710795164 -0.0739813894 0.0845618844 1.04287084e-38
-0.1162431389 -0.1486564875 -0.3402522206 8.599173124e-39
0.1127723306 -0.1996193379 -0.1721168756 7.409975195e-39
0.1046658531 -0.2018322349 -0.3176180422 7.409975195e-39
0.1689745337 -0.4774590731 0.02312362753 9.151249686e-40
-0.08850212395 -0.1699299812 0.3001950681 8.141789305e-39
-0.0402585566 -0.4768474698 0.1679103076 9.151249686e-40
0.1458730698 -0.3370961547 0.2976602018 4.208288464e-39
0.05719618499 -0.3667862713 -0.1899033338 3.567951117e-39
0.1076583266 -0.4122105241 -0.3302066624 2.470229952e-39
0.1402231157 -0.4655213654 0.07551053166 1.18955526e-39
-0.4306102693 -0.385895133 -0.04006805643 3.110567299e-39
0.01443663239 -0.4485500157 0.2568989992 1.646939079e-39
0.1713132262 -0.2188640386 -0.008971551433 6.952591376e-39
0.1643819213 -0.1417308301 0.2161322087 8.782126651e-39
0.01804140955 -0.4828763604 0.2818394303 8.236482049e-40
-0.190398246 -0.3377997279 -0.2161504477 4.208288464e-39
-0.0246559456 -0.3544057906 -0.3061012328 3.842381409e-39
0.08248259872 -0.4874924123 -0.06451885402 7.321714411e-40
0.06454636902 -0.4745844603 -0.2265667766 1.006601732e-39
0.1463638991 -0.1624909192 0.3095692694 8.324742832e-39
0.1018476561 -0.1585052907 -0.3222503662 8.416219596e-39
0.182740882 -0.2614191771 -0.1281190515 6.037823739e-39
-0.1261236221 -0.4827968776 0.283882916 8.236482049e-40
0.1475933343 -0.1423261613 -0.1882976741 8.782126651e-39
-0.3038474619 -0.3352927864 -0.02814329043 4.299765227e-39
-0.06254393607 -0.2772772312 0.2907804847 5.58043992e-39
0.06048687175 -0.3015539944 -0.3126060963 5.031579337e-39
0.182651788 -0.361290127 0.08485517651 3.659427881e-39
0.1824767739 -0.1733202934 -0.2901848853 8.050312541e-39
0.0794974789 -0.4643731713 0.2355352789 1.281032024e-39
-0.2359254062 -0.3799395859 0.181951493 3.202044062e-39
0.1190160811 -0.2041102201 0.2091706097 7.318498431e-39
0.02576570958 -0.4336489141 -0.2768311799 1.92136937e-39
-0.1418145001 -0.2113860101 -0.3272156715 7.135544904e-39
0.0205918327 -0.1018152982 0.2970767319 9.696894289e-39
-0.3632709384 -0.3407141268 0.2070434242 4.1168117e-39
0.06493249536 -0.4591497481 -0.1771076918 1.372508787e-39
-0.05545966327 -0.1464020759 -0.3083314598 8.690649887e-39
0.1601489782 -0.4506140351 -0.09681814909 1.555462315e-39
0.1427602172 -0.4023298919 0.2671015859 2.65318348e-39
-0.176342994 -0.3467116654 0.1003047079 4.025334936e-39
0.123008661 -0.4663428068 0.02571178973 1.18955526e-39
0.06995749474 -0.4583913684 0.1618008912 1.372508787e-39
0.1600113809 -0.290002197 -0.2381431162 5.306009629e-39
0.1276505142 -0.3108254373 -0.0611605756 4.84862581e-39
-0.3546464741 -0.3241670132 -0.1900955737 4.482718755e-39
0.18188335 -0.1618249267 0.09631243348 8.324742832e-39
0.02986860275 -0.4443640709 0.2481381446 1.738415842e-39
0.1077077985 -0.3372761011 -0.07804390788 4.208288464e-39
0.08725376427 -0.478018254 0.0772036463 9.151249686e-40
0.05782178789 -0.3000576198 0.2608179748 5.123056101e-39
-0.3935316503 -0.3285014927 0.1034350321 4.391241991e-39
0.1175363138 -0.4719594121 -0.2241398543 1.098078496e-39
-0.3968316019 -0.3271955848 -0.09734276682 4.482718755e-39
0.18340002 -0.3234485388 0.1847334802 4.574195519e-39
-0.09713871777 -0.3914509714 0.3071232736 2.927613771e-39
0.1807706952 -0.1551972032 0.009367719293 8.50769636e-39
0.04470168054 -0.3348045349 -0.2399584055 4.299765227e-39
0.162913084 -0.1664742529 -0.2502342463 8.233266069e-39
0.1079131365 -0.4734257758 0.3089325428 1.006601732e-39
0.1821033359 -0.3239896595 -0.1274395287 4.574195519e-39
-0.1419018805 -0.2867788672 -0.3404608071 5.397486392e-39
0.1572824121 -0.2988868952 -0.3393112719 5.123056101e-39
0.06532027572 -0.2137800455 -0.2935998142 7.135544904e-39
0.08231090009 -0.4725886881 0.1329369545 1.006601732e-39
0.05590869859 -0.2160100341 0.3009772301 7.04406814e-39
0.1842761785 -0.1384885609 -0.1070700586 8.873603415e-39
0.1714358479 -0.4867640436 0.02268297598 7.321714411e-40
-0.2551317513 -0.3772965968 0.07242973149 3.293520826e-39
-0.09468244016 -0.4647652805 0.2576610148 1.18955526e-39
0.07569200546 -0.4805780053 -0.3074342906 8.236482049e-40
-0.1149561927 -0.1451838315 0.2961813509 8.690649887e-39
0.1705714464 -0.4132210016 0.1654798239 2.470229952e-39
-0.1534771025 -0.3774562776 -0.2891405225 3.293520826e-39
-0.2300596237 -0.4733429849 0.3100105524 1.006601732e-39
0.1829347163 -0.3359839618 -0.00385280326 4.208288464e-39
0.1712745875 -0.2722688615 0.2172370255 5.763393447e-39
0.1044038609 -0.1886650324 0.3103484511 7.684405486e-39
-0.3171856105 -0.3236096203 -0.09068167955 4.574195519e-39
0.1837043166 -0.2119948119 -0.1778519899 7.135544904e-39
-0.3919732571 -0.3992291987 0.1725960672 2.744660244e-39
0.03120410629 -0.3626784682 0.300730139 3.659427881e-39
-0.2048801035 -0.323319912 0.3097138107 4.574195519e-39
0.05536814779 -0.3709352612 -0.09724224359 3.476474354e-39
0.0527446717 -0.2321225852 -0.2831901014 6.678161085e-39
0.1688438803 -0.1226644218 0.1736294031 9.23951047e-39
0.08629922569 -0.4694411159 0.05295220017 1.098078496e-39
0.1251386851 -0.4452773631 -0.2134913504 1.646939079e-39
0.08122745156 -0.4671397805 -0.1082167774 1.18955526e-39
-0.3802209496 -0.3648399413 -0.1063048616 3.567951117e-39
0.1338124722 -0.2348045856 -0.05649996176 6.586684321e-39
0.09894222766 -0.4756082296 -0.008364707232 1.006601732e-39
-0.1689839661 -0.3185912967 -0.2196839452 4.665672282e-39
0.1103798375 -0.407310009 -0.3093571663 2.561706716e-39
-0.4299122691 -0.3736054599 0.04710369557 3.38499759e-39
0.144324407 -0.3627746701 0.06068841368 3.659427881e-39
-0.1666847318 -0.2110963315 0.296651423 7.135544904e-39
-0.1717790216 -0.3492074311 0.1719696224 3.933858172e-39
0.08460855484 -0.4742943048 0.007623806596 1.006601732e-39
0.03944436461 -0.4083939791 -0.2711848319 2.561706716e-39
0.1206227392 -0.4694831967 -0.1224855259 1.098078496e-39
0.06341014802 -0.4591122866 -0.07913318276 1.372508787e-39
-0.04610234499 -0.4687008858 0.2965288162 1.098078496e-39
0.009389027022 -0.1374856532 0.301297605 8.873603415e-39
-0.05466087535 -0.2493741512 0.309337914 6.31225403e-39
0.02357641608 -0.4628010392 -0.03896756843 1.281032024e-39
0.162311241 -0.459921658 -0.07965061814 1.372508787e-39
-0.4060132504 -0.3124530017 -0.02784820646 4.757149046e-39
0.1568084806 -0.3439920247 -0.1310799569 4.025334936e-39
0.1221954152 -0.4774277806 0.1141344383 9.151249686e-40
0.06701287627 -0.4796568155 0.1352741718 9.151249686e-40
0.1003836319 -0.4568635225 -0.1312344968 1.463985551e-39
0.0899450779 -0.4742877781 -0.02483782172 1.006601732e-39
-0.2344810069 -0.3615081906 0.04741509259 3.659427881e-39
0.06463450193 -0.477555126 0.195908159 9.151249686e-40
-0.1161241382 -0.1739679724 -0.341322124 8.050312541e-39
0.1658519506 -0.1229587942 -0.3235756755 9.23951047e-39
0.1551749557 -0.1282625347 0.278652221 9.148033706e-39
0.1057808697 -0.4721444547 -0.1311291158 1.098078496e-39
0.06776663661 -0.452873975 0.1142114848 1.555462315e-39
0.1498918831 -0.3023335338 -0.309799403 5.031579337e-39
-0.03755139187 -0.3732542694 0.2782636285 3.38499759e-39
0.1817652136 -0.2357591391 0.01056374144 6.586684321e-39
0.1719430387 -0.1516724527 0.07466169447 8.599173124e-39
0.1820175499 -0.4478358328 0.07098598033 1.646939079e-39
0.07778912038 -0.4597274661 -0.2551569939 1.372508787e-39
0.1530325264 -0.142829895 -0.219831869 8.782126651e-39
-0.2175744921 -0.3855920434 0.3089730442 3.110567299e-39
0.09239389002 -0.3250300586 -0.1298674345 4.482718755e-39
0.01178238913 -0.4615777433 0.01824857481 1.281032024e-39
-0.06862579286 -0.1587348282 0.3175419867 8.416219596e-39
0.1346436739 -0.3380657434 0.2858031094 4.208288464e-39
0.1000944674 -0.4689075351 -0.07774090767 1.098078496e-39
0.1279011965 -0.4657427669 -0.2863458693 1.18955526e-39
-0.3289557695 -0.4095317423 0.166573137 2.561706716e-39
0.1575904489 -0.3726539612 -0.0371042341 3.38499759e-39
0.08902713656 -0.4614272714 -0.2124876827 1.281032024e-39
0.1146882921 -0.4581668377 -0.2240750939 1.372508787e-39
0.1101736575 -0.4682703614 0.1026341468 1.18955526e-39
-0.1426488906 -0.2590774894 -0.3065706789 6.037823739e-39
0.1071440801 -0.4786404371 0.1178911626 9.151249686e-40
0.1220094562 -0.4654568434 0.1918684989 1.18955526e-39
0.1698039174 -0.1965992749 -0.07267608494 7.501451959e-39
-0.4094395339 -0.3245429099 -0.0984416157 4.482718755e-39
0.177216962 -0.2714747488 -0.2275689095 5.763393447e-39
0.1286125928 -0.4608153105 0.01583841071 1.281032024e-39
-0.3165329993 -0.313922435 0.09701809287 4.757149046e-39
0.1012039408 -0.4717212915 -0.1149310768 1.098078496e-39
0.1178294867 -0.4549272358 0.1462122053 1.463985551e-39
0.1425011009 -0.1580372751 0.2013121992 8.416219596e-39
-0.1676497757 -0.2491728812 0.3105387986 6.31225403e-39
0.0442584455 -0.3252036572 -0.2231783122 4.482718755e-39
-0.2143571526 -0.480992347 0.2603584528 8.236482049e-40
-0.0314335227 -0.4673779011 -0.02870813757 1.18955526e-39
-0.1066170186 -0.4151129425 -0.2677710652 2.378753189e-39
0.09438991547 -0.1983933896 -0.3388394415 7.501451959e-39
0.1833604425 -0.2291559726 0.1104535535 6.769637849e-39
-0.3905462027 -0.376588434 0.0464464277 3.293520826e-39
-0.1036539599 -0.1317288876 -0.3268241286 9.056556942e-39
-0.3042815626 -0.3371675313 -0.07734242827 4.208288464e-39
0.03889950365 -0.4601663649 -0.187221989 1.372508787e-39
0.1531467289 -0.3280239999 -0.1445290148 4.391241991e-39
0.04606164992 -0.1864375174 0.3100450933 7.77588225e-39
0.1722810417 -0.09943220764 -0.04090924934 9.788371052e-39
-0.02137560584 -0.4659385681 0.2578570545 1.18955526e-39
0.02334779501 -0.2630804479 -0.3164387047 5.946346975e-39
0.1174270064 -0.331417352 0.1808460802 4.391241991e-39
0.1831235737 -0.161181733 -0.2023681104 8.324742832e-39
0.1010866016 -0.4651006162 0.1480043828 1.18955526e-39
-0.3667901456 -0.3234908283 0.1738282591 4.574195519e-39
-0.08837206662 -0.365087688 0.2858034372 3.567951117e-39
-0.3167618811 -0.3245878816 -0.2143557966 4.482718755e-39
0.08252575248 -0.4877086878 -0.3373387754 7.321714411e-40
0.1347204447 -0.4833628833 -0.01724108681 8.236482049e-40
0.09258090705 -0.4670139551 0.2548818886 1.18955526e-39
0.1332591623 -0.3866807222 -0.09154948592 3.019090535e-39
0.007330495398 -0.09959545732 0.3002810478 9.788371052e-39
-0.04206347466 -0.446606338 0.2274192125 1.646939079e-39
0.1445695758 -0.1353060305 0.3120444417 8.965080179e-39
0.1693655103 -0.08105840534 0.07471841574 1.024575487e-38
0.04258523881 -0.4432756603 -0.1035620123 1.738415842e-39
0.008706144989 -0.1103190035 -0.3259137273 9.513940761e-39
-0.2171991169 -0.3610962331 -0.202356413 3.659427881e-39
-0.3814668357 -0.3824261129 -0.03310710192 3.202044062e-39
0.1824412644 -0.1492009759 -0.302092731 8.599173124e-39
0.1379064023 -0.4648317695 0.01949363202 1.18955526e-39
0.1425570548 -0.4716976881 0.03108109534 1.098078496e-39
0.1557475775 -0.3137910366 -0.31311059 4.757149046e-39
-0.01443256438 -0.3671893477 -0.3040217161 3.476474354e-39
0.1031574234 -0.4745881557 0.2907930017 1.006601732e-39
-0.1906118542 -0.3363117576 0.1461854279 4.208288464e-39
0.1247971281 -0.3971447349 -0.2230110317 2.836137007e-39
0.1051910222 -0.4693625271 -0.00153904222 1.098078496e-39
-0.1420484781 -0.1860831976 0.3111585081 7.77588225e-39
-0.0921625793 -0.4853466451 0.2978806496 7.321714411e-40
0.1619147956 -0.2477971911 0.1919682026 6.31225403e-39
0.05518807843 -0.4690470695 -0.2181546092 1.098078496e-39
0.1508574486 -0.2574799061 0.00435606204 6.129300502e-39
0.1228506938 -0.2051155567 -0.1864490956 7.318498431e-39
-0.3300323486 -0.3234376311 -0.02795657143 4.574195519e-39
-0.281122148 -0.4742227495 0.2972981334 1.006601732e-39
0.0653039515 -0.4628393948 -0.2456022203 1.281032024e-39
0.05330950022 -0.463467598 0.2300880998 1.281032024e-39
-0.3368743062 -0.4043942392 0.1947377175 2.65318348e-39
0.1591136158 -0.3810630739 -0.04525031894 3.202044062e-39
0.09583245218 -0.4650112689 0.2342782617 1.18955526e-39
0.171092391 -0.07504417002 -0.2267168909 1.033723163e-38
0.1776730716 -0.1404238343 0.1954237521 8.873603415e-39
0.1052413881 -0.4731660783 0.1087544188 1.006601732e-39
0.03859969974 -0.4575316012 0.08652000129 1.372508787e-39
-0.08542983979 -0.2038654089 -0.3192150891 7.318498431e-39
0.05413673073 -0.3659742475 -0.1453529 3.567951117e-39
0.02818734571 -0.3840820789 0.2919403613 3.110567299e-39
0.100782752 -0.2785415649 -0.3125239015 5.58043992e-39
-0.2089814395 -0.3901282549 0.08196758479 3.019090535e-39
0.122456193 -0.4751200378 -0.009463790804 1.006601732e-39
0.05832560733 -0.4784078002 -0.2038849145 9.151249686e-40
0.09711109847 -0.4521439373 0.2582221925 1.555462315e-39
0.1718363762 -0.08667095751 -0.3402681351 1.006280134e-38
0.1654954255 -0.2656825483 -0.08429714292 5.854870211e-39
0.03493816778 -0.4727553129 -0.01329794899 1.006601732e-39
-0.4370369315 -0.3616937995 -0.1152668297 3.659427881e-39
0.1725263298 -0.1347612739 -0.04186289757 8.965080179e-39
0.07443474233 -0.4037871957 -0.3207671046 2.65318348e-39
0.03931637853 -0.1858994663 -0.2875623107 7.77588225e-39
-0.1541528255 -0.2985271811 -0.3403448164 5.123056101e-39
-0.2826092243 -0.376118511 -0.15070346 3.293520826e-39
0.1832334995 -0.3487392664 0.08478029072 3.933858172e-39
0.1020663902 -0.3448817134 -0.1995134652 4.025334936e-39
-0.1366304606 -0.4608185887 0.2980442047 1.281032024e-39
0.1331458986 -0.1079423726 0.3098839223 9.605417525e-39
-0.0330247283 -0.1991663873 0.2877405882 7.409975195e-39
-0.05406587571 -0.3347706497 0.2779503465 4.299765227e-39
0.1584023982 -0.4861349463 -0.06568223983 7.321714411e-40
0.1333414465 -0.3988269567 0.3101841509 2.744660244e-39
0.1399490833 -0.3112341762 0.1673786789 4.84862581e-39
-0.3556873202 -0.3236967027 0.1733674258 4.574195519e-39
0.05215844139 -0.4842570424 0.2602412999 7.321714411e-40
0.1827181727 -0.2235141695 -0.301641643 6.861114612e-39
0.1388019919 -0.2094006836 -0.07945290953 7.227021667e-39
-0.2453978509 -0.3583294451 -0.2438783795 3.750904645e-39
0.1204674393 -0.4849810004 -0.2268330306 7.321714411e-40
0.1776646525 -0.2552317977 0.08522066474 6.129300502e-39
-0.1922612935 -0.2989978492 0.3097740114 5.123056101e-39
0.1831888109 -0.324542135 -0.1528241634 4.482718755e-39
0.06723672897 -0.4784773588 0.06764604151 9.151249686e-40
-0.2202556729 -0.3307287395 0.06513696164 4.391241991e-39
0.04755368829 -0.3971042633 -0.2400819808 2.836137007e-39
-0.07441660762 -0.1823010445 -0.3099195361 7.867359014e-39
0.131198898 -0.09492690116 0.1976573765 9.879847816e-39
0.004743695259 -0.4776242375 0.2257273644 9.151249686e-40
0.08447544277 -0.07476054132 -0.3277032673 1.033723163e-38
-0.160237968 -0.3471698761 -0.2260598987 4.025334936e-39
0.07066167891 -0.3050873578 0.2518236637 4.940102574e-39
0.07098477334 -0.3241167665 -0.07845516503 4.482718755e-39
0.08635493368 -0.473756671 -0.3101370931 1.006601732e-39
0.1810716093 -0.2179129273 -0.152596727 7.04406814e-39
-0.4361212254 -0.3241543174 -0.1032997072 4.482718755e-39
-0.1901380569 -0.3836116791 0.1633786559 3.110567299e-39
-0.3790337145 -0.3700458705 0.1154824346 3.476474354e-39
-0.181477949 -0.4821380973 0.2738754451 8.236482049e-40
0.1841385812 -0.3875260055 0.1723641157 3.019090535e-39
0.1837826222 -0.274330169 -0.002684984356 5.671916684e-39
-0.1035273895 -0.1465428472 0.3097296953 8.690649887e-39
-0.01699940115 -0.4737412632 0.3098248541 1.006601732e-39
0.1532710642 -0.3377451301 -0.2660466135 4.208288464e-39
-0.06715690345 -0.236481443 -0.3279176652 6.586684321e-39
0.1520730108 -0.1587870717 0.04716174677 8.416219596e-39
-0.07739874721 -0.424343735 -0.1945469081 2.195799661e-39
0.04824461415 -0.1677376628 0.299901396 8.233266069e-39
0.05699631199 -0.4858953357 -0.06489922851 7.321714411e-40
0.1450647116 -0.2990708649 0.298720479 5.123056101e-39
-0.2213948965 -0.4006453753 0.2806532085 2.744660244e-39
0.1100574061 -0.4652391672 0.2249146998 1.18955526e-39
-0.2810094357 -0.3401771188 0.03742679581 4.1168117e-39
0.08262096345 -0.1861246824 -0.3392646611 7.77588225e-39
0.02382522821 -0.4406616092 -0.2688974142 1.829892606e-39
0.1210267544 -0.1943594962 0.2101838738 7.592928722e-39
-0.3082022369 -0.3355080187 -0.1930963993 4.299765227e-39
0.1837515682 -0.1049419492 -0.1402718276 9.696894289e-39
0.1218107417 -0.4632453322 -0.1399522275 1.281032024e-39
0.1604837179 -0.09800572693 -0.3279269934 9.788371052e-39
-0.09136993438 -0.3740160465 0.3091101348 3.38499759e-39
0.182875976 -0.388156116 0.04341768473 3.019090535e-39
-0.01675149053 -0.2116901875 0.3094943464 7.135544904e-39
-0.3673016727 -0.4112889469 0.1728991121 2.470229952e-39
0.1110379547 -0.3022027314 -0.1572403014 5.031579337e-39
-0.01736952923 -0.3734862208 -0.3373672664 3.38499759e-39
-0.2204818726 -0.3276741803 0.2153885067 4.482718755e-39
-0.002775300294 -0.1609285176 -0.3346795738 8.324742832e-39
0.0653609857 -0.4583125114 -0.175809145 1.372508787e-39
0.156614989 -0.2492231131 -0.3374646306 6.31225403e-39
-0.2874132097 -0.3433313072 0.02356734499 4.1168117e-39
0.07297816873 -0.4765457809 0.03186582774 9.151249686e-40
-0.1737041026 -0.327196151 -0.2685584724 4.482718755e-39
0.1711652577 -0.4613636732 -0.07660699636 1.281032024e-39
0.1082266346 -0.4244187176 -0.3329531848 2.195799661e-39
-0.154137522 -0.2361210734 0.3092040718 6.586684321e-39
0.1649662554 -0.2845026851 0.1734948158 5.488963156e-39
0.1361920983 -0.1732611656 0.2932533026 8.050312541e-39
0.1827471852 -0.1974991411 -0.0154951904 7.501451959e-39
0.1320349425 -0.1979772002 -0.2166708559 7.501451959e-39
0.1824883223 -0.1157189608 0.1852770299 9.422463997e-39
0.02059386298 -0.3109100759 0.3090954721 4.84862581e-39
0.06694927067 -0.3941014409 -0.09807486087 2.927613771e-39
-0.002945485525 -0.1489829421 0.2961277664 8.599173124e-39
0.1079041213 -0.4859131873 -0.1777490526 7.321714411e-40
-0.09934975952 -0.2423783094 -0.313819021 6.403730794e-39
0.1332889348 -0.2239111066 0.3096440732 6.861114612e-39
-0.00427597668 -0.4650851488 0.3046968579 1.18955526e-39
-0.1609990597 -0.3577074111 0.08386983722 3.750904645e-39
0.1704501659 -0.07383071631 0.04663101211 1.04287084e-38
0.0946758315 -0.4532956481 -0.2976335883 1.463985551e-39
0.1232448667 -0.4675301015 0.1579408348 1.18955526e-39
0.1227136776 -0.412561357 0.06435118616 2.470229952e-39
-0.3881562352 -0.3779764175 -0.07741229236 3.293520826e-39
0.1597802937 -0.3025917709 -0.199137494 5.031579337e-39
-0.1531559974 -0.4618530869 0.3090249598 1.281032024e-39
0.1717862785 -0.4867904186 0.009148996323 7.321714411e-40
0.03317160904 -0.4866529703 -0.313932687 7.321714411e-40
-0.3296162784 -0.3426471651 0.1980059445 4.1168117e-39
0.1332011074 -0.4231877923 0.3089311421 2.195799661e-39
0.0361707136 -0.2357584536 -0.3193250895 6.586684321e-39
0.1611834019 -0.1528296918 -0.2055067718 8.50769636e-39
-0.1672182679 -0.3481999934 -0.340834707 3.933858172e-39
-0.1645896286 -0.3072961867 0.2972986102 4.940102574e-39
-0.4187656641 -0.374640584 0.03517535329 3.38499759e-39
0.1209234744 -0.1504609585 -0.07689308375 8.599173124e-39
-0.2583753169 -0.4595029056 0.2735000551 1.372508787e-39
0.08691398054 -0.3159819543 -0.2227260172 4.757149046e-39
-0.3840274513 -0.3365623355 -0.1655385792 4.208288464e-39
0.182421878 -0.3109658659 -0.03928284347 4.84862581e-39
0.1330293119 -0.2455951422 0.1164990216 6.403730794e-39
-0.1421460062 -0.1867722869 0.2980005741 7.77588225e-39
0.08425918221 -0.4467605054 0.1178335026 1.646939079e-39
-0.3173873723 -0.3238394856 0.02381885238 4.574195519e-39
-0.09150162339 -0.1382702738 -0.3394526839 8.873603415e-39
0.03370693699 -0.4861537218 -0.1031394005 7.321714411e-40
-0.1625841707 -0.3629286587 -0.2209656537 3.659427881e-39
-0.02476036921 -0.3036534786 -0.308808893 5.031579337e-39
0.1826256216 -0.3610246778 0.1722167134 3.659427881e-39
0.1705239713 -0.311160177 -0.3262432218 4.84862581e-39
-0.004472674802 -0.3699263632 0.2715568542 3.476474354e-39
0.08908700198 -0.1427351534 -0.3222749233 8.782126651e-39
0.1769704223 -0.2202234566 -0.1377722025 6.952591376e-39
0.02181002498 -0.2262699604 0.2939230502 6.861114612e-39
0.1829603463 -0.1609577835 -0.2908501029 8.324742832e-39
0.1316831559 -0.4104629755 -0.2387637794 2.470229952e-39
0.1313298196 -0.164031148 0.2163073272 8.233266069e-39
0.05739889294 -0.3229295909 -0.0900721997 4.574195519e-39
0.1875189096 -0.1451834142 -0.01729623042 8.690649887e-39
-0.2222330272 -0.3843403161 0.1904448569 3.110567299e-39
0.1076007336 -0.4779695868 0.2341481447 9.151249686e-40
-0.2605561912 -0.3739497364 -0.217847392 3.38499759e-39
0.1393042207 -0.3008917868 0.2781103551 5.031579337e-39
0.1825779229 -0.4485494792 0.04793544114 1.646939079e-39
0.09076844156 -0.4673704207 0.2982805967 1.18955526e-39
0.02139223367 -0.4870423079 -0.01474808715 7.321714411e-40
0.1765477359 -0.2743975222 0.1183973625 5.671916684e-39
-0.3751027584 -0.359798789 0.1832723618 3.659427881e-39
0.07857762277 -0.4792047143 0.2036575824 9.151249686e-40
-0.3174087405 -0.376870811 -0.09367629141 3.293520826e-39
0.01495030522 -0.4739831388 0.1242653802 1.006601732e-39
0.02037109062 -0.4831321239 -0.2521979213 8.236482049e-40
-0.06975327432 -0.2788093686 -0.2456002235 5.58043992e-39
0.01948346943 -0.08576037735 -0.3392090797 1.015427811e-38
-0.09534365684 -0.1791902632 0.3137568235 7.958835777e-39
0.09293827415 -0.2068968266 0.2805097401 7.318498431e-39
0.1114712656 -0.4706439376 -0.005961800925 1.098078496e-39
-0.06592768431 -0.285887748 0.3104152679 5.397486392e-39
0.07534236461 -0.2781735063 -0.2671399713 5.58043992e-39
0.07023220509 -0.4862754941 -0.340572834 7.321714411e-40
0.1835368574 -0.09212356061 0.08362223208 9.97132458e-39
-0.1785581857 -0.348627001 0.1312691718 3.933858172e-39
0.03164063022 -0.4609107077 -0.2809046805 1.281032024e-39
0.1160724536 -0.4720628262 0.1984969974 1.098078496e-39
0.153231889 -0.4707407057 -0.06907682121 1.098078496e-39
0.170956105 -0.2410169989 -0.2000220418 6.495207557e-39
-0.2545411289 -0.398187995 0.2975681424 2.836137007e-39
0.1632441431 -0.1656033695 -0.3279431164 8.233266069e-39
-0.1750776917 -0.3533292711 -0.2732795477 3.842381409e-39
-0.2622528076 -0.3918868303 -0.01897743717 2.927613771e-39
-0.1413470507 -0.486745894 0.2973501682 7.321714411e-40
0.0461387299 -0.3244051039 -0.1781162322 4.482718755e-39
-0.4287578762 -0.374506712 0.08474435657 3.38499759e-39
0.1828306019 -0.0991807431 -0.1774376631 9.788371052e-39
0.1828499138 -0.2361143231 0.1844993085 6.586684321e-39
0.1831433773 -0.211184442 -0.003150962526 7.135544904e-39
-0.07454370707 -0.1596682072 -0.3175816536 8.416219596e-39
0.01275656372 -0.1495766938 0.2974580824 8.599173124e-39
0.125189051 -0.4587031603 -0.1986040026 1.372508787e-39
0.1835524887 -0.4122014642 0.1470536739 2.470229952e-39
0.1215301007 -0.3496352434 -0.3346214294 3.933858172e-39
-0.3925184011 -0.3662858307 -0.1041068211 3.567951117e-39
0.06587637961 -0.465931356 -0.04764473066 1.18955526e-39
0.1623421609 -0.3178289235 -0.1201354191 4.665672282e-39
0.0329237096 -0.385925442 0.3099963069 3.110567299e-39
-0.1769075245 -0.2903978825 0.3056082428 5.306009629e-39
-0.2783017457 -0.3283275962 0.08774321526 4.391241991e-39
0.1076728106 -0.4560917616 -0.1549596786 1.463985551e-39
0.1337509453 -0.08741595596 0.2979003191 1.006280134e-38
-0.3185736537 -0.4004299641 0.1986501515 2.744660244e-39
0.05833670497 -0.2762653828 0.2918199301 5.671916684e-39
0.04992779717 -0.4671687782 -0.1514990479 1.18955526e-39
-0.1213908494 -0.3061124086 -0.3146873116 4.940102574e-39
0.1452189386 -0.1991141587 -0.3395852447 7.409975195e-39
0.1815265715 -0.1615594178 0.1728219837 8.324742832e-39
0.1331298351 -0.4341284037 -0.103403911 1.92136937e-39
0.1170210764 -0.461756587 0.002924077213 1.281032024e-39
0.1217114329 -0.4007610083 0.2883859277 2.744660244e-39
0.1159774289 -0.4597013295 0.06795360893 1.372508787e-39
0.1400410086 -0.4522795677 -0.1517038196 1.555462315e-39
0.1273411512 -0.2920740247 0.1937987208 5.306009629e-39
0.03187644482 -0.4429767132 -0.2396263182 1.738415842e-39
-0.362138778 -0.3253469765 -0.1568655968 4.482718755e-39
0.1482555419 -0.4636433721 0.09546834975 1.281032024e-39
-0.06611738354 -0.3580388725 0.2856983244 3.750904645e-39
-0.2665603459 -0.4638506174 0.2941180766 1.281032024e-39
0.07029086351 -0.4563520551 -0.2108505815 1.463985551e-39
-0.1315118372 -0.22148633 0.2982162237 6.952591376e-39
-0.2048729956 -0.3353562057 0.1716023386 4.299765227e-39
0.1233059913 -0.4637526274 -0.1107642502 1.281032024e-39
0.1741745919 -0.2523310781 -0.08572656661 6.220777266e-39
-0.09124056995 -0.486004591 0.2715945244 7.321714411e-40
-0.3420404792 -0.3321786821 0.1739698648 4.299765227e-39
0.1711636186 -0.3378171027 -0.3001970053 4.208288464e-39
-0.4145258069 -0.3763828874 0.009056750685 3.293520826e-39
0.1048439741 -0.4712627232 -0.2793630362 1.098078496e-39
0.1718793809 -0.1143648624 -0.1028180495 9.422463997e-39
-0.1143398285 -0.378663063 -0.2811954618 3.293520826e-39
-0.01673015393 -0.2243230492 -0.3394033909 6.861114612e-39
-0.3289399147 -0.324362725 -0.06550765038 4.482718755e-39
0.0211365521 -0.4859288931 -0.002296884311 7.321714411e-40
0.1163357273 -0.2685477436 0.2748408616 5.854870211e-39
0.1553621888 -0.3393577039 -0.01119823474 4.208288464e-39
0.1102610826 -0.4743382335 0.1677709669 1.006601732e-39
0.02220864967 -0.1903422028 0.2989405394 7.684405486e-39
0.04827494174 -0.1599482894 -0.3338038623 8.416219596e-39
-0.2050555497 -0.3231903017 0.07234274596 4.574195519e-39
0.09555049241 -0.4859885573 -0.1401058137 7.321714411e-40
0.09901475906 -0.3359969854 -0.09037719667 4.208288464e-39
-0.1954581439 -0.3258154988 0.2672441006 4.482718755e-39
0.1828254461 -0.2214836627 0.07299005985 6.952591376e-39
-0.2459050417 -0.3419115543 -0.1975825578 4.1168117e-39
0.02073534578 -0.4736830294 0.3106874526 1.006601732e-39
-0.02964230068 -0.3671377003 -0.34070158 3.476474354e-39
0.1711361408 -0.0869108215 0.1976545751 1.006280134e-38
0.183259517 -0.08699119836 -0.3151527345 1.006280134e-38
0.1828675121 -0.2367651314 -0.2401156574 6.586684321e-39
0.1822753698 -0.4610690475 -0.04001927003 1.281032024e-39
-0.02292528935 -0.2715089321 0.288032949 5.763393447e-39
0.06275230646 -0.4635869265 0.1151973903 1.281032024e-39
0.1215487272 -0.198466152 -0.1832413524 7.501451959e-39
0.1711837351 -0.1531508565 -0.001681543421 8.50769636e-39
0.1818635762 -0.3482249975 0.1226217821 3.933858172e-39
-0.03366558999 -0.1577688456 -0.2955068648 8.416219596e-39
-0.12152455 -0.4588671327 0.2472366542 1.372508787e-39
0.08327004313 -0.2244450748 -0.3393525779 6.861114612e-39
-0.204109475 -0.324252516 -0.2147848606 4.482718755e-39
0.05934101716 -0.3910200596 -0.1754543781 2.927613771e-39
-0.4325827658 -0.3749555647 -0.08987893909 3.293520826e-39
0.1197247505 -0.4110580087 -0.3270469308 2.470229952e-39
0.1252637506 -0.4752714932 0.2412815243 1.006601732e-39
0.06505705416 -0.2904367447 0.2539846003 5.306009629e-39
-0.2921858728 -0.3637078106 0.05140186846 3.567951117e-39
0.1411425471 -0.4631695747 -0.01127472427 1.281032024e-39
0.06626053154 -0.4759607613 0.09184625 1.006601732e-39
0.1583645344 -0.1481490433 0.1063708067 8.690649887e-39
-0.1030391976 -0.1776488125 0.3116710782 7.958835777e-39
0.08482136577 -0.4780939817 0.2006259561 9.151249686e-40
0.1078674197 -0.2485105544 0.2229126096 6.31225403e-39
-0.2040957659 -0.3855342269 0.3098706007 3.110567299e-39
-0.270075053 -0.3768875599 -0.1942620724 3.293520826e-39
-0.0999032706 -0.2765455842 -0.3109143972 5.671916684e-39
0.1828788519 -0.298325479 -0.2149805278 5.123056101e-39
0.1471096277 -0.1406518817 0.297462225 8.782126651e-39
0.02287583798 -0.4820818603 -0.1130613685 8.236482049e-40
-0.3912470937 -0.3245193064 0.159638539 4.482718755e-39
-0.003926045727 -0.3871689737 0.3098321259 3.019090535e-39
0.1079834178 -0.1380885094 -0.1399087012 8.873603415e-39
0.0201161243 -0.3864419162 -0.3397933245 3.110567299e-39
-0.1226151288 -0.4816619158 0.2874011397 8.236482049e-40
-0.1852820814 -0.3530882001 -0.2885141075 3.842381409e-39
0.08869927377 -0.1673201621 -0.2732360959 8.233266069e-39
-0.018520087 -0.4802688658 0.2059002817 9.151249686e-40
0.1839567721 -0.2750561833 0.08458983153 5.671916684e-39
0.03456678614 -0.4698233306 -0.1870844811 1.098078496e-39
-0.1676081419 -0.3415702581 0.09215908498 4.1168117e-39
-0.103603825 -0.2863877118 0.3093775213 5.397486392e-39
0.1451046765 -0.285917908 0.2971715629 5.397486392e-39
0.1355057359 -0.457413137 -0.159038648 1.372508787e-39
0.1698802561 -0.4852370918 -0.01429127902 7.321714411e-40
0.1805010438 -0.1529563069 -0.3064501882 8.50769636e-39
0.03502961993 -0.4585759044 -0.1173019111 1.372508787e-39
0.179173857 -0.1500138491 -0.06005430967 8.599173124e-39
-0.08100831509 -0.354113251 -0.3181171715 3.842381409e-39
0.1273046285 -0.1759832799 0.2125357389 7.958835777e-39
0.03383568302 -0.47273615 0.0005301343626 1.006601732e-39
0.161302194 -0.3874877095 0.06448566169 3.019090535e-39
0.0942228511 -0.4050887227 -0.2754452229 2.65318348e-39
-0.01627176069 -0.1005962342 0.297891885 9.788371052e-39
0.1830983013 -0.2624170184 -0.09073548019 5.946346975e-39
0.1031059176 -0.4715233445 -0.2627539933 1.098078496e-39
-0.1200634986 -0.2172490656 0.2958604991 7.04406814e-39
-0.3632757068 -0.3768628538 0.1991686523 3.293520826e-39
0.01361184567 -0.3820683062 -0.2499548346 3.202044062e-39
0.03571533412 -0.4402399957 0.257242471 1.829892606e-39
0.1642372608 -0.2072267234 -0.2759068012 7.227021667e-39
0.09960114956 -0.4554311037 0.05996954441 1.463985551e-39
0.08270967007 -0.4062843025 -0.06003180519 2.561706716e-39
0.1825785339 -0.3356324136 0.1726139486 4.299765227e-39
0.1847582608 -0.1617574692 0.08507498354 8.324742832e-39
0.1568716764 -0.3453750014 -0.2975246012 4.025334936e-39
-0.4243617058 -0.3242180943 -0.04061569273 4.482718755e-39
-0.1732789278 -0.3459848166 -0.2165956348 4.025334936e-39
0.03299938887 -0.3242712915 0.3101923764 4.482718755e-39
-0.3164851665 -0.3620654047 0.03484036401 3.659427881e-39
-0.09225057065 -0.3993237019 0.3102758229 2.744660244e-39
0.0757291168 -0.3444264531 -0.2407522351 4.025334936e-39
0.09512382001 -0.4707840383 0.2587048411 1.098078496e-39
0.1354779303 -0.2355523705 0.03370820731 6.586684321e-39
0.1067757607 -0.4748774767 -0.06240936369 1.006601732e-39
-0.02946382016 -0.2482402325 -0.3372831941 6.31225403e-39
0.09519640356 -0.4739565551 0.1278788298 1.006601732e-39
0.1819093972 -0.2353919894 0.1867933124 6.586684321e-39
0.0779799372 -0.1523456573 0.2986274064 8.50769636e-39
0.1603858024 -0.3751322627 -0.007716445252 3.293520826e-39
0.03890845925 -0.1412840188 -0.2989750504 8.782126651e-39
-0.2175916731 -0.397947073 0.3100904822 2.836137007e-39
-0.09737358987 -0.2442584783 -0.3068189025 6.403730794e-39
-0.2922522426 -0.3235064745 -0.2271537781 4.574195519e-39
-0.01308248192 -0.2694569528 0.309936434 5.763393447e-39
-0.404119581 -0.3236334324 0.08414440602 4.574195519e-39
-0.1055785343 -0.485776782 0.273489356 7.321714411e-40
0.1854267269 -0.1928109825 -0.1526845694 7.592928722e-39
0.1819670051 -0.3105097711 -0.1283099651 4.84862581e-39
0.1307800561 -0.1168845743 -0.3017909229 9.422463997e-39
0.1116947234 -0.4596325159 0.1662956476 1.372508787e-39
-0.1893271953 -0.3320002854 0.2055593729 4.299765227e-39
0.07408225536 -0.4771067202 -0.204284668 9.151249686e-40
-0.3867497444 -0.3236768246 -0.1220458746 4.574195519e-39
0.072560817 -0.3546291888 -0.08322476596 3.842381409e-39
0.1308870018 -0.4623970389 0.09052790701 1.281032024e-39
0.06479561329 -0.4625014365 0.2520502806 1.281032024e-39
-0.2309507728 -0.4650443494 0.2465762943 1.18955526e-39
0.104725644 -0.4569461644 -0.3129391372 1.372508787e-39
0.171528995 -0.074798204 -0.003653250402 1.033723163e-38
-0.04019417614 -0.3623523712 -0.3361006975 3.659427881e-39
0.1478564441 -0.2294930518 -0.314907074 6.769637849e-39
-0.2863933444 -0.3466046751 -0.008405887522 4.025334936e-39
0.06061562151 -0.4730610251 0.04180650413 1.006601732e-39
0.1117844135 -0.4433783889 -0.1656178087 1.738415842e-39
0.1704214066 -0.380928874 0.1614097506 3.202044062e-39
0.1455116868 -0.1610196233 0.2972037196 8.324742832e-39
-0.03798855841 -0.1584818512 0.3159785867 8.416219596e-39
0.1314854175 -0.4081644118 0.3055543005 2.561706716e-39
-0.3107139766 -0.3364257514 0.2018885612 4.208288464e-39
0.1825381517 -0.1994135827 -0.1022961736 7.409975195e-39
-0.07771386951 -0.3487405181 -0.2694393396 3.933858172e-39
0.1577198207 -0.4708627462 0.04311544076 1.098078496e-39
0.0545553565 -0.4716585577 0.003823883832 1.098078496e-39
-0.04108126834 -0.4862079918 0.2738168836 7.321714411e-40
-0.3172286153 -0.3234909475 -0.1155036166 4.574195519e-39
0.1583441347 -0.3420814872 -0.2641609311 4.1168117e-39
0.182712242 -0.1103141755 0.1851832122 9.513940761e-39
0.1089135483 -0.3290216625 0.2746917903 4.391241991e-39
0.1833007634 -0.2732508481 0.03501765803 5.763393447e-39
0.1509994268 -0.1459180713 -0.1982574463 8.690649887e-39
0.04852980375 -0.465352416 -0.2579469979 1.18955526e-39
-0.1163633466 -0.3623222411 0.3093980253 3.659427881e-39
-0.3764028847 -0.3668383062 0.1529652327 3.567951117e-39
-0.1170708314 -0.3498651385 -0.3362682164 3.933858172e-39
-0.01263335347 -0.4762123823 0.2011026889 1.006601732e-39
0.1188335717 -0.4619056582 0.1248409301 1.281032024e-39
0.1493502259 -0.3888519406 -0.07135143876 3.019090535e-39
-0.1149866506 -0.1866160333 -0.339664489 7.77588225e-39
0.1718826741 -0.235695228 -0.2313119173 6.586684321e-39
0.07031461596 -0.2986166775 -0.3385180831 5.123056101e-39
0.09902097285 -0.472587496 -0.09413965046 1.006601732e-39
0.1441779286 -0.1844514608 -0.1045440584 7.77588225e-39
-0.3793565333 -0.3708572984 0.0341687277 3.476474354e-39
0.05191859603 -0.4627557099 0.1519995779 1.281032024e-39
-0.008290700614 -0.2456654608 0.2868042886 6.403730794e-39
0.03158039227 -0.4721207321 -0.01642038673 1.098078496e-39
0.08488706499 -0.133679837 -0.3297070861 8.965080179e-39
0.1078176498 -0.459233284 -0.1789365709 1.372508787e-39
0.1158134937 -0.4678025246 0.005255833268 1.18955526e-39
0.07030910999 -0.3443166614 -0.2061763704 4.025334936e-39
0.1823357493 -0.1853978783 0.0861197263 7.77588225e-39
0.0608115159 -0.4690055251 0.2638917267 1.098078496e-39
0.08569645882 -0.1653257906 0.2765356898 8.233266069e-39
-0.1798579544 -0.4841303229 0.2978083193 8.236482049e-40
-0.0284684673 -0.102566421 -0.3397403657 9.696894289e-39
0.1271263808 -0.3964929581 -0.2443150878 2.836137007e-39
-0.09520481527 -0.2041761726 0.2968328595 7.318498431e-39
-0.3934128582 -0.3326036036 -0.07835575938 4.299765227e-39
0.1682293266 -0.2745918632 0.1904237568 5.671916684e-39
0.0864789933 -0.4622923732 -0.08438628167 1.281032024e-39
-0.1917555332 -0.361684531 0.0797777921 3.659427881e-39
0.1826628596 -0.1243008599 -0.3144849241 9.23951047e-39
0.1684651226 -0.4753423929 -0.01612402499 1.006601732e-39
0.03248590976 -0.3865940273 -0.3392059207 3.110567299e-39
0.1570399851 -0.1426007152 0.01304118894 8.782126651e-39
0.03024152294 -0.330914557 0.2893952131 4.391241991e-39
0.1096388698 -0.3537368774 -0.05953183025 3.842381409e-39
-0.04891763628 -0.4295621514 -0.233363986 2.104322897e-39
0.00647799857 -0.2802920043 -0.2967472672 5.58043992e-39
0.1829787046 -0.223964721 -0.04008878395 6.861114612e-39
0.1341381371 -0.1085341945 0.2100496143 9.605417525e-39
0.1420959085 -0.329731524 0.2600981593 4.391241991e-39
0.09825150669 -0.4670753181 0.1885129809 1.18955526e-39
0.1085157767 -0.1419304907 -0.1646597236 8.782126651e-39
0.07136208564 -0.1861615628 -0.3405093849 7.77588225e-39
0.1617188901 -0.3136211336 -0.1630235165 4.757149046e-39
-0.00932861492 -0.1662593782 0.2976320088 8.233266069e-39
-0.3160990477 -0.3617583215 -0.09020578116 3.659427881e-39
-0.01994758286 -0.4756649435 0.2687667608 1.006601732e-39
-0.2350194603 -0.451341033 0.2889270186 1.555462315e-39
-0.1666876674 -0.3367062211 -0.3403276801 4.208288464e-39
0.04803285375 -0.4702906311 -0.3074119687 1.098078496e-39
0.1589660943 -0.3038425744 -0.2972475588 5.031579337e-39
0.1451255679 -0.4645859003 0.04382127151 1.281032024e-39
0.1106242761 -0.4780500233 0.008636411279 9.151249686e-40
-0.09837028384 -0.2970016897 0.2968035936 5.123056101e-39
-0.1879635304 -0.3226924837 0.1810968667 4.574195519e-39
0.04416729882 -0.1985718459 0.3124806285 7.501451959e-39
0.1021788567 -0.4766952693 -0.01902870089 9.151249686e-40
-0.4291535616 -0.36116606 0.1353373677 3.659427881e-39
-0.05951607227 -0.1877964139 -0.2980484962 7.684405486e-39
0.1287579685 -0.4586119652 0.09513534606 1.372508787e-39
0.1836804152 -0.09907518327 -0.06656250358 9.788371052e-39
0.1214203238 -0.2231482565 0.2227087468 6.861114612e-39
0.1049117446 -0.3967790902 -0.2244450003 2.836137007e-39
0.131507799 -0.4110126197 0.3104811311 2.470229952e-39
-0.1086020172 -0.4211699665 -0.1364134252 2.287276425e-39
0.05859428272 -0.4664957225 -0.02956494875 1.18955526e-39
0.1523578018 -0.1676102281 0.1350754201 8.233266069e-39
-0.2301033586 -0.3232717514 -0.2021625489 4.574195519e-39
0.1610121429 -0.417537272 0.1051290482 2.378753189e-39
-0.2146225572 -0.4373788834 0.2259554416 1.829892606e-39
-0.1423111111 -0.2081382871 0.3113421202 7.227021667e-39
-0.1420530975 -0.2486689538 -0.3283732831 6.31225403e-39
-0.192522496 -0.3358509243 0.3112688363 4.208288464e-39
0.1306449622 -0.1844403744 0.2992405891 7.77588225e-39
-0.01742322184 -0.3734466434 0.3094720542 3.38499759e-39
0.1710951477 -0.09414870292 -0.2027823329 9.879847816e-39
0.1208784431 -0.3992741406 -0.3276261389 2.744660244e-39
0.1339555234 -0.08875680715 -0.3401435912 1.006280134e-38
0.03662048653 -0.486971885 -0.1783838719 7.321714411e-40
0.1837214977 -0.3745392859 -0.01512753684 3.38499759e-39
0.04532901943 -0.3369171321 -0.1899688691 4.208288464e-39
0.05060537532 -0.4810189009 0.2469824255 8.236482049e-40
-0.4294691086 -0.3365230858 0.009685212746 4.208288464e-39
-0.004300452769 -0.366733849 -0.2850492299 3.567951117e-39
0.09663721919 -0.4784338176 0.07640551031 9.151249686e-40
0.1699497402 -0.2701108158 -0.2766308188 5.763393447e-39
0.1155014709 -0.3335877359 0.1957152933 4.299765227e-39
0.1837819219 -0.2119587511 -0.09027538449 7.135544904e-39
-0.0293829143 -0.1868281215 -0.3391911387 7.77588225e-39
-0.04067223147 -0.4681955874 0.2830662727 1.18955526e-39
0.1819800586 -0.1739400774 0.07309877872 8.050312541e-39
0.04469606653 -0.3479079604 -0.08861558139 3.933858172e-39
0.1444675177 -0.2334302366 0.2866361439 6.678161085e-39
-0.1430454552 -0.4202178121 -0.07606739551 2.287276425e-39
-0.2171223462 -0.3615285456 0.1724983752 3.659427881e-39
0.1141938716 -0.4688990414 -0.1875620037 1.098078496e-39
0.1228657588 -0.3733251095 0.00439136615 3.38499759e-39
-0.1716899425 -0.3447239101 -0.2787262201 4.025334936e-39
-0.1920100152 -0.4860501885 0.2964999676 7.321714411e-40
-0.06695318222 -0.1233941242 0.3096668422 9.23951047e-39
0.1714559793 -0.1408973485 0.01072025765 8.782126651e-39
-0.308016628 -0.3347986042 6.30451832e-05 4.299765227e-39
0.08305603266 -0.4734948277 -0.3373143673 1.006601732e-39
0.02192729339 -0.1579689085 -0.3316093683 8.416219596e-39
0.1761781573 -0.4534343481 -0.04666943476 1.463985551e-39
0.1824913472 -0.3112010062 -0.1646848172 4.84862581e-39
0.04915969819 -0.2503367364 0.2947561145 6.220777266e-39
-0.3813330233 -0.3298054636 0.153180778 4.391241991e-39
0.05131945014 -0.4617983699 0.2298318297 1.281032024e-39
0.1712374538 -0.08685068786 0.184577778 1.006280134e-38
0.1764626801 -0.1329450458 -0.2918082178 8.965080179e-39
-0.3042346537 -0.3361875713 -0.1856987178 4.208288464e-39
0.08260016143 -0.4601258636 0.07557671517 1.372508787e-39
0.005142621696 -0.2995758653 -0.3189605772 5.123056101e-39
0.1224365905 -0.3284999132 0.2864435017 4.391241991e-39
0.1761770248 -0.2172288448 -0.1952942461 7.04406814e-39
0.08218507469 -0.4735230207 0.3102928698 1.006601732e-39
0.1826470792 -0.3238989115 0.1732328236 4.574195519e-39
0.06358277798 -0.4709641337 -0.06080076098 1.098078496e-39
0.1477054358 -0.2279622853 -0.04033929855 6.769637849e-39
-0.2298600823 -0.3231979907 0.06072023511 4.574195519e-39
-0.05567730218 -0.3543979228 0.2824308574 3.842381409e-39
0.1703595817 -0.2989462018 -0.3268299699 5.123056101e-39
0.1032346338 -0.474585861 -0.1844137907 1.006601732e-39
-0.4275713861 -0.3236127794 -0.1144812629 4.574195519e-39
-0.1427964866 -0.3408841193 -0.2366253585 4.1168117e-39
-0.3190775514 -0.3893100917 0.2035119981 3.019090535e-39
-0.117404215 -0.1989493519 -0.3384293914 7.501451959e-39
0.07977741957 -0.4743534029 0.03023594804 1.006601732e-39
0.08301650733 -0.1979665309 -0.3385545015 7.501451959e-39
-0.2542260885 -0.4478584826 0.3097835481 1.646939079e-39
0.1425488889 -0.4713270664 0.05064974725 1.098078496e-39
0.1762931049 -0.2429416478 0.1656009108 6.403730794e-39
-0.1038752571 -0.3485119045 -0.3357879221 3.933858172e-39
-0.1287325174 -0.1819830537 0.2976780236 7.867359014e-39
0.08826120198 -0.4571861327 -0.1788975894 1.372508787e-39
0.1039750576 -0.3775590062 -0.1270724088 3.293520826e-39
0.1624119878 -0.2905172408 0.07332679629 5.306009629e-39
0.09716551751 -0.1629987061 0.3022826314 8.324742832e-39
0.05023257807 -0.4645828307 0.2569667399 1.281032024e-39
