# .PCD v0.7 - Point Cloud Data file format
VERSION 0.7
FIELDS x y z rgb
SIZE 4 4 4 4
TYPE F F F F
COUNT 1 1 1 1
WIDTH 837
HEIGHT 1
VIEWPOINT 0 0 0 1 0 0 0
POINTS 837
DATA ascii
0.02972994372 -0.3826005757 -0.4406250715 2.561706716e-39
0.1528884023 -0.2181468457 -0.4558501542 6.403730794e-39
0.3365392685 -0.2995222807 0.09978529811 4.482718755e-39
-0.1270787418 -0.3778673708 -0.1323447227 2.65318348e-39
-0.05915348604 -0.2522217631 -0.2476116866 5.58043992e-39
0.3404326439 -0.3721054792 -0.2145726979 2.836137007e-39
-0.1630589068 -0.2746010423 0.06280440837 5.123056101e-39
-0.1136016622 -0.485280782 -0.4364995062 1.833108586e-40
-0.02468954027 -0.2818614841 0.2170950174 4.940102574e-39
0.3642438948 -0.4094682038 -0.4386714101 1.92136937e-39
0.01126714982 -0.4853471518 0.399331063 1.833108586e-40
-0.08646482229 -0.284218967 -0.4249405861 4.84862581e-39
0.1224276721 -0.309471041 -0.4250499308 4.299765227e-39
-0.1452489495 -0.4381432235 -0.305128634 1.281032024e-39
0.2319777757 -0.4848085642 0.286580056 1.833108586e-40
0.06461645663 -0.3320083916 -0.3862218559 3.750904645e-39
-0.116247192 -0.3015217483 -0.3420887589 4.482718755e-39
-0.02905040979 -0.4497220516 -0.3571007848 1.006601732e-39
-0.09882168472 -0.4075607657 0.287297368 2.012846134e-39
-0.1325625926 -0.3829576075 0.2915192544 2.561706716e-39
-0.161511302 -0.2258447558 0.324178189 6.220777266e-39
0.3699468672 -0.3453505337 -0.3391418159 3.38499759e-39
0.06814929843 -0.482213974 -0.3749904037 1.833108586e-40
-0.1615836918 -0.204437837 -0.3618141711 6.769637849e-39
-0.0873818621 -0.4103974402 -0.1882069856 1.92136937e-39
0.02279333025 -0.4850951433 -0.2882187068 1.833108586e-40
-0.07328499109 -0.3694311082 0.3752210736 2.836137007e-39
0.01481899619 -0.4686000645 -0.08597740531 5.492179136e-40
-0.1032907963 -0.4529856741 0.1093223318 9.151249686e-40
-0.07927541435 -0.3811790645 0.3498574495 2.561706716e-39
-0.09919057786 -0.383227706 -0.07753151655 2.561706716e-39
0.02539576963 -0.2510865033 -0.4294748604 5.671916684e-39
0.2885429561 -0.2773182094 -0.425363332 5.031579337e-39
0.02377506159 -0.4853779376 -0.436427623 1.833108586e-40
0.002341024578 -0.3778056502 0.163301006 2.65318348e-39
0.2427601069 -0.3225022256 -0.418081969 3.933858172e-39
-0.1487697512 -0.4864912629 0.04884287715 9.183409486e-41
0.1746434271 -0.4812365472 -0.4106333256 2.747876224e-40
0.4853046834 -0.3741180301 -0.4363190532 2.744660244e-39
-0.1008592099 -0.2615731657 0.2148582935 5.397486392e-39
0.3061309755 -0.3326202035 -0.3479955196 3.750904645e-39
-0.1609797925 -0.2868623734 -0.2257970423 4.757149046e-39
0.246954456 -0.3309601545 -0.449206233 3.750904645e-39
-0.0230547525 -0.3319424987 -0.2675565779 3.750904645e-39
-0.1474691182 -0.4188013971 -0.1465382874 1.738415842e-39
0.3238794804 -0.3619152904 0.04981409758 3.019090535e-39
0.2687835395 -0.431959182 -0.4087011814 1.372508787e-39
0.03635835648 -0.3255717754 -0.4188196063 3.933858172e-39
-0.05774477124 -0.4781272113 -0.1820006222 3.662643861e-40
0.1585528404 -0.383566618 -0.410605371 2.561706716e-39
-0.1504140645 -0.4852055013 0.3995504677 1.833108586e-40
0.261931777 -0.3133582473 0.2124530822 4.208288464e-39
-0.08807705343 -0.3870494068 -0.324919939 2.470229952e-39
0.06192769483 -0.2998545468 0.325093627 4.482718755e-39
-0.1628317535 -0.3246797323 0.4751553833 3.933858172e-39
0.1870746017 -0.4859888554 0.3747058809 9.183409486e-41
0.4057875574 -0.4852465987 -0.3736055493 1.833108586e-40
-0.1081303731 -0.4813482165 0.3214052916 2.747876224e-40
0.374288857 -0.4121954441 -0.1877492219 1.829892606e-39
0.02250090614 -0.4821152091 -0.2511380911 1.833108586e-40
-0.1630558968 -0.2245036811 0.1249762699 6.220777266e-39
-0.0624421984 -0.2148275077 -0.01259336155 6.495207557e-39
0.4150180817 -0.2176069319 -0.4066528976 6.403730794e-39
-0.04394943267 -0.4770833254 0.1308225989 3.662643861e-40
0.3617677391 -0.4866464734 0.1252917796 9.183409486e-41
-0.1470452994 -0.3242716193 -0.4341406226 3.933858172e-39
-0.1624646038 -0.3494507372 -0.1250888705 3.293520826e-39
-0.1304432005 -0.2532960474 0.3862446249 5.58043992e-39
0.1758925766 -0.3969088793 -0.4334971607 2.195799661e-39
-0.1540344059 -0.2491672635 -0.1906719506 5.671916684e-39
0.4516606629 -0.4859015048 -0.07523485273 1.833108586e-40
-0.1232030988 -0.2228032649 -0.3984485567 6.31225403e-39
-0.03257489204 -0.4466166794 0.03558057919 1.098078496e-39
-0.1379263401 -0.4223717451 -0.3793819547 1.646939079e-39
-0.1267071366 -0.3491212726 0.229279846 3.38499759e-39
0.1153246611 -0.2678450048 0.2269423902 5.214532865e-39
0.1241287738 -0.1997268647 -0.3750137985 6.861114612e-39
0.2867365181 -0.4865450263 0.2374985963 9.183409486e-41
-0.077085495 -0.4858818948 -0.262277931 1.833108586e-40
0.3385336697 -0.3136976659 -0.4391797185 4.208288464e-39
0.2838263214 -0.4725507498 -0.03091775998 4.577411499e-40
-0.1626925766 -0.4866699874 0.1871792972 9.183409486e-41
-0.1476724744 -0.4036474526 0.06633870304 2.104322897e-39
-0.03794671595 -0.4727758169 0.3470561802 4.577411499e-40
-0.1628430039 -0.3618248999 0.07530526817 3.019090535e-39
0.08679284155 -0.3993221521 0.1883768439 2.195799661e-39
0.2798720896 -0.3749884665 -0.3081341982 2.744660244e-39
0.07199110091 -0.2847402692 -0.4358387291 4.84862581e-39
-0.1206913292 -0.2761491537 -0.3489989638 5.031579337e-39
0.06861061603 -0.4147869051 -0.4326696396 1.829892606e-39
-0.08775858581 -0.299536854 0.3247989416 4.482718755e-39
0.4491510093 -0.3491946459 -0.3505919874 3.38499759e-39
-0.02481310628 -0.3871446848 0.4871407449 2.470229952e-39
0.2380448133 -0.2074653357 -0.4361216128 6.678161085e-39
0.1028024107 -0.4458951354 -0.387755692 1.098078496e-39
-0.1011265069 -0.339508146 -0.09203391522 3.567951117e-39
-0.07865151763 -0.2962537706 0.03360416368 4.574195519e-39
-0.1598087251 -0.2386078089 0.222990334 5.946346975e-39
-0.03033921123 -0.4422655702 -0.4441625476 1.18955526e-39
-0.09658607095 -0.4149433672 -0.4231955111 1.829892606e-39
-0.08219242096 -0.4006082714 -0.3571418226 2.104322897e-39
-0.08015951514 -0.4628828764 -0.0188203603 6.406946774e-40
0.196659416 -0.404093504 -0.4433789849 2.012846134e-39
-0.1287999004 -0.405120939 0.3188952506 2.012846134e-39
-0.007942244411 -0.3581641316 0.3498893976 3.110567299e-39
-0.1608048975 -0.375107646 -0.2381179482 2.744660244e-39
0.008500382304 -0.4705044031 0.2842121124 4.577411499e-40
0.4482139647 -0.3997640014 -0.18781358 2.195799661e-39
0.2372213751 -0.3229401708 0.1281981766 3.933858172e-39
0.02812457085 -0.2602593303 0.2162472308 5.397486392e-39
-0.1272781491 -0.4323286414 0.1631911099 1.372508787e-39
0.07442970574 -0.3869459033 0.0883436501 2.470229952e-39
-0.1500000507 -0.4088179171 -0.08500231057 1.92136937e-39
0.1615559161 -0.3370280862 -0.2625238299 3.659427881e-39
0.1117560789 -0.3459883034 -0.4538211524 3.38499759e-39
-0.1381883174 -0.2244902551 -0.0751343742 6.220777266e-39
-0.150676772 -0.2119823098 -0.4373274446 6.586684321e-39
0.07536121458 -0.4864590168 -0.2070549279 9.183409486e-41
-0.03826389834 -0.3624094129 0.01266311947 3.019090535e-39
0.2374005616 -0.4784837365 -0.1464634389 2.747876224e-40
-0.0506786257 -0.4861087799 0.4125278592 9.183409486e-41
0.1243815646 -0.4855684936 -0.4239563942 1.833108586e-40
0.3736221194 -0.3619374335 0.06251934916 3.019090535e-39
-0.1435074955 -0.2157239169 -0.2988003194 6.495207557e-39
0.007430151105 -0.3448848426 0.3026484847 3.476474354e-39
0.2792934179 -0.2511903346 -0.4313358665 5.671916684e-39
-0.1237774938 -0.3459593654 0.2935286164 3.38499759e-39
-0.0857738331 -0.3636623621 -0.3273992538 3.019090535e-39
0.2128549814 -0.3458634615 -0.418197751 3.38499759e-39
-0.02552833408 -0.1989388168 -0.4366640747 6.861114612e-39
-0.1211187541 -0.3023178577 0.2146776617 4.482718755e-39
-0.0224291496 -0.3161506355 -0.3945723772 4.1168117e-39
-0.1352344453 -0.3305809498 0.1240985543 3.750904645e-39
-0.03965172172 -0.3625766933 -0.4122779965 3.019090535e-39
0.2245158255 -0.4037960172 -0.4178153872 2.104322897e-39
-0.1606770009 -0.263289243 0.4505141675 5.397486392e-39
0.3732654154 -0.287810415 -0.1996193975 4.757149046e-39
-0.01753047109 -0.2798675299 -0.2919172645 4.940102574e-39
0.150092721 -0.3868674338 -0.4345315397 2.470229952e-39
0.3116457462 -0.3869657218 0.1626112163 2.470229952e-39
-0.0249578841 -0.3956875801 0.3617130816 2.287276425e-39
-0.1184892505 -0.3082210422 0.08461192995 4.299765227e-39
-0.1565023363 -0.4481077194 -0.4326103926 1.006601732e-39
0.2254035771 -0.2051280141 -0.3752539754 6.678161085e-39
-0.1106683612 -0.3001137674 -0.1970725209 4.482718755e-39
-0.1448969096 -0.4254944324 -0.2304674983 1.555462315e-39
-0.1346063465 -0.4220430255 0.3108253479 1.646939079e-39
0.1626059562 -0.4241042733 0.3252786994 1.555462315e-39
0.4444573224 -0.2030344605 -0.4371521175 6.769637849e-39
0.4859349132 -0.4868206084 -0.112810351 9.183409486e-41
0.008853055537 -0.4801367521 -0.1412184983 2.747876224e-40
0.3483335674 -0.3824414015 -0.441352576 2.561706716e-39
0.3239314556 -0.4858164489 0.02510562539 1.833108586e-40
0.1736031771 -0.3117869496 0.124882251 4.208288464e-39
-0.1619088352 -0.4482928813 0.4244731069 1.006601732e-39
0.2415434122 -0.2866268456 -0.4351815283 4.84862581e-39
-0.1372178793 -0.3343784809 0.2070741653 3.659427881e-39
0.2919846773 -0.3577238321 -0.4433894157 3.110567299e-39
0.05038265884 -0.2454012632 -0.4374289215 5.763393447e-39
-0.01380465552 -0.4851005077 -0.4114819765 1.833108586e-40
-0.1511369348 -0.4150478244 -0.2900884151 1.829892606e-39
0.4850047529 -0.4861938655 -0.2880134881 9.183409486e-41
-0.03979539871 -0.3154293597 0.3519378603 4.1168117e-39
0.1857375801 -0.3168863058 -0.3932969272 4.1168117e-39
-0.1553274989 -0.4651694 -0.2051364779 6.406946774e-40
0.4607280791 -0.2992081046 -0.2372962981 4.482718755e-39
-0.06701628119 -0.3415237665 0.4233428836 3.476474354e-39
0.09939585626 -0.4858904183 0.412614882 1.833108586e-40
0.1493580788 -0.4865860641 0.07519703358 9.183409486e-41
-0.06156366691 -0.4851584435 0.01314581558 1.833108586e-40
0.1662916839 -0.4872309864 -0.3245032132 9.183409486e-41
0.0367568247 -0.3495535553 -0.2371314466 3.293520826e-39
-0.1634144187 -0.4733379185 0.08761817962 4.577411499e-40
-0.1595663726 -0.2748185098 -0.4228213131 5.123056101e-39
0.1822961271 -0.4068862796 0.2434346378 2.012846134e-39
-0.1108923852 -0.3772630692 -0.06368941814 2.65318348e-39
0.266753912 -0.4579876959 -0.425147593 8.236482049e-40
0.3864874542 -0.4863691628 -0.1373402923 9.183409486e-41
-0.03848070651 -0.4116568565 0.2250530124 1.92136937e-39
-0.1489166766 -0.2756685317 -0.2583559752 5.031579337e-39
-0.009344679303 -0.3216103911 -0.4308468699 4.025334936e-39
-0.1623416245 -0.2378719449 0.2741644084 5.946346975e-39
0.07235462964 -0.4824559987 -0.1125959381 1.833108586e-40
0.4111475945 -0.4859126508 0.03706075624 1.833108586e-40
0.1130788475 -0.3681256175 -0.4139464796 2.927613771e-39
0.06717357039 -0.3248069584 0.2569540441 3.933858172e-39
0.3531032205 -0.308042556 -0.2777558565 4.299765227e-39
0.2994321883 -0.3367422819 0.04925857484 3.659427881e-39
-0.1123234034 -0.2628792226 -0.0539346002 5.397486392e-39
-0.002153709531 -0.4479849935 0.2174596339 1.006601732e-39
-0.1229505688 -0.3650282621 -0.3922656775 2.927613771e-39
-0.1319732368 -0.3608790934 0.367057085 3.110567299e-39
0.1296776831 -0.3446414173 0.3306822181 3.476474354e-39
0.2740578353 -0.3490982056 -0.3869727254 3.38499759e-39
-0.02589279972 -0.387070924 0.1380332857 2.470229952e-39
-0.1622993499 -0.3122670949 -0.124743402 4.208288464e-39
-0.03166666254 -0.4757234752 0.3013868928 3.662643861e-40
-0.162309736 -0.3122779727 0.06223749742 4.208288464e-39
0.295535326 -0.4361839294 -0.4349839389 1.281032024e-39
0.09539970756 -0.4226427078 -0.3989021778 1.646939079e-39
-0.08318433166 -0.2840687633 0.2377578467 4.84862581e-39
0.3123242855 -0.4861107767 0.174107492 9.183409486e-41
0.07443296909 -0.4009445012 -0.4234848917 2.104322897e-39
-0.1269095391 -0.4026502073 0.3994126022 2.104322897e-39
-0.1385920495 -0.2689830661 0.3406448066 5.214532865e-39
-0.1503328979 -0.4844888747 -0.3366409838 1.833108586e-40
0.3098300993 -0.2391403615 -0.4210838377 5.946346975e-39
-0.1626778394 -0.2246391773 0.1502913088 6.220777266e-39
-0.1618437767 -0.4287179708 -0.01072240621 1.463985551e-39
-0.04435255006 -0.2700381875 -0.4122194648 5.214532865e-39
0.03295808285 -0.4856707156 -0.03429155424 1.833108586e-40
0.05597347021 -0.4845391512 0.2390078157 1.833108586e-40
0.2120635509 -0.3498174548 -0.2732453048 3.293520826e-39
0.4702943265 -0.2769978046 -0.4368177652 5.031579337e-39
0.278177321 -0.48641783 -0.1172795966 9.183409486e-41
0.03651086241 -0.4862089157 -0.22471416 9.183409486e-41
0.08896415681 -0.3314304948 0.1462447345 3.750904645e-39
-0.1628710926 -0.4851398766 0.1996815652 1.833108586e-40
-0.146917209 -0.3443219066 -0.3595175147 3.476474354e-39
0.1556994766 -0.2752393782 -0.4269013405 5.031579337e-39
0.1650155634 -0.4761238992 -0.3090187609 3.662643861e-40
0.4605016112 -0.3742738366 -0.2376457751 2.744660244e-39
-0.1614503264 -0.2125473619 -0.1751668155 6.495207557e-39
-0.07700810581 -0.3452727199 -0.2536213994 3.476474354e-39
0.07433095574 -0.2996889353 0.250123173 4.482718755e-39
0.2178030759 -0.4590323269 -0.41818735 7.321714411e-40
0.4856901765 -0.4731000066 -0.4367319345 4.577411499e-40
0.04883477837 -0.4859583676 0.3121028244 1.833108586e-40
0.00455404073 -0.4144914746 -0.4460369349 1.829892606e-39
-0.1190567836 -0.2294343561 -0.3326886296 6.129300502e-39
0.2667113841 -0.428907752 -0.4131672978 1.463985551e-39
0.1116031706 -0.3367775679 -0.2498659641 3.659427881e-39
0.1957240999 -0.4262310565 0.07841519266 1.555462315e-39
0.04918577522 -0.1995922178 -0.3998419344 6.861114612e-39
0.448592782 -0.3494681418 -0.3623732626 3.293520826e-39
-0.1630965322 -0.424241215 0.2748877108 1.555462315e-39
0.3617313802 -0.3244189322 0.07499597967 3.933858172e-39
-0.04281538725 -0.3992759883 -0.4316955209 2.195799661e-39
0.2493211329 -0.2867700756 0.2124560475 4.757149046e-39
-0.1631454378 -0.4112506509 0.1250580698 1.92136937e-39
0.02519403584 -0.2282821536 -0.237685442 6.129300502e-39
0.3382784724 -0.3342955112 -0.2083337158 3.659427881e-39
0.1154933572 -0.4841651618 -0.1156406105 1.833108586e-40
-0.05846882984 -0.261571914 0.02067066357 5.397486392e-39
0.3614945114 -0.4865255654 0.1122144312 9.183409486e-41
-0.1323929727 -0.4663926065 -0.2811059356 6.406946774e-40
0.4858992696 -0.4863482118 -0.1499530822 9.183409486e-41
-0.09191532433 -0.3073737323 0.3984236121 4.299765227e-39
0.3102834821 -0.2576287687 -0.4017227888 5.488963156e-39
-0.1029068977 -0.3435075879 0.2453937531 3.476474354e-39
-0.1160993055 -0.3821698427 -0.0287046358 2.561706716e-39
-0.1618307531 -0.4858936667 -0.2248458713 1.833108586e-40
-0.02532089502 -0.4529620707 0.373650074 9.151249686e-40
-0.1382447481 -0.4858504236 -0.4241992235 1.833108586e-40
-0.06589458138 -0.3211375475 0.3207908869 4.025334936e-39
0.2236761451 -0.4864065051 0.1750651896 9.183409486e-41
-0.1622162312 -0.1997246444 -0.4243150651 6.861114612e-39
0.1912066042 -0.2224711925 -0.4267163873 6.31225403e-39
-0.0386217162 -0.3866152763 0.4875729084 2.470229952e-39
0.04686356708 -0.434509784 0.1191341579 1.372508787e-39
-0.1381387264 -0.4850089252 0.3996495605 1.833108586e-40
0.1106683016 -0.2765252888 0.1956491619 5.031579337e-39
0.1682112217 -0.4847386777 0.350323379 1.833108586e-40
-0.04710163921 -0.452367276 -0.416570127 9.151249686e-40
-0.1616346538 -0.3864074051 -0.2007468641 2.470229952e-39
0.03636169434 -0.4271622002 0.286229521 1.555462315e-39
0.01516762376 -0.4637012482 -0.2634362578 6.406946774e-40
0.3407517076 -0.3269149363 -0.4190832675 3.842381409e-39
-0.1262698323 -0.2838596106 -0.1781022102 4.84862581e-39
-0.1247568578 -0.3652271032 -0.06872469932 2.927613771e-39
0.3115160763 -0.3618012369 0.1628033072 3.019090535e-39
0.2491031587 -0.3987034261 -0.4368213117 2.195799661e-39
0.0209351629 -0.3902905881 -0.3844483197 2.378753189e-39
0.2528075874 -0.2616841495 -0.4389213622 5.397486392e-39
-0.04458396137 -0.3432996273 -0.3892054558 3.476474354e-39
0.3024097681 -0.3612229824 -0.3311692178 3.019090535e-39
-0.1496490091 -0.249713406 0.07530850172 5.671916684e-39
0.0371068716 -0.3512907326 0.3465118706 3.293520826e-39
0.03681950644 -0.4858007133 0.05015905201 1.833108586e-40
-0.1517985165 -0.2965245545 -0.2790749073 4.574195519e-39
0.1367322057 -0.4851651192 -0.4240696728 1.833108586e-40
0.2519136667 -0.4872814119 -0.3421887159 9.183409486e-41
-0.1623494774 -0.2991209924 0.3494322002 4.482718755e-39
0.004757850431 -0.3177672923 -0.4372471869 4.1168117e-39
0.4098097384 -0.3668971956 -0.4503084719 2.927613771e-39
0.2612054944 -0.2988246083 0.07597474009 4.482718755e-39
0.4487161636 -0.4836977124 -0.3375971317 1.833108586e-40
-0.1432669312 -0.3052209914 -0.07669083774 4.391241991e-39
-0.1308927685 -0.3028211296 0.2532560825 4.391241991e-39
-0.09559594095 -0.3797010481 0.3061822951 2.65318348e-39
-0.08503764868 -0.3484817445 -0.3583096862 3.38499759e-39
-0.09911296517 -0.332079947 -0.4202756286 3.750904645e-39
0.3519160151 -0.3561615348 -0.3387793303 3.202044062e-39
-4.681607243e-05 -0.3247411549 0.1869720221 3.933858172e-39
-0.1122000366 -0.4383486807 0.08469283581 1.281032024e-39
-0.1619799882 -0.3870732486 0.4740139544 2.470229952e-39
-0.1618669033 -0.3371154666 0.1999855191 3.659427881e-39
0.310441196 -0.4760279059 -0.4312632084 3.662643861e-40
0.1618759334 -0.3245121241 0.324971199 3.933858172e-39
-0.000343626627 -0.4730810523 -0.4371482432 4.577411499e-40
0.08547881246 -0.4744178355 -0.2002986223 3.662643861e-40
0.1222429425 -0.3227569461 -0.4494329989 3.933858172e-39
-0.01868276298 -0.4630625844 -0.1808911264 6.406946774e-40
0.4484037459 -0.4857824445 -0.07565721124 1.833108586e-40
0.3893706501 -0.277548492 -0.4391285479 5.031579337e-39
-0.05112509057 -0.3246339858 0.01231466141 3.933858172e-39
0.1058826596 -0.4751516581 0.2820318639 3.662643861e-40
-0.05026938394 -0.2248276025 0.1882343888 6.220777266e-39
0.09941871464 -0.1994300485 -0.3872663975 6.861114612e-39
0.1492177844 -0.4857043028 0.05003132671 1.833108586e-40
-0.1466568112 -0.4453214407 -0.1169606 1.098078496e-39
0.2350243479 -0.4466302395 -0.4206867218 1.098078496e-39
0.1964755356 -0.4499574006 0.245433867 1.006601732e-39
-0.1103773937 -0.3509179354 0.3119247258 3.293520826e-39
-0.1403299868 -0.3276188672 0.3411726952 3.842381409e-39
-0.08790299296 -0.2004292309 -0.4370267391 6.861114612e-39
-0.1631780565 -0.4239569604 -0.436848551 1.555462315e-39
0.3737819195 -0.3621184528 -0.1875468493 3.019090535e-39
0.1588537544 -0.472066462 -0.3936453164 4.577411499e-40
-0.1010150984 -0.3742578626 -0.1873706728 2.744660244e-39
0.04184020311 -0.3502616584 -0.2477575541 3.293520826e-39
0.3208724558 -0.4045708477 -0.4391855597 2.012846134e-39
0.3987064064 -0.4366170764 0.06226301938 1.281032024e-39
-0.1619371027 -0.4734878242 0.02467796952 4.577411499e-40
-0.1469213963 -0.279199034 -0.364305824 4.940102574e-39
0.1116139218 -0.4855041802 0.3999750316 1.833108586e-40
-0.1508154869 -0.4542046785 -0.3649094403 9.151249686e-40
0.2428191751 -0.3277560472 -0.3837763667 3.842381409e-39
-0.01377711445 -0.3653900623 0.1045474261 2.927613771e-39
0.4605378211 -0.4241160452 -0.1874537766 1.555462315e-39
-0.1625235528 -0.227805689 0.1623121202 6.220777266e-39
0.07436770201 -0.3369184136 -0.3624765575 3.659427881e-39
0.1367796212 -0.2244350314 0.200070858 6.220777266e-39
-0.125651896 -0.211897403 -0.07494987547 6.586684321e-39
-0.0823463127 -0.2430140525 -0.2878569663 5.854870211e-39
0.1369069517 -0.3871268034 0.08810345829 2.470229952e-39
0.448705256 -0.3496545553 -0.312407732 3.293520826e-39
-0.162542358 -0.2267096788 0.349732101 6.220777266e-39
0.02421655692 -0.4615015984 -0.2375846207 7.321714411e-40
-0.1442684978 -0.4650560319 0.1686377525 6.406946774e-40
0.3494016528 -0.1998260319 -0.3749724627 6.861114612e-39
0.2455585599 -0.2777970731 0.2125499994 5.031579337e-39
0.4741482437 -0.4855384827 -0.3873976469 1.833108586e-40
-0.1393701583 -0.4108302593 0.3517360389 1.92136937e-39
-0.111839287 -0.3927470446 -0.05253328383 2.287276425e-39
-0.05567868054 -0.4223098457 0.31785357 1.646939079e-39
0.06552393734 -0.4801383913 -0.2690514326 2.747876224e-40
-0.05020541325 -0.3980984092 0.4870623648 2.195799661e-39
-0.1440275311 -0.3778401315 -0.3229340911 2.65318348e-39
-0.132458657 -0.3825646043 -0.3338006139 2.561706716e-39
-0.1625790745 -0.3617460728 0.1000643671 3.019090535e-39
0.03210164979 -0.2828316092 -0.2445420623 4.940102574e-39
0.01185209397 -0.2991665006 0.3252208531 4.482718755e-39
0.1740946472 -0.3744226992 0.2001973242 2.744660244e-39
0.2210676819 -0.3490957916 -0.4253297746 3.38499759e-39
0.05292173475 -0.4481895566 -0.4569526613 1.006601732e-39
-0.07582515478 -0.4856903255 0.3874118924 1.833108586e-40
0.2622177899 -0.362131238 0.06249803677 3.019090535e-39
0.3863569498 -0.4859260023 -0.27505216 1.833108586e-40
0.1567157209 -0.2286107093 -0.4261971414 6.129300502e-39
0.04342097789 -0.4773508608 -0.2806757092 3.662643861e-40
0.0494989492 -0.4855051637 0.2869517505 1.833108586e-40
0.3657732904 -0.4134587646 -0.4423096478 1.829892606e-39
-0.08213298023 -0.3956936598 -0.4093883038 2.287276425e-39
-0.07618431747 -0.4726006985 0.222150743 4.577411499e-40
-0.1194219142 -0.3690339327 -0.02765530907 2.836137007e-39
0.02089286037 -0.2798611224 -0.4384194911 4.940102574e-39
-0.1630381495 -0.3986105323 0.224574998 2.195799661e-39
0.199122414 -0.4861270189 0.3120770752 9.183409486e-41
0.3048373461 -0.4829187691 -0.1562124938 1.833108586e-40
0.1871596426 -0.3368181586 -0.2750187814 3.659427881e-39
0.4571684301 -0.2152388245 -0.424975872 6.495207557e-39
-0.1627561599 -0.2127938569 -0.1995453238 6.495207557e-39
-0.1427990794 -0.2089477479 -0.3820741773 6.586684321e-39
-0.1625206918 -0.3862811029 -0.1124578789 2.470229952e-39
0.259626776 -0.4792262018 -0.4317196012 2.747876224e-40
0.3366162777 -0.299567312 -0.4371538758 4.482718755e-39
-0.1063303575 -0.2454765737 -0.02617848851 5.763393447e-39
0.136876151 -0.486422658 -0.02492506988 9.183409486e-41
-0.1611482501 -0.3119876385 -0.4111055136 4.208288464e-39
0.3744166195 -0.3617194593 0.07512301952 3.019090535e-39
0.299415499 -0.4857698679 0.2003215849 1.833108586e-40
0.1580013186 -0.3978168666 -0.4364532828 2.195799661e-39
0.2248353362 -0.4284889698 -0.3964475393 1.463985551e-39
-0.161365211 -0.2768482864 0.2614592612 5.031579337e-39
0.2309131175 -0.4783521295 -0.3847455382 2.747876224e-40
0.06252603978 -0.2364107668 0.1871635765 5.946346975e-39
-0.1161766946 -0.3656328321 -0.3072971106 2.927613771e-39
0.1903308779 -0.384639293 0.138276875 2.470229952e-39
0.04274972528 -0.4225428998 0.3818255961 1.646939079e-39
-0.07531880587 -0.4174303114 -0.4006840587 1.738415842e-39
-0.1608363688 -0.3741381168 0.4730600417 2.744660244e-39
-0.07693082839 -0.4449490309 0.05494104326 1.098078496e-39
0.02147087455 -0.4412925541 -0.3781791329 1.18955526e-39
0.3734895885 -0.3486005366 -0.3001362681 3.38499759e-39
-0.1298204958 -0.3910110891 0.05273603648 2.378753189e-39
0.4444550276 -0.3609073162 -0.4296822548 3.110567299e-39
-0.07557234168 -0.3242005408 0.1876550168 3.933858172e-39
-0.05576884001 -0.390591681 0.3386184275 2.378753189e-39
-0.1134497151 -0.3797673583 -0.4157292843 2.65318348e-39
0.09969177097 -0.3122408986 0.1251199692 4.208288464e-39
0.2734352946 -0.2000921071 -0.3869770765 6.861114612e-39
0.0622712858 -0.222452268 -0.4153697491 6.31225403e-39
-0.117659159 -0.3862531185 0.2333351523 2.470229952e-39
-0.1111402959 -0.3532575369 -0.1706293225 3.202044062e-39
0.1266873628 -0.3940623999 -0.2717410326 2.287276425e-39
-0.005762778223 -0.3752351701 -0.4073413014 2.744660244e-39
0.05246415734 -0.2961008549 -0.4256973565 4.574195519e-39
-0.1193518788 -0.30298841 -0.3650565445 4.391241991e-39
-0.1582450867 -0.2272068858 0.3859800994 6.220777266e-39
0.08644166589 -0.4800747633 -0.3554928899 2.747876224e-40
-0.1472378373 -0.3182166517 -0.05802537501 4.025334936e-39
0.2126343548 -0.223920241 0.19987306 6.31225403e-39
0.2739809453 -0.4862221181 0.07491096109 9.183409486e-41
0.02359573543 -0.4626188576 -0.2275312096 6.406946774e-40
0.09776448458 -0.3008615971 0.275302738 4.482718755e-39
0.1847328246 -0.3505369127 -0.4077092111 3.293520826e-39
-0.1629869044 -0.4734549522 0.3621386886 4.577411499e-40
0.02553342283 -0.4588528872 -0.4695243835 7.321714411e-40
-0.1387386322 -0.2453602105 -0.2527011335 5.763393447e-39
-0.03938485309 -0.4854883552 0.3000316322 1.833108586e-40
-0.154948011 -0.4360766411 -0.4318017066 1.281032024e-39
-0.1629886776 -0.4737558961 -0.01249342132 4.577411499e-40
0.1900544763 -0.2666633427 -0.4491593242 5.306009629e-39
-0.02566760778 -0.2121240199 -0.4373133481 6.586684321e-39
0.03772850335 -0.3899100125 -0.44569543 2.378753189e-39
0.4603994489 -0.3248657882 -0.2377843261 3.933858172e-39
-0.1620491147 -0.4862717688 0.2243908197 9.183409486e-41
-0.1549357921 -0.2872079611 0.09751509875 4.757149046e-39
-0.09425520897 -0.4397387207 0.3368236423 1.18955526e-39
0.1684802622 -0.356395483 -0.4242124259 3.202044062e-39
-0.1096660197 -0.2872628868 0.2487246394 4.757149046e-39
0.2599729598 -0.3995316029 0.2130660117 2.195799661e-39
0.3683640063 -0.4727630615 0.0063280873 4.577411499e-40
-0.05062165856 -0.2744305432 -0.02505372651 5.123056101e-39
-0.1626485586 -0.3392954171 0.36240381 3.567951117e-39
0.2493555993 -0.3369938135 -0.2874607444 3.659427881e-39
-0.163237229 -0.3492181003 -0.2374283224 3.38499759e-39
-0.05075973272 -0.4116535485 0.1876090169 1.92136937e-39
0.3543584347 -0.2371004671 -0.4190487266 5.946346975e-39
0.3252269328 -0.4838461876 -0.2579900026 1.833108586e-40
-0.1005321071 -0.3121255636 0.4751878083 4.208288464e-39
0.1118599772 -0.4864059985 0.08769766241 9.183409486e-41
0.02380220778 -0.3247872293 -0.237444371 3.933858172e-39
-0.09283240139 -0.4119426906 0.02944725007 1.829892606e-39
-0.1519978195 -0.2469547689 -0.1351749748 5.763393447e-39
0.4605599344 -0.4855740964 -0.2499555349 1.833108586e-40
0.1358516961 -0.485668093 0.274712652 1.833108586e-40
0.1292395741 -0.4351602495 0.09335365891 1.372508787e-39
0.322321713 -0.3743476868 -0.4332236648 2.744660244e-39
0.3119065166 -0.3235892057 0.1492352784 3.933858172e-39
-0.06699674577 -0.46442312 -0.425016284 6.406946774e-40
-0.1132240891 -0.4538893104 -0.3203890324 9.151249686e-40
-0.05635215342 -0.3620365262 0.2949253917 3.019090535e-39
-0.09590288997 -0.4319829643 0.1035295725 1.372508787e-39
-0.06991317868 -0.3183263838 -0.4296948314 4.025334936e-39
-0.07579749823 -0.4115769267 -0.3878701329 1.92136937e-39
-0.1079818383 -0.3951544762 -0.2057338655 2.287276425e-39
-0.08676265925 -0.2417474389 -0.4193983078 5.854870211e-39
-0.0749464035 -0.3239589036 0.3246909082 3.933858172e-39
0.4732263088 -0.2872404456 -0.436603874 4.757149046e-39
0.09935365617 -0.3873327374 0.187781319 2.470229952e-39
-0.1497448981 -0.4858925343 -0.39949283 1.833108586e-40
0.3509398401 -0.3657777905 -0.4135196805 2.927613771e-39
-0.16224733 -0.2367522717 0.2001384944 5.946346975e-39
0.2381528318 -0.2850475013 -0.4459649026 4.84862581e-39
0.2347359955 -0.3945574164 -0.4015456736 2.287276425e-39
0.2124735564 -0.478054285 -0.1911678016 3.662643861e-40
0.2496838868 -0.4860672951 0.2503804266 9.183409486e-41
0.3609371781 -0.4735732377 0.1126418784 4.577411499e-40
0.1530382931 -0.2903972268 0.1848450899 4.757149046e-39
-0.1621517092 -0.3121571541 -0.3373957574 4.208288464e-39
0.1133056432 -0.3273516893 -0.3303526342 3.842381409e-39
-0.0007387623191 -0.4092462063 0.1224829555 1.92136937e-39
0.02406376414 -0.4845212102 0.3745830059 1.833108586e-40
0.279179126 -0.4100801945 -0.4357666969 1.92136937e-39
-0.07430575788 -0.2737828791 0.2284769416 5.123056101e-39
-0.07427066565 -0.4747511744 -0.2881484628 3.662643861e-40
-0.03425016627 -0.3674346507 -0.4334884882 2.927613771e-39
0.1495697647 -0.2030765563 -0.3752705157 6.769637849e-39
-0.1240888461 -0.4493132234 0.4497513473 1.006601732e-39
-0.0828358978 -0.449338913 0.2892384231 1.006601732e-39
0.1459005773 -0.3313634992 -0.4460726976 3.750904645e-39
-0.1490678787 -0.2627889514 -0.4371125996 5.397486392e-39
0.08289462328 -0.3290054798 -0.4430955648 3.842381409e-39
-0.1476544589 -0.4495148659 0.008695505559 1.006601732e-39
-0.1633108854 -0.3993297815 0.2873953283 2.195799661e-39
-0.1623736918 -0.3870201111 0.1126466095 2.470229952e-39
-0.1123933047 -0.2923293114 -0.2108449936 4.665672282e-39
0.3617325127 -0.4017876983 -0.2341187745 2.104322897e-39
0.1993181556 -0.4863307178 0.1374676526 9.183409486e-41
0.06665544212 -0.483697474 -0.2839147151 1.833108586e-40
-0.1629333496 -0.3493576348 -0.1500434279 3.293520826e-39
-0.0507757552 -0.3865965307 0.487259239 2.470229952e-39
0.4488786757 -0.4861460924 -0.3249684572 9.183409486e-41
-0.1329062432 -0.327755481 0.09450308979 3.842381409e-39
0.02445516735 -0.2995173633 0.3249777555 4.482718755e-39
0.4364136755 -0.2007705718 -0.436255306 6.861114612e-39
-0.1625524163 -0.2744989395 0.4371645153 5.123056101e-39
-0.1520548463 -0.4270410538 -0.3167986572 1.555462315e-39
0.4733950794 -0.4236346185 -0.4371770024 1.555462315e-39
0.3239684701 -0.3492752016 0.05004129186 3.293520826e-39
0.2396433204 -0.369145602 -0.4327340424 2.836137007e-39
0.4123392999 -0.3543220758 -0.3309873939 3.202044062e-39
0.2494829446 -0.4860297143 -0.1874567568 9.183409486e-41
0.4733068645 -0.486284703 -0.1001717597 9.183409486e-41
0.1645012945 -0.3660147786 0.260363698 2.927613771e-39
-0.1247893572 -0.4535925686 -0.1465631127 9.151249686e-40
-0.03823579848 -0.4858477414 0.04969395697 1.833108586e-40
-0.09134458005 -0.412215054 -0.4354368448 1.829892606e-39
0.03954791278 -0.2483336627 -0.4375243485 5.671916684e-39
-0.1252253205 -0.2115055174 -0.08798024058 6.586684321e-39
-0.01720055565 -0.3773258924 -0.4147237837 2.65318348e-39
0.04474106431 -0.4759580195 -0.1311651021 3.662643861e-40
0.2736514211 -0.3612929881 -0.3961168826 3.019090535e-39
-0.1500550956 -0.4850691557 0.1498406827 1.833108586e-40
-0.02181290835 -0.3469479382 0.1840383261 3.38499759e-39
-0.1415185779 -0.3294853568 0.2917998731 3.842381409e-39
0.1329123378 -0.4658659995 -0.3676800728 6.406946774e-40
-0.08927544951 -0.4853818715 -0.312507987 1.833108586e-40
0.2367606163 -0.2367295623 0.200113073 5.946346975e-39
-0.05194765329 -0.3004357219 -0.0123475343 4.482718755e-39
0.3736731112 -0.1997784674 -0.3748721778 6.861114612e-39
-0.07629943639 -0.2505331635 -0.3200343251 5.671916684e-39
0.4492948949 -0.4242947102 -0.1748607159 1.555462315e-39
0.09926175326 -0.3368228674 -0.2499627471 3.659427881e-39
-0.0758458972 -0.4117374122 0.2250078022 1.92136937e-39
0.3901860714 -0.3637515604 -0.4390493333 3.019090535e-39
0.09920348227 -0.3869963288 0.08754747361 2.470229952e-39
0.3493233919 -0.3278690875 -0.2423964292 3.842381409e-39
0.1493338943 -0.4857627451 0.37521559 1.833108586e-40
0.3241244555 -0.4369016588 0.1627590358 1.281032024e-39
0.05247809365 -0.3523191512 0.3675885499 3.293520826e-39
0.1310560554 -0.2410360277 -0.4282949269 5.854870211e-39
-0.1628498584 -0.4857471287 -0.1499379277 1.833108586e-40
-0.1028994471 -0.3519434929 -0.2632199228 3.293520826e-39
0.1024508476 -0.4589108527 -0.4204285145 7.321714411e-40
0.09928837419 -0.4864247441 0.2500262856 9.183409486e-41
-0.1631888598 -0.2619588971 0.08759783208 5.397486392e-39
0.2116951346 -0.4862378836 -0.08718568832 9.183409486e-41
0.274097383 -0.3118258417 0.0628856495 4.208288464e-39
0.0370785445 -0.2946759462 0.2428259403 4.574195519e-39
-0.06613696367 -0.3771569431 0.3911011815 2.65318348e-39
0.1492467672 -0.4548278153 -0.4158306122 8.236482049e-40
-0.1617705673 -0.473295033 0.0003556785523 4.577411499e-40
-0.1332128644 -0.2625694573 0.3652261794 5.397486392e-39
0.1427106708 -0.4131072164 -0.4300971329 1.829892606e-39
0.1312278956 -0.3278751373 -0.4264279902 3.842381409e-39
-0.1375033259 -0.3414796293 -0.05703452975 3.476474354e-39
-0.08814848959 -0.4861190021 0.3249088228 9.183409486e-41
0.06180818379 -0.4865543842 0.02499274723 9.183409486e-41
-0.1631524414 -0.287016362 -0.2374791503 4.757149046e-39
0.3743735254 -0.3994444311 0.08751364797 2.195799661e-39
-0.1610888988 -0.2085150033 -0.3758265376 6.678161085e-39
0.2996144593 -0.1992360055 -0.4249561727 6.861114612e-39
-0.1629335433 -0.3368475735 0.1750804037 3.659427881e-39
0.02415220067 -0.3355466723 -0.4388223886 3.659427881e-39
-0.1109672338 -0.4228656292 -0.2901853919 1.646939079e-39
0.1014418229 -0.466956377 0.322390914 5.492179136e-40
-0.1606391072 -0.3372552991 0.462174356 3.659427881e-39
0.01761740819 -0.334621191 -0.3263254166 3.659427881e-39
-0.1178305969 -0.4509238601 0.2955791354 9.151249686e-40
0.3360878825 -0.4866446555 -0.1372999102 9.183409486e-41
-0.01724813506 -0.4070744514 -0.4379188716 2.012846134e-39
-0.161489889 -0.3255123794 -0.3999748826 3.933858172e-39
0.2318506688 -0.4673244655 -0.4264682829 5.492179136e-40
0.2114603072 -0.486505419 0.1131102145 9.183409486e-41
-0.1030977815 -0.4362530708 -0.02350925282 1.281032024e-39
-0.00677601248 -0.3963214159 0.276216805 2.195799661e-39
0.317966789 -0.3963766694 -0.4144533277 2.195799661e-39
0.4358083904 -0.2876245379 -0.2127319574 4.757149046e-39
0.01550805569 -0.4858090281 -0.119754158 1.833108586e-40
0.411862433 -0.4863186777 -0.06270148605 9.183409486e-41
0.3366688788 -0.2872989178 -0.4367928505 4.757149046e-39
-0.1316430122 -0.4373691082 0.2917601168 1.281032024e-39
-0.1416267902 -0.3883450925 -0.14126046 2.378753189e-39
0.1382950842 -0.3395014405 0.2756825984 3.567951117e-39
-0.1630906314 -0.2495053709 -0.1128527224 5.671916684e-39
-0.1417727172 -0.2581664622 0.2008531988 5.488963156e-39
0.185240075 -0.3975169361 0.1068582386 2.195799661e-39
-0.07565434277 -0.2127159387 -0.4351765215 6.495207557e-39
0.4612125754 -0.4865096509 -0.2251262963 9.183409486e-41
0.3119899631 -0.3499103487 -0.2875189781 3.293520826e-39
-0.0255684983 -0.2996605337 0.3000679612 4.482718755e-39
0.01175674703 -0.4860479534 0.3249047399 9.183409486e-41
-0.15968512 -0.3873274326 0.361846 2.470229952e-39
-0.1083641723 -0.2535949945 -0.02371425182 5.58043992e-39
0.2240814269 -0.4854687452 5.290180707e-05 1.833108586e-40
-0.1626194119 -0.4363947213 0.0751997456 1.281032024e-39
-0.05796287209 -0.3571697772 -0.4328608215 3.110567299e-39
0.180628404 -0.2358560711 -0.4347054362 6.037823739e-39
0.1734137088 -0.3423365653 -0.4524202645 3.476474354e-39
-0.1617937088 -0.2133217305 -0.2502365708 6.495207557e-39
-0.07580792904 -0.4808757305 0.1855641752 2.747876224e-40
0.4602141976 -0.4734353423 -0.425065577 4.577411499e-40
0.0928607136 -0.2881474793 0.2229285538 4.757149046e-39
0.1041933 -0.4362815619 0.2308802456 1.281032024e-39
-0.03827751428 -0.3247001767 -0.4174954295 3.933858172e-39
-0.1418385804 -0.4588526785 -0.352974385 7.321714411e-40
0.1495888978 -0.4731547236 -0.4367154241 4.577411499e-40
0.1592259854 -0.3871335387 0.3005270958 2.470229952e-39
0.1719916612 -0.3300576508 -0.3508270383 3.750904645e-39
0.3368138969 -0.4865334332 0.1249796003 9.183409486e-41
0.01182334125 -0.4613867402 -0.4374488592 7.321714411e-40
0.4618359208 -0.3619988561 -0.237505585 3.019090535e-39
0.02436674945 -0.299546212 -0.2375121266 4.482718755e-39
-0.05076428503 -0.3744896054 0.01249462925 2.744660244e-39
-0.09311424196 -0.3823190928 -0.3346784413 2.561706716e-39
0.1367938966 -0.485747844 0.1750582606 1.833108586e-40
-0.163326025 -0.2743428946 0.2877722085 5.123056101e-39
-0.1628323644 -0.423606962 0.4375554025 1.555462315e-39
0.3978834748 -0.2279273123 -0.4147256613 6.220777266e-39
0.2100321651 -0.4450598359 -0.342725426 1.098078496e-39
0.312345773 -0.2997046113 0.1126093268 4.482718755e-39
0.4609894156 -0.3503089845 -0.4001116455 3.293520826e-39
0.1651381552 -0.4718826413 -0.04952286556 4.577411499e-40
-0.1015363634 -0.2649626136 0.2048929185 5.306009629e-39
-0.1361239702 -0.4862844944 -0.4123400152 9.183409486e-41
-0.1152635962 -0.3974193931 0.1897299886 2.195799661e-39
0.0959739536 -0.2432474345 -0.4355047941 5.854870211e-39
0.07501187921 -0.3767881393 0.1589508057 2.65318348e-39
-0.07507943362 -0.4049935341 0.3408593833 2.012846134e-39
-0.1426687539 -0.4412027597 -0.05409500003 1.18955526e-39
0.01160547417 -0.4861575067 -0.07501579821 9.183409486e-41
-0.1632917821 -0.3740085661 -0.2125121355 2.744660244e-39
-0.06309131533 -0.3996857703 0.4875580072 2.195799661e-39
0.08687637001 -0.2997101247 0.3251597285 4.482718755e-39
0.07449235022 -0.4860554636 0.3626093566 9.183409486e-41
0.365829885 -0.327455163 -0.3673160374 3.842381409e-39
-0.03835902363 -0.2619597912 0.0001243812731 5.397486392e-39
-0.1621804684 -0.3992410004 0.2126329243 2.195799661e-39
0.01073436439 -0.2414209843 -0.4108332098 5.854870211e-39
0.4732665122 -0.4860498309 -0.1749189198 9.183409486e-41
-0.1303077042 -0.22937271 -0.3976001441 6.129300502e-39
0.3826833665 -0.4022139311 -0.4423782229 2.104322897e-39
-0.1377779692 -0.484906733 0.3737751544 1.833108586e-40
-0.1352041662 -0.2953162491 -0.1743608564 4.574195519e-39
0.135429427 -0.4735170901 -0.3212189376 4.577411499e-40
0.2745678127 -0.4112340808 -0.4371946752 1.92136937e-39
0.2606934011 -0.4367994666 0.06201528385 1.281032024e-39
-0.05307673663 -0.4632956088 -0.1819633543 6.406946774e-40
-0.00442674011 -0.3316841722 -0.3950600028 3.750904645e-39
-0.1505645663 -0.3244430721 0.06271892786 3.933858172e-39
0.423784554 -0.486348331 -0.3375529647 9.183409486e-41
-0.1620781571 -0.3996084332 -0.4247192144 2.195799661e-39
0.2348701805 -0.3164470196 -0.4431777 4.1168117e-39
-0.1369842291 -0.4578046501 -0.14321132 8.236482049e-40
0.1244531423 -0.4866886437 0.04996138439 9.183409486e-41
0.09894905984 -0.2368277907 0.1996009946 5.946346975e-39
0.1159201413 -0.4226988256 -0.4373972714 1.646939079e-39
0.4130611718 -0.2980215847 -0.4358877838 4.574195519e-39
0.3744979799 -0.3491280973 -0.1875253916 3.38499759e-39
-0.1630857885 -0.2491871715 0.4124234319 5.671916684e-39
0.02443146706 -0.3495654464 0.09996508062 3.293520826e-39
0.1683649868 -0.4775577486 -0.1779641062 3.662643861e-40
0.2370961308 -0.3495385945 -0.2999269664 3.293520826e-39
0.2618733644 -0.4860322773 0.2125069648 9.183409486e-41
0.2867258191 -0.4863606393 -0.3250076473 9.183409486e-41
-0.1239254028 -0.478800863 0.05965832621 2.747876224e-40
-0.162953645 -0.2248269618 -0.3125331402 6.220777266e-39
0.2743382752 -0.2995637357 0.1750478894 4.482718755e-39
-0.06219727546 -0.362172693 0.1926376373 3.019090535e-39
0.349216193 -0.4863887429 -0.2000569403 9.183409486e-41
-0.1417359561 -0.3816973865 -0.1010724083 2.561706716e-39
0.02419283986 -0.485915333 -0.3124324679 1.833108586e-40
-0.08175475895 -0.3320558369 0.4036211371 3.750904645e-39
-0.07580019534 -0.2867087126 -0.4369835258 4.84862581e-39
0.1156238317 -0.3421662152 -0.45305866 3.476474354e-39
0.06217136234 -0.4863345027 0.2499949634 9.183409486e-41
0.3284739256 -0.4818246663 -0.1980534941 2.747876224e-40
0.2370457202 -0.1997307986 -0.3871281743 6.861114612e-39
-0.1421709955 -0.436016649 0.1970629394 1.281032024e-39
0.3355119824 -0.3654235601 0.08852207661 2.927613771e-39
-0.1632951796 -0.3244049549 -0.3124928176 3.933858172e-39
-0.06317634135 -0.4857946038 -0.3999756575 1.833108586e-40
-0.02579273097 -0.4859935939 0.3751691282 9.183409486e-41
0.1741338372 -0.3992922604 0.1750625372 2.195799661e-39
0.3277884126 -0.2270288765 -0.4082348645 6.220777266e-39
-0.1477337331 -0.2689825892 0.1534115523 5.214532865e-39
0.14927122 -0.3491258621 -0.274944514 3.38499759e-39
0.1367047578 -0.3120937943 0.324996978 4.208288464e-39
-0.08811797947 -0.4365003705 -0.2624651194 1.281032024e-39
-0.07789665461 -0.2749069631 -0.3395351171 5.123056101e-39
-0.1112381816 -0.4796624184 -0.06917629391 2.747876224e-40
0.4492185712 -0.3245787919 -0.2874639928 3.933858172e-39
-0.08811394125 -0.486063391 0.2374907583 9.183409486e-41
-0.05065694079 -0.2997551858 0.2627880573 4.482718755e-39
0.03667899221 -0.486422807 0.03765180707 9.183409486e-41
0.1832889318 -0.4898724556 -0.2415311486 9.183409486e-41
0.1863378435 -0.4860339463 0.2876194119 9.183409486e-41
0.1904660463 -0.4336787164 -0.4299767613 1.372508787e-39
0.1794494689 -0.3122813404 0.2473187894 4.208288464e-39
0.0249194093 -0.2949771881 -0.4391548634 4.574195519e-39
-0.162239179 -0.249807924 -0.1252647787 5.671916684e-39
0.2775846422 -0.4766750336 -0.06467217952 3.662643861e-40
0.06190181524 -0.4241829216 0.3252428472 1.555462315e-39
0.2616763413 -0.3245994151 0.06255038828 3.933858172e-39
-0.1614480913 -0.2545313239 0.33702299 5.58043992e-39
-0.1427835524 -0.3817286193 -0.0005509369075 2.561706716e-39
-0.1253858507 -0.3992569447 0.4874864221 2.195799661e-39
0.4484751523 -0.486150682 -0.2874736786 9.183409486e-41
0.3867013752 -0.4373409152 0.0751067847 1.281032024e-39
0.4739269018 -0.3994919956 -0.4374521673 2.195799661e-39
0.07432860881 -0.4612910748 -0.437114507 7.321714411e-40
-0.1341147423 -0.3104662895 -0.4210904241 4.208288464e-39
0.3868541121 -0.2868239582 -0.2127226442 4.757149046e-39
0.03495082632 -0.3160307407 -0.2379593402 4.1168117e-39
0.3116056621 -0.3368006945 -0.3751064539 3.659427881e-39
0.08594392985 -0.4762806594 -0.0644049421 3.662643861e-40
-0.1007929742 -0.2245874107 -0.03749671578 6.220777266e-39
-0.01818871126 -0.2573184073 0.2008720487 5.488963156e-39
-0.1632167846 -0.2127411664 -0.2125518769 6.495207557e-39
-0.1607619971 -0.4609095454 0.3479350209 7.321714411e-40
0.06019731984 -0.4012545347 0.2074290216 2.104322897e-39
0.1892072409 -0.4823607802 0.02740104869 1.833108586e-40
-0.1631887108 -0.3245922625 0.1632484198 3.933858172e-39
0.2993575931 -0.4860309064 -0.4375092685 9.183409486e-41
-0.0381471999 -0.4865437448 -0.1625267863 9.183409486e-41
0.1495384276 -0.2624365985 -0.4373494685 5.397486392e-39
0.4616810679 -0.2496752888 -0.4372583926 5.671916684e-39
0.2992036939 -0.4742825627 0.2001020461 3.662643861e-40
-0.1499750167 -0.4860284328 -0.2499423772 9.183409486e-41
0.0642016381 -0.3634881973 -0.3766196668 3.019090535e-39
0.2585091293 -0.4842921793 -0.277174443 1.833108586e-40
0.1118339598 -0.4868452549 0.1126903892 9.183409486e-41
-0.1630651504 -0.3621708155 0.3001283705 3.019090535e-39
0.4489082098 -0.3748354614 -0.1999365836 2.744660244e-39
0.1369403005 -0.4863647223 0.3625127971 9.183409486e-41
0.03675570339 -0.4618199468 -0.2373477817 7.321714411e-40
-0.1632218808 -0.473585397 -0.362577647 4.577411499e-40
0.12854442 -0.2646056116 0.1779330671 5.306009629e-39
-0.05271355063 -0.4858873487 0.02957766876 1.833108586e-40
-0.005313172936 -0.4806530774 0.28917858 2.747876224e-40
0.3616290092 -0.4869157076 -0.1249936074 9.183409486e-41
-0.03798792139 -0.4101792276 0.3506927788 1.92136937e-39
-0.1633396596 -0.4860952795 -0.1122928187 9.183409486e-41
0.4364782572 -0.4861568511 -0.4123009145 9.183409486e-41
-0.1625501961 -0.1998858303 -0.3999848366 6.861114612e-39
-0.1429174095 -0.3289119601 -0.1273589432 3.842381409e-39
0.3492897749 -0.2993844748 -0.4373880029 4.482718755e-39
0.1617035121 -0.3868511915 0.08763165027 2.470229952e-39
-0.1096094176 -0.3217027485 0.06329078972 4.025334936e-39
0.2491903752 -0.3493515849 0.2001462579 3.293520826e-39
0.01081247814 -0.312407285 0.3093509078 4.208288464e-39
-0.03811728954 -0.4241317511 -0.436886251 1.555462315e-39
0.03919567913 -0.2104517817 -0.4259609282 6.586684321e-39
0.1742130667 -0.4118812382 -0.4373030365 1.829892606e-39
-0.1328006238 -0.4338854551 0.1234823093 1.372508787e-39
-0.08867987245 -0.3491288126 -0.2606933117 3.38499759e-39
0.2749775052 -0.336158067 -0.3000797629 3.659427881e-39
0.3748092055 -0.4858065546 0.04852117226 1.833108586e-40
0.06328754127 -0.4623606205 -0.4052619338 7.321714411e-40
0.02638027072 -0.4741620719 -0.3328118622 4.577411499e-40
0.2592455745 -0.4818934798 -0.3001083136 2.747876224e-40
-0.1161841303 -0.3265897334 0.4314914644 3.842381409e-39
0.1740280539 -0.4857289195 0.1999937445 1.833108586e-40
0.1055429578 -0.4199863076 0.3481858075 1.646939079e-39
0.3116215169 -0.2120999992 -0.4374569058 6.586684321e-39
0.01168080699 -0.3497209549 0.1251754016 3.293520826e-39
-0.150608018 -0.4862353802 0.2249405533 9.183409486e-41
-0.0506012179 -0.2624198198 0.01258607209 5.397486392e-39
0.3369382024 -0.4864549339 -0.3375091255 9.183409486e-41
-0.1630872041 -0.3992651105 -0.237435326 2.195799661e-39
0.136826098 -0.4864523709 -0.03743939102 9.183409486e-41
-0.04803165048 -0.4556531608 0.3943977654 8.236482049e-40
-0.0257467255 -0.485992372 -0.3373861611 9.183409486e-41
0.2490739822 -0.4862908721 0.1125980839 9.183409486e-41
-0.1265276372 -0.2123216689 -0.3314913511 6.586684321e-39
-0.09092300385 -0.3366154432 0.336843729 3.659427881e-39
0.1240374967 -0.1993154436 -0.3875087202 6.861114612e-39
-0.1625051796 -0.3621828854 -0.3625266254 3.019090535e-39
-0.1004227176 -0.2848679721 -0.2153985053 4.84862581e-39
0.1617378742 -0.3368733525 -0.274751544 3.659427881e-39
0.3861257136 -0.4860191345 -0.2248414606 9.183409486e-41
0.05093734711 -0.2778246403 0.2233648449 5.031579337e-39
0.3622817099 -0.4039648175 -0.4438792467 2.012846134e-39
-0.1108343154 -0.3907079399 0.01708162576 2.378753189e-39
0.04144438356 -0.3680462241 -0.4348876476 2.927613771e-39
-0.0009725394775 -0.4859864414 -0.06240003183 9.183409486e-41
0.3247816265 -0.3789832592 0.08026611805 2.65318348e-39
-0.1635407656 -0.2872076631 0.2125644088 4.757149046e-39
-0.1610980779 -0.2444169223 0.3619400859 5.763393447e-39
0.0559024252 -0.4660790265 -0.4337572753 6.406946774e-40
-0.03862120584 -0.4853238463 0.2748207748 1.833108586e-40
0.2149259597 -0.3715845346 0.1047680229 2.836137007e-39
-0.08716451377 -0.2372502983 -0.4206843376 5.946346975e-39
-0.1503773183 -0.3862139881 0.07484000176 2.470229952e-39
-0.001170250587 -0.3627054989 -0.3257840574 3.019090535e-39
0.2875370085 -0.3796139657 -0.4417230785 2.65318348e-39
-0.0503725633 -0.3988868892 0.4746175706 2.195799661e-39
0.2844307721 -0.4745837748 -0.1862277389 3.662643861e-40
0.1618010849 -0.3243395388 0.2621655762 3.933858172e-39
0.217418015 -0.4781507254 -0.4471544027 3.662643861e-40
0.4486533105 -0.3496691585 -0.2873117626 3.293520826e-39
-0.1619922966 -0.2671080232 0.1014924645 5.306009629e-39
0.473677218 -0.3371197879 -0.4371732175 3.659427881e-39
0.01199987717 -0.4863241613 0.1124577075 9.183409486e-41
0.1119438931 -0.4863045216 -0.187647447 9.183409486e-41
0.1866714358 -0.2994115353 -0.4367018938 4.482718755e-39
-0.08913851529 -0.4091350436 -0.4339384437 1.92136937e-39
-0.1628684103 -0.3743027151 0.3746332526 2.744660244e-39
0.006755493581 -0.4084822536 0.2656657696 1.92136937e-39
-0.1422428042 -0.3195434213 0.02708426863 4.025334936e-39
-0.1587985903 -0.3271565735 -0.07334149629 3.842381409e-39
0.4358102977 -0.1997232735 -0.4124017656 6.861114612e-39
0.1317783296 -0.472743839 0.06722530723 4.577411499e-40
0.1000073925 -0.3991492093 0.08700998127 2.195799661e-39
0.3082317114 -0.3671479523 -0.4029734731 2.927613771e-39
-0.06952976435 -0.2975676954 -0.3967165053 4.574195519e-39
0.1157437414 -0.4466814399 -0.3432860374 1.098078496e-39
-0.09385624528 -0.3907402158 0.2160687894 2.378753189e-39
-0.1620277762 -0.4735697508 -0.1878037453 4.577411499e-40
-0.07452938706 -0.2767986953 0.2045692205 5.031579337e-39
0.1993385106 -0.4862319529 0.2749616504 9.183409486e-41
0.2118740082 -0.1997285485 -0.3873938918 6.861114612e-39
0.372954607 -0.3009697795 -0.1999598294 4.482718755e-39
0.4492225349 -0.4866192639 -0.2749798298 9.183409486e-41
-0.03628286719 -0.4790064692 -0.2390891612 2.747876224e-40
0.2494339347 -0.486608237 -0.0250287056 9.183409486e-41
0.1743298024 -0.2247704566 0.2001173496 6.220777266e-39
0.1368752122 -0.4860796332 -0.3500076532 9.183409486e-41
0.2992498279 -0.412044853 0.1875935346 1.829892606e-39
-0.1132918149 -0.4859096706 0.3876574934 1.833108586e-40
0.07803527266 -0.2747375369 -0.4264086485 5.123056101e-39
0.1891746819 -0.3286854029 -0.3840729296 3.842381409e-39
0.3741802275 -0.4859213829 -0.4246988893 1.833108586e-40
0.08660127968 -0.4859595597 0.2874389291 1.833108586e-40
-0.1411550194 -0.2530540824 -0.1420909464 5.58043992e-39
0.1220489591 -0.3688702881 0.3514913917 2.836137007e-39
-0.1619976014 -0.2865304947 -0.3002776504 4.84862581e-39
-0.1108266711 -0.2920041978 0.3955738246 4.665672282e-39
-0.1312164366 -0.3642859459 0.2240181863 3.019090535e-39
-0.03548783809 -0.4441733062 -0.1284520477 1.098078496e-39
-0.1625697017 -0.3737128377 0.2376567721 2.744660244e-39
0.3343625665 -0.201628089 -0.3871431053 6.769637849e-39
0.06207072735 -0.334821403 -0.2632515132 3.659427881e-39
0.4733337164 -0.4861330688 -0.1624354571 9.183409486e-41
