# .PCD v0.7 - Point Cloud Data file format
VERSION 0.7
FIELDS x y z rgb
SIZE 4 4 4 4
TYPE F F F F
COUNT 1 1 1 1
WIDTH 832
HEIGHT 1
VIEWPOINT 0 0 0 1 0 0 0
POINTS 832
DATA ascii
0.04828440398 -0.160758689 0.3119933009 7.958835777e-39
-0.1394919455 0.05124064907 0.3129695058 1.299005778e-38
0.171759218 -0.4369076192 0.2857001126 1.555462315e-39
-0.2063680291 -0.3547840714 -0.2259344161 3.476474354e-39
-0.2717713416 -0.4128431082 -0.1467593908 2.104322897e-39
0.1223896742 -0.2391624004 0.0389027074 6.129300502e-39
-0.3062576354 -0.3082129955 0.2895400524 4.574195519e-39
-0.3212554753 -0.1177422106 -0.01466352772 8.965080179e-39
0.2833966911 -0.3328192234 -0.2327255011 3.933858172e-39
-0.04743019491 0.06935401261 -0.08856359869 1.335596484e-38
0.0980104357 -0.4891136289 -0.1832055748 2.747876224e-40
-0.1599672884 -0.4216946363 -0.06725215912 1.92136937e-39
-0.08509461582 -0.283018291 0.3049997389 5.123056101e-39
0.1744401604 -0.001768553862 -0.2730568945 1.170938309e-38
-0.24573493 -0.4844594598 0.2002782226 4.577411499e-40
-0.0656613335 -0.03096048534 -0.2776281834 1.106904574e-38
-0.3376609385 -0.194342047 -0.2722313106 7.227021667e-39
-0.3210062981 0.05472737551 -0.1792889982 1.308153455e-38
-0.2126773149 -0.1244366243 -0.2692654729 8.873603415e-39
0.2138182521 -0.1019781381 0.2741684616 9.330987234e-39
-0.1272213459 -0.4892981052 0.09207457304 2.747876224e-40
0.1332064569 -0.4098463356 -0.2652315497 2.195799661e-39
0.2493929267 -0.1780876815 -0.2717292607 7.592928722e-39
0.2345300764 -0.4763595164 -0.001679567154 6.406946774e-40
-0.2036652714 -0.4876488149 -0.2022467703 3.662643861e-40
-0.1853045076 -0.4847098291 0.1552841663 3.662643861e-40
-0.1504050642 0.06883625686 0.1817457378 1.335596484e-38
-0.3187870085 -0.4716250598 0.2753461003 7.321714411e-40
0.3864296973 -0.4136495888 -0.1291487664 2.104322897e-39
-0.2691465318 0.06550574303 0.2956689298 1.326448808e-38
0.3425093591 -0.3555907309 0.2829536498 3.476474354e-39
-0.08867388219 0.07110136747 0.0504257232 1.34474416e-38
-0.3205655217 0.0573489815 0.1898863614 1.308153455e-38
0.1228324771 -0.3878407478 0.2943682671 2.65318348e-39
-0.002219752409 -0.4136776924 0.0995291993 2.104322897e-39
-0.3295623362 -0.2859108746 0.1955190301 5.031579337e-39
0.09462185204 -0.07437904924 0.3014658093 1.006280134e-38
-0.06395679712 -0.3926202059 -0.2729406953 2.561706716e-39
-0.2860210836 -0.4878053665 -0.1186004356 3.662643861e-40
-0.007291873917 -0.481726408 0.2805485725 4.577411499e-40
0.04636145756 -0.2249085307 -0.2812114656 6.495207557e-39
0.005674103275 -0.2869901657 0.2890981436 5.031579337e-39
-0.05293632299 -0.4900174737 -0.1996008605 2.747876224e-40
-0.3158061802 -0.4155688584 0.06127339229 2.012846134e-39
-0.3122819662 -0.05234460533 -0.2496132851 1.052018516e-38
-0.2340025008 -0.4035978615 0.2460526079 2.287276425e-39
-0.2393848002 -0.3667849302 0.0912970975 3.202044062e-39
0.07356117666 -0.01342366543 0.009855514392 1.14349528e-38
0.1559195071 -0.4904948175 0.06891592592 2.747876224e-40
-0.03994650766 0.06996592879 -0.1960222274 1.335596484e-38
-0.3375231028 -0.4272979498 0.0154720163 1.738415842e-39
0.3059854209 -0.3987080157 -0.06270939857 2.378753189e-39
-0.001243237872 -0.4145750403 -0.05042426661 2.012846134e-39
-0.3090921044 -0.02087842114 -0.07273570448 1.125199927e-38
-0.2735791504 -0.1890406311 0.2911278605 7.318498431e-39
-0.2526174486 -0.3495937586 0.3099306524 3.567951117e-39
-0.2592326701 0.05523666367 0.04635867849 1.308153455e-38
-0.05407425761 -0.4853244126 0.1741173565 3.662643861e-40
-0.112729229 0.07070954889 -0.2748211026 1.34474416e-38
-0.3042988777 -0.4885814786 0.1561547667 2.747876224e-40
0.1103054434 -0.4889625311 0.2112731934 2.747876224e-40
-0.2006213069 -0.3923744857 -0.2716760039 2.561706716e-39
-0.3001026213 -0.3994742036 -0.1515232474 2.378753189e-39
-0.1581141949 -0.4917033017 -0.1128346175 2.747876224e-40
0.1807429343 -0.4454517365 -0.07140585035 1.372508787e-39
0.1617659628 -0.4877881706 -0.2600464225 3.662643861e-40
-0.02838578261 -0.01937164553 0.2749413252 1.134347604e-38
-0.3034623563 -0.479228884 -0.2069015503 5.492179136e-40
0.03211788461 -0.05881444365 -0.2908544242 1.04287084e-38
-0.2374363691 -0.2152423859 -0.271699667 6.678161085e-39
0.3087723553 -0.4718432426 -0.1882186532 7.321714411e-40
-0.08403981477 -0.2265676856 -0.2756118476 6.495207557e-39
-0.3375725746 -0.06548517942 0.2014057338 1.024575487e-38
-0.2000344545 0.07246652991 -0.08633375913 1.34474416e-38
-0.2141011804 0.07314568758 0.2024312317 1.34474416e-38
-0.05259129778 -0.150688991 0.3092547655 8.233266069e-39
-0.005939776078 -0.4942108989 -0.02826737985 1.833108586e-40
0.2313721478 -0.4219733775 0.07510149479 1.92136937e-39
0.3827878237 -0.2375309318 0.2829209566 6.220777266e-39
0.1210045442 -0.371676892 -0.260749042 3.019090535e-39
0.07637263834 -0.3526985347 -0.2630266249 3.476474354e-39
-0.3213538826 -0.1541175693 -0.1469054371 8.141789305e-39
-0.3243878484 0.06717320532 -0.2554173172 1.335596484e-38
0.02489284053 -0.4880573452 -0.2202308327 3.662643861e-40
-0.3193539977 -0.02444338799 0.08084587008 1.116052251e-38
0.2006682456 -0.3843533397 -0.1999019682 2.744660244e-39
-0.3039356768 -0.4756357968 0.08563996106 6.406946774e-40
-0.1896664798 -0.4888994098 0.1017593592 2.747876224e-40
0.1226301044 -0.3140932024 0.02486835793 4.391241991e-39
-0.1870591342 -0.3850988448 -0.07163740695 2.744660244e-39
0.03226425871 -0.3508475721 0.3136930764 3.567951117e-39
-0.2362499386 -0.4913628399 0.01491838694 2.747876224e-40
-0.3272055089 0.0370307453 0.3105955422 1.262415073e-38
0.165162459 -0.1079741195 -0.2579573989 9.23951047e-39
0.2736583054 -0.4497454464 -0.2620197833 1.18955526e-39
-0.3275796473 -0.4860735834 -0.2125132829 3.662643861e-40
-0.1280423403 -0.4867310226 0.2976031303 3.662643861e-40
-0.1255587488 -0.4318932891 -0.1759452969 1.646939079e-39
-0.31066975 -0.1140531003 -0.2425849587 9.056556942e-39
-0.2668766975 -0.411347121 0.2102826685 2.104322897e-39
-0.3371935785 -0.2420257777 -0.196926862 6.129300502e-39
-0.3421907723 -0.2832897902 -0.01139291003 5.123056101e-39
-0.3390042186 -0.1633014232 0.3098027408 7.958835777e-39
0.1475937068 -0.4930017292 -0.0686147213 1.833108586e-40
-0.05583690107 -0.09642487019 -0.2781569958 9.513940761e-39
-0.1891824156 -0.2628932893 0.3101458251 5.58043992e-39
0.1247067079 0.008452040143 -0.2718321085 1.198381338e-38
-0.2737702131 -0.01972397044 0.2424667627 1.134347604e-38
-0.1755834669 0.08709737659 0.06629928946 1.381334866e-38
0.1375099719 -0.4131059051 0.09645026177 2.104322897e-39
-0.243207112 0.0006216010079 -0.2380729914 1.180085986e-38
0.1601800919 -0.04954201356 0.2842026055 1.061166193e-38
-0.3124727607 0.04402846843 -0.07581815124 1.280710426e-38
0.3963586092 -0.3617120683 -0.1004381627 3.293520826e-39
-0.05095561966 -0.285479337 -0.2576355338 5.031579337e-39
-0.1803576201 -0.4876326621 -0.03091230989 3.662643861e-40
0.2966475189 -0.3164355159 -0.2243566811 4.391241991e-39
-0.320135206 -0.4793062508 0.1001095623 5.492179136e-40
-0.2311139405 -0.4838727117 -0.2448987514 4.577411499e-40
-0.000935383141 -0.1283128858 0.2768300772 8.782126651e-39
0.07967881858 -0.4231772721 -0.012009372 1.829892606e-39
-0.2062525451 -0.4905986488 -0.1105289087 2.747876224e-40
-0.1681205183 0.05150861666 -0.06025888026 1.299005778e-38
-0.2777775526 -0.4867314994 0.2731637657 3.662643861e-40
-0.3029606342 -0.1906147003 0.1766310781 7.318498431e-39
-0.1851074398 -0.4797462821 -0.2025731504 5.492179136e-40
-0.3084913194 -0.4854934216 -0.06118217111 3.662643861e-40
-0.3269076347 -0.1549669057 -0.04798928648 8.141789305e-39
-0.309448421 -0.339422673 -0.2523466647 3.842381409e-39
0.07560785115 -0.4895738661 0.2568736076 2.747876224e-40
0.1054592207 -0.03625941277 0.02822242118 1.088609222e-38
-0.2018878609 0.07314455509 -0.1647079438 1.34474416e-38
-0.04581138492 -0.4417364597 -0.2373809963 1.372508787e-39
-0.1415678859 -0.3628760576 0.3092398345 3.293520826e-39
-0.1828762591 -0.1628601402 -0.2552026808 7.958835777e-39
0.2080848813 -0.133110702 0.2883943319 8.599173124e-39
-0.1518621892 0.05257730931 0.2819669247 1.299005778e-38
-0.03015422449 -0.488794446 0.03165174276 2.747876224e-40
-0.3221440613 -0.3485077024 0.141961962 3.567951117e-39
0.02839104831 -0.004733876791 0.2959345579 1.161790633e-38
0.2102820724 -0.3622058928 -0.0870577246 3.293520826e-39
0.3464039564 -0.3541511893 0.2796916068 3.476474354e-39
-0.154920429 -0.4847115278 -0.2256980836 3.662643861e-40
0.2595382035 -0.487377733 -0.151174441 3.662643861e-40
0.0868749544 -0.4899494052 0.1214722916 2.747876224e-40
-0.1842561513 -0.4896330237 0.1017616689 2.747876224e-40
-0.3372399807 0.0575671047 0.1517613083 1.308153455e-38
-0.01895194501 0.06468914449 -0.2533884346 1.326448808e-38
-0.217137754 -0.1955378652 0.2760031521 7.227021667e-39
-0.3339917958 -0.3717202544 0.275015384 3.019090535e-39
0.03760296479 -0.3904531002 -0.2707599401 2.65318348e-39
0.0840806663 -0.4861403704 -0.1260759681 3.662643861e-40
0.2358745337 -0.2402144969 -0.2759714425 6.129300502e-39
-0.2498793751 0.06970437616 -0.2700225413 1.335596484e-38
-0.04927315935 -0.2364327013 0.2803532779 6.220777266e-39
0.2095386982 -0.06524774432 -0.2739377022 1.024575487e-38
-0.01537953876 -0.4113726318 0.3096939623 2.104322897e-39
-0.3396488428 -0.1895973235 0.0781121403 7.318498431e-39
-0.3380933106 -0.4027840197 -0.1738729179 2.287276425e-39
0.1656163931 -0.4412217736 0.2737294436 1.463985551e-39
-0.3244093359 -0.05300899968 0.03839963302 1.052018516e-38
-0.2491943985 -0.4799411595 0.05484285206 5.492179136e-40
-0.1023695692 -0.05087829381 0.3091761768 1.061166193e-38
-0.312482357 -0.492680192 -0.0816526264 1.833108586e-40
0.1351786107 -0.2649357319 0.06362813711 5.58043992e-39
-0.07514355332 -0.4845884442 0.1293196231 4.577411499e-40
0.1985118389 -0.4022917747 -0.2717772722 2.378753189e-39
-0.1619867831 -0.02171103843 -0.2597857416 1.125199927e-38
-0.06679521501 0.08676110953 -0.147669062 1.381334866e-38
-0.104224965 -0.4854624867 -0.09644003958 3.662643861e-40
0.2422808111 -0.4229012132 0.01012307592 1.829892606e-39
-0.3016972542 -0.2839761078 -0.0750349611 5.123056101e-39
-0.2997585237 -0.02667914331 -0.1467140764 1.116052251e-38
-0.2530808747 0.06401459128 0.1378439963 1.326448808e-38
-0.2696304321 -0.4086023271 -0.2276403308 2.195799661e-39
-0.2605182827 -0.4839626253 0.06688141823 4.577411499e-40
-0.2518697977 0.07244859636 0.311585933 1.34474416e-38
-0.1185689867 0.05461268499 0.02311822213 1.308153455e-38
-0.06016183272 -0.343990922 0.2811462283 3.659427881e-39
0.1716163754 -0.4728690684 0.1379540414 7.321714411e-40
0.1364709884 -0.3230559826 -0.2640942931 4.208288464e-39
0.2079976499 -0.48850739 -0.2268242538 3.662643861e-40
-0.3019610047 -0.07867270708 0.3136640489 9.879847816e-39
0.05528117716 -0.1862469167 0.298812598 7.409975195e-39
-0.3238484859 0.06137660518 0.04180957004 1.317301131e-38
0.3240703046 -0.3634005189 -0.2067899108 3.293520826e-39
-0.2141374499 -0.4145826995 0.310411036 2.012846134e-39
-0.0638102144 -0.4887106419 0.2728311419 2.747876224e-40
-0.08902652562 0.07182022184 -0.2716452479 1.34474416e-38
-0.3027854562 -0.2838476896 0.2929748595 5.123056101e-39
-0.2379197478 -0.3665423095 -0.1100456193 3.202044062e-39
-0.3294024467 -0.4022742808 0.07910460979 2.378753189e-39
0.1360817105 -0.1878180653 -0.2692382038 7.318498431e-39
-0.224879086 -0.3792331517 -0.2687394619 2.836137007e-39
0.1462399065 -0.02474770881 -0.002322547603 1.116052251e-38
-0.2971441746 -0.4469187856 0.1772059351 1.281032024e-39
-0.2757788897 0.06952643394 -0.07898651063 1.335596484e-38
-0.02862880193 -0.1252214462 -0.279381156 8.873603415e-39
0.06708348542 -0.4925275147 -0.05908545479 1.833108586e-40
0.3624677956 -0.2761628628 0.273882091 5.306009629e-39
0.1251228005 -0.3955529034 0.3022554219 2.470229952e-39
-0.3367757797 -0.04327641428 -0.2568793595 1.070313869e-38
0.07296010852 -0.4760227203 -0.2735002637 6.406946774e-40
-0.3087059855 -0.04866308346 0.1376216859 1.061166193e-38
0.00856728293 -0.3176808357 -0.2612956762 4.299765227e-39
-0.3194162846 -0.4566217959 0.2766054869 1.098078496e-39
-0.154291153 -0.4857532978 -0.04491945356 3.662643861e-40
-0.130051747 -0.3848813176 -0.2345650792 2.744660244e-39
0.2364847064 -0.1936182082 -0.271012336 7.227021667e-39
-0.3293400705 -0.1267412901 -0.07167648524 8.782126651e-39
0.221879676 -0.4856589437 -0.06314290315 3.662643861e-40
0.06001804769 -0.4125058353 0.09906053543 2.104322897e-39
0.2563845515 -0.3682090342 -0.1485770047 3.110567299e-39
0.06584801525 -0.06541435421 -0.2673040628 1.024575487e-38
-0.1668018103 -0.3973751068 0.191816926 2.470229952e-39
-0.02855505049 0.01316411607 0.3098252118 1.207529015e-38
-0.1534702629 -0.1906248629 -0.2698640823 7.318498431e-39
-0.1790185869 0.08426440507 0.1948012114 1.372187189e-38
-0.2235194892 -0.1210835725 0.3077566922 8.965080179e-39
-0.1471871287 -0.4841501713 -0.1376901716 4.577411499e-40
-0.2717294693 -0.4816384315 -0.1889975369 4.577411499e-40
0.3782349527 -0.4147564471 -0.1059191599 2.012846134e-39
-0.3068066239 -0.4658151865 0.1720853746 8.236482049e-40
-0.2842041254 0.06715089828 -0.1906164885 1.335596484e-38
0.0324417986 -0.2729588747 0.2868790627 5.397486392e-39
-0.3392625153 0.0008489729371 0.2877855003 1.180085986e-38
0.2447489053 -0.3553662598 -0.2697536647 3.476474354e-39
-0.2960478663 -0.4846774936 -0.2268238962 3.662643861e-40
-0.2588519454 -0.4891552031 0.1355708688 2.747876224e-40
0.2461548597 -0.4359103739 0.08818696439 1.555462315e-39
-0.1284312159 -0.2514671087 0.3102860153 5.854870211e-39
-0.3269107044 -0.2147802562 -0.1436840892 6.769637849e-39
0.1523682028 -0.4895075858 -0.1911494285 2.747876224e-40
-0.1623880416 0.08913706988 -0.1202313229 1.381334866e-38
0.09754893184 -0.02568114176 0.3116888702 1.116052251e-38
-0.1307084858 -0.4861195087 0.002293899655 3.662643861e-40
-0.2498079836 -0.4944656789 -0.04246338457 1.833108586e-40
-0.2812819183 -0.2424790412 -0.2311343849 6.037823739e-39
0.09489274025 -0.4870535433 0.03317686543 3.662643861e-40
-0.312417984 0.0634053126 -0.2521508932 1.326448808e-38
-0.3217204511 -0.2519412637 0.05355143547 5.854870211e-39
-0.3193157017 -0.4000731707 0.1949605495 2.378753189e-39
-0.2409190983 0.06906720251 0.01730906591 1.335596484e-38
-0.1771253496 0.001134356484 0.3085650802 1.180085986e-38
-0.3353875875 -0.1672979891 -0.2572057545 7.867359014e-39
0.2204605639 -0.08214292675 0.2808695436 9.879847816e-39
-0.2274357229 -0.4857026041 -0.2750513256 3.662643861e-40
-0.1078955904 -0.4273693562 -0.2603597641 1.738415842e-39
0.03712325171 0.03385439888 -0.2719078362 1.253267397e-38
0.1473316252 -0.3019276261 0.03646351397 4.665672282e-39
-0.3101270497 -0.1249677464 0.2034803182 8.873603415e-39
-0.2914300859 -0.4880785644 -0.01560625713 3.662643861e-40
0.04649895057 -0.4924868941 0.2609721124 1.833108586e-40
-0.1767810434 -0.4757098854 0.309212029 6.406946774e-40
0.01651306637 -0.474652648 -0.1840922683 6.406946774e-40
-0.2392107546 -0.3004857302 0.3108495474 4.757149046e-39
-0.1376612484 -0.07768505812 -0.2709566653 9.97132458e-39
-0.07069186121 0.09238833934 -0.09696285427 1.390482542e-38
-0.2900443971 0.0851816684 0.2418293357 1.372187189e-38
0.3346369267 -0.4483012557 -0.2001516968 1.281032024e-39
0.0108505385 -0.4120729566 0.02356514521 2.104322897e-39
-0.3218590021 -0.1803614348 0.2906108797 7.501451959e-39
0.3956104815 -0.3124454319 0.2836332619 4.482718755e-39
-0.3333147764 -0.4604606926 -0.1383556426 1.006601732e-39
-0.3206344247 -0.4826509356 0.1941643208 4.577411499e-40
-0.1013460457 -0.4264828861 0.1853816807 1.738415842e-39
-0.3372127414 -0.3794653416 -0.2694884241 2.836137007e-39
0.2839960158 -0.4230602384 -0.06665252149 1.829892606e-39
-0.1751372516 -0.3664313257 -0.07314449549 3.202044062e-39
-0.3246295154 0.0008851066232 -0.04194224253 1.180085986e-38
-0.1673337817 -0.4866572618 0.04563194141 3.662643861e-40
-0.2209535688 0.0596482195 -0.2633734643 1.317301131e-38
-0.05113186315 -0.2668745518 -0.2870037556 5.488963156e-39
-0.3367319107 -0.3290220201 -0.03196018934 4.025334936e-39
-0.07667595893 -0.4856139421 -0.2619008124 3.662643861e-40
-0.08792523295 -0.1924257874 0.277074039 7.227021667e-39
0.1099533662 0.01415946055 0.01221439056 1.207529015e-38
0.03531429172 -0.3499450386 0.3092840612 3.567951117e-39
-0.2323523909 -0.2732238472 -0.239688307 5.397486392e-39
0.07775685191 -0.2572212815 -0.28626436 5.763393447e-39
0.1227018461 -0.4841022491 -0.243965596 4.577411499e-40
-0.1325212568 0.08647415787 -0.2232116759 1.381334866e-38
-0.3384648263 -0.003548059147 0.2134597301 1.170938309e-38
0.1931996942 -0.05064170063 -0.2681442201 1.061166193e-38
-0.1746135652 0.07033312321 0.1079398692 1.34474416e-38
-0.3045873642 -0.12455713 -0.0158256162 8.873603415e-39
-0.1572304815 -0.4859771729 -0.1159086749 3.662643861e-40
0.1966699213 -0.3622642756 -0.1383025795 3.293520826e-39
0.08309358358 -0.4745702744 0.195438832 6.406946774e-40
-0.3267605901 -0.2799749672 0.1769938022 5.214532865e-39
-0.2173356414 -0.4884897172 -0.1342047602 3.662643861e-40
-0.3189370632 -0.02230868675 -0.1715067625 1.125199927e-38
-0.06422187388 -0.06143428758 0.3130409122 1.033723163e-38
-0.1155042052 -0.3738701344 0.3133709133 3.019090535e-39
0.2215808332 -0.4123581052 0.1107055619 2.104322897e-39
0.1324785501 -0.3866689801 -0.2660646141 2.744660244e-39
0.1419533342 -0.4433273971 -0.03475556523 1.372508787e-39
-0.2661119401 -0.3986624777 0.2954918146 2.470229952e-39
-0.2755049169 0.07209406793 0.09211751819 1.34474416e-38
0.09753868729 -0.07410915196 0.2856224775 1.006280134e-38
-0.3005428612 -0.1989918798 0.07856237143 7.135544904e-39
0.00937356241 -0.4853819013 0.3117335439 3.662643861e-40
-0.1162137538 -0.02636211365 -0.234815985 1.116052251e-38
-0.3211801052 -0.315397203 -0.2092825323 4.391241991e-39
-0.02727164701 0.07474188507 -0.1644510776 1.353891837e-38
-0.2463577986 -0.3725717068 0.2475869656 3.019090535e-39
0.1220613867 -0.1033357307 -0.2747993469 9.330987234e-39
-0.2785835862 -0.486156106 0.1216128841 3.662643861e-40
-0.1661699861 -0.4215494692 0.1278135031 1.92136937e-39
-0.2043154687 -0.4804857969 -0.2296071351 5.492179136e-40
0.3842621148 -0.3888562918 -0.1291567236 2.65318348e-39
-0.1747311801 -0.486258477 0.04824869335 3.662643861e-40
-0.238384068 0.05162269995 0.3045906723 1.299005778e-38
-0.134590745 0.08448639512 -0.02114160359 1.372187189e-38
-0.2966760397 -0.481937021 0.04454803839 4.577411499e-40
-0.01737604477 -0.1608750671 -0.2686316967 7.958835777e-39
-0.2368028164 -0.1121965647 -0.2565050721 9.148033706e-39
0.2358058989 -0.1284065843 -0.2711631954 8.782126651e-39
0.02277614363 -0.4032833278 -0.2739503384 2.287276425e-39
-0.3116336167 0.06275472045 -0.1147472262 1.326448808e-38
-0.3061220646 -0.2513427138 -0.07341267914 5.854870211e-39
0.01190894097 -0.4328490198 -0.0216948539 1.646939079e-39
0.0326990746 -0.2192097008 0.2811203897 6.586684321e-39
-0.2703344822 -0.4882042408 0.2396675348 3.662643861e-40
-0.3403046727 -0.4754207432 -0.2240479887 6.406946774e-40
0.2556043267 -0.4778547585 -0.2264413834 5.492179136e-40
-0.324968338 -0.3378338814 0.2768919468 3.842381409e-39
-0.3298050165 -0.08881744742 0.1076271012 9.696894289e-39
-0.3095659316 0.03664775565 -0.2649736106 1.262415073e-38
-0.3296851814 0.05784149095 0.02059255727 1.308153455e-38
0.2134774029 -0.4763011932 -0.01845080778 6.406946774e-40
-0.3261092603 -0.1515902877 -0.1872254163 8.233266069e-39
-0.2247169316 -0.4030004442 -0.2106928676 2.287276425e-39
-0.2383976877 0.07273137569 0.1777026206 1.34474416e-38
0.0781744048 -0.03585798293 -0.006208435632 1.088609222e-38
-0.2374670655 -0.4905383587 -0.02575568482 2.747876224e-40
0.2239391059 -0.2650799453 -0.2702719569 5.58043992e-39
0.1225940287 -0.4874579906 -0.1264916956 3.662643861e-40
0.1368500143 -0.003464768641 -0.2746973932 1.170938309e-38
0.06205836311 -0.4918153584 0.0867684111 2.747876224e-40
-0.1041038558 0.02672331966 0.2853219807 1.234972044e-38
0.1175942421 -0.3174763024 0.0647072047 4.299765227e-39
-0.03876022995 -0.4869131446 0.1439110488 3.662643861e-40
-0.2381826192 -0.3897004128 0.08830679953 2.65318348e-39
-0.3371503949 -0.2550543845 -0.2690777183 5.763393447e-39
-0.1914775074 -0.36871773 0.244379729 3.110567299e-39
-0.2198984921 -0.0914067328 0.2883525789 9.605417525e-39
-0.3373522162 -0.3770174086 -0.0851496309 2.927613771e-39
-0.00149108842 -0.4870215654 -0.2626368701 3.662643861e-40
-0.05084531382 0.07490574569 -0.2753626406 1.353891837e-38
-0.1666498035 -0.4829581082 0.2555504739 4.577411499e-40
-0.08221189678 -0.4880569577 -0.07118876278 3.662643861e-40
0.2241676003 -0.4281060994 -0.2700448036 1.738415842e-39
0.3592793345 -0.2873035967 0.2867788076 5.031579337e-39
-0.3145103753 0.02414195612 0.2899383307 1.234972044e-38
0.1719857305 -0.4863272905 0.08660539985 3.662643861e-40
-0.3299955428 -0.1256801933 0.2289952338 8.782126651e-39
-0.152014479 -0.4747175574 -0.2728982866 6.406946774e-40
0.1668486148 -0.09939622134 0.2777464986 9.422463997e-39
-0.337400794 -0.3031331599 0.07644365728 4.665672282e-39
-0.2545167506 0.07128321379 -0.04772333056 1.34474416e-38
0.1547454596 -0.4362609386 0.2637456954 1.555462315e-39
0.01169519033 -0.07510199398 -0.236929819 9.97132458e-39
0.02358902246 0.0008311671554 0.3122440875 1.180085986e-38
0.297278136 -0.4614799619 -0.1250204742 9.151249686e-40
-0.09042048454 -0.3125470877 0.3096947372 4.482718755e-39
-0.1389082074 0.07124039531 0.2030866146 1.34474416e-38
0.2413025647 -0.3428901434 -0.2255647033 3.750904645e-39
-0.3054089248 -0.09137554467 -0.136151135 9.605417525e-39
-0.1956518143 -0.2873443663 -0.2574383318 5.031579337e-39
-0.08503754437 -0.4868110716 0.04252177849 3.662643861e-40
-0.2515114546 -0.2518720627 0.2993140221 5.854870211e-39
-0.04856532067 -0.4838570356 -0.2112183571 4.577411499e-40
-0.2543530464 0.05606140196 -0.1918754876 1.308153455e-38
-0.1507477462 -0.4024316072 -0.1599501818 2.378753189e-39
-0.2839428782 -0.3804115653 -0.2429034412 2.836137007e-39
0.1060750261 -0.2307954729 -0.2929314077 6.31225403e-39
0.02208799869 -0.1114628315 0.3096738756 9.148033706e-39
-0.08803509176 -0.1667588651 -0.2717813849 7.867359014e-39
-0.3382395506 0.05893209949 0.1152527854 1.317301131e-38
-0.08458673954 -0.4869281352 -0.1466443688 3.662643861e-40
0.000420358032 -0.4857161045 0.2135908008 3.662643861e-40
-0.3168165684 -0.2203255445 0.2966338098 6.586684321e-39
-0.191997245 -0.4891873002 0.09213346243 2.747876224e-40
-0.2443490177 -0.06225502118 -0.2634898424 1.033723163e-38
-0.3313657641 -0.06151149422 0.05236081406 1.033723163e-38
-0.3383240104 -0.2166666687 0.002453149762 6.678161085e-39
-0.3252185881 -0.4252182245 0.1641549021 1.829892606e-39
0.00504154712 0.03952232748 -0.2673104107 1.271562749e-38
-0.05140475929 0.07460254431 -0.07577837259 1.353891837e-38
-0.334137857 -0.1930156201 0.1701543778 7.227021667e-39
0.2097939849 -0.3491855562 -0.1125302836 3.567951117e-39
0.1364452392 -0.4144133329 0.1110150367 2.012846134e-39
-0.3245588541 -0.4089547992 -0.139438957 2.195799661e-39
-0.05327886343 -0.4883463681 0.1582363546 3.662643861e-40
-0.1987321675 0.07244521379 -0.2716411352 1.34474416e-38
-0.1755889356 -0.4859000146 -0.0267644655 3.662643861e-40
0.1343853772 -0.4858857393 -0.2613579035 3.662643861e-40
0.147825107 -0.01281440631 -0.003236008808 1.14349528e-38
-0.3362651765 -0.1305642575 -0.2435928881 8.690649887e-39
-0.1176147684 -0.1621842682 0.2966809273 7.958835777e-39
-0.1435744762 0.07591111213 0.07048726827 1.353891837e-38
-0.3243814707 0.0702495724 -0.1994414926 1.34474416e-38
-0.3108406365 -0.3891169727 0.1584943235 2.65318348e-39
0.004707820714 -0.4915133715 -0.08873841912 2.747876224e-40
0.2214165479 -0.07525929064 0.297662884 9.97132458e-39
-0.3293875456 -0.2467478961 -0.1375739425 5.946346975e-39
-0.2882406414 -0.4904481173 -0.09132899344 2.747876224e-40
-0.2972973287 -0.08277940005 0.2899806798 9.788371052e-39
0.03619793802 -0.2505293489 0.2841227353 5.854870211e-39
0.1858240366 -0.483224839 -0.165202111 4.577411499e-40
-0.2280065864 -0.4875590503 0.2977944016 3.662643861e-40
-0.3380890787 -0.3659971654 0.01531727239 3.202044062e-39
0.1253899634 -0.3330414295 0.02590157837 3.933858172e-39
0.3273462057 -0.4319395721 -0.2024925798 1.646939079e-39
-0.1940891147 -0.02481554076 0.2706747651 1.116052251e-38
-0.3220573068 -0.08995028585 -0.04678652063 9.696894289e-39
0.1005180031 -0.3583781719 -0.2592851222 3.38499759e-39
-0.1651314497 0.07404566556 -0.1388980746 1.353891837e-38
-0.2673663795 -0.4898176491 0.01075529307 2.747876224e-40
0.2382941991 -0.4214404225 0.05060503259 1.92136937e-39
-0.1610069275 -0.4858420789 -0.2074223012 3.662643861e-40
-0.2151422203 -0.1969682872 -0.2613891661 7.135544904e-39
-0.3385404944 0.01042472478 0.2017257363 1.198381338e-38
-0.01842577383 -0.2614571154 -0.2760458589 5.671916684e-39
-0.3271421194 -0.4861420095 -0.2378866225 3.662643861e-40
-0.03798761964 -0.4823717177 0.2672840059 4.577411499e-40
-0.2955827415 -0.3983307481 0.289523989 2.470229952e-39
0.2618619502 -0.3536773622 -0.2696318626 3.476474354e-39
-0.078276366 -0.2375177443 0.3108335137 6.220777266e-39
-0.2815746367 -0.4751924574 0.1547695547 6.406946774e-40
-0.2022356093 -0.3816337287 -0.08672905713 2.836137007e-39
0.009869547561 -0.4243801832 0.09847094119 1.829892606e-39
0.1233170107 -0.007571831811 -0.2701157928 1.161790633e-38
0.2862459123 -0.4186378717 -0.06516714394 1.92136937e-39
0.09318192303 -0.03096506745 0.309989512 1.106904574e-38
0.01226809621 -0.4842544496 0.2048234344 4.577411499e-40
-0.3256923854 0.07281713933 0.2998315692 1.34474416e-38
-0.1970636547 -0.4858172834 -0.1454771906 3.662643861e-40
0.2239177823 -0.1283880323 -0.2559492588 8.782126651e-39
-0.3069831729 -0.4798352718 0.07668005675 5.492179136e-40
0.08566323668 -0.4867290556 -0.1870556921 3.662643861e-40
0.1860322058 -0.4868631959 0.02435612306 3.662643861e-40
0.1235270575 -0.486736536 0.2247024029 3.662643861e-40
0.3851436377 -0.2738177478 0.2874663472 5.306009629e-39
-0.127373457 -0.06199542433 -0.2767829895 1.033723163e-38
-0.3196188211 -0.474180162 0.2404022664 6.406946774e-40
-0.1925709248 0.09053743631 0.1896244437 1.390482542e-38
-0.3101612031 -0.2284725755 -0.2675721049 6.403730794e-39
-0.06464897841 -0.3760874867 0.3092433214 2.927613771e-39
-0.2306922525 0.06710092723 0.007262920029 1.335596484e-38
-0.09435176104 -0.02090808004 0.2749229372 1.125199927e-38
-0.05250068754 -0.4649657011 -0.2549442649 9.151249686e-40
-0.2765075862 -0.3521390259 -0.1755816787 3.476474354e-39
-0.1592471749 -0.48559919 -0.008286289871 3.662643861e-40
-0.3151434064 0.03133419529 -0.2512659729 1.253267397e-38
-0.1709418595 -0.4286942482 -0.2397889495 1.738415842e-39
-0.005767261609 -0.08574323356 -0.2552337945 9.788371052e-39
0.07452252507 -0.4147670865 0.001367666875 2.012846134e-39
-0.2315495759 -0.487888664 0.1669335067 3.662643861e-40
0.1624518782 -0.2525539398 -0.2499472201 5.854870211e-39
-0.3387123942 -0.3127871156 0.3000873625 4.391241991e-39
0.385920018 -0.4113655388 -0.08728539944 2.104322897e-39
-0.1061144248 0.07466832548 0.008189225569 1.353891837e-38
-0.1645414233 -0.312879622 0.3106483221 4.391241991e-39
-0.3366395533 0.04607558995 -0.07356394082 1.280710426e-38
0.1109765172 -0.4133510292 -0.2281775177 2.104322897e-39
0.0848557353 0.001467140741 0.01127023436 1.180085986e-38
-0.2946198285 -0.4262143075 -0.2480409443 1.738415842e-39
-0.3316492438 -0.2196446657 0.1117346287 6.586684321e-39
-0.2277693748 -0.1486052573 0.3109748363 8.324742832e-39
-0.07420111448 0.06245714426 -0.2742975056 1.326448808e-38
-0.1179971099 -0.4842005968 -0.1312298626 4.577411499e-40
-0.3388662636 -0.414103508 -0.03692011908 2.104322897e-39
0.2080833614 -0.4309271574 -0.1821333021 1.646939079e-39
-0.3203472793 -0.02707578242 0.1328132451 1.116052251e-38
-0.04043038189 -0.1243160069 0.3097512126 8.873603415e-39
-0.3186756372 -0.1582256258 -0.1101855859 8.050312541e-39
-0.1315665245 -0.4871187508 0.06555303931 3.662643861e-40
-0.146759361 -0.4866175354 -0.1673327833 3.662643861e-40
-0.2808926404 -0.4147825241 -0.2357349396 2.012846134e-39
-0.1586452723 0.03465492278 0.2993715703 1.253267397e-38
-0.3277297616 -0.1149278954 0.2858033478 9.056556942e-39
-0.04011913761 0.07306456566 -0.1259498447 1.34474416e-38
-0.3304170966 -0.3238531351 -0.01238134131 4.208288464e-39
0.02515181899 -0.3317578435 0.3048818707 4.025334936e-39
-0.3243252933 -0.02821294405 -0.2712919712 1.106904574e-38
-0.001486008638 -0.1628298014 -0.2371679693 7.958835777e-39
-0.2146523446 -0.4862806201 -0.2625296414 3.662643861e-40
0.1747532189 -0.4884897768 -0.2287873477 3.662643861e-40
0.04630456865 -0.3253359199 -0.2771879733 4.1168117e-39
-0.3077059686 0.002784572542 0.05055220053 1.180085986e-38
-0.1601708084 0.05826064199 -0.2180945575 1.308153455e-38
-0.3399812579 -0.4862043858 0.1373538822 3.662643861e-40
0.2973292768 -0.3633953929 -0.137418583 3.293520826e-39
0.0008811317384 -0.4866236746 -0.007718438283 3.662643861e-40
-0.3317392766 -0.344917804 0.1753082573 3.659427881e-39
-0.3405083418 -0.4755034745 -0.1364284605 6.406946774e-40
-0.1243985668 -0.4194878936 0.1984134316 1.92136937e-39
-0.2932547927 0.06074768677 0.1879302859 1.317301131e-38
0.1108739749 -0.2878540754 0.03893593699 5.031579337e-39
-0.1388132572 -0.4749915898 0.3101617098 6.406946774e-40
0.1922080666 -0.4677962065 0.107991375 8.236482049e-40
-0.2407925725 -0.4832580686 -0.08058024198 4.577411499e-40
-0.1251740605 -0.3661279678 -0.2220355868 3.202044062e-39
0.1116412431 -0.1394955814 -0.2727243304 8.50769636e-39
0.2098461986 -0.4825268388 -0.1048253924 4.577411499e-40
0.002688895911 -0.003520893864 0.2946549654 1.170938309e-38
-0.2273181379 0.07429238409 -0.06469433755 1.353891837e-38
-0.3370696902 -0.1673766077 0.0159493573 7.867359014e-39
-0.3382245898 -0.227999866 0.2512920499 6.403730794e-39
0.03493335098 -0.4709906578 -0.2572530508 7.321714411e-40
0.3488711119 -0.324953258 0.2685322762 4.1168117e-39
0.2698220313 -0.3344314694 -0.2742370367 3.933858172e-39
0.03349618614 -0.1906414777 0.2825132608 7.318498431e-39
0.03493160754 -0.02246490307 -0.2819488645 1.125199927e-38
0.1342146248 -0.03725693747 0.2975479364 1.088609222e-38
-0.2564999163 0.0622450076 -0.2597573102 1.317301131e-38
0.02723858133 -0.4819574952 0.1529475451 4.577411499e-40
-0.2819069922 -0.4853556156 0.008119793609 3.662643861e-40
-0.3192618191 -0.06553947181 -0.1741998047 1.024575487e-38
-0.2280330658 -0.2874900401 0.3129128516 5.031579337e-39
-0.03620029986 -0.4875190258 -0.1144754738 3.662643861e-40
-0.2451651245 -0.1650435627 -0.2614723146 7.867359014e-39
-0.1254364103 0.002141245641 -0.277258873 1.180085986e-38
-0.3003362417 -0.1586211026 0.1751171798 8.050312541e-39
-0.3254111707 -0.3794758916 -0.1998017132 2.836137007e-39
-0.2369544357 0.07235902548 0.1147607341 1.34474416e-38
-0.253059119 -0.4886971116 0.114502728 2.747876224e-40
0.2843739092 -0.4863756299 -0.2125805914 3.662643861e-40
-0.1534992307 -0.08690524846 0.3103979826 9.696894289e-39
0.168394357 -0.3362636864 -0.2687853277 3.842381409e-39
-0.3328411281 -0.388211906 0.09181904793 2.65318348e-39
0.1108419299 -0.4858537912 -0.08804518729 3.662643861e-40
-0.288797915 -0.4366565347 0.3119541705 1.555462315e-39
-0.3391772211 -0.2365562767 -0.1749138236 6.220777266e-39
-0.2764170766 0.06262194365 0.3118115067 1.326448808e-38
-0.03901081532 -0.4867626727 0.3118483126 3.662643861e-40
-0.3390143514 0.06315319985 -0.1631442606 1.326448808e-38
0.07345309854 -0.4118359983 0.0995175913 2.104322897e-39
0.2109105587 -0.04955858737 -0.2755584717 1.061166193e-38
-0.1894268394 -0.3614556789 -0.08693966269 3.293520826e-39
-0.01712831855 -0.3632458448 -0.2493296564 3.293520826e-39
0.200675115 -0.1094218642 0.3060207069 9.23951047e-39
-0.3390234113 -0.03733147681 -0.06219541281 1.088609222e-38
0.384414345 -0.3618116975 -0.1133273095 3.293520826e-39
0.1862584203 -0.4156007767 -0.001807184075 2.012846134e-39
0.1208437681 -0.4844757617 0.2120392323 4.577411499e-40
-0.09013997763 -0.4874733686 0.02967822179 3.662643861e-40
-0.325423032 -0.102612488 0.07711325586 9.330987234e-39
-0.2236351073 -0.03514812887 -0.259796977 1.097756898e-38
-0.1768510938 -0.3863551021 0.3104577363 2.744660244e-39
0.2192194611 -0.2072460949 -0.2403914481 6.952591376e-39
-0.2527210414 -0.03770790994 0.3101488352 1.088609222e-38
-0.1670611501 -0.4876520336 0.1021199822 3.662643861e-40
-0.1811109334 -0.2231162786 -0.26686728 6.495207557e-39
0.09728506207 -0.03627111018 -0.002655099612 1.088609222e-38
-0.1821948439 -0.4421228468 -0.2671829164 1.372508787e-39
-0.1098293737 -0.192421183 0.2744312286 7.227021667e-39
-0.2640709877 -0.3252007663 0.2350932509 4.1168117e-39
0.0007303054444 0.07135882229 -0.2463885844 1.34474416e-38
-0.08931329101 0.07602425665 0.01207314804 1.353891837e-38
-0.3387687504 -0.4869172573 0.2118311524 3.662643861e-40
-0.06393685192 -0.08648312092 -0.2743093371 9.696894289e-39
0.05660274252 -0.4132316709 0.3088757396 2.104322897e-39
-0.176185593 0.0757266283 0.2871706188 1.353891837e-38
-0.2760529816 -0.4871445894 -0.1629423797 3.662643861e-40
-0.2268996388 -0.3861594498 0.07608380914 2.744660244e-39
-0.3121545315 -0.3295228183 -0.1116535589 4.025334936e-39
0.2727821469 -0.3865820765 -0.2628768086 2.744660244e-39
-0.1636682451 0.07487393916 0.110537909 1.353891837e-38
-0.004440698773 -0.4896095097 -0.189167127 2.747876224e-40
-0.05326486379 -0.2499944121 0.3080902696 5.946346975e-39
-0.3362301588 -0.3185081482 -0.2671052217 4.299765227e-39
0.0702027902 -0.2349607646 -0.2895285189 6.220777266e-39
-0.1550563276 0.07378572226 -0.1085721701 1.34474416e-38
-0.3229978085 -0.1309206784 -0.2532887459 8.690649887e-39
-0.3377477825 -0.2160414606 -0.03519517556 6.678161085e-39
-0.3382180631 -0.02734785527 0.2633113265 1.116052251e-38
-0.3375819623 0.05977675691 0.07798574865 1.317301131e-38
-0.1244103014 -0.4840047359 -0.2171628028 4.577411499e-40
0.3504585028 -0.4386968315 -0.1447753757 1.463985551e-39
0.01537193917 -0.1281567812 0.3059780002 8.782126651e-39
-0.3114300668 -0.256439507 0.1117128059 5.763393447e-39
0.1989967376 -0.3621941805 -0.1870005727 3.293520826e-39
0.1230742782 -0.4867637455 0.0125220092 3.662643861e-40
-0.2256065309 -0.1877368093 0.3107758164 7.409975195e-39
-0.1934258491 -0.4869501293 0.04517050833 3.662643861e-40
-0.1121709943 -0.2682352066 -0.273206979 5.488963156e-39
0.1233648881 -0.2871515751 0.06384886056 5.031579337e-39
-0.06505566835 0.02549339458 0.2980172038 1.234972044e-38
-0.2466503978 -0.3591060042 -0.2657847703 3.38499759e-39
0.1597358882 -0.486163795 0.147609517 3.662643861e-40
-0.2355424613 -0.4318521619 0.2079106271 1.646939079e-39
-0.3383254409 -0.4768645763 -0.2346664816 5.492179136e-40
0.3669124842 -0.3231085241 0.2726607919 4.208288464e-39
0.1482646018 -0.4850988388 -0.2485120296 3.662643861e-40
0.04705313221 -0.4869794846 0.2986984253 3.662643861e-40
-0.314705193 -0.2641326487 0.3116574585 5.58043992e-39
-0.3283020258 -0.08631695807 0.1367407888 9.696894289e-39
8.685910143e-05 -0.4399660826 0.05545765162 1.463985551e-39
-0.05475807935 0.07165938616 -0.1355294734 1.34474416e-38
-0.1517608762 -0.2894340158 0.2791142762 4.940102574e-39
0.09864877164 -0.06461662799 -0.2737235427 1.024575487e-38
-0.1502542198 -0.4352975786 -0.1679853499 1.555462315e-39
0.2352419347 -0.3652197123 -0.08610217273 3.202044062e-39
-0.3008101285 0.06973570585 -0.07455154508 1.335596484e-38
-0.3227513731 -0.4593646824 -0.07905180007 1.006601732e-39
-0.0147875715 -0.4096282423 -0.2463573664 2.195799661e-39
0.21451509 -0.4806725979 -0.02528782189 5.492179136e-40
0.06330293417 -0.03309170529 0.2770069242 1.097756898e-38
-0.06707724184 -0.4897239506 0.06460224092 2.747876224e-40
-0.214078933 0.07004670054 -0.2716045082 1.335596484e-38
-0.3103151321 -0.1281717122 0.2916709781 8.782126651e-39
-0.3067574799 -0.3512997925 0.02247615904 3.567951117e-39
-0.3122352958 0.07226146758 0.1791219264 1.34474416e-38
-0.1899865717 -0.4858857691 0.3004624844 3.662643861e-40
0.191505 -0.1338830143 -0.2602196932 8.599173124e-39
-0.2016216367 -0.4856146872 -0.0770130083 3.662643861e-40
0.008762188256 -0.3165815175 0.2848288417 4.391241991e-39
-0.1609326899 -0.1017668471 -0.2661797404 9.422463997e-39
-0.3006268442 -0.2220774293 -0.2054251581 6.586684321e-39
0.2340108156 -0.4112253487 0.08407184482 2.104322897e-39
-0.3284857869 -0.4143888354 0.2563057244 2.012846134e-39
-0.3255242705 -0.05369487405 0.01403827593 1.052018516e-38
-0.2790569663 -0.3830935061 -0.1009449139 2.744660244e-39
-0.2138688266 0.07528335601 0.02442176268 1.353891837e-38
0.1001534835 -0.009336054325 0.02436162159 1.152642956e-38
-0.0771946609 -0.3616151214 0.3115483522 3.293520826e-39
-0.3140062094 -0.486426264 0.02428807318 3.662643861e-40
-0.2635015249 0.07367728651 -0.1614875197 1.34474416e-38
0.1939718425 -0.07828944921 0.3015407622 9.97132458e-39
0.1364963353 -0.3241834641 -0.2564177811 4.208288464e-39
-0.02443982661 -0.0328945145 -0.2730840445 1.097756898e-38
0.03276976943 -0.4866299629 -0.1214881912 3.662643861e-40
0.3402188718 -0.383771807 -0.1654771417 2.744660244e-39
-0.2155301571 0.0739536956 0.2499889284 1.34474416e-38
0.01560452022 -0.2312200665 -0.2832615972 6.31225403e-39
0.2603081763 -0.4518091381 -0.2598599195 1.18955526e-39
-0.01453258935 -0.4796037674 -0.2438059896 5.492179136e-40
-0.3237511516 -0.1255210936 -0.1065906212 8.782126651e-39
-0.2854406536 -0.3611062169 0.1393612027 3.293520826e-39
-0.16945225 -0.4825643301 -0.2302493006 4.577411499e-40
0.08884570003 -0.4805748165 0.1964100301 5.492179136e-40
-0.3078405261 -0.2164371163 0.2031183839 6.678161085e-39
-0.1348363161 -0.4873756468 -0.006397157907 3.662643861e-40
-0.2958211899 -0.02713540755 -0.2418527305 1.116052251e-38
0.02278911136 -0.216391623 0.3071652055 6.678161085e-39
-0.2431083471 -0.4443951845 -0.2544287145 1.372508787e-39
-0.1437082887 -0.4850194752 -0.1422699243 3.662643861e-40
0.03385779634 -0.4246698916 -0.03605479375 1.829892606e-39
-0.1165536195 -0.06166148931 0.3097304404 1.033723163e-38
0.1377183348 -0.4284624755 0.1081718504 1.738415842e-39
0.09923323989 -0.4360405207 -0.2596032619 1.555462315e-39
-0.1762427539 -0.3646091521 0.2238055766 3.202044062e-39
-0.1783879548 0.06934366375 0.1617345959 1.335596484e-38
-0.09883794934 0.08711434901 -0.1929656416 1.381334866e-38
-0.3190713525 0.03540765494 0.2259012759 1.262415073e-38
-0.3215268254 0.0338412337 -0.01118040923 1.253267397e-38
0.2172018439 -0.2551442087 -0.2650640309 5.763393447e-39
-0.2390007973 -0.4865809977 0.07408969104 3.662643861e-40
-0.1047005504 0.0902082324 -0.05104931071 1.390482542e-38
-0.2677864134 -0.4874911904 0.1594083607 3.662643861e-40
-0.2439613789 -0.2556527853 -0.2616226375 5.763393447e-39
0.2846523523 -0.4866125882 -0.1767518073 3.662643861e-40
-0.3269949555 -0.4023467898 -0.2301839441 2.378753189e-39
0.02440453507 0.04640077427 -0.2714682221 1.280710426e-38
-0.325825721 -0.3258876503 0.3091284037 4.1168117e-39
-0.07621273398 -0.4828379154 0.2786911428 4.577411499e-40
-0.2041262239 -0.4869280457 -0.1830983162 3.662643861e-40
-0.3201957345 -0.4744897187 0.1041021422 6.406946774e-40
-0.0757741183 -0.1780260503 -0.2716490626 7.592928722e-39
-0.328644067 -0.3209623396 0.05737910792 4.208288464e-39
-0.1664697677 -0.4869362116 -0.06653074175 3.662643861e-40
0.1098031849 -0.3382702172 0.04112530872 3.842381409e-39
0.1083749235 -0.474511832 0.2972816825 6.406946774e-40
-0.3081512749 0.06782707572 -0.2017822564 1.335596484e-38
0.1968139112 -0.07016786188 -0.2652695775 1.015427811e-38
-0.3255703449 -0.1579850614 -0.01132935751 8.050312541e-39
-0.3040252328 -0.3322110474 -0.230374679 4.025334936e-39
-0.2222748995 -0.3860541582 -0.05986259133 2.744660244e-39
-0.1330798268 0.06426860392 -0.2684525847 1.326448808e-38
-0.2955503464 -0.01196232066 0.2055857778 1.14349528e-38
-0.2298045158 0.06997781992 -0.0933490023 1.335596484e-38
-0.17710042 -0.1869757921 0.3099262714 7.409975195e-39
0.05120012537 -0.3531305194 -0.2713446021 3.476474354e-39
0.3589368165 -0.3114561141 0.2964157164 4.482718755e-39
0.001522109844 -0.05524012074 0.2837443352 1.04287084e-38
0.3098936081 -0.4489988089 -0.1138471812 1.281032024e-39
-0.3241587281 -0.283734113 -0.2551325858 5.123056101e-39
-0.3256879151 -0.1884828955 0.2893375754 7.318498431e-39
0.06899158657 -0.1609820426 -0.2669280767 7.958835777e-39
0.2482203692 -0.412597388 0.01000645943 2.104322897e-39
0.2750684321 -0.3162080646 -0.2572086751 4.391241991e-39
-0.3152952194 0.06276989728 0.3106087744 1.326448808e-38
-0.3242600262 -0.0544426553 -0.1849583238 1.052018516e-38
-0.3283027112 -0.4037211537 -0.08353371918 2.287276425e-39
-0.1631063372 -0.4783848524 -0.2468019724 5.492179136e-40
0.07184320688 -0.4859290719 -0.1826064289 3.662643861e-40
-0.09230405837 -0.4889762998 -0.05347494036 2.747876224e-40
-0.2623033822 -0.4862543046 -0.08394467086 3.662643861e-40
-0.1030487642 -0.487667501 0.215480864 3.662643861e-40
0.1636861265 -0.08395733684 0.2726581693 9.788371052e-39
-0.3306274712 -0.3208681047 0.1459912956 4.208288464e-39
0.2114982307 -0.3511879742 -0.1378883868 3.567951117e-39
-0.3371334374 -0.06511827558 0.1659862697 1.024575487e-38
0.0489404425 -0.3862994611 0.3117941618 2.744660244e-39
0.1851818413 -0.4839098155 0.09784479439 4.577411499e-40
0.09842221439 -0.02656816691 -0.2642228603 1.116052251e-38
-0.1689484417 -0.3037824631 -0.2631385922 4.665672282e-39
-0.1895214617 -0.3985744119 0.3120622039 2.470229952e-39
-0.2514450252 0.07564654946 0.09966561198 1.353891837e-38
-0.2140895873 -0.3868761957 0.08723922074 2.744660244e-39
0.1984856427 -0.4868468046 -0.08814427257 3.662643861e-40
0.3984856308 -0.3743467927 -0.1131442785 3.019090535e-39
-0.3197266161 -0.474526763 0.2923601866 6.406946774e-40
0.1355033964 -0.02407692 0.01232210733 1.116052251e-38
-0.1018571183 0.03764278814 0.298487395 1.262415073e-38
-0.3003407419 -0.4895915091 -0.2606340349 2.747876224e-40
-0.3182140589 -0.4838334322 0.1234050244 4.577411499e-40
-0.1648555696 0.07523935288 -0.1882821918 1.353891837e-38
-0.05290659517 -0.1654108316 0.3051822484 7.867359014e-39
0.04833319411 -0.4871850908 -0.01102127135 3.662643861e-40
-0.3086925447 -0.02297196537 -0.1153785437 1.125199927e-38
-0.05255350471 -0.4365755618 -0.2645551562 1.555462315e-39
-0.151749596 -0.09020412713 -0.2727107704 9.605417525e-39
-0.03862155974 -0.4846065044 0.1008486748 4.577411499e-40
-0.1894455105 -0.3954492807 -0.1357235759 2.470229952e-39
-0.3378487527 -0.1793629527 -0.08539996296 7.592928722e-39
0.09988509119 -0.3504630923 -0.2454600036 3.567951117e-39
-0.0414643921 -0.4874019027 -0.1056394279 3.662643861e-40
-0.3390242159 -0.4380215108 -0.03586453944 1.463985551e-39
-0.02977775037 -0.09100358933 -0.2712090909 9.605417525e-39
-0.2557165623 -0.1240269244 0.290846765 8.873603415e-39
-0.127048701 -0.4008197188 0.1744932085 2.378753189e-39
0.1821113378 -0.4800682962 -0.2426423728 5.492179136e-40
-0.32359308 -0.3650429845 0.2197247595 3.202044062e-39
-0.1167064756 -0.2498957664 0.3092137873 5.946346975e-39
-0.07071469724 -0.4666634798 -0.2539319992 8.236482049e-40
0.1902679205 -0.1620199084 -0.2721762359 7.958835777e-39
-0.3045810461 -0.1842874587 0.143738538 7.409975195e-39
-0.1252410412 -0.4851703942 -0.1396752 3.662643861e-40
-0.3144168556 -0.3709522784 -0.2602483928 3.110567299e-39
-0.3257263899 0.0001925881952 0.08213737607 1.180085986e-38
0.02262990549 -0.3120839 0.3122683764 4.482718755e-39
-0.1605280936 -0.4873665869 0.01674059778 3.662643861e-40
-0.1031899825 0.07471618801 0.01065196469 1.353891837e-38
-0.224968493 0.0607069023 -0.2590518594 1.317301131e-38
-0.2358389795 -0.3138147295 0.2969295681 4.391241991e-39
0.1589722633 -0.4245151877 -0.04041345417 1.829892606e-39
-0.3379944563 -0.1430104077 -0.1844259053 8.416219596e-39
0.01096259803 -0.4580220282 0.1035579666 1.006601732e-39
0.1333804727 -0.3172105849 0.03273754939 4.299765227e-39
-0.274744451 0.06886937469 -0.005331136286 1.335596484e-38
-0.2006365955 0.05725629628 0.1614469886 1.308153455e-38
-0.3375198841 -0.076271981 0.2368071526 9.97132458e-39
0.2306833267 -0.4498482943 -0.2105057985 1.18955526e-39
-0.2159295529 -0.4881143272 -0.0132157281 3.662643861e-40
-0.1141736209 -0.4741325676 0.3109388649 6.406946774e-40
-0.0383532308 0.07378816605 -0.197405383 1.34474416e-38
0.03404016793 -0.1487131715 0.3123776019 8.233266069e-39
0.1996957064 -0.1049872562 0.2879016995 9.330987234e-39
-0.3362679482 0.03083985299 -0.257627815 1.24411972e-38
-0.2640427053 -0.4012126923 -0.1607419997 2.378753189e-39
0.07900521159 -0.3834609985 -0.2575908899 2.744660244e-39
-0.2770803273 0.07301848382 0.3110231161 1.34474416e-38
-0.3362976611 -0.2683551013 -0.1212334037 5.488963156e-39
-0.3274290264 -0.121875599 0.05189055204 8.873603415e-39
-0.2469939142 -0.1344127804 -0.2607530653 8.599173124e-39
-0.2179321498 -0.4879188538 0.1249399036 3.662643861e-40
-0.3369552493 -0.2526124418 0.2611762285 5.854870211e-39
0.08697609603 -0.4817037284 0.2433170527 4.577411499e-40
-0.3374009132 -0.3898390532 0.06359625608 2.65318348e-39
0.02395012043 -0.482085377 -0.2421543449 4.577411499e-40
0.03682985157 -0.01689348742 0.3019632697 1.134347604e-38
-0.1491920054 -0.4883849919 0.1840369403 3.662643861e-40
0.289612323 -0.3810618818 -0.1105462611 2.836137007e-39
-0.1494337916 -0.4872047007 -0.2057712376 3.662643861e-40
-0.1582143605 -0.08594480902 0.3026523292 9.788371052e-39
-0.07793902606 -0.01418696437 -0.272767067 1.14349528e-38
-0.03429931402 -0.4870636761 -0.1032709107 3.662643861e-40
-0.2429910898 -0.3812309802 -0.2512221634 2.836137007e-39
0.1511018425 -0.4633258581 -0.239438653 9.151249686e-40
-0.3248650432 -0.2402400076 -0.008615113795 6.129300502e-39
0.3511461318 -0.3268530071 0.2829860449 4.1168117e-39
-0.2648280263 -0.3872930706 0.3109212518 2.65318348e-39
-0.3371342421 0.04639787599 0.1891066283 1.280710426e-38
-0.1144470051 -0.1833512187 -0.2631288171 7.501451959e-39
-0.2505707145 0.05963985249 -0.12038818 1.317301131e-38
0.2363311201 -0.4607928395 0.08652473241 1.006601732e-39
0.07868440449 -0.01475327276 0.00298579107 1.14349528e-38
0.2097605914 -0.4867001474 -0.1379238367 3.662643861e-40
-0.3154143691 -0.4758419693 -0.2152214646 6.406946774e-40
-0.1595254242 -0.4919710755 -0.1051756814 2.747876224e-40
-0.3165259957 -0.1915816069 -0.2452503741 7.318498431e-39
-0.3253956437 0.03368875757 -0.1418371499 1.253267397e-38
-0.1638607383 0.07429190725 0.1015692651 1.353891837e-38
-0.01777271554 -0.1886399984 -0.2564176023 7.318498431e-39
-0.3270094097 -0.48707515 -0.07696211338 3.662643861e-40
0.2362306267 -0.1764027625 -0.2726169527 7.592928722e-39
-0.1899210513 0.02564029768 0.3101287484 1.234972044e-38
-0.07025244087 0.07185804844 -0.09507832676 1.34474416e-38
-0.2696233988 -0.0227389168 -0.2531089783 1.125199927e-38
0.1234747246 -0.03366910666 -0.2838883996 1.097756898e-38
-0.3018593192 -0.02777308226 0.3105794191 1.106904574e-38
-0.3310362697 -0.375513345 -0.1373197585 2.927613771e-39
-0.01197093725 -0.4817106128 0.2877390087 4.577411499e-40
-0.3255547583 -0.03944799677 -0.03764636442 1.079461545e-38
-0.3163538277 -0.3874044716 0.09193492681 2.65318348e-39
-0.2667038441 -0.4889926612 0.01159787178 2.747876224e-40
-0.0673789382 -0.4877008796 -0.163379699 3.662643861e-40
-0.05377243087 -0.06353548169 0.3105941713 1.024575487e-38
-0.1608575284 -0.4871404767 0.09032753855 3.662643861e-40
-0.2400632799 -0.3938422203 0.1877647936 2.561706716e-39
-0.1021482497 -0.4860058725 -0.07154829055 3.662643861e-40
-0.1023204401 -0.3126644194 0.3093848526 4.482718755e-39
0.07675158232 -0.4852129221 0.1351932287 3.662643861e-40
-0.01217165962 0.06207713112 -0.2698472738 1.317301131e-38
-0.3107475042 -0.1969211847 0.2166582644 7.135544904e-39
0.1230173111 -0.04810093716 0.3120490015 1.061166193e-38
0.274351716 -0.4867101014 -0.2253347188 3.662643861e-40
-0.2743440866 -0.4710631967 0.2568410039 7.321714411e-40
0.3593252897 -0.4234337211 -0.09023983777 1.829892606e-39
-0.2021176815 -0.3293895721 -0.2598021626 4.025334936e-39
0.1236731187 -0.4153560996 0.0139271142 2.012846134e-39
-0.3080691099 0.05872570723 0.1134896427 1.317301131e-38
-0.1590021253 -0.4842933416 -0.171064049 4.577411499e-40
-0.3113248944 -0.3064014018 -0.2554704249 4.574195519e-39
0.2113482952 -0.3718753755 -0.1817369759 3.019090535e-39
-0.1888653338 -0.1925215423 -0.2632022202 7.227021667e-39
-0.3141295612 -0.481634438 0.1121814847 4.577411499e-40
-0.05978925899 -0.2222533822 0.3030915558 6.586684321e-39
