# .PCD v0.7 - Point Cloud Data file format
VERSION 0.7
FIELDS x y z rgb
SIZE 4 4 4 4
TYPE F F F F
COUNT 1 1 1 1
WIDTH 847
HEIGHT 1
VIEWPOINT 0 0 0 1 0 0 0
POINTS 847
DATA ascii
0.4088911712 -0.09463621676 0.200232625 8.599173124e-39
0.1374530941 -0.3262924254 0.3672433794 3.202044062e-39
0.2708333135 -0.1580637693 0.0825676024 7.135544904e-39
0.07443893701 -0.301746726 0.1017279178 3.750904645e-39
0.1243681535 -0.1006997749 0.1015183404 8.50769636e-39
0.08688981086 -0.2712356746 0.3013132513 4.482718755e-39
0.3971337676 -0.1863471717 0.09829542041 6.495207557e-39
0.1460120678 -0.2970419526 0.08582528681 3.842381409e-39
0.3225522339 -1.589476597e-05 0.1023103371 1.079461545e-38
0.09128525853 -0.0258749444 0.2772142589 1.024575487e-38
0.07814771682 -0.1485898942 0.1085501239 7.318498431e-39
0.1104960591 -0.07319896668 0.3869256079 9.148033706e-39
0.09379667789 -0.05280187726 0.1074744835 9.605417525e-39
0.06880199909 -0.3624131083 0.1630574316 2.378753189e-39
0.1699956059 0.0199625995 0.09787324816 1.134347604e-38
0.1080614477 -0.434682548 0.1054554507 6.406946774e-40
0.2860882282 -0.0879168734 0.09981650114 8.782126651e-39
0.0734372735 -0.3875041902 0.3000600338 1.738415842e-39
0.0740210861 0.03764431551 0.2249540091 1.170938309e-38
0.1024233773 -0.272552073 0.2233317792 4.482718755e-39
0.2355541736 -0.1858743131 0.0996093303 6.495207557e-39
0.06632040441 -0.05479943007 0.1107268929 9.513940761e-39
0.2861042023 -0.09092254937 0.103754431 8.690649887e-39
0.3104203939 -0.2992307842 0.09167952836 3.842381409e-39
0.0736855194 -0.1734842062 0.3881711662 6.769637849e-39
0.1096718907 -0.2560041249 0.107518658 4.84862581e-39
0.07712724805 -0.2555789649 0.1194427758 4.84862581e-39
0.1036887541 -0.1296472698 0.08502931148 7.77588225e-39
0.1604594141 -0.2854580879 0.4134373069 4.1168117e-39
0.1299638599 -0.03108933941 0.1086561903 1.015427811e-38
0.1243664771 -0.08702778816 0.2630286515 8.782126651e-39
0.4219144285 -0.06305918843 0.2037431747 9.330987234e-39
0.08619781584 -0.4114032686 0.1493153423 1.18955526e-39
0.08454979956 -0.3281845152 0.2688908875 3.110567299e-39
0.1244704053 -0.2011450231 0.1895173043 6.129300502e-39
0.3932704628 -0.2744241059 0.0832343176 4.391241991e-39
0.2465607375 -0.02727637812 0.09552076459 1.024575487e-38
0.1765943766 -0.3953616023 0.1055644453 1.555462315e-39
0.133297652 -0.3367747068 0.3079164624 2.927613771e-39
0.2946962714 -0.3593371212 0.1066757739 2.378753189e-39
0.08731693029 0.03663235903 0.1084526032 1.170938309e-38
0.07632856071 -0.07262527943 0.2144418806 9.148033706e-39
0.3580137491 -0.09329600632 0.08381573856 8.690649887e-39
0.07489468902 -0.3877655268 0.10306485 1.738415842e-39
0.338144213 -0.2137209326 0.08260045946 5.854870211e-39
0.07780252397 -0.1516509801 0.2275096476 7.318498431e-39
0.1099569499 -0.221017316 0.3728132546 5.671916684e-39
0.07562404871 -0.2388921976 0.1028766185 5.214532865e-39
0.07510639727 -0.3000165224 0.1939636171 3.842381409e-39
0.06878140569 -0.1196898073 0.1188902557 8.050312541e-39
0.1794468313 -0.2870177627 0.07887841761 4.1168117e-39
0.160753265 -0.2744771838 0.311635673 4.391241991e-39
0.1238387078 -0.02645738982 0.1028384492 1.024575487e-38
0.3729568124 -0.3497435451 0.09831479192 2.65318348e-39
0.1253156215 -0.1649172455 0.101552926 6.952591376e-39
0.07663793117 -0.3540205359 0.1017595828 2.561706716e-39
0.2756971419 -0.1484066695 0.08743644506 7.318498431e-39
0.0821692273 -0.4222771525 0.1407458484 9.151249686e-40
0.07382892817 -0.02958613075 0.3470079601 1.015427811e-38
0.07460841537 -0.02936254814 0.110802561 1.015427811e-38
0.2376799583 -0.02831100672 0.0847472772 1.015427811e-38
0.1624856144 -0.3263429403 0.0764632374 3.202044062e-39
0.08210758865 -0.04873432592 0.1535547376 9.696894289e-39
0.0694790706 -0.269192338 0.3077872694 4.574195519e-39
0.1238066107 -0.1758179516 0.2513457239 6.678161085e-39
0.07868923992 -0.3738243878 0.2800297141 2.104322897e-39
0.0759928599 -0.1992278993 0.1162614524 6.129300502e-39
0.2108979076 -0.09944003075 0.09907437861 8.50769636e-39
0.1483282298 -0.325358212 0.1022319496 3.202044062e-39
0.0734416917 0.01749927551 0.2098989636 1.125199927e-38
0.1492138952 0.04930024222 0.1136839613 1.198381338e-38
0.3862092197 -0.06146876886 0.236929819 9.422463997e-39
0.07119034231 -0.130546689 0.3173910379 7.77588225e-39
0.2314260751 -0.3826830983 0.09384249896 1.92136937e-39
0.08661477268 -0.08400858194 0.1186377704 8.873603415e-39
0.1089961901 -0.2903871238 0.1919256896 4.025334936e-39
0.385078311 -0.2063094527 0.09356226772 6.037823739e-39
0.1103401557 -0.3234762549 0.4117507637 3.293520826e-39
0.2007869035 0.01043909602 0.09035609663 1.106904574e-38
0.2682925463 -0.03819686547 0.08210895956 9.97132458e-39
0.1222143024 -0.2868440747 0.0861062184 4.1168117e-39
0.07647732645 -0.07001662254 0.1857126653 9.23951047e-39
0.08104257286 -0.2163494229 0.3684847951 5.763393447e-39
0.07403977215 -0.3149622679 0.1033150256 3.476474354e-39
0.1145603955 -0.4165064991 0.1079393029 1.098078496e-39
0.08874323219 -0.2258139551 0.1945259273 5.58043992e-39
0.08762660623 -0.08743073791 0.2629190683 8.782126651e-39
0.1502805054 -0.3129088283 0.09455315769 3.476474354e-39
0.1061527878 -0.1327638626 0.1880432218 7.77588225e-39
0.159762159 -0.3487541378 0.3121096194 2.65318348e-39
0.2904090583 -0.238960281 0.08300189674 5.214532865e-39
0.07369778305 0.01221277658 0.2879227996 1.116052251e-38
0.1693038344 -0.1051690653 0.09328322858 8.416219596e-39
0.09199870378 -0.3936650455 0.1907956898 1.646939079e-39
0.08698558807 -0.152315408 0.1025062129 7.227021667e-39
0.07404777408 -0.2834932506 0.1143459454 4.208288464e-39
0.308334291 -0.08954155445 0.09651990235 8.782126651e-39
0.1467807889 -0.23554115 0.3995248377 5.306009629e-39
0.2734383345 0.003905252554 0.08712501079 1.088609222e-38
0.0873099193 -0.01708099432 0.09639675915 1.04287084e-38
0.1990215927 -0.1880387813 0.1020814106 6.403730794e-39
0.06863496453 -0.1817556918 0.3104515672 6.586684321e-39
0.07443796843 -0.4384304285 0.1009317338 5.492179136e-40
0.4109072685 -0.273525387 0.1001528278 4.391241991e-39
0.1153347492 -0.06467484683 0.09448638558 9.330987234e-39
0.2997309268 -0.188049227 0.1015487015 6.403730794e-39
0.4206839502 -0.06798192859 0.2153644711 9.23951047e-39
0.137767911 -0.2829875648 0.3068755865 4.208288464e-39
0.08230185509 -0.3654671311 0.1729564667 2.287276425e-39
0.07343481481 -0.01080648042 0.3733774126 1.061166193e-38
0.3416968584 -0.3482338786 0.08441603184 2.65318348e-39
0.3853758574 -0.1127378717 0.09979162365 8.233266069e-39
0.07408585399 -0.3447224796 0.3431318998 2.744660244e-39
0.07804808021 -0.1341276467 0.2041602135 7.684405486e-39
0.08550348878 -0.249099955 0.1064567044 5.031579337e-39
0.1550318301 -0.3949122727 0.1068164036 1.555462315e-39
0.05398084223 -0.02209389582 0.1473055631 1.033723163e-38
0.3002100587 -0.08938620985 0.103214778 8.782126651e-39
0.1384973228 -0.2900392711 0.3894514143 4.025334936e-39
0.06918010861 -0.2199896574 0.142023772 5.671916684e-39
0.1870195866 -0.3403553963 0.09035535902 2.836137007e-39
0.09958596528 0.06083580106 0.1149805412 1.225824367e-38
0.08384869993 -0.1260919571 0.1066152006 7.867359014e-39
0.1729462147 -0.1114270091 0.098962605 8.233266069e-39
0.1069993973 -0.2585137486 0.08897239715 4.757149046e-39
0.1239582151 -0.2134182304 0.2521776557 5.854870211e-39
0.1141913459 -0.09532423317 0.2485619783 8.599173124e-39
0.09414608032 -0.3518511951 0.1370593905 2.561706716e-39
0.07734300941 -0.2727938592 0.2981902361 4.482718755e-39
0.2481434792 -0.398745358 0.09962477535 1.463985551e-39
0.2979315221 -0.2996406257 0.1016644016 3.842381409e-39
0.0728712976 -0.08733056486 0.3862797022 8.782126651e-39
0.07475420088 -0.3772353232 0.1017852947 2.012846134e-39
0.2237642258 0.02526011504 0.09954530746 1.14349528e-38
0.1230740845 -0.3473128974 0.2598760128 2.744660244e-39
0.3026790917 -0.1787805408 0.08417102695 6.678161085e-39
0.3843851984 -0.07296734303 0.2365901768 9.148033706e-39
0.06807482243 -0.09712522477 0.1933291107 8.599173124e-39
0.1809921563 -0.1533720195 0.08937333524 7.227021667e-39
0.3020406067 -0.009409762919 0.09398657084 1.061166193e-38
0.1113726795 -0.1983188093 0.1610571146 6.220777266e-39
0.0795718804 -0.3989913762 0.1723708808 1.463985551e-39
0.08343720436 -0.1833310425 0.3568522334 6.586684321e-39
0.1358210295 -0.3491865098 0.3626884222 2.65318348e-39
0.07283236831 -0.4493232071 0.1515048891 2.747876224e-40
0.06875507534 0.005332998931 0.1806536615 1.097756898e-38
0.07407099754 -0.01713662781 0.2852081358 1.04287084e-38
0.1229826137 -0.07456442714 0.1007872373 9.056556942e-39
0.4098490775 -0.2995781898 0.0987906754 3.842381409e-39
0.1368873268 -0.2149933875 0.1017802507 5.763393447e-39
0.06698988378 -0.3088847995 0.2557864189 3.567951117e-39
0.2615834177 -0.2246836871 0.1004392952 5.58043992e-39
0.08880245686 -0.3224815726 0.1097893119 3.293520826e-39
0.3842248619 -0.02394472249 0.1118108109 1.024575487e-38
0.1122654155 -0.3459281921 0.09028559923 2.744660244e-39
0.07174228877 -4.159659147e-05 0.09250692278 1.079461545e-38
0.08473841846 -0.2259918004 0.2783605158 5.58043992e-39
0.1857916415 0.03951504081 0.1125724167 1.180085986e-38
0.06999374926 -0.1610756516 0.09529883415 7.04406814e-39
0.2402113825 -0.3372808993 0.07077568024 2.927613771e-39
0.3975784779 -0.1613457501 0.1100339219 7.04406814e-39
0.1373216063 -0.3020516634 0.103513293 3.750904645e-39
0.1114385948 -0.2833430171 0.2026146054 4.208288464e-39
0.211136207 -0.06130612642 0.09985214472 9.422463997e-39
0.1116256043 -0.07394246757 0.3368222117 9.148033706e-39
0.4026116431 -0.06981420517 0.2284872383 9.23951047e-39
0.07305157185 -0.0869256109 0.1190109923 8.782126651e-39
0.0740891546 -0.2992424071 0.3995048106 3.842381409e-39
0.1231742129 -0.08669687063 0.1881645322 8.782126651e-39
0.1071589813 -0.4411419332 0.1060583517 5.492179136e-40
0.07144103944 -0.06586682796 0.1923660189 9.330987234e-39
0.07389983535 -0.1880568117 0.2806228697 6.403730794e-39
0.2363485098 -0.05555448309 0.1007701606 9.513940761e-39
0.1857547611 -0.1613892615 0.1006093398 7.04406814e-39
0.1609220654 -0.2867960036 0.2991908491 4.1168117e-39
0.08965052664 -0.3823039532 0.09174323827 1.92136937e-39
0.08424736559 -0.3470386565 0.2292934507 2.744660244e-39
0.3851318359 -0.3360064924 0.1115899384 2.927613771e-39
0.0738298893 -0.04933996871 0.3888247311 9.696894289e-39
0.1035733372 0.01626360789 0.08525530994 1.125199927e-38
0.2786791921 -0.08788222075 0.08553344011 8.782126651e-39
0.07514490932 -0.2513529658 0.1031085476 4.940102574e-39
0.2710937858 -0.2548065782 0.09424828738 4.84862581e-39
0.07391351461 -0.4235081375 0.2132249922 9.151249686e-40
0.07665656507 -0.159101963 0.153537035 7.135544904e-39
0.1482015699 -0.3232314289 0.3993757665 3.293520826e-39
0.2376183271 -0.3931407928 0.1056931317 1.646939079e-39
0.0741019249 0.02396237664 0.2638056278 1.14349528e-38
0.07396521419 -0.3618614376 0.3622882366 2.378753189e-39
0.2162356973 -0.02526747808 0.09813450277 1.024575487e-38
0.3862529993 -0.2455304712 0.08872354031 5.123056101e-39
0.1096153557 -0.2152657062 0.2413381636 5.763393447e-39
0.1364041865 -0.2506063581 0.3486323953 4.940102574e-39
0.3982917666 -0.08574408293 0.111709103 8.873603415e-39
0.1175003797 -0.3612624109 0.1090457067 2.378753189e-39
0.07871736586 -0.1252182871 0.3377860487 7.867359014e-39
0.1678710878 -0.1447848082 0.08741573989 7.409975195e-39
0.1115732938 -0.1385323703 0.1013510153 7.592928722e-39
0.1859856844 -0.2883111238 0.08909846097 4.1168117e-39
0.1229151487 -0.07371412963 0.2502938211 9.148033706e-39
0.08048910648 -0.2923170626 0.1258247793 4.025334936e-39
0.1184551045 -0.03448928893 0.09169506282 1.006280134e-38
0.08394230157 -0.2356085479 0.270439446 5.306009629e-39
0.1058717743 -0.2638969719 0.09567826241 4.665672282e-39
0.1357847154 -0.3333007097 0.2993428409 3.019090535e-39
0.07167571783 -0.000776425004 0.0958224088 1.079461545e-38
0.2995021641 -0.1630096585 0.1022972837 7.04406814e-39
0.4102735221 -0.06171442568 0.2497654855 9.422463997e-39
0.3023172915 -0.3547559977 0.08968671411 2.561706716e-39
0.09362907708 -0.01225885935 0.1923655868 1.052018516e-38
0.08438842744 -0.1843701303 0.1095740497 6.495207557e-39
0.1562986076 -0.3865449429 0.1058829203 1.829892606e-39
0.3629134893 -0.03054968268 0.08910737932 1.015427811e-38
0.07440648973 -0.2753148973 0.258420378 4.391241991e-39
0.08601423353 -0.04177810252 0.3496396542 9.879847816e-39
0.08403728902 -0.3727256358 0.1205016673 2.104322897e-39
0.2726011872 0.01399173867 0.1126698181 1.116052251e-38
0.0689086318 -0.07764300704 0.1054910347 9.056556942e-39
0.07141452283 -0.3766662776 0.2149080634 2.012846134e-39
0.2224106491 -0.236591652 0.1009886637 5.306009629e-39
0.08619867265 0.03345357627 0.1211120114 1.161790633e-38
0.1242136732 -0.1512902379 0.1901151687 7.318498431e-39
0.09312608093 -0.07422316074 0.09731675684 9.056556942e-39
0.3473975658 -0.1869772226 0.08905940503 6.495207557e-39
0.1277129501 -0.2675917745 0.3905962408 4.574195519e-39
0.398833245 -0.06449789554 0.1608736962 9.330987234e-39
0.06885866821 -0.1572037637 0.289473772 7.135544904e-39
0.1116523221 -0.4502278268 0.1010319665 2.747876224e-40
0.1236763075 -0.2737553418 0.1873909235 4.391241991e-39
0.3782924712 -0.3025266826 0.09869345278 3.750904645e-39
0.07439547032 -0.000640142418 0.3136993945 1.079461545e-38
0.07352220267 -0.1867479235 0.3858776093 6.495207557e-39
0.2247889489 -0.3378739655 0.1010400876 2.927613771e-39
0.1388154328 -0.3272712529 0.2744227946 3.202044062e-39
0.09581124038 -0.2619492412 0.1015581265 4.665672282e-39
0.2884296775 -0.09922064841 0.0833248049 8.50769636e-39
0.08001482487 -0.3048505187 0.377332896 3.659427881e-39
0.0745100975 -0.351544559 0.1025889814 2.561706716e-39
0.1220280528 -0.01078664511 0.09207629412 1.061166193e-38
0.1982352138 -0.1382397413 0.1003609896 7.592928722e-39
0.07287689298 -0.4210164547 0.1500421911 1.006601732e-39
0.07841762155 -0.2143518478 0.2539849579 5.854870211e-39
0.2770446241 -0.3785153627 0.09137503803 2.012846134e-39
0.1774643958 -0.2060523182 0.08953461051 6.037823739e-39
0.1224253774 -0.1112545356 0.2500886023 8.233266069e-39
0.0733371675 -0.137027666 0.1022305116 7.592928722e-39
0.07745333761 -0.2540589869 0.1049124748 4.84862581e-39
0.25737679 -0.1951845586 0.07570420206 6.31225403e-39
0.0810406059 -0.3258008659 0.1390459538 3.202044062e-39
0.1173828542 -0.3296638727 0.3421703875 3.110567299e-39
0.08521214873 -0.1409183145 0.2576849759 7.501451959e-39
0.1357536167 -0.2063674927 0.09691337496 6.037823739e-39
0.1720016301 0.00350289885 0.09959691763 1.088609222e-38
0.3599570096 -0.01181794889 0.1118657067 1.052018516e-38
0.2366551161 -0.2727413177 0.08942574263 4.482718755e-39
0.3825064898 -0.09454006702 0.1969523728 8.599173124e-39
0.160087496 -0.3372655213 0.1009073555 2.927613771e-39
0.07420050353 0.001190247014 0.2453995347 1.088609222e-38
0.07411723584 -0.4003807306 0.263703078 1.463985551e-39
0.1233279333 -0.2737204731 0.2502959967 4.391241991e-39
0.3610016406 -0.1461523175 0.09646719694 7.409975195e-39
0.07280389965 -0.09048827738 0.2869956195 8.690649887e-39
0.145595938 -0.1072751582 0.08747683465 8.324742832e-39
0.08603491634 -0.04227241874 0.1139198244 9.879847816e-39
0.2105092406 -0.4111532569 0.1127807274 1.18955526e-39
0.07625729591 -0.1740824282 0.142599687 6.769637849e-39
0.1130100563 -0.2230369449 0.3471349776 5.58043992e-39
0.08167973906 -0.3510162532 0.3548534811 2.65318348e-39
0.07540471107 -0.1030972898 0.104109481 8.416219596e-39
0.3985106647 -0.3241287172 0.1002900675 3.293520826e-39
0.07332260162 -0.09747938067 0.3591777682 8.599173124e-39
0.1223553866 -0.1987815648 0.1733928919 6.220777266e-39
0.08651900291 -0.451404959 0.09956924617 2.747876224e-40
0.1245391145 0.04826783016 0.102457583 1.198381338e-38
0.2598650455 -0.3025582135 0.07797404379 3.750904645e-39
0.07437188923 -0.3009307981 0.3140740693 3.750904645e-39
0.2739020884 0.01298638526 0.09867358953 1.116052251e-38
0.1018406451 -0.3375002444 0.09171937406 2.927613771e-39
0.0865086019 -0.0539386794 0.1858979613 9.605417525e-39
0.08749334514 -0.1902192086 0.103778407 6.403730794e-39
0.3100925386 -0.1120559275 0.100387767 8.233266069e-39
0.07430247962 -0.3988243937 0.1998372972 1.463985551e-39
0.0671742335 -0.03715581447 0.3307329714 9.97132458e-39
0.1667307317 -0.07716599852 0.0864052251 9.056556942e-39
0.06922312081 -0.2167733163 0.31688115 5.763393447e-39
0.2754452825 -0.2236835063 0.08090949059 5.58043992e-39
0.3586369753 -0.06116209924 0.08534263074 9.422463997e-39
0.08249463141 -0.3893784285 0.1193808764 1.738415842e-39
0.160762623 -0.2735117078 0.3259577453 4.391241991e-39
0.08664351702 -0.1150754616 0.1294969022 8.141789305e-39
0.1995079666 -0.2380501926 0.1016660631 5.306009629e-39
0.1140467376 -0.224685207 0.2405702025 5.58043992e-39
0.1202674806 -0.2478469759 0.3799843192 5.031579337e-39
0.3679927886 -0.2443688065 0.0913683027 5.123056101e-39
0.323500663 -0.3616038263 0.1127224192 2.378753189e-39
0.07993819565 -0.3225059509 0.161290139 3.293520826e-39
0.07286034524 -0.02313436568 0.09381041676 1.033723163e-38
0.13138704 -0.3358033299 0.08958132565 3.019090535e-39
0.1147982702 -0.111402832 0.1003499329 8.233266069e-39
0.1101343334 -0.0865207687 0.3743913174 8.782126651e-39
0.1885359585 -0.08096315712 0.09136345983 8.965080179e-39
0.124573864 -0.3341546059 0.3322191238 3.019090535e-39
0.0716317445 -0.277507782 0.1239829361 4.299765227e-39
0.07433500886 0.007736306638 0.2136436552 1.097756898e-38
0.1230327636 -0.1364827007 0.2375524044 7.684405486e-39
0.248312965 -0.3991045058 0.1133031473 1.463985551e-39
0.07358659804 -0.2953102887 0.3303060532 3.933858172e-39
0.21112369 0.02462700382 0.1006946117 1.14349528e-38
0.4233677685 -0.06219761446 0.1990151554 9.422463997e-39
0.1222578138 -0.4461893141 0.1070946157 3.662643861e-40
0.3845667243 -0.1357916445 0.1007783711 7.684405486e-39
0.09413287789 -0.08097334206 0.1093551815 8.965080179e-39
0.09388168156 -0.1729516238 0.1025680825 6.769637849e-39
0.1224013492 -0.2976675034 0.1063941121 3.842381409e-39
0.3856334388 -0.2649227977 0.08864278346 4.665672282e-39
0.0956485495 0.01406311989 0.1067877412 1.116052251e-38
0.08482711762 -0.3715940118 0.2437561899 2.104322897e-39
0.07896846533 -0.1324042678 0.2475025803 7.77588225e-39
0.08447544277 -0.1964582205 0.3604996204 6.220777266e-39
0.2121663541 -0.1735151857 0.09493786097 6.769637849e-39
0.3447234631 -0.02518689074 0.09508803487 1.024575487e-38
0.1380729079 -0.2955863178 0.3987941146 3.933858172e-39
0.1102809832 -0.09743124247 0.1699078083 8.599173124e-39
0.08385626227 -0.2528836429 0.1170084476 4.940102574e-39
0.1740845889 -0.4122681618 0.100892894 1.18955526e-39
0.07333173603 -0.3487554789 0.3873730004 2.65318348e-39
0.07736179978 -0.2328684032 0.2120214999 5.397486392e-39
0.0742508322 -0.3631325364 0.1005486473 2.378753189e-39
0.2310226411 -0.1758364141 0.08430150896 6.678161085e-39
0.1357390285 -0.348456502 0.2873445153 2.65318348e-39
0.3796739876 -0.3256084323 0.08548927307 3.202044062e-39
0.08945178241 -0.03678026423 0.2754800916 9.97132458e-39
0.1684630513 -0.05665717274 0.09172938764 9.513940761e-39
0.272262603 -0.2985160053 0.1002940238 3.842381409e-39
0.08042346686 -0.3342070282 0.1353171468 3.019090535e-39
0.08447930217 -0.06249140948 0.1919193268 9.330987234e-39
0.379756093 -0.2064409256 0.0937352851 6.037823739e-39
0.08731494099 -0.2392569929 0.2724424601 5.214532865e-39
0.08994034678 -0.009347034618 0.1047004238 1.061166193e-38
0.3107599914 0.0003502875043 0.1008343175 1.088609222e-38
0.07914954424 -0.1983547062 0.1200233176 6.220777266e-39
0.1130485535 -0.2803329825 0.1924046576 4.299765227e-39
0.4107808769 -0.06369002163 0.17404598 9.330987234e-39
0.160320729 -0.2201397717 0.08883094043 5.671916684e-39
0.3853397369 -0.09984119982 0.1005125567 8.50769636e-39
0.1104740202 -0.09527412057 0.3509374261 8.599173124e-39
0.1441706568 -0.2787953615 0.3097337186 4.299765227e-39
0.3229987025 -0.3616246879 0.09846842289 2.378753189e-39
0.1363665462 -0.1512381285 0.1012136415 7.318498431e-39
0.1741107851 0.03639478981 0.1119371802 1.170938309e-38
0.08365992457 -0.3785246313 0.2951923013 2.012846134e-39
0.07302621007 -0.4484027028 0.1122309938 3.662643861e-40
0.07258208841 -0.00970410835 0.2735621035 1.061166193e-38
0.1980364323 -0.2739289701 0.1006695479 4.391241991e-39
0.09315598756 -0.1501672864 0.281562537 7.318498431e-39
0.1362767369 -0.03755277023 0.1011677533 9.97132458e-39
0.07764884084 -0.2850052714 0.09844905138 4.208288464e-39
0.07611112297 -0.3845238686 0.0864225328 1.829892606e-39
0.2092499733 -0.271597594 0.0750618577 4.482718755e-39
0.0659071058 -0.03366882727 0.1128675267 1.006280134e-38
0.06881545484 -0.3874405921 0.1245592535 1.738415842e-39
0.07280366123 -0.1180929914 0.09629733115 8.050312541e-39
0.1909199357 -0.1353431046 0.0830540061 7.684405486e-39
0.07289060205 -0.2539341748 0.1644102335 4.84862581e-39
0.07302756608 -0.02609946206 0.3417738676 1.024575487e-38
0.2353244722 -0.3992662728 0.09959190339 1.463985551e-39
0.08688443154 0.04813440517 0.1024784595 1.198381338e-38
0.1987638474 -0.08756177872 0.100767225 8.782126651e-39
0.3707732856 -0.02693748102 0.09646357596 1.024575487e-38
0.111089848 -0.2300483435 0.09366511554 5.488963156e-39
0.1604075432 -0.3231176138 0.3739241064 3.293520826e-39
0.08181134611 -0.3444866836 0.218478635 2.744660244e-39
0.1071328521 -0.08595044911 0.224672839 8.782126651e-39
0.08037339896 -0.2738035023 0.3341159225 4.391241991e-39
0.2556121349 0.0008098222315 0.08456166834 1.088609222e-38
0.3983615935 -0.3235610723 0.1129751652 3.293520826e-39
0.1234060302 -0.2240314633 0.2502762973 5.58043992e-39
0.07836283743 -0.1610783935 0.123854816 7.04406814e-39
0.3500196636 -0.2497234792 0.07910747081 5.031579337e-39
0.2939418256 -0.1094876379 0.09493365884 8.233266069e-39
0.1422824562 -0.3350619078 0.1064346433 3.019090535e-39
0.1408298314 -0.3262573183 0.274559617 3.202044062e-39
0.1358229965 -0.2241928875 0.3608302772 5.58043992e-39
0.08777572215 -0.2023442239 0.1024180502 6.129300502e-39
0.073790133 -0.1368038207 0.3740664423 7.592928722e-39
0.08208104223 -0.3243198991 0.3669208288 3.202044062e-39
0.12244609 -0.4486776888 0.1113004535 3.662643861e-40
0.07348038256 0.02502358332 0.200065136 1.14349528e-38
0.1815200001 -0.1939923912 0.09054944664 6.31225403e-39
0.06368867308 -0.0650036931 0.2872873247 9.330987234e-39
0.0809212327 -0.3675327003 0.1118357256 2.195799661e-39
0.1625187993 -0.3553974926 0.0895601511 2.561706716e-39
0.2976782918 -0.07446684688 0.09883762896 9.056556942e-39
0.07394579053 -0.3927598894 0.1756238937 1.646939079e-39
0.08946285397 -0.05971476436 0.1081899479 9.422463997e-39
0.1104939878 -0.15970622 0.2213262469 7.135544904e-39
0.4096686244 -0.06316182017 0.2126499861 9.330987234e-39
0.3103103042 -0.2118038833 0.1005831584 5.854870211e-39
0.09495531768 -0.0778157264 0.08683033288 9.056556942e-39
0.1576692164 0.01885086298 0.09559930116 1.125199927e-38
0.0749778226 -0.1852551848 0.263106674 6.495207557e-39
0.3979586363 -0.1991981566 0.1006284207 6.129300502e-39
0.07371843606 -0.3163833618 0.1320887357 3.38499759e-39
0.07583091408 0.007611505687 0.09470994025 1.097756898e-38
0.07328411192 -0.07315689325 0.3867852986 9.148033706e-39
0.372312665 -0.05212499201 0.09103725106 9.605417525e-39
0.07370970398 -0.2871325016 0.312623173 4.1168117e-39
0.2241710126 -0.2754762769 0.1013778746 4.391241991e-39
0.1479688883 -0.2738145292 0.4128473997 4.391241991e-39
0.07161739469 -0.09125949442 0.1088839024 8.690649887e-39
0.1891000569 -0.4018143713 0.1017659605 1.463985551e-39
0.3180105686 -0.3254705071 0.1032763496 3.202044062e-39
0.08314643055 -0.2362037748 0.1183284223 5.306009629e-39
0.09605161101 -0.1490859538 0.08963707089 7.318498431e-39
0.4096636772 -0.2733647823 0.111114651 4.482718755e-39
0.07400593162 0.02358351275 0.2520424128 1.14349528e-38
0.08654561639 -0.1942740381 0.3528347909 6.31225403e-39
0.1406371295 -0.3345842659 0.2875721455 3.019090535e-39
0.2509681582 -0.009340453893 0.0844321996 1.061166193e-38
0.0881043449 -0.4326199293 0.1084548533 7.321714411e-40
0.1219859868 -0.2638183236 0.1007916033 4.665672282e-39
0.07434821129 -0.3619249761 0.3516847789 2.378753189e-39
0.08885914832 -0.120192267 0.1708861589 8.050312541e-39
0.2483223528 -0.1234804466 0.09955189377 7.958835777e-39
0.1239137724 -0.2246783376 0.1874058694 5.58043992e-39
0.08253853023 -0.3440019488 0.1212463528 2.744660244e-39
0.1588454694 -0.04200268537 0.08309921622 9.879847816e-39
0.4233581424 -0.06126127392 0.2362920642 9.422463997e-39
0.1341409087 -0.3354104459 0.09221696854 3.019090535e-39
0.1100328639 -0.0863263458 0.3481830657 8.782126651e-39
0.1123090982 -0.1016148999 0.102612555 8.416219596e-39
0.08932628483 -0.202669993 0.2665419877 6.129300502e-39
0.3230572641 -0.135548532 0.09906664491 7.684405486e-39
0.2750517428 -0.3738042116 0.0950210914 2.104322897e-39
0.1177792028 -0.2742278278 0.2559114993 4.391241991e-39
0.1840045452 -0.2065755129 0.09059960395 6.037823739e-39
0.1230783015 -0.07362945378 0.236236155 9.148033706e-39
0.136588648 0.05049509183 0.1132333726 1.198381338e-38
0.3256732821 -0.02540806308 0.08615857363 1.024575487e-38
0.3982858062 -0.1735981256 0.1115277782 6.769637849e-39
0.06406755745 -0.4031742215 0.1375444978 1.372508787e-39
0.06351213902 -0.02261891961 0.1070559919 1.033723163e-38
0.07394769043 -0.01165082399 0.3624306619 1.061166193e-38
0.1238842681 -0.3113133311 0.4143558741 3.567951117e-39
0.1355320811 -0.362937957 0.1051655561 2.378753189e-39
0.1139917076 -0.2286182493 0.3508249521 5.488963156e-39
0.09871210903 -0.05361095816 0.09652107954 9.605417525e-39
0.07559085637 -0.05728846043 0.1860056967 9.513940761e-39
0.1005198061 -0.1782363504 0.105033502 6.678161085e-39
0.275677979 -0.2560278773 0.08541692048 4.84862581e-39
0.0673827976 -0.2755546868 0.2275227904 4.391241991e-39
0.4102187157 -0.2991699278 0.1105741337 3.842381409e-39
0.08722278476 -0.3021732271 0.1016509309 3.750904645e-39
0.07413554937 -0.4005856812 0.1016788185 1.463985551e-39
0.06965433806 -0.3566590846 0.2821654975 2.470229952e-39
0.2498581111 -0.04972684011 0.09918953478 9.696894289e-39
0.06719017029 -0.1057340875 0.09255985916 8.324742832e-39
0.3977768123 -0.04849649593 0.2122733593 9.696894289e-39
0.3974003494 -0.04940545186 0.1126047298 9.696894289e-39
0.06679490209 -0.1580589861 0.2606414557 7.135544904e-39
0.1851014644 -0.01500336267 0.09468563646 1.052018516e-38
0.3336273432 -0.3498362601 0.09236841649 2.65318348e-39
0.1151985675 -0.1741690189 0.1770326942 6.769637849e-39
0.1048460081 -0.24922885 0.3799794614 5.031579337e-39
0.1607472003 -0.3243416846 0.2864393294 3.202044062e-39
0.1863823235 -0.2134472281 0.1017552614 5.854870211e-39
0.07371949404 0.0001354878186 0.2991075516 1.088609222e-38
0.1788636446 -0.4029994011 0.08834253997 1.372508787e-39
0.0781820789 -0.3968278766 0.154067263 1.555462315e-39
0.08364030719 -0.03579461575 0.1013442725 9.97132458e-39
0.1235848591 -0.2749542892 0.1764171869 4.391241991e-39
0.1853199303 -0.1117615551 0.1017681658 8.233266069e-39
0.07860017568 -0.178426832 0.1113439649 6.678161085e-39
0.0764663741 -0.09402443469 0.3278020024 8.599173124e-39
0.1561267376 -0.2900770307 0.08434264362 4.025334936e-39
0.3060979843 -0.1364447325 0.07987138629 7.684405486e-39
0.1452635229 -0.335586518 0.3737777472 3.019090535e-39
0.07518182695 -0.2449432015 0.3310717046 5.123056101e-39
0.0799311325 -0.001683233306 0.1819093823 1.079461545e-38
0.3049014509 -0.06275660545 0.0883846879 9.330987234e-39
0.2951590121 -0.2231920958 0.09315352142 5.58043992e-39
0.09503195435 -0.4160583019 0.1445298344 1.098078496e-39
0.07861562073 -0.255124867 0.1362303793 4.84862581e-39
0.0783361271 -0.3269912302 0.2334131449 3.202044062e-39
0.1077402383 -0.1112645641 0.1609881073 8.233266069e-39
0.285475105 -0.3758643866 0.1017510593 2.012846134e-39
0.2599219084 -0.2631625831 0.08381511271 4.665672282e-39
0.1340104789 -0.275043577 0.3182377219 4.391241991e-39
0.1367724538 -0.3083779216 0.1044404209 3.659427881e-39
0.09520612657 -0.1253584474 0.2454500943 7.867359014e-39
0.1130901054 0.04698963836 0.104236342 1.198381338e-38
0.2361253798 -0.1650988311 0.08438704163 6.952591376e-39
0.1102221534 -0.1856725514 0.2231876701 6.495207557e-39
0.3761698902 -0.05075285584 0.192146197 9.605417525e-39
0.1614521891 -0.4236902893 0.1117299497 9.151249686e-40
0.08205299079 -0.305742383 0.189469263 3.659427881e-39
0.2108236253 0.02490126155 0.1110834926 1.14349528e-38
0.07502277941 -0.0895947963 0.1030096114 8.782126651e-39
0.09967258573 -0.08096457273 0.3529736996 8.965080179e-39
0.09140565246 -0.2247616053 0.1083176509 5.58043992e-39
0.07403322309 -0.3745841682 0.3120640516 2.104322897e-39
0.07771965116 -0.3598913252 0.1003736481 2.378753189e-39
0.32249102 -0.1235790551 0.09928097576 7.958835777e-39
0.07493212819 0.02586756274 0.1377020627 1.14349528e-38
0.06743074954 -0.2198301703 0.2508720458 5.671916684e-39
0.1287795603 -0.2746356428 0.3918097615 4.391241991e-39
0.2166375965 -0.3254691958 0.1084893942 3.202044062e-39
0.07452680916 0.01138253324 0.2762739062 1.106904574e-38
0.1610214561 -0.037128672 0.1021953672 9.97132458e-39
0.07022881508 -0.1315245777 0.1278361976 7.77588225e-39
0.0692627281 -0.3715305626 0.1686768085 2.104322897e-39
0.3485665023 -0.01234620344 0.100641191 1.052018516e-38
0.07338241488 -0.3244391382 0.4010154605 3.202044062e-39
0.3483233154 -0.3493462503 0.1128267422 2.65318348e-39
0.07323319465 -0.1617453843 0.3744857907 7.04406814e-39
0.3984457552 -0.2246335894 0.09880889207 5.58043992e-39
0.1738004386 -0.2126213014 0.1009915844 5.854870211e-39
0.1223778725 -0.1249638572 0.2369123548 7.867359014e-39
0.1710275859 -0.1041613519 0.08124314249 8.416219596e-39
0.20772928 -0.2263073623 0.07804834843 5.58043992e-39
0.09268721938 -0.2835052609 0.1141885966 4.208288464e-39
0.1083789915 -0.2434092313 0.2398023009 5.123056101e-39
0.2231183797 -0.3758044541 0.1075823903 2.012846134e-39
0.08693025261 -0.4294960201 0.1166721061 8.236482049e-40
0.1607552022 -0.337410748 0.3499345779 2.927613771e-39
0.2789343596 0.0005140940193 0.08612385392 1.088609222e-38
0.09455639124 -0.04086176679 0.11619813 9.879847816e-39
0.09958690405 -0.3174129128 0.09061278403 3.38499759e-39
0.3849364221 -0.1495422274 0.1012413949 7.318498431e-39
0.09317973256 -0.03422158211 0.3160269856 1.006280134e-38
0.1236721873 -0.1491137445 0.1023462266 7.318498431e-39
0.08493813127 -0.1987427622 0.1130851656 6.220777266e-39
0.3910565376 -0.06454666704 0.1630314887 9.330987234e-39
0.078129448 -0.361979425 0.1140088812 2.378753189e-39
0.07259345055 -0.09215631336 0.250671804 8.690649887e-39
0.4096808434 -0.2855696678 0.1136809364 4.1168117e-39
0.08273680508 -0.0233480446 0.1019172221 1.033723163e-38
0.1202405542 -0.2414938658 0.3591575325 5.214532865e-39
0.2177675366 -0.2840087712 0.08853180707 4.208288464e-39
0.07321448624 -0.2757890224 0.3144576848 4.391241991e-39
0.3963484168 -0.06188876554 0.1121363416 9.422463997e-39
0.1622103155 -0.1658192128 0.09561367333 6.952591376e-39
0.1575506777 -0.00364443101 0.09137280285 1.079461545e-38
0.08228254318 -0.3876984417 0.2194508314 1.738415842e-39
0.07669024915 -0.2088271528 0.3617872596 5.946346975e-39
0.1104954332 -0.07348317653 0.3758963645 9.148033706e-39
0.08420695364 -0.09211975336 0.1006905958 8.690649887e-39
0.2853405476 -0.07410922647 0.09853939712 9.148033706e-39
0.1493061036 -0.3640763164 0.1007962525 2.287276425e-39
0.1247317418 -0.2755527794 0.2020232975 4.391241991e-39
0.06734862924 -0.2015347928 0.1620618701 6.129300502e-39
0.0867042467 -0.4033690393 0.1085099056 1.372508787e-39
0.07699459791 -0.3285578787 0.3736564517 3.110567299e-39
0.1234702393 -0.08707259595 0.2005400956 8.782126651e-39
0.2902723253 -0.2143386602 0.08596205711 5.854870211e-39
0.2042301297 -0.2465163767 0.09084508568 5.031579337e-39
0.06907060742 -0.3330046833 0.1646291018 3.019090535e-39
0.07478516549 0.02349859849 0.2144894749 1.14349528e-38
0.1271907687 -0.352448225 0.2782196999 2.561706716e-39
0.09969694167 -0.1637340784 0.1020107493 7.04406814e-39
0.2860524654 -0.3743900061 0.1115330085 2.104322897e-39
0.1870029569 -0.06310647726 0.1007781178 9.330987234e-39
0.1367505342 -0.2620858848 0.3002420366 4.665672282e-39
0.09355401248 -0.2562407851 0.1077045649 4.84862581e-39
0.08171380311 -0.1502999812 0.3580866158 7.318498431e-39
0.2161976993 -0.005091034807 0.08751288801 1.070313869e-38
0.3692115843 -0.3245609701 0.08055415004 3.202044062e-39
0.07064232975 -0.3924375772 0.1441072524 1.646939079e-39
0.1606486142 -0.4130119383 0.09976810962 1.18955526e-39
0.07420618087 0.04886066541 0.1514074057 1.198381338e-38
0.1063704044 -0.2009492069 0.1706523299 6.129300502e-39
0.1124102548 -0.06776248664 0.09706122428 9.23951047e-39
0.4109950662 -0.07354485989 0.2373339236 9.148033706e-39
0.3160719872 -0.1511169374 0.09376129508 7.318498431e-39
0.1606775224 -0.2737208903 0.3993457556 4.391241991e-39
0.06352502853 -0.03172159195 0.2747343779 1.006280134e-38
0.2492024451 -0.2960474789 0.09823242575 3.933858172e-39
0.386839658 -0.03668608144 0.099967435 9.97132458e-39
0.07071184367 -0.1678137928 0.2582026124 6.952591376e-39
0.09841122478 -0.4484261274 0.09985978156 3.662643861e-40
0.08626804501 -0.273609817 0.154347688 4.391241991e-39
0.1852256656 -0.1373989135 0.1011535898 7.592928722e-39
0.1216527149 -0.3624072969 0.08733187616 2.378753189e-39
0.07213516533 -0.0651377961 0.1091819257 9.330987234e-39
0.08097591996 -0.3382093608 0.2536844611 2.927613771e-39
0.3869414032 -0.2277730405 0.08941876143 5.488963156e-39
0.1231931224 -0.09933762997 0.2501782775 8.50769636e-39
0.09624307603 -0.3080940843 0.1079634205 3.659427881e-39
0.2979948521 0.0004598586529 0.09961586446 1.088609222e-38
0.2099919319 -0.3183195591 0.09462703764 3.38499759e-39
0.07588388771 -0.2502912879 0.3303529322 4.940102574e-39
0.07232996076 -0.1642104238 0.1037377417 6.952591376e-39
0.1055470034 -0.2275457233 0.08974378556 5.488963156e-39
0.07393869758 -0.01193480287 0.3513686955 1.052018516e-38
0.1415457875 -0.3384065926 0.3258117735 2.927613771e-39
0.07883179933 -0.4045377672 0.1803081036 1.372508787e-39
0.07554629445 0.03420958668 0.1039153039 1.161790633e-38
0.2604245842 -0.1867354661 0.1013885066 6.495207557e-39
0.0699236542 -0.09258783609 0.2261814922 8.690649887e-39
0.2484684289 -0.08754009008 0.1009616703 8.782126651e-39
0.08448056132 -0.2276284844 0.2277173996 5.488963156e-39
0.09192080796 -0.1384374797 0.1027217656 7.592928722e-39
0.07420431823 -0.3165821433 0.0942774713 3.38499759e-39
0.3955100179 -0.05053386092 0.1887392849 9.696894289e-39
0.388091445 -0.2918511033 0.08924624324 4.025334936e-39
0.1474533826 0.01298996992 0.09578205645 1.116052251e-38
0.3768801391 -0.07613345981 0.09565974027 9.056556942e-39
0.1164872497 -0.3199313283 0.3843633831 3.38499759e-39
0.1246151775 -0.1746268719 0.2383709252 6.769637849e-39
0.1022137031 -0.09281523526 0.3273183405 8.690649887e-39
0.07334695756 -0.4235792756 0.1747790724 9.151249686e-40
0.1081907004 -0.3039621115 0.2553512752 3.750904645e-39
0.08307787031 0.00329602696 0.2080201358 1.088609222e-38
0.3976430595 -0.1868225336 0.1117673889 6.495207557e-39
0.127830103 -0.2342359126 0.09449739754 5.397486392e-39
0.3445391059 -0.35071522 0.08471369743 2.65318348e-39
0.08960337937 -0.3491049409 0.1188308522 2.65318348e-39
0.2061592937 -0.4016854763 0.09868574888 1.463985551e-39
0.07354162633 -0.1977933794 0.3873894513 6.220777266e-39
0.1103646159 -0.0505589582 0.07794639468 9.696894289e-39
0.09431465715 -0.2086459696 0.102015689 5.946346975e-39
0.3106799126 -0.08759836107 0.09970948845 8.782126651e-39
0.08080244064 -0.352955699 0.3011101186 2.561706716e-39
0.09883666039 -0.4455424249 0.1068872884 3.662643861e-40
0.07447373867 -0.06526826322 0.09560328722 9.330987234e-39
0.2793218791 -0.2447898686 0.08086495101 5.123056101e-39
0.2484055609 0.01404118165 0.1123310849 1.116052251e-38
0.1607824862 -0.2738447189 0.3379486501 4.391241991e-39
0.1236134022 -0.09906557202 0.1755097657 8.50769636e-39
0.08602775633 -0.2740531266 0.1143547595 4.391241991e-39
0.1992428154 -0.30019328 0.1017955765 3.842381409e-39
0.09048777819 -0.08802648634 0.3032349646 8.782126651e-39
0.1276506782 -0.1691668332 0.08897821605 6.861114612e-39
0.0864213109 -0.3549284041 0.1469396651 2.561706716e-39
0.07682491839 -0.1018721163 0.214990586 8.416219596e-39
0.2722730041 -0.3690300882 0.09834017605 2.195799661e-39
0.09387902915 -0.02968490496 0.2519824803 1.015427811e-38
0.371633321 -0.1457435787 0.09630554914 7.409975195e-39
0.1482686847 -0.2363961339 0.386729002 5.306009629e-39
0.3490220904 -0.012097748 0.1129068956 1.052018516e-38
0.3818566203 -0.06852156669 0.2204595357 9.23951047e-39
0.1235761121 -0.2366716713 0.2500651777 5.306009629e-39
0.07293731719 -0.3363484144 0.3285031617 2.927613771e-39
0.148468405 -0.407415092 0.1036012247 1.281032024e-39
0.1494885534 -0.2273432016 0.1000280902 5.488963156e-39
0.1123574153 -0.05218625069 0.1029461548 9.605417525e-39
0.1483617425 -0.3492226899 0.2994002104 2.65318348e-39
0.07398633659 -0.1613352448 0.3126688898 7.04406814e-39
0.2136346698 -0.06195256859 0.1057540849 9.422463997e-39
0.07369808108 -0.02878003009 0.3355597854 1.015427811e-38
0.06828679144 -0.1162295341 0.1228076518 8.141789305e-39
0.28575477 -0.1866647452 0.0999892354 6.495207557e-39
0.06290124357 -0.3234456778 0.1508065164 3.293520826e-39
0.07839335501 -0.3965076804 0.1084761247 1.555462315e-39
0.160263598 -0.124053821 0.1007403731 7.958835777e-39
0.07393917441 -0.007546063513 0.103515625 1.070313869e-38
0.1107114628 -0.336353451 0.3983261883 2.927613771e-39
0.1156554297 -0.364297241 0.09119408578 2.287276425e-39
0.277720809 -0.2755259871 0.08383656293 4.391241991e-39
0.1618114412 0.03638318181 0.1140565574 1.170938309e-38
0.06833461672 -0.2032846659 0.1893248409 6.037823739e-39
0.07340025157 0.02472627908 0.2246533632 1.14349528e-38
0.07479566336 -0.2895402014 0.2888898849 4.025334936e-39
0.08743218333 -0.2876319587 0.1020234004 4.1168117e-39
0.2734022439 -0.1005039364 0.09552036226 8.50769636e-39
0.099286668 -0.08594399691 0.3854251802 8.782126651e-39
0.07440892607 -0.2569724321 0.3173539937 4.84862581e-39
0.4231532812 -0.07304476202 0.2121713459 9.148033706e-39
0.1079678237 -0.1119805053 0.234901607 8.233266069e-39
0.07316322625 -0.4493521154 0.1244454831 2.747876224e-40
0.08719081432 -0.1256449819 0.1016509309 7.867359014e-39
0.1113777682 -0.2155282646 0.1595896482 5.763393447e-39
0.3629046977 -0.04705962166 0.08964375407 9.696894289e-39
0.3990737796 -0.2381205559 0.0992077142 5.306009629e-39
0.0692833066 -0.3820581734 0.2512175441 1.92136937e-39
0.2335518599 -0.3210413158 0.07835294306 3.293520826e-39
0.2232453823 -0.1123821735 0.09797215462 8.233266069e-39
0.1618027389 -0.302515626 0.1037677824 3.750904645e-39
0.3230870366 -0.1626710743 0.09805239737 7.04406814e-39
0.08864227682 -0.2150834054 0.1040663719 5.763393447e-39
0.09561775625 -0.0119750239 0.09418918192 1.052018516e-38
0.1442388445 -0.2750611007 0.372158438 4.391241991e-39
0.08535535634 -0.1388711631 0.3077413738 7.592928722e-39
0.2483110279 0.01360253617 0.1002884209 1.116052251e-38
0.2227571011 -0.3990828991 0.1008477509 1.463985551e-39
0.3792534173 -0.3158248663 0.08057773858 3.476474354e-39
0.1091798246 -0.2761869133 0.1910329759 4.391241991e-39
0.1312400103 -0.3507712781 0.311648041 2.65318348e-39
0.0837744996 -0.1232767552 0.1921583414 7.958835777e-39
0.1628165692 -0.2447940558 0.08580110967 5.123056101e-39
0.08663223684 -0.2984490395 0.09754259139 3.842381409e-39
0.08000411093 -0.0835294053 0.1039589196 8.873603415e-39
0.3009371758 -0.02372926846 0.08299544454 1.024575487e-38
0.3856136799 -0.1613063216 0.1001709178 7.04406814e-39
0.07886420935 -0.2227199525 0.2637605071 5.58043992e-39
0.1371197701 -0.433605969 0.1087322831 6.406946774e-40
0.3356447816 -0.3497736752 0.1002130881 2.65318348e-39
0.4106018543 -0.0491258651 0.2129503191 9.696894289e-39
0.09239540249 -0.0338732563 0.1907097399 1.006280134e-38
0.1232951581 -0.1623155326 0.2357551306 7.04406814e-39
0.1871970743 -0.1885930002 0.1027776226 6.403730794e-39
0.1561909169 -0.0788853094 0.0914670527 8.965080179e-39
0.09701705724 -0.3249411285 0.14566046 3.202044062e-39
0.2232215106 -0.2878166437 0.1011849642 4.1168117e-39
0.1285921931 0.01440782472 0.1016975194 1.116052251e-38
0.1159805954 -0.2734324932 0.2967698574 4.391241991e-39
0.2573656738 -0.2456553131 0.08678245544 5.123056101e-39
0.0761294812 -0.3880009651 0.1075998396 1.738415842e-39
0.07392970473 3.843585728e-05 0.2876285613 1.079461545e-38
0.06996806711 -0.232433036 0.1032740325 5.397486392e-39
0.07306906581 -0.348267585 0.3753593564 2.65318348e-39
0.07351238281 -0.04780958965 0.3437223434 9.696894289e-39
0.07142331451 -0.04449385777 0.1202218756 9.788371052e-39
0.3862758577 -0.0743753612 0.09961424023 9.056556942e-39
0.07430379093 -0.3997818232 0.236296922 1.463985551e-39
0.1059757322 -0.1555935889 0.1060538888 7.227021667e-39
0.08545171469 -0.2481027097 0.398889184 5.031579337e-39
0.2613274157 -0.3871845901 0.1126451194 1.738415842e-39
0.1487409025 -0.3497358263 0.1018241569 2.65318348e-39
0.09245297313 -0.1523306221 0.3326070607 7.227021667e-39
0.08781454712 -0.2826881409 0.1960971653 4.208288464e-39
0.2613691986 -0.07472322136 0.1015853435 9.056556942e-39
0.1103753448 -0.09397722036 0.2259657085 8.599173124e-39
0.1391150504 -0.3047617972 0.3696465194 3.659427881e-39
0.0805979073 -0.1531224251 0.1144290492 7.227021667e-39
0.3690951169 -0.2419390827 0.09218476713 5.214532865e-39
0.1814317554 0.006570616737 0.09440401196 1.097756898e-38
0.409060955 -0.07515913993 0.1916176826 9.056556942e-39
0.1611711979 -0.3365249634 0.299207449 2.927613771e-39
0.07371729612 -0.4125429094 0.1026778817 1.18955526e-39
0.07000142336 -0.07268816978 0.2416615039 9.148033706e-39
0.1493044943 -0.2394261807 0.09992879629 5.214532865e-39
0.1249036491 -0.06498450786 0.102380611 9.330987234e-39
0.2984880805 -0.1369490623 0.1002145037 7.592928722e-39
0.3986442089 -0.3114105761 0.09954931587 3.567951117e-39
0.337448895 -0.02416131273 0.103245981 1.024575487e-38
0.1590608656 -0.3188339174 0.09396722913 3.38499759e-39
0.07125549018 -0.1452729106 0.2479609251 7.409975195e-39
0.07704520226 -0.3648889065 0.2430410981 2.287276425e-39
0.1476174295 -0.235953033 0.3750715554 5.306009629e-39
0.07366836071 -0.2424677014 0.1876282543 5.123056101e-39
0.07405513525 0.02389672771 0.1899651885 1.14349528e-38
0.09860982001 -0.07402742654 0.3864845037 9.148033706e-39
0.2365113497 -0.2247158587 0.1006879136 5.58043992e-39
0.08973842114 -0.3255017102 0.1125680953 3.202044062e-39
0.1361367106 -0.4368495643 0.1119349971 6.406946774e-40
0.3101318181 -0.3616720736 0.1122893468 2.378753189e-39
0.1722506136 -0.1363606602 0.1005977169 7.684405486e-39
0.0901459381 -0.05221286789 0.1008354053 9.605417525e-39
0.3741162419 -0.1131410077 0.1013608798 8.233266069e-39
0.09814727306 -0.3361319602 0.3998273611 2.927613771e-39
0.06323078275 -0.1454561949 0.1128534824 7.409975195e-39
0.07340177894 -0.4120370448 0.21263583 1.18955526e-39
0.1234393194 -0.1870876253 0.2369748205 6.495207557e-39
0.2863596678 -0.0003963938507 0.1013282537 1.079461545e-38
0.07455625385 -0.01168684941 0.3360729814 1.052018516e-38
0.1128974706 -0.3508338928 0.08675353974 2.65318348e-39
0.1014426276 -0.09653414786 0.0984057039 8.599173124e-39
0.1370117068 0.03722186014 0.1002095491 1.170938309e-38
0.07469708472 -0.2631782889 0.3145758212 4.665672282e-39
0.3842115402 -0.06155160442 0.2081935406 9.422463997e-39
0.3323785663 -0.1849430501 0.0813074261 6.495207557e-39
0.159054324 -0.09774497896 0.08431879431 8.50769636e-39
0.3472985923 -0.3111664057 0.1232262403 3.567951117e-39
0.1243977547 -0.2640280128 0.1779380292 4.665672282e-39
0.1604879349 -0.2860691249 0.3137255013 4.1168117e-39
0.07424998283 -0.06758841127 0.220418945 9.23951047e-39
0.0921844244 -0.2121526003 0.1173663959 5.854870211e-39
0.08688997477 -0.2540160418 0.3721357882 4.84862581e-39
0.2862330377 -0.2756984532 0.1011489853 4.391241991e-39
0.07430414855 -0.1757589877 0.3134506345 6.678161085e-39
0.07378629595 -0.3260106146 0.1439549774 3.202044062e-39
0.2539225519 -0.3757002056 0.1024209112 2.012846134e-39
0.09946770966 -0.08183198422 0.339274615 8.965080179e-39
0.08587484062 -0.3849972188 0.2075687051 1.829892606e-39
0.2150777131 -0.02463147044 0.08933468908 1.024575487e-38
0.2481289506 -0.1489435136 0.1006485894 7.318498431e-39
0.07728430629 -0.03563117236 0.1117908433 9.97132458e-39
0.3740911484 -0.02405305579 0.09867884219 1.024575487e-38
0.08714987338 -0.4122084081 0.1113657653 1.18955526e-39
0.1472295225 -0.2858732045 0.4113110304 4.1168117e-39
0.07383909822 0.01258051116 0.2625864744 1.116052251e-38
0.1326004267 -0.2904054523 0.09957209975 4.025334936e-39
0.1530231088 -0.4107827544 0.1048615649 1.18955526e-39
0.08274720609 -0.3441084921 0.3554418385 2.744660244e-39
0.2809574306 -0.1343327463 0.08972266316 7.684405486e-39
0.1483311355 -0.1748818755 0.09943354875 6.769637849e-39
0.2348257303 -0.231001541 0.08276711404 5.397486392e-39
0.1031930372 -0.04756882414 0.09274300933 9.696894289e-39
0.1242386028 -0.149563536 0.2381042838 7.318498431e-39
0.1386166811 -0.3385809064 0.2886008322 2.927613771e-39
0.07413554192 -0.1238319725 0.3740704954 7.958835777e-39
0.08236085624 -0.2614533305 0.1429104358 4.757149046e-39
0.08492299914 -0.3628954887 0.1098325625 2.378753189e-39
0.2866220176 -0.0790521875 0.1005257815 8.965080179e-39
0.1945772469 -0.3292134106 0.1028677523 3.110567299e-39
0.3696983755 -0.2654696107 0.09967656434 4.665672282e-39
0.1989364773 0.02306313626 0.11556568 1.134347604e-38
0.07464494556 -0.0002570319921 0.1724153906 1.079461545e-38
0.08804251254 -0.1155917123 0.104574047 8.141789305e-39
0.1239104494 -0.2240099162 0.3491510153 5.58043992e-39
0.07209482044 -0.3350230157 0.2169962674 3.019090535e-39
0.07420510799 -0.1263644397 0.211018756 7.867359014e-39
0.3181906343 -0.350677669 0.09471730143 2.65318348e-39
0.08768540621 0.03476525843 0.1045393571 1.161790633e-38
0.0731722787 -0.03670464829 0.3749149144 9.97132458e-39
0.2112285197 -0.2370492965 0.1010785401 5.306009629e-39
0.073224172 -0.2056494951 0.116602622 6.037823739e-39
0.124804318 -0.2639455795 0.2399407923 4.665672282e-39
0.4227439761 -0.06088782474 0.2141162455 9.422463997e-39
0.06968875974 -0.07185462862 0.1068169326 9.148033706e-39
0.0863686353 -0.2737982273 0.1051077098 4.391241991e-39
0.3931285739 -0.2031915188 0.09292386472 6.037823739e-39
0.1404929757 -0.1611191332 0.09276430309 7.04406814e-39
0.1228561699 -0.08721435815 0.2136584669 8.782126651e-39
0.2739235759 -0.01135511138 0.09242976457 1.061166193e-38
0.1448501199 -0.3723393381 0.09828393161 2.104322897e-39
0.0729252845 -0.2233974785 0.386097461 5.58043992e-39
0.1607466489 -0.3119218051 0.3870043755 3.567951117e-39
0.1869154572 -0.04907889292 0.1000523791 9.696894289e-39
0.3237952292 -0.04912680387 0.08054825664 9.696894289e-39
0.07362259179 -0.3987050056 0.2492264211 1.463985551e-39
0.3993641138 -0.3115622401 0.1126241982 3.567951117e-39
0.08532101661 -0.06093005463 0.256700784 9.422463997e-39
0.3175142407 -0.1990931779 0.08359660953 6.220777266e-39
0.07983130217 -0.3784761429 0.1133561805 2.012846134e-39
0.1236504391 -0.1873842627 0.1879197508 6.495207557e-39
0.07986865938 -0.3477911055 0.3487535119 2.65318348e-39
0.07382058352 -0.1891621053 0.3118256629 6.403730794e-39
0.1003641635 -0.1908151805 0.103959389 6.403730794e-39
0.2478818595 -0.3113236427 0.09975191206 3.567951117e-39
0.07301363349 -0.3032108247 0.09980326146 3.750904645e-39
0.07443913817 -0.3121917844 0.283772409 3.567951117e-39
0.1224992275 -0.4358471036 0.1004395559 6.406946774e-40
0.125464797 0.0208019726 0.1093483791 1.134347604e-38
0.1448283792 -0.2924365103 0.3089707196 4.025334936e-39
0.07331870496 -0.1599584222 0.1500938535 7.135544904e-39
0.08083134145 -0.3976021111 0.1219547093 1.555462315e-39
0.0750162527 -0.05252480134 0.1029072925 9.605417525e-39
0.323140651 -0.09876030684 0.1020622477 8.50769636e-39
0.1521907449 -0.1228567362 0.09502321482 7.958835777e-39
0.07462250441 -0.02722502314 0.3194000125 1.024575487e-38
0.4215756655 -0.06116093323 0.2240579426 9.422463997e-39
0.1017882898 -0.3451186419 0.09041319788 2.744660244e-39
0.07780319452 0.003128599375 0.1083161533 1.088609222e-38
0.2949935496 -0.3568386436 0.09382434934 2.470229952e-39
0.1354726404 -0.2615418136 0.4127624035 4.757149046e-39
