ply
format ascii 1.0
comment Created by Open3D
element vertex 1203
property double x
property double y
property double z
property uchar red
property uchar green
property uchar blue
end_header
0.00500268 -0.388059 0.0711192 0 180 235
-0.157417 -0.236886 0.122712 0 180 235
-0.0170151 -0.274062 0.0413991 0 180 235
-0.098628 -0.430799 0.0829776 0 180 235
0.176856 -0.348895 0.126574 0 180 235
0.279928 -0.445101 0.0979207 0 180 235
0.0945762 -0.258723 0.123249 0 180 235
0.194497 -0.284286 0.103246 0 180 235
0.110873 -0.268867 0.0956675 0 180 235
-0.0244787 -0.374511 0.0636783 0 180 235
0.03115 -0.403237 0.0804009 0 180 235
-0.0536649 -0.476669 0.0879224 0 180 235
0.203167 -0.272674 0.113801 0 180 235
0.147779 -0.352045 0.0882348 0 180 235
0.149228 -0.333559 0.0891089 0 180 235
0.00925888 -0.248126 0.0907767 0 180 235
-0.00542966 -0.259469 0.052885 0 180 235
-0.0226786 -0.287104 0.0341308 0 180 235
-0.115776 -0.299517 0.0408867 0 180 235
0.221831 -0.310476 0.096819 0 180 235
-0.0279746 -0.250048 0.0736235 0 180 235
0.0431494 -0.266053 0.153234 0 180 235
-0.0806059 -0.27455 0.0431988 0 180 235
0.0956831 -0.317134 0.124398 0 180 235
0.268997 -0.390779 0.0947022 0 180 235
-0.032078 -0.244725 0.0946511 0 180 235
-0.0522636 -0.427143 0.0851796 0 180 235
0.0195339 -0.358002 0.0555318 0 180 235
0.166187 -0.441193 0.0952745 0 180 235
0.00940553 -0.416503 0.0852122 0 180 235
-0.134695 -0.243161 0.0704208 0 180 235
-0.0742143 -0.359388 0.059711 0 180 235
0.149969 -0.383614 0.0907687 0 180 235
0.202797 -0.403555 0.0864824 0 180 235
-0.0126826 -0.367146 0.0595066 0 180 235
0.159181 -0.347241 0.0900721 0 180 235
-0.120279 -0.374096 0.067945 0 180 235
0.112035 -0.380266 0.085628 0 180 235
0.00781593 -0.393226 0.116684 0 180 235
-0.0783467 -0.357497 0.0584728 0 180 235
-0.131582 -0.316 0.0484058 0 180 235
0.0314599 -0.379009 0.0678067 0 180 235
0.249302 -0.431385 0.0887964 0 180 235
0.256719 -0.415185 0.0884902 0 180 235
-0.146988 -0.351167 0.0661704 0 180 235
-0.0592009 -0.253075 0.0628548 0 180 235
-0.15242 -0.241815 0.0632909 0 180 235
-0.160219 -0.449793 0.0734562 0 180 235
0.182611 -0.35853 0.0890361 0 180 235
-0.0535941 -0.272816 0.0414239 0 180 235
0.210274 -0.369929 0.0878632 0 180 235
0.0180411 -0.33568 0.128979 0 180 235
0.0217038 -0.26678 0.169801 0 180 235
0.223422 -0.411471 0.10849 0 180 235
0.0737107 -0.255112 0.0955817 0 180 235
0.0724568 -0.433569 0.0952449 0 180 235
0.243572 -0.342348 0.0947812 0 180 235
-0.0463238 -0.466343 0.0891983 0 180 235
0.0580952 -0.425986 0.0938989 0 180 235
-0.0474065 -0.305196 0.0377505 0 180 235
0.217627 -0.287084 0.116535 0 180 235
0.112862 -0.268253 0.128745 0 180 235
0.235302 -0.311397 0.0997329 0 180 235
0.113329 -0.271922 0.0939161 0 180 235
0.109615 -0.371497 0.0828912 0 180 235
0.107274 -0.327946 0.0799211 0 180 235
-0.0306662 -0.306126 0.0372806 0 180 235
0.173908 -0.427395 0.0907376 0 180 235
0.123728 -0.378947 0.0881685 0 180 235
0.239402 -0.320678 0.109781 0 180 235
0.0175453 -0.417691 0.0867648 0 180 235
0.119229 -0.389024 0.116931 0 180 235
0.132883 -0.319931 0.0859187 0 180 235
-0.0154309 -0.247242 0.0835029 0 180 235
0.129155 -0.465324 0.101134 0 180 235
0.0441196 -0.333572 0.0559783 0 180 235
-0.134504 -0.346189 0.0613798 0 180 235
0.179205 -0.325717 0.144695 0 180 235
-0.12039 -0.243356 0.0794497 0 180 235
0.243136 -0.346386 0.0942065 0 180 235
0.0120663 -0.247995 0.106743 0 180 235
0.0796336 -0.27726 0.0758487 0 180 235
-0.0568194 -0.439522 0.0917332 0 180 235
0.156648 -0.257538 0.118699 0 180 235
0.0562551 -0.265009 0.143775 0 180 235
0.130036 -0.263124 0.103599 0 180 235
0.146615 -0.260386 0.127995 0 180 235
-0.14735 -0.240115 0.115563 0 180 235
0.225558 -0.377801 0.0874167 0 180 235
-0.113932 -0.240513 0.173771 0 180 235
0.0882748 -0.254718 0.118306 0 180 235
0.182946 -0.352847 0.090081 0 180 235
0.172497 -0.360186 0.0886428 0 180 235
-0.0742374 -0.24612 0.0727756 0 180 235
-0.0416304 -0.405233 0.0731899 0 180 235
0.140093 -0.343493 0.0874569 0 180 235
-0.165241 -0.235487 0.115143 0 180 235
-0.0900946 -0.322742 0.0451857 0 180 235
0.247978 -0.331749 0.129701 0 180 235
0.251617 -0.323016 0.0985666 0 180 235
-0.0325554 -0.251929 0.0658866 0 180 235
-0.141486 -0.364954 0.0713466 0 180 235
-0.00123631 -0.426646 0.0906738 0 180 235
0.167261 -0.339239 0.0931706 0 180 235
0.0237549 -0.425009 0.0923621 0 180 235
0.124382 -0.330662 0.0845638 0 180 235
0.134091 -0.266858 0.135707 0 180 235
0.016464 -0.450049 0.105417 0 180 235
0.0661629 -0.319193 0.0620517 0 180 235
0.0980623 -0.271438 0.0907779 0 180 235
-0.00558714 -0.255484 0.0665249 0 180 235
0.123231 -0.377102 0.087738 0 180 235
-0.0668082 -0.287504 0.0371415 0 180 235
-0.0483706 -0.394296 0.0696052 0 180 235
0.076902 -0.335719 0.0666672 0 180 235
0.123734 -0.421471 0.0930029 0 180 235
0.0883617 -0.275699 0.0796593 0 180 235
0.00205997 -0.315624 0.0442091 0 180 235
-0.0711543 -0.317236 0.0429998 0 180 235
0.0890921 -0.31947 0.128264 0 180 235
0.100903 -0.258847 0.121822 0 180 235
0.252956 -0.344622 0.0961273 0 180 235
-0.0446723 -0.250092 0.22188 0 180 235
-0.078844 -0.391305 0.0699058 0 180 235
-0.145336 -0.240963 0.113851 0 180 235
-0.110061 -0.326817 0.0492452 0 180 235
0.0838633 -0.296922 0.189373 0 180 235
0.0266235 -0.271946 0.0606019 0 180 235
0.00396576 -0.247582 0.108776 0 180 235
0.18063 -0.364273 0.088281 0 180 235
-0.136373 -0.297217 0.0422267 0 180 235
0.00194127 -0.275431 0.226268 0 180 235
-0.0056706 -0.246591 0.102796 0 180 235
-0.0396972 -0.250236 0.0693704 0 180 235
0.170547 -0.356742 0.0889675 0 180 235
0.217062 -0.310853 0.0970227 0 180 235
0.225438 -0.307808 0.0973501 0 180 235
0.127076 -0.364303 0.139304 0 180 235
0.0756331 -0.322258 0.0666658 0 180 235
0.120319 -0.347442 0.0828508 0 180 235
-0.0309558 -0.442431 0.0940335 0 180 235
0.175549 -0.331911 0.095025 0 180 235
-0.0444461 -0.245742 0.182303 0 180 235
-0.0683387 -0.301101 0.0383696 0 180 235
-0.119934 -0.429243 0.081825 0 180 235
-0.104275 -0.243575 0.117906 0 180 235
-0.0757006 -0.244542 0.0823724 0 180 235
0.157952 -0.398559 0.138141 0 180 235
0.0167686 -0.343592 0.127718 0 180 235
-0.0825747 -0.241799 0.14926 0 180 235
0.093866 -0.274137 0.0869002 0 180 235
0.156086 -0.257847 0.122538 0 180 235
0.15844 -0.316673 0.126158 0 180 235
0.213047 -0.403204 0.0862826 0 180 235
-0.16618 -0.238099 0.0827139 0 180 235
0.202242 -0.294546 0.0991522 0 180 235
-0.0739228 -0.257627 0.0543746 0 180 235
0.0820912 -0.331502 0.0688978 0 180 235
0.140849 -0.376172 0.0909247 0 180 235
0.247292 -0.329786 0.107513 0 180 235
-0.140429 -0.42481 0.0835746 0 180 235
0.0034052 -0.471171 0.0984626 0 180 235
0.252074 -0.325551 0.0986807 0 180 235
0.0715396 -0.306351 0.0665462 0 180 235
-0.0127846 -0.326652 0.0440439 0 180 235
0.272635 -0.358133 0.108566 0 180 235
0.292894 -0.426498 0.108363 0 180 235
0.212832 -0.425653 0.0864834 0 180 235
0.017232 -0.326097 0.141855 0 180 235
-0.0107687 -0.40512 0.0763552 0 180 235
0.01093 -0.253725 0.0810986 0 180 235
0.0765917 -0.275749 0.0761858 0 180 235
-0.13175 -0.295977 0.0413564 0 180 235
-0.103562 -0.3385 0.0524179 0 180 235
-0.0789987 -0.404981 0.0725213 0 180 235
0.085723 -0.312485 0.073053 0 180 235
-0.0928683 -0.398193 0.0718588 0 180 235
-0.0101467 -0.258505 0.186262 0 180 235
0.0541388 -0.264699 0.144879 0 180 235
0.206097 -0.33721 0.148619 0 180 235
0.0418672 -0.257906 0.0843413 0 180 235
0.0608272 -0.254689 0.0935468 0 180 235
-0.0488352 -0.265473 0.0454489 0 180 235
-0.0948937 -0.255377 0.0575053 0 180 235
-0.146457 -0.239767 0.119447 0 180 235
0.215058 -0.356742 0.0902775 0 180 235
0.176136 -0.460698 0.0992394 0 180 235
0.0122779 -0.287712 0.0454755 0 180 235
-0.125179 -0.323533 0.0501088 0 180 235
0.125621 -0.315406 0.0847701 0 180 235
0.188861 -0.420687 0.087683 0 180 235
-0.0713602 -0.244007 0.12024 0 180 235
0.115383 -0.322782 0.185645 0 180 235
-0.0100823 -0.283862 0.0375912 0 180 235
0.190802 -0.323543 0.0957633 0 180 235
-0.14403 -0.242466 0.0687409 0 180 235
0.100247 -0.255816 0.110433 0 180 235
0.252974 -0.367266 0.0938664 0 180 235
-0.0433449 -0.34417 0.0522853 0 180 235
0.0223472 -0.283691 0.195257 0 180 235
0.200864 -0.429994 0.0875059 0 180 235
0.0758797 -0.256856 0.0943417 0 180 235
-0.0978229 -0.367368 0.0613528 0 180 235
0.149411 -0.264543 0.136811 0 180 235
0.31348 -0.408906 0.107348 0 180 235
0.114907 -0.293855 0.0866316 0 180 235
-0.0564268 -0.260492 0.0500061 0 180 235
-0.116641 -0.241116 0.15514 0 180 235
0.158025 -0.343913 0.0902554 0 180 235
-0.157521 -0.353051 0.0712037 0 180 235
-0.0194846 -0.350034 0.0529146 0 180 235
0.196629 -0.320894 0.1305 0 180 235
-0.0164823 -0.252024 0.0716784 0 180 235
0.0100072 -0.283946 0.0477854 0 180 235
0.110567 -0.281261 0.141783 0 180 235
0.105119 -0.400231 0.115415 0 180 235
-0.0396373 -0.381231 0.0664144 0 180 235
0.0324408 -0.439703 0.094739 0 180 235
0.0955452 -0.279183 0.140675 0 180 235
0.0173071 -0.272864 0.0571673 0 180 235
0.0514305 -0.279197 0.0653112 0 180 235
0.0802878 -0.292121 0.179851 0 180 235
-0.0123063 -0.284737 0.0361435 0 180 235
-0.0723706 -0.381615 0.0669595 0 180 235
0.0216667 -0.270218 0.176278 0 180 235
-0.0740963 -0.247937 0.0705651 0 180 235
-0.0414211 -0.244169 0.0982524 0 180 235
0.184938 -0.359508 0.0889424 0 180 235
0.0708905 -0.392451 0.0804567 0 180 235
0.136273 -0.259495 0.121095 0 180 235
-0.00919563 -0.401544 0.115238 0 180 235
-0.0864942 -0.436178 0.0852563 0 180 235
-0.00412219 -0.412433 0.0809546 0 180 235
-0.111663 -0.47209 0.0816114 0 180 235
-0.135031 -0.39126 0.0789623 0 180 235
0.242096 -0.317635 0.0980309 0 180 235
0.203767 -0.320415 0.135318 0 180 235
0.143128 -0.447809 0.105985 0 180 235
-0.129062 -0.263794 0.0463176 0 180 235
-0.0811501 -0.298978 0.0378011 0 180 235
0.207705 -0.369667 0.134603 0 180 235
-0.0883441 -0.463289 0.0862875 0 180 235
-0.0213089 -0.246219 0.123133 0 180 235
0.084144 -0.25751 0.0958385 0 180 235
-0.0994443 -0.355774 0.0573965 0 180 235
-0.164019 -0.239144 0.0789719 0 180 235
-0.129794 -0.242427 0.116766 0 180 235
0.010631 -0.256743 0.0741008 0 180 235
0.233541 -0.433205 0.0871865 0 180 235
-0.134581 -0.465902 0.0798819 0 180 235
-0.0222178 -0.367545 0.060397 0 180 235
0.185153 -0.343461 0.0925576 0 180 235
0.00154274 -0.465521 0.0939409 0 180 235
0.236414 -0.378134 0.0887795 0 180 235
0.311649 -0.466582 0.061676 32 212 224
0.351783 -0.445206 0.0662222 32 212 224
-0.0403763 -0.486383 0.247307 32 212 224
-0.0947115 -0.321679 0.0996285 32 212 224
0.254592 -0.46572 0.0684047 32 212 224
-0.133473 -0.315802 0.317133 32 212 224
0.361214 -0.354632 0.0816884 32 212 224
-0.150944 -0.293972 0.342579 32 212 224
0.0394439 -0.486793 0.198442 32 212 224
-0.0967165 -0.475623 0.0950412 32 212 224
0.168996 -0.453085 0.0886387 32 212 224
-0.121856 -0.484799 0.282853 32 212 224
-0.140476 -0.31487 0.272147 32 212 224
-0.121318 -0.47653 0.348868 32 212 224
-0.128254 -0.4796 0.248957 32 212 224
-0.135855 -0.414228 0.309226 32 212 224
0.351279 -0.348854 0.0888473 32 212 224
0.241875 -0.486722 0.123966 32 212 224
-0.136949 -0.3327 0.170958 32 212 224
0.30513 -0.461953 0.0638965 32 212 224
0.316318 -0.438948 0.0696229 32 212 224
0.184147 -0.486683 0.166255 32 212 224
0.15254 -0.242235 0.109416 32 212 224
-0.151123 -0.295737 0.350431 32 212 224
-0.134092 -0.279491 0.171687 32 212 224
-0.13574 -0.366835 0.164733 32 212 224
0.295449 -0.486945 0.197737 32 212 224
-0.136051 -0.412708 0.310923 32 212 224
0.0459008 -0.485332 0.328612 32 212 224
0.15174 -0.486078 0.30849 32 212 224
0.305351 -0.486969 0.137642 32 212 224
-0.134379 -0.465488 0.369282 32 212 224
-0.133473 -0.399131 0.205867 32 212 224
0.10911 -0.486413 0.219663 32 212 224
0.251798 -0.288173 0.110223 32 212 224
0.336935 -0.404861 0.0773227 32 212 224
0.0847457 -0.486373 0.243056 32 212 224
0.237236 -0.486775 0.206965 32 212 224
0.258113 -0.296528 0.108193 32 212 224
-0.129551 -0.305113 0.136131 32 212 224
0.206236 -0.486693 0.149426 32 212 224
0.220086 -0.233866 0.108816 32 212 224
0.321798 -0.486995 0.176451 32 212 224
0.273333 -0.294144 0.108621 32 212 224
0.340458 -0.486972 0.154638 32 212 224
-0.13257 -0.409302 0.202626 32 212 224
0.0826036 -0.484483 0.353361 32 212 224
0.286033 -0.373563 0.0917635 32 212 224
-0.142464 -0.342031 0.382833 32 212 224
-0.147361 -0.327121 0.379236 32 212 224
-0.137541 -0.349842 0.203105 32 212 224
-0.113775 -0.299781 0.116182 32 212 224
0.0145239 -0.369584 0.107958 32 212 224
0.217224 -0.486689 0.194476 32 212 224
0.174778 -0.486697 0.150992 32 212 224
0.0582348 -0.48631 0.261227 32 212 224
0.0591137 -0.483705 0.107699 32 212 224
-0.0252132 -0.481489 0.368648 32 212 224
-0.0110451 -0.485367 0.316379 32 212 224
0.124284 -0.486734 0.156517 32 212 224
0.0304351 -0.485823 0.28894 32 212 224
0.371918 -0.486526 0.100738 32 212 224
-0.13391 -0.3401 0.149977 32 212 224
0.181287 -0.365233 0.0955737 32 212 224
0.309481 -0.39556 0.0837864 32 212 224
0.354199 -0.486792 0.131153 32 212 224
0.0648013 -0.25526 0.100367 32 212 224
0.230772 -0.272474 0.112258 32 212 224
0.360319 -0.36418 0.0798007 32 212 224
0.0655145 -0.348068 0.102879 32 212 224
0.291632 -0.404353 0.0820017 32 212 224
-0.132209 -0.476878 0.310851 32 212 224
0.214361 -0.425835 0.0849933 32 212 224
0.369673 -0.478033 0.0645589 32 212 224
0.18977 -0.367738 0.095098 32 212 224
0.283096 -0.486759 0.0970802 32 212 224
0.0956202 -0.437405 0.10381 32 212 224
-0.12547 -0.451877 0.123542 32 212 224
0.0731912 -0.240673 0.107333 32 212 224
0.347275 -0.486802 0.125359 32 212 224
0.318491 -0.44776 0.0665695 32 212 224
0.133332 -0.486657 0.287431 32 212 224
0.320633 -0.486231 0.0609286 32 212 224
0.0539314 -0.437154 0.10262 32 212 224
0.370359 -0.470593 0.0632541 32 212 224
0.252279 -0.486867 0.195029 32 212 224
-0.131436 -0.42759 0.144342 32 212 224
0.253675 -0.486796 0.15494 32 212 224
0.187902 -0.313761 0.101691 32 212 224
0.249812 -0.399191 0.0883592 32 212 224
0.0106074 -0.483836 0.3762 32 212 224
-0.0835102 -0.246142 0.124328 32 212 224
-0.126267 -0.455912 0.129377 32 212 224
0.119412 -0.37414 0.100736 32 212 224
-0.140588 -0.313819 0.245006 32 212 224
0.386541 -0.425802 0.061961 32 212 224
-0.0035588 -0.486479 0.245364 32 212 224
-0.133942 -0.298585 0.160113 32 212 224
-0.139777 -0.28329 0.310528 32 212 224
0.0576888 -0.485459 0.335567 32 212 224
0.212481 -0.486672 0.217348 32 212 224
0.00872131 -0.48587 0.284851 32 212 224
-0.102634 -0.485713 0.237966 32 212 224
0.215559 -0.486673 0.18946 32 212 224
-0.131854 -0.422082 0.219742 32 212 224
0.300595 -0.435847 0.0722798 32 212 224
0.266682 -0.443215 0.0728794 32 212 224
0.303315 -0.486996 0.148354 32 212 224
0.142276 -0.437249 0.0965625 32 212 224
-0.126449 -0.468773 0.156241 32 212 224
0.299268 -0.486866 0.125798 32 212 224
-0.0648832 -0.485774 0.304495 32 212 224
0.147477 -0.458157 0.0924824 32 212 224
0.252647 -0.248388 0.111652 32 212 224
-0.135594 -0.289237 0.176172 32 212 224
0.213779 -0.418897 0.086592 32 212 224
0.359432 -0.440961 0.0671068 32 212 224
-0.0534715 -0.486159 0.119547 32 212 224
0.0535061 -0.485411 0.327848 32 212 224
-0.140074 -0.330165 0.278264 32 212 224
-0.148136 -0.317099 0.388096 32 212 224
-0.132273 -0.467413 0.257995 32 212 224
-0.147818 -0.276104 0.33218 32 212 224
0.0385206 -0.485922 0.283509 32 212 224
-0.14167 -0.31732 0.291351 32 212 224
0.258939 -0.351625 0.0970247 32 212 224
-0.132062 -0.427324 0.246521 32 212 224
-0.105621 -0.485918 0.172099 32 212 224
0.212074 -0.424959 0.0855819 32 212 224
0.37353 -0.363814 0.0750081 32 212 224
0.142713 -0.486655 0.176941 32 212 224
0.0643489 -0.259496 0.0987297 32 212 224
-0.13552 -0.4044 0.291383 32 212 224
0.348255 -0.486708 0.109858 32 212 224
0.0655385 -0.486761 0.20067 32 212 224
0.0906505 -0.486227 0.283232 32 212 224
0.360797 -0.486705 0.115305 32 212 224
0.29046 -0.463884 0.0657654 32 212 224
0.00736542 -0.485808 0.289806 32 212 224
0.0958817 -0.48628 0.280756 32 212 224
0.260968 -0.458748 0.0696572 32 212 224
-0.0907709 -0.48534 0.306357 32 212 224
0.089455 -0.48677 0.147605 32 212 224
0.0704817 -0.486737 0.175282 32 212 224
0.108857 -0.486291 0.243961 32 212 224
0.119262 -0.486643 0.185399 32 212 224
-0.111274 -0.485619 0.212035 32 212 224
-0.0470337 -0.486409 0.216072 32 212 224
-0.0908686 -0.3818 0.0918736 32 212 224
0.113588 -0.486445 0.21267 32 212 224
0.256393 -0.486878 0.196557 32 212 224
0.15226 -0.486725 0.142216 32 212 224
-0.137013 -0.35732 0.191551 32 212 224
0.0222852 -0.486602 0.229688 32 212 224
0.0344212 -0.384414 0.108291 32 212 224
0.163211 -0.443608 0.0917279 32 212 224
0.0158175 -0.485094 0.321007 32 212 224
-0.105273 -0.48529 0.266662 32 212 224
0.301245 -0.486731 0.071035 32 212 224
0.0567446 -0.251483 0.10009 32 212 224
0.0942062 -0.486741 0.170099 32 212 224
-0.144718 -0.284575 0.302271 32 212 224
0.116779 -0.390839 0.102935 32 212 224
0.197065 -0.486724 0.261261 32 212 224
-0.13855 -0.320675 0.182478 32 212 224
0.176079 -0.486697 0.145644 32 212 224
0.340934 -0.486684 0.102331 32 212 224
0.0595036 -0.408617 0.105166 32 212 224
-0.145334 -0.280914 0.298053 32 212 224
0.226744 -0.388121 0.0915804 32 212 224
-0.0456825 -0.485213 0.335298 32 212 224
-0.137114 -0.312283 0.176627 32 212 224
0.162171 -0.438561 0.0927058 32 212 224
-0.0755327 -0.374232 0.0877285 32 212 224
-0.0967404 -0.485445 0.273573 32 212 224
-0.132956 -0.360597 0.139872 32 212 224
-0.0186425 -0.48609 0.275049 32 212 224
-0.135818 -0.26256 0.182953 32 212 224
0.161578 -0.475494 0.0851236 32 212 224
-0.134667 -0.359567 0.155773 32 212 224
0.3047 -0.487017 0.178679 32 212 224
0.39674 -0.47038 0.0434962 32 212 224
-0.130489 -0.460152 0.1653 32 212 224
-0.0134274 -0.486217 0.263735 32 212 224
-0.146672 -0.355907 0.331454 32 212 224
-0.133081 -0.410238 0.228689 32 212 224
-0.0175394 -0.486689 0.182361 32 212 224
0.224038 -0.486712 0.135425 32 212 224
-0.134118 -0.40029 0.17178 32 212 224
-0.0586796 -0.485771 0.306974 32 212 224
0.00418632 -0.486699 0.219582 32 212 224
0.329498 -0.390799 0.082838 32 212 224
-0.141228 -0.287529 0.266957 32 212 224
-0.0982051 -0.486007 0.170383 32 212 224
0.33664 -0.405466 0.0771642 32 212 224
0.0802852 -0.481107 0.104065 32 212 224
-0.0736696 -0.473891 0.387255 32 212 224
-0.133362 -0.400642 0.212664 32 212 224
0.328653 -0.338243 0.0984852 32 212 224
-0.140323 -0.329915 0.265833 32 212 224
-0.114509 -0.484817 0.308989 32 212 224
0.243669 -0.486721 0.12297 32 212 224
0.287987 -0.486871 0.209819 32 212 224
0.123847 -0.486559 0.192843 32 212 224
-0.0597073 -0.486254 0.219608 32 212 224
-0.133353 -0.4481 0.297429 32 212 224
-0.138317 -0.313229 0.180966 32 212 224
0.0437856 -0.48578 0.292629 32 212 224
0.0384322 -0.485605 0.301042 32 212 224
0.137058 -0.486766 0.116406 32 212 224
0.138211 -0.48678 0.128857 32 212 224
-0.00726768 -0.482842 0.108332 32 212 224
0.198793 -0.400171 0.0925576 32 212 224
0.395134 -0.485792 0.0571431 32 212 224
-0.136853 -0.46022 0.358178 32 212 224
0.267439 -0.468508 0.06701 32 212 224
0.0798383 -0.485806 0.314737 32 212 224
-0.0120625 -0.486718 0.197325 32 212 224
-0.138004 -0.356108 0.387027 32 212 224
0.217292 -0.289936 0.109691 32 212 224
-0.13573 -0.360027 0.360271 32 212 224
0.369003 -0.421405 0.0682586 32 212 224
0.116246 -0.486679 0.18082 32 212 224
0.360799 -0.486713 0.117664 32 212 224
-0.0919243 -0.485237 0.312683 32 212 224
-0.0581124 -0.486191 0.252752 32 212 224
-0.102172 -0.473221 0.378022 32 212 224
-0.113028 -0.346345 0.103061 32 212 224
0.128831 -0.484961 0.32974 32 212 224
-0.000328001 -0.460573 0.10072 32 212 224
-0.135931 -0.372587 0.167403 32 212 224
0.225562 -0.486728 0.0929729 32 212 224
-0.140583 -0.310761 0.266937 32 212 224
0.192225 -0.334773 0.0970425 32 212 224
-0.1336 -0.448048 0.310953 32 212 224
-0.134044 -0.33223 0.32672 32 212 224
-0.143042 -0.265167 0.246199 32 212 224
0.137144 -0.486702 0.163458 32 212 224
0.259708 -0.486755 0.0780425 32 212 224
0.313698 -0.486788 0.0868494 32 212 224
0.366774 -0.471375 0.0630582 32 212 224
-0.134334 -0.431787 0.288826 32 212 224
-0.12978 -0.390406 0.392524 32 212 224
-0.14075 -0.379485 0.319652 32 212 224
-0.0201625 -0.485352 0.319807 32 212 224
-0.0900521 -0.475433 0.373657 32 212 224
0.307794 -0.48689 0.126472 32 212 224
-0.0446246 -0.486433 0.181715 32 212 224
-0.135035 -0.440654 0.316945 32 212 224
0.0472359 -0.484733 0.354454 32 212 224
0.292653 -0.486936 0.198943 32 212 224
-0.0802862 -0.486075 0.137097 32 212 224
0.252475 -0.345647 0.097623 32 212 224
0.123455 -0.257597 0.109002 32 212 224
-0.0491271 -0.486348 0.223602 32 212 224
-0.0108213 -0.484749 0.347049 32 212 224
-0.0299079 -0.485706 0.308991 32 212 224
0.304936 -0.322632 0.103608 32 212 224
-0.112364 -0.482923 0.326783 32 212 224
0.316668 -0.480659 0.0599341 32 212 224
0.0718089 -0.486722 0.15863 32 212 224
0.271219 -0.486927 0.194105 32 212 224
0.392482 -0.438292 0.0585277 32 212 224
0.296911 -0.340126 0.100201 32 212 224
0.235522 -0.258964 0.113546 32 212 224
-0.0570002 -0.480474 0.361824 32 212 224
0.343569 -0.413401 0.0742505 32 212 224
-0.0487001 -0.486411 0.194562 32 212 224
0.201471 -0.375299 0.0940892 32 212 224
-0.135281 -0.350782 0.160261 32 212 224
0.158534 -0.248544 0.111275 32 212 224
0.360441 -0.368954 0.0789122 32 212 224
0.381972 -0.380382 0.0689382 32 212 224
0.280998 -0.385939 0.0886756 32 212 224
-0.139165 -0.34234 0.348669 32 212 224
0.190302 -0.486537 0.212447 32 212 224
0.110589 -0.486273 0.247045 32 212 224
-0.0741986 -0.484721 0.337667 32 212 224
-0.0755292 -0.485935 0.27159 32 212 224
-0.104345 -0.485733 0.221683 32 212 224
0.25444 -0.4868 0.154843 32 212 224
-0.137477 -0.376245 0.281842 32 212 224
-0.146728 -0.277452 0.326488 32 212 224
0.372598 -0.43389 0.0669018 32 212 224
0.0434909 -0.485331 0.321659 32 212 224
-0.0641555 -0.471032 0.402878 32 212 224
-0.0626254 -0.430075 0.0838355 32 212 224
0.347351 -0.387794 0.0796372 32 212 224
0.0738539 -0.486045 0.293818 32 212 224
0.190733 -0.486698 0.159732 32 212 224
0.336823 -0.34208 0.0958085 32 212 224
-0.0002716 -0.48481 0.341953 32 212 224
0.200901 -0.486615 0.223472 32 212 224
0.126983 -0.486705 0.101106 32 212 224
0.371686 -0.369546 0.0747927 32 212 224
0.111028 -0.486388 0.222407 32 212 224
0.385425 -0.433208 0.0631586 32 212 224
0.182554 -0.321641 0.0992236 32 212 224
-0.0783864 -0.470493 0.0864269 32 212 224
0.195004 -0.396138 0.0933137 32 212 224
0.240661 -0.37234 0.0932002 32 212 224
-0.123533 -0.47931 0.178327 32 212 224
0.135133 -0.484965 0.327091 32 212 224
0.23484 -0.382188 0.0920375 32 212 224
0.341984 -0.392587 0.0798379 32 212 224
0.351387 -0.383018 0.0792915 32 212 224
0.354593 -0.351162 0.0861027 32 212 224
-0.113475 -0.469538 0.385471 32 212 224
0.307694 -0.486797 0.0918621 32 212 224
0.21312 -0.484209 0.0767361 32 212 224
0.0883676 -0.486205 0.284283 32 212 224
0.355774 -0.370199 0.0802061 32 212 224
-0.107382 -0.469409 0.391846 32 212 224
0.266345 -0.387615 0.0893317 32 212 224
-0.141533 -0.292105 0.209739 32 212 224
0.186873 -0.486689 0.164713 32 212 224
-0.0410209 -0.486413 0.16987 32 212 224
0.102602 -0.380618 0.103258 32 212 224
0.271944 -0.412305 0.0816208 32 212 224
-0.0792142 -0.47193 0.0868919 32 212 224
-0.113625 -0.341134 0.104475 32 212 224
-0.0559739 -0.482448 0.35449 32 212 224
0.3479 -0.399801 0.0773457 32 212 224
-0.00577623 -0.486027 0.273983 32 212 224
0.207803 -0.486653 0.168607 32 212 224
0.305184 -0.269617 0.107819 32 212 224
0.244135 -0.484142 0.0704544 32 212 224
-0.14402 -0.246413 0.21741 32 212 224
0.0706958 -0.486419 0.244713 32 212 224
0.21083 -0.486723 0.265517 32 212 224
-0.139357 -0.369589 0.307182 32 212 224
0.183813 -0.407691 0.0931699 32 212 224
0.308323 -0.444016 0.069174 32 212 224
0.222357 -0.486714 0.0981296 32 212 224
0.292111 -0.486915 0.136398 32 212 224
-0.114843 -0.300979 0.116672 32 212 224
-0.0329087 -0.250229 0.103739 32 212 224
0.165495 -0.267666 0.111114 32 212 224
0.210056 -0.393268 0.0923335 32 212 224
0.0156459 -0.37575 0.107642 32 212 224
-0.056594 -0.485891 0.297933 32 212 224
-0.0443793 -0.485802 0.304809 32 212 224
-0.0372563 -0.486311 0.130927 32 212 224
0.255103 -0.486754 0.149196 32 212 224
-0.143314 -0.427567 0.370967 32 212 224
-0.131276 -0.420849 0.140448 32 212 224
-0.124196 -0.328148 0.119198 32 212 224
-0.078723 -0.485718 0.284131 32 212 224
0.159885 -0.486363 0.234918 32 212 224
0.208005 -0.486732 0.0856184 32 212 224
-0.0183941 -0.484378 0.359454 32 212 224
0.360799 -0.486761 0.129631 32 212 224
0.0577654 -0.485066 0.346746 32 212 224
-0.135757 -0.431575 0.313943 32 212 224
0.325557 -0.303555 0.103424 32 212 224
-0.10109 -0.485931 0.18119 32 212 224
-0.0993964 -0.37703 0.095914 32 212 224
-0.118184 -0.398151 0.10449 32 212 224
-0.133203 -0.31413 0.148991 32 212 224
0.25048 -0.436443 0.0765602 32 212 224
0.24037 -0.478748 0.0686734 32 212 224
0.125473 -0.247427 0.111511 32 212 224
-0.135475 -0.364688 0.161679 32 212 224
0.0505171 -0.486101 0.274388 32 212 224
-0.0644785 -0.469802 0.409732 32 212 224
0.0215698 -0.287339 0.0922479 32 212 224
-0.0182259 -0.401738 0.0939621 32 212 224
-0.141628 -0.356709 0.310485 32 212 224
-0.0696319 -0.472567 0.393964 32 212 224
-0.137303 -0.380373 0.256126 32 212 224
0.385695 -0.486008 0.0672383 32 212 224
0.352908 -0.431664 0.0686449 32 212 224
-0.132562 -0.25325 0.302443 32 212 224
0.260138 -0.43831 0.0747416 32 212 224
-0.139708 -0.344769 0.281869 32 212 224
-0.101603 -0.485891 0.11226 32 212 224
0.140924 -0.486308 0.222779 32 212 224
-0.139549 -0.459886 0.373607 32 212 224
0.153031 -0.486687 0.164639 32 212 224
-0.11001 -0.484953 0.307673 32 212 224
-0.0350047 -0.423398 0.0894564 32 212 224
-0.14216 -0.271917 0.274312 32 212 224
0.231115 -0.486708 0.104702 32 212 224
-0.125229 -0.468405 0.372621 32 212 224
0.0413716 -0.324439 0.0993503 32 212 224
0.119 -0.473824 0.0957171 32 212 224
0.175186 -0.434148 0.0908273 32 212 224
-0.105002 -0.366459 0.0987842 32 212 224
0.12465 -0.486791 0.125351 32 212 224
0.0552549 -0.484149 0.365023 32 212 224
-0.141306 -0.298741 0.21938 32 212 224
0.0533357 -0.485675 0.303345 32 212 224
-0.134083 -0.431036 0.274226 32 212 224
-0.024802 -0.48667 0.194383 32 212 224
0.119789 -0.484243 0.341031 32 212 224
0.223853 -0.486715 0.118613 32 212 224
0.0771072 -0.426827 0.102936 32 212 224
0.264355 -0.446445 0.0723018 32 212 224
0.331126 -0.363614 0.0881773 32 212 224
-0.0354152 -0.48655 0.194671 32 212 224
-0.132488 -0.38467 0.37926 32 212 224
-0.140857 -0.299922 0.268291 32 212 224
0.0477057 -0.486609 0.123833 32 212 224
0.192224 -0.406434 0.0920405 32 212 224
0.20524 -0.486655 0.244781 32 212 224
0.269183 -0.486901 0.154084 32 212 224
-0.00591177 -0.486679 0.223749 32 212 224
-0.139047 -0.34037 0.349476 32 212 224
0.229002 -0.483043 0.0726532 32 212 224
-0.0484692 -0.486169 0.275174 32 212 224
0.333762 -0.353536 0.0904846 32 212 224
-0.140942 -0.342678 0.375233 32 212 224
0.0131788 -0.4462 0.100899 32 212 224
0.333131 -0.486969 0.175977 32 212 224
-0.0805278 -0.407093 0.0816757 32 212 224
0.351465 -0.486616 0.0707804 32 212 224
-0.133072 -0.454231 0.299153 32 212 224
0.335163 -0.323748 0.098473 32 212 224
0.237855 -0.377238 0.0926463 32 212 224
-0.13017 -0.390094 0.390129 32 212 224
0.345918 -0.347377 0.0916809 32 212 224
-0.126356 -0.482417 0.278632 32 212 224
0.211857 -0.303159 0.1056 32 212 224
-0.125869 -0.410103 0.376076 32 212 224
-0.0125696 -0.486427 0.249371 32 212 224
0.284332 -0.486869 0.210097 32 212 224
0.17364 -0.486698 0.145566 32 212 224
-0.133534 -0.460156 0.284749 32 212 224
0.266594 -0.486694 0.133582 32 212 224
-0.0270793 -0.486446 0.152291 32 212 224
0.331087 -0.352159 0.0922473 32 212 224
0.0396595 -0.485848 0.288264 32 212 224
0.146221 -0.486414 0.204816 32 212 224
0.221953 -0.257722 0.113279 32 212 224
0.283841 -0.486899 0.203983 32 212 224
0.228338 -0.380864 0.092634 32 212 224
0.338427 -0.486737 0.111873 32 212 224
-0.147213 -0.302122 0.349731 32 212 224
0.256186 -0.30301 0.106688 32 212 224
0.194285 -0.486701 0.136159 32 212 224
-0.0816116 -0.485975 0.250485 32 212 224
-0.137024 -0.359409 0.341229 32 212 224
0.379368 -0.389566 0.0680293 32 212 224
-0.0379815 -0.486248 0.121634 32 212 224
0.0795047 -0.484015 0.362102 32 212 224
0.173508 -0.486579 0.285881 32 212 224
0.164175 -0.486602 0.261451 32 212 224
0.212745 -0.372847 0.094031 32 212 224
0.249199 -0.486698 0.149595 32 212 224
-0.0786135 -0.42814 0.0836889 32 212 224
-0.134568 -0.357801 0.339584 32 212 224
-0.140741 -0.304888 0.261403 32 212 224
0.0865571 -0.485889 0.314003 32 212 224
0.334978 -0.487011 0.160185 32 212 224
-0.071341 -0.325189 0.0947962 32 212 224
-0.133943 -0.394577 0.218574 32 212 224
0.180174 -0.245046 0.111064 32 212 224
0.137587 -0.277909 0.106326 32 212 224
0.358818 -0.486487 0.0687359 32 212 224
0.219685 -0.369117 0.0941813 32 212 224
0.383154 -0.485972 0.068128 32 212 224
-0.0127855 -0.484703 0.351189 32 212 224
0.241338 -0.486711 0.135911 32 212 224
0.107645 -0.486416 0.220172 32 212 224
-0.0884487 -0.485693 0.269727 32 212 224
0.186348 -0.486645 0.170765 32 212 224
-0.102107 -0.350557 0.097708 32 212 224
0.240222 -0.301215 0.106858 32 212 224
-0.010907 -0.27342 0.0939712 32 212 224
0.246533 -0.486813 0.164147 32 212 224
0.0304363 -0.483917 0.109205 32 212 224
0.233588 -0.472736 0.069712 32 212 224
-0.0250372 -0.484429 0.355289 32 212 224
-0.141533 -0.355314 0.341976 32 212 224
-0.136561 -0.333751 0.168811 32 212 224
0.223576 -0.486715 0.123879 32 212 224
-0.0482326 -0.485824 0.303497 32 212 224
0.131747 -0.486745 0.139578 32 212 224
0.171993 -0.437685 0.0908633 32 212 224
-0.137892 -0.368322 0.293036 32 212 224
-0.0891304 -0.485554 0.279228 32 212 224
0.172273 -0.41434 0.0943602 32 212 224
0.0180634 -0.486568 0.233899 32 212 224
0.340663 -0.4867 0.0917794 32 212 224
-0.142677 -0.283634 0.221991 32 212 224
-0.13088 -0.429882 0.191225 32 212 224
0.388452 -0.417548 0.0602395 32 212 224
0.392468 -0.485772 0.0582241 32 212 224
0.329607 -0.486857 0.126276 32 212 224
0.338623 -0.462155 0.0611736 32 212 224
0.16217 -0.486697 0.158337 32 212 224
0.191192 -0.476914 0.0781754 32 212 224
0.353788 -0.351933 0.0858261 32 212 224
0.391393 -0.485899 0.0619285 32 212 224
0.324381 -0.412392 0.0766226 32 212 224
0.228714 -0.268362 0.112589 32 212 224
0.183519 -0.486764 0.118824 32 212 224
-0.0743281 -0.449227 0.0825302 32 212 224
0.0757305 -0.486051 0.283112 32 212 224
0.305259 -0.426853 0.0745393 32 212 224
0.145007 -0.486636 0.289567 32 212 224
-0.0423071 -0.486262 0.126716 32 212 224
0.289369 -0.442047 0.0713827 32 212 224
0.117256 -0.476871 0.0961416 32 212 224
0.2238 -0.379697 0.0930176 32 212 224
0.269971 -0.303135 0.106911 32 212 224
-0.0105321 -0.486642 0.158903 32 212 224
-0.145054 -0.317868 0.3305 32 212 224
-0.101303 -0.485219 0.300415 32 212 224
0.358322 -0.486632 0.103291 32 212 224
0.335932 -0.448662 0.0643053 32 212 224
0.369966 -0.470684 0.063248 32 212 224
-0.132482 -0.458646 0.0764307 64 236 211
-0.149076 -0.309689 0.196739 64 236 211
-0.151824 -0.26033 0.239404 64 236 211
-0.0338266 -0.485937 0.0688904 64 236 211
-0.144608 -0.377458 0.40503 64 236 211
0.0939689 -0.487084 0.169084 64 236 211
-0.161057 -0.396679 0.10102 64 236 211
-0.152087 -0.26637 0.257994 64 236 211
0.108809 -0.486977 0.110693 64 236 211
0.0484782 -0.48516 0.0707106 64 236 211
0.112038 -0.487117 0.119906 64 236 211
-0.149444 -0.257522 0.317294 64 236 211
-0.153153 -0.422929 0.164372 64 236 211
-0.0155699 -0.487299 0.158071 64 236 211
0.0427027 -0.396149 0.1058 64 236 211
-0.15742 -0.288036 0.114854 64 236 211
-0.0855101 -0.487369 0.171474 64 236 211
-0.11173 -0.487408 0.140018 64 236 211
-0.157598 -0.312714 0.115613 64 236 211
0.126129 -0.485973 0.0768295 64 236 211
-0.0885931 -0.246033 0.106152 64 236 211
-0.156815 -0.271466 0.115516 64 236 211
-0.151397 -0.413748 0.303508 64 236 211
-0.146129 -0.413405 0.370514 64 236 211
-0.0726442 -0.290478 0.105364 64 236 211
0.160859 -0.450009 0.0833904 64 236 211
0.218385 -0.486968 0.186538 64 236 211
-0.149006 -0.296882 0.205774 64 236 211
-0.0531536 -0.486695 0.400809 64 236 211
-0.145787 -0.329581 0.391376 64 236 211
-0.159363 -0.413046 0.109159 64 236 211
-0.152435 -0.419328 0.175165 64 236 211
0.011275 -0.484106 0.0728173 64 236 211
-0.0692744 -0.487452 0.0909602 64 236 211
-0.160608 -0.449569 0.257463 64 236 211
-0.149839 -0.353951 0.218788 64 236 211
0.0598154 -0.486062 0.0740736 64 236 211
-0.00621258 -0.487225 0.188579 64 236 211
0.294824 -0.48688 0.109218 64 236 211
-0.127602 -0.48725 0.0680079 64 236 211
0.0404416 -0.315202 0.111151 64 236 211
-0.0329583 -0.487302 0.175679 64 236 211
-0.091305 -0.487479 0.0848245 64 236 211
0.0541852 -0.270798 0.114505 64 236 211
-0.165577 -0.487213 0.108816 64 236 211
-0.0723903 -0.350917 0.102353 64 236 211
-0.153582 -0.414391 0.134648 64 236 211
0.157287 -0.487017 0.154184 64 236 211
0.216302 -0.486142 0.0849516 64 236 211
0.175647 -0.486218 0.0912713 64 236 211
0.0615663 -0.485556 0.0701537 64 236 211
-0.166773 -0.463935 0.0787754 64 236 211
0.0568995 -0.48703 0.249264 64 236 211
-0.125995 -0.486852 0.0652574 64 236 211
0.0401046 -0.436033 0.096169 64 236 211
-0.15499 -0.233977 0.129106 64 236 211
-0.150517 -0.36378 0.158279 64 236 211
0.174863 -0.486987 0.147202 64 236 211
-0.150934 -0.384926 0.241873 64 236 211
-0.150137 -0.372403 0.198034 64 236 211
-0.0511121 -0.28849 0.105464 64 236 211
-0.0551957 -0.487368 0.151224 64 236 211
-0.150463 -0.277237 0.222646 64 236 211
-0.126264 -0.487155 0.265781 64 236 211
-0.149705 -0.347648 0.225365 64 236 211
-0.158305 -0.337365 0.112616 64 236 211
-0.152458 -0.249494 0.245493 64 236 211
0.196718 -0.486956 0.233117 64 236 211
-0.139318 -0.487052 0.295766 64 236 211
0.166864 -0.486945 0.22242 64 236 211
-0.150904 -0.275509 0.287795 64 236 211
-0.149786 -0.350095 0.179244 64 236 211
-0.160683 -0.440654 0.105676 64 236 211
-0.163206 -0.476475 0.11093 64 236 211
-0.156433 -0.443566 0.206806 64 236 211
-0.144342 -0.399205 0.401851 64 236 211
-0.0611346 -0.350098 0.10223 64 236 211
-0.156889 -0.450006 0.319799 64 236 211
0.199608 -0.486251 0.0912874 64 236 211
0.0237763 -0.485221 0.0711958 64 236 211
-0.150668 -0.259035 0.18384 64 236 211
-0.156923 -0.381416 0.120843 64 236 211
-0.130754 -0.286443 0.110923 64 236 211
-0.16525 -0.466684 0.087643 64 236 211
-0.0971004 -0.487272 0.22619 64 236 211
-0.158266 -0.439252 0.251933 64 236 211
0.114405 -0.481478 0.0711487 64 236 211
0.0445211 -0.486833 0.332336 64 236 211
-0.15181 -0.487287 0.217085 64 236 211
0.0598516 -0.476769 0.0766167 64 236 211
-0.14604 -0.340054 0.399994 64 236 211
-0.1089 -0.487315 0.201423 64 236 211
0.0579707 -0.486784 0.340282 64 236 211
-0.15051 -0.382407 0.321768 64 236 211
-0.0803013 -0.486976 0.0687308 64 236 211
0.110656 -0.48602 0.0769015 64 236 211
-0.162288 -0.422375 0.099016 64 236 211
-0.155591 -0.435749 0.227265 64 236 211
-0.0978033 -0.29179 0.107721 64 236 211
-0.00169631 -0.435854 0.0936704 64 236 211
0.0214832 -0.487261 0.129324 64 236 211
-0.155934 -0.439881 0.137719 64 236 211
0.0100665 -0.485395 0.0705061 64 236 211
-0.165888 -0.481489 0.0923711 64 236 211
0.00514458 -0.426349 0.0962499 64 236 211
0.141808 -0.485462 0.0680368 64 236 211
-0.159195 -0.366712 0.112849 64 236 211
-0.154943 -0.428979 0.238464 64 236 211
-0.15013 -0.374359 0.194848 64 236 211
0.0996274 -0.486476 0.0940361 64 236 211
-0.0257387 -0.487298 0.166563 64 236 211
-0.0926627 -0.48727 0.226775 64 236 211
-0.0819182 -0.487356 0.178552 64 236 211
0.0589267 -0.487173 0.12958 64 236 211
0.0924308 -0.400331 0.103695 64 236 211
0.038983 -0.436331 0.0961073 64 236 211
-0.147996 -0.44308 0.39129 64 236 211
-0.15539 -0.325923 0.12499 64 236 211
0.122991 -0.486942 0.25016 64 236 211
-0.153323 -0.487356 0.173195 64 236 211
-0.157355 -0.348372 0.119013 64 236 211
-0.152022 -0.413883 0.275459 64 236 211
0.142838 -0.480763 0.0696226 64 236 211
-0.0263337 -0.486902 0.331024 64 236 211
0.21289 -0.486979 0.170735 64 236 211
-0.0888022 -0.487454 0.09235 64 236 211
0.0394324 -0.373498 0.107757 64 236 211
0.0501065 -0.486009 0.0714916 64 236 211
-0.156903 -0.396571 0.119681 64 236 211
-0.154894 -0.440071 0.323455 64 236 211
0.174566 -0.486131 0.0877206 64 236 211
-0.166448 -0.475483 0.0824855 64 236 211
-0.149389 -0.286993 0.194112 64 236 211
-0.151203 -0.250069 0.176815 64 236 211
0.193079 -0.485198 0.0648899 64 236 211
0.0708955 -0.486318 0.315848 64 236 211
-0.150428 -0.382927 0.209321 64 236 211
-0.0566639 -0.383775 0.098975 64 236 211
0.15004 -0.479271 0.0695237 64 236 211
-0.123384 -0.486923 0.328251 64 236 211
-0.154653 -0.431881 0.157894 64 236 211
-0.154139 -0.418879 0.133657 64 236 211
-0.16608 -0.478412 0.260636 64 236 211
-0.151797 -0.247666 0.201323 64 236 211
-0.0944 -0.487361 0.17803 64 236 211
-0.150496 -0.305113 0.2835 64 236 211
-0.0100467 -0.486976 0.0846121 64 236 211
-0.154527 -0.242129 0.129738 64 236 211
-0.156032 -0.441679 0.191669 64 236 211
-0.106693 -0.487283 0.220108 64 236 211
0.0981391 -0.486452 0.0930894 64 236 211
-0.150542 -0.387696 0.214323 64 236 211
-0.149956 -0.35904 0.172037 64 236 211
-0.160903 -0.466795 0.119601 64 236 211
0.0660278 -0.313081 0.113712 64 236 211
-0.156109 -0.487348 0.178261 64 236 211
0.172364 -0.486907 0.261055 64 236 211
-0.11188 -0.259716 0.108366 64 236 211
0.0360303 -0.487102 0.224141 64 236 211
0.0447612 -0.487185 0.157631 64 236 211
-0.14983 -0.330113 0.175795 64 236 211
0.0404898 -0.487205 0.121203 64 236 211
0.163607 -0.486987 0.120998 64 236 211
0.257132 -0.48558 0.0616103 64 236 211
-0.151632 -0.2778 0.25936 64 236 211
0.0255679 -0.406301 0.102733 64 236 211
0.0620982 -0.487158 0.152268 64 236 211
-0.154874 -0.435299 0.181119 64 236 211
0.293324 -0.479998 0.0534484 64 236 211
-0.14514 -0.43797 0.41473 64 236 211
0.260768 -0.486515 0.0975697 64 236 211
0.061713 -0.486967 0.271282 64 236 211
-0.0666918 -0.486934 0.332084 64 236 211
0.030349 -0.487231 0.114731 64 236 211
0.115216 -0.4871 0.137241 64 236 211
-0.168298 -0.485981 0.240639 64 236 211
-0.149855 -0.339579 0.174439 64 236 211
-0.149099 -0.35723 0.343368 64 236 211
-0.161415 -0.397346 0.102256 64 236 211
0.146734 -0.464277 0.0770064 64 236 211
0.00631067 -0.290341 0.107958 64 236 211
-0.145452 -0.272522 0.362341 64 236 211
-0.0138965 -0.487268 0.169835 64 236 211
0.221043 -0.486964 0.201735 64 236 211
-0.0790902 -0.487434 0.0990428 64 236 211
0.115063 -0.486995 0.220471 64 236 211
-0.15729 -0.313424 0.118192 64 236 211
-0.0552705 -0.412639 0.095539 64 236 211
-0.155707 -0.439066 0.210776 64 236 211
0.275741 -0.486956 0.171622 64 236 211
0.0920508 -0.485995 0.0740478 64 236 211
-0.150408 -0.366088 0.293515 64 236 211
-0.110002 -0.486915 0.332487 64 236 211
-0.00112189 -0.464577 0.0825535 64 236 211
0.0683124 -0.487174 0.118145 64 236 211
-0.164425 -0.485358 0.132245 64 236 211
-0.14999 -0.286213 0.164718 64 236 211
0.323747 -0.486352 0.0746163 64 236 211
-0.150117 -0.393229 0.183235 64 236 211
-0.16381 -0.487416 0.0873134 64 236 211
-0.1228 -0.487302 0.207106 64 236 211
0.0208614 -0.484652 0.0717734 64 236 211
-0.153802 -0.42908 0.183962 64 236 211
-0.124614 -0.487028 0.303474 64 236 211
-0.160707 -0.371486 0.106761 64 236 211
0.154252 -0.487021 0.157061 64 236 211
-0.159116 -0.455374 0.119116 64 236 211
-0.0518221 -0.487338 0.173243 64 236 211
0.127528 -0.486789 0.294455 64 236 211
-0.0652511 -0.332502 0.103689 64 236 211
-0.150207 -0.30892 0.149722 64 236 211
-0.150498 -0.265878 0.196574 64 236 211
-0.0785521 -0.487264 0.229137 64 236 211
-0.0569521 -0.48658 0.0686697 64 236 211
-0.0684315 -0.487413 0.110381 64 236 211
0.132957 -0.486831 0.274819 64 236 211
-0.166306 -0.468479 0.0821732 64 236 211
-0.119119 -0.300506 0.109765 64 236 211
-0.0031109 -0.487141 0.241178 64 236 211
-0.149231 -0.42661 0.356192 64 236 211
-0.150164 -0.381487 0.178897 64 236 211
-0.164167 -0.473515 0.0970189 64 236 211
0.00443606 -0.458052 0.0859639 64 236 211
-0.149327 -0.370704 0.340098 64 236 211
-0.0540272 -0.451265 0.083441 64 236 211
-0.161401 -0.472475 0.18408 64 236 211
-0.106042 -0.487327 0.194346 64 236 211
-0.150385 -0.288477 0.235988 64 236 211
0.200231 -0.486981 0.16667 64 236 211
-0.163416 -0.450005 0.09504 64 236 211
0.187837 -0.486987 0.140652 64 236 211
0.0759297 -0.485586 0.0701043 64 236 211
-0.158021 -0.450081 0.309566 64 236 211
-0.0548696 -0.487079 0.286144 64 236 211
-0.150453 -0.343605 0.305888 64 236 211
-0.113358 -0.433594 0.087039 64 236 211
-0.00460376 -0.435416 0.0935466 64 236 211
-0.15656 -0.487407 0.0754708 64 236 211
-0.153727 -0.296805 0.129874 64 236 211
0.0276726 -0.45951 0.0861195 64 236 211
0.195117 -0.486956 0.121769 64 236 211
-0.150429 -0.356973 0.29818 64 236 211
-0.149699 -0.30166 0.177426 64 236 211
-0.151906 -0.270744 0.267712 64 236 211
0.0378738 -0.486559 0.0873342 64 236 211
-0.14941 -0.33403 0.331349 64 236 211
-0.161474 -0.444238 0.102948 64 236 211
-0.0580703 -0.48734 0.175962 64 236 211
-0.00573173 -0.486857 0.341782 64 236 211
0.0711138 -0.487133 0.158882 64 236 211
-0.115264 -0.487242 0.240774 64 236 211
-0.113924 -0.279979 0.109197 64 236 211
-0.155541 -0.436317 0.135957 64 236 211
-0.150592 -0.332068 0.278713 64 236 211
0.189561 -0.486975 0.127607 64 236 211
-0.149783 -0.330216 0.17917 64 236 211
-0.149852 -0.355098 0.213899 64 236 211
0.0169732 -0.485206 0.0710942 64 236 211
-0.151311 -0.26524 0.284726 64 236 211
0.171311 -0.486119 0.0872218 64 236 211
-0.162666 -0.478533 0.147182 64 236 211
0.0495892 -0.486482 0.0881104 64 236 211
0.0484685 -0.431972 0.0969834 64 236 211
0.0685289 -0.383327 0.107489 64 236 211
-0.155306 -0.487461 0.0952628 64 236 211
-0.150523 -0.378211 0.156874 64 236 211
0.108132 -0.487002 0.220325 64 236 211
-0.150615 -0.476293 0.396389 64 236 211
0.0509339 -0.487013 0.257934 64 236 211
-0.0289066 -0.263385 0.106151 64 236 211
-0.150912 -0.268664 0.223312 64 236 211
0.305021 -0.481471 0.0529767 64 236 211
-0.153023 -0.261767 0.134122 64 236 211
-0.15526 -0.321523 0.12549 64 236 211
-0.14849 -0.351056 0.354483 64 236 211
-0.150633 -0.362127 0.156636 64 236 211
0.149776 -0.486943 0.208184 64 236 211
-0.00508497 -0.487093 0.260476 64 236 211
0.0585752 -0.486188 0.0794573 64 236 211
-0.000488892 -0.487247 0.168214 64 236 211
-0.150371 -0.311415 0.25465 64 236 211
0.166615 -0.482282 0.0664658 64 236 211
-0.149295 -0.330177 0.225816 64 236 211
0.021194 -0.48642 0.077028 64 236 211
0.0932952 -0.485657 0.070086 64 236 211
0.0827259 -0.487161 0.120082 64 236 211
0.0182062 -0.487223 0.103452 64 236 211
-0.0174603 -0.252459 0.106632 64 236 211
-0.156274 -0.429764 0.25568 64 236 211
-0.148789 -0.269099 0.323327 64 236 211
-0.150437 -0.364599 0.276022 64 236 211
-0.147723 -0.29524 0.336755 64 236 211
0.193811 -0.483799 0.0651508 64 236 211
0.0451852 -0.440722 0.0946422 64 236 211
-0.144841 -0.353835 0.417481 64 236 211
-0.152181 -0.414862 0.160037 64 236 211
0.0522959 -0.409654 0.102327 64 236 211
0.275756 -0.483298 0.0575119 64 236 211
-0.157857 -0.45263 0.163877 64 236 211
-0.165707 -0.478297 0.0904835 64 236 211
-0.0469282 -0.486894 0.339569 64 236 211
-0.164059 -0.475679 0.220468 64 236 211
-0.148637 -0.337947 0.342203 64 236 211
0.0410493 -0.446737 0.0919154 64 236 211
-0.0576873 -0.466325 0.077508 64 236 211
-0.145231 -0.389401 0.395208 64 236 211
-0.145613 -0.413368 0.378018 64 236 211
0.0692901 -0.481735 0.0737451 64 236 211
0.0227296 -0.486872 0.0916294 64 236 211
-0.139939 -0.487271 0.229586 64 236 211
-0.150294 -0.363251 0.233349 64 236 211
0.102809 -0.484311 0.0690735 64 236 211
-0.144817 -0.367872 0.408075 64 236 211
-0.16115 -0.407783 0.102058 64 236 211
-0.158249 -0.438773 0.25325 64 236 211
-0.152752 -0.486752 0.349464 64 236 211
0.0969904 -0.487134 0.125369 64 236 211
-0.149571 -0.262096 0.314574 64 236 211
-0.152659 -0.413762 0.296531 64 236 211
-0.0398939 -0.487405 0.101434 64 236 211
-0.012101 -0.41281 0.0972254 64 236 211
-0.0041332 -0.486227 0.347617 64 236 211
0.186874 -0.472456 0.06893 64 236 211
-0.146099 -0.354881 0.402571 64 236 211
0.0131816 -0.486914 0.0898732 64 236 211
0.171682 -0.486992 0.149734 64 236 211
-0.129351 -0.487423 0.129089 64 236 211
-0.151303 -0.379887 0.147373 64 236 211
-0.166318 -0.484805 0.221139 64 236 211
-0.151555 -0.414888 0.312211 64 236 211
0.0261694 -0.336637 0.107741 64 236 211
-0.151516 -0.244591 0.181688 64 236 211
-0.157107 -0.43196 0.262797 64 236 211
-0.153373 -0.391089 0.133124 64 236 211
0.0541883 -0.430528 0.0971772 64 236 211
-0.0349899 -0.487144 0.257851 64 236 211
-0.0401474 -0.326035 0.104651 64 236 211
0.126161 -0.405334 0.0990914 64 236 211
-0.14936 -0.330025 0.200586 64 236 211
0.0304028 -0.487231 0.121426 64 236 211
-0.161038 -0.487311 0.204107 64 236 211
0.137516 -0.486841 0.272752 64 236 211
-0.0759644 -0.487393 0.146498 64 236 211
0.196566 -0.486954 0.209145 64 236 211
-0.149752 -0.31173 0.166023 64 236 211
-0.152753 -0.250119 0.259722 64 236 211
-0.0423124 -0.273563 0.105702 64 236 211
-0.105149 -0.428366 0.0893615 64 236 211
-0.152506 -0.253764 0.264389 64 236 211
-0.164582 -0.478524 0.101785 64 236 211
0.160765 -0.486965 0.179628 64 236 211
0.169388 -0.435105 0.0875823 64 236 211
-0.150412 -0.372446 0.215613 64 236 211
-0.0270658 -0.40925 0.0972763 64 236 211
-0.114577 -0.487369 0.16501 64 236 211
-0.15892 -0.354961 0.112902 64 236 211
-0.00663516 -0.486785 0.368916 64 236 211
0.0371699 -0.454805 0.0883492 64 236 211
-0.126072 -0.282462 0.110438 64 236 211
-0.149897 -0.360663 0.17586 64 236 211
-0.14896 -0.314959 0.200447 64 236 211
0.200952 -0.442721 0.0832434 64 236 211
0.0493325 -0.441209 0.0944695 64 236 211
-0.150464 -0.333864 0.15078 64 236 211
0.0915183 -0.487134 0.136781 64 236 211
-0.0179201 -0.277966 0.106683 64 236 211
-0.15705 -0.33757 0.119014 64 236 211
-0.156495 -0.399145 0.120981 64 236 211
-0.152378 -0.233832 0.151332 64 236 211
-0.156729 -0.437852 0.124117 64 236 211
-0.154851 -0.427018 0.295691 64 236 211
-0.150645 -0.281178 0.231523 64 236 211
0.180226 -0.486865 0.269523 64 236 211
-0.0442476 -0.487347 0.157584 64 236 211
-0.158306 -0.4874 0.0748131 64 236 211
0.0980299 -0.483978 0.0697336 64 236 211
-0.00196647 -0.43007 0.0949018 64 236 211
0.0386196 -0.485386 0.0708833 64 236 211
-0.15706 -0.4483 0.174326 64 236 211
-0.158236 -0.441684 0.288471 64 236 211
0.036572 -0.487146 0.183588 64 236 211
-0.0649122 -0.469131 0.0759608 64 236 211
-0.00182145 -0.487143 0.239037 64 236 211
-0.0517475 -0.487043 0.29686 64 236 211
-0.157267 -0.460118 0.327526 64 236 211
-0.150667 -0.292919 0.286074 64 236 211
-0.0446283 -0.487239 0.227524 64 236 211
0.00352977 -0.394738 0.102158 64 236 211
-0.107719 -0.487412 0.137491 64 236 211
-0.151541 -0.255289 0.211652 64 236 211
-0.149537 -0.413607 0.327593 64 236 211
-0.150502 -0.373144 0.157625 64 236 211
-0.150859 -0.28681 0.246247 64 236 211
-0.122419 -0.487276 0.227763 64 236 211
-0.155689 -0.438795 0.148022 64 236 211
0.0626013 -0.486929 0.104354 64 236 211
-0.155216 -0.43025 0.298837 64 236 211
-0.167177 -0.48426 0.0782738 64 236 211
-0.14606 -0.413414 0.372062 64 236 211
0.0152362 -0.266251 0.109267 64 236 211
0.0239061 -0.48713 0.219968 64 236 211
-0.159576 -0.462833 0.18488 64 236 211
-0.152809 -0.415067 0.143901 64 236 211
-0.149722 -0.349608 0.217906 64 236 211
-0.00830907 -0.448612 0.0881439 64 236 211
-0.16449 -0.463406 0.0909048 64 236 211
0.255725 -0.486978 0.138556 64 236 211
0.0064023 -0.4873 0.108737 64 236 211
-0.149295 -0.330891 0.204888 64 236 211
0.0724613 -0.485903 0.0712907 64 236 211
-0.146471 -0.352858 0.398296 64 236 211
-0.143844 -0.319016 0.407878 64 236 211
-0.0638719 -0.486752 0.381167 64 236 211
-0.150698 -0.368887 0.153941 64 236 211
-0.0215412 -0.486602 0.0697798 64 236 211
-0.150887 -0.360058 0.152364 64 236 211
-0.148843 -0.308508 0.325863 64 236 211
0.128178 -0.486218 0.0875611 64 236 211
-0.0030382 -0.486992 0.29524 64 236 211
-0.0968333 -0.487423 0.126818 64 236 211
0.124182 -0.472342 0.0756101 64 236 211
-0.0258526 -0.487335 0.145893 64 236 211
-0.145858 -0.309083 0.367841 64 236 211
0.0573051 -0.486908 0.302329 64 236 211
-0.146123 -0.279417 0.353483 64 236 211
-0.159778 -0.41449 0.107582 64 236 211
-0.0848276 -0.486938 0.332728 64 236 211
0.226256 -0.486977 0.154192 64 236 211
-0.16006 -0.465196 0.189763 64 236 211
-0.155632 -0.477828 0.355329 64 236 211
-0.152692 -0.42195 0.187411 64 236 211
0.032186 -0.486375 0.356752 64 236 211
-0.150572 -0.323251 0.146666 64 236 211
-0.0630592 -0.487355 0.166446 64 236 211
-0.0532804 -0.485921 0.0685265 64 236 211
-0.0101673 -0.486274 0.0696208 64 236 211
-0.149653 -0.33442 0.23387 64 236 211
