ply
format ascii 1.0
comment Created by Open3D
element vertex 1180
property double x
property double y
property double z
property uchar red
property uchar green
property uchar blue
end_header
0.226977 -0.347036 -0.272222 32 212 224
0.224976 -0.419985 -0.104789 32 212 224
0.232111 -0.328542 -0.0245206 32 212 224
0.134891 -0.487535 -0.161582 32 212 224
0.229603 -0.346195 -0.0914977 32 212 224
0.231506 -0.269522 -0.0773368 32 212 224
0.230856 -0.227218 -0.265864 32 212 224
0.222279 -0.432873 -0.423033 32 212 224
0.230876 -0.25178 -0.0969394 32 212 224
0.22347 -0.173665 -0.422321 32 212 224
0.230284 -0.289941 -0.209108 32 212 224
0.230114 -0.239869 -0.231583 32 212 224
0.221285 -0.270752 -0.437595 32 212 224
0.229924 -0.22055 -0.131158 32 212 224
0.225345 -0.339415 -0.326081 32 212 224
0.22895 -0.47949 -0.300741 32 212 224
0.228798 -0.245244 -0.315394 32 212 224
0.22751 -0.416375 0.0609715 32 212 224
0.224701 -0.285492 -0.374793 32 212 224
0.233494 -0.375022 0.0183918 32 212 224
0.229552 -0.191852 -0.333204 32 212 224
0.229956 -0.167713 -0.341572 32 212 224
0.225327 -0.414826 -0.343099 32 212 224
0.237504 -0.351619 0.0462907 32 212 224
0.229413 -0.434858 0.0511888 32 212 224
0.229849 -0.283204 -0.225488 32 212 224
0.23587 -0.345524 0.0255969 32 212 224
0.220884 -0.401956 -0.420119 32 212 224
0.251457 -0.411408 0.0754647 32 212 224
0.0341671 -0.487176 0.0261894 32 212 224
0.228173 -0.431416 0.00166182 32 212 224
0.231417 -0.245883 -0.0765366 32 212 224
0.229401 -0.451751 0.213521 32 212 224
0.223042 -0.205609 -0.427482 32 212 224
0.226428 -0.373056 -0.311386 32 212 224
0.224667 -0.464762 -0.00823829 32 212 224
0.226352 -0.368203 -0.310233 32 212 224
0.227903 -0.413657 0.116985 32 212 224
0.239259 -0.2757 -0.0312823 32 212 224
0.0823368 -0.487845 0.121556 32 212 224
0.227555 -0.419371 0.133982 32 212 224
0.228503 -0.339095 -0.194907 32 212 224
0.232942 -0.188561 -0.0948335 32 212 224
0.226017 -0.414434 -0.292813 32 212 224
0.228509 -0.444947 0.0422859 32 212 224
0.228246 -0.43776 -0.282084 32 212 224
0.158087 -0.488031 0.179957 32 212 224
0.23985 -0.391431 0.131816 32 212 224
0.230868 -0.199254 -0.227676 32 212 224
0.221911 -0.431851 -0.435866 32 212 224
0.246641 -0.251833 -0.0625162 32 212 224
0.221524 -0.344816 -0.413246 32 212 224
0.223778 -0.471143 0.210593 32 212 224
0.225739 -0.442227 -0.0670558 32 212 224
0.228295 -0.471963 0.0194796 32 212 224
0.227434 -0.464612 -0.0329282 32 212 224
0.225854 -0.48582 0.194425 32 212 224
0.187062 -0.486558 -0.226156 32 212 224
0.0690305 -0.487434 -0.198958 32 212 224
0.227314 -0.446172 -0.261397 32 212 224
0.229795 -0.227187 -0.140957 32 212 224
0.225946 -0.412758 -0.30988 32 212 224
0.226324 -0.204559 -0.382601 32 212 224
0.226381 -0.437208 0.166636 32 212 224
0.230986 -0.176525 -0.308713 32 212 224
0.225839 -0.458219 0.166062 32 212 224
0.222702 -0.438551 -0.425479 32 212 224
0.233965 -0.330988 -0.000704234 32 212 224
0.224689 -0.428117 -0.142238 32 212 224
0.228777 -0.26695 -0.284861 32 212 224
0.229582 -0.254215 -0.249001 32 212 224
0.229244 -0.286139 -0.240764 32 212 224
0.225497 -0.413396 -0.336789 32 212 224
0.238718 -0.394877 0.111082 32 212 224
0.234606 -0.282002 -0.0307527 32 212 224
0.228717 -0.47485 -0.386318 32 212 224
0.230817 -0.246878 -0.0928895 32 212 224
0.228682 -0.372506 -0.0679709 32 212 224
0.231256 -0.179941 -0.293869 32 212 224
0.227943 -0.353761 -0.22081 32 212 224
0.227658 -0.465607 -0.290218 32 212 224
0.235135 -0.406099 0.0849276 32 212 224
0.223626 -0.336009 -0.365743 32 212 224
0.222186 -0.374288 -0.37531 32 212 224
0.233149 -0.405162 0.0382384 32 212 224
0.225972 -0.481819 0.17298 32 212 224
0.228377 -0.472427 0.0309812 32 212 224
0.229427 -0.262509 -0.234855 32 212 224
0.266515 -0.371448 -0.0611282 32 212 224
0.225552 -0.215437 -0.391116 32 212 224
0.219149 -0.471008 0.247827 32 212 224
0.225434 -0.166088 -0.400267 32 212 224
0.228761 -0.350639 -0.17332 32 212 224
0.155456 -0.48735 -0.164034 32 212 224
0.228557 -0.472147 -0.333244 32 212 224
0.223075 -0.435696 -0.399505 32 212 224
0.224067 -0.479858 -0.141311 32 212 224
0.220979 -0.39941 -0.415477 32 212 224
0.226188 -0.481901 -0.16537 32 212 224
0.231185 -0.241213 -0.0809759 32 212 224
0.225163 -0.46069 -0.132277 32 212 224
0.225576 -0.422869 -0.214336 32 212 224
0.227561 -0.452927 -0.0111123 32 212 224
0.22951 -0.216416 -0.148492 32 212 224
0.225256 -0.408281 0.184051 32 212 224
0.228461 -0.271141 -0.291463 32 212 224
0.22436 -0.336509 -0.348165 32 212 224
0.228952 -0.332101 -0.182568 32 212 224
0.230555 -0.439247 0.16113 32 212 224
0.172413 -0.487926 0.138472 32 212 224
0.216963 -0.48087 0.244265 32 212 224
0.223285 -0.482187 0.222847 32 212 224
0.223323 -0.398827 -0.373641 32 212 224
0.228762 -0.445416 0.0591564 32 212 224
-0.0940774 -0.486567 -0.0689514 32 212 224
0.234837 -0.176695 -0.0952981 32 212 224
0.227356 -0.221431 -0.361554 32 212 224
0.233232 -0.306256 -0.0235647 32 212 224
0.225112 -0.457152 -0.425028 32 212 224
0.226261 -0.46733 -0.188826 32 212 224
0.227191 -0.434756 0.0642125 32 212 224
0.227283 -0.445472 0.118114 32 212 224
0.229128 -0.476289 -0.328218 32 212 224
0.23003 -0.23331 -0.208782 32 212 224
0.224381 -0.302825 -0.37963 32 212 224
0.225424 -0.412884 -0.0997214 32 212 224
0.225099 -0.433852 -0.175258 32 212 224
0.226011 -0.452517 -0.352871 32 212 224
0.224002 -0.350988 -0.35046 32 212 224
0.256338 -0.446837 -0.0710393 32 212 224
0.223244 -0.352579 -0.367267 32 212 224
0.221672 -0.392992 -0.397353 32 212 224
0.230271 -0.306556 -0.129534 32 212 224
0.225292 -0.474647 0.177032 32 212 224
0.229398 -0.347383 -0.134694 32 212 224
0.229995 -0.329712 -0.132777 32 212 224
0.221434 -0.428743 -0.446031 32 212 224
0.227672 -0.260266 -0.327453 32 212 224
0.224646 -0.456634 -0.0202775 32 212 224
0.228232 -0.358771 -0.201039 32 212 224
0.227664 -0.463026 -0.323735 32 212 224
0.232549 -0.235461 -0.0642591 32 212 224
0.228097 -0.203221 -0.356902 32 212 224
0.224396 -0.481314 -0.131164 32 212 224
0.225942 -0.276461 -0.35021 32 212 224
0.226136 -0.480788 -0.1012 32 212 224
0.226516 -0.366474 -0.305604 32 212 224
0.229783 -0.283539 -0.227235 32 212 224
0.229328 -0.246493 -0.288483 32 212 224
0.22687 -0.383628 -0.190349 32 212 224
0.227593 -0.416476 0.0719187 32 212 224
0.229495 -0.213818 -0.166214 32 212 224
0.227988 -0.402954 -0.0516584 32 212 224
0.228634 -0.218977 -0.338757 32 212 224
0.22923 -0.353563 -0.11917 32 212 224
0.237983 -0.386405 0.0868706 32 212 224
0.236985 -0.484636 -0.0826274 32 212 224
0.224575 -0.442372 -0.153022 32 212 224
0.229246 -0.477329 -0.324641 32 212 224
0.224474 -0.44775 -0.388867 32 212 224
0.225946 -0.399299 -0.165598 32 212 224
0.230219 -0.427076 0.0495074 32 212 224
0.230684 -0.214739 -0.283077 32 212 224
0.229348 -0.290343 -0.235487 32 212 224
0.247887 -0.173861 -0.0950136 32 212 224
0.225409 -0.451576 -0.189826 32 212 224
0.172594 -0.48723 -0.153717 32 212 224
0.22752 -0.47235 -0.0295593 32 212 224
0.225119 -0.414823 -0.147607 32 212 224
0.227873 -0.276027 -0.305534 32 212 224
0.240843 -0.37178 0.106087 32 212 224
0.233089 -0.448864 0.182581 32 212 224
0.224782 -0.265967 -0.379677 32 212 224
0.229905 -0.166918 -0.157385 32 212 224
0.235173 -0.197675 -0.0778205 32 212 224
0.226914 -0.484937 -0.0758639 32 212 224
0.225747 -0.46581 -0.442413 32 212 224
0.225752 -0.458098 -0.171746 32 212 224
0.226883 -0.402024 -0.252976 32 212 224
0.227705 -0.475917 -0.446743 32 212 224
0.220261 -0.481438 0.210859 32 212 224
0.229623 -0.344881 -0.0955311 32 212 224
0.224383 -0.43539 0.196109 32 212 224
0.226452 -0.468331 -0.434846 32 212 224
0.228738 -0.368505 -0.0952929 32 212 224
0.22684 -0.451057 -0.364872 32 212 224
0.229947 -0.341619 -0.0797935 32 212 224
0.223535 -0.360271 -0.359097 32 212 224
0.227623 -0.379643 -0.278925 32 212 224
0.229673 -0.324714 -0.156237 32 212 224
0.229662 -0.250112 -0.208681 32 212 224
0.225589 -0.432596 -0.233615 32 212 224
0.224791 -0.447804 -0.408289 32 212 224
0.228526 -0.473136 -0.377464 32 212 224
0.227537 -0.370816 -0.22391 32 212 224
0.227066 -0.467194 0.0992502 32 212 224
0.216292 -0.483659 0.239244 32 212 224
0.220806 -0.416418 -0.442087 32 212 224
0.228224 -0.357106 -0.204662 32 212 224
0.221589 -0.338628 -0.430149 32 212 224
-0.0179577 -0.487171 0.0510427 32 212 224
0.223609 -0.445087 -0.415637 32 212 224
0.228172 -0.456379 0.209436 32 212 224
0.221854 -0.315899 -0.423533 32 212 224
0.22744 -0.482403 -0.246782 32 212 224
0.21009 -0.476213 0.241557 32 212 224
0.227294 -0.441457 -0.0166297 32 212 224
0.223878 -0.46639 -0.0615994 32 212 224
0.229096 -0.305435 -0.224179 32 212 224
0.227497 -0.41624 0.0593089 32 212 224
-0.317115 -0.285812 -0.42594 64 236 211
-0.15279 -0.380827 -0.435248 64 236 211
0.132966 -0.481845 -0.167348 64 236 211
0.16452 -0.37072 -0.438722 64 236 211
0.136262 -0.435947 -0.437851 64 236 211
0.0995918 -0.394227 -0.437117 64 236 211
-0.262017 -0.353491 -0.437259 64 236 211
-0.222814 -0.345745 -0.436621 64 236 211
-0.0528652 -0.48558 -0.363356 64 236 211
-0.0825948 -0.485437 -0.371561 64 236 211
0.11146 -0.486409 -0.425945 64 236 211
-0.107402 -0.332233 -0.435875 64 236 211
-0.00515018 -0.441137 -0.439084 64 236 211
-0.179607 -0.484455 0.0216548 64 236 211
-0.0713779 -0.485163 -0.413866 64 236 211
-0.20067 -0.421773 -0.438091 64 236 211
0.0707887 -0.410407 -0.437057 64 236 211
-0.240206 -0.412483 -0.438809 64 236 211
-0.278194 -0.472655 -0.428685 64 236 211
-0.123375 -0.181043 -0.436873 64 236 211
-0.306761 -0.394437 -0.431228 64 236 211
-0.227386 -0.485503 -0.133256 64 236 211
-0.314501 -0.466968 -0.175788 64 236 211
-0.208261 -0.485229 -0.293162 64 236 211
-0.11701 -0.192452 -0.436453 64 236 211
0.000826241 -0.485585 -0.310181 64 236 211
0.0331296 -0.428581 -0.437903 64 236 211
0.0493364 -0.478152 -0.0694859 64 236 211
-0.129938 -0.485268 -0.384094 64 236 211
-0.268502 -0.256278 -0.44001 64 236 211
0.136276 -0.481743 -0.167887 64 236 211
-0.120924 -0.485198 -0.291087 64 236 211
-0.322316 -0.323384 -0.355356 64 236 211
-0.320681 -0.388741 -0.331648 64 236 211
0.177649 -0.486041 -0.351994 64 236 211
-0.0769944 -0.483328 -0.440386 64 236 211
-0.314561 -0.464871 -0.176986 64 236 211
0.0116158 -0.29601 -0.439157 64 236 211
-0.320391 -0.392125 -0.312495 64 236 211
-0.0844307 -0.440857 -0.439158 64 236 211
-0.0888957 -0.475797 0.066846 64 236 211
-0.0105527 -0.475307 0.0140654 64 236 211
-0.129053 -0.269388 -0.435034 64 236 211
-0.133615 -0.483168 -0.00543793 64 236 211
0.0988108 -0.477546 -0.0826864 64 236 211
0.0184076 -0.48401 -0.153203 64 236 211
-0.245777 -0.485771 -0.283163 64 236 211
-0.314912 -0.473963 -0.205784 64 236 211
0.104086 -0.477025 -0.442782 64 236 211
-0.200694 -0.255249 -0.437811 64 236 211
-0.0988234 -0.485212 -0.412411 64 236 211
-0.0840983 -0.484815 -0.419038 64 236 211
-0.288497 -0.404765 -0.437866 64 236 211
0.113037 -0.475971 -0.442778 64 236 211
0.173066 -0.426927 -0.437557 64 236 211
-0.0336045 -0.310683 -0.438205 64 236 211
-0.280143 -0.485479 -0.179116 64 236 211
-0.148268 -0.267203 -0.434873 64 236 211
-0.0212428 -0.473485 0.0412537 64 236 211
-0.0731072 -0.47705 0.0388041 64 236 211
-0.0960586 -0.290196 -0.436267 64 236 211
-0.309938 -0.463265 -0.412024 64 236 211
-0.0886125 -0.237367 -0.435733 64 236 211
0.0285867 -0.485717 -0.268665 64 236 211
-0.201287 -0.475701 -0.43893 64 236 211
0.0313292 -0.413134 -0.437454 64 236 211
-0.28974 -0.485601 -0.255671 64 236 211
0.0512637 -0.486168 -0.396541 64 236 211
-0.100824 -0.485816 -0.155779 64 236 211
-0.117714 -0.41951 -0.437438 64 236 211
0.192583 -0.486033 -0.299606 64 236 211
-0.224893 -0.485445 -0.350828 64 236 211
-0.0871659 -0.365224 -0.436139 64 236 211
0.171071 -0.486225 -0.254894 64 236 211
0.11417 -0.486118 -0.294964 64 236 211
-0.165298 -0.485419 -0.140424 64 236 211
0.0682143 -0.381946 -0.438049 64 236 211
-0.317516 -0.458552 -0.301246 64 236 211
-0.318101 -0.345666 -0.421878 64 236 211
-0.243141 -0.321719 -0.437509 64 236 211
-0.193759 -0.230198 -0.437551 64 236 211
-0.190447 -0.405238 -0.436579 64 236 211
0.12216 -0.481959 -0.164948 64 236 211
-0.204503 -0.485844 -0.0883741 64 236 211
-0.31741 -0.437487 -0.243723 64 236 211
-0.156697 -0.479797 0.065769 64 236 211
-0.106087 -0.485198 -0.303514 64 236 211
-0.317527 -0.461079 -0.316294 64 236 211
0.0199373 -0.484717 -0.165188 64 236 211
-0.308383 -0.443718 -0.423462 64 236 211
-0.168871 -0.352938 -0.435354 64 236 211
-0.200934 -0.244893 -0.437893 64 236 211
0.180342 -0.486025 -0.366169 64 236 211
-0.212306 -0.358502 -0.436146 64 236 211
0.146478 -0.48615 -0.395645 64 236 211
-0.143478 -0.482474 0.0138707 64 236 211
-0.24169 -0.485685 -0.417917 64 236 211
-0.103951 -0.476822 0.0652075 64 236 211
-0.0348101 -0.485669 -0.354661 64 236 211
-0.194408 -0.191943 -0.438042 64 236 211
-0.10163 -0.476805 0.0636758 64 236 211
-0.209081 -0.485222 -0.331101 64 236 211
-0.00449271 -0.406245 -0.436817 64 236 211
-0.317559 -0.457395 -0.357877 64 236 211
-0.171284 -0.383028 -0.435811 64 236 211
-0.31905 -0.408108 -0.385867 64 236 211
0.168976 -0.486377 -0.434154 64 236 211
-0.211937 -0.246686 -0.438585 64 236 211
-0.210745 -0.485525 -0.410395 64 236 211
0.0421459 -0.485761 -0.307476 64 236 211
0.00636319 -0.475312 0.00195794 64 236 211
-0.0821235 -0.280363 -0.436294 64 236 211
-0.0524308 -0.480261 -0.0319547 64 236 211
-0.0284834 -0.326868 -0.437658 64 236 211
-0.109077 -0.315731 -0.435862 64 236 211
-0.154982 -0.190906 -0.436366 64 236 211
-0.206511 -0.230191 -0.438303 64 236 211
-0.0717837 -0.486608 -0.126776 64 236 211
-0.164225 -0.483855 0.0146097 64 236 211
-0.130178 -0.450335 -0.440485 64 236 211
0.173465 -0.486088 -0.396849 64 236 211
-0.044711 -0.479228 -0.0209143 64 236 211
-0.321206 -0.205035 -0.42607 64 236 211
-0.296525 -0.484738 -0.263397 64 236 211
-0.136314 -0.410833 -0.436455 64 236 211
-0.25428 -0.485728 -0.109354 64 236 211
0.0301866 -0.479831 -0.0842493 64 236 211
-0.200372 -0.211665 -0.438067 64 236 211
-0.303258 -0.481588 -0.240258 64 236 211
-0.314932 -0.459814 -0.190716 64 236 211
-0.22355 -0.408735 -0.437739 64 236 211
-0.113002 -0.304931 -0.435792 64 236 211
-0.0388285 -0.485539 -0.324795 64 236 211
-0.290019 -0.478509 -0.409125 64 236 211
-0.0407498 -0.485232 -0.134978 64 236 211
-0.19021 -0.485138 -0.370897 64 236 211
-0.315232 -0.439049 -0.409322 64 236 211
-0.0211425 -0.476654 0.00529186 64 236 211
-0.312625 -0.425654 -0.421904 64 236 211
-0.0610305 -0.485661 -0.405991 64 236 211
-0.0841559 -0.485226 -0.411759 64 236 211
0.0270727 -0.477056 -0.0359814 64 236 211
0.0404888 -0.478318 -0.442204 64 236 211
-0.196966 -0.248668 -0.437613 64 236 211
-0.180413 -0.480917 0.0769025 64 236 211
0.0645108 -0.37842 -0.438241 64 236 211
-0.123102 -0.18816 -0.436517 64 236 211
-0.149422 -0.485112 -0.302597 64 236 211
0.147854 -0.486177 -0.401699 64 236 211
-0.124286 -0.476697 0.0832007 64 236 211
-0.274536 -0.485769 -0.280119 64 236 211
-0.236746 -0.485533 -0.18482 64 236 211
-0.151713 -0.485242 -0.205134 64 236 211
-0.173812 -0.350049 -0.435501 64 236 211
-0.0201737 -0.470526 0.0685543 64 236 211
-0.267189 -0.236331 -0.440535 64 236 211
0.1972 -0.486116 -0.414775 64 236 211
-0.11157 -0.48547 -0.401857 64 236 211
-0.192944 -0.417721 -0.43784 64 236 211
-0.173137 -0.479577 0.0896188 64 236 211
0.0514015 -0.482568 -0.442439 64 236 211
-0.308176 -0.450453 -0.421544 64 236 211
0.11829 -0.407865 -0.436532 64 236 211
0.201694 -0.485995 -0.382446 64 236 211
-0.300258 -0.240412 -0.436971 64 236 211
-0.137828 -0.416437 -0.437157 64 236 211
-0.3212 -0.333422 -0.293239 64 236 211
0.151478 -0.449871 -0.43954 64 236 211
-0.005888 -0.485675 -0.422902 64 236 211
-0.289729 -0.397328 -0.437597 64 236 211
-0.0239121 -0.482063 -0.0791402 64 236 211
0.117113 -0.486535 -0.436875 64 236 211
-0.161784 -0.338545 -0.435139 64 236 211
-0.220117 -0.486569 -0.0309266 64 236 211
0.021654 -0.485693 -0.271972 64 236 211
-0.309393 -0.324927 -0.431085 64 236 211
-0.192371 -0.4867 -0.0528575 64 236 211
-0.187287 -0.222175 -0.437236 64 236 211
-0.098899 -0.478314 0.0374212 64 236 211
-0.00979619 -0.485118 -0.159357 64 236 211
-0.0355097 -0.48597 -0.185901 64 236 211
-0.17488 -0.485062 -0.357855 64 236 211
-0.107287 -0.435736 -0.439021 64 236 211
-0.00857401 -0.484971 -0.436025 64 236 211
-0.279419 -0.47836 -0.422897 64 236 211
-0.201724 -0.366442 -0.435775 64 236 211
-0.22326 -0.485416 -0.155849 64 236 211
-0.263972 -0.486047 -0.0583126 64 236 211
-0.216794 -0.440259 -0.439164 64 236 211
-0.15373 -0.195805 -0.436084 64 236 211
0.00580894 -0.341184 -0.437504 64 236 211
0.0788092 -0.486063 -0.37471 64 236 211
-0.0635945 -0.338424 -0.437055 64 236 211
-0.172876 -0.31955 -0.435783 64 236 211
0.0762677 -0.484788 -0.195496 64 236 211
-0.169996 -0.483897 -0.43734 64 236 211
-0.235024 -0.467052 -0.438417 64 236 211
-0.317052 -0.45702 -0.280757 64 236 211
-0.212062 -0.486283 -0.0583282 64 236 211
0.0401996 -0.317146 -0.439209 64 236 211
-0.173106 -0.422688 -0.43841 64 236 211
0.192186 -0.440177 -0.437824 64 236 211
-0.160974 -0.317901 -0.435198 64 236 211
0.0215353 -0.485769 -0.256269 64 236 211
-0.130533 -0.251856 -0.434818 64 236 211
-0.00450162 -0.299889 -0.438799 64 236 211
0.128276 -0.486132 -0.38542 64 236 211
-0.0836266 -0.485683 -0.182989 64 236 211
-0.0890059 -0.199051 -0.436389 64 236 211
0.187575 -0.486307 -0.434915 64 236 211
-0.108915 -0.274294 -0.43605 64 236 211
0.00459465 -0.485125 -0.43696 64 236 211
0.107139 -0.486118 -0.294326 64 236 211
-0.296309 -0.48502 -0.245014 64 236 211
0.0380731 -0.482547 -0.140575 64 236 211
-0.151629 -0.481513 0.0351978 64 236 211
-0.262659 -0.284794 -0.439116 64 236 211
-0.0279407 -0.485892 -0.409516 64 236 211
0.105165 -0.486285 -0.406111 64 236 211
-0.110102 -0.250139 -0.435139 64 236 211
-0.235652 -0.485593 -0.349345 64 236 211
0.0775732 -0.486036 -0.306304 64 236 211
-0.00905314 -0.486335 -0.171615 64 236 211
0.102653 -0.486089 -0.374606 64 236 211
0.0552082 -0.486213 -0.402392 64 236 211
-0.189083 -0.280308 -0.436657 64 236 211
-0.265305 -0.254326 -0.440179 64 236 211
-0.128505 -0.316929 -0.43545 64 236 211
0.158212 -0.480356 -0.442585 64 236 211
-0.325443 -0.253324 -0.383296 64 236 211
-0.1948 -0.485115 -0.336065 64 236 211
-0.127966 -0.485152 -0.3117 64 236 211
0.0696945 -0.330878 -0.439253 64 236 211
0.0165835 -0.485672 -0.276938 64 236 211
-0.110971 -0.199259 -0.436271 64 236 211
-0.192506 -0.484955 -0.423261 64 236 211
0.194869 -0.471713 -0.441001 64 236 211
0.155597 -0.484208 -0.214972 64 236 211
-0.0758089 -0.485681 -0.404019 64 236 211
-0.234692 -0.370498 -0.436506 64 236 211
-0.217658 -0.426557 -0.438527 64 236 211
-0.314004 -0.462864 -0.152079 64 236 211
-0.0410453 -0.485507 -0.311622 64 236 211
0.136714 -0.486129 -0.306346 64 236 211
0.0943398 -0.477978 -0.0873364 64 236 211
-0.317794 -0.4562 -0.347434 64 236 211
-0.186808 -0.176532 -0.438028 64 236 211
-0.289087 -0.481857 -0.392696 64 236 211
-0.116325 -0.485602 -0.168178 64 236 211
-0.0482957 -0.485888 -0.186153 64 236 211
0.0445698 -0.48578 -0.307035 64 236 211
-0.0155258 -0.468958 0.0801673 64 236 211
-0.210853 -0.406095 -0.436867 64 236 211
0.0813573 -0.43109 -0.437275 64 236 211
-0.143462 -0.250638 -0.434757 64 236 211
0.0914118 -0.47296 -0.0245961 64 236 211
0.0279865 -0.458071 -0.440409 64 236 211
-0.0914939 -0.477914 0.0382742 64 236 211
-0.0146224 -0.311332 -0.438562 64 236 211
-0.177486 -0.255377 -0.436294 64 236 211
0.0149725 -0.465632 0.0947296 64 236 211
-0.132351 -0.309669 -0.435418 64 236 211
-0.0239697 -0.485672 -0.34624 64 236 211
-0.122197 -0.440442 -0.439559 64 236 211
0.00203111 -0.476897 -0.0162834 64 236 211
0.0479629 -0.486038 -0.3717 64 236 211
0.124594 -0.399592 -0.436767 64 236 211
0.121178 -0.397053 -0.436726 64 236 211
0.187198 -0.486042 -0.279198 64 236 211
0.201451 -0.485978 -0.351933 64 236 211
-0.00944255 -0.485693 -0.27315 64 236 211
-0.209574 -0.485278 -0.232985 64 236 211
-0.110118 -0.239576 -0.435282 64 236 211
-0.278419 -0.272818 -0.438787 64 236 211
-0.302709 -0.347722 -0.434477 64 236 211
-0.245061 -0.485737 -0.293831 64 236 211
0.0237229 -0.485648 -0.330971 64 236 211
-0.318574 -0.375012 -0.209996 64 236 211
-0.0620033 -0.355298 -0.436705 64 236 211
-0.246802 -0.193008 -0.440686 64 236 211
-0.316131 -0.464324 -0.38441 64 236 211
0.10947 -0.286771 -0.439565 64 236 211
-0.159308 -0.485073 -0.307655 64 236 211
-0.0677252 -0.250795 -0.435838 64 236 211
-0.215122 -0.485336 -0.233645 64 236 211
0.170449 -0.486034 -0.372373 64 236 211
-0.153888 -0.484157 -0.4337 64 236 211
0.17991 -0.486025 -0.377483 64 236 211
-0.0512964 -0.485454 -0.319765 64 236 211
-0.176937 -0.376849 -0.435861 64 236 211
0.0491674 -0.470941 0.0193018 64 236 211
-0.179161 -0.322105 -0.435956 64 236 211
-0.106574 -0.269934 -0.436031 64 236 211
0.0504239 -0.27455 -0.439849 64 236 211
0.0425129 -0.478004 -0.0634102 64 236 211
-0.230715 -0.194051 -0.43995 64 236 211
-0.124526 -0.264324 -0.435117 64 236 211
0.042858 -0.483124 -0.442309 64 236 211
-0.191398 -0.314799 -0.43622 64 236 211
-0.0774242 -0.410888 -0.435962 64 236 211
-0.12201 -0.444923 -0.439884 64 236 211
-0.27944 -0.2605 -0.439159 64 236 211
0.055679 -0.485866 -0.266254 64 236 211
-0.170209 -0.256232 -0.435814 64 236 211
-0.0175511 -0.465375 0.118165 64 236 211
-0.0737226 -0.458727 -0.440257 64 236 211
-0.0112175 -0.475354 0.0140063 64 236 211
-0.0607589 -0.486171 -0.134267 64 236 211
-0.0589866 -0.479664 -0.0168019 64 236 211
-0.153979 -0.246876 -0.435071 64 236 211
-0.305263 -0.447211 -0.42586 64 236 211
-0.0187928 -0.299717 -0.438485 64 236 211
-0.285126 -0.373935 -0.437675 64 236 211
-0.196355 -0.468252 -0.440038 64 236 211
-0.162508 -0.407559 -0.436777 64 236 211
0.0336912 -0.341706 -0.438544 64 236 211
-0.0328484 -0.479707 -0.0376904 64 236 211
-0.108114 -0.399458 -0.435843 64 236 211
-0.0200934 -0.485818 -0.379672 64 236 211
-0.10878 -0.473703 0.104595 64 236 211
-0.0509974 -0.485471 -0.296482 64 236 211
-0.304604 -0.263671 -0.434855 64 236 211
-0.0526549 -0.484677 -0.426429 64 236 211
-0.0249627 -0.485779 -0.373614 64 236 211
-0.0920687 -0.47928 -0.441752 64 236 211
-0.0907103 -0.203414 -0.436239 64 236 211
0.0418026 -0.485533 -0.439227 64 236 211
-0.104016 -0.286795 -0.436292 64 236 211
-0.254198 -0.485737 -0.396385 64 236 211
-0.138559 -0.485328 -0.401097 64 236 211
-0.0174187 -0.485835 -0.382045 64 236 211
-0.153197 -0.486333 -0.0943984 64 236 211
0.093789 -0.445407 -0.439245 64 236 211
-0.294362 -0.47996 -0.386743 64 236 211
-0.320629 -0.363461 -0.403172 64 236 211
-0.228336 -0.485489 -0.251644 64 236 211
-0.31667 -0.407065 -0.184238 64 236 211
-0.10851 -0.206028 -0.436052 64 236 211
-0.0933132 -0.485316 -0.361657 64 236 211
-0.13491 -0.438796 -0.439649 64 236 211
-0.321393 -0.358472 -0.369801 64 236 211
-0.111117 -0.484714 -0.421893 64 236 211
0.180245 -0.486342 -0.435037 64 236 211
0.125698 -0.48608 -0.371632 64 236 211
-0.206912 -0.485246 -0.219114 64 236 211
-0.303058 -0.475938 -0.380175 64 236 211
0.0149082 -0.485595 -0.321098 64 236 211
-0.142005 -0.485374 -0.181192 64 236 211
0.19383 -0.486275 -0.434652 64 236 211
0.0360941 -0.484863 -0.179946 64 236 211
0.0851298 -0.467947 -0.441966 64 236 211
-0.137248 -0.426719 -0.438397 64 236 211
-0.321764 -0.317408 -0.331871 64 236 211
-0.320245 -0.227385 -0.426514 64 236 211
-0.0646065 -0.293667 -0.436889 64 236 211
-0.244234 -0.252347 -0.440419 64 236 211
-0.267281 -0.277445 -0.439241 64 236 211
-0.134464 -0.413135 -0.436711 64 236 211
-0.00724185 -0.48599 -0.399583 64 236 211
-0.324693 -0.234458 -0.415863 64 236 211
-0.0796624 -0.472904 0.090803 64 236 211
0.0930254 -0.327368 -0.43897 64 236 211
-0.295148 -0.437965 -0.434007 64 236 211
0.0512154 -0.470379 -0.441786 64 236 211
-0.0973466 -0.485095 -0.414209 64 236 211
-0.23962 -0.210036 -0.440515 64 236 211
-0.324271 -0.251251 -0.414147 64 236 211
0.102288 -0.474207 -0.0430078 64 236 211
-0.227521 -0.48545 -0.19791 64 236 211
-0.0336014 -0.315263 -0.438029 64 236 211
-0.0178527 -0.319702 -0.438075 64 236 211
0.0300485 -0.48567 -0.293726 64 236 211
0.130568 -0.411885 -0.436781 64 236 211
-0.290351 -0.474997 -0.419036 64 236 211
-0.130581 -0.44631 -0.440171 64 236 211
-0.0472682 -0.438556 -0.438514 64 236 211
0.102019 -0.477607 -0.0849559 64 236 211
-0.0578766 -0.485394 -0.411298 64 236 211
-0.199897 -0.485414 -0.41191 64 236 211
-0.0936184 -0.351668 -0.435736 64 236 211
0.0708386 -0.454452 -0.440773 64 236 211
-0.276401 -0.435693 -0.439065 64 236 211
0.0995863 -0.479524 -0.115213 64 236 211
-0.13643 -0.277946 -0.434894 64 236 211
-0.104941 -0.475795 0.0787492 64 236 211
-0.0773624 -0.47557 0.060698 64 236 211
-0.325098 -0.254361 -0.400242 64 236 211
-0.197184 -0.484926 0.0311301 64 236 211
-0.270472 -0.485534 -0.173452 64 236 211
0.0649098 -0.284882 -0.440024 64 236 211
-0.0330835 -0.484502 -0.126082 64 236 211
-0.137756 -0.229201 -0.434522 64 236 211
0.145135 -0.486053 -0.365319 64 236 211
-0.0749397 -0.273555 -0.436058 64 236 211
-0.143184 -0.260577 -0.434789 64 236 211
0.195059 -0.486006 -0.383932 64 236 211
-0.19555 -0.485299 -0.396319 64 236 211
-0.184983 -0.382704 -0.435714 64 236 211
-0.0529734 -0.485458 -0.332087 64 236 211
-0.201675 -0.395453 -0.435725 64 236 211
-0.0421971 -0.485721 -0.37723 64 236 211
0.0220655 -0.485894 -0.228765 64 236 211
-0.180158 -0.265968 -0.436368 64 236 211
-0.0421951 -0.485561 -0.267169 64 236 211
-0.0924862 -0.213303 -0.436095 64 236 211
0.0150311 -0.485604 -0.327406 64 236 211
-0.0868756 -0.486661 -0.116891 64 236 211
0.00127039 -0.474159 0.017691 64 236 211
-0.188886 -0.485321 -0.133598 64 236 211
-0.0927945 -0.417999 -0.437015 64 236 211
-0.0594576 -0.485611 -0.375092 64 236 211
0.0254469 -0.48564 -0.322216 64 236 211
0.117873 -0.486195 -0.395281 64 236 211
-0.0108402 -0.485749 -0.258249 64 236 211
-0.0246208 -0.475966 0.0163978 64 236 211
0.121781 -0.349234 -0.437753 64 236 211
-0.00324281 -0.336124 -0.4377 64 236 211
-0.0666465 -0.485501 -0.364603 64 236 211
-0.101088 -0.202094 -0.436375 64 236 211
-0.107372 -0.274365 -0.436116 64 236 211
0.196035 -0.469295 -0.440766 64 236 211
-0.0757118 -0.423538 -0.437303 64 236 211
-0.0874308 -0.480747 -0.012824 64 236 211
-0.179139 -0.484665 -0.42774 64 236 211
-0.111015 -0.197934 -0.436334 64 236 211
-0.29564 -0.413719 -0.435654 64 236 211
-0.14789 -0.183226 -0.436536 64 236 211
-0.142551 -0.485083 -0.331197 64 236 211
-0.105411 -0.343969 -0.435667 64 236 211
-0.248247 -0.312878 -0.437985 64 236 211
-0.118195 -0.219182 -0.435182 64 236 211
-0.184706 -0.482156 0.0654273 64 236 211
-0.301555 -0.430704 -0.431051 64 236 211
-0.151077 -0.47843 0.0820069 64 236 211
-0.269223 -0.484305 -0.41997 64 236 211
-0.0874298 -0.485509 -0.208625 64 236 211
-0.24614 -0.226829 -0.440787 64 236 211
0.0387217 -0.271985 -0.439773 64 236 211
-0.13818 -0.485216 -0.378885 64 236 211
-0.0271076 -0.404796 -0.436333 64 236 211
0.022465 -0.486351 -0.185925 64 236 211
0.0609519 -0.486236 -0.220587 64 236 211
0.102742 -0.36729 -0.437748 64 236 211
0.207727 -0.48598 -0.392629 64 236 211
0.0217739 -0.48625 -0.409686 64 236 211
0.0706142 -0.469692 -0.441906 64 236 211
-0.130656 -0.485998 -0.123267 64 236 211
0.0651668 -0.480884 -0.122622 64 236 211
-0.124345 -0.334981 -0.435433 64 236 211
-0.0234244 -0.485883 -0.391257 64 236 211
-0.289914 -0.346249 -0.436448 64 236 211
0.146773 -0.483694 -0.20546 64 236 211
0.0937132 -0.475592 -0.0533333 64 236 211
-0.0816038 -0.485462 -0.374425 64 236 211
-0.102325 -0.210195 -0.436094 64 236 211
-0.173485 -0.287971 -0.435984 64 236 211
0.0950753 -0.46461 -0.441815 64 236 211
-0.317977 -0.424261 -0.393726 64 236 211
0.0371485 -0.485739 -0.33016 64 236 211
-0.0118169 -0.485722 -0.360361 64 236 211
-0.284225 -0.440712 -0.437263 64 236 211
-0.0817528 -0.484022 -0.432623 64 236 211
0.138886 -0.482894 -0.189976 64 236 211
-0.233018 -0.480993 -0.434735 64 236 211
-0.321686 -0.324302 -0.317748 64 236 211
-0.318887 -0.423863 -0.298159 64 236 211
0.125248 -0.486147 -0.283625 64 236 211
-0.0935369 -0.317927 -0.436331 64 236 211
-0.0383071 -0.485735 -0.375078 64 236 211
0.0240081 -0.327344 -0.43841 64 236 211
0.111555 -0.486423 -0.233262 64 236 211
-0.0719868 -0.469347 -0.44095 64 236 211
0.000515142 -0.321046 -0.438395 64 236 211
-0.0648341 -0.483923 -0.436076 64 236 211
0.0548381 -0.30513 -0.439883 64 236 211
0.0511644 -0.362089 -0.438685 64 236 211
-0.182566 -0.430842 -0.43911 64 236 211
0.0781793 -0.484949 -0.218657 64 236 211
-0.137806 -0.385287 -0.435295 64 236 211
-0.154487 -0.384322 -0.435439 64 236 211
0.0761259 -0.423914 -0.436583 64 236 211
-0.0941628 -0.285928 -0.436295 64 236 211
-0.320022 -0.373894 -0.405632 64 236 211
-0.253423 -0.485731 -0.397342 64 236 211
-0.100455 -0.314218 -0.436127 64 236 211
-0.013335 -0.444673 -0.439293 64 236 211
-0.0495508 -0.485484 -0.29298 64 236 211
-0.08418 -0.432879 -0.438371 64 236 211
-0.233172 -0.485599 -0.420991 64 236 211
-0.12661 -0.48573 -0.14449 64 236 211
-0.194401 -0.485556 -0.110963 64 236 211
-0.308358 -0.228527 -0.43509 64 236 211
0.0146286 -0.485846 -0.238265 64 236 211
0.0155553 -0.329128 -0.438227 64 236 211
0.00246934 -0.485585 -0.305984 64 236 211
-0.0321721 -0.459275 -0.440296 64 236 211
0.00684394 -0.485767 -0.180187 64 236 211
-0.00550785 -0.314073 -0.438654 64 236 211
0.0817794 -0.486331 -0.222543 64 236 211
0.0437832 -0.292154 -0.43956 64 236 211
-0.261948 -0.46904 -0.435812 64 236 211
0.0154259 -0.486021 -0.42356 64 236 211
0.19934 -0.486003 -0.305551 64 236 211
-0.137526 -0.480998 0.0292337 64 236 211
-0.250045 -0.4857 -0.372727 64 236 211
0.0177986 -0.485905 -0.374573 64 236 211
0.0589396 -0.480849 -0.11673 64 236 211
-0.299275 -0.456116 -0.428133 64 236 211
0.0678758 -0.477176 -0.0625719 64 236 211
-0.315517 -0.447613 -0.193333 64 236 211
-0.324686 -0.266091 -0.375231 64 236 211
-0.147138 -0.468758 -0.441832 64 236 211
-0.346384 -0.4836 -0.426044 96 250 196
-0.117894 -0.485737 -0.384607 96 250 196
-0.292545 -0.474969 -0.43202 96 250 196
-0.335916 -0.478546 0.204927 96 250 196
0.23589 -0.363057 0.0210815 96 250 196
-0.360482 -0.318936 -0.324274 96 250 196
0.221608 -0.478962 0.146483 96 250 196
-0.323889 -0.26527 -0.429423 96 250 196
-0.281918 -0.486067 -0.149123 96 250 196
-0.302665 -0.486007 -0.00966563 96 250 196
0.216027 -0.373551 -0.391219 96 250 196
-0.304737 -0.435494 -0.436462 96 250 196
-0.0406501 -0.486929 0.246784 96 250 196
-0.085475 -0.440837 -0.427694 96 250 196
-0.350833 -0.481338 -0.382304 96 250 196
-0.204415 -0.486665 0.0440445 96 250 196
0.195887 -0.373633 -0.42224 96 250 196
-0.0225748 -0.28493 -0.429676 96 250 196
-0.340659 -0.482254 -0.193516 96 250 196
-0.349434 -0.477993 -0.269904 96 250 196
0.209114 -0.418734 -0.404567 96 250 196
-0.368597 -0.482509 0.0838408 96 250 196
0.179221 -0.48668 -0.0204727 96 250 196
0.0557521 -0.486127 -0.350754 96 250 196
0.221357 -0.353146 -0.34788 96 250 196
0.207046 -0.486654 0.014473 96 250 196
-0.336059 -0.484769 -0.411598 96 250 196
0.0232096 -0.45112 -0.423726 96 250 196
0.05466 -0.486251 0.327999 96 250 196
-0.15909 -0.486782 0.00851758 96 250 196
-0.296614 -0.485956 -0.14401 96 250 196
0.178254 -0.486673 0.188918 96 250 196
-0.348644 -0.463097 -0.214784 96 250 196
-0.184016 -0.388263 -0.427457 96 250 196
-0.351649 -0.479105 -0.38311 96 250 196
0.192334 -0.486731 0.10488 96 250 196
0.195895 -0.369966 -0.422197 96 250 196
-0.248865 -0.485619 -0.334342 96 250 196
-0.0276556 -0.336159 -0.429034 96 250 196
0.214382 -0.3745 -0.406731 96 250 196
-0.348066 -0.202291 -0.406952 96 250 196
-0.331187 -0.48484 -0.402756 96 250 196
0.211466 -0.439582 -0.329092 96 250 196
-0.348235 -0.484644 -0.384746 96 250 196
0.0997629 -0.486126 -0.412967 96 250 196
0.229781 -0.402707 0.236689 96 250 196
0.170635 -0.346808 -0.426445 96 250 196
0.00296095 -0.404461 -0.425709 96 250 196
-0.345412 -0.48512 -0.290583 96 250 196
0.147423 -0.486749 -0.0841856 96 250 196
0.129545 -0.457113 -0.423218 96 250 196
-0.345034 -0.361556 -0.0627329 96 250 196
-0.354317 -0.433785 -0.346203 96 250 196
-0.161269 -0.486796 0.198736 96 250 196
-0.294322 -0.244563 -0.426671 96 250 196
0.065408 -0.414089 -0.425411 96 250 196
0.191465 -0.454459 -0.416704 96 250 196
-0.235827 -0.485284 -0.41421 96 250 196
0.217259 -0.48668 0.128946 96 250 196
-0.0434112 -0.485791 -0.421016 96 250 196
-0.348655 -0.412337 -0.43306 96 250 196
-0.352475 -0.479448 -0.419974 96 250 196
0.198358 -0.48665 -0.00192189 96 250 196
-0.147218 -0.48686 0.117943 96 250 196
-0.03422 -0.485912 -0.390773 96 250 196
-0.275499 -0.277654 -0.427591 96 250 196
-0.273575 -0.357749 -0.431455 96 250 196
0.118684 -0.464546 -0.422 96 250 196
-0.360872 -0.305306 -0.317895 96 250 196
-0.343104 -0.478829 -0.182934 96 250 196
-0.398592 -0.487005 0.019599 96 250 196
-0.27562 -0.485776 -0.285042 96 250 196
0.024921 -0.315007 -0.429289 96 250 196
-0.221364 -0.486594 0.208386 96 250 196
-0.349041 -0.482709 -0.421252 96 250 196
-0.333815 -0.423747 -0.436474 96 250 196
-0.263764 -0.45473 -0.431372 96 250 196
0.235824 -0.360352 0.00937789 96 250 196
-0.109386 -0.485737 -0.389235 96 250 196
-0.353391 -0.284247 -0.406559 96 250 196
0.209695 -0.415118 -0.391043 96 250 196
-0.343052 -0.351986 -0.43501 96 250 196
-0.317494 -0.227165 -0.425437 96 250 196
-0.335471 -0.415365 0.013549 96 250 196
-0.231257 -0.263662 -0.422799 96 250 196
-0.103846 -0.467324 -0.425718 96 250 196
-0.351988 -0.479821 -0.396729 96 250 196
-0.268104 -0.486354 0.155055 96 250 196
0.212226 -0.436265 -0.328571 96 250 196
-0.343442 -0.484803 -0.368966 96 250 196
-0.346485 -0.404127 -0.145231 96 250 196
0.176546 -0.285402 -0.425299 96 250 196
-0.105857 -0.486775 0.28007 96 250 196
-0.0743387 -0.2711 -0.428308 96 250 196
-0.23155 -0.485414 -0.396086 96 250 196
-0.129721 -0.32396 -0.42625 96 250 196
0.158275 -0.486767 0.153012 96 250 196
-0.0926162 -0.376853 -0.427009 96 250 196
-0.213743 -0.485314 -0.42279 96 250 196
-0.333281 -0.465636 -0.00233533 96 250 196
0.221751 -0.351884 -0.345719 96 250 196
-0.352743 -0.466557 -0.419745 96 250 196
-0.227021 -0.266058 -0.422675 96 250 196
-0.244314 -0.485388 -0.387338 96 250 196
-0.135641 -0.485626 -0.406998 96 250 196
-0.264795 -0.485361 -0.356434 96 250 196
-0.356286 -0.339148 -0.391682 96 250 196
0.0232292 -0.487032 -0.0217033 96 250 196
-0.306987 -0.484928 -0.41779 96 250 196
-0.251067 -0.28415 -0.425198 96 250 196
-0.0713927 -0.485893 -0.369697 96 250 196
-0.321653 -0.213672 -0.423555 96 250 196
-0.179296 -0.276443 -0.423291 96 250 196
-0.146705 -0.446663 -0.428964 96 250 196
-0.180498 -0.346534 -0.425594 96 250 196
-0.350377 -0.436723 -0.24542 96 250 196
-0.350708 -0.480414 -0.428423 96 250 196
-0.170909 -0.486483 -0.218584 96 250 196
0.178317 -0.218134 -0.424253 96 250 196
0.0129356 -0.487105 0.0417131 96 250 196
-0.206466 -0.48662 -0.00411299 96 250 196
-0.354777 -0.40537 -0.296593 96 250 196
-0.346889 -0.475415 -0.432883 96 250 196
0.204103 -0.486483 0.252179 96 250 196
-0.338868 -0.467531 -0.434254 96 250 196
0.0414575 -0.486039 -0.406189 96 250 196
-0.0673008 -0.322178 -0.428795 96 250 196
0.149517 -0.486172 -0.361446 96 250 196
0.205635 -0.455837 -0.342252 96 250 196
-0.214883 -0.486113 -0.301526 96 250 196
0.2287 -0.329167 -0.298573 96 250 196
-0.348162 -0.421716 -0.18438 96 250 196
0.0319351 -0.265334 -0.430116 96 250 196
-0.35845 -0.256813 -0.359855 96 250 196
-0.0950762 -0.374424 -0.426988 96 250 196
-0.306345 -0.474703 -0.433185 96 250 196
-0.334794 -0.477224 0.205904 96 250 196
0.106396 -0.486387 -0.310727 96 250 196
-0.35377 -0.398289 -0.272664 96 250 196
-0.349073 -0.376708 -0.431945 96 250 196
-0.0591869 -0.486829 0.267869 96 250 196
-0.236418 -0.485407 -0.393113 96 250 196
-0.185187 -0.430982 -0.42927 96 250 196
-0.229243 -0.261765 -0.422717 96 250 196
-0.35331 -0.447471 -0.411766 96 250 196
-0.136313 -0.486879 0.0899599 96 250 196
-0.22081 -0.409751 -0.428654 96 250 196
-0.350261 -0.441509 -0.236039 96 250 196
-0.134231 -0.485603 -0.414168 96 250 196
-0.351331 -0.480828 -0.30259 96 250 196
-0.344037 -0.482259 -0.225972 96 250 196
0.0144794 -0.369671 -0.426836 96 250 196
-0.113112 -0.485613 -0.422433 96 250 196
-0.0997348 -0.486923 0.196414 96 250 196
-0.262562 -0.485338 -0.369926 96 250 196
-0.350185 -0.480143 -0.430397 96 250 196
-0.0712067 -0.486288 -0.342666 96 250 196
-0.176523 -0.485544 -0.404519 96 250 196
-0.23061 -0.485486 -0.369941 96 250 196
0.204829 -0.386391 -0.41642 96 250 196
0.122678 -0.486179 -0.367037 96 250 196
-0.326526 -0.485451 -0.0872177 96 250 196
-0.348732 -0.477884 -0.252378 96 250 196
0.108613 -0.357228 -0.427057 96 250 196
0.108947 -0.298168 -0.428541 96 250 196
-0.257687 -0.311681 -0.42769 96 250 196
-0.319447 -0.487555 0.127394 96 250 196
-0.111459 -0.483496 -0.423597 96 250 196
-0.156757 -0.429214 -0.428662 96 250 196
-0.290799 -0.22683 -0.424887 96 250 196
0.173618 -0.486497 0.265937 96 250 196
-0.0933905 -0.486955 0.0630293 96 250 196
-0.192915 -0.486723 0.144007 96 250 196
-0.272179 -0.484219 0.284426 96 250 196
-0.328369 -0.483844 -0.0559882 96 250 196
-0.22102 -0.317241 -0.42466 96 250 196
-0.280223 -0.486174 -0.0427976 96 250 196
-0.0721627 -0.486618 0.307506 96 250 196
0.0869906 -0.486472 -0.308431 96 250 196
-0.338005 -0.373553 -0.437201 96 250 196
0.207177 -0.445177 -0.349253 96 250 196
-0.348983 -0.441294 -0.208248 96 250 196
-0.160766 -0.486519 -0.213823 96 250 196
0.226076 -0.325517 -0.34372 96 250 196
0.116081 -0.475683 -0.420518 96 250 196
-0.351319 -0.481564 -0.358277 96 250 196
0.0183399 -0.486348 0.327076 96 250 196
-0.348788 -0.48461 -0.381631 96 250 196
0.231747 -0.417325 0.100693 96 250 196
-0.0644274 -0.486851 0.262932 96 250 196
0.126743 -0.373716 -0.426489 96 250 196
-0.249305 -0.486434 0.0102252 96 250 196
0.0699893 -0.486836 0.232085 96 250 196
-0.358825 -0.348223 -0.279 96 250 196
0.232249 -0.40215 -0.0248006 96 250 196
-0.274214 -0.485404 -0.333989 96 250 196
-0.034024 -0.487044 0.174978 96 250 196
0.195245 -0.397458 -0.422703 96 250 196
-0.275209 -0.486291 0.207416 96 250 196
-0.35159 -0.450464 -0.303636 96 250 196
-0.309654 -0.485043 -0.385203 96 250 196
-0.198517 -0.48613 -0.314048 96 250 196
-0.27505 -0.485293 -0.360063 96 250 196
-0.354352 -0.395179 -0.399606 96 250 196
-0.0311256 -0.405623 -0.425744 96 250 196
0.022437 -0.486775 -0.188691 96 250 196
-0.331278 -0.485255 -0.301284 96 250 196
-0.359622 -0.34952 -0.331842 96 250 196
0.224586 -0.362992 -0.293161 96 250 196
0.0978879 -0.463929 -0.421582 96 250 196
-0.284217 -0.485893 -0.234906 96 250 196
0.00919711 -0.337132 -0.428626 96 250 196
-0.335403 -0.291206 -0.430493 96 250 196
-0.313704 -0.312661 -0.433072 96 250 196
-0.350935 -0.481237 -0.38436 96 250 196
-0.30262 -0.322182 -0.4329 96 250 196
0.113515 -0.486122 -0.417777 96 250 196
-0.371099 -0.48748 0.0644319 96 250 196
-0.338989 -0.21057 -0.422649 96 250 196
-0.343651 -0.310363 -0.430573 96 250 196
-0.0131714 -0.485886 -0.414816 96 250 196
0.0385912 -0.487092 0.132315 96 250 196
-0.278331 -0.485379 -0.335482 96 250 196
-0.0187205 -0.486851 0.264905 96 250 196
-0.246217 -0.473582 -0.427605 96 250 196
-0.0395128 -0.271542 -0.42955 96 250 196
-0.355894 -0.417198 -0.336436 96 250 196
0.184669 -0.486181 -0.406109 96 250 196
-0.341972 -0.414105 -0.435428 96 250 196
-0.338071 -0.261845 -0.427006 96 250 196
0.217888 -0.409516 -0.314573 96 250 196
-0.277565 -0.244932 -0.425703 96 250 196
-0.281999 -0.48547 -0.315853 96 250 196
-0.342304 -0.485161 -0.294608 96 250 196
-0.346061 -0.483835 -0.425411 96 250 196
0.144992 -0.486801 0.104096 96 250 196
-0.0116007 -0.446276 -0.425357 96 250 196
-0.0920155 -0.485711 -0.410675 96 250 196
-0.31707 -0.486097 0.216478 96 250 196
-0.34563 -0.363151 -0.0865637 96 250 196
-0.257807 -0.394291 -0.430846 96 250 196
-0.301306 -0.451838 -0.435272 96 250 196
-0.279483 -0.485252 -0.367209 96 250 196
0.185055 -0.486194 -0.390436 96 250 196
-0.343982 -0.459072 -0.433987 96 250 196
0.108634 -0.48615 -0.386221 96 250 196
-0.141512 -0.485575 -0.417347 96 250 196
-0.354942 -0.381953 -0.396203 96 250 196
0.210911 -0.407235 -0.39685 96 250 196
0.191224 -0.346812 -0.422201 96 250 196
0.201384 -0.486723 0.129166 96 250 196
-0.353405 -0.423209 -0.298848 96 250 196
-0.351734 -0.471981 -0.42887 96 250 196
-0.304089 -0.362312 -0.434615 96 250 196
-0.321739 -0.484986 -0.377992 96 250 196
0.153521 -0.486723 0.196519 96 250 196
0.122916 -0.486444 0.285948 96 250 196
-0.299986 -0.485741 -0.24844 96 250 196
0.234394 -0.378742 0.090496 96 250 196
-0.130193 -0.486874 0.188052 96 250 196
-0.144088 -0.486849 0.0525919 96 250 196
0.232227 -0.38411 -0.131518 96 250 196
0.177885 -0.386669 -0.423885 96 250 196
-0.352049 -0.377985 -0.233684 96 250 196
0.152925 -0.486169 -0.356463 96 250 196
0.233378 -0.409172 0.0806562 96 250 196
-0.356092 -0.360016 -0.389356 96 250 196
-0.359119 -0.35824 -0.316398 96 250 196
-0.346895 -0.361984 -0.110628 96 250 196
0.0986882 -0.304397 -0.428624 96 250 196
0.234747 -0.327941 -0.0976441 96 250 196
-0.225335 -0.485239 -0.425759 96 250 196
-0.332005 -0.478433 -0.433597 96 250 196
-0.356192 -0.283611 -0.38628 96 250 196
0.219377 -0.374532 -0.342514 96 250 196
-0.340918 -0.47197 -0.433867 96 250 196
-0.242663 -0.414545 -0.429796 96 250 196
0.131979 -0.449596 -0.42386 96 250 196
-0.262784 -0.48591 -0.272288 96 250 196
-0.182876 -0.486122 -0.326405 96 250 196
0.11951 -0.486839 0.176076 96 250 196
-0.222823 -0.486552 0.00539887 96 250 196
-0.320478 -0.485414 0.2119 96 250 196
-0.264666 -0.485056 -0.427199 96 250 196
-0.0820711 -0.364811 -0.427846 96 250 196
-0.344277 -0.244619 -0.424827 96 250 196
0.155937 -0.473395 -0.421903 96 250 196
-0.305892 -0.48706 0.221356 96 250 196
-0.351691 -0.364508 -0.2131 96 250 196
-0.350319 -0.368752 -0.428483 96 250 196
0.193378 -0.330633 -0.422179 96 250 196
-0.339733 -0.458729 -0.100435 96 250 196
0.20378 -0.486555 0.228423 96 250 196
-0.209762 -0.26751 -0.422777 96 250 196
-0.346712 -0.420866 -0.433821 96 250 196
0.192011 -0.486211 -0.334047 96 250 196
-0.260896 -0.463908 -0.429751 96 250 196
-0.183152 -0.486745 0.266275 96 250 196
-0.0610297 -0.402903 -0.425846 96 250 196
-0.24271 -0.486463 0.248126 96 250 196
-0.331341 -0.308221 -0.432906 96 250 196
-0.212058 -0.381903 -0.42726 96 250 196
-0.35332 -0.457615 -0.414109 96 250 196
0.0606708 -0.486993 0.164077 96 250 196
-0.288839 -0.461728 -0.433259 96 250 196
-0.353576 -0.440047 -0.355795 96 250 196
-0.270834 -0.417718 -0.432877 96 250 196
-0.0513196 -0.487016 0.170121 96 250 196
0.135883 -0.486178 -0.31333 96 250 196
-0.15654 -0.48611 -0.340742 96 250 196
0.0951973 -0.486218 -0.334383 96 250 196
0.221557 -0.478882 0.148764 96 250 196
-0.350525 -0.47887 -0.430282 96 250 196
0.0891229 -0.486219 -0.332234 96 250 196
0.225888 -0.425878 0.245553 96 250 196
-0.173476 -0.228575 -0.423152 96 250 196
-0.207537 -0.48657 -0.0433106 96 250 196
-0.202633 -0.410025 -0.42859 96 250 196
-0.326241 -0.3414 -0.435141 96 250 196
0.0604155 -0.486334 -0.329555 96 250 196
0.0810308 -0.486109 -0.399941 96 250 196
-0.351703 -0.482657 -0.327409 96 250 196
-0.278818 -0.486263 0.160706 96 250 196
-0.0143899 -0.486311 -0.344889 96 250 196
-0.292115 -0.278587 -0.429112 96 250 196
-0.201314 -0.485343 -0.424266 96 250 196
0.0202233 -0.487126 0.0927655 96 250 196
-0.265685 -0.485045 -0.427768 96 250 196
-0.0717624 -0.485838 -0.382451 96 250 196
-0.0581115 -0.487019 0.0603011 96 250 196
-0.335869 -0.412201 0.0263084 96 250 196
0.216379 -0.412472 -0.326638 96 250 196
0.22307 -0.346053 -0.340588 96 250 196
-0.353796 -0.438473 -0.352048 96 250 196
0.234145 -0.367757 0.101869 96 250 196
-0.230405 -0.486551 0.0374562 96 250 196
-0.351082 -0.367766 -0.20329 96 250 196
-0.127405 -0.485685 -0.394133 96 250 196
-0.095472 -0.486935 0.178829 96 250 196
0.212025 -0.486462 0.242265 96 250 196
-0.219979 -0.485289 -0.422987 96 250 196
-0.329448 -0.485568 -0.163471 96 250 196
-0.35877 -0.351769 -0.28279 96 250 196
0.212111 -0.450734 -0.294152 96 250 196
-0.337009 -0.465857 -0.0716408 96 250 196
-0.354353 -0.43086 -0.359346 96 250 196
0.0137124 -0.486829 -0.160327 96 250 196
0.165868 -0.486153 -0.418088 96 250 196
0.216614 -0.479395 -0.150587 96 250 196
0.16547 -0.486743 0.0420906 96 250 196
-0.343773 -0.390368 -0.0856463 96 250 196
-0.180196 -0.4863 -0.279435 96 250 196
0.0228754 -0.478579 -0.423447 96 250 196
-0.350449 -0.402101 -0.4316 96 250 196
-0.353372 -0.44969 -0.402342 96 250 196
-0.359886 -0.327144 -0.337994 96 250 196
-0.35018 -0.3952 -0.431526 96 250 196
0.171318 -0.486587 0.246448 96 250 196
-0.359872 -0.292246 -0.345603 96 250 196
0.057935 -0.486104 -0.369 96 250 196
-0.34859 -0.437256 -0.200053 96 250 196
-0.294138 -0.485816 -0.237943 96 250 196
-0.284855 -0.459229 -0.433157 96 250 196
-0.335971 -0.257999 -0.426941 96 250 196
-0.013939 -0.486096 -0.358292 96 250 196
-0.0595548 -0.485795 -0.408636 96 250 196
0.138743 -0.482369 -0.420107 96 250 196
0.226494 -0.341963 -0.30676 96 250 196
-0.277661 -0.485194 -0.39149 96 250 196
0.1635 -0.486427 0.276861 96 250 196
0.11324 -0.241702 -0.428868 96 250 196
0.0173583 -0.486026 -0.377615 96 250 196
-0.190618 -0.485593 -0.384605 96 250 196
-0.102268 -0.300316 -0.427164 96 250 196
-0.354244 -0.372427 -0.246013 96 250 196
0.0906084 -0.445963 -0.423205 96 250 196
-0.347595 -0.38559 -0.14864 96 250 196
-0.280399 -0.362028 -0.432231 96 250 196
-0.272811 -0.484325 0.283123 96 250 196
-0.349308 -0.452421 -0.218538 96 250 196
-0.238663 -0.482314 0.32453 96 250 196
-0.357242 -0.379058 -0.29912 96 250 196
-0.254453 -0.436685 -0.431668 96 250 196
-0.163111 -0.436078 -0.42897 96 250 196
-0.357207 -0.36972 -0.286126 96 250 196
0.0455834 -0.486831 -0.155229 96 250 196
-0.377837 -0.479444 0.038352 96 250 196
0.167034 -0.294556 -0.426294 96 250 196
-0.127271 -0.48646 -0.265673 96 250 196
-0.351718 -0.480928 -0.399388 96 250 196
0.17013 -0.486723 0.168334 96 250 196
0.106189 -0.264903 -0.429148 96 250 196
-0.279827 -0.486254 0.160291 96 250 196
-0.352043 -0.322556 -0.419565 96 250 196
0.0270177 -0.486988 0.220292 96 250 196
-0.320402 -0.486256 0.224474 96 250 196
-0.263076 -0.485231 -0.397918 96 250 196
0.196257 -0.486676 0.0421133 96 250 196
0.221103 -0.383958 -0.307688 96 250 196
-0.236464 -0.4853 -0.410647 96 250 196
-0.258133 -0.485485 -0.337226 96 250 196
-0.351109 -0.476418 -0.297819 96 250 196
0.0551751 -0.486566 -0.28845 96 250 196
0.135503 -0.486155 -0.383564 96 250 196
-0.0869411 -0.485796 -0.385097 96 250 196
0.232406 -0.381407 -0.136227 96 250 196
-0.140659 -0.486704 -0.145722 96 250 196
0.00385082 -0.485968 -0.40286 96 250 196
-0.0280522 -0.486562 -0.297669 96 250 196
-0.327733 -0.458092 -0.435345 96 250 196
-0.175664 -0.48562 -0.386599 96 250 196
0.111311 -0.486392 -0.306373 96 250 196
-0.21954 -0.486476 0.303063 96 250 196
-0.350698 -0.487565 0.0961082 96 250 196
-0.322996 -0.206481 -0.422431 96 250 196
-0.353037 -0.204328 -0.384867 96 250 196
0.133477 -0.47392 -0.421283 96 250 196
-0.341096 -0.483637 -0.201608 96 250 196
-0.307492 -0.485094 -0.372994 96 250 196
0.128499 -0.26062 -0.428312 96 250 196
-0.152335 -0.468163 -0.426388 96 250 196
-0.317572 -0.484933 -0.400778 96 250 196
0.111925 -0.486229 0.315052 96 250 196
-0.348133 -0.351663 -0.0995847 96 250 196
0.150185 -0.486182 -0.373006 96 250 196
-0.351317 -0.466781 -0.303869 96 250 196
-0.18979 -0.486645 -0.0502316 96 250 196
-0.353232 -0.45312 -0.419468 96 250 196
-0.326973 -0.330785 -0.434618 96 250 196
0.158955 -0.486148 -0.413774 96 250 196
-0.0907863 -0.486734 0.28881 96 250 196
-0.051101 -0.485763 -0.422979 96 250 196
-0.352493 -0.405859 -0.269853 96 250 196
-0.355172 -0.366131 -0.249702 96 250 196
0.234783 -0.387291 0.0129111 96 250 196
-0.340033 -0.472934 0.189587 96 250 196
-0.106319 -0.486927 0.116661 96 250 196
0.165789 -0.287447 -0.426327 96 250 196
-0.355116 -0.354342 -0.398217 96 250 196
-0.350258 -0.482442 -0.375403 96 250 196
0.226461 -0.326226 -0.336646 96 250 196
0.0361642 -0.486373 0.319546 96 250 196
0.0822658 -0.486115 -0.395971 96 250 196
0.0285096 -0.486864 0.241618 96 250 196
-0.22765 -0.460661 -0.428025 96 250 196
0.19657 -0.452322 -0.413054 96 250 196
0.231896 -0.409707 0.1253 96 250 196
0.149519 -0.486281 -0.292313 96 250 196
0.234294 -0.36595 -0.0292818 96 250 196
-0.304879 -0.484938 -0.418293 96 250 196
-0.344947 -0.210023 -0.420858 96 250 196
-0.35291 -0.245711 -0.395263 96 250 196
-0.354436 -0.253024 -0.388223 96 250 196
0.205525 -0.375911 -0.41632 96 250 196
-0.333221 -0.233149 -0.424549 96 250 196
-0.31301 -0.483633 -0.432351 96 250 196
0.0037025 -0.487103 0.102927 96 250 196
-0.352591 -0.422921 -0.427216 96 250 196
