ply
format ascii 1.0
comment Created by Open3D
element vertex 1178
property double x
property double y
property double z
property uchar red
property uchar green
property uchar blue
end_header
-0.084796 -0.481942 -0.00324665 63 97 250
-0.0877555 -0.424438 -0.00927206 63 97 250
-0.0798011 -0.481599 0.0890547 63 97 250
0.0721682 -0.329382 0.0138167 63 97 250
-0.0359397 -0.39449 -0.00829763 63 97 250
0.0997207 -0.399707 0.123229 63 97 250
0.273108 -0.34772 -0.0177378 63 97 250
0.259068 -0.326068 -0.0158318 63 97 250
-0.0824796 -0.422455 0.0874824 63 97 250
0.231055 -0.38582 -0.0168344 63 97 250
-0.00206328 -0.275615 0.0169616 63 97 250
0.148795 -0.267858 -0.00322469 63 97 250
0.10239 -0.474869 -0.0149961 63 97 250
-0.0644566 -0.422288 0.248459 63 97 250
-0.0863418 -0.431062 0.0139469 63 97 250
-0.0847432 -0.481611 -0.00240806 63 97 250
-0.0909769 -0.359214 0.00148157 63 97 250
-0.0838098 -0.493326 -0.0166914 63 97 250
-0.0422408 -0.383482 0.283734 63 97 250
0.161474 -0.34615 -0.0115779 63 97 250
-0.0368902 -0.237574 0.0203718 63 97 250
0.0382831 -0.403873 0.196263 63 97 250
0.275201 -0.334791 -0.0175276 63 97 250
-0.0729448 -0.404477 0.2599 63 97 250
-0.0783183 -0.348063 0.258164 63 97 250
-0.0696799 -0.275765 0.123179 63 97 250
-0.0807538 -0.357697 0.279347 63 97 250
0.0480816 -0.390107 0.0957879 63 97 250
-0.061748 -0.465516 0.17781 63 97 250
0.141879 -0.44912 -0.0117789 63 97 250
-0.0738849 -0.359057 0.108442 63 97 250
-0.0664716 -0.306758 -0.000563111 63 97 250
-0.087499 -0.414779 -0.00889056 63 97 250
-0.0762171 -0.349 0.243187 63 97 250
-0.069108 -0.41603 0.261198 63 97 250
-0.0893946 -0.374573 0.0214548 63 97 250
0.0594035 -0.312607 0.00576765 63 97 250
0.0032667 -0.372009 -0.0084539 63 97 250
-0.0266705 -0.380294 0.16142 63 97 250
0.111114 -0.373137 0.0356688 63 97 250
-0.06107 -0.447666 0.266425 63 97 250
-0.013504 -0.486559 -0.017808 63 97 250
0.167167 -0.465971 -0.013352 63 97 250
-0.0910907 -0.320877 0.000175949 63 97 250
0.0716526 -0.401234 0.165034 63 97 250
-0.0654286 -0.321117 0.156435 63 97 250
-0.0874008 -0.447292 -0.0123515 63 97 250
0.127596 -0.39498 0.074981 63 97 250
0.00392111 -0.402006 -0.0115372 63 97 250
0.028132 -0.434178 -0.0133659 63 97 250
0.18077 -0.331494 -0.0113736 63 97 250
0.109786 -0.285379 -0.00465171 63 97 250
0.0601691 -0.39267 -0.0137803 63 97 250
-0.0675106 -0.285735 0.144777 63 97 250
0.0484963 -0.46284 -0.0126194 63 97 250
0.270478 -0.403973 -0.0140817 63 97 250
-0.0771617 -0.363237 0.0980706 63 97 250
0.229692 -0.395701 -0.015375 63 97 250
-0.0343328 -0.264271 0.00598203 63 97 250
-0.0731837 -0.314167 0.221845 63 97 250
-0.0897115 -0.353921 0.0219462 63 97 250
-0.0667275 -0.325797 0.127124 63 97 250
0.0526191 -0.229411 0.00351317 63 97 250
0.255153 -0.22911 -0.00241699 63 97 250
-0.0589651 -0.316873 0.137868 63 97 250
-0.0220823 -0.341879 -0.0056412 63 97 250
0.0137049 -0.284515 0.0135583 63 97 250
0.227982 -0.220962 -0.001857 63 97 250
-0.0821201 -0.279417 0.0731414 63 97 250
0.220667 -0.299336 -0.0105149 63 97 250
-0.00649486 -0.407555 0.254574 63 97 250
-0.0891318 -0.41169 -0.00722681 63 97 250
0.202916 -0.399793 -0.0148759 63 97 250
-0.0868336 -0.420904 0.0144979 63 97 250
0.0657098 -0.385962 0.069655 63 97 250
0.214178 -0.330886 -0.0143232 63 97 250
0.140206 -0.223838 0.00231828 63 97 250
-0.0717715 -0.419185 0.274418 63 97 250
0.0152573 -0.421594 0.289232 63 97 250
0.204321 -0.364038 -0.0156689 63 97 250
0.120035 -0.338367 -0.00910687 63 97 250
-0.069953 -0.292084 0.108974 63 97 250
0.276013 -0.236646 -0.00502931 63 97 250
0.288445 -0.346792 -0.017917 63 97 250
-0.0826587 -0.398247 0.0807981 63 97 250
-0.000805203 -0.448745 -0.0137644 63 97 250
0.0142225 -0.411645 -0.0125146 63 97 250
0.215522 -0.391768 -0.0160505 63 97 250
0.234273 -0.344316 -0.017055 63 97 250
0.248751 -0.420336 -0.0134344 63 97 250
-0.0633212 -0.330572 0.201384 63 97 250
0.0016758 -0.415027 0.277403 63 97 250
-0.0614732 -0.393021 0.165162 63 97 250
-0.0718226 -0.413244 0.267092 63 97 250
0.196251 -0.329841 -0.0126399 63 97 250
-0.0733517 -0.400498 0.256945 63 97 250
-0.0629015 -0.288186 0.123536 63 97 250
-0.0419905 -0.400736 -0.00862306 63 97 250
-0.0834648 -0.340957 0.0671687 63 97 250
-0.0801533 -0.32727 0.0843143 63 97 250
-0.0892222 -0.373904 -0.00647046 63 97 250
-0.0890879 -0.437051 -0.0086656 63 97 250
-0.0112805 -0.351073 -0.00668996 63 97 250
-0.0546935 -0.342725 0.194434 63 97 250
-0.0108414 -0.481973 -0.0169877 63 97 250
-0.082396 -0.407299 0.0891051 63 97 250
-0.00897928 -0.408309 -0.0112832 63 97 250
0.0431321 -0.30125 0.00714399 63 97 250
-0.0612937 -0.445269 0.181532 63 97 250
-0.089632 -0.429298 -0.00756004 63 97 250
-0.0893025 -0.433059 -0.0059871 63 97 250
0.225146 -0.388835 -0.0165343 63 97 250
0.138866 -0.350476 -0.0111854 63 97 250
-0.0641367 -0.355381 0.153361 63 97 250
-0.0659861 -0.299647 0.140335 63 97 250
-0.0880434 -0.435701 -0.0102676 63 97 250
-0.0719303 -0.311289 0.21447 63 97 250
-0.0497163 -0.343321 -0.004033 63 97 250
0.202065 -0.388827 -0.0165717 63 97 250
0.0387363 -0.438389 0.310705 63 97 250
-0.0569642 -0.45352 0.199594 63 97 250
-0.0500681 -0.34778 -0.00420178 63 97 250
-0.0907456 -0.302861 0.00815566 63 97 250
-0.0289722 -0.448827 -0.0137418 63 97 250
0.0711746 -0.417383 0.232052 63 97 250
-0.0890365 -0.392869 0.011927 63 97 250
-0.0948476 -0.349825 0.304486 63 97 250
-0.0748215 -0.443866 0.13951 63 97 250
-0.0261093 -0.39407 0.234874 63 97 250
0.185236 -0.214298 -0.00203923 63 97 250
-0.0773408 -0.380113 0.10006 63 97 250
0.0499233 -0.376941 0.0533279 63 97 250
-0.0786175 -0.251922 0.0127766 63 97 250
-0.0886562 -0.451342 -0.0091897 63 97 250
0.170193 -0.468393 -0.0142256 63 97 250
-0.0728075 -0.446852 -0.0132768 63 97 250
0.269009 -0.369244 -0.0187788 63 97 250
-0.0816796 -0.467084 0.0534651 63 97 250
-0.0654099 -0.449266 0.168983 63 97 250
0.0576933 -0.434683 -0.0134021 63 97 250
-0.0382423 -0.386691 0.269934 63 97 250
-0.0820104 -0.432935 0.0699131 63 97 250
0.134175 -0.455281 -0.0117323 63 97 250
0.092754 -0.358799 -0.0104974 63 97 250
0.297719 -0.28986 -0.0151991 63 97 250
-0.0540337 -0.345462 0.199092 63 97 250
0.220645 -0.442868 -0.0120007 63 97 250
0.0380087 -0.300771 -0.00193622 63 97 250
0.11217 -0.4725 -0.0144127 63 97 250
0.0467016 -0.456079 -0.0124842 63 97 250
0.127617 -0.421842 -0.0130689 63 97 250
-0.0823779 -0.486792 0.0120405 63 97 250
-0.0593958 -0.466708 0.277518 63 97 250
-0.0455042 -0.352769 0.135716 63 97 250
-0.0836805 -0.431298 0.0432984 63 97 250
-0.00450968 -0.438829 -0.0132717 63 97 250
0.136218 -0.424448 -0.0126587 63 97 250
-0.017792 -0.482107 -0.017037 63 97 250
-0.0665788 -0.251153 0.0716246 63 97 250
0.00270583 -0.386684 0.145479 63 97 250
-0.0822909 -0.440706 0.0595497 63 97 250
-0.0710453 -0.329998 0.220029 63 97 250
-0.0712692 -0.250696 0.0993233 63 97 250
-0.0663546 -0.316345 0.171641 63 97 250
-0.0453311 -0.425511 -0.0112343 63 97 250
-0.0842659 -0.415096 0.040438 63 97 250
0.268299 -0.362483 -0.0184339 63 97 250
-0.0390641 -0.230473 0.014275 63 97 250
0.00987131 -0.366928 -0.00841769 63 97 250
0.0672237 -0.225192 0.00307508 63 97 250
-0.0510117 -0.321982 -0.00221234 63 97 250
-0.00315693 -0.392669 0.180112 63 97 250
-0.0616266 -0.423251 0.226169 63 97 250
-0.0904015 -0.380795 0.00135093 63 97 250
-0.0753348 -0.318164 0.101704 63 97 250
0.293034 -0.301312 -0.0161489 63 97 250
0.24715 -0.328034 -0.0156105 63 97 250
0.0616968 -0.264352 0.0014204 63 97 250
-0.0840841 -0.361365 0.311891 63 97 250
0.125708 -0.359178 0.0255566 63 97 250
-0.0219296 -0.417463 -0.0113912 63 97 250
0.103945 -0.401779 -0.0151177 63 97 250
-0.0842318 -0.482392 -0.0165613 63 97 250
-0.0229998 -0.431465 -0.0124976 63 97 250
-0.0755774 -0.458837 0.129081 63 97 250
-0.0841679 -0.399573 0.0590901 63 97 250
-0.0218917 -0.380952 0.15127 63 97 250
-0.086299 -0.436478 -0.0116949 63 97 250
0.0207586 -0.451803 -0.0135523 63 97 250
-0.0803718 -0.337647 0.0840973 63 97 250
-0.0802189 -0.250581 0.0653586 63 97 250
-0.0350201 -0.333802 0.0662851 63 97 250
-0.0900578 -0.358341 0.0157828 63 97 250
-0.0462558 -0.261125 0.0464303 63 97 250
0.322219 -0.250434 -0.0116748 63 97 250
-0.0887897 -0.428127 -0.00853618 63 97 250
-0.0695477 -0.316056 0.11248 63 97 250
-0.0858463 -0.434123 -0.011394 63 97 250
0.101727 -0.452091 -0.0117868 63 97 250
-0.0789958 -0.418516 0.111158 63 97 250
-0.0659519 -0.334182 -0.00246088 63 97 250
-0.00703429 -0.412618 0.27709 63 97 250
0.202763 -0.235533 -0.000504997 63 97 250
0.204631 -0.440809 -0.0119812 63 97 250
-0.08395 -0.470108 -0.0159197 63 97 250
-0.0822499 -0.440941 0.0600366 63 97 250
0.272426 -0.288553 -0.0125351 63 97 250
0.00740307 -0.243958 0.00818332 63 97 250
0.0281423 -0.448727 -0.0133503 63 97 250
-0.0856322 -0.446988 -0.0132675 63 97 250
0.263771 -0.39228 -0.0162937 63 97 250
-0.0326403 -0.367586 0.117151 63 97 250
-0.0341143 -0.374758 0.159645 63 97 250
-0.0135957 -0.402064 0.233569 63 97 250
-0.0856753 -0.448996 0.00909803 63 97 250
0.0626025 -0.372072 0.0436646 63 97 250
0.211168 -0.407305 -0.0139571 63 97 250
0.172681 -0.400983 -0.0150364 63 97 250
-0.0862199 -0.466705 -0.0136553 63 97 250
-0.074468 -0.256296 0.087291 63 97 250
-0.075556 -0.347945 0.238601 63 97 250
0.281114 -0.384935 -0.0183813 63 97 250
-0.0661947 -0.290599 0.1442 63 97 250
-0.0493719 -0.286283 0.0674887 63 97 250
0.165703 -0.349483 -0.0121966 63 97 250
0.0558303 -0.282735 -0.000186898 63 97 250
-0.0645879 -0.422492 0.1662 63 97 250
-0.00952515 -0.311736 -0.00278401 63 97 250
0.00968859 -0.3999 0.200269 63 97 250
0.00466715 -0.387739 0.14664 63 97 250
-0.0115375 -0.463292 -0.0143087 63 97 250
-0.0797022 -0.33827 0.0872464 63 97 250
0.0267186 -0.386512 0.0941061 63 97 250
-0.0137226 -0.454297 -0.0140043 63 97 250
0.0906838 -0.419303 -0.0137788 63 97 250
0.03134 -0.222741 0.00609293 63 97 250
0.196342 -0.381226 -0.0161928 63 97 250
0.175082 -0.470762 -0.0148637 63 97 250
-0.0656275 -0.404075 0.150845 63 97 250
-0.0618567 -0.38944 0.162462 63 97 250
-0.0711686 -0.255428 0.105665 63 97 250
0.098495 -0.426555 0.232968 63 97 250
-0.0806978 -0.404872 0.0987458 63 97 250
-0.0589089 -0.249881 0.0102736 63 97 250
0.252211 -0.357831 -0.0182936 63 97 250
-0.0487087 -0.375673 0.271374 63 97 250
0.0590833 -0.411513 0.224716 63 97 250
0.247355 -0.330346 -0.0158929 63 97 250
-0.0611488 -0.469363 -0.0159559 63 97 250
-0.0195634 -0.411511 0.284844 63 97 250
-0.0574795 -0.429344 -0.0111382 63 97 250
-0.0663494 -0.433539 0.272784 63 97 250
0.0994433 -0.393018 0.0793404 63 97 250
-0.0652177 -0.370608 -0.00462537 63 97 250
-0.0672585 -0.415019 0.153001 63 97 250
0.0146254 -0.394455 0.172207 63 97 250
-0.0756061 -0.380586 0.250439 63 97 250
0.241323 -0.394461 -0.015583 63 97 250
-0.0473358 -0.317072 0.0704821 63 97 250
0.00944489 -0.386915 0.12886 63 97 250
-0.0227336 -0.457192 -0.0141473 63 97 250
0.0954482 -0.408148 -0.0147741 63 97 250
-0.0815729 -0.49193 0.0248401 63 97 250
0.0281691 -0.429824 0.300603 63 97 250
-0.0307033 -0.403838 0.288203 63 97 250
0.237817 -0.452978 -0.0122548 63 97 250
0.00878758 -0.462378 -0.0140416 63 97 250
0.0951812 -0.315698 0.0047089 63 97 250
-0.08328 -0.492609 -0.000512075 63 97 250
-0.0829519 -0.338417 0.0699085 63 97 250
-0.0911635 -0.309016 0.014637 63 97 250
-0.0869064 -0.320669 0.0485216 63 97 250
-0.0616595 -0.417371 0.171169 63 97 250
0.24847 -0.230046 -0.00197395 63 97 250
0.201665 -0.290911 -0.00795417 63 97 250
-0.0817915 -0.407715 0.0941107 63 97 250
-0.0837604 -0.490978 -0.00409862 63 97 250
0.0246594 -0.381864 0.072573 63 97 250
-0.0344229 -0.482702 -0.0172213 63 97 250
-0.0694259 -0.397541 0.242079 63 97 250
-0.0763534 -0.440402 0.133035 63 97 250
-0.0642987 -0.225379 0.0371598 63 97 250
0.186307 -0.468049 -0.0144102 63 97 250
0.297775 -0.403976 -0.0146117 63 97 250
0.216399 -0.455417 -0.0119651 63 97 250
-0.0571619 -0.459999 0.193948 63 97 250
-0.0893345 -0.400749 -0.00627964 63 97 250
-0.0451519 -0.428953 -0.0114883 63 97 250
-0.0228108 -0.374858 0.119722 63 97 250
0.0929803 -0.386528 -0.0147406 63 97 250
0.0984783 -0.400316 -0.0149961 63 97 250
-0.0668722 -0.328835 0.124356 63 97 250
-0.0833175 -0.412222 0.0613892 63 97 250
-0.0219105 -0.27941 0.0329547 63 97 250
-0.0650126 -0.402801 0.222912 63 97 250
-0.0707282 -0.365137 0.21526 63 97 250
-0.0857435 -0.386447 0.0499071 63 97 250
-0.0807424 -0.464504 -0.0157814 63 97 250
0.00933068 -0.420931 -0.0128222 63 97 250
0.0791932 -0.411809 0.212086 63 97 250
-0.0728865 -0.454236 0.14573 63 97 250
-0.0257114 -0.34748 0.0675666 63 97 250
0.261555 -0.434895 -0.0124347 63 97 250
-0.0795043 -0.445908 0.105326 63 97 250
0.207548 -0.308133 -0.0116949 63 97 250
0.0926226 -0.249315 -0.00244461 63 97 250
0.128134 -0.465767 -0.0124118 63 97 250
-0.0712865 -0.388929 0.126568 63 97 250
-0.057795 -0.446689 0.230779 63 97 250
-0.0874713 -0.400196 0.0207458 63 97 250
0.216328 -0.372943 -0.0161575 63 97 250
0.292516 -0.394165 -0.0165375 63 97 250
-0.0832292 -0.359215 0.0693999 63 97 250
-0.0832073 -0.33048 0.282293 63 97 250
-0.0771066 -0.452233 0.123046 63 97 250
-0.0848308 -0.441568 0.0216169 63 97 250
-0.0830603 -0.419756 0.0556985 63 97 250
-0.0905599 -0.293814 0.0190127 63 97 250
0.0776436 -0.351952 -0.00891879 63 97 250
-0.0656275 -0.350189 0.13713 63 97 250
-0.0884129 -0.449937 -0.00596945 63 97 250
-0.0851931 -0.320197 0.0588526 63 97 250
-0.0909195 -0.362715 0.00621273 63 97 250
-0.0227399 -0.337688 0.0590676 63 97 250
-0.0758387 -0.41499 0.121117 63 97 250
-0.0684213 -0.416941 0.259516 63 97 250
-0.0631547 -0.367929 -0.00440867 63 97 250
-0.0911682 -0.353464 -0.00294722 63 97 250
0.0639481 -0.423262 0.25067 63 97 250
-0.0603931 -0.434788 0.241288 63 97 250
0.155619 -0.388962 -0.0160038 63 97 250
0.145186 -0.46506 -0.0125515 63 97 250
0.0562801 -0.46043 -0.0122377 63 97 250
-0.0047432 -0.446561 -0.0136895 63 97 250
0.0146418 -0.284591 0.000262402 63 97 250
0.237693 -0.436185 -0.0123692 63 97 250
-0.0599386 -0.43276 0.229655 63 97 250
-0.00709286 -0.438022 -0.0132417 63 97 250
-0.0716211 -0.384119 0.234797 63 97 250
0.0114906 -0.425694 0.304717 63 97 250
-0.00729188 -0.25118 0.00726879 63 97 250
0.200656 -0.353479 -0.0146679 63 97 250
-0.0599508 -0.416739 -0.00901779 63 97 250
0.30267 -0.341609 -0.0181049 63 97 250
0.173394 -0.286353 -0.0062449 63 97 250
-0.0531637 -0.315936 0.0770458 63 97 250
-0.0407562 -0.365008 0.170663 63 97 250
-0.085858 -0.42847 0.0209365 63 97 250
0.230493 -0.264976 -0.00482605 63 97 250
-0.0803813 -0.457981 0.0788759 63 97 250
-0.0277796 -0.392424 0.235821 63 97 250
-0.0357951 -0.404751 0.31078 63 97 250
-0.0274606 -0.370917 -0.00668218 63 97 250
-0.090152 -0.356058 -0.00523141 63 97 250
-0.0812733 -0.420246 0.100998 63 97 250
-0.0349335 -0.23222 0.0138291 63 97 250
0.132044 -0.398422 0.0875624 63 97 250
0.216935 -0.300789 -0.010645 63 97 250
0.0135521 -0.407725 -0.0121911 63 97 250
-0.0804078 -0.479315 0.0743835 63 97 250
0.0739134 -0.413484 0.220521 63 97 250
-0.0597316 -0.454014 0.18552 63 97 250
-0.0339738 -0.378105 0.172353 63 97 250
-0.0508352 -0.369729 0.253947 63 97 250
-0.0335573 -0.372391 0.140223 63 97 250
-0.0659852 -0.416032 -0.00852577 63 97 250
-0.0822853 -0.475503 -0.0171623 63 97 250
0.282745 -0.347461 -0.0178461 63 97 250
-0.071727 -0.412732 0.266079 63 97 250
0.026923 -0.450214 -0.0133745 63 97 250
0.0325728 -0.393994 0.154802 63 97 250
-0.0707826 -0.371544 0.122832 63 97 250
-0.079861 -0.234101 0.0542166 63 97 250
-0.0894447 -0.437702 -0.00739298 63 97 250
0.0981963 -0.381062 0.0483208 63 97 250
-0.0649664 -0.360846 0.143352 63 97 250
-0.0221031 -0.253283 0.0182434 63 97 250
-0.0472227 -0.389389 -0.00687036 63 97 250
-0.0910287 -0.316335 0.00175823 63 97 250
-0.0820567 -0.446939 0.058193 63 97 250
-0.0591777 -0.436617 0.217724 63 97 250
0.286699 -0.335108 -0.0176736 63 97 250
-0.0475018 -0.321372 0.0734098 63 97 250
0.0514634 -0.456744 -0.0123801 63 97 250
0.021214 -0.453624 -0.013536 63 97 250
-0.0791057 -0.39707 0.100672 63 97 250
0.100248 -0.432393 -0.0130197 63 97 250
-0.00747894 -0.404285 0.238422 63 97 250
0.160276 -0.218423 -0.000403311 63 97 250
0.0107835 -0.351609 0.0475653 63 97 250
0.0820575 -0.392629 0.0878992 63 97 250
0.145772 -0.39844 -0.0157854 63 97 250
0.221434 -0.431484 -0.0126411 63 97 250
0.204941 -0.324957 -0.0131442 63 97 250
-0.0827557 -0.45965 0.0361367 63 97 250
0.0560212 -0.387407 0.0762365 63 97 250
0.154454 -0.32548 -0.00956824 63 97 250
-0.0400922 -0.406524 -0.0094057 63 97 250
-0.0886055 -0.367031 0.0325336 63 97 250
0.0835474 -0.389985 -0.0144976 63 97 250
-0.0871683 -0.467888 -0.0113456 63 97 250
-0.0516224 -0.355994 -0.00438191 63 97 250
-0.0848983 -0.4018 0.043502 63 97 250
0.0570913 -0.467636 -0.0127434 63 97 250
-0.0888722 -0.256602 0.0302421 63 97 250
0.175119 -0.471394 -0.0150195 63 97 250
0.0527397 -0.42719 -0.0135684 63 97 250
-0.0814656 -0.472736 0.0506002 63 97 250
0.00538439 -0.406168 0.235797 63 97 250
0.15712 -0.458132 0.230928 31 142 243
0.0746972 -0.28276 0.00656021 31 142 243
-0.106674 -0.316712 0.124329 31 142 243
-0.103744 -0.190882 0.105923 31 142 243
0.195301 -0.440747 0.0745339 31 142 243
-0.015474 -0.437077 0.265711 31 142 243
0.156217 -0.322153 0.0104167 31 142 243
-0.102205 -0.257444 0.138343 31 142 243
-0.0793054 -0.431308 0.222262 31 142 243
0.0725809 -0.452812 0.0735048 31 142 243
0.087394 -0.423504 0.313407 31 142 243
-0.0776835 -0.256423 0.0221368 31 142 243
-0.0962599 -0.249885 0.238113 31 142 243
-0.0858345 -0.356348 0.331907 31 142 243
-0.0951816 -0.397458 0.205198 31 142 243
0.16782 -0.429202 0.211517 31 142 243
0.0204365 -0.451444 0.272477 31 142 243
0.110625 -0.421668 0.217932 31 142 243
-0.108237 -0.334739 0.105405 31 142 243
-0.108476 -0.350917 0.0917959 31 142 243
-0.0152457 -0.207794 0.001484 31 142 243
-0.103407 -0.338495 0.17775 31 142 243
-0.103526 -0.189642 0.10884 31 142 243
-0.102569 -0.19415 0.127896 31 142 243
-0.0976188 -0.383583 0.222003 31 142 243
0.208254 -0.33993 0.00516526 31 142 243
-0.101066 -0.21317 0.17091 31 142 243
0.121936 -0.424951 0.227024 31 142 243
-0.103605 -0.353257 0.163208 31 142 243
0.0057815 -0.406895 0.245761 31 142 243
0.0618629 -0.43438 0.147073 31 142 243
0.302047 -0.45169 0.180715 31 142 243
-0.103805 -0.26284 0.124625 31 142 243
0.0748802 -0.419889 0.327007 31 142 243
0.0781215 -0.417964 0.226483 31 142 243
0.119781 -0.222812 -0.00226808 31 142 243
0.00575496 -0.406727 0.226162 31 142 243
-0.0650312 -0.451262 0.15928 31 142 243
0.154001 -0.443745 0.290661 31 142 243
0.321143 -0.451829 0.157413 31 142 243
0.268446 -0.331782 -0.00209798 31 142 243
-0.102116 -0.197135 0.168089 31 142 243
-0.0573701 -0.436735 0.262046 31 142 243
-0.106408 -0.264266 0.0665234 31 142 243
-0.101344 -0.199724 0.204246 31 142 243
0.242994 -0.451403 0.229871 31 142 243
0.0577139 -0.457622 0.201833 31 142 243
-0.0631531 -0.447117 0.101911 31 142 243
0.310664 -0.462348 0.0521176 31 142 243
-0.108719 -0.360326 0.0551213 31 142 243
-0.0795954 -0.407968 0.337122 31 142 243
0.177616 -0.431182 0.213872 31 142 243
-0.0547306 -0.428858 0.243082 31 142 243
-0.1055 -0.188626 0.053869 31 142 243
0.104536 -0.385829 0.0188609 31 142 243
-0.10067 -0.254694 0.157533 31 142 243
-0.0979098 -0.186262 0.0263621 31 142 243
0.0942303 -0.458286 0.0389308 31 142 243
-0.0674961 -0.253901 0.0177446 31 142 243
-0.105396 -0.409916 0.131952 31 142 243
-0.0783917 -0.209894 0.0126978 31 142 243
-0.00359956 -0.270206 -0.00228283 31 142 243
-0.102774 -0.198369 0.119326 31 142 243
0.0719005 -0.300161 0.00890228 31 142 243
-0.0831942 -0.417305 0.129543 31 142 243
-0.104558 -0.211515 0.0331552 31 142 243
0.121758 -0.422218 0.211386 31 142 243
0.320752 -0.450952 0.161298 31 142 243
-0.0523099 -0.374232 0.307187 31 142 243
-0.0638451 -0.445581 0.186798 31 142 243
0.101647 -0.412731 0.169126 31 142 243
0.195894 -0.449225 0.26476 31 142 243
-0.105945 -0.192264 0.0505164 31 142 243
-0.0946503 -0.259968 0.289483 31 142 243
-0.106868 -0.278797 0.0482233 31 142 243
-0.0355667 -0.395387 0.148464 31 142 243
-0.0361462 -0.45619 0.105555 31 142 243
0.0265839 -0.209762 -0.0048422 31 142 243
-0.0924176 -0.376771 0.264082 31 142 243
-0.103622 -0.211694 0.107415 31 142 243
0.0905492 -0.415085 0.192562 31 142 243
0.127433 -0.344271 0.0160005 31 142 243
-0.0950566 -0.397074 0.199709 31 142 243
-0.0725178 -0.434597 0.356437 31 142 243
0.282668 -0.268152 -0.00357153 31 142 243
-0.0373582 -0.211034 0.00602142 31 142 243
-0.102633 -0.198355 0.139871 31 142 243
-0.100332 -0.238854 0.148713 31 142 243
0.0490039 -0.406602 0.16475 31 142 243
-0.0882809 -0.407589 0.266569 31 142 243
-0.101778 -0.303062 0.191754 31 142 243
-0.0531229 -0.376577 0.30205 31 142 243
0.0440345 -0.414634 0.27375 31 142 243
-0.0576403 -0.427617 0.344054 31 142 243
0.0365123 -0.440294 0.33795 31 142 243
-0.00333326 -0.20132 -0.0023652 31 142 243
0.0567279 -0.209844 -0.00584988 31 142 243
0.264285 -0.44549 0.219834 31 142 243
-0.110652 -0.292709 0.0703567 31 142 243
0.26619 -0.430197 0.146959 31 142 243
-0.0963256 -0.271144 0.218435 31 142 243
-0.0512658 -0.236729 0.00512073 31 142 243
-0.0933473 -0.29986 0.267857 31 142 243
-0.0968697 -0.205585 0.275096 31 142 243
-0.0876739 -0.316872 0.334865 31 142 243
0.0091224 -0.411671 0.0248254 31 142 243
-0.0553964 -0.429994 0.251474 31 142 243
0.0912209 -0.328697 0.0134938 31 142 243
-0.0743011 -0.432547 0.114294 31 142 243
0.138835 -0.432291 0.257795 31 142 243
-0.0091762 -0.445952 0.307273 31 142 243
0.14197 -0.416137 0.1601 31 142 243
-0.103932 -0.206055 0.101584 31 142 243
-0.0667268 -0.447902 0.123711 31 142 243
-0.0401755 -0.397465 0.283312 31 142 243
-0.098039 -0.216869 0.249323 31 142 243
0.0303138 -0.231349 0.00365887 31 142 243
0.243066 -0.309547 0.00103319 31 142 243
-0.100513 -0.36027 0.0450685 31 142 243
0.0538162 -0.22357 -0.00509337 31 142 243
0.0615217 -0.416837 0.310332 31 142 243
0.19665 -0.462747 0.184752 31 142 243
-0.10247 -0.195974 0.137683 31 142 243
-0.105659 -0.287908 0.0961151 31 142 243
-0.102757 -0.229485 0.133028 31 142 243
-0.0649039 -0.444804 0.203435 31 142 243
-0.0971217 -0.370145 0.233786 31 142 243
0.143609 -0.305498 0.00917021 31 142 243
-0.00411381 -0.423249 0.216323 31 142 243
-0.0120023 -0.414155 0.214475 31 142 243
0.12919 -0.29189 0.00826959 31 142 243
-0.103918 -0.243099 0.0850188 31 142 243
0.0809122 -0.267827 0.00522487 31 142 243
0.139872 -0.241062 -0.00671907 31 142 243
0.240078 -0.439194 0.208734 31 142 243
-0.112959 -0.331163 0.0695407 31 142 243
-0.10567 -0.187548 0.0662029 31 142 243
0.102622 -0.376477 0.0189788 31 142 243
0.0463176 -0.433994 0.157422 31 142 243
0.0611034 -0.371826 0.0171956 31 142 243
-0.103578 -0.197913 0.106102 31 142 243
-0.103849 -0.299467 0.14289 31 142 243
-0.102139 -0.204268 0.140473 31 142 243
-0.0981254 -0.205332 0.0349244 31 142 243
-0.105135 -0.404433 0.141681 31 142 243
0.192211 -0.366321 0.00859171 31 142 243
-0.102305 -0.256161 0.158093 31 142 243
-0.0984001 -0.20763 0.253707 31 142 243
-0.0507185 -0.395822 0.268971 31 142 243
-0.0942591 -0.216818 0.292883 31 142 243
-0.0311888 -0.453012 0.127459 31 142 243
-0.102818 -0.212847 0.106974 31 142 243
-0.108192 -0.323866 0.0625362 31 142 243
0.280845 -0.274741 -0.00337063 31 142 243
0.157106 -0.451797 0.0203461 31 142 243
0.266387 -0.455462 0.197276 31 142 243
-0.0565909 -0.375112 0.326878 31 142 243
-0.112268 -0.314996 0.0743756 31 142 243
-0.0487231 -0.186124 0.00292559 31 142 243
-0.0835422 -0.425523 0.200445 31 142 243
-0.0197743 -0.407959 0.201496 31 142 243
-0.104896 -0.193006 0.0437519 31 142 243
-0.0973314 -0.207162 0.268535 31 142 243
-0.0817405 -0.40006 0.32613 31 142 243
-0.110946 -0.347559 0.0921996 31 142 243
-0.10234 -0.198806 0.1719 31 142 243
0.272609 -0.441457 0.0113123 31 142 243
-0.100135 -0.284513 0.188234 31 142 243
-0.10067 -0.197253 0.220751 31 142 243
-0.10035 -0.362242 0.199817 31 142 243
-0.0752303 -0.433446 0.27316 31 142 243
-0.0604416 -0.452806 0.147488 31 142 243
0.121404 -0.2042 -0.00795024 31 142 243
-0.102251 -0.243982 0.152719 31 142 243
-0.0609792 -0.447643 0.0983133 31 142 243
-0.10128 -0.245222 0.139904 31 142 243
0.273519 -0.278892 -0.00250546 31 142 243
0.000112937 -0.401517 0.173936 31 142 243
0.134711 -0.456484 0.243577 31 142 243
-0.0969047 -0.354123 0.234362 31 142 243
-0.0852354 -0.185584 0.0188543 31 142 243
-0.0888341 -0.341059 0.309856 31 142 243
0.281423 -0.459673 0.0506053 31 142 243
-0.0932534 -0.265355 0.308551 31 142 243
-0.100699 -0.196576 0.228927 31 142 243
0.25602 -0.454611 0.208353 31 142 243
-0.101113 -0.197442 0.203585 31 142 243
-0.10103 -0.206842 0.198961 31 142 243
-0.098703 -0.280801 0.199824 31 142 243
-0.0995013 -0.221227 0.203188 31 142 243
0.27075 -0.458565 0.181488 31 142 243
-0.101934 -0.203464 0.17637 31 142 243
-0.101695 -0.303118 0.193543 31 142 243
0.0571992 -0.415083 0.332333 31 142 243
-0.103776 -0.436415 0.144256 31 142 243
-0.100991 -0.215768 0.23371 31 142 243
-0.104229 -0.326564 0.151117 31 142 243
0.0370266 -0.453806 0.200811 31 142 243
-0.0675378 -0.436636 0.331249 31 142 243
-0.102855 -0.191992 0.143285 31 142 243
-0.094551 -0.263877 0.0334269 31 142 243
-0.10829 -0.330855 0.0775765 31 142 243
-0.0871083 -0.244606 0.0147445 31 142 243
0.245781 -0.436579 0.188593 31 142 243
0.209598 -0.376815 0.00794339 31 142 243
-0.0755549 -0.416881 0.369558 31 142 243
-0.106132 -0.340186 0.132036 31 142 243
0.235854 -0.23854 -0.000829674 31 142 243
-0.103807 -0.242365 0.0571347 31 142 243
0.153598 -0.327555 0.0116103 31 142 243
-0.0884344 -0.411259 0.197678 31 142 243
-0.104203 -0.370896 0.178422 31 142 243
-0.0947052 -0.394872 0.174183 31 142 243
-0.10549 -0.382538 0.0904538 31 142 243
-0.102361 -0.325104 0.192856 31 142 243
0.0152965 -0.408746 0.261139 31 142 243
-0.00706418 -0.440032 0.337495 31 142 243
-0.0574218 -0.436719 0.286865 31 142 243
-0.0962624 -0.230285 0.27624 31 142 243
-0.00266285 -0.212888 0.00199426 31 142 243
-0.0778432 -0.41519 0.346067 31 142 243
-0.105065 -0.328015 0.148588 31 142 243
0.0774545 -0.420838 0.329503 31 142 243
0.0237213 -0.458931 0.0778482 31 142 243
-0.108384 -0.338049 0.0876457 31 142 243
0.00316963 -0.399499 0.144144 31 142 243
-0.10514 -0.252936 0.0761736 31 142 243
0.125869 -0.429455 0.0191677 31 142 243
-0.0947556 -0.266156 0.271526 31 142 243
0.0663625 -0.412905 0.1998 31 142 243
-0.0541508 -0.439765 0.184015 31 142 243
0.163531 -0.438324 0.0907694 31 142 243
-0.0936534 -0.354058 0.258102 31 142 243
-0.104577 -0.247621 0.0786992 31 142 243
-0.062075 -0.451707 0.137055 31 142 243
0.0548751 -0.456483 0.23325 31 142 243
-0.102497 -0.19942 0.128014 31 142 243
0.14583 -0.431142 0.241062 31 142 243
0.274612 -0.314532 -0.00219081 31 142 243
-0.0906815 -0.32792 0.293135 31 142 243
-0.0899557 -0.319116 0.311457 31 142 243
0.203737 -0.433115 0.0215297 31 142 243
0.125711 -0.442645 0.301757 31 142 243
-0.101404 -0.29712 0.201174 31 142 243
0.331953 -0.449718 0.145143 31 142 243
-0.0919405 -0.272205 0.318868 31 142 243
-0.0371855 -0.396264 0.17085 31 142 243
-0.0995263 -0.212986 0.221381 31 142 243
0.257795 -0.281846 -0.000613309 31 142 243
-0.102482 -0.285641 0.167181 31 142 243
0.0580454 -0.411672 0.198748 31 142 243
-0.103815 -0.364603 0.0485654 31 142 243
0.0825954 -0.409166 0.158721 31 142 243
0.128928 -0.426565 0.230102 31 142 243
0.289218 -0.428329 0.0324976 31 142 243
-0.106106 -0.35542 0.138652 31 142 243
0.0975388 -0.409644 0.153152 31 142 243
-0.106598 -0.295046 0.116548 31 142 243
-0.0941266 -0.357594 0.255649 31 142 243
0.172871 -0.295518 0.00820616 31 142 243
-0.0600534 -0.199906 0.00729692 31 142 243
-0.0280163 -0.4468 0.13808 31 142 243
-0.0812394 -0.429689 0.21465 31 142 243
-0.0848094 -0.406838 0.28465 31 142 243
-0.102269 -0.206697 0.115387 31 142 243
0.182202 -0.443326 0.0217293 31 142 243
-0.0993477 -0.200829 0.255327 31 142 243
-0.104787 -0.363493 0.166755 31 142 243
-0.102261 -0.209104 0.114507 31 142 243
-0.105914 -0.38526 0.132582 31 142 243
-0.108092 -0.362181 0.0674118 31 142 243
-0.0339803 -0.298978 0.00205357 31 142 243
-0.0183361 -0.430552 0.0484162 31 142 243
0.139063 -0.424295 0.208937 31 142 243
0.188823 -0.430156 0.200218 31 142 243
0.050193 -0.414153 0.229513 31 142 243
-0.102916 -0.222387 0.126322 31 142 243
-0.0929107 -0.307714 0.0264672 31 142 243
0.109673 -0.456347 0.242991 31 142 243
-0.0928596 -0.385287 0.258709 31 142 243
0.062366 -0.417035 0.311356 31 142 243
-0.102518 -0.195997 0.131137 31 142 243
-0.0873781 -0.362448 0.305533 31 142 243
-0.106315 -0.282532 0.0224887 31 142 243
-0.100195 -0.202592 0.221947 31 142 243
0.00836133 -0.445913 0.0551814 31 142 243
-0.107968 -0.299977 0.0358837 31 142 243
-0.0412084 -0.382256 0.0262275 31 142 243
-0.0527804 -0.454148 0.121293 31 142 243
0.00893262 -0.208068 -0.00341217 31 142 243
-0.084498 -0.368269 0.0404961 31 142 243
0.191144 -0.428913 0.191461 31 142 243
-0.102673 -0.306372 0.170954 31 142 243
0.305172 -0.459885 0.134545 31 142 243
-0.0687323 -0.264181 0.00964943 31 142 243
0.0148277 -0.408259 0.226159 31 142 243
-0.0977163 -0.229304 0.221009 31 142 243
-0.0997104 -0.249584 0.163215 31 142 243
0.0773276 -0.455477 0.0430492 31 142 243
-0.0955827 -0.227541 0.283655 31 142 243
0.33229 -0.441651 0.157629 31 142 243
0.105844 -0.21734 -0.00667049 31 142 243
0.124708 -0.454096 0.0200025 31 142 243
-0.100335 -0.202034 0.216172 31 142 243
-0.0995485 -0.206577 0.23798 31 142 243
-0.0349699 -0.257835 0.0118253 31 142 243
-0.108331 -0.284796 0.0585817 31 142 243
-0.0733357 -0.335427 0.0244199 31 142 243
-0.0357407 -0.403216 0.281796 31 142 243
0.137753 -0.430468 0.0955282 31 142 243
-0.0863651 -0.414837 0.192169 31 142 243
-0.0910714 -0.325978 0.284205 31 142 243
-0.00270232 -0.398246 0.0243823 31 142 243
0.103938 -0.208173 -0.00716025 31 142 243
-0.100436 -0.266223 0.224176 31 142 243
0.145254 -0.310808 0.00962131 31 142 243
0.236041 -0.320121 0.00152441 31 142 243
0.171469 -0.431155 0.0529895 31 142 243
-0.108004 -0.316253 0.0659692 31 142 243
-0.100948 -0.221807 0.13111 31 142 243
-0.105466 -0.257092 0.0687657 31 142 243
-0.0261101 -0.292589 0.000448443 31 142 243
-0.106874 -0.307777 0.085974 31 142 243
0.195615 -0.451433 0.255548 31 142 243
-0.0626554 -0.291613 0.00837929 31 142 243
-0.00285903 -0.435118 0.136086 31 142 243
0.191951 -0.444232 0.014397 31 142 243
-0.0794689 -0.410984 0.334938 31 142 243
-0.0777296 -0.409342 0.356767 31 142 243
-0.103425 -0.337527 0.0393295 31 142 243
-0.0645065 -0.2166 0.0183268 31 142 243
0.238304 -0.292997 0.00201282 31 142 243
-0.0643029 -0.276468 0.00861435 31 142 243
-0.102812 -0.255156 0.124366 31 142 243
-0.0511059 -0.391831 0.273607 31 142 243
0.167967 -0.430433 0.218212 31 142 243
-0.106249 -0.262013 0.0313202 31 142 243
-0.0135324 -0.42118 0.0327969 31 142 243
-0.104238 -0.224738 0.0587329 31 142 243
-0.0146349 -0.441643 0.269971 31 142 243
-0.10157 -0.201854 0.187007 31 142 243
-0.0958609 -0.222639 0.279868 31 142 243
-0.00950076 -0.411218 0.185377 31 142 243
-0.105847 -0.198365 0.0517097 31 142 243
-0.0673396 -0.441765 0.232156 31 142 243
0.176351 -0.463737 0.174506 31 142 243
0.285943 -0.452651 0.192465 31 142 243
-0.0983821 -0.204598 0.25861 31 142 243
-0.0675775 -0.447206 0.185982 31 142 243
-0.0600498 -0.382322 0.0358117 31 142 243
0.0395384 -0.405423 0.162632 31 142 243
-0.048003 -0.389339 0.322428 31 142 243
-0.0862223 -0.341952 0.337254 31 142 243
-0.104088 -0.207676 0.0922267 31 142 243
-0.0780563 -0.197036 0.0202553 31 142 243
0.200764 -0.406197 0.0124932 31 142 243
-0.100445 -0.212916 0.203988 31 142 243
-0.0232763 -0.348522 0.017353 31 142 243
0.234516 -0.399914 0.00882525 31 142 243
0.147641 -0.440539 0.290017 31 142 243
-0.107104 -0.382771 0.082197 31 142 243
-0.0966744 -0.241864 0.233749 31 142 243
-0.106814 -0.277497 0.0287263 31 142 243
0.0562949 -0.206039 -0.00409257 31 142 243
-0.0266463 -0.331386 0.0151262 31 142 243
-0.0134105 -0.445312 0.308648 31 142 243
0.0492618 -0.414023 0.305198 31 142 243
-0.0871465 -0.307606 0.0226928 31 142 243
0.0575025 -0.442753 0.0308456 31 142 243
0.236413 -0.452744 0.22831 31 142 243
-0.0453171 -0.387769 0.275244 31 142 243
-0.105084 -0.409852 0.139122 31 142 243
-0.107166 -0.314638 0.102656 31 142 243
-0.0252012 -0.448999 0.129434 31 142 243
-0.000864452 -0.456083 0.0698132 31 142 243
0.0111744 -0.240626 -0.00364383 31 142 243
-0.107143 -0.330352 0.0978828 31 142 243
0.00479035 -0.19321 -0.00383929 31 142 243
-0.106556 -0.384262 0.119103 31 142 243
-0.0938277 -0.39959 0.192716 31 142 243
0.0449156 -0.459474 0.0662006 31 142 243
0.027572 -0.453751 0.214039 31 142 243
-0.0953374 -0.286609 0.227202 31 142 243
-0.0815187 -0.43062 0.188815 31 142 243
0.0611243 -0.42989 0.354195 31 142 243
0.237387 -0.351365 0.00299643 31 142 243
-0.104043 -0.324059 0.162388 31 142 243
-0.104254 -0.265595 0.103787 31 142 243
0.103146 -0.221006 -0.00643221 31 142 243
-0.107964 -0.360809 0.0732398 31 142 243
-0.0461056 -0.449518 0.146449 31 142 243
-0.0349934 -0.214205 0.00122431 31 142 243
0.00660539 -0.40277 0.179293 31 142 243
-0.0808835 -0.423448 0.118487 31 142 243
-0.0951008 -0.268708 0.258417 31 142 243
-0.100057 -0.221359 0.18142 31 142 243
0.169922 -0.435205 0.240824 31 142 243
-0.0931676 -0.302869 0.270443 31 142 243
0.255449 -0.439116 0.0477044 31 142 243
-0.104341 -0.218096 0.0293825 31 142 243
-0.102706 -0.199047 0.152416 31 142 243
-0.102354 -0.20201 0.118503 31 142 243
-0.108502 -0.34808 0.0746267 31 142 243
-0.108621 -0.365488 0.0468381 31 142 243
-0.105323 -0.290512 0.104941 31 142 243
-0.0875415 -0.319944 0.33452 31 142 243
-0.0825826 -0.406282 0.297202 31 142 243
-0.105457 -0.392106 0.140549 31 142 243
0.101243 -0.433382 0.325931 31 142 243
-0.0822881 -0.41389 0.289887 31 142 243
-0.102494 -0.197031 0.157551 31 142 243
0.243986 -0.426745 0.145499 31 142 243
0.222501 -0.411975 0.0404474 31 142 243
-0.104666 -0.192796 0.0888242 31 142 243
0.00825807 -0.406648 0.276717 31 142 243
-0.105289 -0.189746 0.073434 31 142 243
-0.111631 -0.311909 0.0788391 31 142 243
-0.100228 -0.202479 0.220254 31 142 243
-0.0779011 -0.434803 0.204276 31 142 243
-0.0915397 -0.362228 0.270002 31 142 243
-0.108673 -0.346125 0.0864623 31 142 243
-0.11196 -0.354944 0.0698164 31 142 243
-0.0861859 -0.337137 0.340552 31 142 243
0.255949 -0.451034 0.222603 31 142 243
-0.0818726 -0.380567 0.351656 31 142 243
-0.104894 -0.406981 0.149514 31 142 243
-0.0929154 -0.397221 0.166194 31 142 243
0.114544 -0.311781 0.01038 31 142 243
-0.0960947 -0.215334 0.276031 31 142 243
-0.103557 -0.198443 0.106084 31 142 243
-0.0907056 -0.328082 0.291703 31 142 243
-0.100641 -0.377345 0.0522417 31 142 243
0.0183589 -0.238311 -0.00426546 31 142 243
-0.0771726 -0.413815 0.354996 31 142 243
0.0899005 -0.422359 0.0216853 31 142 243
-0.101342 -0.23338 0.0452535 31 142 243
-0.0982476 -0.187431 0.0277824 31 142 243
0.265539 -0.241763 -0.00282606 31 142 243
-0.10086 -0.2066 0.24962 31 142 243
-0.00340064 -0.448889 0.277121 31 142 243
0.0626489 -0.203954 -0.00499434 31 142 243
0.0588606 -0.202507 -0.00524314 31 142 243
0.0468362 -0.409339 0.190891 31 142 243
-0.0981122 -0.204744 0.261381 31 142 243
-0.0848924 -0.414631 0.169703 31 142 243
-0.0862756 -0.378395 0.303685 31 142 243
-0.0871933 -0.188919 0.0229396 31 142 243
-0.0996155 -0.192042 0.0230962 31 142 243
0.198687 -0.440239 0.241736 31 142 243
-0.006355 -0.399373 0.155376 31 142 243
0.00640173 -0.43854 0.346949 31 142 243
-0.0926705 -0.298707 0.288893 31 142 243
0.077502 -0.427647 0.0233747 31 142 243
-0.0282728 -0.221652 0.00753073 31 142 243
0.319398 -0.462589 0.0525525 31 142 243
-0.10422 -0.432052 0.145546 31 142 243
-0.103188 -0.191353 0.114034 31 142 243
-0.107258 -0.360069 0.112285 31 142 243
-0.0950307 -0.328413 0.0154036 31 142 243
-0.0895189 -0.324244 0.312693 31 142 243
-0.104328 -0.210704 0.0310222 31 142 243
-0.0998717 -0.219273 0.200001 31 142 243
0.309542 -0.456547 0.151743 31 142 243
-0.101462 -0.328182 0.188143 31 142 243
-0.0518359 -0.412734 0.255737 31 142 243
-0.0793642 -0.386761 0.0472191 31 142 243
-0.100743 -0.222731 0.219598 31 142 243
0.0445488 -0.410425 0.203427 31 142 243
0.036671 -0.211516 -0.00520583 31 142 243
-0.100404 -0.221343 0.144113 31 142 243
-0.0939801 -0.380967 0.253778 31 142 243
-0.107098 -0.32333 0.108397 31 142 243
0.0883173 -0.416057 0.200993 31 142 243
0.0987323 -0.241482 -0.00493868 31 142 243
-0.104241 -0.33389 0.158279 31 142 243
-0.0259285 -0.359548 0.0192937 31 142 243
-0.104473 -0.261955 0.0548444 31 142 243
-0.099831 -0.32991 0.202815 31 142 243
-0.104029 -0.253376 0.0884557 31 142 243
0.157719 -0.455914 0.247031 31 142 243
-0.100699 -0.375494 0.194323 31 142 243
-0.0970023 -0.245782 0.21382 31 142 243
-0.104968 -0.220462 0.0726546 31 142 243
-0.104341 -0.354246 0.172784 31 142 243
-0.103052 -0.242452 0.0530393 31 142 243
-0.0525358 -0.382582 0.0322908 31 142 243
-0.0959089 -0.221663 0.279191 31 142 243
-0.101984 -0.207436 0.154393 31 142 243
-0.0735326 -0.431473 0.358849 31 142 243
-0.0475986 -0.278695 0.0141378 31 142 243
-0.101835 -0.220924 0.118988 31 142 243
0.113176 -0.206182 -0.00607866 31 142 243
-0.0294636 -0.393119 0.1177 31 142 243
-0.0892367 -0.3471 0.292729 31 142 243
-0.100523 -0.349335 0.197632 31 142 243
-0.0933662 -0.379401 0.0501592 31 142 243
-0.104281 -0.195679 0.0963614 31 142 243
0.230183 -0.441036 0.0111545 31 142 243
-0.103487 -0.244678 0.123789 31 142 243
-0.0966404 -0.391639 0.17832 31 142 243
0.259472 -0.452633 0.213787 31 142 243
0.16647 -0.432656 0.231274 31 142 243
0.326011 -0.459881 0.0410706 31 142 243
0.250583 -0.346843 0.000713568 31 142 243
-0.0495923 -0.381448 0.312206 31 142 243
0.250445 -0.23891 -0.00208248 31 142 243
-0.0526489 -0.41766 0.325757 31 142 243
-0.0051296 -0.243497 -0.00237533 31 142 243
-0.0972844 -0.338921 0.231078 31 142 243
-0.0959304 -0.325085 0.0155808 31 142 243
-0.106282 -0.282847 0.103169 31 142 243
0.028913 -0.394498 0.0216721 31 142 243
0.141878 -0.429503 0.0327365 0 180 235
0.0542526 -0.429766 0.00480582 0 180 235
0.236446 -0.405814 0.0041193 0 180 235
0.183078 -0.351532 -0.000343679 0 180 235
0.167332 -0.413299 0.0354176 0 180 235
-0.0935202 -0.240029 -0.000905372 0 180 235
0.154121 -0.406243 0.0337598 0 180 235
0.107706 -0.451583 0.00266761 0 180 235
-0.0641832 -0.383331 0.00718037 0 180 235
0.125869 -0.347604 0.000558665 0 180 235
0.313852 -0.395352 0.00261483 0 180 235
0.244413 -0.439552 0.0435615 0 180 235
-0.0465914 -0.314077 -0.00162529 0 180 235
0.355948 -0.460362 0.00581891 0 180 235
0.221533 -0.405315 0.0042951 0 180 235
0.00930534 -0.461335 0.0124679 0 180 235
0.159676 -0.430713 0.00924772 0 180 235
-0.0967748 -0.27427 0.00327637 0 180 235
0.221619 -0.372264 0.000935513 0 180 235
0.111018 -0.367661 0.000831643 0 180 235
0.327767 -0.396598 0.00261694 0 180 235
-0.0799582 -0.461791 0.0181489 0 180 235
0.0190543 -0.414007 0.00451459 0 180 235
0.114879 -0.332065 -0.000581942 0 180 235
0.348634 -0.418448 0.00427542 0 180 235
0.0214939 -0.419388 0.00517927 0 180 235
-0.0919555 -0.382323 0.0119997 0 180 235
0.0145945 -0.35297 -0.00189372 0 180 235
0.000801366 -0.258702 -0.00492759 0 180 235
0.226132 -0.385216 0.00218676 0 180 235
-0.0981214 -0.201282 -0.000721501 0 180 235
-0.02473 -0.353314 0.000558833 0 180 235
-0.0774154 -0.362632 0.00788521 0 180 235
0.205712 -0.439589 0.00576862 0 180 235
0.210812 -0.350635 -0.00117643 0 180 235
-0.0760418 -0.193355 -0.00352873 0 180 235
0.234436 -0.326589 -0.000849074 0 180 235
0.0770399 -0.35747 0.025901 0 180 235
0.0480931 -0.481057 0.00975878 0 180 235
-0.0885447 -0.367961 0.0100743 0 180 235
0.308728 -0.378323 0.041544 0 180 235
-0.064394 -0.416161 0.0108046 0 180 235
0.187619 -0.406218 -0.00739006 0 180 235
0.0975293 -0.484626 0.00212828 0 180 235
-0.052826 -0.189792 -0.000552978 0 180 235
-0.0803602 -0.301743 0.00425305 0 180 235
0.000328416 -0.218722 0.00560832 0 180 235
0.0466077 -0.271266 -0.00234367 0 180 235
0.22831 -0.392554 0.035411 0 180 235
-0.0726307 -0.413903 0.0122664 0 180 235
0.0437573 -0.465427 0.00926973 0 180 235
0.115496 -0.405417 0.00233487 0 180 235
0.101624 -0.299089 -0.00329084 0 180 235
0.109173 -0.368697 0.0295513 0 180 235
0.324857 -0.425727 0.00497681 0 180 235
0.147699 -0.455769 0.00399669 0 180 235
-0.0533294 -0.322392 7.72588e-05 0 180 235
0.0571763 -0.370871 -0.00104025 0 180 235
0.0672721 -0.273653 0.000275277 0 180 235
0.115962 -0.334633 -0.00044529 0 180 235
0.113335 -0.372915 0.000892386 0 180 235
-0.108273 -0.410497 0.0179793 0 180 235
0.150449 -0.373186 0.00232952 0 180 235
0.314947 -0.357036 0.00319176 0 180 235
0.0435673 -0.376314 -0.00124473 0 180 235
-0.022281 -0.344529 -0.000545178 0 180 235
0.0139724 -0.371506 9.96888e-05 0 180 235
0.16337 -0.32952 -0.00293091 0 180 235
-0.0968666 -0.43323 0.0183104 0 180 235
-0.0739811 -0.415854 0.0127688 0 180 235
-0.10336 -0.363731 0.0122974 0 180 235
0.0511676 -0.411756 0.00221569 0 180 235
0.199412 -0.407391 0.0364387 0 180 235
0.342204 -0.41964 0.00434629 0 180 235
0.173638 -0.402839 -0.00832955 0 180 235
0.221475 -0.468638 0.00565589 0 180 235
0.0943336 -0.363391 0.000349082 0 180 235
-0.0104489 -0.449634 0.0116893 0 180 235
0.0918194 -0.293096 -0.00330416 0 180 235
0.0361859 -0.260173 -0.000297399 0 180 235
0.294818 -0.326817 0.031767 0 180 235
-0.0548711 -0.198982 -0.00663348 0 180 235
-0.00559245 -0.399766 0.00371963 0 180 235
-0.0526617 -0.248541 -0.00628065 0 180 235
0.138574 -0.361117 0.00147961 0 180 235
-0.0654823 -0.276745 -0.00169772 0 180 235
0.0560497 -0.354897 -0.00226673 0 180 235
-0.0236686 -0.244907 -0.00634878 0 180 235
0.0221824 -0.39483 0.00155296 0 180 235
0.0422613 -0.457796 0.00899014 0 180 235
-0.0973367 -0.288128 0.00542965 0 180 235
-0.0356067 -0.341631 0.000133207 0 180 235
0.0435164 -0.243791 -0.00123714 0 180 235
0.0904174 -0.277289 -0.00445723 0 180 235
-0.088643 -0.471091 0.0183727 0 180 235
0.291307 -0.419508 0.00457154 0 180 235
0.194758 -0.353796 -0.00336895 0 180 235
0.20999 -0.446677 0.038217 0 180 235
0.31753 -0.400527 0.00321501 0 180 235
0.150655 -0.366559 0.00188358 0 180 235
0.0580318 -0.268626 -0.00228524 0 180 235
-0.0628568 -0.269707 -0.00305633 0 180 235
-0.0554443 -0.288183 -0.00300391 0 180 235
0.267369 -0.435943 0.00902492 0 180 235
0.250618 -0.451371 0.00658441 0 180 235
0.0934585 -0.383758 0.000235204 0 180 235
0.190677 -0.465369 0.00539155 0 180 235
-0.115226 -0.473491 0.0179893 0 180 235
-0.0736288 -0.465237 0.0185335 0 180 235
-0.0615594 -0.194351 -0.00547824 0 180 235
0.103218 -0.37744 0.000592923 0 180 235
0.0743798 -0.338199 -0.000748511 0 180 235
0.346491 -0.412027 0.00373251 0 180 235
0.108273 -0.358695 0.000745296 0 180 235
-0.0514988 -0.238076 -0.00682324 0 180 235
-0.0257485 -0.42284 0.00756256 0 180 235
0.102484 -0.431368 0.00230808 0 180 235
0.16058 -0.433804 0.00529947 0 180 235
-0.0764857 -0.432002 0.0152438 0 180 235
0.33489 -0.359185 0.0197845 0 180 235
0.0908603 -0.461083 0.0031748 0 180 235
-0.0877337 -0.19887 -0.00176716 0 180 235
0.21202 -0.343285 -0.00170429 0 180 235
-0.0458412 -0.202287 -0.00627997 0 180 235
0.215725 -0.340496 0.0373594 0 180 235
0.0016709 -0.445798 0.0104774 0 180 235
0.152013 -0.315642 -0.00473401 0 180 235
-0.116345 -0.47477 0.0179521 0 180 235
-0.0830607 -0.464104 0.0180943 0 180 235
0.249988 -0.370475 0.000589698 0 180 235
0.285847 -0.462431 0.0066433 0 180 235
0.067448 -0.352783 -0.00387939 0 180 235
-0.0222274 -0.230194 -0.00593812 0 180 235
-0.0909704 -0.350956 0.00930511 0 180 235
0.0930927 -0.322215 -0.00171653 0 180 235
-0.0246045 -0.210838 -0.00580464 0 180 235
-0.110701 -0.197837 -0.000946343 0 180 235
-0.0932096 -0.367127 0.0108165 0 180 235
0.065706 -0.380274 -0.00133568 0 180 235
0.0810697 -0.487151 0.00509827 0 180 235
-0.0356778 -0.440118 0.0108268 0 180 235
-0.0291963 -0.306079 -0.00390542 0 180 235
0.0251686 -0.224235 -0.00142237 0 180 235
0.193351 -0.361764 0.000383589 0 180 235
0.0373669 -0.274775 -0.000886593 0 180 235
0.0810078 -0.430673 0.00202039 0 180 235
0.229481 -0.436177 0.00561605 0 180 235
0.0238133 -0.322424 -0.00511635 0 180 235
-0.0486571 -0.350898 0.00234653 0 180 235
0.231566 -0.442342 0.00590361 0 180 235
0.0346022 -0.235951 -0.00125092 0 180 235
0.263759 -0.336668 -0.00200883 0 180 235
0.335649 -0.457987 0.00591841 0 180 235
-0.0670717 -0.434209 0.0134454 0 180 235
0.142428 -0.486391 0.000823244 0 180 235
0.107195 -0.32145 -0.00106994 0 180 235
-0.0772689 -0.253214 -0.00135109 0 180 235
-0.0720313 -0.424001 0.0132917 0 180 235
0.0380179 -0.263631 -0.00226747 0 180 235
0.00925028 -0.3921 0.0021769 0 180 235
0.183415 -0.427827 0.00585264 0 180 235
0.134362 -0.348898 0.000701634 0 180 235
-0.0525014 -0.463138 0.0174442 0 180 235
-0.0386054 -0.475243 0.0201574 0 180 235
0.0544741 -0.270714 -0.00232187 0 180 235
-0.0669792 -0.398445 0.00919198 0 180 235
0.08592 -0.28136 -0.00196019 0 180 235
0.0687753 -0.430965 0.00346972 0 180 235
0.294453 -0.36221 -0.000572624 0 180 235
-0.0714171 -0.3229 0.00376091 0 180 235
0.173365 -0.429661 0.0315414 0 180 235
0.178806 -0.337954 0.00114224 0 180 235
-0.0217638 -0.356949 0.000727532 0 180 235
0.233932 -0.471757 0.00552295 0 180 235
-0.079292 -0.208544 -0.0027568 0 180 235
0.0499354 -0.351182 -0.00292141 0 180 235
0.155593 -0.442755 0.00497813 0 180 235
-0.0859726 -0.311149 0.00604468 0 180 235
0.0972159 -0.373199 0.000378234 0 180 235
-0.0500411 -0.203761 -0.00677357 0 180 235
0.175936 -0.412998 0.0358239 0 180 235
-0.100059 -0.262967 0.00229485 0 180 235
0.276978 -0.439143 0.00874383 0 180 235
0.0940898 -0.356792 0.000370961 0 180 235
0.233672 -0.411893 0.0396604 0 180 235
-0.0400539 -0.462397 0.0166096 0 180 235
0.111517 -0.375891 0.0254489 0 180 235
0.207244 -0.388576 0.0344683 0 180 235
-0.0819718 -0.42083 0.0148605 0 180 235
0.302523 -0.327728 0.0266194 0 180 235
0.209638 -0.47607 0.0046311 0 180 235
0.0517717 -0.282708 -0.00256495 0 180 235
0.216184 -0.373958 0.033181 0 180 235
-0.0438465 -0.195705 -0.00489677 0 180 235
0.0876532 -0.416057 0.0299712 0 180 235
0.0441098 -0.425642 0.00510709 0 180 235
-0.028928 -0.255458 -0.00655254 0 180 235
0.230726 -0.449255 0.00621753 0 180 235
0.0325359 -0.452979 0.00945005 0 180 235
-0.0506725 -0.354293 0.00297812 0 180 235
0.0489974 -0.29842 -0.00324913 0 180 235
-0.0489077 -0.188957 0.00696228 0 180 235
-0.0913179 -0.470588 0.0183369 0 180 235
0.189809 -0.462025 0.0055526 0 180 235
0.037149 -0.345721 -0.00362522 0 180 235
-0.0205016 -0.195674 0.00330513 0 180 235
0.0841279 -0.288918 -0.00327293 0 180 235
-0.0619956 -0.406462 0.0087893 0 180 235
0.275185 -0.351977 0.0427342 0 180 235
0.0727633 -0.322557 -0.00123702 0 180 235
-0.098426 -0.314245 0.00861061 0 180 235
-0.0654891 -0.209885 -0.00489828 0 180 235
0.0353408 -0.38276 -0.000258081 0 180 235
0.272907 -0.341294 -0.00197964 0 180 235
-0.103338 -0.191239 -0.000566287 0 180 235
0.326721 -0.380821 0.00124973 0 180 235
0.00398161 -0.40049 0.00332431 0 180 235
0.11934 -0.318146 -0.00240788 0 180 235
0.203591 -0.4391 0.00577561 0 180 235
0.137855 -0.296607 -0.00495119 0 180 235
0.21868 -0.372047 0.000977497 0 180 235
0.288711 -0.385437 0.00203508 0 180 235
0.279287 -0.430333 0.00543634 0 180 235
-0.0491199 -0.41732 0.00859978 0 180 235
0.0155649 -0.251941 -0.00370128 0 180 235
0.343858 -0.446281 0.00605357 0 180 235
0.315201 -0.373585 0.000343699 0 180 235
-0.0194077 -0.284431 -0.00627201 0 180 235
-0.0142495 -0.277057 -0.00596801 0 180 235
-0.109106 -0.468563 0.0181262 0 180 235
0.100401 -0.383624 -0.00107926 0 180 235
-0.0880915 -0.188963 -0.00122577 0 180 235
-0.0761999 -0.310615 0.00386837 0 180 235
-0.0875116 -0.439724 0.0177658 0 180 235
-0.099355 -0.252631 0.000744551 0 180 235
-0.0880095 -0.322701 0.00729874 0 180 235
0.0815494 -0.416367 0.000433549 0 180 235
0.183589 -0.432824 0.00591016 0 180 235
0.166599 -0.406592 0.00510412 0 180 235
-0.0597596 -0.21211 -0.00590642 0 180 235
0.201276 -0.339491 -0.00188689 0 180 235
-0.0344023 -0.415067 0.00687043 0 180 235
0.147408 -0.35961 0.00131382 0 180 235
0.149443 -0.381941 0.0258783 0 180 235
0.285726 -0.40501 0.00340393 0 180 235
-0.0674063 -0.286793 -0.000207845 0 180 235
-0.0881567 -0.229007 -0.00134456 0 180 235
0.0852569 -0.432986 0.00166464 0 180 235
-0.0442544 -0.202752 -0.00625979 0 180 235
0.210876 -0.391772 0.00332182 0 180 235
0.326299 -0.400805 0.00299002 0 180 235
0.000394726 -0.215313 -0.0035494 0 180 235
0.291123 -0.344928 0.000520194 0 180 235
-0.0496856 -0.202566 -0.00663461 0 180 235
0.115299 -0.352383 0.0342179 0 180 235
0.0995286 -0.400804 0.000874704 0 180 235
0.228834 -0.387762 0.002401 0 180 235
