ply
format ascii 1.0
comment Created by Open3D
element vertex 1203
property double x
property double y
property double z
property uchar red
property uchar green
property uchar blue
end_header
-0.4023 -0.485967 0.344897 255 178 96
-0.435801 -0.47856 0.421449 255 178 96
-0.133269 -0.487135 0.364784 255 178 96
-0.340007 -0.486673 0.214192 255 178 96
-0.426911 -0.483982 0.455109 255 178 96
-0.276794 -0.485653 0.481047 255 178 96
-0.317166 -0.487192 -0.0125386 255 178 96
-0.36014 -0.486673 -0.0859165 255 178 96
-0.228773 -0.486336 0.42912 255 178 96
-0.0227269 -0.488135 0.24028 255 178 96
-0.184331 -0.48795 -0.0313174 255 178 96
-0.0740133 -0.428243 -0.0322643 255 178 96
-0.422316 -0.485671 0.414324 255 178 96
-0.375791 -0.486625 0.0228774 255 178 96
-0.292488 -0.48737 0.0280433 255 178 96
-0.375953 -0.485579 0.457834 255 178 96
-0.405889 -0.427786 0.38811 255 178 96
-0.0758351 -0.479779 -0.0310423 255 178 96
0.0790689 -0.469004 -0.260037 255 178 96
-0.399994 -0.485717 0.253859 255 178 96
-0.125765 -0.486066 0.473063 255 178 96
-0.044976 -0.487958 0.263135 255 178 96
-0.40562 -0.485672 0.246382 255 178 96
-0.0436497 -0.481795 -0.167407 255 178 96
-0.279626 -0.486903 0.227842 255 178 96
-0.123291 -0.487046 0.394272 255 178 96
-0.345335 -0.486446 0.39069 255 178 96
0.143981 -0.48875 0.263225 255 178 96
-0.346841 -0.482844 0.4798 255 178 96
-0.343485 -0.486947 -0.0641919 255 178 96
-0.422102 -0.468838 0.469178 255 178 96
-0.144629 -0.487414 0.259404 255 178 96
-0.413994 -0.485889 0.320103 255 178 96
-0.419908 -0.469322 0.328911 255 178 96
-0.413802 -0.485023 0.468311 255 178 96
-0.384739 -0.48627 0.0857079 255 178 96
-0.27557 -0.487448 0.099754 255 178 96
-0.420101 -0.485834 0.382153 255 178 96
0.174657 -0.460314 -0.136814 255 178 96
-0.344735 -0.486897 -0.0776869 255 178 96
-0.0833668 -0.479397 -0.263631 255 178 96
-0.420035 -0.485875 0.344269 255 178 96
-0.272485 -0.487345 -0.0212713 255 178 96
-0.37875 -0.486187 0.326297 255 178 96
-0.427391 -0.484167 0.338928 255 178 96
0.0557899 -0.476335 -0.165692 255 178 96
-0.354299 -0.486457 0.350015 255 178 96
-0.243048 -0.487359 0.173563 255 178 96
-0.313895 -0.486747 0.310296 255 178 96
-0.393841 -0.479435 0.140554 255 178 96
-0.381689 -0.486126 0.312033 255 178 96
-0.413559 -0.485855 0.297514 255 178 96
0.0546746 -0.473917 -0.217979 255 178 96
0.0391224 -0.488049 0.34801 255 178 96
-0.250137 -0.486965 0.302088 255 178 96
-0.015168 -0.488616 0.124694 255 178 96
-0.38256 -0.486077 0.254464 255 178 96
-0.339992 -0.486529 0.272709 255 178 96
-0.382097 -0.486507 0.0781305 255 178 96
-0.0193836 -0.487028 0.4528 255 178 96
-0.00672969 -0.48809 0.289137 255 178 96
-0.300011 -0.487099 -0.13498 255 178 96
-0.374474 -0.485864 0.433211 255 178 96
-0.362348 -0.486336 0.301077 255 178 96
-0.354565 -0.487032 0.0314884 255 178 96
-0.257546 -0.485721 0.473939 255 178 96
0.0362033 -0.487962 0.403391 255 178 96
-0.400706 -0.485474 0.460371 255 178 96
-0.415643 -0.485814 0.401997 255 178 96
-0.250809 -0.487385 -0.0884377 255 178 96
-0.0977387 -0.488182 0.103774 255 178 96
-0.435566 -0.48383 0.394346 255 178 96
-0.412835 -0.483715 0.271816 255 178 96
-0.361301 -0.486348 0.273151 255 178 96
-0.411896 -0.485894 0.376825 255 178 96
-0.27732 -0.486219 0.426594 255 178 96
-0.391507 -0.475558 0.479374 255 178 96
-0.362378 -0.486445 0.222871 255 178 96
-0.412919 -0.481956 0.271166 255 178 96
-0.0465059 -0.486596 0.466831 255 178 96
-0.0180343 -0.449983 -0.214697 255 178 96
-0.423966 -0.48539 0.448656 255 178 96
-0.363995 -0.487035 0.0960703 255 178 96
-0.387782 -0.486291 0.209794 255 178 96
-0.381849 -0.485966 0.420557 255 178 96
-0.252175 -0.487529 0.108565 255 178 96
-0.274556 -0.487373 -0.00288704 255 178 96
-0.393567 -0.48586 0.248494 255 178 96
-0.370968 -0.486683 -0.0127902 255 178 96
-0.385041 -0.485506 0.464527 255 178 96
-0.430183 -0.47164 0.455776 255 178 96
-0.410385 -0.447272 0.470208 255 178 96
-0.401068 -0.485773 0.225322 255 178 96
-0.425217 -0.485605 0.418275 255 178 96
-0.428748 -0.458265 0.450627 255 178 96
-0.00519622 -0.449224 -0.191796 255 178 96
-0.392127 -0.486056 0.352492 255 178 96
-0.346041 -0.485355 0.478359 255 178 96
-0.399146 -0.474537 0.214768 255 178 96
-0.359964 -0.486413 0.351799 255 178 96
-0.265183 -0.486917 0.301584 255 178 96
-0.400024 -0.485093 0.476469 255 178 96
-0.146879 -0.487975 -0.0465717 255 178 96
-0.261689 -0.4874 0.149739 255 178 96
-0.426636 -0.484592 0.342361 255 178 96
-0.380971 -0.486566 0.0808107 255 178 96
-0.071187 -0.48733 0.391455 255 178 96
-0.286878 -0.487151 -0.116544 255 178 96
-0.367514 -0.485159 0.479823 255 178 96
-0.40272 -0.485744 0.240621 255 178 96
-0.382681 -0.48587 0.0372036 255 178 96
0.124314 -0.45447 -0.119703 255 178 96
-0.0102659 -0.436208 -0.0494938 255 178 96
-0.399203 -0.485806 0.42604 255 178 96
-0.371354 -0.486872 0.0715571 255 178 96
0.064614 -0.478228 -0.119378 255 178 96
-0.403664 -0.484057 0.235752 255 178 96
-0.410733 -0.484177 0.264246 255 178 96
-0.288857 -0.485584 0.480174 255 178 96
-0.327903 -0.487085 -0.0536357 255 178 96
-0.423112 -0.481735 0.317206 255 178 96
0.10168 -0.446389 -0.0544005 255 178 96
-0.123537 -0.48719 0.365774 255 178 96
-0.423226 -0.461247 0.390365 255 178 96
-0.288827 -0.487392 0.049704 255 178 96
-0.329839 -0.486949 -0.140964 255 178 96
-0.422572 -0.473996 0.343362 255 178 96
-0.346484 -0.487182 0.0906734 255 178 96
-0.431335 -0.484248 0.371208 255 178 96
-0.381241 -0.486552 0.0796407 255 178 96
-0.164284 -0.4863 0.45283 255 178 96
-0.256218 -0.485919 0.451738 255 178 96
0.00756634 -0.488708 0.122711 255 178 96
-0.18644 -0.486148 0.457228 255 178 96
-0.355655 -0.487051 0.126449 255 178 96
0.0863924 -0.467351 -0.265276 255 178 96
-0.110483 -0.487399 0.31699 255 178 96
0.0218337 -0.461152 -0.304525 255 178 96
-0.43603 -0.481531 0.392813 255 178 96
-0.305267 -0.487283 0.00627353 255 178 96
-0.420308 -0.485646 0.427439 255 178 96
-0.425545 -0.485573 0.426209 255 178 96
-0.426784 -0.466741 0.463 255 178 96
-0.38539 -0.486272 0.0976262 255 178 96
-0.428104 -0.485316 0.372943 255 178 96
-0.159399 -0.486764 0.404756 255 178 96
-0.344451 -0.485583 0.458299 255 178 96
-0.0832928 -0.487705 0.260483 255 178 96
-0.35611 -0.486742 -0.0775085 255 178 96
-0.195617 -0.486201 0.445387 255 178 96
-0.231278 -0.486692 0.395593 255 178 96
-0.0127821 -0.488316 0.172018 255 178 96
-0.147223 -0.480755 -0.124341 255 178 96
-0.270457 -0.486954 0.219105 255 178 96
-0.051515 -0.487657 0.338978 255 178 96
-0.392881 -0.486053 0.339423 255 178 96
-0.395954 -0.485384 0.468564 255 178 96
-0.411179 -0.485893 0.328771 255 178 96
-0.424953 -0.485738 0.379062 255 178 96
-0.41486 -0.429551 0.450846 255 178 96
0.173842 -0.478512 -0.027234 255 178 96
-0.141461 -0.487435 0.254626 255 178 96
-0.340046 -0.486523 0.255771 255 178 96
-0.106914 -0.486151 0.470699 255 178 96
-0.418325 -0.441859 0.463349 255 178 96
-0.176408 -0.487789 0.100996 255 178 96
-0.399488 -0.471232 0.212392 255 178 96
-0.31386 -0.487183 0.152987 255 178 96
-0.152311 -0.486063 0.470321 255 178 96
-0.120314 -0.486652 0.436657 255 178 96
-0.315662 -0.486185 0.421691 255 178 96
-0.311958 -0.485545 0.467642 255 178 96
-0.414248 -0.439709 0.373287 255 178 96
0.0522003 -0.488594 0.173765 255 178 96
0.0885721 -0.469893 -0.244012 255 178 96
-0.314373 -0.486702 0.258094 255 178 96
-0.416577 -0.485844 0.38843 255 178 96
-0.427652 -0.48082 0.34891 255 178 96
-0.413403 -0.43106 0.438581 255 178 96
-0.402748 -0.485242 0.470014 255 178 96
-0.239135 -0.485762 0.477843 255 178 96
-0.294234 -0.487075 0.195909 255 178 96
-0.277197 -0.485642 0.480036 255 178 96
-0.190991 -0.48764 0.125689 255 178 96
-0.393502 -0.486246 0.203027 255 178 96
-0.322305 -0.485538 0.464963 255 178 96
-0.428611 -0.470546 0.391296 255 178 96
-0.374608 -0.486766 0.0520047 255 178 96
-0.0923693 -0.488061 0.127322 255 178 96
-0.398825 -0.485932 0.314222 255 178 96
0.0383322 -0.458117 -0.238872 255 178 96
-0.316156 -0.486712 0.296756 255 178 96
-0.368445 -0.486533 -0.0623738 255 178 96
-0.2739 -0.486398 0.415534 255 178 96
-0.339902 -0.485505 0.463744 255 178 96
-0.415622 -0.485593 0.443417 255 178 96
-0.426532 -0.480335 0.346415 255 178 96
-0.289123 -0.486263 0.42187 255 178 96
-0.424305 -0.4837 0.322338 255 178 96
-0.408768 -0.485785 0.296962 255 178 96
-0.0227979 -0.480454 0.00394201 255 178 96
0.0470483 -0.488275 0.290681 255 178 96
-0.109138 -0.487636 0.225727 255 178 96
-0.366173 -0.486834 0.174966 255 178 96
-0.425557 -0.480203 0.341877 255 178 96
-0.236742 -0.487533 0.123944 255 178 96
-0.413804 -0.433025 0.460365 255 178 96
-0.124046 -0.48755 0.235325 255 178 96
-0.35089 -0.471681 0.477811 255 178 96
-0.351816 -0.48679 -0.0780968 255 178 96
-0.0416023 -0.488314 0.129076 255 178 96
-0.433854 -0.484407 0.397489 255 178 96
-0.263871 -0.486416 0.416831 255 178 96
0.0549798 -0.488349 0.269332 255 178 96
-0.0324821 -0.48672 0.461417 255 178 96
-0.273704 -0.487224 -0.100361 255 178 96
-0.392129 -0.48442 0.167936 255 178 96
-0.365606 -0.486309 0.390207 255 178 96
-0.36405 -0.486162 0.412075 255 178 96
0.0498539 -0.463645 -0.285805 255 178 96
-0.0962342 -0.487335 0.367505 255 178 96
-0.349633 -0.486456 0.282807 255 178 96
-0.328794 -0.485438 0.472403 255 178 96
-0.254531 -0.486689 0.383678 255 178 96
-0.377274 -0.486642 0.0502011 255 178 96
-0.404913 -0.485713 0.261851 255 178 96
-0.283055 -0.486885 0.230829 255 178 96
-0.35767 -0.486382 0.268362 255 178 96
-0.297983 -0.486364 0.413812 255 178 96
-0.416966 -0.447706 0.407695 255 178 96
-0.406872 -0.485689 0.253325 255 178 96
-0.0152747 -0.481843 -0.0325526 255 178 96
-0.288296 -0.487254 0.178546 255 178 96
-0.153435 -0.486181 0.465159 255 178 96
-0.394891 -0.486124 0.190304 255 178 96
-0.19055 -0.485885 0.476678 255 178 96
-0.0637538 -0.482034 -0.182856 255 178 96
-0.0963474 -0.486711 0.450283 255 178 96
-0.114028 -0.480595 -0.0918257 255 178 96
-0.118536 -0.486446 0.457431 255 178 96
-0.112586 -0.48728 0.000708274 255 178 96
-0.431103 -0.475565 0.39213 255 178 96
-0.313027 -0.486271 0.416608 255 178 96
-0.241102 -0.486689 0.390926 255 178 96
-0.141302 -0.486296 0.460418 255 178 96
-0.428637 -0.4815 0.348967 255 178 96
-0.420924 -0.485376 0.315786 255 178 96
-0.334426 -0.48704 -0.0529898 255 178 96
-0.323387 -0.487277 0.0478433 255 178 96
0.0995814 -0.488414 0.242436 255 178 96
-0.364337 -0.486759 -0.0194578 255 178 96
-0.396523 -0.486056 0.199332 255 178 96
-0.0792715 -0.486928 0.43478 255 178 96
-0.334044 -0.486903 -0.147838 255 178 96
-0.42492 -0.485785 0.362573 255 178 96
-0.288311 -0.487151 -0.131974 255 178 96
-0.197069 -0.487823 -0.0596353 255 178 96
-0.368566 -0.485466 0.467442 255 178 96
-0.416729 -0.48528 0.460296 255 178 96
-0.30865 -0.486508 0.401392 255 178 96
-0.421537 -0.480093 0.321083 255 178 96
-0.207164 -0.487738 0.0667829 255 178 96
-0.414314 -0.485726 0.427287 255 178 96
-0.377639 -0.485726 0.442834 255 178 96
-0.252973 -0.486955 0.302606 255 178 96
-0.344794 -0.487138 0.112965 255 178 96
-0.434996 -0.482593 0.376118 255 178 96
-0.342237 -0.48652 0.238479 255 178 96
-0.417775 -0.485889 0.350882 255 178 96
0.154258 -0.488918 0.23911 255 178 96
-0.208991 -0.487492 0.153318 255 178 96
0.0354589 -0.488014 0.32858 255 178 96
-0.387144 -0.4713 0.477923 255 178 96
-0.42684 -0.480586 0.34614 255 178 96
0.0207372 -0.482207 -0.0184749 255 178 96
-0.351932 -0.486811 -0.069921 255 178 96
-0.426837 -0.485599 0.412719 255 178 96
-0.354042 -0.486903 -0.031035 255 178 96
-0.393289 -0.480729 0.136557 255 178 96
-0.306992 -0.487076 -0.143101 255 178 96
-0.377598 -0.486807 0.096024 255 178 96
-0.43148 -0.485066 0.406381 255 178 96
-0.403331 -0.485216 0.470497 255 178 96
-0.31726 -0.485461 0.474844 255 178 96
-0.417597 -0.485898 0.323576 255 178 96
-0.299705 -0.486795 0.283904 255 178 96
-0.242062 -0.487015 0.248723 255 178 96
-0.427691 -0.485023 0.358976 255 178 96
-0.418146 -0.485895 0.329631 255 178 96
-0.401206 -0.485978 0.339193 255 178 96
-0.435835 -0.482979 0.422989 255 178 96
-0.280047 -0.485758 0.459872 255 178 96
-0.39327 -0.485286 0.182017 255 178 96
0.00133961 -0.487877 0.33306 255 178 96
-0.309521 -0.485527 0.470368 255 178 96
-0.434757 -0.477954 0.428889 255 178 96
-0.0839955 -0.486481 0.472253 255 178 96
-0.29973 -0.487158 -0.0785097 255 178 96
-0.225508 -0.487043 0.277658 255 178 96
-0.154847 -0.486658 0.418676 255 178 96
-0.376357 -0.486481 0.0114547 255 178 96
-0.241408 -0.48752 -0.0353276 255 178 96
-0.0300731 -0.482181 0.469331 255 178 96
-0.217566 -0.487761 0.0163074 255 178 96
-0.284282 -0.487312 -0.0181995 255 178 96
-0.371031 -0.486638 -0.0312798 255 178 96
-0.087354 -0.486791 0.449018 255 178 96
-0.253193 -0.487407 -0.0361848 255 178 96
-0.108213 -0.487315 0.354876 255 178 96
0.0906089 -0.478389 -0.0937078 255 178 96
-0.223479 -0.486696 0.398315 255 178 96
-0.398559 -0.486081 0.208591 255 178 96
-0.132653 -0.486412 0.452548 255 178 96
-0.211675 -0.487707 0.0804031 255 178 96
-0.377129 -0.485483 0.466205 255 178 96
-0.418135 -0.483243 0.293254 255 178 96
-0.42065 -0.482507 0.467788 255 178 96
-0.0639756 -0.48705 0.43723 255 178 96
-0.175418 -0.484124 -0.139111 255 178 96
-0.403825 -0.48041 0.235049 255 178 96
-0.0626431 -0.487616 0.336769 255 178 96
-0.422789 -0.485463 0.447356 255 178 96
-0.397367 -0.485977 0.381281 255 178 96
0.0885095 -0.48832 0.29027 255 178 96
-0.12607 -0.481441 -0.213312 255 178 96
-0.385565 -0.486002 0.4117 255 178 96
-0.348414 -0.486828 0.189339 255 178 96
-0.157295 -0.48734 0.257971 255 178 96
-0.270636 -0.487452 0.0504169 255 178 96
-0.431228 -0.482043 0.359574 255 178 96
0.115525 -0.447762 -0.0574409 255 178 96
-0.378552 -0.486762 0.0839643 255 178 96
-0.259262 -0.487511 0.0803267 255 178 96
-0.188954 -0.487452 0.170833 255 178 96
-0.200999 -0.486336 0.43296 255 178 96
-0.395689 -0.485183 0.47606 255 178 96
-0.429926 -0.485395 0.404052 255 178 96
-0.341374 -0.486529 0.314264 255 178 96
-0.0200473 -0.488268 0.171759 255 178 96
-0.329423 -0.486624 0.302118 255 178 96
-0.358475 -0.486697 -0.0871872 255 178 96
-0.321959 -0.486706 0.318023 255 178 96
0.060587 -0.488335 0.266719 255 178 96
-0.153664 -0.485941 0.475984 255 178 96
-0.0548158 -0.487653 0.335917 255 178 96
0.0872322 -0.488424 0.20943 255 178 96
-0.171688 -0.485923 0.475594 255 178 96
-0.430407 -0.472147 0.40007 255 178 96
-0.4251 -0.48305 0.325514 255 178 96
-0.398692 -0.485786 0.273497 255 178 96
-0.198534 -0.486761 0.395407 255 178 96
-0.339665 -0.486549 0.31771 255 178 96
-0.298976 -0.486798 0.288192 255 178 96
0.0452043 -0.474135 -0.231259 255 178 96
-0.23279 -0.486106 0.440722 255 178 96
-0.150267 -0.487282 0.30557 255 178 96
-0.424125 -0.472757 0.35889 255 178 96
-0.35495 -0.48641 0.282946 255 178 96
-0.192058 -0.48794 0.0138692 255 178 96
-0.423444 -0.484869 0.324624 255 178 96
-0.368376 -0.485548 0.460802 255 178 96
-0.394342 -0.484839 0.189191 255 178 96
-0.408188 -0.462915 0.475507 255 178 96
-0.414081 -0.431896 0.458566 255 178 96
-0.391399 -0.485893 0.250248 255 178 96
0.102799 -0.467903 -0.249164 255 178 96
-0.404904 -0.42433 0.415922 255 178 96
-0.0144174 -0.475261 -0.272568 255 178 96
-0.413241 -0.440856 0.380499 255 178 96
-0.235807 -0.486631 0.403163 255 178 96
0.115635 -0.487724 0.187037 255 178 96
-0.310854 -0.487119 -0.0866818 255 178 96
-0.4244 -0.4554 0.424267 255 178 96
-0.394785 -0.409884 0.415539 255 178 96
0.0179939 -0.488668 0.115286 255 178 96
-0.0519015 -0.487918 0.260242 255 178 96
-0.390657 -0.48607 0.353439 255 178 96
-0.0369387 -0.480192 -0.0074156 255 178 96
-0.413376 -0.465049 0.28989 255 178 96
-0.387412 -0.486408 0.198174 255 178 96
0.0298717 -0.437493 -0.0237384 255 178 96
-0.396225 -0.486067 0.197757 255 178 96
-0.397246 -0.47348 0.191152 255 178 96
-0.415253 -0.443015 0.375588 255 178 96
-0.2124 -0.487544 0.136607 255 178 96
-0.420918 -0.485854 0.340224 255 178 96
-0.403579 -0.485583 0.450728 255 178 96
-0.230845 -0.487469 0.145958 255 178 96
-0.0508115 -0.482053 -0.162832 255 178 96
-0.249326 -0.487481 0.131524 255 178 96
-0.381725 -0.486618 0.0946507 255 178 96
-0.274245 -0.487228 -0.156993 255 178 96
-0.429773 -0.46501 0.426053 255 178 96
-0.386891 -0.486064 0.314413 255 178 96
-0.329529 -0.487085 0.15177 255 178 96
0.0525936 -0.488163 0.321973 255 178 96
-0.414116 -0.435612 0.429177 255 178 96
-0.375665 -0.464853 0.476264 255 178 96
-0.171953 -0.486905 0.376236 255 178 96
-0.411984 -0.434226 0.422708 255 178 96
-0.319764 -0.48727 0.0945621 255 178 96
-0.10655 -0.421373 -6.42389e-05 255 178 96
-0.237604 -0.487512 -0.0854727 255 178 96
-0.429366 -0.478053 0.377449 255 178 96
-0.408131 -0.459341 0.474476 255 178 96
-0.415917 -0.485887 0.374221 255 178 96
-0.0819493 -0.487573 0.321071 255 178 96
-0.355196 -0.486395 0.25614 255 178 96
-0.391953 -0.484091 0.158199 255 178 96
-0.141535 -0.487369 -0.0438848 255 178 96
-0.436369 -0.483847 0.410953 255 178 96
-0.399967 -0.485848 0.294868 255 178 96
-0.392475 -0.48431 0.171975 255 178 96
-0.0782887 -0.488524 0.0474965 255 178 96
0.049132 -0.488459 0.191661 255 178 96
-0.159434 -0.487522 0.182606 255 178 96
-0.406952 -0.484105 0.249295 255 178 96
-0.411942 -0.485854 0.306378 255 178 96
-0.219488 -0.48701 0.315541 255 178 96
-0.378154 -0.484888 0.480972 255 178 96
0.014578 -0.472655 -0.284347 255 178 96
-0.423126 -0.481052 0.322737 255 178 96
-0.0788928 -0.487306 0.390469 255 178 96
-0.34257 -0.48635 0.40406 255 178 96
-0.222753 -0.486205 0.43665 255 178 96
-0.244958 -0.485762 0.48172 255 178 96
-0.387097 -0.485929 0.119148 255 178 96
0.193433 -0.464768 -0.143159 255 178 96
-0.318667 -0.486971 0.193744 255 178 96
-0.169159 -0.488021 0.0376771 255 178 96
-0.393945 -0.483792 0.186772 255 178 96
-0.424006 -0.471006 0.361273 255 178 96
0.0088976 -0.487783 0.371199 255 178 96
-0.146684 -0.487132 0.340658 255 178 96
-0.407281 -0.485747 0.279885 255 178 96
-0.400008 -0.472557 0.218395 255 178 96
-0.0118154 -0.488083 0.286274 255 178 96
-0.384772 -0.486053 0.26339 255 178 96
0.0653096 -0.482723 -0.0268766 255 178 96
-0.25841 -0.487399 -0.0207765 255 178 96
-0.383329 -0.486236 0.224224 255 178 96
0.0694875 -0.473065 -0.215231 255 178 96
-0.405423 -0.485332 0.465317 255 178 96
-0.332486 -0.486589 0.375801 255 178 96
-0.316811 -0.487038 -0.150094 255 178 96
-0.424618 -0.467135 0.466257 255 178 96
-0.315888 -0.48593 0.441375 255 178 96
-0.213194 -0.487389 0.180156 255 178 96
0.0454737 -0.482532 -0.0221087 255 178 96
-0.403562 -0.485763 0.430261 255 178 96
-0.299269 -0.487266 -0.013246 255 178 96
-0.371324 -0.485656 0.450881 255 178 96
-0.363967 -0.486409 -0.101627 255 178 96
-0.268861 -0.487377 -0.0107832 255 178 96
-0.315238 -0.487148 0.174834 255 178 96
-0.267632 -0.487176 0.196624 255 178 96
-0.3258 -0.487025 -0.116625 255 178 96
0.0916064 -0.488373 0.224781 255 178 96
-0.407714 -0.465232 0.476303 255 178 96
-0.201056 -0.486994 0.337715 255 178 96
-0.104873 -0.487192 0.387688 255 178 96
-0.412322 -0.485905 0.37105 255 178 96
-0.300219 -0.485892 0.445883 255 178 96
0.161121 -0.488767 0.215784 255 178 96
-0.363063 -0.471334 0.477599 255 178 96
-0.356384 -0.486814 0.18547 255 178 96
-0.323241 -0.485423 0.476467 255 178 96
-0.414178 -0.436511 0.362319 255 178 96
-0.400967 -0.485785 0.287988 255 178 96
-0.318404 -0.483694 0.480868 255 178 96
-0.395189 -0.485762 0.433236 255 178 96
-0.383925 -0.486108 0.0682053 255 178 96
0.0618688 -0.488289 0.278645 255 178 96
-0.412391 -0.440261 0.386095 255 178 96
-0.413995 -0.481739 0.27587 255 178 96
-0.108798 -0.48734 0.345432 255 178 96
-0.341505 -0.486561 0.352481 255 178 96
-0.320435 -0.486655 0.367903 255 178 96
0.0291368 -0.487958 0.386239 255 178 96
-0.369334 -0.485619 0.454173 255 178 96
-0.389506 -0.486489 0.165505 255 178 96
-0.365581 -0.486355 0.350989 255 178 96
-0.105386 -0.486481 0.458054 255 178 96
-0.21511 -0.488626 -0.151005 255 178 96
-0.0162257 -0.487575 0.37524 255 178 96
0.475334 -0.396294 -0.00835199 255 139 72
0.47974 -0.323909 -0.0362972 255 139 72
0.0801406 -0.128999 0.198125 255 139 72
0.115435 -0.346293 0.135687 255 139 72
0.121064 -0.191376 0.150559 255 139 72
0.470008 -0.381958 0.0148931 255 139 72
0.10317 -0.33826 0.321509 255 139 72
0.214504 -0.167303 0.0346022 255 139 72
0.419513 -0.354841 0.0760743 255 139 72
0.464535 -0.410426 0.0391323 255 139 72
0.466139 -0.422667 0.0353689 255 139 72
0.426123 -0.17458 -0.0337689 255 139 72
0.462074 -0.395155 0.0433046 255 139 72
0.129426 -0.193069 0.13491 255 139 72
0.0759386 -0.121493 0.211583 255 139 72
0.48472 -0.263214 -0.0294865 255 139 72
0.457625 -0.226736 0.0141835 255 139 72
0.29204 -0.254653 0.0919505 255 139 72
0.406351 -0.241113 0.0728369 255 139 72
0.0785538 -0.202802 0.230655 255 139 72
0.0764276 -0.426594 -0.0727288 255 139 72
0.106818 -0.143272 0.10477 255 139 72
0.34069 -0.159186 0.0373961 255 139 72
0.475842 -0.406817 -0.0233274 255 139 72
0.263898 -0.169159 0.0838352 255 139 72
0.478954 -0.348852 -0.0301705 255 139 72
0.0833915 -0.130243 0.296114 255 139 72
0.221503 -0.401472 -0.0481932 255 139 72
0.411105 -0.188757 0.0494492 255 139 72
0.421258 -0.240515 0.0682742 255 139 72
0.142709 -0.415578 0.0553697 255 139 72
0.144937 -0.168438 0.0435334 255 139 72
0.0278574 -0.389818 -0.0910962 255 139 72
0.470418 -0.296263 0.0127769 255 139 72
0.454068 -0.373884 0.0582655 255 139 72
0.479846 -0.319813 -0.0370295 255 139 72
0.375749 -0.167539 0.0413996 255 139 72
0.109722 -0.426645 0.0231034 255 139 72
0.401945 -0.266548 0.0746004 255 139 72
0.398272 -0.338546 0.0814606 255 139 72
0.476321 -0.193329 -0.051327 255 139 72
0.394118 -0.167141 0.00556539 255 139 72
0.142678 -0.229894 0.000895887 255 139 72
0.458083 -0.267657 0.0410535 255 139 72
0.261967 -0.20933 -0.0544183 255 139 72
0.06624 -0.426817 0.053491 255 139 72
0.431542 -0.177523 -0.0160976 255 139 72
0.131652 -0.393736 0.111965 255 139 72
0.25305 -0.270586 0.100992 255 139 72
0.47706 -0.251536 -0.00650036 255 139 72
0.467189 -0.209852 -0.0113195 255 139 72
0.416189 -0.175152 -0.0563363 255 139 72
0.408461 -0.20415 0.0646396 255 139 72
0.108416 -0.24268 0.308743 255 139 72
0.483259 -0.23703 -0.0355323 255 139 72
0.101494 -0.173728 0.207024 255 139 72
0.452725 -0.346974 0.0578578 255 139 72
0.167598 -0.165601 0.103865 255 139 72
0.448504 -0.231821 0.0401385 255 139 72
0.472087 -0.185746 -0.066561 255 139 72
0.0939943 -0.140416 0.228704 255 139 72
0.112624 -0.214907 0.0899588 255 139 72
0.0909357 -0.392987 0.151655 255 139 72
0.0969986 -0.394973 0.291076 255 139 72
0.385413 -0.293372 0.077409 255 139 72
0.0705302 -0.32612 0.213046 255 139 72
0.483279 -0.276916 -0.0323949 255 139 72
0.150591 -0.425082 -0.100814 255 139 72
0.104361 -0.313926 0.293585 255 139 72
0.374513 -0.164628 0.0285393 255 139 72
0.0560199 -0.423944 -0.131766 255 139 72
0.107627 -0.186007 0.299048 255 139 72
0.138043 -0.198074 0.00751938 255 139 72
0.433633 -0.188393 0.0141012 255 139 72
0.0168738 -0.422978 0.13479 255 139 72
0.473779 -0.409528 -0.00185488 255 139 72
0.117187 -0.42607 -0.00597488 255 139 72
0.10243 -0.350184 0.342312 255 139 72
0.475878 -0.227016 -0.0197379 255 139 72
0.0888555 -0.36223 0.151971 255 139 72
0.135231 -0.186855 0.129618 255 139 72
0.0876348 -0.410416 0.199316 255 139 72
0.315753 -0.160779 0.00249847 255 139 72
0.470535 -0.424891 0.012346 255 139 72
0.161221 -0.170115 0.0451255 255 139 72
0.0896485 -0.147799 0.370695 255 139 72
0.362074 -0.162469 0.0343129 255 139 72
0.465257 -0.37873 0.0291154 255 139 72
0.101796 -0.24038 0.214186 255 139 72
0.107241 -0.327142 0.321006 255 139 72
0.307041 -0.175864 -0.0288653 255 139 72
0.133028 -0.261646 -0.0551597 255 139 72
0.389726 -0.168131 -0.0245392 255 139 72
0.0843103 -0.378647 0.174567 255 139 72
0.409898 -0.412234 0.0926867 255 139 72
0.107295 -0.264445 0.32597 255 139 72
0.158783 -0.261438 -0.0420935 255 139 72
0.39908 -0.190474 0.0618386 255 139 72
0.108528 -0.170275 0.185665 255 139 72
0.463656 -0.265728 0.0221221 255 139 72
0.0875148 -0.326856 0.169305 255 139 72
0.242971 -0.233568 0.104827 255 139 72
0.0409584 -0.422721 0.152062 255 139 72
0.174324 -0.166944 0.102846 255 139 72
0.442234 -0.236002 0.0491369 255 139 72
0.443384 -0.228005 0.0424629 255 139 72
0.4688 -0.346367 0.0151334 255 139 72
0.436381 -0.17506 -0.0594267 255 139 72
0.410938 -0.314712 0.0746745 255 139 72
0.129097 -0.418301 0.0659397 255 139 72
0.0918672 -0.410546 0.148082 255 139 72
0.206964 -0.314968 -0.0755476 255 139 72
0.2282 -0.179908 0.0974568 255 139 72
0.308858 -0.160182 0.0577948 255 139 72
0.0901807 -0.312575 0.161802 255 139 72
0.473354 -0.316723 0.00750629 255 139 72
0.244719 -0.25977 0.103995 255 139 72
0.090242 -0.156898 0.37256 255 139 72
0.435663 -0.31909 0.0697245 255 139 72
0.0977483 -0.281669 0.155106 255 139 72
0.0146096 -0.415586 0.10967 255 139 72
0.0962097 -0.373042 0.359567 255 139 72
0.114056 -0.17004 0.17333 255 139 72
0.228269 -0.429435 0.0985963 255 139 72
0.460395 -0.256561 0.0280313 255 139 72
0.456239 -0.196677 -0.00571812 255 139 72
0.0908722 -0.301351 0.16977 255 139 72
0.185012 -0.163419 0.0981772 255 139 72
0.380793 -0.191326 0.0721398 255 139 72
0.1137 -0.295505 0.129506 255 139 72
0.108069 -0.242504 0.278559 255 139 72
0.456544 -0.177025 -0.0583046 255 139 72
0.164141 -0.255278 -0.0104987 255 139 72
0.0838244 -0.355032 0.187723 255 139 72
0.0956565 -0.188004 0.00917364 255 139 72
0.0517451 -0.422089 -0.0983319 255 139 72
0.142155 -0.423837 -0.0120323 255 139 72
0.12817 -0.38974 0.130484 255 139 72
0.159733 -0.150125 0.0930285 255 139 72
0.425837 -0.243942 0.0662639 255 139 72
0.47104 -0.273402 0.00799857 255 139 72
0.46619 -0.413525 0.0289421 255 139 72
0.412733 -0.198596 -0.103688 255 139 72
0.471718 -0.369884 0.0121215 255 139 72
0.0922944 -0.326404 0.147681 255 139 72
0.458238 -0.299023 0.0436943 255 139 72
0.360839 -0.219389 -0.114575 255 139 72
0.15537 -0.42522 -0.101533 255 139 72
0.284613 -0.407463 0.0933615 255 139 72
0.0981608 -0.246635 0.348908 255 139 72
0.0990173 -0.142472 0.282559 255 139 72
0.258375 -0.253063 0.100146 255 139 72
0.00688197 -0.377031 -0.0346402 255 139 72
0.462996 -0.325225 0.0290825 255 139 72
0.237255 -0.198915 0.103578 255 139 72
0.438124 -0.305833 0.0685374 255 139 72
0.100258 -0.426622 -0.0351293 255 139 72
0.0859937 -0.380687 0.223175 255 139 72
0.358438 -0.160378 0.00181187 255 139 72
0.203541 -0.351552 0.0980317 255 139 72
0.103108 -0.158472 0.177794 255 139 72
0.475907 -0.19131 -0.0550442 255 139 72
0.429292 -0.182975 0.00464744 255 139 72
0.0954706 -0.139792 0.251913 255 139 72
0.310408 -0.172613 0.0727805 255 139 72
0.281381 -0.176686 -0.0219724 255 139 72
0.460164 -0.177901 -0.0593838 255 139 72
0.126839 -0.406337 0.114294 255 139 72
0.10507 -0.291478 0.279202 255 139 72
0.403173 -0.313892 0.076215 255 139 72
0.0957707 -0.303836 0.361474 255 139 72
0.484743 -0.259117 -0.0327502 255 139 72
0.468438 -0.302012 0.0146718 255 139 72
0.193466 -0.149015 0.0763306 255 139 72
0.320728 -0.155369 0.0269042 255 139 72
0.48396 -0.226401 -0.0494927 255 139 72
0.373108 -0.185893 0.0709556 255 139 72
0.159286 -0.175268 0.110536 255 139 72
0.252023 -0.192678 -0.0257912 255 139 72
0.0956712 -0.152507 0.352574 255 139 72
0.037578 -0.423749 0.131408 255 139 72
0.00426103 -0.380447 -0.00622535 255 139 72
0.102789 -0.158019 0.276237 255 139 72
0.089984 -0.136521 0.189789 255 139 72
0.286906 -0.18564 -0.0360784 255 139 72
0.477864 -0.227759 -0.0243346 255 139 72
0.186417 -0.220001 -0.0184635 255 139 72
0.371948 -0.163062 0.021298 255 139 72
0.457641 -0.179127 -0.0738715 255 139 72
0.373716 -0.241208 0.0757815 255 139 72
0.0748998 -0.426839 -0.0567028 255 139 72
0.470272 -0.36836 0.0146157 255 139 72
0.093467 -0.377709 0.263813 255 139 72
0.265712 -0.29404 0.0956669 255 139 72
0.252282 -0.258594 0.102027 255 139 72
0.388991 -0.175685 -0.0456667 255 139 72
0.107732 -0.299585 0.320697 255 139 72
0.0733266 -0.415633 0.1493 255 139 72
0.333689 -0.183591 0.0735002 255 139 72
0.144242 -0.190863 0.0198774 255 139 72
0.161126 -0.262489 -0.0214464 255 139 72
0.089225 -0.160334 0.064494 255 139 72
0.0971864 -0.422844 -0.175716 255 139 72
0.405935 -0.191638 0.057546 255 139 72
0.383427 -0.181779 0.0622704 255 139 72
0.0867796 -0.134275 0.155303 255 139 72
0.0935467 -0.395807 0.259529 255 139 72
0.419105 -0.295603 0.0729745 255 139 72
0.069163 -0.198347 0.264613 255 139 72
0.3435 -0.432158 0.0950887 255 139 72
0.381973 -0.183748 0.0653536 255 139 72
0.213902 -0.213785 -0.0257813 255 139 72
0.264421 -0.251775 -0.108794 255 139 72
0.479442 -0.346163 -0.0258127 255 139 72
0.481382 -0.215845 -0.0448175 255 139 72
0.0992658 -0.435613 0.164103 255 139 72
0.187283 -0.159433 0.0605042 255 139 72
0.474939 -0.392529 -0.0035371 255 139 72
0.35934 -0.161267 0.0282586 255 139 72
0.448767 -0.263022 0.0569872 255 139 72
0.0967156 -0.174103 0.0115581 255 139 72
0.459122 -0.266198 0.0375975 255 139 72
0.257321 -0.158296 0.0778726 255 139 72
0.186895 -0.198986 0.0124817 255 139 72
0.104413 -0.193196 0.00161248 255 139 72
0.379706 -0.185814 0.0681206 255 139 72
0.09119 -0.383505 0.373489 255 139 72
0.097909 -0.425223 0.079088 255 139 72
0.0777182 -0.426066 0.078976 255 139 72
0.0284165 -0.420295 0.0834285 255 139 72
0.239043 -0.191779 0.100484 255 139 72
0.170602 -0.379618 0.096298 255 139 72
0.128757 -0.167442 0.13887 255 139 72
0.317465 -0.342926 0.0927014 255 139 72
0.356843 -0.227074 -0.126033 255 139 72
0.0937715 -0.133811 0.33383 255 139 72
0.0890733 -0.42342 -0.167957 255 139 72
0.482245 -0.287931 -0.0336193 255 139 72
0.0577225 -0.422532 -0.166061 255 139 72
0.403419 -0.170471 0.00565796 255 139 72
0.368186 -0.16543 0.0412028 255 139 72
0.148918 -0.36344 0.0798688 255 139 72
0.376867 -0.201812 -0.0925703 255 139 72
0.100802 -0.351217 0.292967 255 139 72
0.0977472 -0.276593 0.351937 255 139 72
0.0688624 -0.4244 0.121122 255 139 72
0.0881888 -0.407057 0.178266 255 139 72
0.0882941 -0.414039 0.201759 255 139 72
0.155978 -0.427011 0.116425 255 139 72
0.0956797 -0.378356 0.335176 255 139 72
0.483828 -0.262994 -0.0391152 255 139 72
0.0886134 -0.135422 0.168071 255 139 72
0.101723 -0.17358 0.334769 255 139 72
0.33328 -0.22904 0.0796763 255 139 72
0.294027 -0.1636 0.0705132 255 139 72
0.445238 -0.298222 0.0637629 255 139 72
0.101813 -0.265008 0.119071 255 139 72
0.465403 -0.404843 0.0341483 255 139 72
0.108544 -0.144812 0.140061 255 139 72
0.0916803 -0.41826 0.173868 255 139 72
0.479705 -0.200484 -0.056412 255 139 72
0.188787 -0.359934 0.0973625 255 139 72
0.183084 -0.218684 0.112841 255 139 72
0.160676 -0.42236 -0.0480839 255 139 72
0.225864 -0.153803 0.0614014 255 139 72
0.372967 -0.169349 -0.0320929 255 139 72
0.470447 -0.216296 -0.0140151 255 139 72
0.337191 -0.198806 0.0765849 255 139 72
0.107155 -0.240795 0.274495 255 139 72
0.123183 -0.161619 0.0449024 255 139 72
0.0965595 -0.321436 0.3633 255 139 72
0.39232 -0.270958 0.0744436 255 139 72
0.119602 -0.180412 0.170087 255 139 72
0.472358 -0.189555 -0.0397534 255 139 72
0.280129 -0.154545 0.0359268 255 139 72
0.264823 -0.171108 0.0846074 255 139 72
0.479691 -0.319727 -0.0390784 255 139 72
0.0942235 -0.300648 0.364553 255 139 72
0.0793667 -0.207173 0.224672 255 139 72
0.475596 -0.254006 -0.0033708 255 139 72
0.45302 -0.371944 0.0601509 255 139 72
0.282053 -0.224595 -0.0829194 255 139 72
0.0836882 -0.127408 0.24003 255 139 72
0.184247 -0.155356 0.0665887 255 139 72
0.19154 -0.304548 -0.078867 255 139 72
0.191075 -0.152944 0.0853336 255 139 72
0.222204 -0.368749 -0.0704042 255 139 72
0.0929235 -0.128953 0.288153 255 139 72
0.100543 -0.145977 0.312373 255 139 72
0.102103 -0.347025 0.344241 255 139 72
0.213751 -0.278247 0.105776 255 139 72
0.459452 -0.179188 -0.0713329 255 139 72
0.0859842 -0.145673 0.074203 255 139 72
0.310204 -0.158236 0.0531858 255 139 72
0.215714 -0.327717 0.0981568 255 139 72
0.480586 -0.293131 -0.0495225 255 139 72
0.104617 -0.19127 0.234164 255 139 72
0.0391321 -0.425894 0.0876791 255 139 72
0.410665 -0.205354 0.0630687 255 139 72
0.353322 -0.417568 0.0941899 255 139 72
0.480744 -0.204632 -0.0557245 255 139 72
0.130237 -0.177028 0.142207 255 139 72
0.174319 -0.204406 0.113608 255 139 72
0.108843 -0.276119 0.300411 255 139 72
0.0441698 -0.426434 -0.00327203 255 139 72
0.345494 -0.200676 -0.0780739 255 139 72
0.174866 -0.171419 0.104303 255 139 72
0.312533 -0.236487 -0.117585 255 139 72
0.116875 -0.219275 0.145108 255 139 72
0.176028 -0.376075 0.032797 255 139 72
0.405775 -0.308883 0.0749748 255 139 72
0.123949 -0.31759 0.11908 255 139 72
0.148105 -0.285888 0.114593 255 139 72
0.347511 -0.177915 -0.041994 255 139 72
0.480885 -0.205478 -0.0625986 255 139 72
0.0127605 -0.410341 0.0882471 255 139 72
0.463456 -0.404581 0.0411646 255 139 72
0.29181 -0.171815 -0.0191034 255 139 72
0.148483 -0.224128 0.120857 255 139 72
0.212455 -0.301727 0.10233 255 139 72
0.104028 -0.166505 0.190291 255 139 72
0.133268 -0.229689 -0.00841664 255 139 72
0.393427 -0.16996 0.0273763 255 139 72
0.113726 -0.378224 0.119073 255 139 72
0.0193639 -0.408559 0.0598283 255 139 72
0.148326 -0.318956 0.0490226 255 139 72
0.240906 -0.283185 0.10093 255 139 72
0.469212 -0.389972 0.0159339 255 139 72
0.456766 -0.383395 0.053991 255 139 72
0.16113 -0.428286 0.114896 255 139 72
0.0836996 -0.124941 0.338751 255 139 72
0.4623 -0.213937 -0.000110805 255 139 72
0.200825 -0.203988 0.109025 255 139 72
0.147607 -0.329557 0.104623 255 139 72
0.460207 -0.192857 -0.0145859 255 139 72
0.271956 -0.410672 0.0931804 255 139 72
0.070696 -0.426794 0.00791815 255 139 72
0.182259 -0.149483 0.0712509 255 139 72
0.0722139 -0.42685 0.0633579 255 139 72
0.0645561 -0.426644 0.0141651 255 139 72
0.345994 -0.159048 0.00690199 255 139 72
0.0940771 -0.154421 0.165793 255 139 72
0.471711 -0.409352 0.00597748 255 139 72
0.442487 -0.405534 0.0689477 255 139 72
0.474398 -0.37504 0.00517169 255 139 72
0.0927283 -0.399811 0.150128 255 139 72
0.0850624 -0.378402 0.209463 255 139 72
0.245269 -0.289982 0.0988341 255 139 72
0.0609457 -0.242162 0.257004 255 139 72
0.47539 -0.398004 -0.034457 255 139 72
0.367715 -0.221624 -0.121851 255 139 72
0.347454 -0.179278 -0.0438583 255 139 72
0.357515 -0.220438 -0.114677 255 139 72
0.122284 -0.209466 0.140073 255 139 72
0.116714 -0.198752 0.154121 255 139 72
0.476676 -0.433782 -0.0149404 255 139 72
0.0942158 -0.420678 0.166046 255 139 72
0.138007 -0.242817 0.0418923 255 139 72
0.319842 -0.174116 -0.0303329 255 139 72
0.234537 -0.174685 0.0942848 255 139 72
0.383229 -0.167291 0.0310831 255 139 72
0.16455 -0.412148 0.029667 255 139 72
0.0405372 -0.424512 0.00567406 255 139 72
0.468694 -0.222197 -0.00780447 255 139 72
0.224408 -0.375281 -0.0773621 255 139 72
0.463855 -0.19491 -0.0160705 255 139 72
0.393205 -0.172451 -0.040713 255 139 72
0.094132 -0.418622 0.322975 255 139 72
0.06744 -0.17374 0.307289 255 139 72
0.37532 -0.164086 0.0227303 255 139 72
0.112059 -0.420511 0.0851821 255 139 72
0.458646 -0.403775 0.0536024 255 139 72
0.0997779 -0.233168 0.345309 255 139 72
0.202614 -0.31051 -0.0705658 255 139 72
0.452379 -0.198881 0.000671737 255 139 72
0.209219 -0.238838 0.110459 255 139 72
0.0544761 -0.359933 0.240621 255 139 72
0.274763 -0.294351 0.094843 255 139 72
0.0862212 -0.161968 0.379682 255 139 72
0.151507 -0.195859 0.117763 255 139 72
0.471439 -0.269587 0.0062754 255 139 72
0.201503 -0.154441 0.0850153 255 139 72
0.0874712 -0.138475 0.110602 255 139 72
0.101735 -0.184365 0.339116 255 139 72
0.19321 -0.161604 0.0954666 255 139 72
0.120608 -0.185784 0.157888 255 139 72
0.39597 -0.397919 0.0928883 255 139 72
0.325365 -0.437715 0.0952459 255 139 72
0.472602 -0.186187 -0.0559082 255 139 72
0.467261 -0.425723 0.0215993 255 139 72
0.057205 -0.401746 0.20249 255 139 72
0.12681 -0.210725 -0.022398 255 139 72
0.468647 -0.342385 0.0149693 255 139 72
0.206965 -0.400817 -0.0112101 255 139 72
0.0942728 -0.426669 0.0410784 255 139 72
0.358422 -0.35647 0.0914926 255 139 72
0.387863 -0.170695 -0.0344286 255 139 72
0.454333 -0.251417 0.0422962 255 139 72
0.0666756 -0.426802 0.0498968 255 139 72
0.478822 -0.198449 -0.0640513 255 139 72
0.399075 -0.359051 0.0838383 255 139 72
0.476996 -0.375447 -0.0144886 255 139 72
0.148371 -0.392879 0.103075 255 139 72
0.362002 -0.305689 0.0857801 255 139 72
0.469214 -0.432938 0.0181173 255 139 72
0.422878 -0.178549 0.00293209 255 139 72
0.439914 -0.1781 -0.02467 255 139 72
0.103737 -0.426805 0.0146754 255 139 72
0.456662 -0.186722 -0.0198729 255 139 72
0.230782 -0.370707 -0.10065 255 139 72
0.135058 -0.219738 -0.0313192 255 139 72
0.0987841 -0.229888 0.348141 255 139 72
0.18865 -0.166604 0.0988338 255 139 72
0.14312 -0.145184 0.0931616 255 139 72
0.309734 -0.163973 0.0660955 255 139 72
0.324431 -0.252195 0.0852067 255 139 72
0.0513416 -0.419404 -0.118026 255 139 72
0.104363 -0.422961 0.0836325 255 139 72
0.477879 -0.36321 -0.0274723 255 139 72
0.378237 -0.187482 0.0703197 255 139 72
0.458067 -0.264166 0.0394237 255 139 72
0.385465 -0.209378 -0.108862 255 139 72
0.42214 -0.18008 0.0103177 255 139 72
0.325442 -0.329842 0.0927013 255 139 72
0.102913 -0.161285 0.268637 255 139 72
0.477607 -0.366752 -0.0232355 255 139 72
0.132515 -0.187899 0.0136311 255 139 72
0.134218 -0.169523 0.0359148 255 139 72
0.311402 -0.163366 -0.00661353 255 139 72
0.114606 -0.195503 -0.0088523 255 139 72
0.421769 -0.183356 0.0260299 255 139 72
0.479259 -0.317524 -0.0437848 255 139 72
0.0998096 -0.157516 0.330777 255 139 72
0.0932965 -0.380703 0.138456 255 139 72
0.117333 -0.295113 0.096159 255 139 72
0.104878 -0.180548 0.213432 255 139 72
0.103612 -0.155727 0.0574153 255 139 72
0.0888078 -0.327999 0.227881 255 139 72
0.476824 -0.431043 -0.0180383 255 139 72
0.189617 -0.162805 0.0545925 255 139 72
0.368812 -0.186597 -0.0610131 255 139 72
0.0944253 -0.144231 0.350215 255 139 72
0.275492 -0.164002 0.0765963 255 139 72
0.103142 -0.152703 0.165976 255 139 72
0.0831758 -0.326558 0.185623 255 139 72
0.0234158 -0.402317 0.00322899 255 139 72
0.329802 -0.183339 0.0740957 255 139 72
0.477835 -0.360255 -0.0337433 255 139 72
0.475495 -0.389959 -0.00698657 255 139 72
0.417004 -0.177594 0.0116172 255 139 72
0.0135023 -0.386287 -0.0216026 255 139 72
0.0967565 -0.194037 0.149995 255 139 72
0.0915891 -0.35399 0.144313 255 139 72
0.398108 -0.197376 0.0688166 255 139 72
0.0784403 -0.120912 0.23814 255 139 72
0.171037 -0.148931 0.0761755 255 139 72
0.410654 -0.171825 -0.015556 255 139 72
0.174587 -0.168112 0.103377 255 139 72
0.312811 -0.160718 0.0033434 255 139 72
0.401438 -0.178307 -0.0576578 255 139 72
0.0864435 -0.134061 0.265634 255 139 72
0.0985465 -0.372059 0.299024 255 139 72
0.458688 -0.351953 0.0434193 255 139 72
0.195519 -0.224916 0.111125 255 139 72
0.475747 -0.231227 -0.0155716 255 139 72
0.0478217 -0.282195 0.26808 255 139 72
0.0882348 -0.132908 0.212019 255 139 72
0.247852 -0.16567 0.0211872 255 139 72
0.217221 -0.4097 -0.110542 255 139 72
0.352998 -0.230649 -0.137025 255 139 72
0.131587 -0.156282 0.119154 255 139 72
0.476397 -0.371666 -0.0367054 255 139 72
0.19915 -0.313495 -0.0879791 255 139 72
0.112995 -0.155668 0.150417 255 139 72
0.0780278 -0.426852 0.0055172 255 139 72
0.215905 -0.385108 0.0953581 255 139 72
0.0488256 -0.419641 -0.0928672 255 139 72
0.481658 -0.220586 -0.0423513 255 139 72
0.459404 -0.282657 0.0422608 255 139 72
0.339681 -0.30454 0.0901742 255 139 72
0.451006 -0.189812 -0.00871278 255 139 72
0.444391 -0.177676 -0.0316277 255 139 72
0.0850931 -0.139288 0.137469 255 139 72
0.466679 -0.240174 0.00619175 255 139 72
0.0954944 -0.133594 0.323863 255 139 72
0.464492 -0.296215 0.0284669 255 139 72
0.0880871 -0.376921 0.155552 255 139 72
0.084506 -0.158382 0.0359285 255 139 72
0.433586 -0.339614 0.0711179 255 139 72
0.191537 -0.420941 -0.135403 255 139 72
0.475752 -0.392765 -0.0117797 255 139 72
0.131216 -0.203298 -0.0165691 255 139 72
0.15973 -0.434057 0.118504 255 139 72
0.11937 -0.15561 0.0662119 255 139 72
0.241896 -0.265373 -0.113784 255 139 72
0.453795 -0.176472 -0.0577179 255 139 72
0.362362 -0.22671 -0.140712 255 139 72
0.444361 -0.391213 0.0677889 255 139 72
0.333858 -0.318889 0.0923349 255 139 72
0.0882993 -0.133976 0.140535 255 139 72
0.0917619 -0.409731 0.364641 255 139 72
0.430734 -0.194509 0.0352589 255 139 72
0.107373 -0.201085 0.305771 255 139 72
0.090158 -0.299378 0.203374 255 139 72
0.15 -0.153979 0.0660331 255 139 72
0.458859 -0.333722 0.0406282 255 139 72
0.079357 -0.127792 0.173055 255 139 72
0.134821 -0.24428 -0.04109 255 139 72
0.0920328 -0.425969 -0.0871553 255 139 72
0.481625 -0.232466 -0.034129 255 139 72
0.16232 -0.355053 0.0449364 255 139 72
0.207474 -0.321678 -0.10174 255 139 72
0.0884828 -0.150529 0.449872 255 95 48
0.0760738 -0.274312 0.293246 255 95 48
0.0766649 -0.285018 0.367787 255 95 48
0.0835502 -0.424867 0.230685 255 95 48
0.0417291 -0.291906 0.443371 255 95 48
0.118653 -0.316814 0.405395 255 95 48
0.0910359 -0.419573 0.211235 255 95 48
-0.230538 -0.467125 0.237777 255 95 48
0.118303 -0.156124 0.248675 255 95 48
0.0436459 -0.449833 0.116579 255 95 48
-0.230383 -0.453984 0.26254 255 95 48
0.0398705 -0.401432 0.451148 255 95 48
-0.00947908 -0.35568 0.421188 255 95 48
0.0823239 -0.195754 0.358584 255 95 48
0.0928846 -0.12322 0.374467 255 95 48
0.0812362 -0.181073 0.274765 255 95 48
0.16795 -0.210656 0.117218 255 95 48
0.0721153 -0.35066 0.35362 255 95 48
0.0527124 -0.215982 0.458188 255 95 48
0.0238083 -0.434577 0.218543 255 95 48
0.0781289 -0.236765 0.385556 255 95 48
0.139006 -0.223867 0.330223 255 95 48
0.066874 -0.218543 0.423302 255 95 48
-0.22972 -0.403482 0.368687 255 95 48
0.128595 -0.364861 0.380147 255 95 48
-0.135374 -0.420773 0.146141 255 95 48
0.101543 -0.113915 0.389851 255 95 48
0.092646 -0.125325 0.394025 255 95 48
-0.148985 -0.403291 0.364904 255 95 48
0.0659213 -0.366432 0.352402 255 95 48
0.077543 -0.157321 0.453733 255 95 48
0.213455 -0.407546 -0.0452355 255 95 48
0.0741961 -0.235519 0.27572 255 95 48
0.0347248 -0.340939 0.453429 255 95 48
0.108262 -0.161224 0.232506 255 95 48
0.0425825 -0.289889 0.432908 255 95 48
0.112764 -0.124613 0.410999 255 95 48
0.237198 -0.237721 0.0588305 255 95 48
0.0997876 -0.260313 0.427448 255 95 48
0.0983392 -0.118034 0.406768 255 95 48
0.0901281 -0.128807 0.412749 255 95 48
0.118169 -0.183217 0.420108 255 95 48
0.0313298 -0.357826 0.452678 255 95 48
0.123781 -0.443761 -0.0986452 255 95 48
0.0770588 -0.210861 0.402513 255 95 48
0.0753764 -0.334843 0.248437 255 95 48
0.109116 -0.294909 0.416054 255 95 48
0.176123 -0.445631 -0.11091 255 95 48
0.106457 -0.459833 0.0375416 255 95 48
0.125763 -0.172018 0.200982 255 95 48
0.113776 -0.142205 0.422383 255 95 48
-0.0874411 -0.453452 0.234161 255 95 48
0.100057 -0.387655 0.190451 255 95 48
0.0794867 -0.146425 0.417441 255 95 48
-0.207391 -0.43839 0.11649 255 95 48
0.0952532 -0.436209 0.225132 255 95 48
0.079171 -0.21873 0.447627 255 95 48
-0.250935 -0.394162 0.404494 255 95 48
0.0731632 -0.326339 0.440443 255 95 48
0.0214248 -0.343163 0.41805 255 95 48
0.16189 -0.209835 0.186616 255 95 48
-0.253312 -0.439896 0.276322 255 95 48
0.134966 -0.327954 0.124502 255 95 48
0.00657112 -0.417887 0.455272 255 95 48
0.193283 -0.237193 0.144429 255 95 48
0.0897368 -0.130132 0.378009 255 95 48
0.11583 -0.384575 0.375342 255 95 48
0.139705 -0.187037 0.165303 255 95 48
0.048686 -0.326171 0.451767 255 95 48
-0.154845 -0.405307 0.43197 255 95 48
0.0381806 -0.31647 0.454058 255 95 48
0.0947589 -0.144301 0.305647 255 95 48
0.0435771 -0.263082 0.454026 255 95 48
0.1025 -0.386619 0.414324 255 95 48
0.125702 -0.227984 0.383448 255 95 48
0.129791 -0.282347 0.374843 255 95 48
0.108615 -0.245522 0.174025 255 95 48
0.126806 -0.37065 0.368112 255 95 48
0.110802 -0.174941 0.204233 255 95 48
0.117192 -0.292203 0.40824 255 95 48
0.131055 -0.168066 0.350563 255 95 48
0.0766826 -0.438173 0.23658 255 95 48
0.184889 -0.442944 0.0361542 255 95 48
0.102377 -0.15296 0.260113 255 95 48
0.114993 -0.161577 0.423882 255 95 48
0.114543 -0.313792 0.41071 255 95 48
0.0827788 -0.24824 0.439833 255 95 48
0.0731462 -0.180241 0.41823 255 95 48
0.0907275 -0.411802 0.164918 255 95 48
0.200007 -0.459989 -0.0593765 255 95 48
0.109872 -0.108568 0.388727 255 95 48
0.0562289 -0.449617 -0.0646759 255 95 48
-0.155471 -0.386668 0.421622 255 95 48
-0.198449 -0.388156 0.410462 255 95 48
0.0708951 -0.301153 0.378197 255 95 48
-0.0539899 -0.437457 0.450954 255 95 48
0.0900127 -0.413121 0.19627 255 95 48
0.0540158 -0.228575 0.446745 255 95 48
0.133261 -0.384843 0.132084 255 95 48
0.135835 -0.205271 0.337857 255 95 48
0.0831346 -0.166147 0.317385 255 95 48
0.0760536 -0.36262 0.436429 255 95 48
-0.0572619 -0.430639 0.313282 255 95 48
0.0727664 -0.278842 0.381872 255 95 48
0.00584627 -0.455299 0.0472313 255 95 48
0.0744272 -0.348962 0.24114 255 95 48
0.132865 -0.243361 0.360862 255 95 48
0.0551573 -0.35256 0.449266 255 95 48
0.110193 -0.381254 0.403248 255 95 48
-0.0297217 -0.449114 0.118354 255 95 48
-0.0173356 -0.427922 0.317072 255 95 48
0.127934 -0.253392 0.38142 255 95 48
0.139528 -0.303738 0.348259 255 95 48
-0.141984 -0.413413 0.43516 255 95 48
0.134122 -0.267921 0.368414 255 95 48
0.0879826 -0.155391 0.453438 255 95 48
-0.172152 -0.399037 0.384102 255 95 48
0.11944 -0.375676 0.38633 255 95 48
-0.0277759 -0.454812 -0.00563407 255 95 48
0.0902058 -0.42402 0.215067 255 95 48
0.0860792 -0.157615 0.304331 255 95 48
-0.151987 -0.40352 0.362033 255 95 48
0.177864 -0.345382 0.0688177 255 95 48
0.180187 -0.244801 0.189387 255 95 48
0.0562561 -0.380267 0.447934 255 95 48
0.0319472 -0.364847 0.453817 255 95 48
0.0734001 -0.148011 0.436264 255 95 48
0.0775635 -0.190275 0.298517 255 95 48
0.0850682 -0.229152 0.221529 255 95 48
0.131835 -0.144113 0.337227 255 95 48
-0.0625133 -0.40717 0.446336 255 95 48
0.0937918 -0.123967 0.407351 255 95 48
0.144491 -0.187383 0.22814 255 95 48
0.106265 -0.21015 0.430274 255 95 48
0.0908982 -0.173094 0.451624 255 95 48
0.0740488 -0.237661 0.30677 255 95 48
-0.00339119 -0.433356 0.308861 255 95 48
0.0197518 -0.455046 0.11307 255 95 48
0.101844 -0.233456 0.429992 255 95 48
0.122424 -0.306112 0.400863 255 95 48
0.029087 -0.383442 0.453944 255 95 48
0.140408 -0.292999 0.34779 255 95 48
0.0805475 -0.372864 0.433466 255 95 48
-0.164594 -0.452334 0.435546 255 95 48
-0.255312 -0.401937 0.363112 255 95 48
0.113614 -0.152499 0.434501 255 95 48
0.131795 -0.172002 0.20426 255 95 48
0.0155762 -0.376684 0.451995 255 95 48
0.162916 -0.361415 0.0862633 255 95 48
0.0366486 -0.311834 0.443856 255 95 48
0.0833249 -0.183425 0.372881 255 95 48
-0.0664678 -0.453654 0.272737 255 95 48
-0.288141 -0.389415 0.374837 255 95 48
-0.100806 -0.394681 0.435846 255 95 48
0.0393172 -0.272144 0.454444 255 95 48
0.0823904 -0.329686 0.290541 255 95 48
0.124611 -0.222412 0.386074 255 95 48
0.121773 -0.230789 0.402446 255 95 48
0.10618 -0.16707 0.441886 255 95 48
0.0556018 -0.443464 -0.100349 255 95 48
0.0770937 -0.296717 0.26554 255 95 48
-0.187132 -0.419187 0.322395 255 95 48
0.118073 -0.123689 0.325224 255 95 48
-0.0391858 -0.386624 0.445617 255 95 48
0.058559 -0.230089 0.439376 255 95 48
0.0706929 -0.304632 0.377204 255 95 48
0.085539 -0.129921 0.423548 255 95 48
0.0671917 -0.426792 0.197936 255 95 48
0.13368 -0.172384 0.215647 255 95 48
0.104641 -0.117226 0.422144 255 95 48
0.0775681 -0.294411 0.249917 255 95 48
0.106541 -0.380647 0.181379 255 95 48
-0.245973 -0.462382 0.245805 255 95 48
0.0793795 -0.349281 0.27357 255 95 48
-0.17534 -0.431609 0.164446 255 95 48
0.0657011 -0.200967 0.430136 255 95 48
0.128733 -0.157938 0.265053 255 95 48
0.0712012 -0.173926 0.459211 255 95 48
0.0752188 -0.201981 0.28537 255 95 48
0.112455 -0.121613 0.417665 255 95 48
0.0534057 -0.427944 -0.130244 255 95 48
0.0829207 -0.310915 0.301825 255 95 48
0.0971869 -0.432278 0.256744 255 95 48
0.0537743 -0.444482 0.276777 255 95 48
0.0855249 -0.155475 0.365577 255 95 48
0.162262 -0.34864 0.0870934 255 95 48
-0.254244 -0.413544 0.331732 255 95 48
0.157678 -0.338465 0.0858566 255 95 48
0.089617 -0.13161 0.393417 255 95 48
0.0760902 -0.376269 0.435353 255 95 48
-0.228479 -0.463936 0.244173 255 95 48
0.107678 -0.151002 0.442302 255 95 48
0.114934 -0.270357 0.160107 255 95 48
-0.298119 -0.403242 0.381775 255 95 48
0.142516 -0.371259 0.117362 255 95 48
0.143634 -0.156035 0.289024 255 95 48
0.0958269 -0.423729 0.204251 255 95 48
0.0699769 -0.243263 0.44602 255 95 48
0.0826426 -0.417225 0.197649 255 95 48
0.0624783 -0.429023 -0.129043 255 95 48
-0.196727 -0.418308 0.42574 255 95 48
0.0181962 -0.450117 -0.0667145 255 95 48
0.0839806 -0.358647 0.337598 255 95 48
-0.282182 -0.451805 0.403402 255 95 48
0.00803353 -0.4514 -0.0609554 255 95 48
0.158769 -0.410059 0.0994584 255 95 48
