ply
format ascii 1.0
comment Created by Open3D
element vertex 1226
property double x
property double y
property double z
property uchar red
property uchar green
property uchar blue
end_header
0.360507 -0.352284 -0.116952 255 139 72
0.309265 -0.346182 0.106923 255 139 72
0.192767 -0.343444 0.0212407 255 139 72
0.395872 -0.345416 0.168516 255 139 72
0.126094 -0.362192 0.03965 255 139 72
0.381491 -0.362561 -0.0573054 255 139 72
0.396392 -0.36146 -0.00979677 255 139 72
0.299016 -0.335791 -0.0192241 255 139 72
0.283609 -0.330869 -0.0715696 255 139 72
0.39938 -0.409965 0.00132705 255 139 72
0.339547 -0.344023 0.169804 255 139 72
0.276063 -0.347977 0.103853 255 139 72
0.305659 -0.3878 -0.0122264 255 139 72
0.237614 -0.424504 0.124506 255 139 72
0.284614 -0.342921 0.0523905 255 139 72
0.30798 -0.364401 0.218582 255 139 72
0.321959 -0.332912 -0.0413028 255 139 72
0.34259 -0.358602 0.222713 255 139 72
0.315222 -0.366064 -0.0347795 255 139 72
0.232823 -0.352431 0.136939 255 139 72
0.256685 -0.351632 0.145779 255 139 72
0.15235 -0.34768 -0.0543395 255 139 72
0.242074 -0.336122 -0.000908598 255 139 72
0.321864 -0.342659 0.0770694 255 139 72
0.228628 -0.365228 0.186625 255 139 72
0.187486 -0.325497 -0.113 255 139 72
0.282862 -0.336134 -0.00541818 255 139 72
0.297993 -0.386244 -0.0231569 255 139 72
0.197408 -0.324003 -0.11817 255 139 72
0.229115 -0.334519 -0.086025 255 139 72
0.271925 -0.328332 -0.097767 255 139 72
0.109001 -0.352294 -0.0128847 255 139 72
0.347021 -0.335435 0.014179 255 139 72
0.315804 -0.331052 -0.0887166 255 139 72
0.226701 -0.356396 0.160371 255 139 72
0.333252 -0.329669 -0.10077 255 139 72
0.253161 -0.351711 0.141475 255 139 72
0.262486 -0.411282 0.0736272 255 139 72
0.17291 -0.359607 0.105219 255 139 72
0.399669 -0.348051 0.098883 255 139 72
0.181782 -0.38593 0.122408 255 139 72
0.356429 -0.346297 0.204917 255 139 72
0.268402 -0.33492 -0.0160399 255 139 72
0.366125 -0.336188 -0.0567047 255 139 72
0.303225 -0.323206 -0.151469 255 139 72
0.259209 -0.385347 -0.042464 255 139 72
0.342476 -0.334998 -0.00222855 255 139 72
0.308288 -0.351246 -0.0621963 255 139 72
0.24809 -0.328285 -0.0846308 255 139 72
0.341619 -0.331739 -0.12506 255 139 72
0.143194 -0.377346 0.0664862 255 139 72
0.392625 -0.380394 -0.0291167 255 139 72
0.376884 -0.408613 -0.0779796 255 139 72
0.41382 -0.399727 0.0388934 255 139 72
0.1352 -0.363074 0.0537403 255 139 72
0.405471 -0.354231 0.0236815 255 139 72
0.196594 -0.397532 -0.0164147 255 139 72
0.289513 -0.332506 -0.0501765 255 139 72
0.405282 -0.380875 0.139068 255 139 72
0.185618 -0.406944 0.0811848 255 139 72
0.351643 -0.370797 0.220581 255 139 72
0.157425 -0.33047 -0.13562 255 139 72
0.415911 -0.374755 0.0715028 255 139 72
0.297668 -0.406539 0.210332 255 139 72
0.25021 -0.372145 0.210809 255 139 72
0.339775 -0.376232 0.222761 255 139 72
0.245927 -0.357078 0.11658 255 139 72
0.117355 -0.349638 -0.0903341 255 139 72
0.246161 -0.361047 0.188227 255 139 72
0.232419 -0.331676 -0.0669615 255 139 72
0.294196 -0.332775 -0.0486568 255 139 72
0.2359 -0.348825 0.0893702 255 139 72
0.221889 -0.335386 -0.00978277 255 139 72
0.292426 -0.354989 0.201448 255 139 72
0.283843 -0.31534 -0.173041 255 139 72
0.224322 -0.366272 -0.130176 255 139 72
0.114671 -0.347794 -0.106053 255 139 72
0.307729 -0.348846 -0.0351031 255 139 72
0.280488 -0.357802 0.201342 255 139 72
0.269421 -0.319131 -0.161098 255 139 72
0.231236 -0.407184 0.0446367 255 139 72
0.393254 -0.344711 0.0575449 255 139 72
0.134273 -0.351834 0.0302886 255 139 72
0.22988 -0.348686 0.0859621 255 139 72
0.275008 -0.349517 0.117776 255 139 72
0.268359 -0.350871 0.126051 255 139 72
0.304736 -0.346925 -0.0533808 255 139 72
0.249921 -0.330368 -0.0604344 255 139 72
0.222781 -0.352286 0.11984 255 139 72
0.313646 -0.347145 0.151265 255 139 72
0.120675 -0.352603 -0.0457092 255 139 72
0.275039 -0.329737 -0.0816974 255 139 72
0.343365 -0.340462 0.0653966 255 139 72
0.204187 -0.366135 0.169159 255 139 72
0.314294 -0.393473 0.215204 255 139 72
0.412843 -0.361593 0.064515 255 139 72
0.250568 -0.350393 0.107403 255 139 72
0.241268 -0.329131 -0.0853246 255 139 72
0.155458 -0.382874 0.0554137 255 139 72
0.329665 -0.364219 0.222644 255 139 72
0.210483 -0.395558 -0.0184361 255 139 72
0.258964 -0.328097 -0.086722 255 139 72
0.36078 -0.346111 0.205472 255 139 72
0.403113 -0.358503 0.14039 255 139 72
0.147929 -0.378042 -0.109015 255 139 72
0.243167 -0.324338 -0.137429 255 139 72
0.238282 -0.332149 -0.0454549 255 139 72
0.166492 -0.364887 0.0956688 255 139 72
0.39761 -0.410171 -0.00360425 255 139 72
0.271763 -0.334772 -0.0198515 255 139 72
0.31782 -0.363019 0.0995885 255 139 72
0.309865 -0.363947 0.218959 255 139 72
0.25286 -0.337367 -0.0986878 255 139 72
0.251262 -0.393498 -0.00448782 255 139 72
0.392385 -0.342085 0.173758 255 139 72
0.264118 -0.369553 0.212123 255 139 72
0.267674 -0.340351 0.0232681 255 139 72
0.250045 -0.333474 -0.0229878 255 139 72
0.351072 -0.343089 0.161706 255 139 72
0.301711 -0.330108 -0.102775 255 139 72
0.377809 -0.348069 0.200084 255 139 72
0.383785 -0.34265 0.0856134 255 139 72
0.264571 -0.368707 -0.10793 255 139 72
0.333111 -0.335254 -0.00539403 255 139 72
0.406765 -0.40917 0.122026 255 139 72
0.308894 -0.39032 0.214647 255 139 72
0.381515 -0.340799 0.136671 255 139 72
0.334854 -0.351756 0.214069 255 139 72
0.399155 -0.407333 6.07073e-05 255 139 72
0.34749 -0.331904 -0.0850407 255 139 72
0.28952 -0.37501 0.215183 255 139 72
0.263826 -0.357662 0.191716 255 139 72
0.248554 -0.325846 -0.118127 255 139 72
0.270863 -0.355391 0.188935 255 139 72
0.348822 -0.33413 -0.112015 255 139 72
0.398235 -0.346388 0.123293 255 139 72
0.29837 -0.333484 -0.0426459 255 139 72
0.127979 -0.401629 -0.00722613 255 139 72
0.388246 -0.392177 0.190145 255 139 72
0.304749 -0.332556 -0.0543019 255 139 72
0.393474 -0.385385 -0.0244883 255 139 72
0.196307 -0.353374 0.133443 255 139 72
0.257477 -0.331841 -0.0451316 255 139 72
0.364799 -0.335728 0.0137807 255 139 72
0.387593 -0.353959 0.187976 255 139 72
0.364338 -0.333992 -0.0468616 255 139 72
0.204173 -0.345084 0.042229 255 139 72
0.305217 -0.353521 0.105826 255 139 72
0.171739 -0.327892 -0.118426 255 139 72
0.352082 -0.336168 0.0268108 255 139 72
0.242789 -0.355564 0.169134 255 139 72
0.163972 -0.337729 -0.0382441 255 139 72
0.126994 -0.370979 0.0411231 255 139 72
0.375786 -0.360329 0.206103 255 139 72
0.3334 -0.33702 0.0235149 255 139 72
0.27589 -0.327561 -0.112008 255 139 72
0.268866 -0.316673 -0.167247 255 139 72
0.163111 -0.377281 0.0483288 255 139 72
0.141328 -0.343525 -0.0434948 255 139 72
0.231238 -0.332558 -0.0503875 255 139 72
0.269147 -0.379775 -0.061231 255 139 72
0.393981 -0.343045 0.147659 255 139 72
0.284786 -0.397298 0.20991 255 139 72
0.272518 -0.303369 -0.199723 255 139 72
0.252437 -0.351629 0.133243 255 139 72
0.317389 -0.376626 -0.0101208 255 139 72
0.378244 -0.35482 0.202714 255 139 72
0.390815 -0.3889 0.18461 255 139 72
0.300594 -0.3715 0.152731 255 139 72
0.193919 -0.358067 0.135984 255 139 72
0.326941 -0.358432 0.222705 255 139 72
0.402831 -0.348049 0.0411553 255 139 72
0.237052 -0.331103 -0.0667425 255 139 72
0.296172 -0.342217 0.0511689 255 139 72
0.41022 -0.35977 0.0730988 255 139 72
0.226749 -0.343677 0.0402091 255 139 72
0.382383 -0.340875 0.163261 255 139 72
0.367961 -0.362043 -0.10115 255 139 72
0.247836 -0.363186 0.193301 255 139 72
0.314906 -0.338173 0.0254195 255 139 72
0.270085 -0.367184 -0.111824 255 139 72
0.230278 -0.356574 0.163725 255 139 72
0.196944 -0.367159 0.155339 255 139 72
0.363277 -0.38792 0.214381 255 139 72
0.259821 -0.362459 0.19824 255 139 72
0.382155 -0.369921 0.197948 255 139 72
0.324052 -0.346909 0.179716 255 139 72
0.166993 -0.331931 -0.086469 255 139 72
0.283223 -0.334681 -0.0288449 255 139 72
0.291661 -0.336365 0.000423133 255 139 72
0.165902 -0.330214 -0.106898 255 139 72
0.166472 -0.358088 0.0866626 255 139 72
0.398854 -0.394754 0.167121 255 139 72
0.407645 -0.373298 0.127768 255 139 72
0.387116 -0.401132 -0.0420767 255 139 72
0.195248 -0.333734 -0.0298037 255 139 72
0.193817 -0.325642 -0.105241 255 139 72
0.397963 -0.365085 0.168629 255 139 72
0.187578 -0.320517 -0.147599 255 139 72
0.292967 -0.349206 0.149821 255 139 72
0.384531 -0.342142 0.105015 255 139 72
0.177883 -0.337315 -0.00450916 255 139 72
0.228289 -0.323404 -0.131762 255 139 72
0.298137 -0.330814 -0.0864516 255 139 72
0.221149 -0.324419 -0.116489 255 139 72
0.404525 -0.350388 0.0333811 255 139 72
0.244467 -0.35217 0.13446 255 139 72
0.299094 -0.342433 -0.127184 255 139 72
-0.17237 -0.480094 0.161393 255 95 48
0.227849 -0.487669 0.280885 255 95 48
-0.141466 -0.504015 0.359255 255 95 48
-0.111354 -0.451689 -0.12967 255 95 48
-0.142862 -0.481917 0.1112 255 95 48
0.276941 -0.454009 0.0691168 255 95 48
-0.148486 -0.450959 -0.120799 255 95 48
0.28517 -0.403033 0.129417 255 95 48
-0.257719 -0.470781 0.259765 255 95 48
-0.175829 -0.390362 0.293022 255 95 48
-0.18805 -0.304724 0.340776 255 95 48
0.179804 -0.479388 -0.0155923 255 95 48
-0.230526 -0.256315 0.362608 255 95 48
-0.229177 -0.350148 0.365905 255 95 48
0.24785 -0.467634 -0.0654912 255 95 48
0.211028 -0.445579 0.193102 255 95 48
-0.111084 -0.455383 0.267194 255 95 48
-0.161957 -0.415881 0.276961 255 95 48
0.296159 -0.377411 0.143533 255 95 48
-0.28569 -0.483331 0.173273 255 95 48
-0.260652 -0.392712 0.327465 255 95 48
0.220193 -0.445246 0.180982 255 95 48
0.147344 -0.473802 0.21842 255 95 48
0.205632 -0.459415 0.167829 255 95 48
-0.17578 -0.347849 0.361918 255 95 48
0.265279 -0.358531 -0.181997 255 95 48
-0.24786 -0.356278 0.345712 255 95 48
-0.169401 -0.377268 0.294099 255 95 48
-0.106203 -0.444982 -0.240379 255 95 48
-0.0209336 -0.486024 0.206822 255 95 48
0.281505 -0.419954 0.115478 255 95 48
-0.2047 -0.31386 0.330391 255 95 48
-0.170826 -0.359969 0.347168 255 95 48
0.0456492 -0.454185 -0.10417 255 95 48
-0.184357 -0.343562 0.364989 255 95 48
0.184448 -0.445066 -0.244614 255 95 48
0.0344713 -0.488204 0.127498 255 95 48
-0.206368 -0.350091 0.367516 255 95 48
-0.235905 -0.301185 0.326672 255 95 48
0.197599 -0.475161 -0.0558365 255 95 48
0.268053 -0.378671 -0.159301 255 95 48
-0.189727 -0.421521 0.259141 255 95 48
-0.212715 -0.409217 0.271927 255 95 48
0.0221943 -0.462207 -0.0852545 255 95 48
0.157963 -0.439725 -0.278967 255 95 48
0.151676 -0.486799 0.288339 255 95 48
-0.240237 -0.333139 0.356014 255 95 48
0.198411 -0.445951 0.209294 255 95 48
-0.0885724 -0.507311 0.364385 255 95 48
-0.167985 -0.441578 0.237783 255 95 48
-0.135407 -0.489951 0.353188 255 95 48
0.284272 -0.461982 0.00107077 255 95 48
-0.249293 -0.487914 0.19254 255 95 48
0.22675 -0.471506 -0.0607525 255 95 48
-0.176762 -0.404723 0.362864 255 95 48
0.105975 -0.476034 0.23937 255 95 48
0.271535 -0.396404 0.182166 255 95 48
0.0720646 -0.452141 -0.182397 255 95 48
0.072714 -0.489191 0.154035 255 95 48
-0.238696 -0.345425 0.314201 255 95 48
-0.222359 -0.448598 -0.194406 255 95 48
0.185636 -0.49127 0.286603 255 95 48
-0.175977 -0.34429 0.341763 255 95 48
-0.202952 -0.31319 0.364725 255 95 48
-0.205157 -0.285939 0.366397 255 95 48
-0.244342 -0.344626 0.349836 255 95 48
0.140843 -0.449121 -0.239091 255 95 48
0.177878 -0.477335 0.172401 255 95 48
-0.162712 -0.461902 0.214509 255 95 48
-0.21886 -0.374159 0.369016 255 95 48
-0.183709 -0.350768 0.311296 255 95 48
-0.217799 -0.260511 0.361725 255 95 48
0.235923 -0.473972 0.0433743 255 95 48
-0.172086 -0.459879 0.359907 255 95 48
-0.159552 -0.437658 0.259955 255 95 48
-0.143925 -0.431062 0.271686 255 95 48
-0.123251 -0.44567 0.290045 255 95 48
0.107378 -0.473969 0.246236 255 95 48
-0.297824 -0.460744 0.0441291 255 95 48
-0.171259 -0.398859 0.287529 255 95 48
0.114963 -0.48672 0.075355 255 95 48
-0.258793 -0.488773 0.164888 255 95 48
-0.21599 -0.435168 0.368762 255 95 48
-0.0211311 -0.491154 0.200426 255 95 48
-0.214512 -0.345489 0.320339 255 95 48
-0.110395 -0.452517 0.259974 255 95 48
-0.0625882 -0.469794 0.24459 255 95 48
-0.141707 -0.503515 0.358941 255 95 48
-0.185379 -0.312574 0.357022 255 95 48
0.243934 -0.40935 0.205597 255 95 48
-0.23123 -0.259587 0.355241 255 95 48
-0.216084 -0.464262 0.217573 255 95 48
0.2249 -0.469346 -0.0942609 255 95 48
-0.218803 -0.265031 0.367844 255 95 48
-0.130302 -0.50074 0.358081 255 95 48
0.268758 -0.468187 0.0187317 255 95 48
0.0139215 -0.489243 0.324628 255 95 48
-0.217712 -0.335482 0.3659 255 95 48
0.248606 -0.432005 0.15419 255 95 48
-0.119442 -0.397752 -0.305523 255 95 48
0.214578 -0.478628 0.0330204 255 95 48
-0.231485 -0.269089 0.346622 255 95 48
0.295701 -0.424683 -0.0168214 255 95 48
-0.229037 -0.293209 0.365633 255 95 48
-0.256954 -0.278531 0.324868 255 95 48
0.265751 -0.404955 0.177114 255 95 48
0.233588 -0.388523 -0.24084 255 95 48
-0.0796541 -0.462352 -0.0990396 255 95 48
0.198848 -0.477084 -0.0464007 255 95 48
-0.165726 -0.39441 0.3574 255 95 48
-0.241821 -0.397502 0.361049 255 95 48
-0.261824 -0.449968 -0.172766 255 95 48
-0.249538 -0.489032 0.190367 255 95 48
-0.00188463 -0.492824 0.19664 255 95 48
-0.199332 -0.327071 0.325869 255 95 48
0.20711 -0.438443 0.203441 255 95 48
0.124314 -0.443843 -0.262687 255 95 48
-0.203794 -0.412445 0.368303 255 95 48
-0.222449 -0.332318 0.364979 255 95 48
-0.200105 -0.490246 0.114203 255 95 48
-0.0735691 -0.465909 0.304124 255 95 48
0.271785 -0.457973 0.072701 255 95 48
0.237507 -0.474528 -0.0190887 255 95 48
-0.196236 -0.475041 0.175046 255 95 48
0.304138 -0.378623 -0.0416532 255 95 48
0.215049 -0.478799 0.107537 255 95 48
-0.117703 -0.449417 0.331402 255 95 48
-0.243857 -0.458446 -0.00591977 255 95 48
0.228692 -0.412051 -0.244665 255 95 48
0.186981 -0.471879 -0.145037 255 95 48
0.161399 -0.470436 0.212021 255 95 48
-0.225347 -0.373348 0.368222 255 95 48
-0.242945 -0.340186 0.351669 255 95 48
-0.243348 -0.421255 0.280103 255 95 48
-0.184634 -0.408235 0.364717 255 95 48
-0.237561 -0.287718 0.357384 255 95 48
0.103388 -0.501522 0.321406 255 95 48
-0.322364 -0.462878 0.185957 255 95 48
-0.205188 -0.447607 -0.22489 255 95 48
-0.215075 -0.357799 0.314158 255 95 48
-0.11572 -0.484366 0.11065 255 95 48
-0.254271 -0.470775 0.0757871 255 95 48
-0.190586 -0.475145 0.177053 255 95 48
0.218906 -0.392529 -0.184501 255 95 48
0.212956 -0.489453 0.282502 255 95 48
-0.00104081 -0.488333 0.113816 255 95 48
0.252835 -0.445694 0.255416 255 95 48
0.316831 -0.316099 -0.0400756 255 95 48
-0.145049 -0.425889 -0.271893 255 95 48
-0.173102 -0.420456 0.360745 255 95 48
-0.234993 -0.488081 0.120615 255 95 48
0.294769 -0.394672 0.0961576 255 95 48
0.193348 -0.47768 -0.0401636 255 95 48
0.247464 -0.48581 0.277265 255 95 48
-0.190962 -0.475228 0.180151 255 95 48
-0.326647 -0.469382 0.162358 255 95 48
-0.244412 -0.358626 0.35261 255 95 48
0.0835858 -0.47827 0.223796 255 95 48
0.00337458 -0.486446 0.317843 255 95 48
-0.251268 -0.419272 0.293613 255 95 48
-0.212839 -0.357325 0.36844 255 95 48
-0.254828 -0.361876 0.333189 255 95 48
-0.137987 -0.470609 0.224748 255 95 48
0.128954 -0.499387 0.301112 255 95 48
-0.153981 -0.447715 -0.163001 255 95 48
0.267202 -0.362416 -0.176172 255 95 48
-0.294507 -0.453031 -0.123154 255 95 48
0.0695989 -0.437841 -0.267431 255 95 48
0.21145 -0.487864 0.250297 255 95 48
-0.292462 -0.471933 0.119465 255 95 48
0.262909 -0.42821 -0.120781 255 95 48
0.0544639 -0.491342 0.182075 255 95 48
0.149568 -0.481793 0.00943701 255 95 48
-0.246708 -0.369008 0.309022 255 95 48
0.25044 -0.469288 0.0797651 255 95 48
0.119176 -0.475452 0.211848 255 95 48
0.261791 -0.40763 0.182652 255 95 48
-0.177405 -0.365969 0.302626 255 95 48
0.102133 -0.443117 -0.263053 255 95 48
-0.0461318 -0.486337 0.157622 255 95 48
0.229838 -0.488105 0.270275 255 95 48
0.211132 -0.460935 0.259834 255 95 48
0.284788 -0.455802 0.0312154 255 95 48
-0.265536 -0.319674 0.322401 255 95 48
-0.145157 -0.434629 0.355089 255 95 48
0.286859 -0.449315 0.0300644 255 95 48
0.0834998 -0.447551 -0.23629 255 95 48
0.189886 -0.48086 0.0200324 255 95 48
0.104404 -0.477689 0.233701 255 95 48
-0.127725 -0.477953 0.35372 255 95 48
-0.187515 -0.473926 -0.0126852 255 95 48
-0.218654 -0.407235 0.276665 255 95 48
-0.0947943 -0.458028 0.310091 255 95 48
-0.0177621 -0.488386 -0.0322124 255 95 48
-0.103626 -0.485407 0.148663 255 95 48
-0.247357 -0.287534 0.344677 255 95 48
0.176816 -0.481743 0.159403 255 95 48
-0.162051 -0.379972 0.292654 255 95 48
0.0298022 -0.488512 0.115264 255 95 48
0.265797 -0.441559 0.253691 255 95 48
0.135236 -0.497708 0.309044 255 95 48
0.0463419 -0.491931 0.175331 255 95 48
0.0500434 -0.487008 0.312613 255 95 48
-0.218179 -0.466465 0.216672 255 95 48
-0.153442 -0.452934 0.242767 255 95 48
0.201974 -0.452692 0.195157 255 95 48
-0.0290984 -0.487648 0.12599 255 95 48
0.30187 -0.399469 -0.0106073 255 95 48
-0.215247 -0.273782 0.348012 255 95 48
-0.128506 -0.481955 0.35362 255 95 48
0.172862 -0.483213 0.04571 255 95 48
-0.259779 -0.40031 0.329031 255 95 48
-0.158694 -0.404748 0.272441 255 95 48
0.270447 -0.464548 0.0546659 255 95 48
-0.306875 -0.47377 0.10467 255 95 48
0.293359 -0.420764 0.0287798 255 95 48
-0.121783 -0.445664 0.290596 255 95 48
-0.197798 -0.466771 0.197087 255 95 48
-0.0400883 -0.469399 0.270341 255 95 48
0.298223 -0.404481 -0.03966 255 95 48
-0.155049 -0.419375 0.263037 255 95 48
-0.275123 -0.491159 0.201465 255 95 48
0.108 -0.485339 0.302733 255 95 48
-0.116633 -0.471155 0.224382 255 95 48
-0.241742 -0.298171 0.35051 255 95 48
0.203342 -0.455575 0.246932 255 95 48
0.300486 -0.381939 0.102392 255 95 48
-0.146021 -0.450345 0.244229 255 95 48
-0.230865 -0.263696 0.366262 255 95 48
-0.251252 -0.391895 0.342884 255 95 48
0.277153 -0.393916 0.162605 255 95 48
-0.166139 -0.380479 0.331501 255 95 48
0.154676 -0.485003 0.102279 255 95 48
-0.0753181 -0.484157 0.337964 255 95 48
0.054158 -0.435569 -0.266995 255 95 48
-0.158057 -0.438757 0.260517 255 95 48
-0.169792 -0.359501 0.298031 255 95 48
0.134234 -0.48621 0.0992366 255 95 48
-0.175958 -0.34593 0.338073 255 95 48
-0.218877 -0.430278 0.368857 255 95 48
-0.226189 -0.289292 0.366491 255 95 48
-0.127347 -0.498859 0.357523 255 95 48
0.279929 -0.439072 0.0826302 255 95 48
0.288545 -0.395069 -0.0932078 255 95 48
-0.254381 -0.449897 -0.165867 255 95 48
0.2217 -0.470485 -0.116658 255 95 48
0.209428 -0.461259 0.158486 255 95 48
-0.238825 -0.289518 0.331348 255 95 48
0.204371 -0.482199 0.272681 255 95 48
-0.171929 -0.467369 0.200646 255 95 48
0.265596 -0.410758 0.246027 255 95 48
0.123285 -0.486207 0.129608 255 95 48
-0.166611 -0.443198 0.236643 255 95 48
0.25318 -0.471472 0.00741208 255 95 48
0.225381 -0.441673 0.251207 255 95 48
0.302871 -0.371951 0.0437214 255 95 48
-0.242184 -0.396879 0.304115 255 95 48
-0.0575396 -0.423379 -0.275793 255 95 48
-0.0861404 -0.485393 0.345719 255 95 48
0.109304 -0.48157 -0.00143988 255 95 48
0.224492 -0.474617 -0.0444238 255 95 48
-0.167352 -0.434569 0.357383 255 95 48
0.251572 -0.469186 0.0902922 255 95 48
-0.185244 -0.315988 0.326627 255 95 48
0.256726 -0.466854 0.0874246 255 95 48
-0.235645 -0.411425 0.366638 255 95 48
-0.0414957 -0.487534 0.196933 255 95 48
-0.215737 -0.278924 0.344464 255 95 48
0.0946034 -0.47812 0.238266 255 95 48
-0.204392 -0.442418 0.235011 255 95 48
-0.180359 -0.424328 0.362309 255 95 48
0.151573 -0.484763 0.109384 255 95 48
-0.121226 -0.484588 0.159749 255 95 48
-0.174915 -0.470867 0.189587 255 95 48
-0.172815 -0.359426 0.35457 255 95 48
-0.21838 -0.427412 0.368799 255 95 48
-0.197217 -0.294502 0.35197 255 95 48
0.2995 -0.381399 0.0425033 255 95 48
0.24325 -0.485527 0.265354 255 95 48
-0.163288 -0.490074 0.357246 255 95 48
-0.257496 -0.36317 0.32917 255 95 48
-0.235493 -0.258143 0.353008 255 95 48
-0.257884 -0.320467 0.329041 255 95 48
-0.244332 -0.310395 0.318615 255 95 48
-0.0925093 -0.464091 -0.0209005 255 95 48
0.247785 -0.461367 0.11845 255 95 48
-0.105708 -0.453276 0.255805 255 95 48
0.232332 -0.423753 -0.164465 255 95 48
-0.219396 -0.364351 0.31221 255 95 48
0.237456 -0.467995 -0.076739 255 95 48
0.263003 -0.400494 -0.143835 255 95 48
0.150991 -0.482577 0.286354 255 95 48
-0.239943 -0.401391 0.297544 255 95 48
0.109088 -0.478024 0.268403 255 95 48
0.13932 -0.466279 -0.137157 255 95 48
-0.00458505 -0.485725 -0.00478354 255 95 48
0.0892623 -0.446066 -0.138138 255 95 48
-0.166176 -0.473405 0.359132 255 95 48
0.24041 -0.437625 0.161743 255 95 48
-0.284214 -0.48321 0.176443 255 95 48
0.19265 -0.414826 -0.229422 255 95 48
0.264231 -0.401905 -0.140532 255 95 48
0.300402 -0.396605 -0.03837 255 95 48
-0.211644 -0.458848 -0.0261456 255 95 48
0.0386251 -0.455146 -0.170007 255 95 48
0.22756 -0.475534 0.0613912 255 95 48
0.173299 -0.479584 -0.0146914 255 95 48
-0.260748 -0.304246 0.329414 255 95 48
0.279049 -0.37804 0.207796 255 95 48
-0.151993 -0.465858 0.212663 255 95 48
-0.178492 -0.374469 0.300172 255 95 48
-0.209914 -0.341466 0.321482 255 95 48
-0.313464 -0.470851 0.150058 255 95 48
-0.00140224 -0.431214 -0.265759 255 95 48
0.243504 -0.46299 0.122519 255 95 48
-0.062135 -0.455678 -0.12576 255 95 48
-0.0951898 -0.468992 0.32485 255 95 48
0.223911 -0.474618 -0.0453757 255 95 48
0.0181512 -0.487809 0.0688561 255 95 48
0.25869 -0.46011 0.258246 255 95 48
-0.159376 -0.402742 0.316304 255 95 48
0.302472 -0.377593 0.112453 255 95 48
-0.191104 -0.4941 0.0616427 255 95 48
0.243689 -0.459177 0.127746 255 95 48
0.245032 -0.469629 0.263374 255 95 48
-0.245301 -0.421676 0.283537 255 95 48
-0.228447 -0.282338 0.33971 255 95 48
-0.160797 -0.437749 0.258222 255 95 48
0.0820124 -0.448994 -0.126981 255 95 48
-0.0600514 -0.490989 -0.0202228 255 95 48
0.237053 -0.461567 0.129871 255 95 48
0.281567 -0.384711 0.175815 255 95 48
-0.181717 -0.449872 0.223582 255 95 48
-0.121419 -0.467277 -0.0541032 255 95 48
-0.284604 -0.495563 0.231832 255 95 48
0.172679 -0.492209 0.252113 255 95 48
-0.315915 -0.464642 0.174667 255 95 48
0.24513 -0.472725 0.0228569 255 95 48
0.198541 -0.474617 -0.108946 255 95 48
-0.243168 -0.437984 0.35947 255 95 48
0.128412 -0.475013 0.262207 255 95 48
-0.0822112 -0.481053 0.213599 255 95 48
-0.0956344 -0.462505 0.267065 255 95 48
0.190088 -0.453944 0.223791 255 95 48
0.248622 -0.465365 -0.0793779 255 95 48
-0.241284 -0.382871 0.360985 255 95 48
0.102994 -0.482642 0.201399 255 95 48
-0.230783 -0.263771 0.366411 255 95 48
-0.237556 -0.447289 0.362225 255 95 48
0.261303 -0.470159 -0.00886558 255 95 48
-0.237182 -0.379796 0.366065 255 95 48
0.0415441 -0.471751 -0.0886041 255 95 48
0.0459707 -0.44852 -0.209696 255 95 48
-0.0537584 -0.436688 -0.257588 255 95 48
-0.146223 -0.424075 0.26541 255 95 48
-0.121437 -0.439985 0.317903 255 95 48
-0.215989 -0.344148 0.320888 255 95 48
-0.173983 -0.366741 0.361988 255 95 48
0.152178 -0.485015 0.138476 255 95 48
0.0502362 -0.483259 0.223769 255 95 48
-0.130183 -0.447576 0.241829 255 95 48
-0.115577 -0.477194 0.350175 255 95 48
-0.255648 -0.416317 0.337587 255 95 48
-0.170119 -0.472095 0.188509 255 95 48
0.305484 -0.329512 -0.105072 255 95 48
0.290966 -0.421736 0.0422832 255 95 48
-0.04204 -0.474443 0.232129 255 95 48
-0.17162 -0.378088 0.36071 255 95 48
-0.256474 -0.406255 0.335324 255 95 48
-0.204697 -0.46798 0.0370367 255 95 48
-0.0448312 -0.490037 -0.0295458 255 95 48
-0.118691 -0.502524 0.359695 255 95 48
-0.130102 -0.50536 0.360759 255 95 48
-0.0680042 -0.461938 -0.106669 255 95 48
-0.194899 -0.400814 0.368059 255 95 48
-0.18849 -0.314806 0.326586 255 95 48
0.294784 -0.388733 0.125917 255 95 48
-0.0564267 -0.465544 0.292105 255 95 48
-0.209611 -0.374262 0.36893 255 95 48
0.17335 -0.47237 0.26766 255 95 48
-0.0493034 -0.486757 0.0231289 255 95 48
-0.210485 -0.306575 0.332353 255 95 48
-0.178275 -0.336402 0.327524 255 95 48
0.314284 -0.327655 -0.0131095 255 95 48
0.244612 -0.451489 -0.120974 255 95 48
-0.177374 -0.43867 0.23785 255 95 48
-0.171075 -0.366225 0.350024 255 95 48
-0.0253878 -0.486798 0.160279 255 95 48
0.206283 -0.480686 0.121207 255 95 48
-0.186162 -0.310179 0.332313 255 95 48
-0.138482 -0.418923 0.34072 255 95 48
-0.296705 -0.456414 -0.0160448 255 95 48
-0.189256 -0.41576 0.365385 255 95 48
-0.139977 -0.476835 0.19027 255 95 48
-0.235802 -0.418007 0.27561 255 95 48
-0.208992 -0.351689 0.315526 255 95 48
0.115041 -0.499413 0.318663 255 95 48
-0.164172 -0.413712 0.35686 255 95 48
-0.175866 -0.478847 0.167772 255 95 48
0.21958 -0.469857 -0.126803 255 95 48
0.0533094 -0.485928 -0.0829145 255 95 48
0.280551 -0.393803 0.153688 255 95 48
0.0844986 -0.481488 -0.00571111 255 95 48
-0.199411 -0.359239 0.367753 255 95 48
-0.251791 -0.435517 0.344996 255 95 48
0.148474 -0.480237 -0.0105393 255 95 48
0.296812 -0.421485 -0.00821962 255 95 48
0.275804 -0.391593 0.181009 255 95 48
-0.0210413 -0.487161 0.0775159 255 95 48
0.271696 -0.466117 0.0419139 255 95 48
0.0474114 -0.48812 0.135169 255 95 48
-0.249932 -0.349842 0.340342 255 95 48
-0.0389626 -0.501971 0.352573 255 95 48
-0.0740994 -0.426773 -0.270434 255 95 48
0.229815 -0.420304 0.203108 255 95 48
-0.142746 -0.448162 -0.153847 255 95 48
-0.0364586 -0.458633 -0.0773555 255 95 48
-0.236384 -0.352093 0.364362 255 95 48
0.315323 -0.294996 -0.127502 255 95 48
0.292496 -0.433785 -0.0245545 255 95 48
-0.194974 -0.389807 0.36838 255 95 48
0.31381 -0.337564 0.00649963 255 95 48
0.292134 -0.399993 0.10339 255 95 48
0.229414 -0.474992 0.0541318 255 95 48
-0.120354 -0.421023 -0.278843 255 95 48
-0.0479505 -0.48933 -0.0310889 255 95 48
-0.0905573 -0.463353 -0.0912719 255 95 48
0.271418 -0.456282 0.0785293 255 95 48
-0.262476 -0.310358 0.326796 255 95 48
-0.110292 -0.453321 0.281342 255 95 48
0.166927 -0.464195 0.23852 255 95 48
0.0383182 -0.504531 0.347142 255 95 48
0.179791 -0.459703 0.232824 255 95 48
0.245631 -0.468307 0.262206 255 95 48
0.272795 -0.456703 0.0727254 255 95 48
0.104112 -0.442782 -0.148442 255 95 48
0.28035 -0.443612 0.075633 255 95 48
-0.190025 -0.334799 0.318907 255 95 48
-0.164843 -0.385729 0.336201 255 95 48
-0.197099 -0.304508 0.364461 255 95 48
-0.143341 -0.472215 0.204691 255 95 48
-0.243354 -0.355403 0.354132 255 95 48
-0.265342 -0.488426 0.177266 255 95 48
0.0433189 -0.49175 0.17446 255 95 48
-0.171138 -0.354213 0.304636 255 95 48
-0.285778 -0.456285 -0.019867 255 95 48
-0.215878 -0.29777 0.334165 255 95 48
0.160705 -0.489923 0.290158 255 95 48
0.209781 -0.455315 0.254351 255 95 48
-0.258674 -0.385193 0.329361 255 95 48
-0.22921 -0.346451 0.365444 255 95 48
0.245391 -0.467066 -0.0747939 255 95 48
-0.189183 -0.444949 0.229203 255 95 48
0.265393 -0.467206 0.0528979 255 95 48
-0.229387 -0.311736 0.323973 255 95 48
0.126128 -0.495804 0.30793 255 95 48
-0.218564 -0.45287 -0.0827179 255 95 48
-0.277228 -0.489796 0.238575 255 95 48
0.161475 -0.484749 0.148032 255 95 48
-0.258731 -0.441546 0.333842 255 95 48
0.279484 -0.386353 0.178986 255 95 48
-0.0811424 -0.484878 0.170778 255 95 48
-0.16711 -0.468134 -0.035358 255 95 48
-0.13022 -0.465196 0.353236 255 95 48
0.280335 -0.45962 0.0362001 255 95 48
-0.151661 -0.48798 0.354763 255 95 48
-0.174397 -0.411252 0.278622 255 95 48
-0.210619 -0.442949 0.237062 255 95 48
-0.249315 -0.450745 -0.142488 255 95 48
-0.149131 -0.42028 0.303746 255 95 48
-0.249007 -0.28816 0.342568 255 95 48
-0.24484 -0.400486 0.35701 255 95 48
-0.212127 -0.297813 0.334236 255 95 48
0.284505 -0.4196 -0.0760997 255 95 48
-0.119937 -0.486217 0.352241 255 95 48
-0.158916 -0.396528 0.349151 255 95 48
-0.312625 -0.476292 0.101155 255 95 48
-0.245309 -0.451661 -0.116466 255 95 48
0.168186 -0.478686 -0.0322493 255 95 48
-0.110588 -0.491608 0.00778314 255 95 48
-0.17619 -0.409012 -0.289739 255 95 48
-0.147279 -0.480582 0.176604 255 95 48
0.201544 -0.453416 -0.155317 255 95 48
0.13194 -0.497169 0.30874 255 95 48
-0.230542 -0.293834 0.365291 255 95 48
-0.155888 -0.443312 0.35587 255 95 48
-0.21853 -0.451607 -0.107496 255 95 48
0.237539 -0.409797 -0.170325 255 95 48
-0.18392 -0.315549 0.357785 255 95 48
-0.120815 -0.484256 0.122706 255 95 48
-0.254595 -0.4041 0.338358 255 95 48
0.0432176 -0.488606 0.0986479 255 95 48
0.235479 -0.420097 0.194402 255 95 48
-0.252863 -0.318016 0.313142 255 95 48
0.156947 -0.427307 -0.200471 255 95 48
0.102087 -0.48695 0.0718029 255 95 48
-0.0920099 -0.505082 0.361558 255 95 48
-0.0349927 -0.487361 0.140916 255 95 48
0.304685 -0.380907 -0.0353289 255 95 48
-0.213578 -0.266325 0.360092 255 95 48
-0.112309 -0.465024 -0.0143853 255 95 48
0.125786 -0.480898 -0.083445 255 95 48
-0.167378 -0.376672 0.343355 255 95 48
-0.206552 -0.482421 0.162279 255 95 48
-0.212257 -0.273308 0.367674 255 95 48
0.195213 -0.47865 -0.0227991 255 95 48
-0.17454 -0.447941 -0.180482 255 95 48
0.271113 -0.343867 -0.197685 255 95 48
-0.147151 -0.448746 0.247852 255 95 48
-0.248344 -0.454145 -0.0555707 255 95 48
-0.160501 -0.418907 0.356569 255 95 48
-0.248831 -0.429655 0.350857 255 95 48
0.152381 -0.361235 -0.0262634 255 46 23
0.17745 -0.384378 0.0832821 255 46 23
-0.158068 -0.219099 0.325551 255 46 23
0.191735 -0.453842 0.0701583 255 46 23
-0.0309416 -0.4981 0.122431 255 46 23
0.219244 -0.398479 -0.11611 255 46 23
0.0436814 -0.500332 0.0577991 255 46 23
0.238636 -0.396436 0.0871321 255 46 23
0.202673 -0.406161 -0.0371544 255 46 23
0.225575 -0.471006 0.124415 255 46 23
0.143499 -0.496513 0.283552 255 46 23
0.128649 -0.368725 -0.0793973 255 46 23
0.0678978 -0.500206 0.0692686 255 46 23
-0.144457 -0.279671 0.327221 255 46 23
0.228911 -0.364241 0.119265 255 46 23
-0.184181 -0.289503 0.345176 255 46 23
0.160593 -0.434854 -0.00312391 255 46 23
0.0532101 -0.473537 -0.129062 255 46 23
0.124392 -0.487414 0.0443794 255 46 23
-0.17694 -0.172563 0.326137 255 46 23
0.231193 -0.492996 0.304276 255 46 23
0.259137 -0.389371 0.0680355 255 46 23
0.208959 -0.359816 0.0490107 255 46 23
0.225651 -0.390939 -0.183812 255 46 23
0.108302 -0.366894 -0.00381951 255 46 23
0.292071 -0.381254 -0.00949087 255 46 23
0.101156 -0.440742 -0.151826 255 46 23
0.178879 -0.477008 0.0604238 255 46 23
0.255746 -0.487592 0.269001 255 46 23
0.233721 -0.421564 0.127846 255 46 23
0.215551 -0.403552 0.0965443 255 46 23
-0.157906 -0.224546 0.330446 255 46 23
0.00603308 -0.502487 0.154393 255 46 23
0.245144 -0.362542 -0.00221302 255 46 23
-0.152629 -0.466595 0.206032 255 46 23
-0.145459 -0.334401 0.324231 255 46 23
-0.157996 -0.451831 0.33177 255 46 23
0.232542 -0.348028 -0.0487116 255 46 23
-0.0275403 -0.508498 0.00820459 255 46 23
0.117429 -0.409233 -0.0851058 255 46 23
0.31589 -0.369423 -0.157109 255 46 23
0.00865998 -0.499935 0.105834 255 46 23
-0.0726915 -0.482676 0.205984 255 46 23
0.289893 -0.381568 -0.0027364 255 46 23
0.159082 -0.360831 0.0396757 255 46 23
0.157638 -0.399628 0.02509 255 46 23
-0.169405 -0.185944 0.313962 255 46 23
0.0333754 -0.501605 -0.0274613 255 46 23
0.210759 -0.400315 -0.125257 255 46 23
-0.183021 -0.234807 0.292504 255 46 23
0.225927 -0.4725 0.127284 255 46 23
-0.119379 -0.464474 0.250331 255 46 23
-0.178124 -0.266455 0.344203 255 46 23
0.256175 -0.469671 0.178039 255 46 23
-0.191974 -0.216302 0.285348 255 46 23
-0.129471 -0.469202 0.222537 255 46 23
0.232367 -0.483384 0.225842 255 46 23
0.257738 -0.454411 0.180111 255 46 23
0.232949 -0.396151 -0.0896638 255 46 23
0.121642 -0.429815 0.00854258 255 46 23
-0.11605 -0.5019 0.0674185 255 46 23
0.09081 -0.426339 -0.0494766 255 46 23
-0.146095 -0.359461 0.32748 255 46 23
0.124477 -0.425694 -0.1787 255 46 23
-0.139086 -0.482932 0.15072 255 46 23
0.154013 -0.37182 -0.0324919 255 46 23
-0.165117 -0.210782 0.332184 255 46 23
-0.0847737 -0.479994 0.314127 255 46 23
0.223803 -0.35653 0.110235 255 46 23
-0.154325 -0.22356 0.32463 255 46 23
-0.148865 -0.411484 0.328771 255 46 23
-0.150686 -0.477798 0.121552 255 46 23
0.231976 -0.354835 0.0862925 255 46 23
0.186347 -0.422232 0.0717228 255 46 23
0.292684 -0.369032 -0.202434 255 46 23
-0.155163 -0.427278 0.333511 255 46 23
0.105077 -0.375834 0.00567856 255 46 23
0.176759 -0.410136 0.0982368 255 46 23
-0.172807 -0.323807 0.34159 255 46 23
-0.172752 -0.189654 0.331294 255 46 23
0.198806 -0.365341 0.111165 255 46 23
-0.175431 -0.442485 0.27781 255 46 23
-0.146077 -0.31342 0.314748 255 46 23
-0.196302 -0.425968 0.343856 255 46 23
0.177624 -0.369243 0.0930018 255 46 23
0.123213 -0.47634 -0.040435 255 46 23
0.221801 -0.435128 0.109204 255 46 23
-0.164097 -0.194461 0.327502 255 46 23
0.266808 -0.473932 0.205352 255 46 23
0.243117 -0.426932 0.142029 255 46 23
0.226803 -0.46582 0.122632 255 46 23
0.246524 -0.36795 -0.252104 255 46 23
0.129475 -0.492321 0.0899448 255 46 23
-0.176512 -0.393962 0.292434 255 46 23
0.0341211 -0.50284 0.201823 255 46 23
0.199585 -0.374318 0.107477 255 46 23
0.221379 -0.347068 0.0902606 255 46 23
-0.174949 -0.396174 0.295694 255 46 23
-0.145099 -0.466063 0.335038 255 46 23
0.210438 -0.377402 0.113855 255 46 23
-0.175448 -0.218641 0.341376 255 46 23
0.0421716 -0.502192 0.229448 255 46 23
-0.165475 -0.424616 0.328901 255 46 23
-0.159294 -0.369032 0.318313 255 46 23
0.179641 -0.367258 0.0970389 255 46 23
-0.165915 -0.390909 0.326638 255 46 23
-0.186185 -0.170662 0.286274 255 46 23
-0.144171 -0.270085 0.326752 255 46 23
-0.093364 -0.495995 0.104153 255 46 23
0.201039 -0.351247 0.104941 255 46 23
-0.150688 -0.277908 0.328967 255 46 23
0.195 -0.491001 0.263904 255 46 23
0.253931 -0.439497 0.162995 255 46 23
-0.150001 -0.247951 0.309207 255 46 23
-0.15209 -0.456223 0.255075 255 46 23
0.112507 -0.496306 0.103365 255 46 23
0.132694 -0.423799 -0.179036 255 46 23
-0.148591 -0.454093 0.259104 255 46 23
0.254828 -0.385283 -0.155409 255 46 23
-0.188894 -0.390076 0.342752 255 46 23
-0.186545 -0.299729 0.281062 255 46 23
0.209342 -0.355846 0.0379508 255 46 23
-0.188745 -0.20893 0.287601 255 46 23
0.143847 -0.419943 0.00904712 255 46 23
0.212088 -0.43757 0.0989832 255 46 23
-0.180433 -0.27435 0.293765 255 46 23
0.240672 -0.358033 0.00341802 255 46 23
0.21663 -0.336267 0.0271224 255 46 23
0.180747 -0.347914 0.0913427 255 46 23
-0.159099 -0.374054 0.330706 255 46 23
-0.10049 -0.503274 -0.00923375 255 46 23
-0.159856 -0.222379 0.317955 255 46 23
-0.192283 -0.390193 0.343378 255 46 23
0.117364 -0.37989 -0.0525391 255 46 23
-0.167867 -0.270245 0.341804 255 46 23
0.0803797 -0.496197 0.0346334 255 46 23
-0.121039 -0.464815 0.256644 255 46 23
0.215761 -0.339356 0.0615636 255 46 23
0.20307 -0.336624 0.0626215 255 46 23
0.171745 -0.342125 0.0615039 255 46 23
-0.177594 -0.165616 0.299274 255 46 23
0.15203 -0.431513 -0.045525 255 46 23
0.202334 -0.331928 0.00484204 255 46 23
0.153731 -0.432539 -0.139863 255 46 23
0.0512474 -0.50298 0.122381 255 46 23
0.196632 -0.349055 0.101929 255 46 23
-0.139189 -0.283792 0.325542 255 46 23
0.0675016 -0.503149 0.12973 255 46 23
0.196344 -0.388611 0.0961455 255 46 23
0.231397 -0.400722 0.140211 255 46 23
0.228011 -0.394652 -0.131349 255 46 23
-0.173065 -0.212818 0.337639 255 46 23
0.195016 -0.333877 0.0143416 255 46 23
-0.150757 -0.308243 0.328135 255 46 23
-0.155099 -0.29341 0.332195 255 46 23
0.148808 -0.464251 -0.0250305 255 46 23
-0.161346 -0.461796 0.238146 255 46 23
0.224416 -0.337766 -0.0366588 255 46 23
0.219856 -0.337752 -0.0532409 255 46 23
-0.0229877 -0.504141 0.0700205 255 46 23
0.108598 -0.372448 -0.0328402 255 46 23
-0.171937 -0.381214 0.297056 255 46 23
0.245423 -0.422064 0.151549 255 46 23
0.1525 -0.419839 -0.0903717 255 46 23
-0.150031 -0.407118 0.331293 255 46 23
0.272976 -0.404724 0.0409112 255 46 23
0.0985724 -0.468283 -0.195819 255 46 23
-0.161847 -0.446941 0.298442 255 46 23
0.126275 -0.370075 -0.0750487 255 46 23
0.155766 -0.368881 0.018548 255 46 23
0.147827 -0.407124 -0.115904 255 46 23
-0.175686 -0.16977 0.302965 255 46 23
-0.16986 -0.192886 0.30961 255 46 23
-0.158578 -0.435303 0.329135 255 46 23
-0.155338 -0.22306 0.32388 255 46 23
0.20929 -0.40613 0.100923 255 46 23
0.141845 -0.420343 -0.186884 255 46 23
-0.0904645 -0.477248 0.328576 255 46 23
-0.0569913 -0.509859 -0.0299271 255 46 23
-0.164129 -0.363616 0.303474 255 46 23
-0.151983 -0.422426 0.331326 255 46 23
-0.165149 -0.428052 0.335001 255 46 23
-0.175132 -0.437385 0.281089 255 46 23
0.0568433 -0.468388 -0.11444 255 46 23
-0.179035 -0.157928 0.299997 255 46 23
0.319564 -0.343007 -0.263582 255 46 23
0.2309 -0.344838 -0.00484867 255 46 23
-0.174959 -0.409517 0.338653 255 46 23
0.129974 -0.425581 -0.144978 255 46 23
-0.140458 -0.461656 0.300344 255 46 23
-0.176716 -0.184531 0.295139 255 46 23
0.210494 -0.389077 0.0989024 255 46 23
0.263902 -0.388459 0.0342929 255 46 23
-0.0331837 -0.509492 -0.0327926 255 46 23
-0.143623 -0.34946 0.328491 255 46 23
-0.196055 -0.442311 0.343455 255 46 23
0.148047 -0.49266 0.144041 255 46 23
-0.186206 -0.253303 0.290365 255 46 23
-0.145433 -0.359697 0.333429 255 46 23
0.0980669 -0.500385 0.144185 255 46 23
0.176878 -0.489524 0.192676 255 46 23
0.107944 -0.368496 -0.00621597 255 46 23
0.311334 -0.372712 -0.131867 255 46 23
-0.148137 -0.389823 0.3313 255 46 23
-0.204173 -0.421461 0.174954 255 46 23
-0.154727 -0.441437 0.331845 255 46 23
-0.178602 -0.429044 0.338957 255 46 23
0.15617 -0.41746 -0.043867 255 46 23
-0.0219049 -0.508914 -0.0301692 255 46 23
0.0244608 -0.500737 0.0925938 255 46 23
0.217376 -0.40182 -0.0402919 255 46 23
0.113318 -0.483301 -0.0154917 255 46 23
0.0813229 -0.502471 0.110966 255 46 23
0.105941 -0.365467 0.0305957 255 46 23
0.261322 -0.389789 -0.0172481 255 46 23
-0.106284 -0.473788 0.277661 255 46 23
0.315256 -0.368692 -0.174461 255 46 23
-0.172126 -0.387661 0.299755 255 46 23
0.0980048 -0.492241 -0.0870726 255 46 23
-0.162851 -0.201933 0.325755 255 46 23
0.165718 -0.34476 0.0492915 255 46 23
0.121313 -0.38853 -0.061466 255 46 23
0.257818 -0.39637 0.100303 255 46 23
-0.201543 -0.334912 0.26147 255 46 23
-0.160802 -0.228196 0.306691 255 46 23
-0.16015 -0.221681 0.332029 255 46 23
0.225677 -0.344858 0.0628917 255 46 23
0.0154213 -0.505201 -0.0289372 255 46 23
0.320458 -0.364874 -0.187208 255 46 23
0.247357 -0.378433 0.0966667 255 46 23
0.159638 -0.339945 -0.0526749 255 46 23
0.134432 -0.42308 -0.185444 255 46 23
0.218822 -0.404934 0.105114 255 46 23
0.247187 -0.37081 0.0673799 255 46 23
0.150711 -0.445623 -0.0491356 255 46 23
-0.095998 -0.477347 0.203675 255 46 23
0.147122 -0.385258 -0.100037 255 46 23
0.110671 -0.418081 -0.0961667 255 46 23
0.158748 -0.396583 0.0947218 255 46 23
0.232526 -0.431962 0.124442 255 46 23
-0.168133 -0.195779 0.313214 255 46 23
0.227169 -0.394147 -0.142581 255 46 23
-0.188117 -0.180579 0.285678 255 46 23
0.101735 -0.499742 0.126754 255 46 23
0.306653 -0.346848 -0.263655 255 46 23
0.197071 -0.334871 0.0317681 255 46 23
-0.171456 -0.341774 0.294721 255 46 23
0.241123 -0.363506 0.0562831 255 46 23
0.163137 -0.336757 -0.0532821 255 46 23
0.131782 -0.379443 0.0773516 255 46 23
0.153731 -0.369724 -0.0756288 255 46 23
-0.154113 -0.243686 0.306833 255 46 23
-0.181753 -0.162772 0.321663 255 46 23
0.151088 -0.375285 0.0790756 255 46 23
0.171402 -0.416738 0.0481936 255 46 23
0.0563356 -0.503706 0.148658 255 46 23
0.137909 -0.41624 -0.209064 255 46 23
-0.143237 -0.257336 0.314987 255 46 23
0.0854072 -0.502185 0.134776 255 46 23
0.0206115 -0.495472 0.297267 255 46 23
-0.141326 -0.316953 0.325136 255 46 23
-0.176571 -0.172147 0.325945 255 46 23
0.182243 -0.338416 0.0586009 255 46 23
0.125628 -0.360906 -0.0728574 255 46 23
0.149165 -0.478599 0.0294156 255 46 23
0.147219 -0.419927 -0.172211 255 46 23
-0.172266 -0.188759 0.304727 255 46 23
-0.138997 -0.312735 0.329558 255 46 23
-0.173643 -0.451796 0.206623 255 46 23
0.114418 -0.497784 0.139077 255 46 23
0.196327 -0.342026 0.0953903 255 46 23
0.158987 -0.409952 -0.102534 255 46 23
0.255871 -0.371412 -0.0501492 255 46 23
-0.165537 -0.341528 0.299009 255 46 23
0.160249 -0.452536 -0.125235 255 46 23
0.18245 -0.349587 0.095088 255 46 23
0.208577 -0.387736 -0.214372 255 46 23
-0.157079 -0.222136 0.329765 255 46 23
-0.0519879 -0.509226 -0.053283 255 46 23
0.307955 -0.36484 -0.203207 255 46 23
0.154031 -0.405828 -0.031815 255 46 23
0.22092 -0.342379 0.0643863 255 46 23
0.172071 -0.369941 0.0783936 255 46 23
0.301989 -0.367698 -0.19701 255 46 23
-0.114166 -0.473746 0.335172 255 46 23
0.231273 -0.472057 0.138347 255 46 23
0.00771853 -0.508614 -0.0824848 255 46 23
-0.139203 -0.312891 0.32917 255 46 23
-0.06399 -0.494403 0.135941 255 46 23
0.113274 -0.433724 0.00761444 255 46 23
-0.132126 -0.480736 0.165042 255 46 23
0.163761 -0.415697 -0.0248529 255 46 23
-0.150497 -0.303329 0.3082 255 46 23
-0.0977426 -0.476315 0.319204 255 46 23
-0.180025 -0.14906 0.307539 255 46 23
-0.180699 -0.411852 0.288171 255 46 23
0.240832 -0.354053 -0.04001 255 46 23
0.0461382 -0.505427 -0.10572 255 46 23
-0.161517 -0.251562 0.3362 255 46 23
-0.161968 -0.301572 0.339384 255 46 23
-0.155457 -0.238303 0.329366 255 46 23
-0.169604 -0.399085 0.322422 255 46 23
-0.0942659 -0.486587 0.169289 255 46 23
0.239075 -0.475382 0.165057 255 46 23
0.0355567 -0.471192 -0.130037 255 46 23
0.215661 -0.490747 0.292077 255 46 23
0.193582 -0.367572 0.108211 255 46 23
0.146047 -0.456846 -0.0451795 255 46 23
0.150398 -0.469326 -0.0136068 255 46 23
0.112397 -0.49789 0.225367 255 46 23
-0.197341 -0.330009 0.269204 255 46 23
0.159378 -0.356977 0.0293874 255 46 23
-0.169756 -0.457109 0.334938 255 46 23
0.0617969 -0.42924 -0.117041 255 46 23
-0.157163 -0.221002 0.329569 255 46 23
0.278263 -0.400457 -0.0248106 255 46 23
0.224999 -0.352574 0.0986747 255 46 23
0.136634 -0.423082 -0.172087 255 46 23
0.156282 -0.361997 0.0552887 255 46 23
0.244692 -0.389542 0.128822 255 46 23
-0.13841 -0.276857 0.322614 255 46 23
0.11787 -0.486782 0.0239373 255 46 23
0.0543833 -0.500977 0.0924065 255 46 23
-0.176141 -0.449744 0.187288 255 46 23
-0.00195403 -0.498461 0.250245 255 46 23
0.159297 -0.338667 -0.054527 255 46 23
0.246471 -0.479962 0.215621 255 46 23
-0.192955 -0.225197 0.284329 255 46 23
-0.156821 -0.246083 0.33095 255 46 23
0.167435 -0.413052 0.0935676 255 46 23
-0.152439 -0.337606 0.314129 255 46 23
-0.178177 -0.2931 0.344311 255 46 23
-0.150338 -0.258687 0.308254 255 46 23
0.223082 -0.399774 -0.00450785 255 46 23
-0.200089 -0.415411 0.220054 255 46 23
0.10639 -0.374473 0.0527233 255 46 23
0.163518 -0.376513 0.065218 255 46 23
-0.0691384 -0.481321 0.337534 255 46 23
-0.181518 -0.216641 0.29373 255 46 23
0.221804 -0.394345 -0.161428 255 46 23
-0.141451 -0.290505 0.319821 255 46 23
-0.162153 -0.215099 0.33262 255 46 23
0.226054 -0.483594 0.215418 255 46 23
-0.140593 -0.461628 0.309428 255 46 23
0.173484 -0.342645 0.0718401 255 46 23
0.0939987 -0.421628 -0.0356666 255 46 23
0.173395 -0.339702 0.024365 255 46 23
-0.187424 -0.175834 0.285768 255 46 23
0.245273 -0.368425 0.0526003 255 46 23
0.33313 -0.356379 -0.211744 255 46 23
0.191344 -0.360768 0.10516 255 46 23
-0.174483 -0.392929 0.296837 255 46 23
-0.158384 -0.353986 0.309847 255 46 23
0.232512 -0.378134 0.128332 255 46 23
-0.17878 -0.224646 0.342772 255 46 23
0.295456 -0.359834 -0.238131 255 46 23
0.146127 -0.456916 -0.0808319 255 46 23
0.0534502 -0.50264 0.114435 255 46 23
-0.152125 -0.375387 0.33396 255 46 23
-0.0233856 -0.497706 0.221265 255 46 23
-0.163075 -0.317236 0.33976 255 46 23
0.249596 -0.454038 0.158896 255 46 23
0.17217 -0.489697 0.173366 255 46 23
0.23127 -0.479471 0.183175 255 46 23
0.0661865 -0.435906 -0.137199 255 46 23
0.158521 -0.410624 -0.200837 255 46 23
0.214527 -0.448411 0.100877 255 46 23
0.296422 -0.37097 -0.187986 255 46 23
0.218846 -0.400886 0.0692495 255 46 23
-0.145864 -0.244872 0.314169 255 46 23
0.137721 -0.42597 -0.0904757 255 46 23
0.235461 -0.47934 0.191375 255 46 23
-0.047538 -0.487031 0.312246 255 46 23
-0.169076 -0.408415 0.326232 255 46 23
0.25756 -0.366473 -0.247801 255 46 23
-0.201211 -0.429138 0.158726 255 46 23
-0.0771435 -0.498304 0.089995 255 46 23
0.252602 -0.371074 -0.0115857 255 46 23
0.254409 -0.372163 -0.0536599 255 46 23
0.148095 -0.420969 -0.0968099 255 46 23
-0.165864 -0.420497 0.328914 255 46 23
-0.177767 -0.403166 0.339709 255 46 23
0.24733 -0.433207 0.149239 255 46 23
-0.158837 -0.460064 0.247351 255 46 23
-0.0827537 -0.48179 0.263936 255 46 23
-0.142485 -0.323237 0.323421 255 46 23
0.191827 -0.37637 0.100107 255 46 23
-0.181664 -0.15674 0.292536 255 46 23
0.156991 -0.485953 0.0840394 255 46 23
0.203084 -0.402241 0.103693 255 46 23
-0.16875 -0.191157 0.313555 255 46 23
-0.153695 -0.452294 0.278896 255 46 23
-0.166247 -0.398891 0.336584 255 46 23
-0.144436 -0.259906 0.326219 255 46 23
0.122953 -0.428153 0.0373703 255 46 23
0.116026 -0.496035 0.110035 255 46 23
0.253289 -0.389571 -0.10971 255 46 23
0.153149 -0.458887 -0.107602 255 46 23
0.119142 -0.431256 -0.0145906 255 46 23
-0.160018 -0.462695 0.24136 255 46 23
0.152544 -0.494224 0.243371 255 46 23
0.0683729 -0.498311 0.041415 255 46 23
-0.181911 -0.286269 0.344893 255 46 23
-0.150083 -0.236545 0.311847 255 46 23
0.161749 -0.41775 0.02716 255 46 23
0.231904 -0.39694 0.0644583 255 46 23
-0.144154 -0.48263 0.0201875 255 46 23
-0.160959 -0.446532 0.334291 255 46 23
0.0784134 -0.431175 -0.123191 255 46 23
0.14569 -0.346005 0.0115604 255 46 23
-0.14703 -0.242787 0.315845 255 46 23
-0.148841 -0.317948 0.31062 255 46 23
-0.169429 -0.178357 0.322274 255 46 23
0.200076 -0.491944 0.279229 255 46 23
-0.116425 -0.479837 0.338837 255 46 23
-0.163246 -0.416507 0.334917 255 46 23
0.15238 -0.422866 -0.0686391 255 46 23
-0.156986 -0.4308 0.32906 255 46 23
-0.151934 -0.235103 0.327468 255 46 23
0.109789 -0.410632 0.0234417 255 46 23
0.195084 -0.362381 0.107901 255 46 23
0.109248 -0.440394 -0.115518 255 46 23
-0.172695 -0.391546 0.338744 255 46 23
-0.156138 -0.238922 0.329872 255 46 23
0.215788 -0.344467 0.0902173 255 46 23
-0.000299774 -0.504512 0.0436308 255 46 23
0.198131 -0.364208 0.110398 255 46 23
0.231047 -0.397875 0.0831874 255 46 23
-0.170052 -0.386111 0.338172 255 46 23
0.236348 -0.358331 0.0682992 255 46 23
0.0172601 -0.498868 0.357484 255 46 23
-0.176075 -0.314644 0.293671 255 46 23
-0.186473 -0.181966 0.287212 255 46 23
0.196527 -0.407776 -0.0107158 255 46 23
-0.133791 -0.468028 0.225162 255 46 23
-0.147773 -0.338537 0.32675 255 46 23
0.243088 -0.480682 0.216036 255 46 23
-0.090541 -0.478459 0.313778 255 46 23
-0.158404 -0.224545 0.315473 255 46 23
0.00995993 -0.502289 0.0582704 255 46 23
-0.156917 -0.229689 0.309957 255 46 23
0.098025 -0.426167 -0.0278986 255 46 23
-0.161954 -0.216444 0.332818 255 46 23
0.244223 -0.402733 0.144147 255 46 23
0.17137 -0.415332 -0.0642591 255 46 23
0.210971 -0.403688 -0.0584985 255 46 23
0.229359 -0.348766 0.0730484 255 46 23
-0.166855 -0.386568 0.313456 255 46 23
0.116491 -0.497594 0.222484 255 46 23
-0.0692799 -0.49288 0.143368 255 46 23
0.174543 -0.36161 0.0567289 255 46 23
0.241492 -0.380968 0.122595 255 46 23
-0.183209 -0.441575 0.268544 255 46 23
0.212216 -0.331374 -0.046518 255 46 23
-0.00255893 -0.501832 0.171771 255 46 23
0.0692817 -0.501935 0.18287 255 46 23
0.00328712 -0.500584 0.0960393 255 46 23
0.156166 -0.358104 0.00862443 255 46 23
-0.00105364 -0.493434 0.348501 255 46 23
-0.162865 -0.295074 0.300283 255 46 23
-0.110833 -0.503491 0.0237832 255 46 23
0.220659 -0.335652 -0.0359609 255 46 23
0.0913636 -0.44748 -0.136063 255 46 23
-0.193726 -0.237427 0.283748 255 46 23
0.324871 -0.349121 -0.250809 255 46 23
-0.183717 -0.430104 0.340388 255 46 23
0.14534 -0.352023 -0.0697005 255 46 23
-0.182208 -0.323147 0.343769 255 46 23
0.205678 -0.44277 0.0928901 255 46 23
-0.14047 -0.307694 0.325823 255 46 23
0.243271 -0.360147 -0.0523553 255 46 23
0.127227 -0.428486 -0.134374 255 46 23
0.142098 -0.358415 -0.083469 255 46 23
0.222484 -0.462859 0.112147 255 46 23
0.155311 -0.456421 -0.111386 255 46 23
-0.0602378 -0.486699 0.202491 255 46 23
-0.171532 -0.210473 0.335037 255 46 23
0.168885 -0.413967 -0.137929 255 46 23
-0.163883 -0.336676 0.338648 255 46 23
-0.140912 -0.29736 0.32658 255 46 23
-0.18207 -0.360765 0.341974 255 46 23
0.0467314 -0.452642 -0.126398 255 46 23
0.230685 -0.482771 0.215714 255 46 23
-0.187625 -0.427966 0.277157 255 46 23
0.0554506 -0.49435 0.33509 255 46 23
0.153406 -0.419468 -0.0794623 255 46 23
-0.13977 -0.318803 0.328832 255 46 23
0.114992 -0.49589 0.313619 255 46 23
0.220246 -0.469884 0.11124 255 46 23
-0.171974 -0.428536 0.315088 255 46 23
-0.144241 -0.253312 0.319023 255 46 23
-0.187163 -0.233558 0.290044 255 46 23
0.104334 -0.370524 0.0258311 255 46 23
0.168578 -0.395817 0.0628775 255 46 23
-0.141327 -0.318031 0.32523 255 46 23
0.290582 -0.367708 -0.211527 255 46 23
-0.170611 -0.18514 0.310788 255 46 23
-0.16185 -0.444022 0.32748 255 46 23
0.108121 -0.360904 0.0231708 255 46 23
0.213266 -0.402149 -0.0769622 255 46 23
-0.176488 -0.263963 0.343826 255 46 23
-0.17797 -0.155928 0.312539 255 46 23
0.105026 -0.375445 0.00530967 255 46 23
0.129225 -0.361474 0.0444329 255 46 23
-0.16075 -0.222136 0.316998 255 46 23
-0.144678 -0.329033 0.326968 255 46 23
