ply
format ascii 1.0
comment Created by Open3D
element vertex 1156
property double x
property double y
property double z
property uchar red
property uchar green
property uchar blue
end_header
0.0384942 -0.432783 0.3625 96 250 196
-0.369358 -0.485537 -0.0797977 96 250 196
0.0440883 -0.38191 0.163731 96 250 196
-0.0326653 -0.48665 0.390875 96 250 196
-0.24676 -0.485427 -0.28715 96 250 196
-0.0951692 -0.48724 0.249791 96 250 196
0.049509 -0.455653 -0.187446 96 250 196
-0.165251 -0.48654 -0.116892 96 250 196
-0.20966 -0.485729 -0.262203 96 250 196
-0.156835 -0.486804 0.366665 96 250 196
-0.315597 -0.484511 -0.303051 96 250 196
-0.266568 -0.467484 -0.366428 96 250 196
-0.121879 -0.486538 -0.170183 96 250 196
-0.220069 -0.4866 0.100662 96 250 196
-0.383274 -0.48505 -0.0599806 96 250 196
-0.258808 -0.485577 -0.237134 96 250 196
-0.118697 -0.487065 0.0558212 96 250 196
-0.306766 -0.461729 -0.354217 96 250 196
-0.26421 -0.48485 -0.354237 96 250 196
-0.198609 -0.485482 -0.329839 96 250 196
0.0387651 -0.379068 0.376119 96 250 196
-0.055536 -0.433716 -0.358271 96 250 196
-0.325648 -0.485704 0.176894 96 250 196
-0.198376 -0.485681 -0.295896 96 250 196
-0.268747 -0.485653 -0.211072 96 250 196
-0.221487 -0.405511 -0.375728 96 250 196
-0.306182 -0.484639 -0.312011 96 250 196
-0.0435478 -0.343751 -0.358441 96 250 196
0.0302531 -0.486791 -0.171943 96 250 196
-0.363693 -0.484518 -0.203225 96 250 196
0.00684229 -0.486669 0.357469 96 250 196
-0.0951212 -0.484088 -0.350069 96 250 196
-0.339983 -0.484773 -0.243939 96 250 196
-0.304241 -0.468955 -0.355237 96 250 196
-0.319828 -0.48579 0.154038 96 250 196
-0.214189 -0.486212 0.364149 96 250 196
-0.181079 -0.486571 0.366021 96 250 196
-0.351801 -0.485761 -0.0445745 96 250 196
-0.289692 -0.486065 0.172783 96 250 196
-0.316917 -0.48372 -0.342259 96 250 196
-0.0713127 -0.486607 0.400461 96 250 196
-0.121179 -0.394726 -0.361526 96 250 196
0.0396199 -0.47822 0.346306 96 250 196
-0.345995 -0.485629 0.0455015 96 250 196
-0.261863 -0.484851 -0.35617 96 250 196
-0.103576 -0.487212 0.259015 96 250 196
-0.334448 -0.48577 -0.00198973 96 250 196
-0.204325 -0.48522 -0.359565 96 250 196
0.0390032 -0.479516 0.321234 96 250 196
-0.310365 -0.485884 0.0945861 96 250 196
0.0492392 -0.424797 0.0184594 96 250 196
-0.129043 -0.487169 0.180553 96 250 196
-0.00199445 -0.487401 0.162505 96 250 196
0.0170898 -0.486086 0.399224 96 250 196
-0.157382 -0.451177 0.401804 96 250 196
-0.32935 -0.485418 0.244888 96 250 196
-0.123768 -0.486385 0.407665 96 250 196
-0.123136 -0.486701 0.388743 96 250 196
-0.224941 -0.485344 -0.328749 96 250 196
-0.299931 -0.483926 -0.353659 96 250 196
-0.357814 -0.485118 -0.179832 96 250 196
0.0267354 -0.487202 0.268878 96 250 196
-0.347839 -0.484077 -0.274995 96 250 196
-0.0349226 -0.487323 0.24355 96 250 196
-0.313201 -0.484409 -0.312977 96 250 196
-0.22393 -0.486495 0.299983 96 250 196
-0.307031 -0.485852 -0.00337255 96 250 196
-0.198752 -0.486269 -0.155094 96 250 196
-0.0811079 -0.486263 -0.253372 96 250 196
0.0393434 -0.39674 0.378831 96 250 196
-0.2458 -0.389995 -0.375022 96 250 196
0.0345852 -0.486137 0.38536 96 250 196
-0.230417 -0.486426 0.299553 96 250 196
-0.37462 -0.485485 -0.073241 96 250 196
-0.146407 -0.485884 -0.300427 96 250 196
-0.27729 -0.486046 0.248733 96 250 196
-0.353048 -0.483792 -0.278446 96 250 196
-0.339709 -0.485635 0.153414 96 250 196
0.0366208 -0.487397 0.222899 96 250 196
-0.0481142 -0.487218 0.306281 96 250 196
-0.25704 -0.486213 0.262132 96 250 196
-0.222601 -0.424781 -0.3751 96 250 196
-0.179892 -0.486176 -0.200041 96 250 196
-0.245394 -0.472973 -0.367888 96 250 196
-0.373402 -0.484882 -0.150787 96 250 196
-0.193324 -0.454022 0.380662 96 250 196
-0.0582745 -0.486397 -0.233884 96 250 196
-0.0506138 -0.48634 -0.25737 96 250 196
-0.0764284 -0.483208 -0.349408 96 250 196
-0.188705 -0.485348 -0.352963 96 250 196
-0.119405 -0.486329 0.410207 96 250 196
-0.290305 -0.486096 0.132095 96 250 196
-0.198414 -0.485402 -0.340364 96 250 196
-0.301739 -0.485964 0.142099 96 250 196
0.0429659 -0.488026 0.319388 128 254 179
0.0252156 -0.4735 -0.277543 128 254 179
0.0499815 -0.455447 0.146574 128 254 179
0.0465919 -0.261865 0.333458 128 254 179
-0.0667628 -0.486186 0.188094 128 254 179
0.0433159 -0.287131 0.341165 128 254 179
0.0508122 -0.342122 0.320453 128 254 179
0.0520962 -0.285139 0.10756 128 254 179
-0.0373024 -0.480945 -0.28824 128 254 179
-0.206925 -0.474278 -0.149451 128 254 179
-0.244422 -0.478845 -0.0310946 128 254 179
0.0498784 -0.256231 0.300215 128 254 179
-0.0932483 -0.481219 -0.163958 128 254 179
-0.17314 -0.477947 -0.115158 128 254 179
0.0489392 -0.48601 0.225687 128 254 179
0.049641 -0.39886 0.325574 128 254 179
0.0226653 -0.473859 0.387804 128 254 179
0.0483954 -0.487015 0.285072 128 254 179
0.0500316 -0.389091 0.341988 128 254 179
0.044082 -0.410283 0.358633 128 254 179
0.0414125 -0.462082 -0.134415 128 254 179
-0.0803534 -0.485489 0.420459 128 254 179
0.0443034 -0.454864 0.0310242 128 254 179
0.0243921 -0.353433 0.362481 128 254 179
0.0391061 -0.43509 -0.180089 128 254 179
0.049482 -0.484458 0.227226 128 254 179
-0.121641 -0.486878 0.359908 128 254 179
0.0515059 -0.269649 0.228999 128 254 179
0.0323363 -0.338183 0.356376 128 254 179
-0.0579409 -0.487099 0.355977 128 254 179
0.0511641 -0.379398 0.269782 128 254 179
0.042848 -0.453892 -0.0879037 128 254 179
0.049873 -0.369814 0.103662 128 254 179
0.0439385 -0.461874 -0.094332 128 254 179
0.0421595 -0.484822 0.0485632 128 254 179
0.0506303 -0.39856 0.267378 128 254 179
0.048778 -0.447553 0.285875 128 254 179
0.0446389 -0.476978 0.375394 128 254 179
0.0375459 -0.486754 0.145949 128 254 179
0.0514911 -0.341327 0.257136 128 254 179
-0.0124109 -0.487088 0.25344 128 254 179
0.0388164 -0.262135 0.339782 128 254 179
0.0525295 -0.310627 0.22585 128 254 179
-0.00734813 -0.487151 0.239725 128 254 179
0.0422062 -0.463944 -0.121363 128 254 179
-0.0634187 -0.487497 0.414844 128 254 179
0.0436619 -0.420773 0.0265689 128 254 179
0.0531789 -0.345566 0.22971 128 254 179
-0.00722911 -0.487733 0.372074 128 254 179
-0.0407142 -0.485405 -0.0285383 128 254 179
-0.00332815 -0.416784 0.382642 128 254 179
0.0478657 -0.387715 0.34986 128 254 179
-0.0442883 -0.486686 0.223978 128 254 179
0.0475465 -0.424136 0.214139 128 254 179
0.0379648 -0.417664 -0.245234 128 254 179
0.0226533 -0.408157 0.375104 128 254 179
0.0465594 -0.351237 0.0314586 128 254 179
0.049441 -0.464877 0.282337 128 254 179
0.0492712 -0.292125 -0.130357 128 254 179
0.0249672 -0.47362 -0.282766 128 254 179
0.020257 -0.304594 0.354871 128 254 179
0.048612 -0.422392 0.33618 128 254 179
0.0477576 -0.277554 -0.0174966 128 254 179
0.0498297 -0.391336 0.299057 128 254 179
0.0489588 -0.450347 0.257451 128 254 179
0.0471676 -0.293448 -0.0529607 128 254 179
-0.000222445 -0.487399 0.280218 128 254 179
0.0497483 -0.404505 0.233812 128 254 179
0.0445554 -0.464827 0.0289312 128 254 179
0.0501644 -0.386686 0.150872 128 254 179
0.0425106 -0.393073 -0.0756232 128 254 179
-0.0346825 -0.483961 0.409167 128 254 179
-0.0154894 -0.487696 0.372764 128 254 179
-0.0517834 -0.487851 0.402366 128 254 179
-0.0611366 -0.48705 0.41492 128 254 179
0.0477452 -0.307124 0.339381 128 254 179
0.0488522 -0.423151 0.322462 128 254 179
0.0490018 -0.446523 0.140845 128 254 179
0.0502199 -0.363583 0.278643 128 254 179
-0.260883 -0.468241 -0.23682 128 254 179
-0.0403031 -0.48454 -0.18138 128 254 179
0.051628 -0.326888 0.152815 128 254 179
0.0515993 -0.31705 0.125293 128 254 179
0.047164 -0.294626 -0.0555682 128 254 179
0.0512412 -0.37044 0.259846 128 254 179
0.0482201 -0.34555 0.0611433 128 254 179
0.0478037 -0.285884 -0.0564482 128 254 179
-0.0656888 -0.487678 0.413951 128 254 179
0.0508208 -0.326282 0.331829 128 254 179
0.00399434 -0.453553 0.387437 128 254 179
-0.0858683 -0.486746 0.32777 128 254 179
0.0454398 -0.387867 0.0567085 128 254 179
-0.146215 -0.476921 -0.184482 128 254 179
0.0161525 -0.355971 0.36737 128 254 179
0.0526197 -0.324344 0.246147 128 254 179
0.0473919 -0.429324 0.209376 128 254 179
0.0526332 -0.354088 0.211419 128 254 179
0.0454261 -0.34044 -0.0107698 128 254 179
0.0512354 -0.268381 0.272062 128 254 179
0.0526018 -0.266138 0.11001 128 254 179
0.0391089 -0.462233 -0.167888 128 254 179
0.0479525 -0.382386 0.0811544 128 254 179
0.0259117 -0.275069 0.349536 128 254 179
0.0515866 -0.306274 0.289109 128 254 179
0.0500498 -0.46264 0.269477 128 254 179
0.0322874 -0.48443 -0.120657 128 254 179
-0.0702336 -0.479803 -0.254338 128 254 179
0.0511114 -0.329856 0.0935325 128 254 179
-0.0921256 -0.485753 0.106519 128 254 179
0.0511326 -0.338047 0.111668 128 254 179
0.0441018 -0.409909 0.029416 128 254 179
0.0451067 -0.35368 -0.116911 128 254 179
0.0337486 -0.484726 -0.0977906 128 254 179
-0.164898 -0.485983 0.279628 128 254 179
0.0503284 -0.355136 0.301786 128 254 179
-0.0484974 -0.481316 -0.255952 128 254 179
0.0464522 -0.348062 0.0258488 128 254 179
0.0130046 -0.398491 0.376586 128 254 179
0.021879 -0.487197 0.198109 128 254 179
0.0525248 -0.267037 0.130731 128 254 179
-0.21277 -0.474366 -0.138028 128 254 179
0.0491952 -0.478411 0.151344 128 254 179
0.0513221 -0.471981 0.198911 128 254 179
0.0505568 -0.312607 0.0831953 128 254 179
0.0512239 -0.473346 0.243617 128 254 179
0.045286 -0.470676 -0.00252959 128 254 179
0.049013 -0.433986 0.33293 128 254 179
0.0491355 -0.415514 0.259799 128 254 179
0.0492928 -0.480421 0.312278 128 254 179
0.0389334 -0.487295 0.20295 128 254 179
-0.0607148 -0.48795 0.405081 128 254 179
0.0524879 -0.30943 0.197788 128 254 179
-0.184517 -0.480938 -0.0541968 128 254 179
0.0520767 -0.265692 0.201721 128 254 179
0.0419629 -0.299546 0.344873 128 254 179
-0.0988444 -0.487149 0.378967 128 254 179
0.048326 -0.417637 0.183737 128 254 179
0.0503708 -0.255342 0.290021 128 254 179
0.0358351 -0.274594 0.34544 128 254 179
0.00519151 -0.486327 0.398356 128 254 179
-0.168002 -0.485813 0.0103404 128 254 179
0.0483149 -0.440506 0.26146 128 254 179
0.0488516 -0.292241 0.0557938 128 254 179
0.0468002 -0.444832 0.0989226 128 254 179
-0.143569 -0.485778 0.222978 128 254 179
0.0504887 -0.343781 0.271517 128 254 179
0.038672 -0.40898 -0.253182 128 254 179
0.0517693 -0.29623 0.127172 128 254 179
-0.0166871 -0.487301 0.403475 128 254 179
-0.0277534 -0.487217 0.336506 128 254 179
0.0426315 -0.452836 -0.0906654 128 254 179
0.0465127 -0.456136 0.0940932 128 254 179
0.0475594 -0.309481 -0.176646 128 254 179
0.00144616 -0.487477 0.332213 128 254 179
-0.124961 -0.487034 0.384328 128 254 179
-0.0302866 -0.485579 -0.00288602 128 254 179
0.0369434 -0.48745 0.223987 128 254 179
0.0448743 -0.353463 -0.180112 128 254 179
0.0525823 -0.319361 0.184883 128 254 179
-0.234469 -0.468699 -0.27925 128 254 179
0.051731 -0.289616 0.270916 128 254 179
0.0486705 -0.433238 0.164552 128 254 179
0.0441893 -0.369217 -0.140365 128 254 179
0.04157 -0.426032 -0.114956 128 254 179
0.0432269 -0.435881 0.0270949 128 254 179
0.0403406 -0.398092 -0.236581 128 254 179
0.000971254 -0.486675 0.111252 128 254 179
0.00728263 -0.482152 -0.296383 128 254 179
0.0441409 -0.366339 -0.0177707 128 254 179
0.0523889 -0.318191 0.175482 128 254 179
0.0491638 -0.454154 0.278975 128 254 179
0.0470829 -0.453789 0.102636 128 254 179
0.0492643 -0.292209 -0.129692 128 254 179
0.0329483 -0.488135 0.354497 128 254 179
0.0510725 -0.341151 0.104201 128 254 179
0.046857 -0.487688 0.282832 128 254 179
0.020206 -0.487808 0.317731 128 254 179
0.0282829 -0.297005 0.351073 128 254 179
0.0495382 -0.432387 0.343275 128 254 179
-0.0158528 -0.486112 0.0454032 128 254 179
0.0438044 -0.37111 -0.0969582 128 254 179
-0.0467949 -0.485607 -0.14431 128 254 179
-0.0110132 -0.487162 0.29331 128 254 179
-0.119007 -0.480242 -0.146962 128 254 179
0.0514524 -0.315375 0.283924 128 254 179
0.0497331 -0.394968 0.323787 128 254 179
-0.0666035 -0.486521 0.240675 128 254 179
0.0487386 -0.47436 0.318554 128 254 179
0.0512409 -0.328847 0.098163 128 254 179
0.0457311 -0.364264 0.349466 128 254 179
0.0444506 -0.351857 -0.0680611 128 254 179
-0.0540274 -0.486236 0.115951 128 254 179
0.0430892 -0.379956 -0.181212 128 254 179
0.0425541 -0.377665 -0.226801 128 254 179
0.0504119 -0.388669 0.162187 128 254 179
0.0513335 -0.363806 0.254834 128 254 179
0.0503779 -0.480087 0.190804 128 254 179
0.0446202 -0.4552 0.00452915 128 254 179
-0.0416979 -0.481387 0.410569 128 254 179
0.0498276 -0.403246 0.281375 128 254 179
0.0353804 -0.447658 -0.247983 128 254 179
0.0449253 -0.287817 0.340292 128 254 179
0.0481741 -0.287049 -0.0703602 128 254 179
0.0464962 -0.462875 0.0976978 128 254 179
0.0202967 -0.481609 0.393769 128 254 179
0.0503602 -0.475104 0.276872 128 254 179
0.00118416 -0.487847 0.387587 128 254 179
-0.0697755 -0.487711 0.401703 128 254 179
0.0519551 -0.339405 0.175229 128 254 179
-0.0394199 -0.48765 0.396641 128 254 179
-0.115041 -0.486597 0.331029 128 254 179
0.0452564 -0.468178 -0.0112712 128 254 179
0.00921852 -0.487596 0.282822 128 254 179
0.0343379 -0.441396 -0.28121 128 254 179
0.0456615 -0.467713 0.0823014 128 254 179
-0.0670807 -0.486095 0.120921 128 254 179
0.0492247 -0.469077 0.330226 128 254 179
0.0522584 -0.287433 0.206699 128 254 179
0.0383276 -0.483207 0.384491 128 254 179
0.0428764 -0.392847 -0.141984 128 254 179
-0.225757 -0.474055 -0.127362 128 254 179
0.0487287 -0.448254 0.224724 128 254 179
0.0465217 -0.467181 0.105602 128 254 179
0.0442571 -0.35994 -0.0838521 128 254 179
-0.118797 -0.487065 0.418581 128 254 179
-0.0417066 -0.480619 -0.288602 128 254 179
0.0285578 -0.269135 0.347896 128 254 179
0.0502543 -0.354871 0.292995 128 254 179
-0.0084611 -0.487832 0.393839 128 254 179
0.050832 -0.486461 0.352457 128 254 179
-0.058877 -0.487387 0.384941 128 254 179
0.0467659 -0.468722 0.114376 128 254 179
0.0232867 -0.488109 0.367957 128 254 179
-0.0133465 -0.486329 0.0673671 128 254 179
0.0509837 -0.38066 0.177379 128 254 179
0.0457938 -0.376686 0.351805 128 254 179
-0.0270778 -0.486882 0.234743 128 254 179
0.0290194 -0.48695 0.123205 128 254 179
0.0383497 -0.404739 0.3659 128 254 179
0.0498994 -0.381165 0.321224 128 254 179
-0.142209 -0.482381 -0.0827719 128 254 179
0.0168013 -0.395179 0.375148 128 254 179
0.0507298 -0.323205 0.334128 128 254 179
-0.0578147 -0.486973 0.337083 128 254 179
0.0213808 -0.486649 0.0594336 128 254 179
-0.075153 -0.486713 0.315869 128 254 179
-0.146353 -0.486688 0.351818 128 254 179
-0.0796099 -0.485846 0.0958711 128 254 179
0.051408 -0.304703 0.302567 128 254 179
0.0282698 -0.466968 -0.247463 128 254 179
0.0514035 -0.35379 0.180656 128 254 179
0.0469757 -0.382191 0.0688511 128 254 179
0.0436422 -0.487924 0.290276 128 254 179
0.0451424 -0.473946 0.0198136 128 254 179
0.0413881 -0.476143 0.378597 128 254 179
-0.211067 -0.484966 0.143413 128 254 179
-0.168964 -0.48419 -0.0203562 128 254 179
-0.271922 -0.468237 -0.219126 128 254 179
0.0510961 -0.348867 0.258276 128 254 179
0.0381404 -0.353346 0.356561 128 254 179
0.0515548 -0.312526 0.278214 128 254 179
0.0209408 -0.478853 -0.214714 128 254 179
0.049306 -0.405614 0.300089 128 254 179
0.0457343 -0.469844 -0.0502189 128 254 179
0.0514959 -0.378345 0.236452 128 254 179
0.0502095 -0.358147 0.298887 128 254 179
0.0430789 -0.445949 0.0133038 128 254 179
0.0436677 -0.365063 -0.21392 128 254 179
0.0297245 -0.318702 0.354763 128 254 179
0.00409029 -0.484899 -0.128376 128 254 179
0.0514959 -0.333995 0.260536 128 254 179
0.0514023 -0.465525 0.189116 128 254 179
0.0324393 -0.314347 0.353098 128 254 179
-0.205165 -0.484388 0.0716305 128 254 179
0.0472522 -0.316592 -0.161466 128 254 179
0.0266281 -0.48806 0.355359 128 254 179
0.0515618 -0.301433 0.294305 128 254 179
0.000170786 -0.486866 0.18031 128 254 179
0.00352492 -0.487475 0.277892 128 254 179
-0.0494975 -0.485713 0.0421176 128 254 179
0.0489663 -0.26391 0.326038 128 254 179
0.0141389 -0.487549 0.246367 128 254 179
0.0496221 -0.398031 0.334468 128 254 179
0.0519769 -0.281193 0.243773 128 254 179
0.0511754 -0.475553 0.225399 128 254 179
0.0400148 -0.432559 -0.162204 128 254 179
0.0491373 -0.367254 0.0871863 128 254 179
0.0424965 -0.363211 0.353233 128 254 179
0.00927697 -0.487022 0.187045 128 254 179
0.0453568 -0.411621 0.0481665 128 254 179
0.0499232 -0.366832 0.288174 128 254 179
0.038968 -0.337572 0.353162 128 254 179
0.0485466 -0.419028 0.293062 128 254 179
0.0481073 -0.305068 0.338644 128 254 179
0.0498304 -0.375101 0.315507 128 254 179
0.0500115 -0.48085 0.259987 128 254 179
0.0347335 -0.484968 -0.0854866 128 254 179
0.0496094 -0.375504 0.0993574 128 254 179
0.0484993 -0.420029 0.292578 128 254 179
-0.0724088 -0.486592 0.282603 128 254 179
-0.000235215 -0.486623 0.0978682 128 254 179
0.00586283 -0.486855 0.169717 128 254 179
0.0502218 -0.476817 0.280337 128 254 179
-0.140067 -0.48648 0.329187 128 254 179
0.0523979 -0.336827 0.186786 128 254 179
0.0170473 -0.487602 0.248089 128 254 179
-0.000204582 -0.486122 0.0328491 128 254 179
0.0484706 -0.422448 0.264031 128 254 179
-0.0583884 -0.481951 -0.217949 128 254 179
0.0523504 -0.303445 0.225884 128 254 179
0.0515435 -0.373341 0.24444 128 254 179
0.0494682 -0.47111 0.14731 128 254 179
-0.115585 -0.486293 0.286825 128 254 179
-0.0308703 -0.464801 0.403457 128 254 179
-0.0971457 -0.487744 0.409729 128 254 179
0.0498553 -0.407278 0.259814 128 254 179
0.0494518 -0.481361 0.327006 128 254 179
0.0414182 -0.480792 -0.0696256 128 254 179
0.0396884 -0.48797 0.280389 128 254 179
0.0435821 -0.373808 0.353977 128 254 179
0.0471542 -0.434901 0.108885 128 254 179
0.0485851 -0.424876 0.170227 128 254 179
0.0343084 -0.483584 0.388337 128 254 179
0.031756 -0.487686 0.24736 128 254 179
-0.137773 -0.476063 -0.233983 128 254 179
0.0488767 -0.451618 0.305407 128 254 179
0.0479015 -0.343421 0.0571068 128 254 179
0.0451872 -0.382245 0.0391903 128 254 179
-0.244557 -0.484993 0.188119 128 254 179
-0.130366 -0.486113 0.256927 128 254 179
0.0486435 -0.443321 0.205656 128 254 179
-0.0287241 -0.455981 0.399473 128 254 179
0.0189381 -0.487843 0.342301 128 254 179
0.0300134 -0.488083 0.335901 128 254 179
0.0524414 -0.307612 0.224946 128 254 179
-0.265424 -0.469758 -0.190869 128 254 179
-0.0372009 -0.487038 0.32728 128 254 179
-0.0624762 -0.487169 0.366934 128 254 179
0.0451793 -0.33258 -0.0514968 128 254 179
0.0421752 -0.420208 -0.0162549 128 254 179
0.0485763 -0.348015 0.0658991 128 254 179
0.0475503 -0.481017 0.37275 128 254 179
-0.0885756 -0.48634 0.238526 128 254 179
0.0510303 -0.326139 0.284057 128 254 179
0.0456078 -0.329692 -0.0140833 128 254 179
0.0464656 -0.336475 0.0279305 128 254 179
0.0490515 -0.358979 0.0802679 128 254 179
-0.108335 -0.484803 -0.0841447 128 254 179
0.0355666 -0.461156 -0.219887 128 254 179
-0.0713593 -0.487068 0.361601 128 254 179
0.0487154 -0.441857 0.198914 128 254 179
-0.154021 -0.485396 0.186107 128 254 179
0.0437971 -0.37156 -0.168663 128 254 179
0.0445668 -0.46526 0.0402386 128 254 179
0.00952023 -0.487805 0.367349 128 254 179
0.0478931 -0.273746 0.00218954 128 254 179
0.0506473 -0.356462 0.267498 128 254 179
0.0353829 -0.424733 -0.2972 128 254 179
-0.103123 -0.487553 0.401221 128 254 179
0.0391376 -0.488063 0.375323 128 254 179
0.0446181 -0.487867 0.281874 128 254 179
0.0515017 -0.373807 0.246989 128 254 179
0.0129336 -0.487547 0.394439 128 254 179
-0.20465 -0.48566 0.268855 128 254 179
0.0501151 -0.356762 0.289325 128 254 179
0.0372489 -0.488016 0.292701 128 254 179
0.0376925 -0.41419 -0.264514 128 254 179
0.0497291 -0.383132 0.120235 128 254 179
0.0482888 -0.430213 0.301578 128 254 179
0.0488233 -0.43076 0.331781 128 254 179
0.0515566 -0.467486 0.201363 128 254 179
-0.0392664 -0.470177 0.407866 128 254 179
0.0498495 -0.351892 0.0848952 128 254 179
-0.0461673 -0.485044 -0.101465 128 254 179
0.0499347 -0.36533 0.288344 128 254 179
0.0383877 -0.343312 0.354734 128 254 179
0.0395625 -0.425484 -0.183987 128 254 179
-0.0156903 -0.487755 0.380104 128 254 179
0.0508542 -0.456739 0.190076 128 254 179
0.0506642 -0.359544 0.329748 128 254 179
0.0383866 -0.485871 0.0446587 128 254 179
0.0502617 -0.45319 0.16461 128 254 179
0.0448283 -0.483322 0.0956416 128 254 179
-0.0925801 -0.485108 0.00905377 128 254 179
-0.168888 -0.485858 0.259622 128 254 179
0.0196416 -0.381441 0.371159 128 254 179
0.0202983 -0.483138 0.394079 128 254 179
-0.214671 -0.478836 -0.0557838 128 254 179
-0.16838 -0.475315 -0.192304 128 254 179
0.0507351 -0.352875 0.330938 128 254 179
-0.0822003 -0.487008 0.361986 128 254 179
0.0210037 -0.478159 -0.219406 128 254 179
0.0426789 -0.460389 -0.115035 128 254 179
0.0466385 -0.314478 0.020403 128 254 179
-0.0270943 -0.486368 0.406546 128 254 179
-0.0232767 -0.4866 0.177584 128 254 179
0.0487531 -0.418481 0.251909 128 254 179
0.0319843 -0.428667 0.374039 128 254 179
0.0500504 -0.382035 0.3252 128 254 179
-0.172523 -0.485856 0.26551 128 254 179
-0.167083 -0.485168 0.115035 128 254 179
0.0471485 -0.488046 0.366232 128 254 179
0.0492339 -0.406409 0.342852 128 254 179
0.0494645 -0.396766 0.309983 128 254 179
-0.0269518 -0.487668 0.377989 128 254 179
-0.00645213 -0.487621 0.360523 128 254 179
0.0398709 -0.408635 -0.2147 128 254 179
0.0522931 -0.343651 0.243306 128 254 179
0.0368327 -0.415038 -0.289082 128 254 179
0.0502503 -0.31973 0.0816293 128 254 179
0.0505501 -0.277196 0.0691221 128 254 179
0.0126285 -0.484451 -0.135333 128 254 179
0.0475821 -0.300127 0.0435252 128 254 179
0.050192 -0.361066 0.311735 128 254 179
0.0505415 -0.451992 0.342804 128 254 179
0.0451207 -0.35016 -0.169446 128 254 179
-0.105994 -0.484842 -0.0032467 128 254 179
0.0511262 -0.324698 0.30208 128 254 179
0.0459269 -0.379046 0.0549611 128 254 179
-0.0535128 -0.487028 0.341467 128 254 179
0.0435569 -0.371878 -0.187471 128 254 179
-0.265267 -0.468582 -0.22091 128 254 179
0.0481116 -0.483855 0.148499 128 254 179
0.0522653 -0.299161 0.231464 128 254 179
0.0130029 -0.480452 -0.248603 128 254 179
-0.0375904 -0.487424 0.368187 128 254 179
0.0159911 -0.343554 0.364217 128 254 179
0.0502944 -0.350015 0.27179 128 254 179
0.0361439 -0.284465 0.346792 128 254 179
0.036385 -0.449417 -0.227631 128 254 179
-0.0448694 -0.487426 0.376172 128 254 179
0.0530943 -0.32924 0.214303 128 254 179
-0.0112207 -0.484813 -0.223088 128 254 179
0.0448054 -0.476956 0.052723 128 254 179
0.0490814 -0.473368 0.328931 128 254 179
0.0417272 -0.405107 -0.088073 128 254 179
0.0488097 -0.450059 0.313123 128 254 179
0.0498843 -0.370268 0.288141 128 254 179
0.0521783 -0.267188 0.16384 128 254 179
0.0185703 -0.452585 0.383685 128 254 179
0.051051 -0.345465 0.153092 128 254 179
0.049261 -0.330359 0.0713927 128 254 179
0.0300876 -0.420355 0.373871 128 254 179
0.0501211 -0.373014 0.342113 128 254 179
0.0515872 -0.27 0.236538 128 254 179
0.0488662 -0.46561 0.317409 128 254 179
-0.0600824 -0.480778 -0.247999 128 254 179
0.0501335 -0.449926 0.192197 128 254 179
0.0304876 -0.486883 0.0826904 128 254 179
0.0448437 -0.444384 0.0458763 128 254 179
0.0499082 -0.391016 0.339712 128 254 179
-0.0786423 -0.487278 0.384342 128 254 179
0.0060307 -0.487799 0.374153 128 254 179
-0.117019 -0.487513 0.410146 128 254 179
0.0348677 -0.437324 -0.277105 128 254 179
0.0519036 -0.304671 0.261153 128 254 179
0.0430586 -0.362478 0.3525 128 254 179
0.0489631 -0.433137 0.332619 128 254 179
0.0475667 -0.284908 -0.0439002 128 254 179
0.000712957 -0.486603 0.151627 128 254 179
0.0480622 -0.486838 0.265686 128 254 179
-0.178633 -0.472341 -0.278497 128 254 179
-0.118821 -0.486438 0.313358 128 254 179
-0.0181557 -0.487722 0.377376 128 254 179
0.0394975 -0.429553 -0.179239 128 254 179
0.0512758 -0.353829 0.175717 128 254 179
0.0382388 -0.487694 0.383203 128 254 179
-0.0116319 -0.466861 0.397803 128 254 179
0.0150909 -0.357887 0.368354 128 254 179
-0.0957093 -0.485786 0.132749 128 254 179
0.0477612 -0.486575 0.216251 128 254 179
0.0502182 -0.394737 0.213346 128 254 179
0.0481288 -0.418949 0.207213 128 254 179
0.0454441 -0.485357 0.142172 128 254 179
0.0491562 -0.292564 0.335819 128 254 179
0.0470202 -0.478339 0.131955 128 254 179
0.0507302 -0.338385 0.316376 128 254 179
0.0451586 -0.352645 -0.146996 128 254 179
0.0513347 -0.474414 0.218025 128 254 179
0.0325717 -0.488095 0.380686 128 254 179
0.0291222 -0.476065 0.386408 128 254 179
-0.103944 -0.485836 0.192573 128 254 179
-0.00511891 -0.40923 0.382184 128 254 179
-0.121469 -0.47771 -0.212663 128 254 179
-0.109916 -0.485629 0.155243 128 254 179
-0.0171178 -0.48781 0.390765 128 254 179
-0.0608313 -0.486968 0.339816 128 254 179
0.0174053 -0.477537 -0.243548 128 254 179
0.052365 -0.291739 0.182654 128 254 179
-0.00814512 -0.485769 0.00175302 128 254 179
0.0306364 -0.460555 -0.293196 128 254 179
0.00411225 -0.486739 0.135025 128 254 179
0.0367464 -0.487567 0.384331 128 254 179
0.0422555 -0.398403 -0.0124317 128 254 179
0.0058581 -0.487802 0.374831 128 254 179
0.0498514 -0.371578 0.289614 128 254 179
0.0524721 -0.306683 0.183723 128 254 179
-0.209998 -0.47015 -0.287495 128 254 179
0.0371731 -0.48702 0.166166 128 254 179
0.0245411 -0.486453 0.0245096 128 254 179
0.023456 -0.487865 0.313856 128 254 179
0.0494976 -0.385876 0.104103 128 254 179
-0.0546833 -0.482304 -0.215327 128 254 179
0.0399056 -0.412694 -0.202013 128 254 179
0.0462515 -0.344844 0.0158336 128 254 179
0.052369 -0.304328 0.233374 128 254 179
-0.124666 -0.487174 0.415181 128 254 179
0.0231976 -0.326098 0.358152 128 254 179
0.0482186 -0.418685 0.225137 128 254 179
0.0480107 -0.442174 0.220993 128 254 179
0.0277185 -0.487927 0.288313 128 254 179
0.0404583 -0.400913 -0.223285 128 254 179
-0.255701 -0.399896 0.138067 160 249 161
-0.304011 -0.484695 0.213583 160 249 161
-0.157627 -0.489575 -0.0537625 160 249 161
-0.215402 -0.310117 0.215811 160 249 161
-0.223547 -0.487996 0.208784 160 249 161
-0.262558 -0.463446 0.100104 160 249 161
-0.17062 -0.490544 -0.19907 160 249 161
-0.0859834 -0.48825 0.117379 160 249 161
-0.278587 -0.489629 0.00763938 160 249 161
-0.23496 -0.330394 0.179997 160 249 161
-0.110468 -0.489685 -0.160256 160 249 161
-0.154981 -0.485463 0.325893 160 249 161
-0.224095 -0.489627 -0.157471 160 249 161
-0.378183 -0.485334 -0.196863 160 249 161
-0.31058 -0.439576 0.238061 160 249 161
-0.298193 -0.451381 0.155744 160 249 161
-0.306473 -0.486557 -0.0417509 160 249 161
-0.17435 -0.488453 0.0694676 160 249 161
-0.280741 -0.349994 0.297685 160 249 161
-0.0998116 -0.487267 0.222659 160 249 161
-0.240398 -0.485125 0.2845 160 249 161
-0.113125 -0.487578 0.137073 160 249 161
-0.233873 -0.489395 0.0345399 160 249 161
-0.27913 -0.332934 0.233668 160 249 161
-0.294923 -0.488503 0.0818523 160 249 161
-0.25675 -0.48873 -0.186443 160 249 161
-0.292777 -0.370266 0.213506 160 249 161
-0.228904 -0.382574 0.138649 160 249 161
-0.294075 -0.392012 0.228805 160 249 161
-0.193375 -0.488133 0.174586 160 249 161
-0.0989971 -0.489421 0.00130204 160 249 161
-0.261848 -0.487767 0.171423 160 249 161
-0.313673 -0.449107 0.187544 160 249 161
-0.222749 -0.4895 -0.0763445 160 249 161
-0.278748 -0.337493 0.262412 160 249 161
-0.323461 -0.459989 0.206368 160 249 161
-0.10805 -0.485961 0.329271 160 249 161
-0.262617 -0.313544 0.279774 160 249 161
-0.364276 -0.485608 -0.304177 160 249 161
-0.243663 -0.487589 0.20829 160 249 161
-0.328782 -0.48818 -0.0631527 160 249 161
-0.0853278 -0.486684 0.32022 160 249 161
-0.291746 -0.487624 0.145175 160 249 161
-0.213535 -0.39094 0.131665 160 249 161
-0.282323 -0.423954 0.167714 160 249 161
-0.0856426 -0.490949 -0.150934 160 249 161
-0.297486 -0.488508 0.0866084 160 249 161
-0.148689 -0.490298 -0.104228 160 249 161
-0.0678325 -0.490914 -0.0616138 160 249 161
-0.271899 -0.489244 0.052462 160 249 161
-0.266285 -0.371883 0.164577 160 249 161
-0.149232 -0.491341 -0.173438 160 249 161
-0.252271 -0.488063 0.165697 160 249 161
-0.0261695 -0.490362 -0.0633406 160 249 161
-0.28693 -0.468244 0.109711 160 249 161
-0.285696 -0.373255 0.292126 160 249 161
-0.150401 -0.487758 0.200395 160 249 161
-0.0422724 -0.490813 -0.0566131 160 249 161
-0.213504 -0.4877 0.23254 160 249 161
-0.297733 -0.48925 0.0444495 160 249 161
-0.0281313 -0.490553 -0.00391009 160 249 161
-0.270644 -0.327339 0.285464 160 249 161
-0.0982993 -0.486891 0.302185 160 249 161
-0.0937532 -0.490725 -0.192039 160 249 161
-0.170533 -0.488842 0.0189838 160 249 161
-0.281351 -0.347444 0.186856 160 249 161
-0.129441 -0.487608 0.139306 160 249 161
-0.0825311 -0.489323 -0.0125067 160 249 161
-0.331426 -0.488893 -0.147871 160 249 161
-0.285387 -0.406993 0.177252 160 249 161
-0.252145 -0.487871 0.178124 160 249 161
-0.0684934 -0.487336 0.205245 160 249 161
-0.340817 -0.48885 0.00786581 160 249 161
-0.3159 -0.48798 -0.19426 160 249 161
-0.271462 -0.367451 0.169838 160 249 161
-0.222199 -0.488477 0.140876 160 249 161
-0.163612 -0.486591 0.299201 160 249 161
-0.351774 -0.488172 -0.0434221 160 249 161
-0.258611 -0.382518 0.151265 160 249 161
-0.196884 -0.489923 -0.167327 160 249 161
-0.115302 -0.48783 0.246254 160 249 161
-0.148852 -0.486094 0.31785 160 249 161
-0.324483 -0.46789 0.21294 160 249 161
-0.211309 -0.309059 0.213245 160 249 161
-0.297392 -0.413436 0.223959 160 249 161
-0.231445 -0.300965 0.265087 160 249 161
-0.0974458 -0.487356 0.294346 160 249 161
-0.276719 -0.385712 0.172663 160 249 161
-0.244532 -0.406057 0.131085 160 249 161
-0.284854 -0.424207 0.171738 160 249 161
-0.0535536 -0.489451 0.080517 160 249 161
-0.120635 -0.487391 0.164928 160 249 161
-0.175309 -0.488406 0.0820283 160 249 161
-0.164798 -0.490009 -0.0961913 160 249 161
-0.334497 -0.490108 -0.297137 160 249 161
-0.143346 -0.485061 0.335125 160 249 161
-0.252649 -0.394312 0.140119 160 249 161
-0.309831 -0.435954 0.226729 160 249 161
-0.195596 -0.49002 -0.139624 160 249 161
-0.305353 -0.482503 0.23512 160 249 161
-0.230713 -0.474645 0.0348888 160 249 161
-0.237521 -0.487851 0.200359 160 249 161
-0.316387 -0.487038 -0.0323165 160 249 161
-0.0625863 -0.490985 -0.0927541 160 249 161
-0.0692687 -0.487651 0.177893 160 249 161
-0.227665 -0.489303 -0.0559162 160 249 161
-0.241622 -0.331117 0.182538 160 249 161
-0.287484 -0.359656 0.19313 160 249 161
-0.236717 -0.489408 -0.208317 160 249 161
-0.0444744 -0.487299 0.220319 160 249 161
-0.336531 -0.487462 0.0492152 160 249 161
-0.317479 -0.450225 0.207405 160 249 161
-0.322229 -0.489979 0.0165443 160 249 161
-0.201738 -0.48261 0.337873 160 249 161
-0.286902 -0.39405 0.289529 160 249 161
-0.229965 -0.480655 0.321745 160 249 161
-0.382394 -0.484305 -0.22915 160 249 161
-0.327297 -0.48301 0.16767 160 249 161
-0.319358 -0.487767 0.0983634 160 249 161
-0.118115 -0.489467 -0.197765 160 249 161
-0.126832 -0.489996 -0.0625365 160 249 161
-0.284434 -0.435423 0.303892 160 249 161
-0.253771 -0.473659 0.310154 160 249 161
-0.209474 -0.484348 0.313463 160 249 161
-0.290813 -0.375923 0.200252 160 249 161
-0.106126 -0.487902 0.260713 160 249 161
-0.2252 -0.487978 0.20815 160 249 161
-0.184827 -0.489211 -0.0381737 160 249 161
-0.277246 -0.489563 -0.0140618 160 249 161
-0.234939 -0.367642 0.15716 160 249 161
-0.28482 -0.489477 -0.0608258 160 249 161
-0.206156 -0.489461 -0.236913 160 249 161
-0.287621 -0.347451 0.234428 160 249 161
-0.0490773 -0.487299 0.218342 160 249 161
-0.0999778 -0.490532 -0.187988 160 249 161
-0.123541 -0.486972 0.288514 160 249 161
-0.358394 -0.488474 -0.0842295 160 249 161
-0.31184 -0.488031 -0.253356 160 249 161
-0.329729 -0.474063 0.183616 160 249 161
-0.114605 -0.489678 -0.232895 160 249 161
-0.115998 -0.488243 0.0911193 160 249 161
-0.195502 -0.488954 -0.0275121 160 249 161
-0.257943 -0.489394 -0.0391442 160 249 161
-0.207612 -0.486057 0.291622 160 249 161
-0.209162 -0.449845 0.0747743 160 249 161
-0.0464384 -0.49038 0.0462865 160 249 161
-0.197646 -0.489719 -0.22832 160 249 161
-0.145422 -0.488257 0.0817604 160 249 161
-0.259951 -0.488902 -0.152877 160 249 161
-0.300066 -0.42721 0.198502 160 249 161
-0.147084 -0.487735 0.171425 160 249 161
-0.0800063 -0.489481 -0.0103712 160 249 161
-0.0925314 -0.489363 -0.0512508 160 249 161
-0.185845 -0.489016 -0.0252409 160 249 161
-0.119115 -0.488753 0.0180722 160 249 161
-0.243499 -0.485711 -0.0158219 160 249 161
-0.287982 -0.487531 -0.262168 160 249 161
-0.0926639 -0.487942 0.278161 160 249 161
-0.179797 -0.488642 0.0498276 160 249 161
-0.294938 -0.489505 0.0282385 160 249 161
-0.291437 -0.48709 0.163737 160 249 161
-0.283823 -0.447751 0.140302 160 249 161
-0.293938 -0.40194 0.255866 160 249 161
-0.37567 -0.485068 -0.269126 160 249 161
-0.25859 -0.488746 -0.16687 160 249 161
-0.284234 -0.404045 0.299259 160 249 161
-0.374412 -0.486001 -0.170009 160 249 161
-0.322144 -0.488002 -0.190861 160 249 161
-0.246889 -0.32034 0.224532 160 249 161
-0.28239 -0.350672 0.289978 160 249 161
-0.0754096 -0.490951 -0.0925199 160 249 161
-0.297141 -0.423093 0.198592 160 249 161
-0.29787 -0.486721 0.171584 160 249 161
-0.276594 -0.489547 0.0307357 160 249 161
-0.258388 -0.482053 0.286338 160 249 161
-0.0810716 -0.487699 0.267636 160 249 161
-0.225751 -0.372489 0.14862 160 249 161
-0.254533 -0.489319 -0.0333163 160 249 161
-0.196918 -0.489279 -0.0504857 160 249 161
-0.138729 -0.488854 0.00598234 160 249 161
-0.250233 -0.489103 -0.168646 160 249 161
-0.273718 -0.484945 0.254312 160 249 161
-0.294413 -0.395844 0.239738 160 249 161
-0.287023 -0.44212 0.299397 160 249 161
-0.252251 -0.485735 0.265033 160 249 161
-0.27852 -0.347675 0.180325 160 249 161
-0.293263 -0.439461 0.285754 160 249 161
-0.28627 -0.486249 -0.0976264 160 249 161
-0.0467045 -0.489217 0.111036 160 249 161
-0.119858 -0.489318 -0.226146 160 249 161
-0.220907 -0.366078 0.153965 160 249 161
-0.152624 -0.487968 0.122705 160 249 161
-0.315075 -0.488686 -0.031474 160 249 161
-0.0357308 -0.490025 -0.140969 160 249 161
-0.274888 -0.4814 0.0519118 160 249 161
-0.112583 -0.489223 -0.141053 160 249 161
-0.0436546 -0.490755 -0.0835592 160 249 161
-0.351178 -0.489154 -0.164805 160 249 161
-0.325645 -0.490036 0.00740033 160 249 161
-0.364091 -0.486957 -0.291932 160 249 161
-0.294349 -0.399482 0.217486 160 249 161
-0.237563 -0.488979 -0.253546 160 249 161
-0.304806 -0.463125 0.141889 160 249 161
-0.317453 -0.464387 0.240238 160 249 161
-0.377626 -0.485464 -0.197236 160 249 161
-0.0565261 -0.49072 -0.130175 160 249 161
-0.271184 -0.395359 0.164493 160 249 161
-0.188729 -0.490108 -0.136108 160 249 161
-0.0778017 -0.48903 0.0175776 160 249 161
-0.108608 -0.487208 0.192493 160 249 161
-0.264618 -0.489469 -0.00179688 160 249 161
-0.210651 -0.300686 0.233526 160 249 161
-0.182671 -0.488819 0.0219972 160 249 161
-0.0622629 -0.488459 0.132911 160 249 161
-0.344616 -0.488786 -0.0782013 160 249 161
-0.106449 -0.487364 0.222076 160 249 161
-0.27236 -0.327436 0.269101 160 249 161
-0.311737 -0.462207 0.252292 160 249 161
-0.0545814 -0.490899 -0.0644061 160 249 161
-0.176249 -0.490065 -0.108979 160 249 161
-0.288276 -0.444449 0.156606 160 249 161
-0.345522 -0.488028 -0.0364763 160 249 161
-0.315097 -0.483983 0.0675408 160 249 161
-0.351042 -0.487891 -0.0425774 160 249 161
-0.291495 -0.481153 0.0797934 160 249 161
-0.179675 -0.488388 0.0998508 160 249 161
-0.124017 -0.477985 0.367043 160 249 161
-0.218217 -0.489619 -0.19962 160 249 161
-0.218208 -0.488063 0.210379 160 249 161
-0.285212 -0.447107 0.145127 160 249 161
-0.157524 -0.486109 0.315146 160 249 161
-0.27384 -0.480632 0.0613566 160 249 161
-0.186494 -0.488098 0.200107 160 249 161
-0.185425 -0.487522 0.2566 160 249 161
-0.153259 -0.488839 0.0169794 160 249 161
-0.319566 -0.473856 0.233047 160 249 161
-0.228574 -0.38 0.140931 160 249 161
-0.273952 -0.478844 0.281281 160 249 161
-0.207505 -0.489417 -0.265098 160 249 161
-0.316925 -0.478598 0.234722 160 249 161
-0.24089 -0.490223 -0.0546089 160 249 161
-0.0995617 -0.490327 -0.237401 160 249 161
-0.159442 -0.488024 0.230141 160 249 161
-0.0521687 -0.488564 0.13408 160 249 161
-0.306608 -0.46438 0.261454 160 249 161
-0.270254 -0.487432 0.180996 160 249 161
-0.315625 -0.478743 0.236596 160 249 161
-0.275521 -0.488923 0.0714979 160 249 161
-0.0685076 -0.488567 0.11724 160 249 161
-0.36129 -0.487938 -0.158466 160 249 161
-0.160431 -0.487888 0.169519 160 249 161
-0.303879 -0.480741 0.0910125 160 249 161
-0.0908319 -0.488817 0.0535365 160 249 161
-0.285265 -0.345901 0.199941 160 249 161
-0.256773 -0.326707 0.208232 160 249 161
-0.25212 -0.315096 0.239791 160 249 161
-0.047166 -0.487695 0.192651 160 249 161
-0.0260484 -0.48967 -0.128772 160 249 161
-0.278766 -0.465012 0.108847 160 249 161
-0.167242 -0.486981 0.283967 160 249 161
-0.095729 -0.490555 -0.156024 160 249 161
-0.314203 -0.487397 0.115471 160 249 161
-0.180388 -0.487063 0.277687 160 249 161
-0.186919 -0.487852 0.241068 160 249 161
-0.225226 -0.365238 0.155626 160 249 161
-0.23502 -0.368968 0.155939 160 249 161
-0.0774355 -0.490117 -0.0314943 160 249 161
-0.285301 -0.349848 0.260393 160 249 161
-0.281565 -0.489617 -0.00339694 160 249 161
-0.282336 -0.488213 0.121071 160 249 161
-0.28337 -0.343078 0.200335 160 249 161
-0.140982 -0.485053 0.335863 160 249 161
-0.258863 -0.30879 0.269337 160 249 161
-0.266557 -0.325334 0.21827 160 249 161
-0.25518 -0.414869 0.129661 160 249 161
-0.14883 -0.487041 0.283832 160 249 161
-0.236169 -0.387577 0.13774 160 249 161
-0.155818 -0.488943 -0.00408397 160 249 161
-0.190551 -0.488899 0.0335576 160 249 161
-0.319275 -0.491354 -0.314288 160 249 161
-0.287094 -0.362825 0.191046 160 249 161
-0.313016 -0.47414 0.245002 160 249 161
-0.179831 -0.490147 -0.124851 160 249 161
-0.250395 -0.413186 0.128557 160 249 161
-0.247286 -0.488889 -0.245182 160 249 161
-0.0475777 -0.490544 0.0232204 160 249 161
-0.287046 -0.489615 -0.0147804 160 249 161
-0.15529 -0.488025 0.115534 160 249 161
-0.0785327 -0.490921 -0.163219 160 249 161
-0.0692361 -0.48806 0.148674 160 249 161
-0.0998101 -0.487506 0.150474 160 249 161
-0.106331 -0.490014 -0.174288 160 249 161
-0.137053 -0.487593 0.164475 160 249 161
-0.308738 -0.484256 0.212667 160 249 161
-0.153035 -0.488014 0.113638 160 249 161
-0.100551 -0.487725 0.281804 160 249 161
-0.270923 -0.488402 0.117106 160 249 161
-0.251261 -0.323092 0.218124 160 249 161
-0.3566 -0.4877 -0.263812 160 249 161
-0.293945 -0.421136 0.264847 160 249 161
-0.236274 -0.311148 0.240321 160 249 161
-0.0991485 -0.48944 -0.0818161 160 249 161
-0.123015 -0.487656 0.129877 160 249 161
-0.311772 -0.486272 -0.0069844 160 249 161
-0.19662 -0.488562 0.111893 160 249 161
-0.223073 -0.380822 0.139284 160 249 161
-0.131485 -0.48751 0.183471 160 249 161
-0.331956 -0.485685 0.0934391 160 249 161
-0.26631 -0.361375 0.168007 160 249 161
-0.283421 -0.340723 0.235945 160 249 161
-0.335631 -0.490271 -0.165859 160 249 161
-0.152971 -0.487776 0.199762 160 249 161
-0.222973 -0.302001 0.248923 160 249 161
-0.223233 -0.489641 -0.156186 160 249 161
-0.349625 -0.489201 -0.0525641 160 249 161
-0.324595 -0.4871 0.109047 160 249 161
-0.32333 -0.486903 0.113763 160 249 161
-0.229319 -0.484817 -0.0211235 160 249 161
-0.122317 -0.488988 -0.186787 160 249 161
-0.290668 -0.397366 0.27498 160 249 161
-0.301341 -0.489329 -0.0346823 160 249 161
-0.300267 -0.487821 -0.214967 160 249 161
-0.20483 -0.485377 0.303181 160 249 161
-0.23306 -0.344266 0.171989 160 249 161
-0.32055 -0.488083 -0.164618 160 249 161
-0.261204 -0.488619 -0.168116 160 249 161
-0.215817 -0.489183 0.047522 160 249 161
-0.30364 -0.487304 -0.111343 160 249 161
-0.0945487 -0.490172 -0.00890407 160 249 161
-0.216293 -0.315744 0.197127 160 249 161
-0.318651 -0.48819 -0.113885 160 249 161
-0.272823 -0.487346 0.184699 160 249 161
-0.310801 -0.450792 0.250585 160 249 161
-0.294137 -0.461364 0.283012 160 249 161
-0.204557 -0.489766 -0.187954 160 249 161
-0.307896 -0.491254 -0.308083 160 249 161
-0.308055 -0.488707 -0.099493 160 249 161
-0.181825 -0.48888 0.00485919 160 249 161
-0.047969 -0.490792 -0.0253153 160 249 161
-0.29185 -0.4879 -0.176354 160 249 161
-0.294005 -0.476745 0.0969144 160 249 161
-0.259537 -0.482185 0.28481 160 249 161
-0.297148 -0.413077 0.223464 160 249 161
-0.340491 -0.489267 -0.0843112 160 249 161
-0.267426 -0.318769 0.267293 160 249 161
-0.281634 -0.447395 0.136934 160 249 161
-0.359875 -0.487461 -0.0956374 160 249 161
-0.292681 -0.424672 0.273588 160 249 161
-0.241422 -0.489426 -0.10163 160 249 161
-0.268608 -0.488095 -0.195944 160 249 161
-0.121054 -0.48803 0.102171 160 249 161
-0.270309 -0.489842 -0.145053 160 249 161
-0.239452 -0.308929 0.250501 160 249 161
-0.100122 -0.49075 -0.0366093 160 249 161
-0.165125 -0.487985 0.149176 160 249 161
-0.365925 -0.486607 -0.262722 160 249 161
-0.232811 -0.489184 0.068152 160 249 161
-0.140884 -0.487658 0.186831 160 249 161
-0.195855 -0.489761 -0.224064 160 249 161
-0.245003 -0.487239 0.225443 160 249 161
-0.33029 -0.480766 0.125272 160 249 161
-0.293166 -0.38079 0.220907 160 249 161
-0.293866 -0.400049 0.253485 160 249 161
-0.224072 -0.489601 -0.185663 160 249 161
-0.271858 -0.488052 0.144081 160 249 161
-0.187929 -0.490034 -0.158392 160 249 161
-0.279983 -0.485899 -0.0889684 160 249 161
-0.0836114 -0.487329 0.239414 160 249 161
-0.317047 -0.488689 0.0304197 160 249 161
-0.10036 -0.488837 0.0384467 160 249 161
-0.273787 -0.361465 0.171915 160 249 161
-0.291985 -0.364229 0.204506 160 249 161
-0.33889 -0.488273 0.0360901 160 249 161
-0.264018 -0.480014 0.0538234 160 249 161
-0.119819 -0.487431 0.207809 160 249 161
-0.307841 -0.479004 0.247508 160 249 161
-0.0504403 -0.488792 0.127059 160 249 161
-0.0452586 -0.489446 0.10319 160 249 161
-0.178032 -0.488011 0.230644 160 249 161
-0.0860876 -0.49061 -0.101666 160 249 161
-0.375707 -0.48612 -0.198855 160 249 161
-0.090298 -0.489566 -0.0502046 160 249 161
-0.163256 -0.48591 0.316208 160 249 161
-0.169625 -0.487966 0.203567 160 249 161
-0.198127 -0.488441 0.13004 160 249 161
-0.0372337 -0.490306 0.0601272 160 249 161
-0.331825 -0.484014 0.111139 160 249 161
-0.0719763 -0.491011 -0.120797 160 249 161
-0.313382 -0.488124 -0.148301 160 249 161
-0.165359 -0.486653 0.296669 160 249 161
-0.331061 -0.483502 0.125854 160 249 161
-0.0427158 -0.488057 0.182315 160 249 161
-0.0833226 -0.48775 0.270086 160 249 161
-0.183759 -0.490265 -0.247344 160 249 161
-0.111224 -0.484615 0.354592 160 249 161
-0.296139 -0.488477 0.0948211 160 249 161
-0.321036 -0.487361 -0.0305629 160 249 161
-0.220601 -0.479365 0.336679 160 249 161
-0.289691 -0.352349 0.209042 160 249 161
-0.166075 -0.489955 -0.0918043 160 249 161
-0.141675 -0.489859 -0.0699919 160 249 161
-0.203609 -0.487013 0.265473 160 249 161
-0.0313024 -0.490627 -0.0168818 160 249 161
-0.18158 -0.486075 0.306005 160 249 161
-0.107408 -0.487869 0.256554 160 249 161
-0.231715 -0.49317 -0.100761 160 249 161
-0.302604 -0.430038 0.204866 160 249 161
-0.294412 -0.41392 0.257888 160 249 161
-0.223414 -0.31902 0.196299 160 249 161
-0.247938 -0.48926 -0.0301173 160 249 161
-0.129372 -0.487683 0.131746 160 249 161
-0.0436542 -0.490743 -0.0199301 160 249 161
-0.218196 -0.488431 0.14618 160 249 161
-0.285387 -0.355834 0.281112 160 249 161
-0.290726 -0.356827 0.224203 160 249 161
-0.333299 -0.488527 -0.0814356 160 249 161
-0.241383 -0.322239 0.210097 160 249 161
-0.0276835 -0.490489 0.0107096 160 249 161
-0.267011 -0.317438 0.264647 160 249 161
-0.292002 -0.45429 0.14476 160 249 161
-0.216353 -0.488274 0.180083 160 249 161
-0.373369 -0.48611 -0.223736 160 249 161
-0.207643 -0.488999 0.00552547 160 249 161
-0.220989 -0.418791 0.121945 160 249 161
-0.158407 -0.489749 -0.249413 160 249 161
-0.279414 -0.489501 -0.0639644 160 249 161
-0.22757 -0.327697 0.180739 160 249 161
-0.154375 -0.489739 -0.0654444 160 249 161
-0.301248 -0.470655 0.120109 160 249 161
-0.299071 -0.416162 0.230572 160 249 161
-0.145848 -0.485824 0.32277 160 249 161
-0.0881233 -0.488967 0.0479974 160 249 161
-0.297466 -0.489075 0.0508596 160 249 161
-0.364298 -0.487096 -0.256001 160 249 161
-0.112293 -0.48737 0.283545 160 249 161
-0.324479 -0.461428 0.199354 160 249 161
-0.284507 -0.35864 0.185181 160 249 161
-0.12596 -0.487746 0.122475 160 249 161
-0.0705251 -0.487555 0.32068 160 249 161
-0.0673641 -0.490912 -0.138366 160 249 161
-0.317223 -0.488965 -0.0198575 160 249 161
-0.231674 -0.480467 0.320417 160 249 161
-0.0431265 -0.490197 -0.155461 160 249 161
-0.270148 -0.320566 0.233847 160 249 161
-0.23492 -0.489173 -0.0205151 160 249 161
-0.308867 -0.468219 0.255726 160 249 161
-0.280722 -0.48767 -0.26175 160 249 161
-0.0429395 -0.490813 -0.0535596 160 249 161
-0.334156 -0.488462 -0.0568769 160 249 161
-0.226378 -0.314077 0.218808 160 249 161
-0.0755613 -0.487733 0.273956 160 249 161
-0.194538 -0.488123 0.187748 160 249 161
-0.235142 -0.326204 0.188855 160 249 161
-0.0777772 -0.489232 0.0623603 160 249 161
-0.127444 -0.489183 -0.0155432 160 249 161
-0.329416 -0.471618 0.176275 160 249 161
-0.278191 -0.416541 0.164822 160 249 161
-0.138127 -0.488178 0.0878772 160 249 161
-0.195602 -0.488515 0.116947 160 249 161
-0.333922 -0.488831 0.0110207 160 249 161
-0.342942 -0.489608 -0.130877 160 249 161
-0.368183 -0.486547 -0.276983 160 249 161
-0.0509647 -0.490859 -0.0603168 160 249 161
-0.329643 -0.485033 0.115257 160 249 161
-0.163014 -0.488236 0.0866289 160 249 161
-0.084361 -0.487057 0.210509 160 249 161
-0.291154 -0.459198 0.131481 160 249 161
-0.122337 -0.487647 0.269049 160 249 161
-0.123262 -0.486347 0.313534 160 249 161
-0.267818 -0.412018 0.148354 160 249 161
-0.240735 -0.38091 0.143014 160 249 161
-0.21054 -0.486511 0.276469 160 249 161
-0.370823 -0.485332 -0.282975 160 249 161
-0.0868768 -0.489486 0.0259786 160 249 161
-0.27586 -0.369615 0.172757 160 249 161
-0.28105 -0.34598 0.187356 160 249 161
-0.119137 -0.487727 0.124084 160 249 161
-0.170678 -0.487989 0.226284 160 249 161
-0.170997 -0.486907 0.286136 160 249 161
-0.284449 -0.410082 0.297362 160 249 161
-0.0580915 -0.487972 0.167239 160 249 161
-0.108005 -0.488119 0.10326 160 249 161
-0.248263 -0.340297 0.176061 160 249 161
-0.303422 -0.487996 0.106737 160 249 161
-0.270045 -0.325163 0.221161 160 249 161
-0.322338 -0.464481 0.220032 160 249 161
-0.0494773 -0.489833 0.0730799 160 249 161
-0.104413 -0.490141 -0.175857 160 249 161
-0.276221 -0.329955 0.209634 160 249 161
-0.0552894 -0.488906 0.108739 160 249 161
-0.0878147 -0.49087 -0.135853 160 249 161
-0.0700411 -0.488208 0.139923 160 249 161
-0.0824283 -0.489889 0.030421 160 249 161
-0.171764 -0.488928 -0.000213344 160 249 161
-0.304374 -0.487532 -0.263522 160 249 161
-0.256 -0.488022 0.163395 160 249 161
-0.337126 -0.489467 -0.0767654 160 249 161
-0.104519 -0.488758 0.0408604 160 249 161
-0.230478 -0.303791 0.254563 160 249 161
-0.21531 -0.489005 -0.0246152 160 249 161
-0.318173 -0.455869 0.183931 160 249 161
-0.308052 -0.488978 -0.050671 160 249 161
-0.282116 -0.355077 0.300382 160 249 161
-0.157554 -0.488251 0.0816404 160 249 161
-0.306813 -0.434738 0.21396 160 249 161
-0.26463 -0.489442 -0.00826366 160 249 161
-0.329695 -0.482447 0.158052 160 249 161
-0.121696 -0.489543 -0.0333026 160 249 161
-0.247221 -0.482953 0.0054323 160 249 161
-0.287608 -0.349998 0.244603 160 249 161
-0.286561 -0.354736 0.192419 160 249 161
-0.164435 -0.488343 0.073399 160 249 161
0.0475884 -0.239973 -0.284149 192 234 140
-0.205094 -0.490232 0.0735024 192 234 140
0.0527872 -0.284462 -0.186984 192 234 140
0.0507747 -0.441976 -0.248994 192 234 140
0.0376664 -0.335761 -0.373624 192 234 140
-0.0853601 -0.433918 -0.394259 192 234 140
-0.0625564 -0.35733 -0.382889 192 234 140
-0.138012 -0.488172 -0.366705 192 234 140
-0.0448114 -0.368496 -0.382006 192 234 140
-0.173855 -0.490306 0.0686626 192 234 140
-0.0246334 -0.486246 -0.20871 192 234 140
-0.0612614 -0.291329 -0.382898 192 234 140
0.0447002 -0.358368 -0.34905 192 234 140
-0.0366165 -0.459626 -0.39988 192 234 140
0.0458015 -0.29022 -0.287364 192 234 140
0.0268697 -0.286154 -0.377706 192 234 140
0.0525215 -0.347655 -0.132872 192 234 140
-0.0649393 -0.488151 -0.370521 192 234 140
0.0483436 -0.38315 -0.142383 192 234 140
-0.0168896 -0.247042 -0.378329 192 234 140
0.0461596 -0.289671 -0.338726 192 234 140
0.0383491 -0.481481 -0.357193 192 234 140
0.0463875 -0.297244 -0.330123 192 234 140
0.0574707 -0.483433 -0.242228 192 234 140
-0.0352684 -0.315103 -0.383813 192 234 140
0.0478714 -0.239192 -0.289504 192 234 140
-0.263562 -0.489872 0.0341891 192 234 140
0.0493977 -0.360991 -0.11051 192 234 140
-0.0870169 -0.489392 -0.0499339 192 234 140
0.0183484 -0.381958 -0.383731 192 234 140
0.0551531 -0.278716 -0.14386 192 234 140
0.0453187 -0.321392 -0.302555 192 234 140
-0.0637112 -0.324226 -0.384257 192 234 140
0.0477817 -0.235548 -0.281009 192 234 140
-0.0782865 -0.32758 -0.384125 192 234 140
0.0418208 -0.413332 -0.362576 192 234 140
-0.245005 -0.490452 -0.330391 192 234 140
0.0450382 -0.289203 -0.260838 192 234 140
