ply
format ascii 1.0
comment Created by Open3D
element vertex 1212
property double x
property double y
property double z
property uchar red
property uchar green
property uchar blue
end_header
-0.137318 -0.359835 -0.122884 63 97 250
-0.014626 -0.458177 0.0828784 63 97 250
-0.322365 -0.430013 -0.106161 63 97 250
-0.0334213 -0.419768 0.156314 63 97 250
0.076798 -0.470326 -0.188865 63 97 250
-0.0887113 -0.423077 -0.144557 63 97 250
0.132662 -0.463073 -0.162191 63 97 250
-0.0506406 -0.425712 -0.236164 63 97 250
0.0780799 -0.348949 0.170129 63 97 250
-0.141126 -0.372325 -0.139507 63 97 250
-0.10507 -0.385436 -0.109606 63 97 250
0.268167 -0.329537 0.023043 63 97 250
-0.216893 -0.395531 -0.102893 63 97 250
0.0521912 -0.370452 0.204409 63 97 250
-0.175522 -0.444216 -0.277972 63 97 250
0.00552612 -0.467079 -0.115894 63 97 250
0.234993 -0.446016 -0.0521778 63 97 250
-0.0572229 -0.442015 0.0614895 63 97 250
-0.215787 -0.415214 -0.17983 63 97 250
-0.127938 -0.38545 -0.161279 63 97 250
0.208695 -0.382865 0.105902 63 97 250
-0.126918 -0.388629 -0.166208 63 97 250
-0.197998 -0.423112 -0.202648 63 97 250
0.280129 -0.356449 -0.144816 63 97 250
0.16475 -0.458857 -0.0732983 63 97 250
-0.128586 -0.421861 -0.236181 63 97 250
-0.176533 -0.425475 -0.222095 63 97 250
-0.172825 -0.429992 -0.0671184 63 97 250
-0.00843984 -0.458825 -0.253896 63 97 250
0.0383896 -0.467615 -0.276894 63 97 250
-0.16466 -0.429459 0.0440198 63 97 250
0.137188 -0.463813 -0.184305 63 97 250
-0.12017 -0.392466 -0.173413 63 97 250
-0.134405 -0.450017 -0.302171 63 97 250
-0.105313 -0.419853 -0.121909 63 97 250
-0.0882791 -0.450623 -0.00661071 63 97 250
-0.0869074 -0.429973 -0.116373 63 97 250
-0.110714 -0.383377 -0.159993 63 97 250
-0.302743 -0.42905 -0.147162 63 97 250
-0.202334 -0.377899 -0.126771 63 97 250
-0.142912 -0.360132 -0.120657 63 97 250
-0.101607 -0.384994 -0.164316 63 97 250
0.280686 -0.384666 -0.0329937 63 97 250
0.116584 -0.464779 -0.256645 63 97 250
-0.135674 -0.379118 -0.149951 63 97 250
0.183187 -0.32863 0.118115 63 97 250
-0.25788 -0.436256 -0.192982 63 97 250
-0.209401 -0.414462 -0.0923677 63 97 250
0.288849 -0.405207 -0.163076 63 97 250
-0.197362 -0.373951 -0.0903358 63 97 250
-0.287213 -0.404255 -0.1163 63 97 250
-0.227732 -0.388083 -0.130721 63 97 250
-0.309047 -0.444475 -0.048303 63 97 250
-0.320827 -0.438053 -0.134636 63 97 250
-0.0962768 -0.449606 -0.00737318 63 97 250
-0.148161 -0.401166 -0.181413 63 97 250
-0.329922 -0.436332 -0.10355 63 97 250
0.271469 -0.341068 -0.0791179 63 97 250
-0.0798928 -0.426691 -0.186021 63 97 250
-0.00478559 -0.369039 0.192923 63 97 250
0.0463336 -0.462288 0.0724067 63 97 250
0.284314 -0.416332 -0.0465241 63 97 250
0.175844 -0.45699 -0.150646 63 97 250
-0.0154434 -0.474182 -0.0759541 63 97 250
-0.100159 -0.387006 -0.167456 63 97 250
-0.113174 -0.369305 -0.141043 63 97 250
-0.109603 -0.418972 -0.120816 63 97 250
0.274265 -0.345146 -0.101564 63 97 250
-0.0513221 -0.431487 -0.219569 63 97 250
-0.278319 -0.441942 -0.189219 63 97 250
0.248568 -0.370772 0.0823749 31 142 243
-0.117515 -0.226799 0.261316 31 142 243
-0.169044 -0.472363 0.187674 31 142 243
0.178184 -0.486316 0.111866 31 142 243
0.247151 -0.472739 0.199347 31 142 243
0.0913479 -0.3423 0.218768 31 142 243
0.227551 -0.482392 0.131033 31 142 243
-0.186552 -0.407014 0.228656 31 142 243
0.258751 -0.39165 -0.0513344 31 142 243
0.0194745 -0.262681 0.252907 31 142 243
-0.214178 -0.434562 0.254869 31 142 243
0.260707 -0.394891 -0.0735606 31 142 243
-0.0296302 -0.44359 0.2433 31 142 243
-0.240475 -0.344072 0.245116 31 142 243
-0.0941299 -0.340375 0.253301 31 142 243
0.264576 -0.31554 0.113881 31 142 243
0.0610225 -0.453385 0.0601154 31 142 243
0.147713 -0.38252 0.240971 31 142 243
0.163209 -0.488691 0.0553229 31 142 243
0.225203 -0.47958 0.173363 31 142 243
-0.0348428 -0.395119 0.215672 31 142 243
-0.0630042 -0.380851 0.216336 31 142 243
0.265702 -0.417043 0.120318 31 142 243
-0.318365 -0.3938 0.258856 31 142 243
-0.0511679 -0.48385 0.044433 31 142 243
-0.12322 -0.46633 0.229483 31 142 243
-0.265187 -0.299208 0.232732 31 142 243
0.0930231 -0.469442 0.216036 31 142 243
-0.15209 -0.221191 0.250164 31 142 243
-0.220458 -0.289697 0.25427 31 142 243
0.265883 -0.264109 0.00813086 31 142 243
0.156428 -0.486649 0.133456 31 142 243
0.252193 -0.285514 0.212551 31 142 243
0.223755 -0.229118 0.223238 31 142 243
-0.0486376 -0.22315 0.252004 31 142 243
0.262626 -0.365595 -0.0563577 31 142 243
-0.0746052 -0.422951 0.206957 31 142 243
-0.161554 -0.438225 0.214277 31 142 243
0.183144 -0.33595 0.217788 31 142 243
-0.026426 -0.342 0.21816 31 142 243
-0.195626 -0.308433 0.229341 31 142 243
-0.199965 -0.18574 0.259664 31 142 243
-0.0092115 -0.255826 0.255536 31 142 243
-0.124912 -0.472807 0.199318 31 142 243
-0.0440427 -0.17983 0.259079 31 142 243
-0.0779203 -0.331217 0.253797 31 142 243
-0.175993 -0.471011 0.154346 31 142 243
0.269384 -0.477215 0.166851 31 142 243
-0.0968798 -0.483797 0.123885 31 142 243
-0.204382 -0.357589 0.231946 31 142 243
0.265548 -0.470443 0.0879291 31 142 243
-0.335751 -0.421161 0.262724 31 142 243
-0.266952 -0.398799 0.254644 31 142 243
-0.0860924 -0.442958 0.246252 31 142 243
-0.188377 -0.365509 0.241189 31 142 243
-0.191663 -0.18815 0.260572 31 142 243
-0.29918 -0.256073 0.252976 31 142 243
-0.107972 -0.19343 0.260919 31 142 243
0.238246 -0.269939 0.221193 31 142 243
0.263437 -0.272406 -0.0447847 31 142 243
0.162873 -0.421317 0.182556 31 142 243
-0.0677673 -0.273466 0.257664 31 142 243
-0.188248 -0.303585 0.241289 31 142 243
0.171312 -0.462829 0.234388 31 142 243
0.27346 -0.232753 0.15893 31 142 243
0.258385 -0.395111 0.152531 31 142 243
0.266387 -0.2438 0.0306101 31 142 243
-0.148281 -0.476307 0.177826 31 142 243
-0.278035 -0.225383 0.239798 31 142 243
-0.0981649 -0.296399 0.256912 31 142 243
0.0268061 -0.451675 0.0671495 31 142 243
-0.273919 -0.222396 0.254114 31 142 243
0.156096 -0.489257 0.0611955 31 142 243
-0.0468542 -0.48764 0.123443 31 142 243
0.238726 -0.353442 0.21786 31 142 243
-0.329732 -0.363759 0.256899 31 142 243
-0.326131 -0.425611 0.263384 31 142 243
-0.327705 -0.350265 0.256006 31 142 243
-0.137555 -0.279422 0.248021 31 142 243
-0.245334 -0.191741 0.258072 31 142 243
-0.216158 -0.381928 0.231906 31 142 243
0.261187 -0.306726 -0.0626907 31 142 243
-0.117881 -0.248683 0.261273 31 142 243
-0.114897 -0.233627 0.261529 31 142 243
0.254932 -0.222291 0.205029 31 142 243
0.189827 -0.312116 0.232942 31 142 243
0.262322 -0.395214 0.00548547 31 142 243
-0.288361 -0.190562 0.248277 31 142 243
-0.071049 -0.453488 0.10839 31 142 243
-0.0275843 -0.446286 0.0960597 31 142 243
-0.292594 -0.322911 0.243372 31 142 243
0.243504 -0.326781 0.216768 31 142 243
-0.01971 -0.321539 0.252281 31 142 243
0.274122 -0.24515 0.118152 31 142 243
-0.0838074 -0.391608 0.247984 31 142 243
0.214923 -0.481772 0.159998 31 142 243
-0.0862655 -0.17983 0.26081 31 142 243
-0.256027 -0.308966 0.237147 31 142 243
0.267399 -0.320366 0.119573 31 142 243
0.118469 -0.20442 0.241498 31 142 243
-0.288265 -0.211379 0.253547 31 142 243
0.255332 -0.340649 0.167651 31 142 243
0.159083 -0.48813 0.0386139 31 142 243
-0.0893269 -0.484403 0.128279 31 142 243
0.267709 -0.227948 0.0598129 31 142 243
0.262806 -0.324028 -0.0544535 31 142 243
-0.0133584 -0.31479 0.252575 31 142 243
-0.110406 -0.480022 0.169796 31 142 243
-0.0573692 -0.407961 0.24503 31 142 243
0.259487 -0.300939 -0.093256 31 142 243
0.261889 -0.470042 0.159455 31 142 243
-0.284024 -0.373453 0.255325 31 142 243
-0.144469 -0.480094 0.11712 31 142 243
-0.0962947 -0.482347 0.0494502 31 142 243
0.0797282 -0.477061 0.201561 31 142 243
-0.264345 -0.366856 0.254422 31 142 243
-0.332253 -0.412795 0.26105 31 142 243
-0.30095 -0.286572 0.254229 31 142 243
0.113052 -0.344128 0.217377 31 142 243
0.212883 -0.40983 0.229145 31 142 243
0.257844 -0.323109 0.158854 31 142 243
-0.127064 -0.475477 0.063625 31 142 243
-0.312458 -0.395452 0.258608 31 142 243
-0.1864 -0.278194 0.256626 31 142 243
0.263025 -0.390837 0.0787033 31 142 243
-0.097186 -0.423607 0.207815 31 142 243
-0.174704 -0.29927 0.255853 31 142 243
-0.181887 -0.230689 0.247529 31 142 243
0.25821 -0.276672 -0.104916 31 142 243
-0.130738 -0.448422 0.176895 31 142 243
-0.118249 -0.47653 0.185318 31 142 243
0.243862 -0.359459 0.203482 31 142 243
0.247802 -0.452806 0.205477 31 142 243
0.257764 -0.396507 0.104246 31 142 243
-0.0959698 -0.311908 0.255525 31 142 243
-0.247951 -0.377841 0.253526 31 142 243
0.20669 -0.484816 0.0554525 31 142 243
-0.308739 -0.394263 0.259088 31 142 243
0.264066 -0.298773 -0.0157299 31 142 243
-0.160446 -0.337256 0.241598 31 142 243
0.234164 -0.416721 0.218551 31 142 243
-0.0718288 -0.375946 0.23808 31 142 243
0.0168089 -0.243356 0.25337 31 142 243
-0.190706 -0.239639 0.258615 31 142 243
0.266757 -0.299399 0.0473004 31 142 243
0.264302 -0.459969 -0.0640825 31 142 243
-0.320247 -0.417663 0.26133 31 142 243
0.230549 -0.348923 0.222877 31 142 243
-0.146538 -0.19558 0.261194 31 142 243
-0.0478694 -0.288914 0.255637 31 142 243
0.0775711 -0.441167 0.150837 31 142 243
-0.196462 -0.42414 0.227976 31 142 243
-0.0441752 -0.228611 0.259074 31 142 243
0.182361 -0.486483 0.102463 31 142 243
0.262295 -0.31018 0.138584 31 142 243
-0.208609 -0.469425 0.187175 31 142 243
-0.188677 -0.340961 0.237255 31 142 243
-0.312362 -0.294561 0.254104 31 142 243
0.100511 -0.448433 0.215231 31 142 243
0.239682 -0.481582 0.107039 31 142 243
0.0974464 -0.462862 0.215403 31 142 243
0.270812 -0.327333 0.0688186 31 142 243
-0.210787 -0.368843 0.251586 31 142 243
-0.141197 -0.281472 0.258268 31 142 243
-0.10669 -0.209032 0.254119 31 142 243
-0.0235965 -0.200431 0.258702 31 142 243
-0.26597 -0.389986 0.254528 31 142 243
-0.293771 -0.316565 0.254743 31 142 243
0.079264 -0.404942 0.225083 31 142 243
0.0269848 -0.442611 0.133906 31 142 243
-0.303888 -0.246764 0.252582 31 142 243
-0.00549961 -0.260485 0.245749 31 142 243
-0.290054 -0.266493 0.253467 31 142 243
-0.191296 -0.424854 0.230892 31 142 243
-0.321062 -0.420388 0.261782 31 142 243
-0.117733 -0.411952 0.248148 31 142 243
-0.20757 -0.265117 0.255687 31 142 243
0.13973 -0.456298 0.020209 31 142 243
0.267459 -0.261893 0.0661128 31 142 243
0.260611 -0.394943 -0.076197 31 142 243
0.251547 -0.272044 -0.160274 31 142 243
-0.0981192 -0.483012 0.0821042 31 142 243
-0.197819 -0.204706 0.252723 31 142 243
0.237001 -0.446429 -0.0672791 31 142 243
-0.254588 -0.236419 0.254211 31 142 243
-0.137503 -0.441228 0.225442 31 142 243
0.244438 -0.364325 0.200709 31 142 243
-0.0633069 -0.44124 0.243505 31 142 243
0.0266581 -0.487299 0.0488346 31 142 243
0.254235 -0.229736 -0.127439 31 142 243
-0.00750739 -0.488954 0.0931841 31 142 243
-0.142946 -0.431947 0.250579 31 142 243
0.188183 -0.486488 0.0894836 31 142 243
0.233574 -0.454348 0.215023 31 142 243
-0.241783 -0.412984 0.253972 31 142 243
-0.0429943 -0.395485 0.244574 31 142 243
0.268255 -0.384491 0.0390524 31 142 243
-0.0275697 -0.486461 0.0701065 31 142 243
0.137863 -0.462979 0.239131 31 142 243
-0.224159 -0.366467 0.25229 31 142 243
-0.160643 -0.432323 0.226667 31 142 243
0.0179332 -0.189867 0.251714 31 142 243
-0.00335418 -0.447118 0.24474 31 142 243
0.266503 -0.25289 0.0185178 31 142 243
0.248461 -0.4661 0.201571 31 142 243
-0.289364 -0.189868 0.248332 31 142 243
0.249403 -0.304815 0.213251 31 142 243
-0.0362241 -0.328082 0.243737 31 142 243
-0.11527 -0.184298 0.257379 31 142 243
0.0923569 -0.491039 0.0647851 31 142 243
0.227987 -0.235648 0.222499 31 142 243
-0.317781 -0.435167 0.265674 31 142 243
0.266825 -0.300948 0.0563066 31 142 243
-0.227074 -0.423998 0.238167 31 142 243
0.258099 -0.387516 -0.113939 31 142 243
0.232444 -0.38664 0.220139 31 142 243
-0.149241 -0.366226 0.222809 31 142 243
-0.0701777 -0.485566 0.143503 31 142 243
0.26942 -0.222349 0.115259 31 142 243
0.0741837 -0.402017 0.227085 31 142 243
0.218958 -0.398411 0.173685 31 142 243
-0.0703866 -0.356289 0.251204 31 142 243
0.221412 -0.426216 0.113666 31 142 243
0.289979 -0.449514 0.104107 31 142 243
0.263647 -0.29631 -0.0218103 31 142 243
0.260733 -0.414849 -0.102344 31 142 243
0.241618 -0.348679 0.139564 31 142 243
-0.0150819 -0.484506 0.0257957 31 142 243
0.103346 -0.364792 0.247133 31 142 243
0.190257 -0.387383 0.217401 31 142 243
-0.119263 -0.28882 0.247985 31 142 243
-0.141143 -0.318424 0.255137 31 142 243
0.0306138 -0.485496 0.0046376 31 142 243
-0.185717 -0.465568 0.239673 31 142 243
-0.161118 -0.44455 0.252703 31 142 243
0.272096 -0.291942 0.0547358 31 142 243
-0.151249 -0.342772 0.252333 31 142 243
-0.0526408 -0.486179 0.0862335 31 142 243
-0.0739721 -0.405969 0.234167 31 142 243
0.132047 -0.392183 0.220613 31 142 243
-0.168476 -0.437756 0.217776 31 142 243
0.249179 -0.474949 0.192294 31 142 243
-0.223432 -0.444098 0.256653 31 142 243
-0.217307 -0.404447 0.252661 31 142 243
0.0770814 -0.288841 0.250015 31 142 243
0.189217 -0.48442 0.136203 31 142 243
-0.0706354 -0.482758 0.168331 31 142 243
0.00689305 -0.326029 0.221343 31 142 243
-0.269276 -0.427286 0.256673 31 142 243
0.274235 -0.477563 0.140449 31 142 243
-0.250871 -0.308759 0.254511 31 142 243
-0.296904 -0.440328 0.262599 31 142 243
-0.171039 -0.214401 0.249913 31 142 243
0.247122 -0.344126 -0.17736 31 142 243
-0.273835 -0.310874 0.237249 31 142 243
0.264078 -0.390027 0.0858678 31 142 243
0.201408 -0.278227 0.230372 31 142 243
0.254325 -0.419404 0.173771 31 142 243
-0.307897 -0.362222 0.256589 31 142 243
-0.131381 -0.235763 0.261692 31 142 243
-0.153041 -0.333762 0.242647 31 142 243
-0.00594537 -0.225184 0.257062 31 142 243
0.0221542 -0.214649 0.253727 31 142 243
0.118766 -0.402887 0.220467 31 142 243
-0.0992692 -0.462927 0.0902964 31 142 243
0.261302 -0.461984 0.008484 31 142 243
-0.241385 -0.483001 0.160492 31 142 243
-0.032191 -0.304084 0.254257 31 142 243
0.263089 -0.32694 -0.0245511 31 142 243
-0.264634 -0.205569 0.247018 31 142 243
0.179483 -0.311091 0.222337 31 142 243
-0.147266 -0.302426 0.245787 31 142 243
-0.0577382 -0.377711 0.21628 31 142 243
-0.251351 -0.309476 0.254532 31 142 243
0.256831 -0.354834 -0.127705 31 142 243
-0.202655 -0.422676 0.232992 31 142 243
-0.25888 -0.191766 0.256983 31 142 243
0.270006 -0.281377 0.0309595 31 142 243
-0.27846 -0.314358 0.237663 31 142 243
-0.298087 -0.299934 0.254709 31 142 243
-0.245324 -0.493363 0.100632 31 142 243
-0.0872193 -0.48336 0.0595769 31 142 243
-0.279652 -0.291241 0.2545 31 142 243
-0.230407 -0.455161 0.241647 31 142 243
0.259803 -0.35798 -0.0808185 31 142 243
-0.254654 -0.31502 0.236695 31 142 243
-0.00222934 -0.294476 0.254112 31 142 243
-0.0163818 -0.409202 0.244547 31 142 243
-0.0840991 -0.390481 0.240044 31 142 243
-0.0806673 -0.191944 0.261038 31 142 243
-0.184343 -0.469054 0.198034 31 142 243
-0.0720125 -0.363994 0.217223 31 142 243
-0.0898348 -0.221472 0.260257 31 142 243
-0.248702 -0.323684 0.254292 31 142 243
-0.120558 -0.390195 0.220088 31 142 243
0.265852 -0.244092 0.183207 31 142 243
0.255694 -0.265019 -0.129489 31 142 243
0.259143 -0.480018 0.127149 31 142 243
0.258784 -0.366919 -0.104102 31 142 243
-0.232702 -0.213144 0.257362 31 142 243
0.0313707 -0.23722 0.252321 31 142 243
0.196001 -0.485917 0.075255 31 142 243
-0.00111592 -0.189414 0.253983 31 142 243
-0.199491 -0.207505 0.26013 31 142 243
-0.0699496 -0.477234 -0.0553211 31 142 243
-0.236707 -0.185695 0.256959 31 142 243
0.16148 -0.489176 0.0653841 31 142 243
-0.10581 -0.443499 0.24868 31 142 243
0.0270851 -0.322643 0.251546 31 142 243
-0.0344389 -0.216175 0.259053 31 142 243
0.0452672 -0.332145 0.251179 31 142 243
0.266803 -0.295107 0.0927933 31 142 243
0.102285 -0.364143 0.247264 31 142 243
0.272293 -0.477847 0.147022 31 142 243
-0.14792 -0.463334 0.155655 31 142 243
0.255188 -0.464993 0.185966 31 142 243
0.266472 -0.238591 0.0283844 31 142 243
-0.163293 -0.190085 0.256353 31 142 243
0.0513304 -0.415525 0.216199 31 142 243
0.25452 -0.23872 -0.130953 31 142 243
-0.180418 -0.249822 0.258637 31 142 243
0.272526 -0.223209 0.163162 31 142 243
0.226394 -0.422741 0.194445 31 142 243
0.0805824 -0.475042 0.207838 31 142 243
0.268266 -0.478992 0.142559 31 142 243
-0.282312 -0.430416 0.258458 31 142 243
0.290046 -0.43969 0.0861774 31 142 243
-0.247761 -0.474003 0.192989 31 142 243
0.25138 -0.335435 0.166441 31 142 243
0.220992 -0.482244 0.143461 31 142 243
-0.278166 -0.337584 0.254834 31 142 243
0.263184 -0.232819 0.183595 31 142 243
0.124155 -0.488902 0.132795 31 142 243
0.249442 -0.279326 0.188065 31 142 243
0.0777181 -0.412874 0.215684 31 142 243
0.0241205 -0.304311 0.252327 31 142 243
-0.0510398 -0.398738 0.241414 31 142 243
-0.187543 -0.444923 0.254683 31 142 243
0.257522 -0.466116 0.178867 31 142 243
0.0268766 -0.232241 0.252584 31 142 243
0.266213 -0.302417 0.0157783 31 142 243
-0.169742 -0.440712 0.252832 31 142 243
0.24993 -0.423732 -0.0925203 31 142 243
-0.259891 -0.218669 0.243769 31 142 243
-0.315467 -0.338025 0.255485 31 142 243
-0.280931 -0.377073 0.255289 31 142 243
0.208341 -0.389587 0.195003 31 142 243
0.261243 -0.466001 0.062006 31 142 243
-0.0277077 -0.403543 0.215729 31 142 243
0.266855 -0.296486 0.0634522 31 142 243
0.250223 -0.466234 0.201527 31 142 243
0.0579531 -0.279014 0.240676 31 142 243
0.270545 -0.223754 0.175316 31 142 243
0.220918 -0.228137 0.220606 31 142 243
0.114632 -0.492081 0.0807706 31 142 243
0.06273 -0.348142 0.235184 31 142 243
0.145446 -0.455124 0.029711 31 142 243
0.148081 -0.341084 0.21824 31 142 243
-0.0412557 -0.314618 0.253679 31 142 243
-0.22935 -0.420943 0.238426 31 142 243
0.106741 -0.28361 0.247172 31 142 243
0.237384 -0.235014 0.220021 31 142 243
0.144253 -0.316927 0.241042 31 142 243
0.0338468 -0.268617 0.252524 31 142 243
-0.25062 -0.476365 0.188809 31 142 243
0.268199 -0.400167 0.0807431 31 142 243
-0.144954 -0.346061 0.241762 31 142 243
-0.0498689 -0.347583 0.251104 31 142 243
-0.257734 -0.306918 0.254589 31 142 243
-0.067237 -0.248511 0.250014 31 142 243
0.253419 -0.238152 -0.14304 31 142 243
-0.157094 -0.413881 0.25072 31 142 243
0.237313 -0.393856 0.214188 31 142 243
0.247517 -0.284736 -0.178101 31 142 243
0.225145 -0.422045 0.194806 31 142 243
0.179771 -0.269334 0.234726 31 142 243
-0.120214 -0.337464 0.242554 31 142 243
0.0960207 -0.314864 0.248673 31 142 243
0.252583 -0.446957 0.181511 31 142 243
0.200035 -0.437531 0.102701 31 142 243
-0.0853195 -0.274157 0.258488 31 142 243
0.201917 -0.282356 0.220449 31 142 243
0.26374 -0.224417 -0.0266317 31 142 243
0.0630605 -0.298749 0.251002 31 142 243
0.150353 -0.21055 0.239935 31 142 243
-0.159751 -0.401719 0.245173 31 142 243
0.244671 -0.425601 0.205703 31 142 243
-0.177637 -0.269699 0.25758 31 142 243
0.26287 -0.47342 -0.00625915 31 142 243
-0.234064 -0.284376 0.235091 31 142 243
-0.232406 -0.438195 0.25578 31 142 243
0.2621 -0.452372 -0.00800763 31 142 243
-0.194718 -0.221743 0.247476 31 142 243
-0.2353 -0.222919 0.244514 31 142 243
-0.10443 -0.184095 0.25767 31 142 243
-0.328235 -0.410755 0.260615 31 142 243
-0.0138934 -0.278854 0.255222 31 142 243
0.0841402 -0.341157 0.249264 31 142 243
-0.0102629 -0.444022 0.244211 31 142 243
-0.261769 -0.274736 0.253601 31 142 243
0.261589 -0.2908 -0.0481034 31 142 243
-0.299034 -0.224399 0.252708 31 142 243
0.255001 -0.450553 0.169955 31 142 243
0.269418 -0.362538 0.0653493 31 142 243
0.247639 -0.2212 0.208473 31 142 243
-0.25387 -0.400441 0.252891 31 142 243
0.0428343 -0.489085 0.0684283 31 142 243
0.266913 -0.38865 0.0662284 31 142 243
0.255249 -0.371144 0.0165886 31 142 243
0.0270097 -0.444101 0.215966 31 142 243
-0.018643 -0.45648 0.218685 31 142 243
0.263227 -0.343515 -0.00722537 31 142 243
0.262506 -0.369838 -0.0182984 31 142 243
-0.104163 -0.438658 0.24816 31 142 243
0.184663 -0.483773 0.153524 31 142 243
-0.259884 -0.269931 0.253319 31 142 243
-0.284611 -0.440294 0.26156 31 142 243
-0.125457 -0.326462 0.254333 31 142 243
-0.290096 -0.186559 0.253735 31 142 243
-0.117246 -0.237135 0.251977 31 142 243
-0.00640194 -0.256175 0.255307 31 142 243
0.24625 -0.382461 0.18967 31 142 243
-0.197404 -0.206677 0.260222 31 142 243
-0.311574 -0.421931 0.261177 31 142 243
0.260919 -0.300301 -0.0657465 31 142 243
0.251794 -0.3074 -0.160447 31 142 243
0.25656 -0.28897 0.196846 31 142 243
-0.30003 -0.379902 0.256809 31 142 243
0.265805 -0.225069 0.000877227 31 142 243
0.118577 -0.202821 0.244452 31 142 243
0.246302 -0.311125 -0.180569 31 142 243
0.0513171 -0.390043 0.247731 31 142 243
-0.292949 -0.324556 0.254809 31 142 243
0.0194047 -0.491509 0.119969 31 142 243
-0.1497 -0.276244 0.258459 31 142 243
-0.18303 -0.490543 0.0688741 31 142 243
0.253178 -0.460031 0.189902 31 142 243
0.270683 -0.223277 0.137827 31 142 243
0.237687 -0.419272 0.215747 31 142 243
-0.0441006 -0.487353 0.100594 31 142 243
0.0653368 -0.384801 0.231145 31 142 243
-0.185753 -0.433716 0.25224 31 142 243
0.0316203 -0.412762 0.246409 31 142 243
0.259316 -0.407429 0.00765897 31 142 243
0.277656 -0.476089 0.156981 31 142 243
-0.188261 -0.218305 0.260282 31 142 243
-0.0756421 -0.484063 0.157818 31 142 243
-0.140283 -0.249414 0.260802 31 142 243
0.243869 -0.354142 0.151715 31 142 243
0.253498 -0.468987 0.194935 31 142 243
-0.0159114 -0.489266 0.107069 31 142 243
-0.160387 -0.376932 0.236949 31 142 243
-0.228054 -0.366913 0.236519 31 142 243
-0.158588 -0.450503 0.194227 31 142 243
-0.0332683 -0.341934 0.21823 31 142 243
-0.272764 -0.282057 0.254072 31 142 243
0.289314 -0.467798 0.160598 31 142 243
0.0304118 -0.477055 0.202286 31 142 243
-0.327835 -0.358004 0.256503 31 142 243
-0.119638 -0.369448 0.250331 31 142 243
-0.137148 -0.471628 0.105201 31 142 243
0.245172 -0.32525 -0.184738 31 142 243
-0.215987 -0.18857 0.259682 31 142 243
-0.102438 -0.474385 0.198944 31 142 243
0.09926 -0.488726 0.0303375 31 142 243
-0.314067 -0.329078 0.255086 31 142 243
0.143749 -0.449663 0.0774477 31 142 243
0.115201 -0.469119 0.215265 31 142 243
0.11208 -0.490483 0.0515979 31 142 243
0.0967712 -0.364869 0.229617 31 142 243
0.249922 -0.37289 0.188494 31 142 243
0.0479311 -0.440901 0.147225 31 142 243
-0.273367 -0.255544 0.234333 31 142 243
-0.179588 -0.186901 0.260702 31 142 243
0.0227583 -0.458499 -0.0169328 31 142 243
-0.189907 -0.216567 0.260271 31 142 243
0.248988 -0.356008 -0.171095 31 142 243
0.150099 -0.25554 0.234961 31 142 243
-0.110667 -0.468926 0.22983 31 142 243
0.198569 -0.385763 0.233401 31 142 243
-0.0438641 -0.326209 0.25292 31 142 243
0.224846 -0.375146 0.224709 31 142 243
0.194422 -0.240836 0.231746 31 142 243
-0.0541414 -0.433817 0.24314 31 142 243
-0.00271406 -0.390739 0.215326 31 142 243
0.256626 -0.31573 -0.0957603 31 142 243
-0.052023 -0.333948 0.252907 31 142 243
0.227915 -0.466536 0.221009 31 142 243
-0.148429 -0.288603 0.246717 31 142 243
-0.314731 -0.328834 0.255064 31 142 243
0.0386185 -0.492049 0.121693 31 142 243
-0.205744 -0.274375 0.255541 31 142 243
0.107358 -0.490177 0.0479738 31 142 243
0.0051617 -0.451436 0.0506915 31 142 243
-0.0136908 -0.268922 0.245139 31 142 243
-0.228878 -0.452929 0.240979 31 142 243
0.267629 -0.227013 0.0640343 31 142 243
0.0166703 -0.25117 0.253311 31 142 243
0.124138 -0.490538 0.116599 31 142 243
0.218581 -0.307722 0.226816 31 142 243
0.175032 -0.371718 0.236569 31 142 243
-0.259244 -0.441764 0.258515 31 142 243
-0.0217017 -0.449038 0.244182 31 142 243
-0.225428 -0.294762 0.253784 31 142 243
-0.0307104 -0.440522 0.129934 31 142 243
0.120503 -0.386956 0.223684 31 142 243
0.0867447 -0.489114 0.0397686 31 142 243
-0.0601884 -0.480622 -0.000912964 31 142 243
-0.0276458 -0.429508 0.243337 31 142 243
0.247474 -0.396984 0.199264 31 142 243
0.104756 -0.316693 0.247761 31 142 243
0.265981 -0.312378 0.0112946 31 142 243
-0.120306 -0.381966 -0.161634 0 180 235
-0.105119 -0.425834 -0.0929703 0 180 235
0.149797 -0.283486 0.24511 0 180 235
-0.130855 -0.338513 0.235247 0 180 235
0.0409568 -0.458888 -0.118656 0 180 235
0.141449 -0.381024 -0.0551605 0 180 235
-0.038657 -0.31552 0.234392 0 180 235
-0.156693 -0.374361 -0.0889658 0 180 235
0.0652801 -0.317639 0.220895 0 180 235
-0.241415 -0.345121 -0.135508 0 180 235
-0.114036 -0.37394 0.229704 0 180 235
-0.158236 -0.323274 0.235274 0 180 235
-0.0353453 -0.274564 0.239058 0 180 235
-0.204154 -0.428059 0.149348 0 180 235
-0.151639 -0.258098 0.237225 0 180 235
-0.0353205 -0.382741 0.210796 0 180 235
-0.211044 -0.419128 0.190215 0 180 235
0.00914066 -0.317511 0.232163 0 180 235
-0.000936831 -0.454063 -0.0155468 0 180 235
-0.313229 -0.343314 0.156944 0 180 235
0.0899877 -0.223564 0.249918 0 180 235
-0.199287 -0.427534 0.104603 0 180 235
0.198882 -0.361334 0.163831 0 180 235
-0.0865121 -0.438474 -0.162474 0 180 235
0.207822 -0.376548 0.234066 0 180 235
-0.171608 -0.414048 -0.192582 0 180 235
-0.132532 -0.399483 -0.0542725 0 180 235
0.00548375 -0.184001 0.254043 0 180 235
-0.21429 -0.405769 -0.202714 0 180 235
-0.0887594 -0.385483 0.222767 0 180 235
-0.290192 -0.335021 0.21172 0 180 235
-0.203725 -0.434994 -0.208839 0 180 235
-0.256944 -0.344051 -0.100169 0 180 235
-0.0336602 -0.210813 0.250666 0 180 235
-0.066502 -0.246106 0.242855 0 180 235
-0.178422 -0.432992 0.105898 0 180 235
-0.115893 -0.378031 -0.150251 0 180 235
0.159394 -0.342462 0.230823 0 180 235
0.12477 -0.40022 -0.0721811 0 180 235
0.183979 -0.396796 0.0988199 0 180 235
0.0501067 -0.349127 0.208124 0 180 235
0.151289 -0.323389 0.233796 0 180 235
-0.00298719 -0.325998 0.231938 0 180 235
-0.236288 -0.251782 0.235661 0 180 235
-0.139087 -0.434942 0.107502 0 180 235
0.111886 -0.168808 0.247362 0 180 235
0.124607 -0.208045 0.25206 0 180 235
-0.113076 -0.394366 -0.101069 0 180 235
-0.110399 -0.448443 0.0304959 0 180 235
0.181885 -0.35856 0.0877542 0 180 235
-0.28893 -0.375383 0.098441 0 180 235
0.0309275 -0.329076 0.218141 0 180 235
0.0389835 -0.17908 0.253132 0 180 235
0.183412 -0.313218 0.226484 0 180 235
-0.152543 -0.232189 0.241402 0 180 235
0.162729 -0.345406 0.060194 0 180 235
0.12926 -0.400723 -0.0891226 0 180 235
-0.275784 -0.329982 0.222379 0 180 235
0.203496 -0.374364 0.233145 0 180 235
0.114061 -0.4454 -0.0375037 0 180 235
-0.208028 -0.414657 0.058035 0 180 235
-0.0692577 -0.425391 0.184771 0 180 235
-0.203847 -0.358057 -0.161706 0 180 235
-0.148641 -0.356706 -0.132025 0 180 235
-0.124137 -0.388413 -0.166633 0 180 235
0.12492 -0.282835 0.242563 0 180 235
-0.168986 -0.373801 0.229158 0 180 235
0.175263 -0.302023 0.243056 0 180 235
0.10265 -0.259263 0.245498 0 180 235
-0.147582 -0.392695 -0.1795 0 180 235
0.0219507 -0.317168 0.22581 0 180 235
-0.0299311 -0.319821 0.23351 0 180 235
-0.242446 -0.34684 -0.10459 0 180 235
-0.110926 -0.449324 0.0263342 0 180 235
0.188054 -0.329113 0.239328 0 180 235
-0.0261391 -0.401334 0.202885 0 180 235
0.0903549 -0.183607 0.252557 0 180 235
0.176777 -0.320538 0.174492 0 180 235
0.0942684 -0.274573 0.240838 0 180 235
0.0636938 -0.366175 0.203313 0 180 235
0.0411092 -0.261018 0.242954 0 180 235
-0.165818 -0.250237 0.237109 0 180 235
0.157615 -0.427503 0.0521845 0 180 235
-0.314158 -0.343832 0.122227 0 180 235
0.18038 -0.3822 0.0500535 0 180 235
0.205615 -0.262893 0.243326 0 180 235
-0.0878556 -0.445724 -0.161987 0 180 235
0.214526 -0.252229 0.24241 0 180 235
0.0542712 -0.359681 0.204422 0 180 235
-0.164754 -0.357006 -0.144901 0 180 235
-0.119234 -0.371365 -0.146735 0 180 235
-0.144612 -0.374044 -0.173047 0 180 235
0.111219 -0.442196 -0.0242067 0 180 235
0.110345 -0.235726 0.24896 0 180 235
-0.00713753 -0.345753 0.223577 0 180 235
0.0531513 -0.443707 -0.0352354 0 180 235
0.0504066 -0.190378 0.254617 0 180 235
-0.160867 -0.428405 0.199126 0 180 235
0.102903 -0.270352 0.242931 0 180 235
-0.132075 -0.391169 -0.0744611 0 180 235
-0.235809 -0.369222 -0.184278 0 180 235
-0.186927 -0.423211 -0.20157 0 180 235
-0.13275 -0.364363 -0.154472 0 180 235
-0.0813462 -0.242671 0.243103 0 180 235
-0.0837851 -0.446604 -0.165647 0 180 235
0.118559 -0.302338 0.235653 0 180 235
-0.128318 -0.221421 0.24486 0 180 235
-0.177015 -0.382766 0.22585 0 180 235
0.156838 -0.339513 0.0811599 0 180 235
-0.237024 -0.346155 -0.133936 0 180 235
-0.0308676 -0.257645 0.242155 0 180 235
-0.111798 -0.442268 0.141253 0 180 235
-0.257608 -0.23972 0.23461 0 180 235
-0.0656003 -0.2613 0.239425 0 180 235
0.131546 -0.277464 0.244788 0 180 235
-0.125301 -0.367369 -0.149386 0 180 235
-0.300644 -0.354418 0.187689 0 180 235
-0.0278289 -0.183967 0.254077 0 180 235
-0.0481938 -0.388592 0.211917 0 180 235
-0.197317 -0.360208 -0.165601 0 180 235
0.199827 -0.259882 0.244352 0 180 235
-0.0563925 -0.191535 0.253513 0 180 235
0.149679 -0.378558 -0.0270956 0 180 235
-0.100763 -0.434242 -0.090737 0 180 235
-0.177961 -0.361819 -0.16796 0 180 235
-0.0651679 -0.259153 0.239981 0 180 235
0.20133 -0.359947 0.173595 0 180 235
-0.0230005 -0.191226 0.253895 0 180 235
-0.322008 -0.312924 0.167666 0 180 235
0.122347 -0.396288 0.0398465 0 180 235
-0.15612 -0.409998 -0.185778 0 180 235
-0.11317 -0.449296 0.00484949 0 180 235
0.118982 -0.35806 0.216782 0 180 235
0.191358 -0.317061 0.204137 0 180 235
0.174806 -0.211034 0.247948 0 180 235
-0.30732 -0.354796 0.161113 0 180 235
-0.295016 -0.301992 0.221296 0 180 235
-0.256908 -0.36929 -0.00700348 0 180 235
0.213957 -0.380104 0.23506 0 180 235
0.21019 -0.403846 0.231413 0 180 235
-0.226133 -0.349322 -0.114617 0 180 235
-0.283754 -0.354389 0.0249752 0 180 235
0.193786 -0.361374 0.141782 0 180 235
0.00287698 -0.243146 0.245727 0 180 235
-0.0589753 -0.184317 0.254265 0 180 235
-0.076197 -0.238602 0.244224 0 180 235
0.0991973 -0.220782 0.250243 0 180 235
-0.0742745 -0.277696 0.237802 0 180 235
0.181901 -0.289341 0.245372 0 180 235
-0.312663 -0.34578 0.147102 0 180 235
0.0648456 -0.178199 0.252548 0 180 235
0.173191 -0.288255 0.245846 0 180 235
0.0248725 -0.265143 0.241808 0 180 235
0.158172 -0.426889 0.0415333 0 180 235
0.156976 -0.427352 0.0383142 0 180 235
0.130513 -0.302588 0.237063 0 180 235
0.178834 -0.279538 0.246339 0 180 235
-0.226468 -0.387095 -0.197524 0 180 235
-0.194945 -0.369821 -0.0779972 0 180 235
0.194769 -0.371607 0.232438 0 180 235
-0.0858154 -0.279224 0.237953 0 180 235
0.0746154 -0.374978 0.202767 0 180 235
-0.10969 -0.195836 0.24867 0 180 235
0.200738 -0.356722 0.236074 0 180 235
-0.195112 -0.354463 -0.123041 0 180 235
-0.117514 -0.413924 0.208381 0 180 235
-0.0202748 -0.194283 0.25321 0 180 235
0.0145868 -0.28641 0.237389 0 180 235
-0.211405 -0.421821 -0.207952 0 180 235
-0.20124 -0.35402 -0.126091 0 180 235
0.175631 -0.329284 0.236601 0 180 235
0.126189 -0.397994 0.217684 0 180 235
-0.223673 -0.349976 -0.118736 0 180 235
0.129188 -0.343071 0.225782 0 180 235
-0.283131 -0.389775 0.140068 0 180 235
0.0504213 -0.234039 0.247914 0 180 235
-0.0342407 -0.294059 0.236407 0 180 235
0.122601 -0.402854 0.0183543 0 180 235
0.177777 -0.402501 0.0470735 0 180 235
-0.0587835 -0.36133 0.228921 0 180 235
0.185866 -0.283238 0.24543 0 180 235
-0.117347 -0.438872 0.154219 0 180 235
-0.13049 -0.366145 -0.156056 0 180 235
-0.135522 -0.371732 -0.166823 0 180 235
0.128054 -0.389902 -0.0826887 0 180 235
-0.199617 -0.354686 -0.116808 0 180 235
0.196349 -0.322724 0.232145 0 180 235
-0.0122259 -0.443244 0.0978653 0 180 235
0.0732216 -0.30913 0.225859 0 180 235
0.209902 -0.29875 0.24622 0 180 235
0.0553445 -0.296582 0.232076 0 180 235
-0.255283 -0.256056 0.234635 0 180 235
-0.0473406 -0.195765 0.253058 0 180 235
-0.178696 -0.387254 0.223976 0 180 235
-0.169673 -0.356558 -0.120333 0 180 235
-0.226652 -0.366732 -0.0548704 0 180 235
0.113078 -0.402079 0.0472015 0 180 235
0.00884663 -0.188422 0.254547 0 180 235
-0.0999146 -0.397451 -0.124293 0 180 235
-0.199602 -0.427558 0.167005 0 180 235
-0.0512176 -0.36962 0.224289 0 180 235
0.133195 -0.434708 -0.122523 0 180 235
0.11948 -0.215969 0.251576 0 180 235
0.0138419 -0.270316 0.240591 0 180 235
0.0262056 -0.252035 0.244409 0 180 235
-0.138312 -0.430104 -0.181217 0 180 235
-0.12574 -0.403668 -0.0628182 0 180 235
-0.0831161 -0.444711 -0.167723 0 180 235
-0.213767 -0.352049 -0.122193 0 180 235
0.137988 -0.409327 0.218055 0 180 235
0.110673 -0.34289 0.217667 0 180 235
-0.209648 -0.430568 -0.209507 0 180 235
-0.0876064 -0.185396 0.252881 0 180 235
-0.102228 -0.444996 -0.096096 0 180 235
-0.101457 -0.255102 0.239487 0 180 235
-0.203587 -0.358021 -0.0898644 0 180 235
-0.24217 -0.395497 0.207128 0 180 235
-0.134474 -0.378114 0.229529 0 180 235
0.123798 -0.190217 0.251187 0 180 235
0.117362 -0.385281 0.212784 0 180 235
0.0724681 -0.379359 0.106925 0 180 235
-0.262975 -0.402792 0.096804 0 180 235
-0.195901 -0.354669 -0.119782 0 180 235
0.192992 -0.222969 0.2455 0 180 235
0.107612 -0.173214 0.248116 0 180 235
-0.203903 -0.353767 -0.133526 0 180 235
-0.133573 -0.414534 -0.0202563 0 180 235
-0.0462057 -0.182045 0.254008 0 180 235
0.0364 -0.313917 0.223695 0 180 235
0.201469 -0.336429 0.239065 0 180 235
-0.276039 -0.303112 0.230724 0 180 235
-0.09899 -0.404854 0.210334 0 180 235
-0.244891 -0.343945 -0.122696 0 180 235
-0.179741 -0.325025 0.234511 0 180 235
0.169437 -0.323499 0.152293 0 180 235
0.19786 -0.305027 0.234957 0 180 235
0.0780754 -0.199945 0.253481 0 180 235
0.027079 -0.303193 0.23328 0 180 235
-0.065249 -0.253974 0.241254 0 180 235
0.130077 -0.326005 0.22998 0 180 235
-0.168508 -0.428761 0.0687691 0 180 235
-0.000544108 -0.345011 0.22147 0 180 235
0.0277411 -0.353079 0.207266 0 180 235
0.220503 -0.312227 0.240465 0 180 235
0.124381 -0.405807 0.215037 0 180 235
-0.218274 -0.400691 -0.201808 0 180 235
0.195849 -0.35256 0.148057 0 180 235
-0.106731 -0.381716 -0.126806 0 180 235
0.175575 -0.401696 0.0228078 0 180 235
0.139616 -0.36467 0.0438809 0 180 235
0.0419706 -0.192667 0.254495 0 180 235
0.0766826 -0.356752 0.208267 0 180 235
-0.0852048 -0.442773 0.148562 0 180 235
0.199241 -0.43101 0.221022 0 180 235
-0.192424 -0.355129 -0.139473 0 180 235
0.105147 -0.449776 -0.047861 0 180 235
-0.124299 -0.340894 0.234994 0 180 235
0.196199 -0.210401 0.245081 0 180 235
-0.140637 -0.385365 -0.0778555 0 180 235
-0.322472 -0.31527 0.161797 0 180 235
-0.268186 -0.26656 0.233985 0 180 235
0.189808 -0.39347 0.139083 0 180 235
0.00117857 -0.188495 0.254469 0 180 235
0.134384 -0.430712 -0.120079 0 180 235
0.213281 -0.358576 0.212841 0 180 235
0.137576 -0.193579 0.250615 0 180 235
0.151947 -0.196425 0.249681 0 180 235
0.20704 -0.253278 0.243338 0 180 235
-0.0328851 -0.312132 0.234173 0 180 235
-0.202386 -0.370661 -0.181676 0 180 235
-0.099187 -0.454155 -0.0071871 0 180 235
0.190074 -0.210724 0.245963 0 180 235
-0.22636 -0.349041 -0.127237 0 180 235
0.0489591 -0.17919 0.253107 0 180 235
-0.13194 -0.371243 -0.162673 0 180 235
-0.137685 -0.406799 -0.0309087 0 180 235
-0.0818899 -0.209745 0.249704 0 180 235
-0.187185 -0.386057 0.223751 0 180 235
0.212507 -0.23656 0.242939 0 180 235
0.173151 -0.189375 0.246298 0 180 235
-0.105809 -0.441504 -0.0556016 0 180 235
-0.0944647 -0.399738 -0.142869 0 180 235
-0.146763 -0.357516 -0.125839 0 180 235
0.111365 -0.184267 0.250708 0 180 235
0.157527 -0.370548 -0.00749144 0 180 235
-0.143853 -0.435481 0.179813 0 180 235
0.150983 -0.375359 -0.0222324 0 180 235
-0.141724 -0.412386 -0.181306 0 180 235
0.0237062 -0.438235 0.134477 0 180 235
-0.202695 -0.411489 0.207762 0 180 235
-0.0329902 -0.19277 0.253729 0 180 235
0.164556 -0.185897 0.246423 0 180 235
-0.161483 -0.357944 -0.115285 0 180 235
-0.0473257 -0.28712 0.237241 0 180 235
-0.240336 -0.365874 -0.181495 0 180 235
0.180702 -0.355545 0.232562 0 180 235
0.0838309 -0.189821 0.254077 0 180 235
0.185037 -0.317632 0.240722 0 180 235
-0.0523397 -0.419739 0.188225 0 180 235
-0.113763 -0.425058 0.198437 0 180 235
0.0340612 -0.255553 0.243865 0 180 235
-0.108604 -0.445428 0.0330472 0 180 235
-0.148466 -0.43544 0.179648 0 180 235
0.0908872 -0.301227 0.231627 0 180 235
0.0465324 -0.446173 -0.0465827 0 180 235
-0.216488 -0.354516 -0.0990875 0 180 235
-0.0858352 -0.458729 -0.183262 0 180 235
-0.196034 -0.323176 0.233924 0 180 235
-0.110124 -0.443531 -0.0145193 0 180 235
0.217153 -0.337613 0.238668 0 180 235
-0.0660911 -0.187624 0.253786 0 180 235
-0.27475 -0.356722 0.210628 0 180 235
0.0693026 -0.285088 0.234591 0 180 235
-0.0853729 -0.38284 0.224015 0 180 235
0.0647944 -0.300221 0.231318 0 180 235
-0.0670067 -0.441337 0.15413 0 180 235
0.0135814 -0.373931 0.200441 0 180 235
0.199145 -0.333082 0.175708 0 180 235
0.146469 -0.339254 0.228848 0 180 235
0.0528199 -0.314132 0.223515 0 180 235
-0.0595367 -0.212522 0.250804 0 180 235
0.0744644 -0.186357 0.25398 0 180 235
-0.191009 -0.356517 -0.112494 0 180 235
0.148956 -0.40514 -0.0198112 0 180 235
-0.234443 -0.373758 -0.188377 0 180 235
-0.142551 -0.39001 -0.0639415 0 180 235
0.135979 -0.380699 0.0174733 0 180 235
0.081673 -0.263264 0.241791 0 180 235
0.0847082 -0.207751 0.251961 0 180 235
-0.212995 -0.392682 -0.00237679 0 180 235
0.0126017 -0.181564 0.25366 0 180 235
-0.191646 -0.409106 -0.19914 0 180 235
-0.123972 -0.380544 -0.163468 0 180 235
-0.226568 -0.362342 -0.176427 0 180 235
-0.116217 -0.426334 -0.165933 0 180 235
0.179975 -0.406016 0.0746398 0 180 235
0.0389445 -0.439542 0.147204 0 180 235
0.0958739 -0.31572 0.225832 0 180 235
0.118978 -0.444185 -0.173919 0 180 235
-0.108336 -0.201965 0.248201 0 180 235
-0.0900471 -0.451695 0.0422772 0 180 235
-0.270815 -0.399227 0.111584 0 180 235
-0.17655 -0.349741 0.23343 0 180 235
0.144886 -0.317506 0.14699 0 180 235
-0.306799 -0.323598 0.199619 0 180 235
-0.222198 -0.271017 0.234798 0 180 235
-0.199398 -0.413685 -0.203215 0 180 235
0.134892 -0.295084 0.23984 0 180 235
-0.0893389 -0.425091 -0.151368 0 180 235
-0.202137 -0.387045 -0.0316236 0 180 235
0.118231 -0.392372 -0.109212 0 180 235
0.0142534 -0.17644 0.252812 0 180 235
0.0840423 -0.239477 0.247936 0 180 235
-0.0838626 -0.444224 -0.166954 0 180 235
-0.229268 -0.398386 0.0314268 0 180 235
-0.137072 -0.366184 -0.161016 0 180 235
0.160192 -0.31649 0.23686 0 180 235
0.00515928 -0.457332 -0.122223 0 180 235
-0.0311831 -0.402555 0.203856 0 180 235
0.0200952 -0.357557 0.205911 0 180 235
-0.0991307 -0.450103 0.0643319 0 180 235
-0.0527857 -0.461611 -0.228603 0 180 235
-0.187154 -0.370168 -0.178868 0 180 235
-0.129646 -0.361135 -0.142049 0 180 235
0.157212 -0.31936 0.235449 0 180 235
0.166314 -0.258457 0.248374 0 180 235
-0.303095 -0.360283 0.100768 0 180 235
-0.0976375 -0.402295 0.211763 0 180 235
0.0169926 -0.288689 0.236794 0 180 235
0.112692 -0.195064 0.253362 0 180 235
-0.0289542 -0.232642 0.247416 0 180 235
-0.0225516 -0.281425 0.238804 0 180 235
-0.137812 -0.362133 -0.155986 0 180 235
0.104887 -0.352781 0.212699 0 180 235
0.0967279 -0.265884 0.243253 0 180 235
-0.203528 -0.427448 0.118736 0 180 235
-0.229954 -0.348248 -0.139339 0 180 235
-0.149423 -0.421061 -0.185573 0 180 235
-0.0245031 -0.427161 0.170242 0 180 235
0.0773211 -0.27721 0.237819 0 180 235
0.114787 -0.439267 -0.196209 0 180 235
-0.166744 -0.426762 0.199939 0 180 235
-0.116981 -0.42761 -0.032093 0 180 235
-0.197676 -0.421537 -0.204973 0 180 235
-0.17345 -0.375113 -0.181238 0 180 235
-0.0774991 -0.450017 0.0732004 0 180 235
0.202937 -0.383908 0.203029 0 180 235
0.0382093 -0.185075 0.254353 0 180 235
-0.0282778 -0.192761 0.253709 0 180 235
0.202728 -0.295768 0.237673 0 180 235
0.0308035 -0.188543 0.254692 0 180 235
0.0942802 -0.333856 0.216567 0 180 235
0.147845 -0.383199 -0.0418399 0 180 235
-0.294539 -0.318804 0.215502 0 180 235
0.0703238 -0.403226 0.0800853 0 180 235
-0.0566838 -0.286179 0.23726 0 180 235
0.00296228 -0.194491 0.253365 0 180 235
0.213268 -0.277534 0.24171 0 180 235
-0.116509 -0.411843 0.209562 0 180 235
0.0637209 -0.32756 0.216307 0 180 235
0.202597 -0.358857 0.235876 0 180 235
-0.185418 -0.367542 -0.176438 0 180 235
-0.15444 -0.402703 -0.183682 0 180 235
-0.106554 -0.222332 0.246083 0 180 235
-0.296641 -0.319309 0.213288 0 180 235
-0.172453 -0.356616 -0.148541 0 180 235
0.211119 -0.324471 0.239827 0 180 235
-0.0542392 -0.44917 0.0587922 0 180 235
-0.196805 -0.426856 -0.205751 0 180 235
-0.0536565 -0.321036 0.234824 0 180 235
-0.0283376 -0.435439 0.127581 0 180 235
0.168966 -0.35637 0.0414459 0 180 235
0.17523 -0.193928 0.246754 0 180 235
-0.225672 -0.413921 0.193847 0 180 235
-0.277084 -0.346881 -0.0289135 0 180 235
0.195011 -0.330887 0.239773 0 180 235
0.14152 -0.382844 -0.0445827 0 180 235
-0.165333 -0.225544 0.241309 0 180 235
0.150655 -0.247402 0.249718 0 180 235
-0.106384 -0.436415 -0.0558191 0 180 235
0.204745 -0.230233 0.243794 0 180 235
-0.23611 -0.304868 0.232491 0 180 235
-0.135959 -0.187319 0.246884 0 180 235
0.0553993 -0.405364 0.181223 0 180 235
0.20737 -0.307494 0.23235 0 180 235
-0.134038 -0.428406 0.0362467 0 180 235
-0.215331 -0.359344 -0.166937 0 180 235
-0.125899 -0.438328 0.13485 0 180 235
0.148674 -0.222067 0.25055 0 180 235
-0.197807 -0.407596 -0.200613 0 180 235
-0.0511343 -0.407885 0.203319 0 180 235
0.175339 -0.185688 0.245744 0 180 235
-0.236015 -0.346547 -0.13756 0 180 235
0.123629 -0.421933 -0.159634 0 180 235
-0.136994 -0.426627 0.0394578 0 180 235
0.0432051 -0.189032 0.254724 0 180 235
-0.0864105 -0.434673 -0.16157 0 180 235
0.187586 -0.404474 0.152518 0 180 235
-0.182656 -0.355357 -0.136671 0 180 235
-0.123695 -0.429314 -0.00478484 0 180 235
-0.303942 -0.343574 0.191787 0 180 235
-0.088703 -0.26381 0.238835 0 180 235
-0.103217 -0.424602 -0.239767 0 180 235
-0.185204 -0.38307 0.224949 0 180 235
-0.154055 -0.363332 -0.167746 0 180 235
0.203841 -0.187814 0.245821 0 180 235
0.177516 -0.38708 0.224169 0 180 235
0.147518 -0.376098 0.212398 0 180 235
0.181622 -0.39945 0.0819653 0 180 235
-0.153182 -0.420186 0.0277608 0 180 235
0.0825724 -0.182466 0.252835 0 180 235
-0.181711 -0.211458 0.240128 0 180 235
0.0612284 -0.45465 0.142995 0 180 235
0.150609 -0.261748 0.248965 0 180 235
0.0206808 -0.208737 0.251179 0 180 235
-0.0820445 -0.327342 0.23577 0 180 235
0.00325927 -0.367006 0.207555 0 180 235
-0.106214 -0.382201 -0.127046 0 180 235
-0.0912325 -0.444321 -0.160065 0 180 235
0.192944 -0.329068 0.239862 0 180 235
-0.225349 -0.357468 -0.0756261 0 180 235
0.188056 -0.397585 0.224841 0 180 235
-0.0833483 -0.454256 -0.186306 0 180 235
-0.182706 -0.362692 -0.170537 0 180 235
0.157989 -0.377192 0.224264 0 180 235
-0.26191 -0.351133 -0.0477715 0 180 235
0.0504688 -0.266555 0.241425 0 180 235
-0.155491 -0.381781 -0.179414 0 180 235
-0.0742395 -0.439158 0.158275 0 180 235
0.157044 -0.318879 0.147809 0 180 235
-0.226631 -0.266902 0.235174 0 180 235
-0.260235 -0.402749 0.0879225 0 180 235
0.114814 -0.378947 0.211546 0 180 235
0.142383 -0.397651 -0.0372499 0 180 235
-0.0851687 -0.456603 -0.180166 0 180 235
-0.0753758 -0.417668 0.198298 0 180 235
-0.206055 -0.36153 -0.172366 0 180 235
-0.119282 -0.424946 0.198996 0 180 235
0.0506374 -0.252967 0.244648 0 180 235
-0.0943058 -0.3995 -0.136528 0 180 235
0.0492456 -0.329842 0.215935 0 180 235
0.0194189 -0.185709 0.254387 0 180 235
-0.0907162 -0.446047 0.110453 0 180 235
0.121694 -0.411981 0.0142557 0 180 235
-0.229775 -0.411715 -0.20781 0 180 235
-0.244096 -0.321726 0.231525 0 180 235
0.140335 -0.310154 0.235847 0 180 235
0.149192 -0.262755 0.248795 0 180 235
-0.115769 -0.438905 0.156891 0 180 235
0.0701651 -0.288528 0.233868 0 180 235
-0.0652076 -0.288547 0.237293 0 180 235
0.0427409 -0.324581 0.218777 0 180 235
-0.0102628 -0.202913 0.2516 0 180 235
-0.0776815 -0.33805 0.233596 0 180 235
-0.127707 -0.366416 -0.114436 0 180 235
-0.100706 -0.391198 -0.128444 0 180 235
0.225389 -0.235854 0.243368 0 180 235
0.0699557 -0.203013 0.253224 0 180 235
-0.174489 -0.369673 -0.177798 0 180 235
-0.288543 -0.320485 0.219061 0 180 235
-0.0911371 -0.453921 -0.17039 0 180 235
-0.30149 -0.363224 0.103684 0 180 235
-0.140662 -0.436679 0.153356 0 180 235
-0.143046 -0.414158 -0.00528314 0 180 235
-0.139378 -0.328189 0.235784 0 180 235
-0.146439 -0.399895 -0.180075 0 180 235
-0.0918396 -0.44612 0.106975 0 180 235
-0.215192 -0.351663 -0.132773 0 180 235
0.0903329 -0.442587 -0.0174791 0 180 235
0.131694 -0.335931 0.228144 0 180 235
-0.0445635 -0.321631 0.234274 0 180 235
-0.0333602 -0.437454 0.116298 0 180 235
0.0176443 -0.481019 0.188553 32 212 224
0.15301 -0.478059 0.295718 32 212 224
0.261866 -0.445169 -0.00715192 32 212 224
0.260846 -0.472414 -0.198665 32 212 224
0.079037 -0.47447 0.25738 32 212 224
0.260592 -0.457723 -0.0925644 32 212 224
0.259234 -0.3562 -0.242055 32 212 224
0.262423 -0.418811 -0.211043 32 212 224
0.259426 -0.473015 0.185665 32 212 224
0.255538 -0.292844 0.071355 32 212 224
0.238792 -0.379992 0.179777 32 212 224
0.260518 -0.468196 -0.214737 32 212 224
0.258255 -0.46204 -0.253624 32 212 224
0.257512 -0.431975 0.0947889 32 212 224
0.257954 -0.381863 0.0870307 32 212 224
0.253623 -0.195525 -0.0403263 32 212 224
0.255894 -0.297422 0.0180553 32 212 224
0.180269 -0.366811 0.139142 32 212 224
0.260143 -0.379508 0.0458257 32 212 224
0.255083 -0.353473 0.107786 32 212 224
0.258434 -0.469694 -0.20079 32 212 224
0.22719 -0.476745 0.244401 32 212 224
0.244718 -0.426425 0.188713 32 212 224
0.243082 -0.478011 0.246437 32 212 224
0.259577 -0.37358 -0.0445124 32 212 224
0.195476 -0.355049 0.168959 32 212 224
0.0858264 -0.476192 0.192522 32 212 224
0.249624 -0.198085 0.136212 32 212 224
0.260816 -0.448209 0.034097 32 212 224
0.261535 -0.385493 -0.169264 32 212 224
0.261939 -0.402412 -0.205302 32 212 224
0.253917 -0.475686 0.17412 32 212 224
0.258892 -0.474245 0.16468 32 212 224
0.259134 -0.362091 -0.0531291 32 212 224
0.25624 -0.474559 0.153455 32 212 224
0.260095 -0.31233 -0.128073 32 212 224
0.226138 -0.33988 0.181843 32 212 224
0.257613 -0.209407 -0.153838 32 212 224
0.101313 -0.473095 0.155395 32 212 224
0.261814 -0.452436 -0.04301 32 212 224
0.219407 -0.321236 0.176279 32 212 224
-0.089791 -0.482488 0.133474 32 212 224
-0.22921 -0.46884 0.177243 32 212 224
0.258533 -0.220717 -0.155673 32 212 224
0.262417 -0.413673 -0.170811 32 212 224
0.25577 -0.432959 0.118187 32 212 224
0.261351 -0.443402 -0.212654 32 212 224
0.255505 -0.308114 0.0740138 32 212 224
0.220535 -0.462999 0.239428 32 212 224
0.259417 -0.474118 -0.0828918 32 212 224
0.26081 -0.378503 -0.217533 32 212 224
0.259176 -0.429491 0.068728 32 212 224
0.238584 -0.388437 0.184257 32 212 224
0.257148 -0.238482 -0.207047 32 212 224
0.257462 -0.384869 0.0921009 32 212 224
0.261601 -0.386643 -0.190632 32 212 224
0.258796 -0.47331 -0.195706 32 212 224
0.255669 -0.325087 0.101185 32 212 224
0.25655 -0.188241 -0.125891 32 212 224
0.26227 -0.412946 -0.146675 32 212 224
0.182233 -0.384375 0.16939 32 212 224
0.262136 -0.460092 -0.0504538 32 212 224
0.0580571 -0.478734 0.181841 32 212 224
0.260621 -0.33875 -0.166809 32 212 224
0.258292 -0.178508 0.113908 32 212 224
0.26111 -0.473533 -0.146171 32 212 224
0.259422 -0.380918 0.0640517 32 212 224
0.261504 -0.435212 0.0215701 32 212 224
0.0128913 -0.483726 0.133561 32 212 224
0.2573 -0.479465 0.149156 32 212 224
0.261424 -0.463094 -0.194826 32 212 224
0.261019 -0.385988 -0.0193967 32 212 224
0.26115 -0.476934 0.0432706 32 212 224
0.255846 -0.462733 0.135279 32 212 224
0.268356 -0.464665 0.191992 32 212 224
0.197535 -0.477341 0.272663 32 212 224
0.254774 -0.18894 -0.19406 32 212 224
0.260916 -0.40066 0.0545201 32 212 224
0.258479 -0.457023 0.0814811 32 212 224
0.198169 -0.417119 0.22814 32 212 224
0.259929 -0.303021 -0.118597 32 212 224
0.25955 -0.266592 -0.131579 32 212 224
0.255406 -0.248732 0.0143108 32 212 224
0.264194 -0.468495 0.159658 32 212 224
0.267419 -0.465253 0.158866 32 212 224
0.261219 -0.409585 -0.0580512 32 212 224
0.26025 -0.435713 -0.102025 32 212 224
0.236946 -0.367329 0.178546 32 212 224
0.253802 -0.442268 0.151754 32 212 224
0.257598 -0.336581 0.00170813 32 212 224
0.258476 -0.473421 -0.193392 32 212 224
0.225894 -0.34841 0.183438 32 212 224
0.255528 -0.397822 0.112931 32 212 224
0.220291 -0.372435 0.195297 32 212 224
0.260931 -0.425419 0.040978 32 212 224
0.256799 -0.194926 -0.143792 32 212 224
0.201125 -0.476846 0.262641 32 212 224
0.156336 -0.44624 0.237948 32 212 224
0.262096 -0.441702 -0.0125869 32 212 224
0.251634 -0.29232 0.145065 32 212 224
0.25136 -0.449925 0.166998 32 212 224
0.262316 -0.462002 -0.0507239 32 212 224
0.263338 -0.473966 -0.0548207 32 212 224
0.242061 -0.467211 0.210524 32 212 224
0.258169 -0.3404 -0.0527349 32 212 224
0.259302 -0.472363 -0.227663 32 212 224
0.260842 -0.433973 -0.121872 32 212 224
0.261236 -0.463316 0.0396083 32 212 224
0.263321 -0.473615 0.00837 32 212 224
0.260185 -0.270308 -0.175614 32 212 224
0.248274 -0.341851 0.154013 32 212 224
0.256445 -0.312882 -0.00323843 32 212 224
0.259071 -0.172942 0.0996745 32 212 224
0.260014 -0.379686 0.0499846 32 212 224
0.25911 -0.406692 0.0847876 32 212 224
0.255207 -0.336973 0.109922 32 212 224
0.241723 -0.475862 0.279782 32 212 224
0.259899 -0.374387 -0.0303783 32 212 224
