ply
format ascii 1.0
comment Created by Open3D
element vertex 1185
property double x
property double y
property double z
property uchar red
property uchar green
property uchar blue
end_header
0.1623 -0.460173 0.26588 32 212 224
0.176594 -0.31775 -0.290895 32 212 224
0.170679 -0.47714 -0.140044 32 212 224
0.164808 -0.368904 0.179703 32 212 224
0.167579 -0.301111 0.00848134 32 212 224
0.170743 -0.471333 -0.192218 32 212 224
0.170871 -0.11393 -0.100704 32 212 224
0.174806 -0.398548 -0.271881 32 212 224
0.166575 -0.286626 0.088158 32 212 224
0.174919 -0.395361 -0.280415 32 212 224
0.169932 -0.198722 -0.0691285 32 212 224
0.166193 -0.289142 0.0144816 32 212 224
0.166284 -0.122028 0.048257 32 212 224
0.17142 -0.13373 -0.128175 32 212 224
0.17114 -0.217005 -0.127824 32 212 224
0.168227 -0.265905 -0.00287714 32 212 224
0.160685 -0.477729 0.295523 32 212 224
0.170805 -0.467883 -0.141418 32 212 224
0.172048 -0.0923821 -0.129002 32 212 224
0.174285 -0.26733 -0.242097 32 212 224
0.166814 -0.479215 0.0676745 32 212 224
0.169619 -0.196736 -0.0557012 32 212 224
0.170501 -0.36814 -0.120223 32 212 224
0.164236 -0.232278 0.189041 32 212 224
0.171996 -0.117122 -0.140808 32 212 224
0.173631 -0.163977 -0.24505 32 212 224
0.166444 -0.316001 0.0708171 32 212 224
0.170777 -0.459515 -0.153112 32 212 224
0.167034 -0.438375 -0.242981 32 212 224
0.165865 -0.459775 0.0409471 32 212 224
0.168418 -0.215551 -0.00697084 32 212 224
0.169521 -0.305228 -0.08856 32 212 224
0.169486 -0.339078 -0.0929727 32 212 224
0.168318 -0.489447 -0.0163356 32 212 224
0.173796 -0.441703 -0.27122 32 212 224
0.169692 -0.184455 -0.0616809 32 212 224
0.164464 -0.185182 0.148886 32 212 224
0.168664 -0.435214 -0.0235693 32 212 224
0.168464 -0.16124 -0.0282189 32 212 224
0.16865 -0.200022 -0.0197538 32 212 224
0.174302 -0.427974 -0.284953 32 212 224
0.167596 -0.436879 -0.113729 32 212 224
0.163237 -0.411916 -0.266689 32 212 224
0.166331 -0.0633621 0.0441908 32 212 224
0.164795 -0.357872 0.181525 32 212 224
0.166496 -0.133409 0.040777 32 212 224
0.170549 -0.0690892 -0.0656432 32 212 224
0.173617 -0.1646 -0.243466 32 212 224
0.171399 -0.254924 -0.147624 32 212 224
0.171235 -0.198252 -0.127598 32 212 224
0.164107 -0.4124 0.205231 32 212 224
0.166849 -0.455305 0.0577163 32 212 224
0.171014 -0.197403 -0.112432 32 212 224
0.167315 -0.256109 0.0773235 32 212 224
0.166375 -0.105056 0.0412778 32 212 224
0.166668 -0.305589 0.0650238 32 212 224
0.173994 -0.116512 -0.219563 32 212 224
0.161879 -0.250077 0.255828 32 212 224
0.168689 -0.22952 -0.012883 32 212 224
0.168577 -0.302812 -0.207384 32 212 224
0.174165 -0.336922 -0.241225 32 212 224
0.171717 -0.384788 -0.182238 32 212 224
0.161974 -0.467217 0.270818 32 212 224
0.165871 -0.141358 0.0638262 32 212 224
0.173255 -0.467387 -0.302199 32 212 224
0.161571 -0.453593 0.300496 32 212 224
0.173478 -0.222153 -0.234756 32 212 224
0.170224 -0.489335 -0.145021 32 212 224
0.16453 -0.437352 0.136621 32 212 224
0.171808 -0.364791 -0.190706 32 212 224
0.166083 -0.397404 -0.0493913 32 212 224
0.162026 -0.354533 0.306507 32 212 224
0.169259 -0.350188 -0.0891802 32 212 224
0.172609 -0.47581 -0.251732 32 212 224
0.167861 -0.350589 -0.146476 32 212 224
0.169245 -0.476192 -0.022583 32 212 224
0.175395 -0.115879 -0.304271 32 212 224
0.170994 -0.453381 -0.139614 32 212 224
0.167336 -0.412595 0.0296251 32 212 224
0.169835 -0.142661 -0.0673192 32 212 224
0.169899 -0.256635 -0.0787962 32 212 224
0.17712 -0.326195 -0.306597 32 212 224
0.175385 -0.301228 -0.260445 32 212 224
0.170127 -0.0670369 -0.0529899 32 212 224
0.167671 -0.386172 -0.0116506 32 212 224
0.17179 -0.215526 -0.169046 32 212 224
0.169839 -0.16394 -0.066214 32 212 224
0.168748 -0.196453 -0.0242614 32 212 224
0.170524 -0.465735 -0.0963401 32 212 224
0.172681 -0.340335 -0.212013 32 212 224
0.171733 -0.385753 -0.17935 32 212 224
0.169509 -0.412475 -0.0545015 32 212 224
0.164921 -0.137513 0.101466 32 212 224
0.16628 -0.312619 0.0842662 32 212 224
0.170975 -0.262908 -0.129763 32 212 224
0.169913 -0.167502 -0.0691377 32 212 224
0.175958 -0.261975 -0.281726 32 212 224
0.166861 -0.305261 -0.0678894 32 212 224
0.159801 -0.260104 0.280368 32 212 224
0.174963 -0.345297 -0.259741 32 212 224
0.171133 -0.449517 -0.201669 32 212 224
0.165066 -0.29127 0.156565 32 212 224
0.166465 -0.458331 0.0736636 32 212 224
0.16762 -0.333888 -0.0260471 32 212 224
0.162942 -0.468584 0.217543 32 212 224
0.169983 -0.3581 -0.107769 32 212 224
0.164409 -0.0919921 0.142677 32 212 224
0.171179 -0.363905 -0.14836 32 212 224
0.165499 -0.134322 0.078003 32 212 224
0.172695 -0.414188 -0.225916 32 212 224
0.170088 -0.301672 -0.107048 32 212 224
0.173517 -0.171401 -0.235378 32 212 224
0.160737 -0.274896 0.271916 32 212 224
0.170034 -0.202136 -0.0730247 32 212 224
0.165398 -0.273281 0.14289 32 212 224
0.170272 -0.157408 -0.0804087 32 212 224
0.167529 -0.129652 -0.0067666 32 212 224
0.171077 -0.288652 -0.14421 32 212 224
0.167622 -0.139816 -0.00757102 32 212 224
0.161129 -0.358928 0.233667 32 212 224
0.169508 -0.256663 -0.062717 32 212 224
0.17551 -0.0870875 -0.258043 32 212 224
0.165689 -0.317228 0.124022 32 212 224
0.163549 -0.137625 0.194931 32 212 224
0.172555 -0.164948 -0.17597 32 212 224
0.162207 -0.393693 0.30414 32 212 224
0.16693 -0.30716 0.0465897 32 212 224
0.168336 -0.253808 0.00925026 32 212 224
0.171247 -0.220617 -0.134412 32 212 224
0.175467 -0.0822695 -0.249326 32 212 224
0.164768 -0.34516 0.203147 32 212 224
0.171748 -0.0836146 -0.111161 32 212 224
0.16854 -0.227878 -0.00476512 32 212 224
0.162328 -0.269882 0.253853 32 212 224
0.173007 -0.472922 -0.291663 32 212 224
0.160562 -0.214814 0.275518 32 212 224
0.16407 -0.281277 0.207423 32 212 224
0.171537 -0.422864 -0.188479 32 212 224
0.168733 -0.300073 -0.0626906 32 212 224
0.17413 -0.400829 -0.251594 32 212 224
0.163657 -0.241987 0.209435 32 212 224
0.168578 -0.210678 -0.0155984 32 212 224
0.165267 -0.473695 0.117043 32 212 224
0.164669 -0.403452 0.0718491 32 212 224
0.169469 -0.483644 -0.0375543 32 212 224
0.170688 -0.467443 -0.150341 32 212 224
0.17063 -0.14384 -0.0952571 32 212 224
0.16105 -0.365728 0.236219 32 212 224
0.171214 -0.204935 -0.129053 32 212 224
0.163006 -0.44435 0.208623 32 212 224
0.1668 -0.490479 0.0367083 32 212 224
0.167042 -0.132326 0.0138784 32 212 224
0.161449 -0.318491 0.258147 32 212 224
0.164745 -0.189835 0.13655 32 212 224
0.171381 -0.201827 -0.140747 32 212 224
0.162743 -0.157445 0.2413 32 212 224
0.175603 -0.383095 -0.298529 32 212 224
0.173143 -0.434214 -0.241863 32 212 224
0.172761 -0.413628 -0.227246 32 212 224
0.165031 -0.462325 0.0894095 32 212 224
0.168643 -0.280016 -0.0455994 32 212 224
0.16993 -0.0974099 -0.0652572 32 212 224
0.171093 -0.23458 -0.119631 32 212 224
0.163726 -0.0693491 0.17781 32 212 224
0.166147 -0.286175 0.0209398 32 212 224
0.170625 -0.144148 -0.0949431 32 212 224
0.164911 -0.491714 0.096171 32 212 224
0.166036 -0.080469 0.0525609 32 212 224
0.169598 -0.27529 -0.0828859 32 212 224
0.173405 -0.460714 -0.310862 32 212 224
0.161774 -0.304607 0.281196 32 212 224
0.168374 -0.173343 -0.0222252 32 212 224
0.164834 -0.410126 0.134179 32 212 224
0.172336 -0.240917 -0.202042 32 212 224
0.169393 -0.130217 -0.0553207 32 212 224
0.165235 -0.268247 0.152013 32 212 224
0.163399 -0.216146 0.209549 32 212 224
0.162853 -0.464568 0.297471 32 212 224
0.163893 -0.0932838 0.234322 32 212 224
0.163686 -0.0842235 0.186343 32 212 224
0.172539 -0.489894 -0.299972 32 212 224
0.171378 -0.330708 -0.163405 32 212 224
0.172458 -0.200958 -0.194867 32 212 224
0.163155 -0.198657 0.217303 32 212 224
0.164838 -0.369925 0.149022 32 212 224
0.171532 -0.0650328 -0.0868341 32 212 224
0.17035 -0.333853 -0.122835 32 212 224
0.164481 -0.302127 0.202544 32 212 224
0.176921 -0.324684 -0.301835 32 212 224
0.167963 -0.251091 0.0352643 32 212 224
0.171973 -0.487554 -0.240399 32 212 224
0.165563 -0.0675134 0.0865607 32 212 224
0.165396 -0.0685799 0.0993837 32 212 224
0.170673 -0.082373 -0.0793233 32 212 224
0.170704 -0.459425 -0.167063 32 212 224
0.163936 -0.0700278 0.204392 32 212 224
0.176087 -0.35441 -0.2964 32 212 224
0.16433 -0.143529 0.129649 32 212 224
0.172142 -0.156236 -0.158615 32 212 224
0.168519 -0.365431 -0.0634723 32 212 224
0.171522 -0.142593 -0.133237 32 212 224
0.162397 -0.249071 0.243655 32 212 224
0.173427 -0.319154 -0.222715 32 212 224
0.167595 -0.379889 -0.0139959 32 212 224
0.172963 -0.0982353 -0.159043 32 212 224
0.160523 -0.137939 0.312692 32 212 224
0.164339 -0.106489 0.147189 32 212 224
0.164219 -0.363334 0.100231 32 212 224
0.166815 -0.376137 -0.085238 32 212 224
0.160087 -0.254013 0.277687 32 212 224
0.168365 -0.265738 -0.00957821 32 212 224
0.162344 -0.35539 0.278198 32 212 224
0.16587 -0.221395 0.116133 32 212 224
0.170018 -0.487349 -0.0881772 32 212 224
0.173266 -0.0869533 -0.160766 32 212 224
0.171778 -0.456649 -0.224088 32 212 224
0.16946 -0.264019 -0.0661841 32 212 224
0.171206 -0.278302 -0.146784 32 212 224
0.170121 -0.11686 -0.0743984 32 212 224
0.164007 -0.110818 0.168743 32 212 224
0.173029 -0.465416 -0.250237 32 212 224
0.162389 -0.187913 0.246261 32 212 224
0.166897 -0.371152 0.0140112 32 212 224
0.166468 -0.244243 0.1094 32 212 224
0.17474 -0.0980286 -0.226144 32 212 224
0.171441 -0.24484 -0.143009 32 212 224
0.167478 -0.425403 -0.114072 32 212 224
0.169602 -0.290222 -0.0892825 32 212 224
0.163145 -0.274352 0.233822 32 212 224
0.162598 -0.283258 0.252028 32 212 224
0.173132 -0.205228 -0.225222 32 212 224
0.163786 -0.0945815 0.244986 32 212 224
0.163492 -0.162566 0.186284 32 212 224
0.163444 -0.118064 0.230932 32 212 224
0.161961 -0.43558 0.290048 32 212 224
0.167874 -0.43369 -0.231582 32 212 224
0.175457 -0.242442 -0.283279 32 212 224
0.171391 -0.208199 -0.144767 32 212 224
0.175434 -0.108154 -0.294219 32 212 224
0.166172 -0.260738 0.119259 32 212 224
0.174563 -0.0837744 -0.212813 32 212 224
0.17085 -0.206569 -0.104353 32 212 224
0.168155 -0.0849459 -0.0181367 32 212 224
0.17115 -0.116188 -0.11441 32 212 224
0.164333 -0.0835431 0.150631 32 212 224
0.174665 -0.230245 -0.272652 32 212 224
0.172473 -0.165407 -0.171103 32 212 224
0.164857 -0.157654 0.107777 32 212 224
0.170035 -0.210191 -0.0712851 32 212 224
0.166119 -0.37176 -0.0448158 32 212 224
0.171619 -0.47014 -0.224286 32 212 224
0.167175 -0.181823 0.0309247 32 212 224
0.167307 -0.120611 0.00204155 32 212 224
0.16254 -0.192847 0.239269 32 212 224
0.173698 -0.371841 -0.239524 32 212 224
0.166847 -0.329126 0.023873 32 212 224
0.168709 -0.47857 0.00143491 32 212 224
0.16873 -0.253645 -0.0228202 32 212 224
0.170167 -0.151721 -0.0773525 32 212 224
0.170718 -0.224451 -0.0993598 32 212 224
0.174684 -0.209866 -0.286744 32 212 224
0.172893 -0.474755 -0.27181 32 212 224
0.171286 -0.358669 -0.156383 32 212 224
0.171492 -0.190761 -0.138194 32 212 224
0.175804 -0.0813701 -0.26657 32 212 224
0.174095 -0.277353 -0.236048 32 212 224
0.165972 -0.473359 0.0586193 32 212 224
0.169719 -0.155743 -0.0632692 32 212 224
0.168589 -0.28912 -0.0478107 32 212 224
0.170329 -0.244145 -0.0892112 32 212 224
0.173863 -0.222508 -0.250762 32 212 224
0.169929 -0.490159 -0.151833 32 212 224
0.170559 -0.484374 -0.128689 32 212 224
0.172334 -0.356489 -0.20768 32 212 224
0.173262 -0.325057 -0.220755 32 212 224
0.16374 -0.218395 0.199467 32 212 224
0.171153 -0.363596 -0.147555 32 212 224
0.167122 -0.315002 0.0193449 32 212 224
0.175606 -0.0673638 -0.245333 32 212 224
0.171327 -0.360965 -0.158462 32 212 224
0.175153 -0.235309 -0.282458 32 212 224
0.167059 -0.23763 0.0820947 32 212 224
0.165676 -0.427603 0.00948833 32 212 224
0.152463 -0.147634 0.317956 32 212 224
0.171576 -0.183669 -0.137572 32 212 224
0.16996 -0.333654 -0.107627 32 212 224
0.166161 -0.218174 0.103611 32 212 224
0.165628 -0.387231 0.093777 32 212 224
0.171406 -0.422032 -0.13113 32 212 224
0.161964 -0.415602 0.290482 32 212 224
0.166032 -0.158374 0.0587049 32 212 224
0.171344 -0.380317 -0.146165 32 212 224
0.162769 -0.159169 0.239199 32 212 224
0.171197 -0.274782 -0.144234 32 212 224
0.167087 -0.228569 0.0710439 32 212 224
0.169943 -0.185064 -0.0705787 32 212 224
0.164246 -0.169441 0.145273 32 212 224
0.172034 -0.144305 -0.152268 32 212 224
0.164736 -0.115134 0.113094 32 212 224
0.172702 -0.273876 -0.208294 32 212 224
0.171928 -0.275144 -0.1852 32 212 224
0.168906 -0.166906 -0.0388652 32 212 224
0.173137 -0.123441 -0.196951 32 212 224
0.163637 -0.443177 0.166202 32 212 224
0.174171 -0.258989 -0.242481 32 212 224
0.173506 -0.101195 -0.188477 32 212 224
0.169087 -0.272636 -0.0605026 32 212 224
0.159651 -0.309071 0.292661 32 212 224
0.167559 -0.457777 -0.187643 32 212 224
0.173142 -0.194477 -0.219738 32 212 224
0.17005 -0.418497 -0.0733208 32 212 224
0.168732 -0.469041 -0.00367823 32 212 224
0.163402 -0.115361 0.241946 32 212 224
0.17295 -0.0831101 -0.146757 32 212 224
0.163727 -0.415159 0.232747 32 212 224
0.162619 -0.456466 0.225009 32 212 224
0.167613 -0.271264 -0.122386 32 212 224
0.168114 -0.326333 -0.0441743 32 212 224
0.16135 -0.330351 0.20512 32 212 224
0.165334 -0.30169 0.141276 32 212 224
0.163831 -0.2354 0.20253 32 212 224
0.17156 -0.259119 -0.159342 32 212 224
0.175594 -0.368121 -0.296343 32 212 224
0.168276 -0.310793 -0.174869 32 212 224
0.172264 -0.260318 -0.192895 32 212 224
0.163123 -0.438359 0.310441 32 212 224
0.169017 -0.208028 -0.0315988 32 212 224
0.171442 -0.251092 -0.147377 32 212 224
0.165924 -0.0826787 0.0588727 32 212 224
0.163855 -0.417187 0.101007 32 212 224
0.171638 -0.311837 -0.176424 32 212 224
0.171344 -0.435059 -0.162467 32 212 224
0.163798 -0.423001 0.169493 32 212 224
0.171195 -0.109774 -0.112509 32 212 224
0.168295 -0.31047 -0.232357 32 212 224
0.167702 -0.369308 -0.147359 32 212 224
0.162405 -0.459791 0.2514 32 212 224
0.169063 -0.293964 -0.0728434 32 212 224
0.173561 -0.457647 -0.302469 32 212 224
0.164795 -0.271499 0.171101 32 212 224
0.170096 -0.0808303 -0.0644343 32 212 224
0.161875 -0.469505 0.270992 32 212 224
0.172359 -0.271103 -0.200498 32 212 224
0.164908 -0.312525 0.168505 32 212 224
0.164215 -0.366074 0.236394 32 212 224
0.170301 -0.449709 -0.0760333 32 212 224
0.167651 -0.275187 0.033377 32 212 224
0.163412 -0.134114 0.21775 32 212 224
0.168487 -0.388778 -0.186404 32 212 224
0.171781 -0.338356 -0.187769 32 212 224
0.174393 -0.195495 -0.281669 32 212 224
0.160009 -0.252647 0.278276 32 212 224
0.174927 -0.0988447 -0.238253 32 212 224
0.163896 -0.200798 0.187389 32 212 224
0.176002 -0.315625 -0.277985 32 212 224
0.166687 -0.320189 0.0519021 32 212 224
0.171271 -0.178571 -0.122771 32 212 224
0.158515 -0.268941 0.291792 32 212 224
0.170868 -0.189554 -0.108254 32 212 224
0.173691 -0.0925188 -0.188202 32 212 224
0.166176 -0.374489 0.0535175 32 212 224
0.164054 -0.266518 0.199716 32 212 224
0.168203 -0.116225 -0.0267389 32 212 224
0.166987 -0.0937237 0.0138093 32 212 224
0.163523 -0.113189 0.23007 32 212 224
0.166698 -0.478121 -0.298424 32 212 224
0.161306 -0.283021 0.268278 32 212 224
0.171853 -0.241979 -0.17211 32 212 224
0.168541 -0.387424 -0.0438977 32 212 224
0.16791 -0.179374 -0.00117425 32 212 224
0.174584 -0.208663 -0.283492 32 212 224
0.17146 -0.428316 -0.155416 32 212 224
0.163479 -0.11804 0.226331 32 212 224
0.163667 -0.312266 0.134342 32 212 224
0.171424 -0.269476 -0.155404 32 212 224
0.168297 -0.285453 -0.0298167 32 212 224
0.168865 -0.0798291 -0.0320484 32 212 224
0.164659 -0.34438 0.214041 32 212 224
0.175082 -0.21998 -0.296697 32 212 224
0.163021 -0.171364 0.225319 32 212 224
0.170645 -0.123148 -0.0946877 32 212 224
0.171447 -0.285342 -0.159671 32 212 224
0.163815 -0.241572 0.205131 32 212 224
0.167245 -0.0751954 0.00804815 32 212 224
0.168626 -0.100263 -0.0337261 32 212 224
0.171834 -0.296544 -0.181173 32 212 224
0.167182 -0.339536 -0.00422026 32 212 224
0.168087 -0.409571 -0.00149818 32 212 224
0.171341 -0.156839 -0.125299 32 212 224
0.171266 -0.179047 -0.122636 32 212 224
0.175336 -0.246008 -0.274974 32 212 224
0.162065 -0.324538 0.270908 32 212 224
0.167092 -0.474164 0.0551721 32 212 224
0.17253 -0.14486 -0.177677 32 212 224
0.167421 -0.215207 0.046775 32 212 224
0.171474 -0.176634 -0.129221 32 212 224
0.173001 -0.445081 -0.24248 32 212 224
0.176316 -0.0901071 -0.301662 32 212 224
0.168195 -0.173155 -0.0142768 32 212 224
0.168673 -0.349277 -0.225037 32 212 224
0.173873 -0.403517 -0.247645 32 212 224
0.169355 -0.310011 -0.0837339 32 212 224
0.17458 -0.180632 -0.294419 32 212 224
0.168137 -0.283507 -0.0205174 32 212 224
0.167763 -0.475119 0.033007 32 212 224
0.17071 -0.162373 -0.0969931 32 212 224
0.168991 -0.129191 -0.0449654 32 212 224
0.17276 -0.170117 -0.193693 32 212 224
0.162366 -0.457695 0.26177 32 212 224
-0.171228 -0.451015 -0.315844 64 236 211
0.0506478 -0.243271 -0.312416 64 236 211
0.157192 -0.399841 -0.306925 64 236 211
-0.255608 -0.487527 0.109983 64 236 211
0.134225 -0.0894191 -0.3168 64 236 211
0.0764681 -0.487569 -0.142963 64 236 211
0.113759 -0.201939 -0.31315 64 236 211
-0.0563371 -0.300035 -0.314819 64 236 211
0.131505 -0.166334 -0.31423 64 236 211
-0.21458 -0.487718 -0.0732929 64 236 211
0.0322422 -0.487728 -0.201326 64 236 211
-0.184311 -0.416173 -0.312083 64 236 211
-0.0898013 -0.283416 -0.31479 64 236 211
-0.197875 -0.48753 -0.291541 64 236 211
-0.00659031 -0.487332 0.240853 64 236 211
0.0769825 -0.412607 -0.307756 64 236 211
0.165034 -0.441714 -0.235462 64 236 211
0.167564 -0.226888 -0.271526 64 236 211
0.00440567 -0.463528 -0.315471 64 236 211
0.165215 -0.288868 -0.227258 64 236 211
0.0377276 -0.468689 -0.312017 64 236 211
0.116331 -0.39607 -0.308087 64 236 211
-0.0940791 -0.487716 -0.18769 64 236 211
0.166988 -0.33388 -0.288667 64 236 211
-0.0313427 -0.207098 -0.313478 64 236 211
-0.111406 -0.487778 -0.263343 64 236 211
-0.186893 -0.487714 -0.131584 64 236 211
-0.0888806 -0.487591 0.131752 64 236 211
-0.118001 -0.326825 -0.315528 64 236 211
0.165045 -0.487312 0.0341499 64 236 211
0.163002 -0.424772 -0.0429687 64 236 211
0.166336 -0.353116 -0.2556 64 236 211
-0.0575323 -0.450263 -0.32068 64 236 211
0.0948022 -0.333368 -0.309293 64 236 211
-0.0308325 -0.487232 0.262946 64 236 211
-0.0573342 -0.312234 -0.315117 64 236 211
0.0745985 -0.487203 -0.297285 64 236 211
-0.14307 -0.487739 -0.182253 64 236 211
-0.109208 -0.232034 -0.313632 64 236 211
-0.241366 -0.487486 -0.134867 64 236 211
-0.187951 -0.487748 0.026584 64 236 211
0.0789525 -0.487575 -0.1491 64 236 211
-0.00882393 -0.487763 -0.223964 64 236 211
-0.081059 -0.487735 0.0197942 64 236 211
-0.1616 -0.487336 0.2139 64 236 211
-0.0836795 -0.477922 -0.317397 64 236 211
0.0249501 -0.487718 -0.0247646 64 236 211
0.163965 -0.459313 -0.170928 64 236 211
0.15361 -0.480179 -0.303631 64 236 211
-0.0862533 -0.458108 -0.321752 64 236 211
0.141547 -0.242913 -0.309767 64 236 211
-0.104948 -0.487631 -0.098317 64 236 211
0.0338973 -0.258234 -0.312718 64 236 211
-0.00145942 -0.205379 -0.313023 64 236 211
-0.0839457 -0.487662 -0.0711161 64 236 211
-0.00681639 -0.487767 0.000571012 64 236 211
-0.0537876 -0.269435 -0.313944 64 236 211
0.00505367 -0.383132 -0.311748 64 236 211
-0.0441696 -0.154223 -0.313062 64 236 211
-0.0763741 -0.487312 0.25896 64 236 211
0.11678 -0.142445 -0.314717 64 236 211
-0.0890149 -0.487709 0.0616433 64 236 211
-0.147466 -0.40614 -0.316654 64 236 211
0.0630303 -0.487601 0.126259 64 236 211
0.136043 -0.487453 0.0631819 64 236 211
-0.0557108 -0.487685 -0.123795 64 236 211
0.043687 -0.487692 -0.0163323 64 236 211
-0.178297 -0.487731 0.0228524 64 236 211
0.121154 -0.434833 -0.30715 64 236 211
0.00216751 -0.456161 -0.316553 64 236 211
0.146657 -0.487471 -0.216946 64 236 211
-0.0122103 -0.48778 0.0154615 64 236 211
0.0645081 -0.487641 -0.0395602 64 236 211
0.0544096 -0.487675 -0.225611 64 236 211
0.101656 -0.340148 -0.308905 64 236 211
0.0597908 -0.487632 -0.276449 64 236 211
0.117034 -0.190829 -0.313498 64 236 211
0.152677 -0.18038 -0.310039 64 236 211
0.0429786 -0.487667 0.0593545 64 236 211
-0.0779423 -0.487801 -0.253833 64 236 211
-0.111551 -0.381138 -0.316449 64 236 211
-0.0789413 -0.487602 0.146959 64 236 211
-0.131985 -0.487703 -0.151834 64 236 211
-0.0283572 -0.415904 -0.315345 64 236 211
0.0221352 -0.259819 -0.313057 64 236 211
-0.0102307 -0.344105 -0.313386 64 236 211
0.130559 -0.162394 -0.314365 64 236 211
-0.165475 -0.482089 -0.317016 64 236 211
0.104056 -0.22518 -0.312435 64 236 211
-0.192974 -0.475217 -0.313142 64 236 211
0.16158 -0.487341 -0.000179268 64 236 211
0.10083 -0.487536 -0.150363 64 236 211
0.161382 -0.22867 -0.30721 64 236 211
0.135178 -0.487519 -0.259634 64 236 211
-0.00669662 -0.35967 -0.312911 64 236 211
-0.0898057 -0.335514 -0.315876 64 236 211
0.0242114 -0.487704 -0.172003 64 236 211
0.164416 -0.349744 -0.217115 64 236 211
0.16584 -0.320584 -0.243981 64 236 211
0.164549 -0.487359 -0.103445 64 236 211
0.0206006 -0.344751 -0.31115 64 236 211
-0.0742868 -0.194682 -0.313497 64 236 211
-0.0541808 -0.487823 -0.283749 64 236 211
0.135456 -0.438598 -0.307281 64 236 211
-0.0429939 -0.280853 -0.314174 64 236 211
0.146003 -0.178131 -0.310644 64 236 211
-0.110386 -0.317537 -0.315426 64 236 211
0.144811 -0.487543 -0.281874 64 236 211
-0.135179 -0.249728 -0.314368 64 236 211
-0.0824641 -0.451738 -0.321568 64 236 211
0.0722066 -0.487624 -0.258299 64 236 211
-0.17946 -0.451351 -0.314801 64 236 211
-0.0538285 -0.487537 0.201225 64 236 211
-0.208825 -0.487505 -0.15441 64 236 211
-0.144418 -0.48756 -0.306615 64 236 211
-0.0848514 -0.411084 -0.318934 64 236 211
0.165301 -0.318831 -0.233664 64 236 211
0.0460441 -0.467979 -0.311633 64 236 211
0.0105462 -0.477704 -0.310792 64 236 211
0.165996 -0.472535 -0.0291761 64 236 211
0.164192 -0.34239 0.0979257 64 236 211
-0.181745 -0.487776 -0.042858 64 236 211
0.161426 -0.328494 -0.155599 64 236 211
-0.0758832 -0.487866 -0.302133 64 236 211
0.126325 -0.331167 -0.308679 64 236 211
0.00423107 -0.487743 0.0261294 64 236 211
0.165647 -0.366399 -0.282746 64 236 211
0.163531 -0.430475 -0.186142 64 236 211
-0.164235 -0.487471 0.136127 64 236 211
-0.125665 -0.487699 -0.252504 64 236 211
0.00220066 -0.446876 -0.315802 64 236 211
-0.139925 -0.40435 -0.317095 64 236 211
0.0229752 -0.406975 -0.31111 64 236 211
0.0495223 -0.383151 -0.309272 64 236 211
0.0578461 -0.487669 -0.194442 64 236 211
0.116136 -0.269301 -0.311452 64 236 211
-0.152899 -0.24647 -0.314866 64 236 211
-0.129689 -0.480696 -0.319501 64 236 211
-0.153862 -0.487476 0.137032 64 236 211
-0.0763512 -0.487843 -0.291574 64 236 211
0.125656 -0.376553 -0.30817 64 236 211
0.164508 -0.487315 0.0439438 64 236 211
0.0488748 -0.250082 -0.312351 64 236 211
-0.202036 -0.487536 -0.286838 64 236 211
-0.105524 -0.293691 -0.314958 64 236 211
0.164063 -0.350067 -0.299979 64 236 211
-0.173354 -0.4877 -0.160516 64 236 211
0.163965 -0.459135 -0.132179 64 236 211
-0.0956087 -0.487344 0.244221 64 236 211
0.0500454 -0.471806 -0.310587 64 236 211
0.0993019 -0.384638 -0.30778 64 236 211
0.00665463 -0.360888 -0.31196 64 236 211
0.148004 -0.487438 0.101381 64 236 211
0.117917 -0.487473 -0.134948 64 236 211
0.0597494 -0.341866 -0.309707 64 236 211
0.113472 -0.252557 -0.311747 64 236 211
0.0511631 -0.487654 -0.253667 64 236 211
0.143358 -0.230885 -0.309935 64 236 211
-0.0625634 -0.487759 0.0117842 64 236 211
0.0871213 -0.411799 -0.307292 64 236 211
-0.0614801 -0.487735 0.0676351 64 236 211
-0.228064 -0.487708 0.0437155 64 236 211
0.00823824 -0.487733 0.0337417 64 236 211
0.163574 -0.436594 -0.0427691 64 236 211
-0.053402 -0.487839 -0.295053 64 236 211
-0.169307 -0.455458 -0.316456 64 236 211
-0.0798921 -0.487745 -0.215414 64 236 211
-0.183673 -0.476715 -0.315031 64 236 211
-0.143222 -0.41792 -0.317929 64 236 211
0.0953858 -0.391066 -0.307743 64 236 211
-0.0377195 -0.387305 -0.314536 64 236 211
0.105545 -0.487541 0.0022412 64 236 211
-0.0570438 -0.487352 0.252988 64 236 211
-0.158257 -0.277645 -0.315254 64 236 211
0.0934911 -0.344198 -0.308736 64 236 211
-0.0479175 -0.487687 -0.0965868 64 236 211
0.164715 -0.476687 -0.193785 64 236 211
-0.0611653 -0.487688 -0.0727811 64 236 211
0.167739 -0.181303 -0.296494 64 236 211
0.162446 -0.413693 -0.0476839 64 236 211
0.0956717 -0.266487 -0.311524 64 236 211
-0.164524 -0.427893 -0.315591 64 236 211
-0.00917131 -0.487774 0.00920617 64 236 211
0.168025 -0.265375 -0.2727 64 236 211
0.12984 -0.483211 -0.301698 64 236 211
0.058531 -0.48762 -0.145301 64 236 211
0.117165 -0.487498 -0.0239264 64 236 211
-0.0342831 -0.451217 -0.318939 64 236 211
-0.0178391 -0.487768 -0.202753 64 236 211
0.161667 -0.460838 -0.28747 64 236 211
-0.0620359 -0.487496 0.210553 64 236 211
0.171886 -0.386832 0.177762 64 236 211
-0.252714 -0.487571 0.0893483 64 236 211
0.135866 -0.298443 -0.308897 64 236 211
0.0621384 -0.487655 -0.00665966 64 236 211
-0.0443706 -0.481652 -0.312013 64 236 211
-0.0437352 -0.155257 -0.313111 64 236 211
0.0162508 -0.487722 0.0306602 64 236 211
-0.073828 -0.487722 -0.0197329 64 236 211
-0.0932908 -0.487803 -0.259117 64 236 211
-0.147769 -0.487696 -0.0814655 64 236 211
-0.144465 -0.29112 -0.315166 64 236 211
-0.0920981 -0.48772 0.02858 64 236 211
0.131364 -0.487499 -0.239444 64 236 211
0.11769 -0.459114 -0.308084 64 236 211
0.0332516 -0.487656 -0.287928 64 236 211
0.0808435 -0.468279 -0.308753 64 236 211
-0.118461 -0.487689 -0.0103175 64 236 211
0.00958887 -0.48725 0.24299 64 236 211
0.162956 -0.355434 -0.183532 64 236 211
0.163516 -0.348228 -0.199057 64 236 211
-0.0910988 -0.357998 -0.31625 64 236 211
-0.158132 -0.428248 -0.316606 64 236 211
-0.158972 -0.487354 0.2104 64 236 211
-0.0260797 -0.480466 -0.310865 64 236 211
-0.173099 -0.487457 0.1446 64 236 211
0.108223 -0.477624 -0.30503 64 236 211
-0.179274 -0.420611 -0.312967 64 236 211
0.0253429 -0.48759 0.166614 64 236 211
-0.0611425 -0.460449 -0.320867 64 236 211
-0.0275991 -0.483919 -0.307867 64 236 211
0.0535461 -0.462253 -0.31198 64 236 211
0.000671569 -0.487692 -0.0963171 64 236 211
0.0224267 -0.416292 -0.311977 64 236 211
0.169685 -0.42742 0.245879 64 236 211
0.159259 -0.312363 -0.0402363 64 236 211
0.164627 -0.467084 -0.0750023 64 236 211
-0.0338555 -0.487794 0.0118118 64 236 211
0.15639 -0.487397 -0.136002 64 236 211
0.161391 -0.365359 -0.131277 64 236 211
0.167618 -0.171564 -0.288199 64 236 211
-0.105958 -0.466861 -0.322331 64 236 211
-0.15543 -0.487548 -0.233029 64 236 211
0.105418 -0.48759 -0.271482 64 236 211
0.123573 -0.210988 -0.312788 64 236 211
0.164022 -0.42833 -0.208378 64 236 211
0.12345 -0.487492 0.0601829 64 236 211
-0.136451 -0.487284 0.240286 64 236 211
-0.104998 -0.48778 -0.240981 64 236 211
-0.154501 -0.487551 0.0982497 64 236 211
-0.102429 -0.265887 -0.314315 64 236 211
0.0157345 -0.487708 -0.0476741 64 236 211
0.1617 -0.441166 -0.295029 64 236 211
0.167687 -0.463275 0.206956 64 236 211
-0.125237 -0.389085 -0.316757 64 236 211
0.156365 -0.487393 -0.131909 64 236 211
0.162359 -0.344193 -0.170276 64 236 211
0.165838 -0.331412 -0.244509 64 236 211
0.0324232 -0.487704 0.00969881 64 236 211
0.0241378 -0.487697 -0.165506 64 236 211
-0.0891395 -0.487777 -0.233898 64 236 211
0.0899507 -0.307622 -0.310351 64 236 211
0.105892 -0.487486 -0.11656 64 236 211
0.0395076 -0.487655 -0.138516 64 236 211
0.164641 -0.486539 -0.156938 64 236 211
-0.0346764 -0.277345 -0.314066 64 236 211
-0.111974 -0.487653 -0.127824 64 236 211
-0.159979 -0.475788 -0.319287 64 236 211
0.165299 -0.487339 -0.0954555 64 236 211
-0.103172 -0.291656 -0.314872 64 236 211
0.164233 -0.380469 -0.295449 64 236 211
0.163561 -0.350872 -0.199949 64 236 211
0.159716 -0.332424 -0.0370126 64 236 211
-0.179987 -0.366397 -0.310527 64 236 211
-0.0961039 -0.469997 -0.321188 64 236 211
-0.120889 -0.48774 -0.203323 64 236 211
0.0205846 -0.487717 -0.0345247 64 236 211
-0.16258 -0.458948 -0.317935 64 236 211
0.167407 -0.18546 -0.280299 64 236 211
-0.0402155 -0.196449 -0.313682 64 236 211
0.16326 -0.386723 0.00770124 64 236 211
0.139489 -0.481985 0.325315 64 236 211
0.166803 -0.249072 -0.296696 64 236 211
0.0461223 -0.486035 0.286981 64 236 211
-0.280817 -0.487421 -0.01061 64 236 211
-0.184002 -0.487459 -0.224455 64 236 211
0.107077 -0.293502 -0.310812 64 236 211
-0.184108 -0.48746 -0.21422 64 236 211
0.128816 -0.487439 0.135617 64 236 211
0.061776 -0.487667 -0.218271 64 236 211
0.164068 -0.464008 -0.13818 64 236 211
0.171547 -0.383189 0.185203 64 236 211
0.0643686 -0.487663 0.0138033 64 236 211
0.0773958 -0.483895 -0.302593 64 236 211
-0.150973 -0.487692 -0.196162 64 236 211
0.0763395 -0.19751 -0.313155 64 236 211
0.0679786 -0.487652 0.033494 64 236 211
-0.0718789 -0.343631 -0.315755 64 236 211
0.142541 -0.487434 0.0115393 64 236 211
-0.200438 -0.4876 -0.141486 64 236 211
0.166201 -0.207645 -0.302167 64 236 211
-0.114767 -0.487647 -0.0599283 64 236 211
0.163077 -0.48742 -0.179142 64 236 211
0.158486 -0.274452 -0.0599966 64 236 211
0.163504 -0.353408 -0.198766 64 236 211
-0.183096 -0.487456 -0.21712 64 236 211
0.159292 -0.487426 -0.175889 64 236 211
0.0285541 -0.381859 -0.310072 64 236 211
-0.173455 -0.487384 0.19165 64 236 211
0.00565305 -0.246556 -0.313176 64 236 211
-0.153669 -0.487527 0.110145 64 236 211
-0.0240864 -0.476705 -0.312879 64 236 211
0.164105 -0.459731 -0.103137 64 236 211
-0.000916131 -0.487369 0.233007 64 236 211
0.0418714 -0.394758 -0.309341 64 236 211
0.135208 -0.235651 -0.309848 64 236 211
0.0898219 -0.487572 -0.0293865 64 236 211
0.141779 -0.476777 -0.304778 64 236 211
-0.0667043 -0.373027 -0.316245 64 236 211
-0.101365 -0.462431 -0.322109 64 236 211
-0.00555687 -0.487743 0.0563943 64 236 211
0.125599 -0.279456 -0.310608 64 236 211
0.15898 -0.282033 -0.0353292 64 236 211
-0.173748 -0.487764 -0.07838 64 236 211
0.018128 -0.487691 0.0793704 64 236 211
0.16487 -0.487422 -0.195869 64 236 211
-0.084019 -0.32876 -0.31557 64 236 211
0.0408885 -0.360088 -0.309873 64 236 211
0.032139 -0.487661 -0.0726493 64 236 211
0.165404 -0.340319 0.118944 64 236 211
-0.0470941 -0.222871 -0.313627 64 236 211
-0.16093 -0.487735 -0.111528 64 236 211
-0.0212295 -0.487721 -0.0885906 64 236 211
0.0171645 -0.487719 -0.177879 64 236 211
-0.195927 -0.487776 0.0188998 64 236 211
-0.138179 -0.318027 -0.315292 64 236 211
0.0852011 -0.387824 -0.30797 64 236 211
0.102846 -0.300732 -0.310582 64 236 211
0.0321511 -0.487705 0.0270074 64 236 211
-0.189043 -0.487742 0.0300758 64 236 211
-0.0460408 -0.487731 0.0948114 64 236 211
0.0251521 -0.291771 -0.311873 64 236 211
-0.0023016 -0.487655 0.162303 64 236 211
0.166662 -0.487303 0.022716 64 236 211
-0.170296 -0.487689 0.0416171 64 236 211
0.115693 -0.46177 -0.308234 64 236 211
0.164732 -0.471745 -0.0893221 64 236 211
-0.168503 -0.344665 -0.312839 64 236 211
-0.119633 -0.486615 -0.309675 64 236 211
0.0862636 -0.48754 -0.133828 64 236 211
0.153106 -0.487502 -0.2476 64 236 211
0.166468 -0.430934 0.0375883 64 236 211
-0.0149571 -0.487785 0.00637886 64 236 211
0.159839 -0.337086 -0.0364235 64 236 211
-0.0836518 -0.403984 -0.318298 64 236 211
0.123201 -0.48751 -0.19877 64 236 211
-0.222445 -0.487523 0.134449 64 236 211
0.114544 -0.189352 -0.313588 64 236 211
0.0716136 -0.443034 -0.309341 64 236 211
-0.0789125 -0.472315 -0.319315 64 236 211
-0.138212 -0.4874 0.203336 64 236 211
0.163966 -0.433833 -0.202306 64 236 211
-0.0698005 -0.487828 -0.284562 64 236 211
0.118345 -0.267199 -0.311562 64 236 211
-0.201177 -0.487714 -0.103897 64 236 211
-0.198632 -0.487491 -0.233806 64 236 211
0.150324 -0.487395 0.0199736 64 236 211
0.117974 -0.437134 -0.30746 64 236 211
0.0755214 -0.487616 -0.0406777 64 236 211
0.110845 -0.487521 0.0581477 64 236 211
0.0332589 -0.487651 -0.130486 64 236 211
0.131542 -0.464694 -0.307861 64 236 211
0.0235195 -0.487709 -0.0377984 64 236 211
-0.0352373 -0.351025 -0.314363 64 236 211
0.035753 -0.358629 -0.310052 64 236 211
0.108013 -0.403633 -0.307157 64 236 211
0.0442085 -0.487685 -0.00371036 64 236 211
0.111766 -0.0895452 -0.3168 64 236 211
-0.156202 -0.377837 -0.313959 64 236 211
0.0597953 -0.108963 -0.314436 64 236 211
-0.174251 -0.487468 -0.282451 64 236 211
-0.0950098 -0.192898 -0.313165 64 236 211
0.059189 -0.383273 -0.308861 64 236 211
0.0582831 -0.266066 -0.311466 64 236 211
0.168594 -0.371309 0.141049 64 236 211
0.159894 -0.477817 0.212885 64 236 211
-0.0305704 -0.413296 -0.315312 64 236 211
-0.120162 -0.48767 -0.0283761 64 236 211
0.0482003 -0.487091 0.24722 64 236 211
0.0531365 -0.487604 -0.121342 64 236 211
-0.0869547 -0.487747 -0.217411 64 236 211
-0.0671755 -0.3458 -0.315771 64 236 211
0.038698 -0.273558 -0.31181 64 236 211
-0.0138786 -0.26123 -0.313459 64 236 211
0.167611 -0.179916 -0.298418 64 236 211
0.0519467 -0.186293 -0.313132 64 236 211
0.116077 -0.487527 0.088932 64 236 211
0.167651 -0.478731 -0.00179564 64 236 211
0.144678 -0.487419 0.057924 64 236 211
0.104888 -0.356615 -0.308432 64 236 211
-0.0706022 -0.395129 -0.317184 64 236 211
0.0748743 -0.48764 0.00342834 64 236 211
0.162838 -0.428099 -0.105331 64 236 211
-0.0105429 -0.487771 -0.0125451 64 236 211
0.161325 -0.487378 -0.132156 64 236 211
-0.103404 -0.487814 -0.263479 64 236 211
-0.0455013 -0.487695 -0.129298 64 236 211
0.0413577 -0.487642 -0.292935 64 236 211
0.0956495 -0.487523 -0.133512 64 236 211
-0.0507854 -0.483363 -0.310856 64 236 211
0.159896 -0.359949 -0.30554 64 236 211
0.00503965 -0.487755 -0.238005 64 236 211
0.139569 -0.467148 -0.307477 64 236 211
-0.083975 -0.458222 -0.321758 64 236 211
0.16508 -0.356823 -0.295801 64 236 211
0.094947 -0.487617 -0.284772 64 236 211
-0.190249 -0.487515 -0.27535 64 236 211
0.127157 -0.487508 -0.24129 64 236 211
0.1586 -0.258938 -0.0856351 64 236 211
-0.251632 -0.487542 -0.152702 64 236 211
0.0673358 -0.48653 -0.299185 64 236 211
0.135077 -0.487493 -0.230079 64 236 211
-0.195571 -0.487793 -0.0278128 64 236 211
0.157108 -0.460795 -0.304437 64 236 211
-0.0546326 -0.48289 -0.312039 64 236 211
-0.0801377 -0.487679 -0.0547288 64 236 211
-0.226269 -0.487508 -0.179448 64 236 211
0.0106019 -0.369753 -0.311474 64 236 211
-0.177012 -0.487634 -0.170749 64 236 211
0.052477 -0.487615 0.132996 64 236 211
-0.0161227 -0.48776 -0.269894 64 236 211
-0.0490717 -0.311266 -0.315083 64 236 211
-0.0406132 -0.487788 0.012445 64 236 211
0.166211 -0.175718 -0.304078 64 236 211
-0.00414653 -0.487723 -0.0594829 64 236 211
-0.127981 -0.261813 -0.314481 64 236 211
0.061476 -0.460759 -0.311541 64 236 211
-0.121491 -0.487394 0.214776 64 236 211
0.0579298 -0.487576 0.141632 64 236 211
0.109274 -0.487508 -0.147042 64 236 211
-0.183618 -0.487396 0.18211 64 236 211
-0.26449 -0.487529 -0.126838 64 236 211
-0.203489 -0.487737 0.0377347 64 236 211
0.0667785 -0.464706 -0.310468 64 236 211
-0.190945 -0.487586 0.0999825 64 236 211
0.0180749 -0.333995 -0.311496 64 236 211
0.163225 -0.315123 -0.193424 64 236 211
0.164818 -0.477151 -0.199617 64 236 211
0.0659415 -0.487629 -0.265538 64 236 211
0.161002 -0.487529 -0.269072 64 236 211
0.0010843 -0.436498 -0.315023 64 236 211
0.0635929 -0.339397 -0.309644 64 236 211
0.0431354 -0.305088 -0.310767 64 236 211
0.0957123 -0.477563 -0.30545 64 236 211
0.145311 -0.244991 -0.309508 64 236 211
-0.160365 -0.487744 -0.168102 64 236 211
0.0167899 -0.487702 0.130053 64 236 211
0.0519137 -0.478534 -0.308245 64 236 211
-0.128385 -0.48736 0.221683 64 236 211
-0.0689287 -0.173063 -0.313346 64 236 211
-0.0384988 -0.160103 -0.313234 64 236 211
0.165178 -0.219451 -0.216181 64 236 211
0.0306847 -0.416835 -0.311326 64 236 211
0.00313102 -0.485435 -0.303808 64 236 211
0.130043 -0.282058 -0.309092 64 236 211
0.162236 -0.26078 -0.176228 64 236 211
0.0426388 -0.258054 -0.312367 64 236 211
-0.00816663 -0.487719 -0.0725175 64 236 211
-0.251943 -0.487677 0.0367043 64 236 211
0.0882594 -0.48758 -0.0298066 64 236 211
0.117595 -0.487318 0.178771 64 236 211
0.165336 -0.422307 -0.246546 64 236 211
0.167438 -0.220683 -0.293807 64 236 211
-0.0320686 -0.471291 -0.315316 64 236 211
-0.130992 -0.452437 -0.321241 64 236 211
0.120535 -0.476549 -0.305134 64 236 211
-0.112068 -0.487713 -0.181429 64 236 211
0.050047 -0.472906 -0.310368 64 236 211
0.150686 -0.342756 -0.306054 64 236 211
-0.199994 -0.487513 -0.296218 64 236 211
0.103963 -0.487584 -0.255239 64 236 211
0.158388 -0.487353 -0.0267654 64 236 211
0.16748 -0.435468 0.0570681 64 236 211
0.0239514 -0.487744 -0.219674 64 236 211
-0.0271215 -0.487436 0.231927 64 236 211
-0.0279376 -0.487718 -0.145918 64 236 211
-0.00591468 -0.487755 0.034632 64 236 211
-0.115191 -0.48776 -0.223438 64 236 211
0.0636391 -0.487637 -0.252174 64 236 211
0.164642 -0.487424 -0.195973 64 236 211
0.0311549 -0.138494 -0.314272 64 236 211
0.151416 -0.48748 -0.227561 64 236 211
0.0847226 -0.352078 -0.308269 64 236 211
0.167957 -0.379023 0.125539 64 236 211
-0.0198962 -0.339858 -0.313842 64 236 211
-0.00384368 -0.392424 -0.31224 64 236 211
-0.229167 -0.487561 0.102377 64 236 211
-0.122122 -0.304512 -0.315229 64 236 211
0.135987 -0.487455 -0.0579328 64 236 211
0.159784 -0.487392 -0.142726 64 236 211
0.163413 -0.357247 -0.300834 64 236 211
0.0478839 -0.486687 0.285098 64 236 211
0.0293961 -0.461498 -0.313887 64 236 211
-0.125498 -0.240333 -0.313919 64 236 211
-0.165708 -0.487694 -0.174146 64 236 211
0.0230844 -0.487711 -0.177079 64 236 211
0.0808744 -0.426734 -0.308121 64 236 211
-0.2903 -0.487398 0.0283574 64 236 211
0.0467602 -0.487673 -0.177318 64 236 211
0.0125392 -0.241199 -0.31307 64 236 211
-0.227295 -0.487523 -0.185692 64 236 211
0.0207902 -0.487709 0.0399601 64 236 211
0.119316 -0.487503 0.113114 64 236 211
0.125902 -0.333041 -0.308688 64 236 211
-0.168324 -0.48775 -0.0560256 64 236 211
-0.0290248 -0.487764 -0.292388 64 236 211
0.163008 -0.187378 -0.307185 64 236 211
0.0220674 -0.304716 -0.311742 64 236 211
0.0836109 -0.487532 -0.118243 64 236 211
-0.0349639 -0.487605 0.18669 64 236 211
-0.0110215 -0.291503 -0.314015 64 236 211
0.0465833 -0.487685 -0.231701 64 236 211
-0.157148 -0.486906 -0.297563 96 250 196
0.165505 -0.487516 -0.0415111 96 250 196
0.175534 -0.420787 -0.0763888 96 250 196
-0.000200797 -0.487693 0.245147 96 250 196
-0.181238 -0.397733 -0.320155 96 250 196
0.0961718 -0.487635 -0.0157989 96 250 196
-0.0972331 -0.424257 -0.317019 96 250 196
0.145622 -0.29284 -0.312503 96 250 196
0.174357 -0.379754 -0.0375442 96 250 196
-0.294374 -0.487382 -0.0187158 96 250 196
-0.0288065 -0.198815 -0.309633 96 250 196
-0.28264 -0.487406 -0.00272522 96 250 196
0.160207 -0.433111 -0.305304 96 250 196
-0.00970821 -0.241572 -0.311946 96 250 196
-0.122996 -0.487511 -0.0209417 96 250 196
-0.194816 -0.487316 -0.105144 96 250 196
-0.258797 -0.487151 -0.216384 96 250 196
-0.18502 -0.487021 -0.253303 96 250 196
-0.157431 -0.487088 -0.238146 96 250 196
-0.201378 -0.48768 0.212827 96 250 196
-0.198188 -0.487032 -0.247443 96 250 196
0.167419 -0.386137 -0.286099 96 250 196
-0.245001 -0.486912 -0.294706 96 250 196
-0.0982589 -0.487579 0.154706 96 250 196
-0.168439 -0.486967 -0.275864 96 250 196
-0.297336 -0.487111 -0.231678 96 250 196
-0.218349 -0.486882 -0.310069 96 250 196
0.155234 -0.487438 -0.152476 96 250 196
-0.212367 -0.487292 0.0438669 96 250 196
-0.171225 -0.487446 0.189408 96 250 196
-0.0502791 -0.487268 0.0866334 96 250 196
0.1742 -0.445236 -0.0857041 96 250 196
-0.150881 -0.487347 0.0645337 96 250 196
-0.0813651 -0.487591 0.0663654 96 250 196
-0.254858 -0.487344 -0.065817 96 250 196
0.170114 -0.339779 0.035254 96 250 196
-0.03188 -0.487568 -0.0107 96 250 196
-0.11422 -0.487507 -0.0412794 96 250 196
-0.00788683 -0.375391 -0.317181 96 250 196
-0.0376059 -0.487271 -0.239479 96 250 196
-0.249475 -0.487351 -0.0483162 96 250 196
-0.259678 -0.48739 0.0683721 96 250 196
-0.227997 -0.486999 -0.0955647 96 250 196
-0.11279 -0.458849 -0.315751 96 250 196
0.116166 -0.487704 0.15764 96 250 196
0.142459 -0.487667 0.188519 96 250 196
-0.332971 -0.468198 -0.218813 96 250 196
-0.0239666 -0.296187 -0.31367 96 250 196
-0.0206412 -0.475451 -0.314476 96 250 196
-0.338018 -0.422406 -0.226018 96 250 196
-0.111217 -0.487494 -0.0637937 96 250 196
-0.242338 -0.487067 -0.25104 96 250 196
-0.141262 -0.487386 -0.131374 96 250 196
-0.0241726 -0.479444 -0.313677 96 250 196
0.101237 -0.331631 -0.315996 96 250 196
-0.301892 -0.487339 -0.120117 96 250 196
-0.0236452 -0.487183 -0.271049 96 250 196
-0.14987 -0.487288 -0.17099 96 250 196
0.00490788 -0.487698 0.244284 96 250 196
0.0605316 -0.316502 -0.316502 96 250 196
-0.238223 -0.48735 0.131062 96 250 196
-0.240077 -0.487376 0.155216 96 250 196
-0.265057 -0.487383 0.0179171 96 250 196
-0.238497 -0.328618 -0.269834 96 250 196
0.144287 -0.487379 -0.218694 96 250 196
-0.0951529 -0.487056 -0.284043 96 250 196
-0.232836 -0.486961 -0.284707 96 250 196
-0.167765 -0.487413 0.28411 96 250 196
0.0739161 -0.226052 -0.312365 96 250 196
-0.225341 -0.48738 0.00135075 96 250 196
-0.156817 -0.487452 0.31933 96 250 196
-0.214735 -0.4874 0.039062 96 250 196
0.161739 -0.383265 0.187629 96 250 196
-0.00908861 -0.487692 0.224403 96 250 196
-0.316957 -0.487108 -0.201086 96 250 196
-0.304601 -0.487276 -0.099606 96 250 196
0.133197 -0.487654 0.281248 96 250 196
0.141025 -0.261753 -0.314427 96 250 196
0.127377 -0.487694 0.208455 96 250 196
-0.0791498 -0.486947 -0.304001 96 250 196
-0.275255 -0.487494 0.199822 96 250 196
-0.246827 -0.487345 0.226019 96 250 196
-0.145509 -0.198061 -0.29683 96 250 196
0.132828 -0.487198 -0.281379 96 250 196
0.146095 -0.487649 0.110988 96 250 196
0.135116 -0.459281 -0.311179 96 250 196
-0.316525 -0.48398 -0.228163 96 250 196
-0.34133 -0.478339 -0.196173 96 250 196
0.167342 -0.374834 -0.292706 96 250 196
-0.239601 -0.487044 -0.258135 96 250 196
-0.106984 -0.48758 0.0865227 96 250 196
-0.114037 -0.487399 -0.149724 96 250 196
-0.231547 -0.486363 -0.308925 96 250 196
-0.235623 -0.483656 -0.306458 96 250 196
-0.202453 -0.48731 -0.0977408 96 250 196
-0.171939 -0.243026 -0.29631 96 250 196
-0.18509 -0.486916 -0.295416 96 250 196
-0.259769 -0.487366 0.237377 96 250 196
-0.184125 -0.487259 -0.154414 96 250 196
-0.245563 -0.486979 -0.280041 96 250 196
-0.148382 -0.433261 -0.32017 96 250 196
-0.0352468 -0.487666 0.144942 96 250 196
0.0707127 -0.286197 -0.314798 96 250 196
0.172835 -0.45023 -0.0395251 96 250 196
0.153159 -0.484761 0.28727 96 250 196
-0.156239 -0.380707 -0.32055 96 250 196
-0.201319 -0.487009 -0.260507 96 250 196
0.139517 -0.487661 0.127372 96 250 196
0.011941 -0.267465 -0.313042 96 250 196
-0.197652 -0.486939 -0.287169 96 250 196
0.104447 -0.487641 0.00350708 96 250 196
-0.083248 -0.359626 -0.316795 96 250 196
-0.295154 -0.487327 -0.168603 96 250 196
-0.0672129 -0.487629 0.136253 96 250 196
-0.248058 -0.487391 0.0833525 96 250 196
-0.0492095 -0.487046 -0.295087 96 250 196
0.169962 -0.476606 -0.0459489 96 250 196
-0.114277 -0.487045 -0.278998 96 250 196
0.162032 -0.312881 -0.304903 96 250 196
-0.209359 -0.487173 -0.185659 96 250 196
-0.31631 -0.487122 -0.150081 96 250 196
0.0908129 -0.332484 -0.316612 96 250 196
-0.194424 -0.487238 -0.159413 96 250 196
-0.081411 -0.200108 -0.306869 96 250 196
-0.177319 -0.487379 -0.0847097 96 250 196
-0.158822 -0.460377 -0.319108 96 250 196
-0.291978 -0.487421 0.041417 96 250 196
0.0758932 -0.487341 -0.243456 96 250 196
-0.0864351 -0.487499 0.3052 96 250 196
0.0602475 -0.48732 -0.24749 96 250 196
-0.0200735 -0.487476 -0.142889 96 250 196
-0.0598063 -0.487625 0.222359 96 250 196
-0.234086 -0.487042 -0.257418 96 250 196
0.16429 -0.463751 -0.263683 96 250 196
-0.236422 -0.487392 0.114763 96 250 196
-0.0570596 -0.277172 -0.311188 96 250 196
-0.229433 -0.487488 0.308778 96 250 196
-0.327728 -0.464753 -0.231856 96 250 196
-0.191123 -0.487369 0.269377 96 250 196
-0.0257641 -0.487478 -0.141545 96 250 196
-0.114647 -0.487567 0.106349 96 250 196
-0.224035 -0.487341 0.261523 96 250 196
0.118772 -0.454004 -0.313842 96 250 196
0.081413 -0.487695 0.0907636 96 250 196
-0.248075 -0.486997 -0.275404 96 250 196
-0.219831 -0.487464 0.311139 96 250 196
-0.256295 -0.487282 0.125006 96 250 196
0.128216 -0.487639 0.0478078 96 250 196
-0.137949 -0.319139 -0.31388 96 250 196
-0.130634 -0.380938 -0.319518 96 250 196
-0.151821 -0.487155 -0.218314 96 250 196
-0.25881 -0.487262 -0.164145 96 250 196
0.0180284 -0.48765 0.291866 96 250 196
-0.08248 -0.487513 0.294018 96 250 196
-0.0218291 -0.358353 -0.316371 96 250 196
-0.250399 -0.487388 0.0358326 96 250 196
0.115534 -0.48757 -0.108724 96 250 196
-0.0233396 -0.487133 -0.283845 96 250 196
0.0157453 -0.48765 0.291627 96 250 196
0.143311 -0.487583 0.00296326 96 250 196
-0.152855 -0.434525 -0.320461 96 250 196
-0.0945127 -0.478199 -0.314425 96 250 196
0.104427 -0.487689 0.26567 96 250 196
0.148158 -0.487551 -0.0278261 96 250 196
-0.211329 -0.487107 -0.0903672 96 250 196
-0.235847 -0.487312 -0.0829547 96 250 196
-0.0989709 -0.487144 0.000173555 96 250 196
-0.29551 -0.487294 -0.177869 96 250 196
-0.325994 -0.487046 -0.203609 96 250 196
-0.064704 -0.487555 -0.0216194 96 250 196
-0.188638 -0.487445 0.0927148 96 250 196
-0.0411539 -0.487101 -0.287917 96 250 196
-0.302948 -0.487288 -0.172912 96 250 196
0.159729 -0.351561 0.256808 96 250 196
0.0224631 -0.442591 -0.315675 96 250 196
-0.241555 -0.486907 -0.29764 96 250 196
0.163497 -0.373786 -0.303081 96 250 196
-0.276004 -0.487263 -0.180765 96 250 196
0.131028 -0.40846 -0.313225 96 250 196
-0.231595 -0.487059 -0.249059 96 250 196
0.138979 -0.487458 0.314369 96 250 196
0.158165 -0.238241 -0.307606 96 250 196
0.133202 -0.487681 0.249887 96 250 196
-0.131208 -0.48754 0.110617 96 250 196
0.0744022 -0.469178 -0.314753 96 250 196
-0.336496 -0.466503 -0.214738 96 250 196
-0.173154 -0.486895 -0.313153 96 250 196
-0.0975804 -0.411853 -0.317055 96 250 196
0.177497 -0.36167 -0.123857 96 250 196
-0.0873008 -0.48738 -0.172616 96 250 196
-0.310896 -0.486449 -0.0854236 96 250 196
0.175687 -0.428296 -0.170047 96 250 196
-0.0893702 -0.48386 -0.313283 96 250 196
0.166611 -0.344516 -0.299946 96 250 196
-0.0923398 -0.487773 0.277091 96 250 196
-0.00305328 -0.48706 -0.296672 96 250 196
0.0360687 -0.48772 0.146519 96 250 196
-0.249264 -0.487387 0.0192857 96 250 196
0.0851157 -0.358821 -0.317287 96 250 196
-0.0996181 -0.487475 0.31033 96 250 196
-0.110173 -0.487437 -0.131897 96 250 196
-0.237033 -0.48732 -0.0738045 96 250 196
0.0773688 -0.357764 -0.317462 96 250 196
0.00272806 -0.487127 -0.285342 96 250 196
-0.256467 -0.48711 -0.23582 96 250 196
-0.212525 -0.487107 -0.214777 96 250 196
0.144739 -0.487671 0.248054 96 250 196
0.155431 -0.380917 -0.307699 96 250 196
0.164791 -0.433404 -0.28107 96 250 196
-0.24012 -0.487266 -0.137401 96 250 196
-0.310423 -0.487203 -0.129931 96 250 196
0.0250314 -0.461734 -0.315611 96 250 196
0.0985389 -0.487721 0.202105 96 250 196
0.0142797 -0.487621 0.307601 96 250 196
-0.0175988 -0.389776 -0.316503 96 250 196
0.142913 -0.487097 -0.308161 96 250 196
-0.12602 -0.486928 -0.29828 96 250 196
0.0346595 -0.487431 0.328402 96 250 196
0.1761 -0.335031 -0.227922 96 250 196
0.164545 -0.487561 0.00408607 96 250 196
0.163583 -0.416251 -0.300042 96 250 196
-0.173489 -0.487339 -0.122461 96 250 196
0.0306736 -0.487172 -0.279736 96 250 196
-0.284685 -0.487327 -0.162248 96 250 196
0.0696819 -0.246472 -0.313107 96 250 196
-0.221729 -0.487383 0.165682 96 250 196
0.0958502 -0.487614 -0.0532191 96 250 196
-0.27833 -0.438909 -0.269501 96 250 196
0.0299992 -0.487491 -0.131058 96 250 196
0.059632 -0.161097 -0.309666 96 250 196
0.11596 -0.479045 -0.312699 96 250 196
0.153662 -0.487136 -0.299819 96 250 196
0.160782 -0.487468 -0.109018 96 250 196
-0.311682 -0.487158 -0.115563 96 250 196
-0.239773 -0.487606 0.260582 96 250 196
0.106926 -0.487712 0.230969 96 250 196
0.0057432 -0.487067 -0.295351 96 250 196
-0.00214336 -0.487428 -0.168376 96 250 196
0.165425 -0.463559 0.0645771 96 250 196
-0.233512 -0.487001 -0.27249 96 250 196
-0.276915 -0.404595 -0.262194 96 250 196
-0.0668172 -0.213461 -0.308999 96 250 196
-0.218803 -0.487069 -0.237371 96 250 196
-0.0893556 -0.275485 -0.3075 96 250 196
-0.308558 -0.487229 -0.125272 96 250 196
-0.222393 -0.486981 -0.276592 96 250 196
0.022724 -0.48698 -0.310056 96 250 196
-0.302248 -0.487102 -0.22702 96 250 196
0.0212849 -0.330934 -0.316647 96 250 196
-0.339724 -0.453148 -0.221993 96 250 196
0.16917 -0.486598 -0.0847498 96 250 196
0.11303 -0.182885 -0.31261 96 250 196
-0.230011 -0.380591 -0.288368 96 250 196
-0.0633652 -0.48758 0.0205068 96 250 196
-0.141733 -0.487422 -0.0980456 96 250 196
-0.200675 -0.487268 -0.135111 96 250 196
-0.284042 -0.48734 -0.150465 96 250 196
0.00796722 -0.341446 -0.316561 96 250 196
-0.268187 -0.419486 -0.271545 96 250 196
-0.128917 -0.487449 -0.0883724 96 250 196
-0.242011 -0.487258 0.115706 96 250 196
-0.200519 -0.487401 0.0149432 96 250 196
-0.262491 -0.487384 0.0226865 96 250 196
-0.0691557 -0.487621 0.174425 96 250 196
