ply
format ascii 1.0
comment Created by Open3D
element vertex 1186
property double x
property double y
property double z
property uchar red
property uchar green
property uchar blue
end_header
-0.339419 0.0675528 0.160817 31 142 243
-0.33415 0.0709537 0.364828 31 142 243
-0.328926 -0.338889 0.0141946 31 142 243
-0.273957 -0.188558 -0.154345 31 142 243
-0.241777 -0.0809685 -0.14354 31 142 243
-0.327657 -0.133417 0.22569 31 142 243
-0.101838 0.0169965 -0.150702 31 142 243
-0.322702 -0.235596 0.29303 31 142 243
-0.325895 -0.210653 0.22825 31 142 243
-0.331054 -0.0217396 -0.149712 31 142 243
-0.16339 -0.305641 -0.158405 31 142 243
-0.326389 -0.391971 0.102368 31 142 243
-0.346892 -0.0125782 -0.0213988 31 142 243
-0.242583 -0.459005 0.178114 31 142 243
-0.343691 0.0469518 0.19562 31 142 243
-0.1896 -0.0739041 -0.153821 31 142 243
-0.309388 0.0607733 -0.112491 31 142 243
-0.0469244 -0.394996 -0.140252 31 142 243
-0.319869 -0.311453 0.324452 31 142 243
-0.355467 0.0193246 -0.10346 31 142 243
-0.201035 0.0272194 -0.148301 31 142 243
-0.0794472 -0.38442 -0.138433 31 142 243
-0.336363 0.0564832 0.406943 31 142 243
-0.32846 -0.442085 0.0657716 31 142 243
-0.321157 -0.286596 0.309421 31 142 243
-0.346105 0.0479121 0.16609 31 142 243
-0.323149 -0.265279 0.275411 31 142 243
-0.352101 -0.0493541 -0.126086 31 142 243
-0.353422 -0.0284727 -0.109808 31 142 243
-0.325731 -0.167234 0.254075 31 142 243
-0.349478 -0.0806616 -0.0824837 31 142 243
-0.325435 -0.200969 0.244052 31 142 243
-0.35312 0.0489745 -0.0278794 31 142 243
-0.336825 0.0536513 0.420221 31 142 243
-0.344027 0.0567999 0.194842 31 142 243
-0.29217 0.0673039 -0.132804 31 142 243
-0.335803 0.0691416 0.249286 31 142 243
-0.328175 -0.395141 0.055714 31 142 243
-0.32209 -0.0473881 0.101064 31 142 243
-0.0971074 -0.0202564 -0.154374 31 142 243
-0.346433 0.0376446 0.0883268 31 142 243
-0.328608 -0.107059 0.23111 31 142 243
-0.322297 0.0669664 -0.143865 31 142 243
-0.335914 -0.101525 0.123425 31 142 243
-0.326143 0.0749633 -0.0630033 31 142 243
-0.332328 0.074046 0.0709966 31 142 243
-0.328856 -0.0594241 0.260744 31 142 243
-0.31326 0.0455596 0.102122 31 142 243
-0.304925 0.0613909 -0.118321 31 142 243
-0.321735 -0.252772 0.309317 31 142 243
-0.346979 0.0432132 0.119256 31 142 243
-0.190745 0.036846 -0.14969 31 142 243
-0.317945 0.0584458 -0.0768935 31 142 243
-0.0265359 -0.133876 -0.1574 31 142 243
-0.251458 -0.0271067 -0.154443 31 142 243
-0.35364 0.0404596 -0.0440403 31 142 243
-0.326059 0.0737197 0.117664 31 142 243
-0.343058 -0.196014 -0.0914601 31 142 243
-0.0363397 -0.132058 -0.152666 31 142 243
-0.341483 -0.201115 -0.0797632 31 142 243
-0.326073 -0.320488 0.204217 31 142 243
-0.314965 0.00814133 -0.0682976 31 142 243
-0.227997 0.0591712 -0.155524 31 142 243
-0.32829 0.0751766 -0.0638118 31 142 243
-0.327022 -0.114969 0.259747 31 142 243
-0.272029 -0.079536 -0.128692 31 142 243
-0.159562 -0.0347063 -0.154014 31 142 243
-0.317448 0.0588098 -0.0280584 31 142 243
-0.318774 -0.0529199 0.0417294 31 142 243
-0.267965 -0.18157 -0.154733 31 142 243
-0.0257696 -0.197876 -0.159454 31 142 243
-0.144911 -0.0672418 -0.153153 31 142 243
-0.100351 -0.0515234 -0.153072 31 142 243
-0.24913 0.0620114 -0.152866 31 142 243
-0.352432 -0.047546 -0.104627 31 142 243
-0.337396 -0.299923 -0.0870958 31 142 243
-0.346139 -0.152736 -0.103085 31 142 243
-0.337629 0.00236927 0.224666 31 142 243
-0.342311 0.0365776 0.198498 31 142 243
-0.341237 -0.249023 -0.139467 31 142 243
-0.241684 -0.127183 -0.146056 31 142 243
-0.307661 -0.0204043 -0.155928 31 142 243
-0.333447 -0.0682619 0.209034 31 142 243
0.124512 -0.479318 -0.0423178 31 142 243
-0.344716 -0.0568591 -0.033446 31 142 243
-0.346365 -0.0872866 -0.059496 31 142 243
-0.339149 0.0252115 0.227768 31 142 243
-0.324572 -0.331265 0.241362 31 142 243
-0.324951 0.0728326 0.143501 31 142 243
-0.320881 -0.233776 0.37382 31 142 243
-0.107136 -0.0568567 -0.15323 31 142 243
-0.331372 -0.153736 0.104986 31 142 243
-0.345748 0.0584678 0.115534 31 142 243
-0.315468 0.0512303 0.146189 31 142 243
-0.328196 -0.0889169 0.248992 31 142 243
-0.339471 0.0618218 -0.143697 31 142 243
-0.323257 -0.328059 0.268126 31 142 243
-0.324405 -0.132943 0.403296 31 142 243
-0.322845 -0.343543 0.276906 31 142 243
-0.340834 -0.0344739 0.108003 31 142 243
-0.34618 0.0370627 0.137278 31 142 243
-0.328287 -0.0717246 0.439442 31 142 243
-0.331065 -0.17825 0.0376752 31 142 243
-0.335241 0.0568628 0.331947 31 142 243
-0.210659 -0.0717742 -0.153546 31 142 243
-0.325829 -0.112179 0.372405 31 142 243
-0.334741 -0.319939 -0.0744693 31 142 243
-0.356236 0.0524832 -0.0861767 31 142 243
-0.330664 -0.108216 0.205945 31 142 243
-0.293812 -0.0524609 -0.155711 31 142 243
-0.340539 0.0618005 0.223206 31 142 243
-0.32539 -0.249727 0.227008 31 142 243
-0.325721 -0.32816 0.215041 31 142 243
-0.347305 0.0425776 0.0441236 31 142 243
-0.344414 -0.202955 -0.112511 31 142 243
-0.314265 -0.221908 -0.15255 31 142 243
-0.326859 -0.239003 0.118325 31 142 243
-0.310057 -0.0689944 -0.0874882 31 142 243
-0.0432393 -0.361587 -0.14778 31 142 243
-0.353353 -0.0296031 -0.112687 31 142 243
-0.208173 0.0138121 -0.153598 31 142 243
-0.325805 -0.306213 0.210385 31 142 243
-0.0188949 -0.0105737 -0.155438 31 142 243
-0.246359 0.037363 -0.156524 31 142 243
-0.332622 -0.239068 0.151839 31 142 243
-0.262168 0.0630818 -0.152062 31 142 243
-0.329927 -0.0467538 0.349592 31 142 243
-0.340097 -0.0407776 0.0379337 31 142 243
-0.291258 -0.00614372 -0.0603141 0 180 235
-0.14052 -0.160366 -0.150915 0 180 235
-0.299697 -0.00729733 -0.0235987 0 180 235
-0.333176 0.0521892 0.0502843 0 180 235
-0.236496 -0.0791266 -0.143586 0 180 235
-0.169784 -0.159411 -0.152876 0 180 235
-0.333935 0.0368006 -0.122087 0 180 235
-0.292861 -0.431525 -0.149699 0 180 235
-0.246223 -0.139543 -0.142992 0 180 235
-0.319489 -0.00822466 -0.132158 0 180 235
0.174845 -0.364125 -0.148122 0 180 235
-0.34033 0.0658467 -0.1228 0 180 235
-0.300849 -0.358216 -0.15041 0 180 235
-0.341114 -0.232791 -0.147993 0 180 235
0.050562 -0.398335 -0.152252 0 180 235
-0.285557 -0.0497669 -0.142066 0 180 235
-0.336707 -0.0790218 -0.144912 0 180 235
-0.337617 0.0583807 -0.00479449 0 180 235
-0.122492 -0.141383 -0.152535 0 180 235
-0.184186 -0.329875 -0.151486 0 180 235
-0.056905 -0.33094 -0.172307 0 180 235
-0.337253 -0.172315 -0.147882 0 180 235
-0.325469 0.0117886 0.126067 0 180 235
-0.25973 -0.394658 -0.151035 0 180 235
-0.316092 -0.0751323 -0.143158 0 180 235
0.0407327 -0.388093 -0.153811 0 180 235
-0.221757 -0.223452 -0.148151 0 180 235
-0.264833 -0.295513 -0.149646 0 180 235
-0.322947 0.0275542 -0.0508933 0 180 235
0.139077 -0.333241 -0.133186 0 180 235
-0.338849 0.0621714 -0.129453 0 180 235
-0.168775 -0.342463 -0.151755 0 180 235
-0.303032 0.0140052 -0.102802 0 180 235
-0.111851 -0.22905 -0.153584 0 180 235
-0.258819 -0.333571 -0.150187 0 180 235
-0.328247 -0.248644 -0.149213 0 180 235
-0.101774 -0.202335 -0.149635 0 180 235
-0.329034 -0.367799 -0.150331 0 180 235
-0.115176 -0.30694 -0.138366 0 180 235
-0.240247 -0.298792 -0.150351 0 180 235
-0.311422 -0.0976355 -0.143558 0 180 235
-0.312678 0.026041 0.00783078 0 180 235
-0.327447 -0.182822 -0.147055 0 180 235
-0.321423 0.0223661 -0.097833 0 180 235
-0.178545 -0.0788402 -0.149132 0 180 235
-0.343392 -0.403987 -0.144009 0 180 235
-0.302389 0.00303977 -0.118396 0 180 235
-0.325258 0.03164 -0.00936813 0 180 235
-0.333157 -0.135114 -0.145015 0 180 235
-0.278343 -0.211913 -0.122576 0 180 235
-0.334738 -0.0804655 -0.14391 0 180 235
-0.295587 -0.309469 -0.14991 0 180 235
-0.171366 -0.178981 -0.147259 0 180 235
-0.109947 -0.409557 -0.151651 0 180 235
0.133096 -0.439666 -0.138523 0 180 235
-0.334483 -0.210486 -0.148304 0 180 235
-0.247606 -0.190339 -0.147292 0 180 235
-0.340135 -0.121103 -0.147266 0 180 235
-0.323115 0.0276381 -0.0509199 0 180 235
-0.253114 -0.241185 -0.147423 0 180 235
-0.211273 -0.306702 -0.151216 0 180 235
-0.33402 0.0492387 -0.0112238 0 180 235
-0.324129 -0.254184 -0.0418055 0 180 235
-0.220565 -0.138777 -0.143739 0 180 235
-0.321591 0.0327157 0.081164 0 180 235
-0.338839 -0.372459 -0.146025 0 180 235
0.0192955 -0.297873 -0.14954 0 180 235
-0.191362 -0.18002 -0.145786 0 180 235
-0.273999 -0.081423 -0.143613 0 180 235
-0.13161 -0.146833 -0.151738 0 180 235
-0.332372 0.0482785 0.0321517 0 180 235
-0.0952197 -0.372567 -0.165533 0 180 235
-0.22068 -0.0480608 -0.144884 0 180 235
-0.152433 -0.19032 -0.148687 0 180 235
-0.343714 -0.425711 -0.144372 0 180 235
-0.305883 0.0148363 -0.106706 0 180 235
-0.236312 -0.173169 -0.145434 0 180 235
-0.117555 -0.155059 -0.152439 0 180 235
-0.333341 0.0143233 -0.136964 0 180 235
-0.245187 -0.305996 -0.150297 0 180 235
-0.180788 -0.138903 -0.147457 0 180 235
-0.329609 0.0303972 -0.0974799 0 180 235
-0.252324 -0.320058 -0.150249 0 180 235
-0.300494 -0.0210645 -0.133834 0 180 235
-0.26011 -0.070716 -0.143091 0 180 235
-0.0934537 -0.313245 -0.152911 0 180 235
-0.194332 -0.415625 -0.15117 0 180 235
-0.0229006 -0.308286 -0.157584 0 180 235
-0.337163 0.0467798 0.196503 0 180 235
-0.340315 -0.178114 -0.147809 0 180 235
-0.266751 -0.20198 -0.146939 0 180 235
-0.320924 -0.331645 -0.150649 0 180 235
-0.0788898 -0.374579 -0.152339 0 180 235
-0.329732 -0.00568794 -0.140084 0 180 235
-0.332581 0.0437047 0.126837 0 180 235
0.200708 -0.368675 -0.133801 0 180 235
-0.222551 -0.106388 -0.144583 0 180 235
-0.169112 -0.336515 -0.151725 0 180 235
-0.28519 -0.232102 -0.147582 0 180 235
-0.106197 -0.356985 -0.15154 0 180 235
-0.0062271 -0.283084 -0.163413 0 180 235
-0.335703 0.0486225 -0.080338 0 180 235
-0.269443 -0.231069 -0.147203 0 180 235
-0.286048 -0.0517053 -0.142323 0 180 235
-0.283192 -0.314286 -0.150056 0 180 235
-0.345479 -0.119313 -0.150319 0 180 235
-0.0151776 -0.296355 -0.159985 0 180 235
-0.319144 -0.0147139 -0.136832 0 180 235
-0.324124 -0.030278 -0.142412 0 180 235
-0.185108 -0.468209 -0.151459 0 180 235
-0.335817 0.062533 -0.0931758 0 180 235
-0.280543 -0.325576 -0.0989977 0 180 235
-0.0569232 -0.461339 -0.14798 0 180 235
-0.341053 -0.163739 -0.148378 0 180 235
-0.263644 -0.163528 -0.146719 0 180 235
-0.288421 -0.0793143 -0.143786 0 180 235
-0.332141 0.0408703 -0.050274 0 180 235
-0.333653 0.042683 -0.0609435 0 180 235
-0.315011 -0.117759 -0.14447 0 180 235
-0.1566 -0.344349 -0.151807 0 180 235
0.0784478 -0.316336 -0.141819 0 180 235
-0.308539 0.0206553 -0.0558082 0 180 235
-0.105652 -0.162703 -0.153376 0 180 235
-0.192856 -0.448165 -0.151008 0 180 235
-0.328277 -0.0578344 -0.141604 0 180 235
-0.208213 -0.268852 -0.14941 0 180 235
-0.321852 -0.149788 -0.145051 0 180 235
-0.340775 -0.219479 -0.147654 0 180 235
0.0105613 -0.276802 -0.159824 0 180 235
-0.0865848 -0.295159 -0.155919 0 180 235
-0.332252 -0.0164602 -0.141607 0 180 235
-0.265574 -0.128177 -0.144171 0 180 235
-0.327089 0.0383527 0.0486375 0 180 235
-0.216263 -0.114962 -0.144907 0 180 235
-0.334167 -0.0893396 -0.144148 0 180 235
-0.225051 -0.433762 -0.150893 0 180 235
-0.288827 -0.201858 -0.114233 0 180 235
-0.320948 -0.0266545 -0.141683 0 180 235
-0.120986 -0.364564 -0.151737 0 180 235
-0.281533 -0.261788 -0.148669 0 180 235
-0.303242 -0.337655 -0.150179 0 180 235
-0.333298 0.0402669 0.170647 0 180 235
-0.207428 -0.100326 -0.145203 0 180 235
-0.174336 -0.317819 -0.151374 0 180 235
-0.249679 -0.151978 -0.144703 0 180 235
-0.272694 -0.263024 -0.148366 0 180 235
-0.314035 -0.0320645 -0.14011 0 180 235
-0.341031 -0.104304 -0.147696 0 180 235
-0.252027 -0.219539 -0.147498 0 180 235
-0.324134 -0.0416518 0.114402 0 180 235
-0.193524 -0.094897 -0.14553 0 180 235
-0.28493 -0.00155161 -0.125208 0 180 235
-0.299447 -0.257248 -0.149128 0 180 235
-0.164071 -0.207934 -0.147495 0 180 235
-0.259335 -0.242319 -0.14758 0 180 235
-0.343649 -0.128777 -0.149835 0 180 235
-0.173533 -0.0829072 -0.150049 0 180 235
-0.304262 -0.0390411 -0.0175921 0 180 235
-0.329556 0.051382 0.128875 0 180 235
-0.0501621 -0.349623 -0.17042 0 180 235
-0.169 -0.466578 -0.151716 0 180 235
-0.33452 -0.354179 -0.149485 0 180 235
-0.198208 -0.160264 -0.14528 0 180 235
-0.0667088 -0.392827 -0.151937 0 180 235
-0.32289 -0.39667 -0.14888 0 180 235
-0.240811 -0.3247 -0.150427 0 180 235
-0.309841 -0.140886 -0.145283 0 180 235
-0.286601 -0.00666266 -0.0799293 0 180 235
-0.331651 -0.29274 -0.006559 0 180 235
-0.24771 -0.435656 -0.150498 0 180 235
-0.289476 0.00202362 -0.0911105 0 180 235
-0.300753 -0.164845 -0.145876 0 180 235
-0.282264 -0.0769718 -0.143621 0 180 235
-0.195119 -0.117814 -0.146178 0 180 235
-0.340536 -0.295111 -0.149668 0 180 235
-0.34301 -0.0278757 -0.151583 0 180 235
-0.117373 -0.388488 -0.165074 0 180 235
-0.160322 -0.0975282 -0.150369 0 180 235
-0.280932 -0.00350922 -0.126429 0 180 235
-0.299785 -0.108016 -0.144215 0 180 235
-0.341192 0.0686174 -0.113755 0 180 235
-0.266079 -0.21379 -0.146912 0 180 235
-0.305959 0.0184361 -0.0681278 0 180 235
-0.270485 -0.137254 -0.145524 0 180 235
-0.342433 -0.332368 -0.14879 0 180 235
-0.199375 -0.362803 -0.15074 0 180 235
-0.184832 -0.117816 -0.147112 0 180 235
0.00843569 -0.396375 -0.150492 0 180 235
-0.333894 -0.27302 -0.149608 0 180 235
-0.189988 -0.0870432 -0.146546 0 180 235
-0.118703 -0.167755 -0.152705 0 180 235
-0.271668 -0.0269513 -0.111477 0 180 235
-0.129292 -0.46182 -0.152116 0 180 235
-0.29589 -0.131508 -0.145193 0 180 235
-0.337884 0.0632371 -0.016358 0 180 235
-0.118777 -0.264593 -0.15237 0 180 235
-0.0923908 -0.450747 -0.150234 0 180 235
-0.343767 -0.330559 -0.148632 0 180 235
-0.240498 -0.368096 -0.104182 0 180 235
-0.196483 -0.0875643 -0.15068 0 180 235
-0.288691 -0.048728 -0.14189 0 180 235
-0.341118 -0.0748434 -0.147755 0 180 235
-0.322397 -0.108915 -0.144026 0 180 235
-0.19631 -0.310008 -0.151401 0 180 235
-0.3102 0.0223346 -0.0417568 0 180 235
-0.218396 -0.238244 -0.148746 0 180 235
-0.332849 0.0494711 0.0298335 0 180 235
-0.290092 -0.0453742 -0.0757623 0 180 235
-0.0245943 -0.310758 -0.16072 0 180 235
-0.0854164 -0.349078 -0.152852 0 180 235
-0.340176 -0.212633 -0.147606 0 180 235
-0.332437 0.0468983 0.0109124 0 180 235
-0.332263 0.0515654 0.141776 0 180 235
-0.244109 -0.230885 -0.147855 0 180 235
-0.298313 -0.238771 -0.148343 0 180 235
-0.0614923 -0.310143 -0.158939 0 180 235
-0.336552 -0.449339 -0.145206 0 180 235
-0.213392 -0.195463 -0.14534 0 180 235
0.0295757 -0.390875 -0.152443 0 180 235
-0.32826 0.0278061 -0.0991282 0 180 235
-0.222333 -0.451215 -0.150781 0 180 235
-0.275207 -0.115918 -0.143614 0 180 235
-0.307532 -0.240207 -0.148688 0 180 235
-0.312774 -0.278871 -0.14938 0 180 235
-0.18841 -0.345028 -0.11927 0 180 235
-0.304491 -0.433751 -0.147926 0 180 235
0.0855137 -0.317769 -0.141885 0 180 235
-0.273348 -0.181082 -0.146573 0 180 235
-0.0957852 -0.352503 -0.170707 0 180 235
-0.332809 -0.161266 -0.146514 0 180 235
-0.338443 -0.0963999 -0.145307 0 180 235
-0.0844643 -0.340288 -0.153771 0 180 235
0.0628263 -0.291203 -0.154565 0 180 235
-0.332762 0.046053 -0.0136474 0 180 235
-0.291004 -0.348474 -0.149984 0 180 235
-0.33123 0.0511674 0.0868167 0 180 235
-0.338235 0.0606701 -0.131411 0 180 235
-0.273352 -0.017382 -0.137913 0 180 235
-0.0252597 -0.30669 -0.160733 0 180 235
-0.119283 -0.454437 -0.152287 0 180 235
-0.114716 -0.326263 -0.164686 0 180 235
-0.261728 -0.027844 -0.139729 0 180 235
-0.160385 -0.130242 -0.149238 0 180 235
-0.0488379 -0.279626 -0.160957 0 180 235
-0.324161 -0.357302 -0.150711 0 180 235
-0.228562 -0.313393 -0.150717 0 180 235
-0.0414145 -0.308973 -0.157657 0 180 235
-0.315084 0.028183 0.0457512 0 180 235
-0.342059 -0.38478 -0.144548 0 180 235
-0.0531669 -0.271817 -0.160088 0 180 235
-0.333195 0.0433586 0.14619 0 180 235
-0.257796 -0.256043 -0.14806 0 180 235
-0.214954 -0.20284 -0.144783 0 180 235
-0.343964 -0.0662823 -0.151136 0 180 235
-0.298029 -0.00443868 -0.124784 0 180 235
-0.341147 -0.115003 -0.148364 0 180 235
-0.236478 -0.297124 -0.15039 0 180 235
-0.333471 0.051189 0.146224 0 180 235
-0.0841 -0.434171 -0.149365 0 180 235
-0.320596 0.00389787 -0.123615 0 180 235
-0.258964 -0.178359 -0.146913 0 180 235
-0.294864 0.00645435 -0.0715947 0 180 235
-0.279742 -0.149241 -0.130783 0 180 235
-0.221017 -0.358973 -0.15034 0 180 235
-0.100917 -0.348592 -0.1522 0 180 235
-0.333694 -0.034895 -0.142334 0 180 235
-0.225597 -0.43536 -0.150865 0 180 235
-0.273182 -0.145601 -0.146105 0 180 235
0.0181172 -0.460033 -0.141785 0 180 235
-0.207663 -0.158009 -0.144499 0 180 235
-0.333059 0.0415312 -0.0611801 0 180 235
-0.330493 0.0573534 0.131778 0 180 235
0.184326 -0.36401 -0.136845 0 180 235
-0.248284 -0.14125 -0.143496 0 180 235
-0.343839 -0.190682 -0.148246 0 180 235
-0.275942 -0.445698 -0.149786 0 180 235
-0.333319 0.0508179 0.144262 0 180 235
-0.33424 0.0510795 0.150072 0 180 235
-0.346751 -0.223627 -0.148221 0 180 235
-0.12993 -0.166657 -0.151337 0 180 235
-0.307873 -0.143189 -0.145407 0 180 235
-0.330292 -0.117685 -0.144541 0 180 235
-0.265532 -0.107039 -0.142801 0 180 235
-0.301794 -0.0215591 -0.13407 0 180 235
-0.306237 0.0142987 -0.107482 0 180 235
-0.343128 -0.0715949 -0.150404 0 180 235
-0.298404 -0.132204 -0.145177 0 180 235
-0.344143 -0.140977 -0.149633 0 180 235
-0.118421 -0.370978 -0.151606 0 180 235
0.0208525 -0.269641 -0.154281 0 180 235
-0.222826 -0.273709 -0.149631 0 180 235
-0.262923 -0.433362 -0.150337 0 180 235
-0.308621 -0.35652 -0.150574 0 180 235
-0.0789469 -0.275736 -0.157369 0 180 235
-0.330155 0.0345484 -0.0908246 0 180 235
-0.224191 -0.329258 -0.150749 0 180 235
-0.302333 -0.0763298 -0.144176 0 180 235
0.033788 -0.389998 -0.152919 0 180 235
0.0467061 -0.286962 -0.150168 0 180 235
-0.261468 -0.350213 -0.150023 0 180 235
-0.331448 -0.0347534 -0.141296 0 180 235
0.205532 -0.379456 -0.151038 0 180 235
-0.343415 -0.277654 -0.149137 0 180 235
-0.0812857 -0.230645 -0.15616 0 180 235
-0.0499108 -0.349324 -0.170499 0 180 235
-0.328034 -0.444084 -0.145738 0 180 235
-0.277158 -0.184497 -0.14646 0 180 235
-0.278332 -0.0663682 -0.143586 0 180 235
-0.328436 0.0431194 0.075395 0 180 235
-0.245729 -0.0962628 -0.143884 0 180 235
-0.335472 0.0572867 0.0492209 0 180 235
-0.0483961 -0.284231 -0.161562 0 180 235
-0.205939 -0.388241 -0.150717 0 180 235
-0.319163 0.0292948 0.0113602 0 180 235
-0.326843 -0.273273 -0.033898 0 180 235
-0.0862343 -0.3126 -0.152694 0 180 235
-0.298012 -0.352334 -0.0739693 0 180 235
-0.324233 -0.216731 -0.148674 0 180 235
-0.0152081 -0.298547 -0.168643 0 180 235
-0.143207 -0.113769 -0.151659 0 180 235
-0.193478 -0.19114 -0.145466 0 180 235
-0.334816 0.0572177 -0.108972 0 180 235
-0.344489 -0.0428112 -0.15188 0 180 235
-0.234068 -0.390444 -0.150776 0 180 235
-0.262097 -0.303029 -0.149746 0 180 235
-0.232544 -0.15569 -0.142985 0 180 235
-0.304456 0.0157713 -0.0913202 0 180 235
-0.319413 -0.0238338 -0.14017 0 180 235
-0.0325719 -0.478389 -0.154142 0 180 235
-0.129046 -0.354425 -0.174851 0 180 235
0.100013 -0.348693 -0.165834 0 180 235
-0.134451 -0.135507 -0.152788 0 180 235
-0.0612265 -0.277683 -0.16015 0 180 235
-0.335813 0.0571219 0.0405841 0 180 235
-0.343226 -0.333956 -0.148489 0 180 235
-0.0715505 -0.403899 -0.150133 0 180 235
-0.342695 -0.0585164 -0.1503 0 180 235
-0.24928 -0.11957 -0.142816 0 180 235
-0.169793 -0.365367 -0.151491 0 180 235
-0.338995 -0.394379 -0.144789 0 180 235
-0.341378 -0.0644739 -0.148494 0 180 235
-0.336252 0.0613203 -0.0550191 0 180 235
-0.333917 0.0423367 -0.0837761 0 180 235
-0.235262 -0.208669 -0.147818 0 180 235
-0.21354 -0.170494 -0.143984 0 180 235
-0.346347 -0.385111 -0.143829 0 180 235
-0.274661 -0.0563146 -0.14259 0 180 235
-0.338196 -0.0972399 -0.145153 0 180 235
-0.308931 -0.135862 -0.145171 0 180 235
-0.0951915 -0.335503 -0.15137 0 180 235
0.0947729 -0.477989 -0.134194 0 180 235
-0.33472 -0.230199 -0.148465 0 180 235
-0.292695 -0.104507 -0.107735 0 180 235
-0.295412 -0.093831 -0.143799 0 180 235
-0.337659 0.02826 -0.146006 0 180 235
-0.210867 -0.362801 -0.150432 0 180 235
-0.338991 0.0608694 -0.134703 0 180 235
-0.275847 -0.248815 -0.147872 0 180 235
-0.0579245 -0.406561 -0.148353 0 180 235
-0.339203 0.0496996 -0.144589 0 180 235
-0.323374 -0.0333713 -0.14258 0 180 235
-0.336113 0.050168 -0.0667843 0 180 235
-0.337437 0.011308 0.195003 0 180 235
-0.110681 -0.17218 -0.152821 0 180 235
-0.23199 -0.151242 -0.142973 0 180 235
-0.010617 -0.432199 -0.145168 0 180 235
-0.118353 -0.387317 -0.151615 0 180 235
-0.25804 -0.362395 -0.15016 0 180 235
-0.273879 -0.0745435 -0.143729 0 180 235
-0.113542 -0.252508 -0.153196 0 180 235
-0.253957 -0.32003 -0.150215 0 180 235
-0.189953 -0.307521 -0.15123 0 180 235
-0.196019 -0.14485 -0.145636 0 180 235
-0.296811 -0.0548147 -0.143161 0 180 235
-0.311105 -0.0747808 -0.143941 0 180 235
-0.0813721 -0.407191 -0.1436 0 180 235
-0.115433 -0.382812 -0.166582 0 180 235
-0.196215 -0.316925 -0.151354 0 180 235
-0.332588 0.0423152 0.147937 0 180 235
-0.335023 0.0500889 -0.0249465 0 180 235
-0.32044 -0.0386662 0.0761751 0 180 235
-0.0430316 -0.39137 -0.154459 0 180 235
-0.211801 -0.221854 -0.147495 0 180 235
-0.331116 0.0470918 0.0509641 0 180 235
-0.305758 -0.326067 -0.150175 0 180 235
0.100379 -0.389425 -0.157285 0 180 235
-0.271433 -0.389919 -0.150906 0 180 235
-0.321749 -0.39424 -0.149385 0 180 235
-0.187422 -0.356111 -0.151099 0 180 235
-0.325283 -0.348172 -0.150726 0 180 235
-0.335113 0.0590686 -0.0878497 0 180 235
0.0961222 -0.339263 -0.167048 0 180 235
-0.325223 0.0292182 -0.0848644 0 180 235
-0.306065 -0.101566 -0.0708287 0 180 235
-0.338696 -0.00263234 -0.147126 0 180 235
-0.321474 -0.260624 -0.149301 0 180 235
-0.313965 0.00731378 -0.116112 0 180 235
-0.23162 -0.298272 -0.150538 0 180 235
-0.293724 -0.0798948 -0.144033 0 180 235
-0.333235 -0.0012469 0.163284 0 180 235
-0.330784 0.0292194 -0.10413 0 180 235
-0.319511 -0.236721 -0.149204 0 180 235
-0.280831 -0.362371 -0.150132 0 180 235
-0.024008 -0.309074 -0.16138 0 180 235
-0.332648 -0.10233 -0.144323 0 180 235
-0.089158 -0.347823 -0.151946 0 180 235
-0.331521 -0.0678814 0.227999 0 180 235
-0.319207 -0.282507 -0.149499 0 180 235
-0.328618 -0.143091 -0.144632 0 180 235
-0.33227 -0.107741 0.133399 0 180 235
-0.149019 -0.311707 -0.150756 0 180 235
-0.221087 -0.253564 -0.14908 0 180 235
-0.297071 -0.124785 -0.144997 0 180 235
-0.0726803 -0.320372 -0.157292 0 180 235
-0.271448 -0.111563 -0.142858 0 180 235
-0.248577 -0.0607216 -0.139774 0 180 235
-0.336532 -0.00714828 -0.14394 0 180 235
0.0624298 -0.357936 -0.162198 0 180 235
-0.316872 -0.023894 -0.138776 0 180 235
-0.255638 -0.165751 -0.139794 0 180 235
-0.332394 -0.440464 -0.145338 0 180 235
-0.223038 -0.442153 -0.150762 0 180 235
-0.324681 0.0199024 -0.106462 0 180 235
-0.334198 0.0569099 0.0691872 0 180 235
-0.331021 -0.0471052 0.187612 0 180 235
-0.169078 -0.164245 -0.147866 0 180 235
-0.326877 0.0377491 0.0445393 0 180 235
-0.340983 -0.0455275 -0.148485 0 180 235
-0.324733 -0.0653913 -0.141594 0 180 235
-0.232439 -0.381483 -0.150414 0 180 235
-0.332688 0.0536218 0.0729226 0 180 235
-0.137506 -0.460995 -0.152082 0 180 235
-0.3226 -0.447724 -0.146112 0 180 235
-0.26681 -0.331882 -0.150027 0 180 235
-0.196249 -0.261836 -0.138031 0 180 235
-0.0967414 -0.44759 -0.150074 0 180 235
-0.32954 -0.0866813 -0.143528 0 180 235
-0.345913 -0.42884 -0.144361 0 180 235
-0.0833172 -0.337972 -0.171943 0 180 235
-0.314115 -0.311549 -0.150171 0 180 235
-0.329243 -0.211172 -0.148882 0 180 235
-0.329016 0.0363308 -0.0411591 0 180 235
-0.192197 -0.383982 -0.151087 0 180 235
-0.335609 -0.0837003 -0.144182 0 180 235
-0.34143 -0.0691883 -0.148338 0 180 235
-0.332626 0.0211457 -0.132377 0 180 235
-0.212499 -0.418156 -0.150844 0 180 235
-0.34233 0.0313215 0.268431 0 180 235
-0.122337 -0.221209 -0.152259 0 180 235
0.173987 -0.392045 -0.152127 0 180 235
-0.331484 -0.383716 -0.147463 0 180 235
0.103449 -0.332769 -0.146916 0 180 235
-0.286677 -0.03959 -0.140254 0 180 235
-0.222341 -0.222978 -0.148155 0 180 235
-0.281204 -0.119421 -0.144474 0 180 235
-0.145693 -0.228909 -0.149113 0 180 235
-0.322117 -0.392487 -0.149454 0 180 235
-0.282062 -0.431011 -0.150266 0 180 235
-0.3354 0.055519 0.0296844 0 180 235
-0.338178 -0.309945 -0.150212 0 180 235
-0.0132892 -0.407296 -0.148948 0 180 235
-0.320178 -0.00936628 -0.134021 0 180 235
-0.335588 0.05032 -0.0881674 0 180 235
-0.289513 -0.0792398 -0.143827 0 180 235
-0.172945 -0.341159 -0.151689 0 180 235
-0.326725 0.041215 0.0871647 0 180 235
-0.213831 -0.321136 -0.118973 0 180 235
-0.311744 -0.0955215 -0.0395712 0 180 235
-0.334573 -0.324082 -0.150526 0 180 235
-0.202214 -0.0549423 -0.147749 0 180 235
-0.201108 -0.210381 -0.14582 0 180 235
-0.27126 -0.195341 -0.146727 0 180 235
-0.135601 -0.319573 -0.135538 0 180 235
-0.141373 -0.243953 -0.149638 0 180 235
0.0538345 -0.410158 -0.148892 0 180 235
-0.327332 0.0371691 0.119154 0 180 235
0.0061913 -0.355368 -0.135921 0 180 235
-0.27643 -0.0840166 -0.12083 0 180 235
0.143558 -0.342274 -0.1315 0 180 235
-0.321579 -0.0100319 -0.136901 0 180 235
-0.137008 -0.356179 -0.151842 0 180 235
-0.274265 -0.130716 -0.133746 0 180 235
-0.336233 0.0542396 -0.067469 0 180 235
-0.335032 0.0501872 -0.117184 0 180 235
-0.202913 -0.0731015 -0.146035 0 180 235
-0.293919 -0.204712 -0.14667 0 180 235
-0.317701 -0.0827685 -0.142483 0 180 235
-0.337966 0.0604267 -0.0109298 0 180 235
-0.329525 0.0472364 0.0941451 0 180 235
-0.0381282 -0.339921 -0.15954 0 180 235
-0.302627 -0.240983 -0.148641 0 180 235
-0.32936 0.0395501 0.121216 0 180 235
-0.0413179 -0.244682 -0.152549 0 180 235
-0.196613 -0.128981 -0.145979 0 180 235
-0.215226 -0.0470423 -0.145602 0 180 235
-0.201112 -0.412703 -0.151046 0 180 235
-0.174248 -0.440167 -0.151151 0 180 235
-0.0425295 -0.296685 -0.160901 0 180 235
-0.172653 -0.416722 -0.151729 0 180 235
-0.0835044 -0.249715 -0.156883 0 180 235
-0.328488 0.0332368 -0.0819814 0 180 235
-0.0894309 -0.426065 -0.150528 0 180 235
-0.180447 -0.278798 -0.148896 0 180 235
-0.321698 0.019485 -0.103081 0 180 235
-0.331498 0.0545516 0.104026 0 180 235
-0.332927 -0.224085 -0.148571 0 180 235
-0.194459 -0.139103 -0.145896 0 180 235
-0.100166 -0.319272 -0.159145 0 180 235
-0.0484499 -0.313637 -0.157626 0 180 235
0.188796 -0.367908 -0.151796 0 180 235
-0.325904 0.0300292 -0.0887804 0 180 235
-0.202314 -0.06424 -0.147002 0 180 235
-0.221542 -0.48962 0.421818 32 212 224
-0.300324 -0.140798 0.208554 32 212 224
-0.0492923 -0.492012 0.0526714 32 212 224
-0.265272 -0.475233 -0.108698 32 212 224
-0.211038 -0.490256 -0.116145 32 212 224
-0.311298 -0.292588 -0.00943497 32 212 224
-0.277964 -0.49069 0.406855 32 212 224
0.321207 -0.26011 -0.152378 32 212 224
-0.0733993 -0.489909 0.40291 32 212 224
-0.308361 -0.40396 0.373255 32 212 224
-0.226257 -0.491412 0.217376 32 212 224
-0.122365 -0.491279 0.204879 32 212 224
-0.0306544 -0.490331 0.368376 32 212 224
-0.0742173 -0.0753702 -0.175608 32 212 224
-0.178345 -0.40105 -0.16467 32 212 224
-0.325887 -0.105812 0.0382012 32 212 224
0.115999 -0.490061 0.200063 32 212 224
-0.0412303 -0.436318 -0.159407 32 212 224
0.169449 -0.151773 -0.164067 32 212 224
-0.170464 -0.356192 -0.163646 32 212 224
-0.30622 -0.487499 0.130853 32 212 224
0.213463 -0.226836 -0.158974 32 212 224
-0.0950462 -0.395747 -0.162313 32 212 224
-0.0501772 -0.490618 0.274699 32 212 224
-0.221377 -0.0992279 -0.162421 32 212 224
-0.18421 -0.444716 -0.164243 32 212 224
-0.301488 -0.281126 0.365707 32 212 224
0.32012 -0.31387 -0.150813 32 212 224
0.137374 -0.22666 -0.164109 32 212 224
-0.278005 -0.489561 0.380038 32 212 224
0.267456 -0.156469 -0.15631 32 212 224
0.00194755 -0.101767 -0.175912 32 212 224
-0.0748412 -0.338951 -0.166983 32 212 224
-0.222763 -0.37908 -0.161943 32 212 224
-0.200554 -0.491918 0.1763 32 212 224
-0.322985 -0.0496598 0.0484598 32 212 224
0.193323 -0.299788 -0.157021 32 212 224
-0.0912904 -0.490623 -0.139444 32 212 224
-0.313572 -0.441317 0.322343 32 212 224
-0.00759537 -0.490548 0.367848 32 212 224
-0.24484 -0.0463921 -0.162648 32 212 224
0.26368 -0.391203 -0.148249 32 212 224
0.289507 -0.166898 -0.156962 32 212 224
0.216075 -0.278232 -0.156562 32 212 224
0.141767 -0.487533 -0.0423625 32 212 224
-0.31115 -0.451006 0.0648653 32 212 224
-0.231901 -0.454856 -0.156387 32 212 224
0.370005 -0.319573 -0.152294 32 212 224
-0.20796 -0.108182 -0.163312 32 212 224
0.249125 -0.161766 -0.15754 32 212 224
0.260515 -0.166891 -0.156561 32 212 224
0.159675 -0.0725383 -0.165468 32 212 224
-0.158228 -0.148813 -0.165859 32 212 224
-0.311134 -0.040769 -0.139116 32 212 224
-0.00619405 -0.491658 0.202466 32 212 224
-0.0701494 -0.441908 -0.16081 32 212 224
-0.323245 -0.456353 0.251623 32 212 224
-0.142788 -0.110503 -0.169135 32 212 224
-0.322447 -0.439662 0.257935 32 212 224
0.172991 -0.487322 -0.0644275 32 212 224
-0.154241 -0.156025 -0.1659 32 212 224
-0.310252 -0.113955 -0.124913 32 212 224
0.190122 -0.487782 -0.109243 32 212 224
0.210461 -0.107819 -0.160695 32 212 224
-0.00967278 -0.295491 -0.169535 32 212 224
0.221468 -0.300718 -0.154959 32 212 224
-0.047584 -0.492045 0.174382 32 212 224
0.403837 -0.331809 -0.155861 32 212 224
0.332561 -0.396189 -0.147545 32 212 224
0.316594 -0.37366 -0.148099 32 212 224
-0.300731 -0.217253 0.316302 32 212 224
-0.0378109 -0.490779 0.268219 32 212 224
-0.322377 -0.4603 0.262073 32 212 224
-0.0473261 -0.491935 0.0123416 32 212 224
0.411032 -0.336902 -0.156821 32 212 224
0.0795335 -0.422533 -0.156843 32 212 224
-0.298813 -0.113074 0.236886 32 212 224
0.217413 -0.487561 -0.0543657 32 212 224
0.32215 -0.306381 -0.151097 32 212 224
-0.219818 -0.448978 -0.161883 32 212 224
-0.294685 -0.486343 0.00796942 32 212 224
-0.305487 -0.090259 0.177329 32 212 224
-0.170364 -0.491983 0.161943 32 212 224
-0.275013 -0.49096 0.00562793 32 212 224
-0.0955253 -0.489384 0.347986 32 212 224
-0.0130617 -0.323931 -0.16752 32 212 224
0.224906 -0.486944 -0.0280839 32 212 224
-0.27128 -0.48596 -0.0622225 32 212 224
0.049028 -0.107016 -0.173244 32 212 224
-0.315881 -0.285657 0.051877 32 212 224
-0.0263124 -0.49112 -0.0523555 32 212 224
-0.30818 -0.439436 0.385082 32 212 224
0.375418 -0.256808 -0.153815 32 212 224
0.186723 -0.487112 0.0847906 32 212 224
-0.311594 -0.475927 0.0764208 32 212 224
-0.30795 -0.170133 -0.125019 32 212 224
0.402605 -0.39962 -0.152727 32 212 224
0.105563 -0.336135 -0.163206 32 212 224
-0.305028 -0.350316 0.378273 32 212 224
-0.301553 -0.27788 0.36113 32 212 224
-0.102046 -0.490608 0.264797 32 212 224
-0.313168 -0.310551 0.0295328 32 212 224
0.145452 -0.356603 -0.157745 32 212 224
0.023091 -0.490529 0.30341 32 212 224
-0.134302 -0.490969 0.224845 32 212 224
-0.322244 -0.392154 0.21365 32 212 224
0.331988 -0.38248 -0.148364 32 212 224
-0.320752 -0.342164 0.185984 32 212 224
-0.0527145 -0.0709321 -0.177308 32 212 224
-0.254048 -0.489745 0.22458 32 212 224
0.0707124 -0.0643235 -0.173293 32 212 224
-0.0796349 -0.36857 -0.163901 32 212 224
-0.129298 -0.399198 -0.164246 32 212 224
0.0197501 -0.491472 0.182601 32 212 224
0.354114 -0.307727 -0.151266 32 212 224
0.193514 -0.459576 -0.146914 32 212 224
-0.300266 -0.188128 0.309696 32 212 224
-0.291493 -0.491036 0.373892 32 212 224
0.125277 -0.314475 -0.162916 32 212 224
-0.302499 -0.487389 0.275515 32 212 224
0.279139 -0.172794 -0.156942 32 212 224
0.155595 -0.232856 -0.162797 32 212 224
-0.086569 -0.491208 0.223955 32 212 224
-0.230307 -0.226359 -0.159459 32 212 224
0.164373 -0.488173 0.142368 32 212 224
0.0212703 -0.312755 -0.167856 32 212 224
-0.0826396 -0.121575 -0.172396 32 212 224
-0.284099 -0.488896 0.194875 32 212 224
0.137531 -0.155831 -0.166566 32 212 224
0.167036 -0.219159 -0.162651 32 212 224
-0.140656 -0.117612 -0.168946 32 212 224
0.0120283 -0.490559 0.00471188 32 212 224
0.0358942 -0.491071 0.16742 32 212 224
-0.206285 -0.480779 -0.147524 32 212 224
-0.0644222 -0.490424 0.283667 32 212 224
-0.248019 -0.49129 0.193608 32 212 224
-0.298538 -0.220388 0.347292 32 212 224
0.0469209 -0.489656 -0.0240023 32 212 224
-0.260316 -0.488951 0.37372 32 212 224
-0.31357 -0.170796 -0.0950541 32 212 224
0.0498899 -0.304628 -0.167802 32 212 224
0.0654711 -0.48997 0.129729 32 212 224
-0.324893 -0.469155 0.229822 32 212 224
-0.0337373 -0.490672 -0.12143 32 212 224
0.430386 -0.362942 -0.158179 32 212 224
-0.0324102 -0.0727271 -0.178212 32 212 224
-0.158212 -0.493245 -0.00711646 32 212 224
-0.185939 -0.304612 -0.163328 32 212 224
0.122 -0.488503 0.104674 32 212 224
0.205665 -0.457757 -0.146927 32 212 224
-0.307384 -0.344039 0.305885 32 212 224
-0.086978 -0.491667 0.187201 32 212 224
-0.165802 -0.493222 -0.0180256 32 212 224
-0.317323 -0.469043 0.327164 32 212 224
-0.00969569 -0.0560392 -0.178026 32 212 224
-0.00462992 -0.138668 -0.174775 32 212 224
-0.310328 -0.0965903 -0.127097 32 212 224
-0.0346841 -0.491872 0.192236 32 212 224
0.00438477 -0.490288 -0.0874794 32 212 224
0.301042 -0.223603 -0.156607 32 212 224
-0.151806 -0.489029 0.373653 32 212 224
-0.302725 -0.447233 -0.0134474 32 212 224
-0.174884 -0.493567 0.0156574 32 212 224
-0.31786 -0.484695 0.199473 32 212 224
0.365671 -0.297798 -0.152021 32 212 224
0.0116593 -0.15505 -0.173989 32 212 224
-0.304887 -0.337837 -0.059747 32 212 224
-0.305386 -0.441172 0.426044 32 212 224
0.136588 -0.487752 0.00183242 32 212 224
-0.323947 -0.205222 0.116475 32 212 224
0.140135 -0.4877 -0.0792605 32 212 224
0.26537 -0.265645 -0.155061 32 212 224
-0.313583 -0.333101 0.0450101 32 212 224
-0.322337 -0.161441 0.101327 32 212 224
-0.290586 -0.492467 0.417791 32 212 224
-0.185017 -0.417306 -0.164667 32 212 224
0.243091 -0.176951 -0.157672 32 212 224
0.4101 -0.327637 -0.156741 32 212 224
-0.200817 -0.0836617 -0.165417 32 212 224
-0.289389 -0.0671269 -0.154965 32 212 224
-0.324591 -0.110051 0.0698452 32 212 224
-0.00939655 -0.345598 -0.165315 32 212 224
0.228429 -0.31175 -0.153846 32 212 224
-0.317816 -0.238413 0.146564 32 212 224
-0.32001 -0.0278625 0.0425218 32 212 224
0.12229 -0.322097 -0.162648 32 212 224
0.318612 -0.385747 -0.147391 32 212 224
0.205402 -0.313134 -0.154451 32 212 224
-0.322413 -0.442804 0.261547 32 212 224
0.341644 -0.286464 -0.151458 32 212 224
-0.326736 -0.44094 0.214098 32 212 224
-0.27816 -0.085789 -0.155437 32 212 224
0.230973 -0.170573 -0.158806 32 212 224
-0.100023 -0.194131 -0.168413 32 212 224
-0.324335 -0.0384473 -0.0449619 32 212 224
-0.283365 -0.488186 -0.0117847 32 212 224
-0.309029 -0.363292 -7.25528e-05 32 212 224
0.0140329 -0.49098 0.265325 32 212 224
0.176489 -0.394483 -0.149536 32 212 224
-0.0255022 -0.490399 0.295252 32 212 224
-0.323282 -0.360062 0.180883 32 212 224
-0.176106 -0.0341902 -0.170634 32 212 224
0.0812702 -0.359184 -0.161578 32 212 224
0.244788 -0.374121 -0.149501 32 212 224
-0.144977 -0.266115 -0.167397 32 212 224
-0.235538 -0.467357 -0.14644 32 212 224
-0.198522 -0.0509483 -0.167524 32 212 224
-0.0209139 -0.346463 -0.16554 32 212 224
-0.312665 -0.317403 0.0268141 32 212 224
-0.209776 -0.24924 -0.161501 32 212 224
-0.289855 -0.147661 0.34393 32 212 224
0.32086 -0.287106 -0.151663 32 212 224
0.246432 -0.486481 -0.104698 32 212 224
0.0464137 -0.455569 -0.155564 32 212 224
-0.308038 -0.434528 0.340765 32 212 224
0.364371 -0.387434 -0.149979 32 212 224
0.200842 -0.487033 0.0978569 32 212 224
0.266077 -0.279099 -0.154097 32 212 224
-0.246677 -0.438883 -0.15325 32 212 224
-0.322925 -0.164076 0.025502 32 212 224
0.276607 -0.180034 -0.157354 32 212 224
0.0313717 -0.365207 -0.162231 32 212 224
-0.285362 -0.119022 -0.151892 32 212 224
-0.142891 -0.490722 0.245055 32 212 224
-0.316316 -0.0922015 0.101385 32 212 224
0.250495 -0.483211 -0.136446 32 212 224
-0.152563 -0.492581 -0.0689765 32 212 224
0.411002 -0.31707 -0.156799 32 212 224
0.0975113 -0.39891 -0.156895 32 212 224
0.167061 -0.48806 0.133399 32 212 224
-0.30247 -0.487685 0.173003 32 212 224
-0.0882885 -0.109459 -0.172765 32 212 224
-0.299809 -0.187124 0.237631 32 212 224
-0.0736976 -0.106351 -0.173823 32 212 224
0.018534 -0.490238 -0.0314033 32 212 224
-0.0421482 -0.27912 -0.169947 32 212 224
0.0695136 -0.215538 -0.169039 32 212 224
-0.140806 -0.372615 -0.163455 32 212 224
0.340451 -0.424749 -0.145888 32 212 224
-0.106679 -0.0689157 -0.174193 32 212 224
0.142344 -0.487552 -0.00621386 32 212 224
-0.326424 -0.445868 0.200129 32 212 224
-0.30168 -0.488446 0.0794045 32 212 224
0.174739 -0.260259 -0.160879 32 212 224
-0.297352 -0.266436 -0.135413 32 212 224
0.214822 -0.388771 -0.149287 32 212 224
-0.323161 -0.427776 0.148472 32 212 224
0.400221 -0.287443 -0.155678 32 212 224
-0.00176026 -0.230839 -0.169949 32 212 224
-0.313198 -0.485117 0.167269 32 212 224
-0.318486 -0.483975 0.307452 32 212 224
-0.304132 -0.0901086 0.185312 32 212 224
0.162951 -0.324937 -0.15851 32 212 224
-0.29472 -0.222174 0.368033 32 212 224
0.156151 -0.487989 -0.10703 32 212 224
-0.3226 -0.0274862 -0.0764939 32 212 224
-0.309238 -0.490123 0.347972 32 212 224
0.0509861 -0.286188 -0.169087 32 212 224
-0.296932 -0.090293 -0.151408 32 212 224
0.285454 -0.431528 -0.143663 32 212 224
0.19028 -0.486803 -0.0118676 32 212 224
0.272112 -0.455981 -0.145249 32 212 224
0.147857 -0.125363 -0.165941 32 212 224
0.34422 -0.337341 -0.150263 32 212 224
-0.298517 -0.47422 -0.00282276 32 212 224
-0.322024 -0.455859 0.275815 32 212 224
-0.29383 -0.0846681 -0.152985 32 212 224
-0.240371 -0.492588 0.118736 32 212 224
-0.181391 -0.492668 -0.0801395 32 212 224
-0.191946 -0.488041 0.321288 32 212 224
0.199192 -0.223257 -0.160283 32 212 224
0.247711 -0.414384 -0.147063 32 212 224
-0.31536 -0.354191 0.249172 32 212 224
0.0616578 -0.304549 -0.167492 32 212 224
-0.0941962 -0.491166 0.223409 32 212 224
-0.247377 -0.491389 0.191945 32 212 224
-0.161574 -0.455838 -0.163749 32 212 224
0.0810803 -0.490819 0.254154 32 212 224
-0.296066 -0.468291 -0.0379621 32 212 224
-0.304412 -0.339745 -0.063346 32 212 224
0.00592678 -0.490725 0.0107002 32 212 224
-0.313252 -0.209762 -0.0687041 32 212 224
0.266736 -0.296789 -0.152345 32 212 224
-0.276025 -0.249383 -0.151414 32 212 224
-0.321024 -0.480239 0.269632 32 212 224
0.224455 -0.239094 -0.156719 32 212 224
-0.194536 -0.493626 -0.0155014 32 212 224
-0.317712 -0.16869 -0.0574241 32 212 224
0.238719 -0.487537 -0.0727132 32 212 224
-0.109064 -0.491893 -0.103126 32 212 224
-0.215692 -0.170607 -0.160169 32 212 224
-0.241708 -0.0381827 -0.163534 32 212 224
-0.149139 -0.489494 0.309918 32 212 224
-0.297702 -0.313394 -0.115368 32 212 224
-0.323395 -0.169193 0.0423862 32 212 224
0.275096 -0.228128 -0.157363 32 212 224
-0.306556 -0.353245 0.356208 32 212 224
-0.316525 -0.483615 0.157913 32 212 224
-0.282455 -0.490882 0.397507 32 212 224
-0.268818 -0.488569 0.232489 32 212 224
-0.00705823 -0.490344 -0.123327 32 212 224
-0.255452 -0.196516 -0.1564 32 212 224
-0.324719 -0.46991 0.184974 32 212 224
-0.304125 -0.280508 0.31011 32 212 224
-0.226458 -0.487963 0.317831 32 212 224
-0.325272 -0.0805308 0.00778549 32 212 224
-0.301456 -0.129893 -0.14211 32 212 224
-0.140577 -0.490483 0.270084 32 212 224
-0.319355 -0.0533069 -0.0872606 32 212 224
0.266276 -0.152373 -0.156404 32 212 224
0.122167 -0.490326 0.226415 32 212 224
-0.317042 -0.132266 -0.0768816 32 212 224
-0.318917 -0.326472 0.122754 32 212 224
-0.172719 -0.473371 -0.159441 32 212 224
0.345037 -0.271469 -0.152009 32 212 224
0.358337 -0.27678 -0.151842 32 212 224
0.368982 -0.272981 -0.152181 32 212 224
-0.309669 -0.0811019 -0.133623 32 212 224
0.218087 -0.18679 -0.159447 32 212 224
-0.0576131 -0.492026 0.173072 32 212 224
-0.0789031 -0.491274 -0.128214 32 212 224
0.269865 -0.397826 -0.147442 32 212 224
0.257142 -0.358709 -0.150007 32 212 224
0.241695 -0.281612 -0.155749 32 212 224
0.391553 -0.2828 -0.154649 32 212 224
-0.281466 -0.492487 0.436059 32 212 224
-0.041119 -0.490897 0.259281 32 212 224
-0.305137 -0.307574 0.294987 32 212 224
-0.0744817 -0.491062 0.239669 32 212 224
0.223495 -0.309291 -0.154262 32 212 224
-0.19893 -0.119145 -0.163666 32 212 224
0.293492 -0.187139 -0.157829 32 212 224
0.223159 -0.156227 -0.159569 32 212 224
0.0287372 -0.271239 -0.169984 32 212 224
-0.313096 -0.440286 0.323429 32 212 224
-0.315468 -0.163966 -0.0820978 32 212 224
-0.149971 -0.489333 0.396777 32 212 224
-0.174123 -0.490522 0.263433 32 212 224
-0.316985 -0.357775 0.241279 32 212 224
-0.323598 -0.0860207 -0.0145905 32 212 224
0.00852172 -0.490766 0.0791869 32 212 224
0.0228366 -0.489973 -0.113788 32 212 224
-0.287399 -0.0392234 -0.156769 32 212 224
-0.209293 -0.493614 0.0280267 32 212 224
-0.0917236 -0.491738 0.179679 32 212 224
-0.163992 -0.384334 -0.163321 32 212 224
-0.312942 -0.35488 0.26413 32 212 224
-0.32283 -0.48315 0.194598 32 212 224
0.161901 -0.355289 -0.155447 32 212 224
0.0789358 -0.458367 -0.154725 32 212 224
-0.325364 -0.0687611 0.00382298 32 212 224
-0.079528 -0.492375 -0.0262476 32 212 224
-0.299902 -0.215349 0.330557 32 212 224
0.0487471 -0.406765 -0.156914 32 212 224
-0.219219 -0.491969 -0.0721986 32 212 224
0.0137747 -0.490527 0.00744997 32 212 224
0.130556 -0.489589 0.187708 32 212 224
-0.138258 -0.163125 -0.166908 32 212 224
-0.0417785 -0.490903 0.258702 32 212 224
0.277804 -0.222697 -0.157504 32 212 224
-0.319751 -0.465043 0.304251 32 212 224
-0.017248 -0.491326 0.0681484 32 212 224
0.187964 -0.487781 -0.0789321 32 212 224
-0.317391 -0.0668217 -0.0981834 32 212 224
-0.0349841 -0.490717 -0.114618 32 212 224
0.32516 -0.196733 -0.157337 32 212 224
0.326281 -0.331853 -0.1499 32 212 224
-0.045208 -0.107336 -0.175562 32 212 224
0.0811475 -0.363867 -0.161042 32 212 224
-0.314158 -0.414721 0.0854468 32 212 224
-0.251148 -0.492618 0.0879204 32 212 224
-0.0569808 -0.356898 -0.165057 32 212 224
0.327052 -0.412031 -0.146121 32 212 224
-0.141352 -0.118755 -0.168818 32 212 224
-0.311629 -0.0532645 0.152851 32 212 224
-0.231432 -0.49297 0.0802423 32 212 224
-0.313757 -0.324843 0.0434639 32 212 224
0.225595 -0.147209 -0.159416 32 212 224
-0.257725 -0.487485 0.288739 32 212 224
-0.317683 -0.319098 0.183102 32 212 224
-0.298614 -0.0273384 -0.153481 32 212 224
0.413548 -0.379803 -0.155381 32 212 224
-0.04127 -0.49095 -0.100026 32 212 224
0.259204 -0.484917 -0.122383 32 212 224
-0.219967 -0.493224 0.0610913 32 212 224
-0.28216 -0.108053 -0.153156 32 212 224
-0.166898 -0.489379 0.401406 32 212 224
0.0418578 -0.183138 -0.171839 32 212 224
-0.165892 -0.491751 0.173124 32 212 224
-0.105077 -0.491904 -0.0963409 32 212 224
-0.316924 -0.486179 0.235639 32 212 224
-0.303285 -0.317546 0.375484 32 212 224
0.168618 -0.203018 -0.162939 32 212 224
-0.300811 -0.487576 0.0492205 32 212 224
-0.293959 -0.312209 -0.132746 32 212 224
-0.13573 -0.492902 -0.0159167 32 212 224
-0.00950256 -0.491712 0.198403 32 212 224
-0.302006 -0.26455 0.33581 32 212 224
0.117471 -0.171159 -0.167514 32 212 224
-0.0149834 -0.491577 0.216948 32 212 224
0.181954 -0.487001 0.0739044 32 212 224
0.248334 -0.369786 -0.149646 32 212 224
-0.0410518 -0.162071 -0.173044 32 212 224
-0.103391 -0.168795 -0.169185 32 212 224
-0.199405 -0.16295 -0.161315 32 212 224
0.209166 -0.470367 -0.1441 32 212 224
0.0423038 -0.14529 -0.172863 32 212 224
-0.0523447 -0.492052 0.0342203 32 212 224
-0.301843 -0.30519 0.38304 32 212 224
0.136507 -0.489591 0.193472 32 212 224
-0.281859 -0.483988 -0.0464587 32 212 224
0.186614 -0.376505 -0.150488 32 212 224
0.0544196 -0.354067 -0.162833 32 212 224
-0.319932 -0.279014 0.0979218 32 212 224
0.185926 -0.230378 -0.160631 32 212 224
-0.325121 -0.46447 0.19888 32 212 224
-0.121461 -0.490969 0.228058 32 212 224
0.229304 -0.227683 -0.157714 32 212 224
0.0456577 -0.184549 -0.171632 32 212 224
-0.242894 -0.493244 0.0246819 32 212 224
-0.274538 -0.489838 0.397151 32 212 224
0.188178 -0.486678 0.0169552 32 212 224
-0.314849 -0.054141 -0.120866 32 212 224
0.0475925 -0.335362 -0.164974 32 212 224
-0.309259 -0.429036 0.377792 32 212 224
0.418206 -0.314865 -0.15773 32 212 224
-0.3205 -0.123305 0.0955716 32 212 224
0.271465 -0.354113 -0.149872 32 212 224
-0.170132 -0.492429 0.124511 32 212 224
0.0568763 -0.209135 -0.170118 32 212 224
-0.115622 -0.490764 0.247625 32 212 224
0.00408941 -0.43721 -0.157743 32 212 224
0.0136108 -0.293079 -0.169392 32 212 224
-0.281845 -0.490517 0.390995 32 212 224
0.0892302 -0.222813 -0.167445 32 212 224
-0.313441 -0.42942 0.312023 32 212 224
-0.256591 -0.489642 0.422264 32 212 224
0.337581 -0.217886 -0.155757 32 212 224
-0.213985 -0.488567 0.365459 32 212 224
-0.287209 -0.491402 0.423525 32 212 224
0.24397 -0.48496 -0.126168 32 212 224
-0.115938 -0.4919 -0.127869 32 212 224
-0.0575363 -0.492159 0.0291006 32 212 224
0.240106 -0.125772 -0.158142 32 212 224
0.413957 -0.362189 -0.156374 32 212 224
-0.0878393 -0.252079 -0.170235 32 212 224
0.105592 -0.117121 -0.169339 32 212 224
0.356254 -0.268789 -0.15227 32 212 224
-0.0777775 -0.489827 0.393185 32 212 224
0.333904 -0.255549 -0.152798 32 212 224
0.391775 -0.341318 -0.154125 32 212 224
-0.187107 -0.172063 -0.162276 32 212 224
0.361527 -0.264723 -0.152682 32 212 224
-0.278684 -0.334219 -0.142944 32 212 224
0.0587768 -0.490812 0.287979 32 212 224
-0.318038 -0.127402 -0.0656528 32 212 224
-0.306023 -0.326797 0.291149 32 212 224
-0.0305041 -0.49208 0.169645 32 212 224
-0.171803 -0.493419 -0.00609491 32 212 224
-0.127852 -0.492218 -0.0949261 32 212 224
-0.303336 -0.488199 0.0996001 32 212 224
-0.315352 -0.0212682 -0.130556 32 212 224
0.157643 -0.487656 -0.0882541 32 212 224
0.138132 -0.193793 -0.165267 32 212 224
-0.0814192 -0.491695 0.187627 32 212 224
-0.108043 -0.492924 0.055361 32 212 224
-0.300386 -0.182693 0.305667 32 212 224
0.245969 -0.485058 -0.124636 32 212 224
0.124892 -0.389267 -0.157421 32 212 224
-0.135515 -0.489178 0.376078 32 212 224
-0.0705723 -0.491838 -0.0586593 32 212 224
-0.317659 -0.222979 -0.00734906 32 212 224
-0.154339 -0.490827 -0.137983 32 212 224
-0.303867 -0.396217 0.415619 32 212 224
0.0477915 -0.0766818 -0.174197 32 212 224
-0.295593 -0.490393 0.343791 32 212 224
0.0712971 -0.299664 -0.167852 32 212 224
-0.15838 -0.253481 -0.166188 32 212 224
-0.0604512 -0.492289 0.0869596 32 212 224
-0.30312 -0.291423 0.349883 32 212 224
-0.214734 -0.493647 0.0196876 32 212 224
-0.258107 -0.487843 0.312538 32 212 224
-0.325207 -0.425879 0.220588 32 212 224
-0.310091 -0.443921 0.0570994 32 212 224
0.221936 -0.487125 -0.104612 32 212 224
-0.229389 -0.152284 -0.158602 32 212 224
0.127183 -0.0806732 -0.168139 32 212 224
0.0502021 -0.489714 0.0302089 32 212 224
0.27765 -0.243406 -0.155456 32 212 224
-0.0467272 -0.490867 -0.12444 32 212 224
0.0932782 -0.489045 0.0995592 32 212 224
-0.130134 -0.418352 -0.164554 32 212 224
0.248665 -0.446974 -0.146948 32 212 224
-0.32259 -0.136155 -0.00417433 32 212 224
-0.299686 -0.486367 0.220804 32 212 224
-0.298846 -0.143499 0.217446 32 212 224
-0.0258101 -0.49055 -0.12844 32 212 224
-0.209185 -0.489504 0.270075 32 212 224
-0.0619338 -0.490969 -0.133044 32 212 224
0.11165 -0.238974 -0.166113 32 212 224
-0.0762994 -0.464522 -0.15977 32 212 224
0.204499 -0.421888 -0.147466 32 212 224
0.279978 -0.41258 -0.145441 32 212 224
-0.306124 -0.24064 -0.106582 32 212 224
0.0301339 -0.16944 -0.172618 32 212 224
-0.316512 -0.223048 -0.020576 32 212 224
0.343476 -0.371027 -0.149525 32 212 224
0.136751 -0.458543 -0.149554 32 212 224
-0.323242 -0.0180383 -0.0794112 32 212 224
0.405821 -0.316728 -0.156014 32 212 224
-0.157337 -0.404421 -0.164575 32 212 224
-0.284795 -0.492906 0.435898 32 212 224
-0.319296 -0.483978 0.0802318 64 236 211
-0.328392 -0.188234 0.137116 64 236 211
-0.335345 -0.0202859 -0.13618 64 236 211
-0.277012 -0.487219 -0.000274025 64 236 211
-0.251453 -0.377008 -0.174067 64 236 211
-0.0576787 -0.484123 -0.00808915 64 236 211
-0.324726 -0.147885 0.298446 64 236 211
-0.0440916 -0.482336 0.0196131 64 236 211
-0.326035 -0.15868 0.215315 64 236 211
-0.00948739 -0.16507 -0.175025 64 236 211
-0.266313 -0.138969 -0.168986 64 236 211
-0.330624 -0.221656 0.409532 64 236 211
-0.153658 -0.475642 0.207284 64 236 211
0.0107207 -0.455431 -0.178375 64 236 211
-0.312704 -0.35607 -0.169541 64 236 211
-0.196865 -0.430064 -0.173767 64 236 211
-0.327312 -0.179173 0.144502 64 236 211
-0.00956915 -0.473889 0.143922 64 236 211
-0.316789 -0.486972 -0.111932 64 236 211
-0.327745 -0.0891639 0.336601 64 236 211
-0.308614 -0.250626 -0.171496 64 236 211
-0.273188 -0.480478 0.243389 64 236 211
-0.377077 -0.475246 0.339094 64 236 211
-0.340063 -0.434767 0.0121863 64 236 211
-0.342072 -0.365439 0.0297554 64 236 211
-0.343508 -0.321243 0.320645 64 236 211
-0.338616 -0.477084 0.26635 64 236 211
-0.338126 -0.0291567 0.0242191 64 236 211
-0.326895 -0.487024 0.030818 64 236 211
-0.279326 -0.0175388 -0.162013 64 236 211
-0.271925 -0.481145 0.236818 64 236 211
-0.071142 -0.0506255 -0.169874 64 236 211
-0.351176 -0.33115 0.362067 64 236 211
-0.27065 -0.298469 -0.174703 64 236 211
