ply
format ascii 1.0
comment Created by Open3D
element vertex 1162
property double x
property double y
property double z
property uchar red
property uchar green
property uchar blue
end_header
0.0682613 -0.471951 -0.258337 128 254 179
0.218739 -0.349862 0.2814 128 254 179
0.221118 -0.332819 0.296095 128 254 179
0.179638 -0.470779 -0.165072 128 254 179
0.14358 -0.475059 -0.249222 128 254 179
0.207671 -0.472019 0.291247 128 254 179
-0.147663 -0.469659 0.0199811 128 254 179
0.0528415 -0.487118 0.343311 128 254 179
0.220626 -0.316217 -0.01876 128 254 179
0.118367 -0.483232 0.112375 128 254 179
0.0849847 -0.483247 0.143199 128 254 179
0.0923052 -0.487139 0.278523 128 254 179
0.211236 -0.455349 0.211551 128 254 179
0.204616 -0.485865 0.0889979 128 254 179
0.180461 -0.476446 -0.0796866 128 254 179
0.214888 -0.443936 0.00488931 128 254 179
-0.272743 -0.459677 -0.0936006 128 254 179
0.220222 -0.270529 -0.0397108 128 254 179
0.133862 -0.484579 0.116594 128 254 179
-0.21951 -0.473997 0.163734 128 254 179
0.217863 -0.372993 0.285997 128 254 179
0.222283 -0.267706 0.31587 128 254 179
0.225873 -0.239247 0.172995 128 254 179
0.21736 -0.38601 0.112525 128 254 179
0.124222 -0.486058 0.165338 128 254 179
-0.126053 -0.469595 -0.00212 128 254 179
0.222496 -0.328473 0.312017 128 254 179
0.220748 -0.269776 -0.019687 128 254 179
0.221773 -0.40443 0.343674 128 254 179
-0.11444 -0.486558 0.363605 128 254 179
-0.0426571 -0.487022 0.360026 128 254 179
0.222673 -0.286215 0.315434 128 254 179
0.114536 -0.486719 0.219294 128 254 179
0.220291 -0.377955 0.301126 128 254 179
0.214433 -0.418626 -0.0289159 128 254 179
0.199825 -0.455057 -0.176883 128 254 179
-0.122548 -0.486339 0.314763 128 254 179
0.22406 -0.267234 0.248594 128 254 179
0.209117 -0.478542 0.336037 128 254 179
0.218344 -0.377742 0.109682 128 254 179
0.216547 -0.426453 0.324755 128 254 179
0.210376 -0.44447 0.296635 128 254 179
0.189389 -0.457027 0.363196 128 254 179
0.188181 -0.463888 0.364687 128 254 179
0.0519098 -0.473049 -0.154686 128 254 179
0.219656 -0.264777 -0.109591 128 254 179
0.215786 -0.445918 0.0540151 128 254 179
0.217355 -0.395333 0.147412 128 254 179
0.214301 -0.420919 0.0162586 128 254 179
0.218303 -0.367058 0.0727457 128 254 179
-0.097949 -0.469969 -0.0178346 128 254 179
0.0149543 -0.487693 0.387428 128 254 179
0.226099 -0.244259 0.128541 128 254 179
0.219443 -0.35626 0.0402248 128 254 179
0.213227 -0.463343 0.315236 128 254 179
0.0939975 -0.487133 0.278422 128 254 179
-0.140186 -0.486194 0.312243 128 254 179
0.218992 -0.366928 0.0890737 128 254 179
0.211615 -0.394733 -0.223554 128 254 179
0.215691 -0.383752 -0.030045 128 254 179
-0.19768 -0.464646 -0.0527733 128 254 179
0.207031 -0.458237 0.040769 128 254 179
0.215836 -0.399891 0.21969 128 254 179
-0.00447151 -0.487095 0.306785 128 254 179
0.223874 -0.258277 0.25709 128 254 179
0.210827 -0.463058 0.230716 128 254 179
0.224104 -0.27234 0.24387 128 254 179
0.150011 -0.486609 0.221673 128 254 179
0.0859685 -0.486588 0.217397 128 254 179
-0.132562 -0.46543 -0.110022 128 254 179
0.151265 -0.485261 0.374632 128 254 179
0.2197 -0.254421 0.325714 128 254 179
0.0256524 -0.487273 0.285142 128 254 179
-0.12459 -0.461961 -0.25918 128 254 179
0.220615 -0.336169 0.227773 128 254 179
0.220951 -0.314718 0.265663 128 254 179
0.211681 -0.464966 0.214659 128 254 179
0.218248 -0.364396 -0.140347 128 254 179
0.224452 -0.28184 0.0729963 128 254 179
0.0817496 -0.487811 0.379782 128 254 179
-0.195519 -0.4617 -0.134266 128 254 179
0.223691 -0.325443 0.186419 128 254 179
0.185234 -0.462321 -0.217194 128 254 179
0.145179 -0.475839 -0.222313 128 254 179
-0.0130146 -0.487016 0.316044 128 254 179
0.177498 -0.486706 0.248373 128 254 179
0.226008 -0.260315 0.131436 128 254 179
0.0981581 -0.487704 0.373114 128 254 179
0.222724 -0.325312 0.320648 128 254 179
0.206668 -0.446054 -0.111509 128 254 179
0.214372 -0.429411 0.0728833 128 254 179
-0.0810941 -0.486944 0.371212 128 254 179
-0.156307 -0.477813 0.203086 128 254 179
-0.120752 -0.480501 0.229369 128 254 179
0.0774112 -0.487288 0.359301 128 254 179
0.146354 -0.483801 0.0847006 128 254 179
0.159535 -0.486003 0.165469 128 254 179
0.215007 -0.430368 0.145667 128 254 179
-0.0920836 -0.474386 0.109348 128 254 179
0.221222 -0.350083 0.0901733 128 254 179
0.222464 -0.320181 0.213627 128 254 179
0.220914 -0.360627 0.328584 128 254 179
0.207159 -0.46002 0.0207978 128 254 179
0.194415 -0.471849 0.36395 128 254 179
0.219357 -0.374961 0.144401 128 254 179
0.224674 -0.320785 0.169963 128 254 179
-0.0419241 -0.486952 0.35347 128 254 179
0.220028 -0.335312 0.291203 128 254 179
-0.0227266 -0.487538 0.38022 128 254 179
0.208514 -0.434387 -0.121024 128 254 179
0.217962 -0.356685 0.247182 128 254 179
0.221497 -0.348062 0.192757 128 254 179
0.0163666 -0.487101 0.36466 128 254 179
0.206661 -0.472262 0.0122703 128 254 179
0.224971 -0.267753 0.204688 128 254 179
0.212918 -0.431398 0.30561 128 254 179
-0.18229 -0.47546 0.173234 128 254 179
0.164479 -0.487079 0.286995 128 254 179
-0.192267 -0.484484 0.28835 128 254 179
0.225305 -0.305165 0.142526 128 254 179
-0.14566 -0.486186 0.321599 128 254 179
-0.0183814 -0.477878 0.1361 128 254 179
0.205018 -0.47662 0.125867 128 254 179
-0.243645 -0.470505 0.106318 128 254 179
-0.129901 -0.486315 0.344362 128 254 179
0.214607 -0.397778 0.254877 128 254 179
0.221557 -0.345945 0.0864209 128 254 179
0.215071 -0.430728 0.140143 128 254 179
-9.34899e-05 -0.4735 -0.026881 128 254 179
0.219434 -0.360362 0.0132258 128 254 179
0.195771 -0.43522 0.356551 128 254 179
0.172365 -0.487376 0.116643 128 254 179
0.211901 -0.465142 0.20906 128 254 179
0.21462 -0.442019 0.0822957 128 254 179
0.215972 -0.389597 0.0407544 128 254 179
0.0679473 -0.479787 0.0948835 128 254 179
-0.05949 -0.471953 0.000786044 128 254 179
0.223085 -0.253248 0.0512427 128 254 179
0.221175 -0.275794 -0.00916506 128 254 179
0.159844 -0.48736 0.330537 128 254 179
0.212465 -0.393967 -0.203741 128 254 179
0.21121 -0.42422 0.263609 128 254 179
0.217973 -0.402839 0.303109 128 254 179
0.217176 -0.37513 0.0424894 128 254 179
0.20858 -0.476545 0.319018 128 254 179
0.19013 -0.484311 0.269345 128 254 179
0.224793 -0.244707 0.0880409 128 254 179
0.0498843 -0.486007 0.215829 128 254 179
0.219912 -0.283109 -0.0698989 128 254 179
0.223849 -0.239853 0.269124 128 254 179
-0.122449 -0.486582 0.367932 128 254 179
0.219086 -0.355084 -0.104581 128 254 179
0.0231319 -0.487099 0.36198 128 254 179
0.222505 -0.328246 0.20327 128 254 179
-0.181314 -0.469434 0.04323 128 254 179
0.22151 -0.330879 0.298668 128 254 179
-0.158097 -0.478197 0.209979 128 254 179
0.0925601 -0.487159 0.385038 128 254 179
0.11217 -0.487371 0.355585 128 254 179
0.225125 -0.260417 0.0929217 128 254 179
-0.0617432 -0.482366 0.229121 128 254 179
0.156449 -0.475715 -0.213442 128 254 179
0.220782 -0.437019 0.342205 128 254 179
0.203032 -0.46206 -0.106062 128 254 179
-0.210287 -0.482279 0.287135 128 254 179
0.220498 -0.366423 0.138538 128 254 179
-0.244239 -0.458318 -0.167418 128 254 179
0.219601 -0.317716 -0.0578531 128 254 179
0.216399 -0.384928 0.0921986 128 254 179
0.218484 -0.384821 0.293994 128 254 179
0.158229 -0.486674 0.231082 128 254 179
0.144474 -0.486944 0.281708 128 254 179
0.215333 -0.417247 0.185778 128 254 179
0.217165 -0.387037 0.111239 128 254 179
0.107249 -0.477623 -0.0490693 128 254 179
0.210691 -0.46455 0.307727 128 254 179
0.2253 -0.269907 0.17985 128 254 179
0.214027 -0.401059 0.264739 128 254 179
0.213276 -0.45186 0.162803 128 254 179
0.210306 -0.444885 0.232771 128 254 179
0.207749 -0.47465 0.232196 128 254 179
0.220268 -0.355504 0.203699 128 254 179
-0.0503144 -0.472385 0.00487216 128 254 179
0.180405 -0.480154 0.3687 128 254 179
-0.319187 -0.450581 -0.25412 128 254 179
-0.241588 -0.459857 -0.126155 128 254 179
0.19568 -0.482431 0.253295 128 254 179
0.218911 -0.308888 -0.182724 128 254 179
-0.0914887 -0.483666 0.265074 128 254 179
0.214028 -0.419307 0.301897 128 254 179
0.222119 -0.29163 0.326523 128 254 179
0.204625 -0.453477 -0.171359 128 254 179
0.220541 -0.343598 0.0483147 128 254 179
0.220862 -0.324387 0.240395 128 254 179
0.21937 -0.284298 -0.154799 128 254 179
-0.0682214 -0.48681 0.34928 128 254 179
-0.175912 -0.468944 0.0269193 128 254 179
0.214321 -0.433048 0.0646308 128 254 179
0.214654 -0.402523 0.285751 128 254 179
0.217796 -0.363679 0.281033 128 254 179
0.213728 -0.411375 0.289089 128 254 179
0.218284 -0.385742 0.150478 128 254 179
-0.132602 -0.462681 -0.217128 128 254 179
0.212434 -0.418309 0.255338 128 254 179
0.220746 -0.250779 -0.0101585 128 254 179
-0.151293 -0.466958 -0.0428778 128 254 179
-0.127761 -0.48636 0.350002 128 254 179
0.0760575 -0.485698 0.181575 128 254 179
0.128599 -0.487552 0.36136 128 254 179
-0.0481427 -0.469628 -0.0989977 128 254 179
0.214642 -0.372212 -0.194741 128 254 179
0.223537 -0.336735 0.163368 128 254 179
-0.0997199 -0.466379 -0.138405 128 254 179
0.202831 -0.479185 0.291934 128 254 179
0.112793 -0.487177 0.31713 128 254 179
0.0941637 -0.487463 0.365402 128 254 179
-0.0168515 -0.471309 -0.0846879 128 254 179
0.217751 -0.355426 0.259236 128 254 179
0.209279 -0.45643 0.28254 128 254 179
0.208796 -0.451685 0.255043 128 254 179
-0.255106 -0.459307 -0.124112 128 254 179
0.213144 -0.434407 -0.0395172 128 254 179
0.222161 -0.307474 0.0355735 128 254 179
0.195889 -0.482643 0.240033 128 254 179
0.198254 -0.481622 0.147086 128 254 179
0.220877 -0.380306 0.308781 128 254 179
-0.226934 -0.462297 -0.0788414 128 254 179
0.219239 -0.346258 -0.107354 128 254 179
0.128586 -0.486319 0.192022 128 254 179
0.223684 -0.235294 0.282513 128 254 179
0.18355 -0.486086 0.272124 128 254 179
0.225742 -0.276959 0.145726 128 254 179
0.179328 -0.486545 0.233511 128 254 179
0.222513 -0.325947 0.326128 128 254 179
0.215592 -0.394765 0.0292905 128 254 179
0.0176926 -0.480648 0.155184 128 254 179
0.204122 -0.433247 -0.210039 128 254 179
0.222155 -0.335247 0.0748532 128 254 179
0.145375 -0.487258 0.331636 128 254 179
-0.0286626 -0.486904 0.330295 128 254 179
0.210052 -0.439282 0.293507 128 254 179
0.195247 -0.483014 0.171132 128 254 179
0.2089 -0.415735 -0.250501 128 254 179
0.214442 -0.406708 0.00249358 128 254 179
0.201604 -0.461323 -0.104084 128 254 179
0.217106 -0.392016 0.199979 128 254 179
0.207872 -0.478823 0.0719359 128 254 179
0.0433501 -0.487242 0.365261 128 254 179
0.0343507 -0.472122 -0.161626 128 254 179
0.213572 -0.462944 0.316028 128 254 179
0.222911 -0.323502 0.203039 128 254 179
0.039237 -0.47405 -0.0830459 128 254 179
0.0780705 -0.486146 0.205629 128 254 179
0.108336 -0.47977 0.0287087 128 254 179
-0.0100732 -0.478298 0.138293 128 254 179
0.219661 -0.236028 -0.0771917 128 254 179
0.220632 -0.412932 0.344965 128 254 179
-0.0661795 -0.473452 0.0620062 128 254 179
0.222798 -0.278997 0.0400163 128 254 179
0.220803 -0.379735 0.337843 128 254 179
-0.232925 -0.45977 -0.140292 128 254 179
0.219086 -0.353311 -0.0798576 128 254 179
0.201342 -0.478984 0.272561 128 254 179
0.217182 -0.378008 0.0189917 128 254 179
0.212517 -0.460441 0.312309 128 254 179
0.222425 -0.282801 0.320786 128 254 179
-0.0127581 -0.487404 0.376479 128 254 179
0.178241 -0.479398 -0.031285 128 254 179
0.214123 -0.449529 0.147518 128 254 179
0.190792 -0.485035 0.148485 128 254 179
0.173173 -0.487465 0.334102 128 254 179
0.181894 -0.480334 0.368202 128 254 179
0.219382 -0.310437 -0.143278 128 254 179
0.21953 -0.24549 -0.107715 128 254 179
0.209702 -0.453956 0.23321 128 254 179
-0.154723 -0.460987 -0.232546 128 254 179
0.207763 -0.466391 0.0801874 128 254 179
0.221819 -0.280368 0.293322 128 254 179
-0.0673082 -0.481764 0.223766 128 254 179
-0.0648036 -0.467964 -0.141885 128 254 179
0.217734 -0.35552 0.266806 128 254 179
0.212175 -0.426517 -0.0873201 128 254 179
0.205252 -0.466128 -0.0520057 128 254 179
0.205742 -0.428557 -0.231189 128 254 179
0.160535 -0.48621 0.152411 128 254 179
-0.274993 -0.456195 -0.17484 128 254 179
0.225181 -0.265532 0.0933738 128 254 179
0.210263 -0.469229 0.22919 128 254 179
0.214656 -0.442661 0.00116505 128 254 179
0.123208 -0.476874 -0.121778 128 254 179
-0.00362779 -0.483496 0.23719 128 254 179
-0.0894966 -0.478516 0.181912 128 254 179
0.190418 -0.484518 0.21345 128 254 179
0.217147 -0.42543 0.326617 128 254 179
0.220377 -0.416599 0.336287 128 254 179
0.218894 -0.402072 0.311603 128 254 179
0.210916 -0.469501 0.311583 128 254 179
0.216855 -0.472952 0.349365 128 254 179
0.214601 -0.410911 0.0287726 128 254 179
0.218162 -0.374592 0.21491 128 254 179
0.00478878 -0.483678 0.233893 128 254 179
0.214055 -0.436713 0.150947 128 254 179
0.22182 -0.307933 0.0196799 128 254 179
0.221301 -0.305202 -0.00565825 128 254 179
0.209616 -0.465908 0.242356 128 254 179
-0.150396 -0.464447 -0.114118 128 254 179
0.225108 -0.282612 0.0882747 128 254 179
-0.151751 -0.463815 -0.131551 128 254 179
-0.0619585 -0.486398 0.270227 128 254 179
0.224219 -0.325583 0.131405 128 254 179
0.221191 -0.376318 0.30832 128 254 179
-0.133012 -0.486316 0.34753 128 254 179
0.213114 -0.476746 0.345699 128 254 179
0.155114 -0.486897 0.256403 128 254 179
0.213449 -0.459643 0.314355 128 254 179
0.219176 -0.339621 -0.124494 128 254 179
0.221539 -0.268166 0.00385025 128 254 179
-0.0760466 -0.486215 0.267605 128 254 179
0.220991 -0.371027 0.321319 128 254 179
0.21374 -0.431378 -0.00570617 128 254 179
0.089463 -0.485655 0.163834 128 254 179
0.221346 -0.329839 0.221172 128 254 179
0.133341 -0.486913 0.266392 128 254 179
0.138334 -0.486607 0.136926 128 254 179
-0.167282 -0.483008 0.283684 128 254 179
0.218467 -0.350749 0.248337 128 254 179
0.0548946 -0.471745 -0.224518 128 254 179
-0.262252 -0.455902 -0.197872 128 254 179
-0.00826152 -0.48706 0.311864 128 254 179
0.220806 -0.354911 0.193438 128 254 179
0.208851 -0.464071 0.0972815 128 254 179
0.221983 -0.250506 0.315268 128 254 179
0.0428448 -0.48659 0.234715 128 254 179
0.211018 -0.447094 -0.0602338 128 254 179
0.224603 -0.290055 0.201286 128 254 179
-0.303054 -0.453738 -0.196623 128 254 179
0.219509 -0.329541 0.272646 128 254 179
0.154318 -0.487022 0.36908 128 254 179
-0.0140243 -0.47214 -0.0548122 128 254 179
0.222403 -0.283452 0.267906 128 254 179
-0.130461 -0.486059 0.285214 128 254 179
0.218618 -0.374406 0.198015 128 254 179
0.220518 -0.379462 0.341694 128 254 179
0.210884 -0.423817 -0.14824 128 254 179
0.216002 -0.387597 0.0597107 128 254 179
0.211521 -0.422554 -0.1381 128 254 179
0.215996 -0.398667 0.0808466 128 254 179
0.0962332 -0.48583 0.182078 128 254 179
0.138221 -0.486861 0.253654 128 254 179
0.220368 -0.264737 0.325428 128 254 179
-0.174468 -0.462291 -0.146584 128 254 179
0.222986 -0.306797 0.316772 128 254 179
0.223827 -0.327841 0.109633 128 254 179
0.219473 -0.227234 -0.0725728 128 254 179
0.217608 -0.37288 0.0357654 128 254 179
-0.16848 -0.461831 -0.174962 128 254 179
0.216295 -0.384736 0.00216474 128 254 179
0.217547 -0.378728 0.228277 128 254 179
-0.285967 -0.45858 -0.105764 128 254 179
0.224307 -0.277569 0.230642 128 254 179
0.219394 -0.228316 -0.107653 128 254 179
0.124118 -0.487226 0.334512 128 254 179
0.191262 -0.460001 -0.194176 128 254 179
0.209319 -0.460276 0.28272 128 254 179
0.224969 -0.31142 0.168386 128 254 179
0.221317 -0.297137 0.282123 128 254 179
0.214485 -0.441997 0.131158 128 254 179
0.216938 -0.471785 0.342498 128 254 179
-0.250745 -0.462772 -0.0455856 128 254 179
0.214437 -0.423934 0.0347884 128 254 179
0.216113 -0.408883 0.0922423 128 254 179
0.188145 -0.485583 0.153538 128 254 179
0.22561 -0.23814 0.200708 128 254 179
0.21502 -0.427474 0.164956 128 254 179
0.0436369 -0.48722 0.268028 128 254 179
-0.236835 -0.461064 -0.0982587 128 254 179
-0.0994905 -0.471154 0.0183142 128 254 179
-0.158106 -0.486067 0.31617 128 254 179
0.222428 -0.285478 0.31119 128 254 179
0.213459 -0.437047 0.310321 128 254 179
0.219999 -0.28616 -0.0594656 128 254 179
0.210407 -0.414541 -0.207187 128 254 179
0.214715 -0.41785 -0.0374683 128 254 179
0.219761 -0.365059 0.185566 128 254 179
-0.160396 -0.484247 0.280518 128 254 179
0.21614 -0.383035 0.0632389 128 254 179
0.212847 -0.442379 0.308149 128 254 179
0.21284 -0.457086 0.174538 128 254 179
0.22503 -0.287047 0.0862529 128 254 179
0.221196 -0.35707 0.168379 128 254 179
-0.258078 -0.455723 -0.207109 128 254 179
0.217739 -0.406943 0.307432 128 254 179
-0.0552572 -0.467184 -0.198792 128 254 179
-0.254469 -0.45855 -0.146728 128 254 179
0.0494311 -0.487107 0.342031 128 254 179
0.0931058 -0.482874 0.130539 128 254 179
-0.240007 -0.467757 0.0448465 128 254 179
0.218147 -0.394102 0.297842 128 254 179
0.214254 -0.437994 0.140005 128 254 179
0.207858 -0.473086 0.246609 128 254 179
0.0609703 -0.487153 0.328846 128 254 179
-0.0902492 -0.463419 -0.271833 128 254 179
0.19833 -0.482246 0.138359 128 254 179
0.213388 -0.439005 0.179833 128 254 179
0.219979 -0.35203 -0.00275374 128 254 179
0.221038 -0.337458 0.296908 128 254 179
0.167877 -0.486111 0.150304 128 254 179
0.207128 -0.459766 0.0176402 128 254 179
0.207833 -0.468811 0.274096 128 254 179
0.0762594 -0.487846 0.382068 128 254 179
0.220351 -0.360622 0.295185 128 254 179
0.164609 -0.487568 0.34322 128 254 179
0.221217 -0.325163 0.229959 128 254 179
-0.0136537 -0.486579 0.260587 128 254 179
0.224144 -0.257384 0.0717035 128 254 179
0.0227835 -0.487007 0.345104 128 254 179
-0.0463658 -0.48716 0.368107 128 254 179
0.211327 -0.446834 0.21949 128 254 179
0.0766708 -0.487404 0.386888 128 254 179
0.224105 -0.27735 0.23849 128 254 179
-0.039119 -0.482971 0.223496 128 254 179
0.202391 -0.48148 0.35391 128 254 179
0.136569 -0.486898 0.274713 128 254 179
0.220377 -0.233321 -0.00796498 128 254 179
0.214071 -0.38669 -0.163595 128 254 179
-0.137021 -0.461285 -0.264332 128 254 179
0.21807 -0.459002 0.349838 128 254 179
-0.0664149 -0.467778 -0.146976 128 254 179
-0.214238 -0.459234 -0.185033 128 254 179
0.214774 -0.405531 0.0206947 128 254 179
0.0886818 -0.487359 0.361644 128 254 179
-0.0865459 -0.48687 0.370346 128 254 179
0.223287 -0.27465 0.258473 128 254 179
-0.00896035 -0.487094 0.363354 128 254 179
0.20607 -0.476186 0.145324 128 254 179
-0.118423 -0.473714 0.110263 128 254 179
0.225341 -0.295402 0.129087 128 254 179
0.160274 -0.487473 0.338881 128 254 179
-0.166911 -0.486031 0.320832 128 254 179
0.223638 -0.334087 0.142776 128 254 179
0.218774 -0.339817 0.273093 128 254 179
0.180643 -0.486663 0.2752 128 254 179
0.215596 -0.428231 0.121211 128 254 179
0.0867036 -0.486511 0.213703 128 254 179
-0.0969016 -0.468758 -0.0545314 128 254 179
-0.0227133 -0.486892 0.287045 128 254 179
0.211411 -0.422962 0.285567 128 254 179
0.219213 -0.274079 -0.1646 128 254 179
0.211081 -0.445121 0.224538 128 254 179
0.211251 -0.431281 0.297472 128 254 179
0.162861 -0.47849 0.374121 128 254 179
-0.142685 -0.487841 0.248119 160 249 161
-0.183835 -0.488517 0.0448386 160 249 161
-0.198011 -0.488698 -0.0195972 160 249 161
-0.158798 -0.48758 0.278802 160 249 161
-0.271715 -0.484625 0.254177 160 249 161
-0.36958 -0.482837 -0.0263233 160 249 161
-0.416777 -0.457461 0.118576 160 249 161
-0.238131 -0.488656 0.0449738 160 249 161
-0.0930143 -0.489865 -0.19816 160 249 161
-0.197111 -0.48873 -0.0258559 160 249 161
-0.355192 -0.482395 0.148523 160 249 161
-0.433066 -0.465542 0.0713253 160 249 161
-0.17524 -0.488435 0.0619842 160 249 161
-0.181217 -0.488336 -0.118877 160 249 161
-0.319991 -0.486459 0.185008 160 249 161
0.0878253 -0.488559 0.172977 160 249 161
-0.295304 -0.492691 -0.129458 160 249 161
-0.380912 -0.461551 0.0211188 160 249 161
-0.307139 -0.481825 0.227454 160 249 161
-0.0347186 -0.488967 -0.162405 160 249 161
-0.14207 -0.487941 0.104694 160 249 161
-0.15806 -0.488031 0.25317 160 249 161
-0.279637 -0.441853 0.118729 160 249 161
-0.302991 -0.44083 0.0964475 160 249 161
-0.0293025 -0.488126 0.316821 160 249 161
-0.406499 -0.424977 0.0948146 160 249 161
-0.235615 -0.486956 0.223731 160 249 161
-0.262026 -0.48702 0.147883 160 249 161
-0.389458 -0.424933 0.0951919 160 249 161
-0.400269 -0.427985 0.118677 160 249 161
-0.399074 -0.42724 0.0583024 160 249 161
-0.217932 -0.488687 0.0209185 160 249 161
0.0153438 -0.488846 -0.0221278 160 249 161
-0.391859 -0.434889 0.0412722 160 249 161
-0.181027 -0.488199 -0.15017 160 249 161
-0.221086 -0.48697 0.234529 160 249 161
-0.351679 -0.488633 -0.116967 160 249 161
-0.401394 -0.477705 0.108359 160 249 161
-0.189109 -0.488494 0.0377983 160 249 161
0.0221439 -0.488524 0.021442 160 249 161
-0.276065 -0.486188 -0.248509 160 249 161
-0.0501939 -0.489008 -0.215503 160 249 161
-0.0176115 -0.489296 -0.177648 160 249 161
-0.410243 -0.426446 0.0738583 160 249 161
-0.0293109 -0.489103 0.0891604 160 249 161
0.00621401 -0.489474 -0.18312 160 249 161
-0.113493 -0.487447 0.205186 160 249 161
-0.385059 -0.429321 0.0461994 160 249 161
-0.118207 -0.487585 0.148771 160 249 161
-0.394311 -0.449355 0.15737 160 249 161
-0.406502 -0.481952 0.0604469 160 249 161
-0.073306 -0.487461 0.209576 160 249 161
-0.309598 -0.487733 -0.00729443 160 249 161
-0.211735 -0.488373 -0.111844 160 249 161
-0.184859 -0.48842 0.0621448 160 249 161
-0.323268 -0.486774 0.0818525 160 249 161
-0.197471 -0.488807 -0.0439209 160 249 161
0.10766 -0.489412 0.0922859 160 249 161
-0.256703 -0.486797 0.200419 160 249 161
-0.421309 -0.44033 0.0563399 160 249 161
-0.352974 -0.431626 0.123208 160 249 161
-0.35797 -0.486707 -0.0990932 160 249 161
-0.0823658 -0.487902 -0.262062 160 249 161
-0.412314 -0.481694 0.00400607 160 249 161
-0.137844 -0.488468 0.0194133 160 249 161
-0.411303 -0.449253 0.0347398 160 249 161
-0.240656 -0.489774 -0.242172 160 249 161
-0.136839 -0.488029 0.0927427 160 249 161
-0.361811 -0.486995 0.0754312 160 249 161
-0.154497 -0.48761 0.139028 160 249 161
-0.192976 -0.487281 -0.25889 160 249 161
0.0125643 -0.488832 0.0834145 160 249 161
-0.0808553 -0.489234 -0.108376 160 249 161
-0.123213 -0.488374 -0.21835 160 249 161
-0.407801 -0.449236 0.0290742 160 249 161
-0.0270806 -0.489796 -0.00211633 160 249 161
-0.319179 -0.479901 0.215592 160 249 161
-0.433304 -0.455185 0.0922403 160 249 161
-0.288494 -0.48726 0.112488 160 249 161
0.0711806 -0.489323 -0.172661 160 249 161
-0.137952 -0.488136 0.0814938 160 249 161
-0.174077 -0.48759 0.196442 160 249 161
-0.315233 -0.439196 0.12801 160 249 161
-0.320124 -0.487197 0.0703417 160 249 161
-0.0531054 -0.488644 0.092351 160 249 161
-0.426605 -0.458243 0.0603185 160 249 161
-0.195827 -0.487719 0.162642 160 249 161
-0.255572 -0.443014 0.132644 160 249 161
-0.347375 -0.490251 0.0212474 160 249 161
-0.343529 -0.490528 0.00317651 160 249 161
0.00331164 -0.489367 -0.160384 160 249 161
-0.144343 -0.487484 0.209234 160 249 161
-0.287334 -0.48539 0.221279 160 249 161
-0.0044111 -0.488292 0.0127629 160 249 161
-0.145696 -0.488476 -0.0611658 160 249 161
-0.321102 -0.485955 0.111339 160 249 161
-0.414072 -0.428497 0.0629775 160 249 161
-0.289625 -0.490253 -0.128489 160 249 161
-0.0435166 -0.488006 0.160235 160 249 161
-0.217874 -0.485921 0.282269 160 249 161
-0.221732 -0.487566 0.185077 160 249 161
-0.414721 -0.480742 0.0167309 160 249 161
0.0503526 -0.489472 0.210446 160 249 161
-0.0167078 -0.488752 -0.0699073 160 249 161
-0.410316 -0.482266 0.019767 160 249 161
-0.279835 -0.489067 -0.164864 160 249 161
-0.336071 -0.486776 0.0848939 160 249 161
0.00800664 -0.489793 -0.240333 160 249 161
-0.314806 -0.434193 0.0663927 160 249 161
-0.228182 -0.489858 -0.273191 160 249 161
-0.253512 -0.489753 -0.20522 160 249 161
-0.155472 -0.488208 0.0817546 160 249 161
-0.133749 -0.487413 0.194079 160 249 161
0.0379261 -0.488865 0.226744 160 249 161
-0.34498 -0.490458 0.0131373 160 249 161
-0.231726 -0.488668 0.0543903 160 249 161
-0.234745 -0.486933 0.225715 160 249 161
-0.360922 -0.477258 0.156349 160 249 161
-0.365957 -0.481311 -0.0185347 160 249 161
-0.40654 -0.481757 0.0633365 160 249 161
-0.0398948 -0.488118 0.331114 160 249 161
-0.305024 -0.486255 0.116924 160 249 161
-0.415193 -0.464933 0.114653 160 249 161
-0.206151 -0.487401 -0.268166 160 249 161
-0.423581 -0.477161 0.064911 160 249 161
-0.200281 -0.486414 0.273447 160 249 161
-0.378783 -0.485913 0.0616959 160 249 161
-0.269071 -0.486434 -0.260654 160 249 161
-0.369662 -0.470412 0.159975 160 249 161
-0.317722 -0.436191 0.144548 160 249 161
-0.180588 -0.48848 0.0206825 160 249 161
-0.123757 -0.487778 0.255656 160 249 161
-0.341571 -0.489872 -0.0519269 160 249 161
-0.407957 -0.479344 0.0886751 160 249 161
-0.232661 -0.487881 0.146533 160 249 161
-0.242116 -0.487002 0.186764 160 249 161
-0.252464 -0.48678 0.189934 160 249 161
-0.296837 -0.486865 0.112879 160 249 161
-0.122924 -0.488388 0.0213214 160 249 161
0.0830487 -0.489493 -0.0439512 160 249 161
-0.0712705 -0.489992 -0.122806 160 249 161
-0.352705 -0.426945 0.0259011 160 249 161
0.0326349 -0.489722 -0.224413 160 249 161
-0.132249 -0.48822 0.070961 160 249 161
-0.287292 -0.487491 0.0983679 160 249 161
0.0971703 -0.488934 -0.146235 160 249 161
0.0658839 -0.489428 -0.200081 160 249 161
-0.0430053 -0.48985 -0.0310898 160 249 161
0.0188965 -0.489244 -0.0913011 160 249 161
-0.38748 -0.427511 0.0602054 160 249 161
-0.260222 -0.486613 0.212503 160 249 161
-0.353676 -0.473561 0.177766 160 249 161
-0.353661 -0.489441 -0.106325 160 249 161
-0.347696 -0.486807 0.124702 160 249 161
0.0314236 -0.489549 0.184339 160 249 161
-0.171923 -0.487225 -0.273851 160 249 161
0.0802288 -0.48858 0.115352 160 249 161
-0.403802 -0.424508 0.0814887 160 249 161
-0.36056 -0.425514 0.032411 160 249 161
-0.311308 -0.486644 -0.173221 160 249 161
-0.361847 -0.489112 -0.0174117 160 249 161
-0.179982 -0.487109 -0.285974 160 249 161
-0.0882319 -0.487458 0.230765 160 249 161
-0.358922 -0.486874 -0.0984527 160 249 161
-0.106007 -0.488296 0.0331288 160 249 161
-0.0423583 -0.487835 0.293415 160 249 161
-0.0645503 -0.488479 0.072359 160 249 161
-0.214732 -0.488622 0.04788 160 249 161
0.0518531 -0.489396 -0.0574303 160 249 161
-0.180381 -0.488482 0.0220034 160 249 161
-0.124719 -0.487858 0.108489 160 249 161
0.080042 -0.488675 0.0994225 160 249 161
-0.0533397 -0.487544 0.201654 160 249 161
-0.0909336 -0.489447 -0.157411 160 249 161
-0.271645 -0.490786 -0.139419 160 249 161
-0.211349 -0.488209 0.0997844 160 249 161
-0.0670994 -0.489636 -0.140527 160 249 161
0.0820139 -0.488542 0.206494 160 249 161
-0.22784 -0.488261 -0.135226 160 249 161
-0.208026 -0.486275 0.273698 160 249 161
-0.415333 -0.43607 0.0513311 160 249 161
0.00885858 -0.488455 0.0472008 160 249 161
-0.403615 -0.438794 0.146434 160 249 161
-0.282384 -0.486589 0.178719 160 249 161
-0.209402 -0.488551 -0.0908752 160 249 161
-0.179143 -0.48853 0.0472758 160 249 161
-0.312252 -0.436937 0.0745831 160 249 161
0.0283236 -0.489068 -0.045593 160 249 161
-0.128798 -0.488317 -0.0830678 160 249 161
-0.0415385 -0.487982 0.312877 160 249 161
0.0230817 -0.489048 -0.0490013 160 249 161
-0.139941 -0.487509 0.168716 160 249 161
-0.184412 -0.488159 -0.158296 160 249 161
-0.174394 -0.488585 -0.0672155 160 249 161
-0.212787 -0.485896 0.2862 160 249 161
-0.327613 -0.485824 0.0970174 160 249 161
-0.411727 -0.451734 0.0343584 160 249 161
0.110819 -0.489041 -0.0834136 160 249 161
-0.118518 -0.48849 -0.244795 160 249 161
-0.147121 -0.488309 0.0686065 160 249 161
-0.381415 -0.487622 0.0109535 160 249 161
0.0271429 -0.488208 0.0571641 160 249 161
-0.411303 -0.478114 0.00827985 160 249 161
-0.39044 -0.427184 0.0535503 160 249 161
-0.184903 -0.488271 -0.12881 160 249 161
-0.00889264 -0.488035 0.261857 160 249 161
-0.266435 -0.488382 -0.0362781 160 249 161
-0.309988 -0.44016 0.102223 160 249 161
-0.365982 -0.485363 -0.0441336 160 249 161
-0.25616 -0.487729 0.123835 160 249 161
-0.39845 -0.444805 0.153112 160 249 161
-0.104584 -0.48818 -0.0627953 160 249 161
-0.00192216 -0.488362 0.0267442 160 249 161
-0.356851 -0.465714 0.18654 160 249 161
-0.331795 -0.490363 -0.130277 160 249 161
-0.00972839 -0.488454 0.191846 160 249 161
-0.0592017 -0.4875 0.243681 160 249 161
-0.0484338 -0.488042 0.322658 160 249 161
-0.266446 -0.486123 -0.279323 160 249 161
0.0225107 -0.488394 0.0836735 160 249 161
-0.00345347 -0.489204 0.0553543 160 249 161
0.105586 -0.489147 0.104911 160 249 161
-0.297663 -0.487082 0.107256 160 249 161
-0.3969 -0.486445 -0.00432339 160 249 161
-0.216354 -0.487428 0.21094 160 249 161
0.113336 -0.489334 -0.0537172 160 249 161
-0.362674 -0.482255 -0.0216536 160 249 161
-0.261103 -0.488415 0.049988 160 249 161
-0.0397491 -0.489432 -0.0582265 160 249 161
-0.305418 -0.487198 0.0908282 160 249 161
-0.031998 -0.489177 -0.0418668 160 249 161
-0.179259 -0.487608 0.18436 160 249 161
-0.423042 -0.434486 0.0686723 160 249 161
-0.294976 -0.488091 0.0402431 160 249 161
-0.41744 -0.429523 0.107116 160 249 161
-0.371069 -0.470369 0.0136247 160 249 161
-0.384292 -0.462973 0.0200718 160 249 161
-0.295999 -0.487889 -0.0373201 160 249 161
-0.335323 -0.42793 0.0566662 160 249 161
-0.292859 -0.488045 0.049765 160 249 161
-0.42374 -0.474838 0.0833767 160 249 161
-0.227973 -0.488105 0.11559 160 249 161
-0.425533 -0.466024 0.0517277 160 249 161
-0.421079 -0.449159 0.0524761 160 249 161
0.0143553 -0.488531 0.00704786 160 249 161
-0.346841 -0.471485 0.190138 160 249 161
-0.0752137 -0.487957 0.100132 160 249 161
-0.0990166 -0.488249 -0.037512 160 249 161
0.0695983 -0.48942 -0.0470305 160 249 161
-0.112783 -0.487492 0.184135 160 249 161
0.0282338 -0.488029 0.10207 160 249 161
-0.294354 -0.440401 0.127211 160 249 161
-0.00118186 -0.489142 -0.123145 160 249 161
-0.271152 -0.488104 -0.0702113 160 249 161
-0.243505 -0.487781 0.149243 160 249 161
-0.358239 -0.488989 -0.0386598 160 249 161
-0.0844205 -0.487614 0.252012 160 249 161
-0.158247 -0.487794 0.11791 160 249 161
-0.433184 -0.464936 0.0748567 160 249 161
-0.379489 -0.430534 0.0725982 160 249 161
-0.41477 -0.471577 0.0180297 160 249 161
-0.340712 -0.466612 0.208234 160 249 161
-0.380348 -0.487649 -0.0135524 160 249 161
-0.242827 -0.488375 -0.10049 160 249 161
-0.186876 -0.488502 0.0409826 160 249 161
-0.078202 -0.488157 0.0788587 160 249 161
-0.386618 -0.466295 0.144042 160 249 161
-0.246416 -0.488274 -0.102596 160 249 161
-0.249476 -0.488731 -0.0224993 160 249 161
-0.0892994 -0.487743 0.270192 160 249 161
-0.43106 -0.462307 0.0712699 160 249 161
-0.0600938 -0.488692 0.0298481 160 249 161
-0.333698 -0.436218 0.130563 160 249 161
-0.398218 -0.425371 0.103288 160 249 161
-0.430972 -0.452488 0.0989103 160 249 161
-0.176438 -0.488626 -0.0344177 160 249 161
-0.380076 -0.486987 -0.054954 160 249 161
-0.0506606 -0.488446 0.110886 160 249 161
-0.357107 -0.431935 0.0692145 160 249 161
-0.163523 -0.488526 0.0110218 160 249 161
-0.0698491 -0.4883 0.0825837 160 249 161
-0.268356 -0.487559 0.117998 160 249 161
-0.341839 -0.433301 0.132284 160 249 161
0.0618029 -0.488522 0.0818944 160 249 161
-0.147593 -0.48809 -0.19803 160 249 161
-0.157913 -0.487874 0.110593 160 249 161
0.0681548 -0.489535 0.20705 160 249 161
-0.380381 -0.480107 0.126275 160 249 161
-0.202882 -0.488013 -0.177018 160 249 161
-0.0235445 -0.488474 0.167107 160 249 161
-0.0443424 -0.487606 0.249529 160 249 161
-0.00274818 -0.489055 -0.0817796 160 249 161
0.00350016 -0.489013 -0.0575443 160 249 161
0.0514398 -0.488405 0.076279 160 249 161
-0.274474 -0.488358 -0.186121 160 249 161
-0.0131564 -0.488484 -0.00500203 160 249 161
-0.354791 -0.425563 0.0351226 160 249 161
-0.0486522 -0.487716 0.277318 160 249 161
-0.419497 -0.464898 0.110579 160 249 161
0.0104364 -0.489465 -0.169865 160 249 161
-0.408749 -0.481703 0.00139967 160 249 161
-0.128719 -0.487893 0.263012 160 249 161
-0.371609 -0.487442 -0.0763334 160 249 161
-0.312054 -0.486697 0.177102 160 249 161
-0.403352 -0.480514 0.00156224 160 249 161
-0.177199 -0.48772 -0.230373 160 249 161
-0.197412 -0.488273 0.0840669 160 249 161
-0.225761 -0.488687 0.0351792 160 249 161
-0.391064 -0.464387 0.141693 160 249 161
-0.406289 -0.455727 0.0244041 160 249 161
-0.166853 -0.488382 -0.11584 160 249 161
-0.336316 -0.486537 0.000230579 160 249 161
-0.270387 -0.485993 0.225962 160 249 161
-0.361446 -0.486538 -0.0899765 160 249 161
-0.392361 -0.474827 0.126146 160 249 161
-0.0106803 -0.488956 0.150228 160 249 161
-0.301068 -0.486474 0.16007 160 249 161
-0.240308 -0.488439 -0.0798936 160 249 161
-0.250716 -0.488291 -0.149587 160 249 161
-0.080059 -0.488338 0.022978 160 249 161
-0.0189991 -0.488728 -0.0684095 160 249 161
-0.316026 -0.43661 0.143134 160 249 161
-0.429701 -0.466635 0.0948064 160 249 161
-0.222064 -0.486942 0.236113 160 249 161
-0.388569 -0.438147 0.0315942 160 249 161
-0.157648 -0.488504 -0.078078 160 249 161
-0.153768 -0.48857 -0.0155399 160 249 161
-0.230974 -0.487196 0.200121 160 249 161
-0.119743 -0.488421 -0.243169 160 249 161
-0.39159 -0.486854 0.00460592 160 249 161
-0.056327 -0.487529 0.197051 160 249 161
-0.320791 -0.487046 0.150436 160 249 161
-0.230887 -0.488702 0.0398497 160 249 161
-0.198367 -0.488439 -0.0973083 160 249 161
-0.378345 -0.487667 -0.0293696 160 249 161
-0.319763 -0.48696 0.168918 160 249 161
-0.411057 -0.481161 0.00335418 160 249 161
-0.160935 -0.488515 -0.0780232 160 249 161
-0.392023 -0.486823 -0.000517707 160 249 161
-0.376834 -0.432366 0.0318104 160 249 161
-0.337046 -0.482051 0.0144936 160 249 161
-0.0789058 -0.487668 0.262013 160 249 161
-0.260655 -0.488529 0.00971443 160 249 161
-0.339182 -0.465147 0.030028 160 249 161
-0.359529 -0.486255 0.109576 160 249 161
0.0560687 -0.488895 0.24711 160 249 161
-0.421541 -0.434754 0.102983 160 249 161
-0.0185755 -0.489234 -0.15757 160 249 161
-0.109465 -0.488717 -0.128728 160 249 161
0.0760404 -0.489205 -0.110449 160 249 161
-0.146102 -0.488332 0.0664101 160 249 161
-0.242236 -0.487136 0.175591 160 249 161
-0.184459 -0.488673 -0.0346325 160 249 161
-0.0312309 -0.488111 0.317998 160 249 161
-0.0169806 -0.489231 0.11731 160 249 161
-0.0719165 -0.487585 0.162149 160 249 161
-0.352555 -0.427416 0.0559174 160 249 161
-0.424078 -0.47303 0.0897499 160 249 161
-0.3588 -0.487487 -0.0774994 160 249 161
-0.365383 -0.489038 -0.0886461 160 249 161
-0.3317 -0.487335 0.134141 160 249 161
-0.187357 -0.488479 0.0142998 160 249 161
-0.0114042 -0.488293 0.307158 160 249 161
-0.0518455 -0.488709 0.0733088 160 249 161
-0.231282 -0.487779 0.163215 160 249 161
0.0390261 -0.489433 0.199414 160 249 161
-0.311702 -0.490182 -0.100547 160 249 161
-0.163082 -0.488345 -0.141404 160 249 161
-0.222866 -0.488433 -0.272316 160 249 161
-0.16705 -0.487669 0.141637 160 249 161
-0.191819 -0.487328 -0.256348 160 249 161
0.00952426 -0.489496 -0.177731 160 249 161
-0.287161 -0.485308 -0.231566 160 249 161
-0.190126 -0.488185 0.0921989 160 249 161
-0.236881 -0.485604 0.275323 160 249 161
0.0316693 -0.489728 -0.228827 160 249 161
-0.392851 -0.435713 0.0406538 160 249 161
-0.296004 -0.485228 0.221114 160 249 161
-0.20457 -0.487272 -0.263851 160 249 161
-0.133547 -0.487434 0.190793 160 249 161
0.0349681 -0.489343 -0.0751902 160 249 161
-0.260666 -0.488454 0.0338793 160 249 161
-0.320118 -0.486302 0.132519 160 249 161
-0.121875 -0.488514 -0.156699 160 249 161
-0.120026 -0.488403 -0.236978 160 249 161
-0.251698 -0.489775 -0.186174 160 249 161
-0.159403 -0.488494 -0.0851983 160 249 161
-0.179644 -0.487608 0.186127 160 249 161
-0.124435 -0.488355 -0.0414773 160 249 161
-0.09973 -0.488278 0.0533781 160 249 161
-0.107171 -0.489041 -0.194039 160 249 161
-0.0206144 -0.488933 0.133742 160 249 161
-0.424245 -0.44061 0.102946 160 249 161
-0.425709 -0.453104 0.0640501 160 249 161
-0.333584 -0.437724 0.0840501 160 249 161
-0.106147 -0.488302 0.0465909 160 249 161
-0.134879 -0.487741 -0.276395 160 249 161
-0.401987 -0.478676 0.101714 160 249 161
-0.0894809 -0.488303 0.00160742 160 249 161
0.00544499 -0.488793 0.369907 160 249 161
-0.298839 -0.49266 -0.136138 160 249 161
-0.20356 -0.486116 0.282789 160 249 161
-0.428922 -0.474557 0.0584457 160 249 161
-0.348201 -0.480529 -0.0120514 160 249 161
0.0157146 -0.489789 -0.223732 160 249 161
-0.105829 -0.489045 -0.177301 160 249 161
-0.198358 -0.488441 0.065409 160 249 161
-0.176658 -0.486142 0.297218 160 249 161
-0.409826 -0.427381 0.0660319 160 249 161
-0.00631498 -0.488838 0.170629 160 249 161
-0.28762 -0.441593 0.112648 160 249 161
-0.394759 -0.474272 0.0088016 160 249 161
-0.375863 -0.488577 -0.0735617 160 249 161
-0.0910907 -0.487538 0.242162 160 249 161
-0.249005 -0.487993 0.0967987 160 249 161
-0.175012 -0.488517 0.0374805 160 249 161
-0.408686 -0.453434 0.131886 160 249 161
-0.338365 -0.49037 0.00589711 160 249 161
-0.310085 -0.490056 -0.0803726 160 249 161
-0.0447366 -0.489516 -0.0156824 160 249 161
-0.33825 -0.437055 0.112954 160 249 161
-0.146309 -0.488505 -0.00481384 160 249 161
-0.200273 -0.486818 0.254176 160 249 161
-0.144177 -0.488475 0.0545388 160 249 161
-0.0764835 -0.490237 -0.152766 160 249 161
0.0212554 -0.488337 0.237203 160 249 161
-0.378561 -0.48183 0.120659 160 249 161
-0.167005 -0.487577 0.165828 160 249 161
-0.374467 -0.476908 -0.00248338 160 249 161
-0.419456 -0.4593 0.114909 160 249 161
0.0106227 -0.488211 0.277409 160 249 161
-0.34382 -0.485156 -0.0361148 160 249 161
-0.073333 -0.487512 0.190743 160 249 161
-0.427264 -0.440079 0.0873587 160 249 161
-0.251637 -0.488541 0.0318673 160 249 161
-0.0477625 -0.489162 -0.255374 160 249 161
-0.129462 -0.487885 0.106796 160 249 161
-0.047198 -0.487562 0.219895 160 249 161
-0.279795 -0.489955 -0.147843 160 249 161
-0.287722 -0.440917 0.122228 160 249 161
-0.166755 -0.487673 0.212612 160 249 161
-0.420551 -0.464326 0.0457069 160 249 161
0.0272539 -0.488366 0.24658 160 249 161
-0.0774406 -0.488296 0.0366739 160 249 161
-0.368467 -0.48677 -0.0741352 160 249 161
-0.363317 -0.433475 0.0789337 160 249 161
-0.36174 -0.485629 0.119324 160 249 161
-0.276479 -0.488013 -0.0763306 160 249 161
-0.237076 -0.488374 -0.128391 160 249 161
-0.226606 -0.486991 0.231344 160 249 161
-0.374222 -0.42927 0.064283 160 249 161
-0.270742 -0.487731 0.0979201 160 249 161
-0.252148 -0.48841 -0.164721 160 249 161
-0.039855 -0.489139 -0.204461 160 249 161
-0.184907 -0.487794 -0.216992 160 249 161
-0.255659 -0.486733 0.186556 160 249 161
-0.404632 -0.42964 0.0545269 160 249 161
-0.239465 -0.48865 0.034439 160 249 161
-0.388032 -0.428947 0.0495177 160 249 161
-0.368656 -0.485531 0.10116 160 249 161
-0.0800079 -0.487442 0.22772 160 249 161
-0.423725 -0.433363 0.0907217 160 249 161
-0.43132 -0.456504 0.0991644 160 249 161
-0.0562068 -0.488999 -0.259834 160 249 161
-0.218541 -0.488647 0.0504589 160 249 161
-0.422092 -0.4302 0.072551 160 249 161
0.0692581 -0.488513 0.100135 160 249 161
-0.23414 -0.48833 -0.23769 160 249 161
-0.216906 -0.488191 -0.143613 160 249 161
-0.296588 -0.487166 0.106443 160 249 161
-0.142214 -0.487904 0.283897 160 249 161
-0.363719 -0.487344 -0.0707295 160 249 161
0.0940485 -0.488955 -0.170505 160 249 161
-0.140411 -0.488459 -0.0984777 160 249 161
0.0257426 -0.488499 0.0291829 160 249 161
-0.320104 -0.489952 -0.0425512 160 249 161
-0.391389 -0.487212 -0.0395408 160 249 161
-0.204958 -0.488718 -0.0128491 160 249 161
-0.409671 -0.459511 0.0278455 160 249 161
-0.0112329 -0.488762 -0.0606001 160 249 161
-0.0607921 -0.488546 0.0716558 160 249 161
-0.24755 -0.486883 0.200453 160 249 161
-0.410414 -0.481739 0.0021906 160 249 161
-0.284565 -0.487222 0.117592 160 249 161
-0.238034 -0.488442 -0.105009 160 249 161
-0.147419 -0.48853 0.0322405 160 249 161
-0.295408 -0.440592 0.1182 160 249 161
-0.31492 -0.48691 0.0892533 160 249 161
-0.412934 -0.471499 0.0173662 160 249 161
-0.268496 -0.488395 0.0151795 160 249 161
-0.292237 -0.487928 0.0578749 160 249 161
-0.0641545 -0.488981 -0.0280658 160 249 161
-0.202946 -0.48793 0.136387 160 249 161
-0.296028 -0.436252 0.0703571 160 249 161
-0.0769818 -0.489132 -0.0908057 160 249 161
-0.0788501 -0.488644 -0.0314473 160 249 161
-0.407272 -0.481577 0.062152 160 249 161
-0.323794 -0.438404 0.112592 160 249 161
-0.337129 -0.486162 -0.135797 160 249 161
-0.126824 -0.48814 0.077399 160 249 161
-0.0166132 -0.489498 -0.252964 160 249 161
-0.0484838 -0.488041 -0.132165 160 249 161
-0.111473 -0.488147 0.0742455 160 249 161
-0.353949 -0.484553 -0.0318548 160 249 161
0.0692283 -0.489433 -0.0499997 160 249 161
-0.313266 -0.438695 0.132949 160 249 161
0.0359161 -0.48964 -0.155625 160 249 161
-0.384162 -0.485463 0.0561148 160 249 161
0.0715862 -0.489386 -0.0838984 160 249 161
-0.273859 -0.486615 0.192157 160 249 161
-0.395212 -0.426149 0.0710904 160 249 161
-0.294156 -0.487684 0.0736076 160 249 161
0.188549 -0.479709 -0.436694 192 234 140
0.203197 -0.303668 -0.256149 192 234 140
0.190718 -0.385511 -0.387139 192 234 140
0.187035 -0.378064 -0.47429 192 234 140
0.202476 -0.206096 -0.213946 192 234 140
-0.152463 -0.487793 -0.0654937 192 234 140
0.200729 -0.445449 -0.173914 192 234 140
0.175497 -0.48632 -0.317057 192 234 140
0.177156 -0.390556 -0.483393 192 234 140
0.202897 -0.232737 -0.185566 192 234 140
0.192335 -0.401051 -0.170222 192 234 140
0.168307 -0.315034 -0.469909 192 234 140
0.187536 -0.381381 -0.47089 192 234 140
0.184786 -0.233938 -0.479791 192 234 140
-0.0152872 -0.488899 -0.30187 192 234 140
0.18104 -0.48516 -0.32856 192 234 140
0.202635 -0.183516 -0.134042 192 234 140
0.190485 -0.403282 -0.338034 192 234 140
0.188931 -0.252665 -0.468501 192 234 140
0.107632 -0.485021 -0.490794 192 234 140
0.0776808 -0.487817 -0.018224 192 234 140
0.19228 -0.33137 -0.403591 192 234 140
0.198032 -0.183572 -0.294606 192 234 140
0.186633 -0.481673 -0.411516 192 234 140
0.173606 -0.372665 -0.482178 192 234 140
0.188419 -0.298952 -0.464572 192 234 140
0.194824 -0.292006 -0.376552 192 234 140
-0.0833243 -0.489685 -0.363087 192 234 140
0.196906 -0.270089 -0.413001 192 234 140
-0.141923 -0.487925 -0.00764865 192 234 140
-0.0569394 -0.488133 -0.19033 192 234 140
0.198965 -0.220565 -0.292957 192 234 140
0.196292 -0.219327 -0.445879 192 234 140
0.131076 -0.485598 0.199147 192 234 140
-0.227337 -0.487932 -0.194981 192 234 140
0.188124 -0.159514 -0.471432 192 234 140
0.198672 -0.194705 -0.437351 192 234 140
0.203633 -0.258093 -0.114643 192 234 140
0.184301 -0.246856 -0.478921 192 234 140
0.187416 -0.145556 -0.470087 192 234 140
0.19055 -0.449106 -0.268055 192 234 140
0.190557 -0.385461 -0.428367 192 234 140
0.0578729 -0.488918 -0.33672 192 234 140
0.194203 -0.421591 -0.202402 192 234 140
0.20293 -0.309554 -0.0607519 192 234 140
0.193597 -0.315595 -0.379492 192 234 140
0.189252 -0.206407 -0.475746 192 234 140
-0.154246 -0.487736 -0.0968836 192 234 140
0.192399 -0.380477 -0.36162 192 234 140
0.196794 -0.268854 -0.418763 192 234 140
0.202461 -0.328488 -0.14682 192 234 140
0.191269 -0.403184 -0.274904 192 234 140
0.197856 -0.181755 -0.406786 192 234 140
0.201862 -0.440933 -0.125694 192 234 140
0.189691 -0.409817 -0.175819 192 234 140
0.19684 -0.270594 -0.413445 192 234 140
0.110294 -0.488019 -0.314205 192 234 140
0.194623 -0.430396 -0.228978 192 234 140
0.20308 -0.290527 -0.0545868 192 234 140
-0.294846 -0.486326 0.172062 192 234 140
0.198324 -0.235502 -0.312258 192 234 140
0.204299 -0.281658 -0.178433 192 234 140
0.181491 -0.359986 -0.480545 192 234 140
-0.0490806 -0.488145 -0.0771128 192 234 140
0.191699 -0.343646 -0.401764 192 234 140
0.188891 -0.410732 -0.320761 192 234 140
0.196755 -0.224934 -0.364467 192 234 140
0.192689 -0.386529 -0.353584 192 234 140
-0.200942 -0.488039 -0.234197 192 234 140
0.163999 -0.486931 -0.279758 192 234 140
-0.0491081 -0.490618 -0.418019 192 234 140
0.187707 -0.423173 -0.451923 192 234 140
0.203004 -0.305664 -0.0589038 192 234 140
0.0524745 -0.485323 -0.492226 192 234 140
0.182977 -0.483735 -0.330111 192 234 140
0.181203 -0.364536 -0.481238 192 234 140
0.19388 -0.312508 -0.361051 192 234 140
0.174827 -0.473993 0.104592 192 234 140
0.187162 -0.425568 -0.453428 192 234 140
0.0822357 -0.48777 -0.0957415 192 234 140
0.19289 -0.333764 -0.351957 192 234 140
0.185324 -0.423393 -0.342064 192 234 140
0.201711 -0.160691 -0.214603 192 234 140
-0.0367993 -0.488301 0.040404 192 234 140
0.20071 -0.437401 0.11547 192 234 140
-0.179537 -0.487846 0.00965232 192 234 140
0.193668 -0.310393 -0.41351 192 234 140
0.183211 -0.274251 -0.481463 192 234 140
0.194877 -0.298567 -0.397735 192 234 140
0.178234 -0.484636 -0.40682 192 234 140
0.19651 -0.198793 -0.321145 192 234 140
0.196743 -0.258818 -0.373272 192 234 140
0.18669 -0.419454 -0.336742 192 234 140
0.201786 -0.369401 -0.106923 192 234 140
0.19508 -0.145475 -0.403142 192 234 140
0.203471 -0.233711 -0.149515 192 234 140
0.204357 -0.290895 -0.143735 192 234 140
0.174713 -0.486419 -0.316026 192 234 140
0.200329 -0.165347 -0.265118 192 234 140
0.190129 -0.373053 -0.409518 192 234 140
0.18996 -0.300928 -0.444223 192 234 140
-0.165031 -0.488053 -0.266847 192 234 140
0.202297 -0.186581 -0.18008 192 234 140
0.204105 -0.243844 -0.106583 192 234 140
-0.0530511 -0.488261 0.0984454 192 234 140
0.202615 -0.434242 0.0951675 192 234 140
0.183167 -0.265661 -0.479856 192 234 140
0.177511 -0.157364 -0.457785 192 234 140
-0.147259 -0.48963 -0.361012 192 234 140
0.194863 -0.291417 -0.386738 192 234 140
0.181864 -0.358291 -0.479881 192 234 140
-0.0959834 -0.488225 0.0738345 192 234 140
0.19423 -0.307385 -0.362961 192 234 140
-0.264748 -0.487181 0.0621832 192 234 140
0.203572 -0.31719 -0.120991 192 234 140
0.201823 -0.172728 -0.220182 192 234 140
-0.0301805 -0.488304 0.0631614 192 234 140
0.193918 -0.160763 -0.390916 192 234 140
0.194213 -0.318643 -0.337005 192 234 140
0.132987 -0.487925 -0.427303 192 234 140
0.171329 -0.486494 -0.291716 192 234 140
0.174591 -0.220843 -0.463621 192 234 140
-0.155317 -0.488022 -0.203138 192 234 140
0.194998 -0.152246 -0.447377 192 234 140
0.197725 -0.260123 -0.325203 192 234 140
-0.0858508 -0.488113 -0.000338484 192 234 140
-0.0835066 -0.488287 0.156396 192 234 140
0.197055 -0.179515 -0.402423 192 234 140
-0.0895106 -0.489643 -0.361939 192 234 140
0.189082 -0.46115 0.235642 192 234 140
0.184315 -0.250413 -0.479442 192 234 140
-0.198648 -0.487766 -0.131175 192 234 140
0.199649 -0.15575 -0.273584 192 234 140
0.202015 -0.236372 -0.232935 192 234 140
0.19726 -0.313894 -0.312758 192 234 140
0.19986 -0.2572 -0.299235 192 234 140
0.196778 -0.376232 -0.272562 192 234 140
0.188908 -0.248532 -0.471825 192 234 140
0.192183 -0.359308 -0.342198 192 234 140
0.189796 -0.366528 -0.437848 192 234 140
0.19593 -0.395357 -0.270515 192 234 140
0.194056 -0.349971 -0.319562 192 234 140
0.188245 -0.475885 -0.363745 192 234 140
-0.00803781 -0.488657 -0.288204 192 234 140
0.193477 -0.187597 -0.451003 192 234 140
0.188009 -0.475625 -0.364324 192 234 140
0.195162 -0.467029 -0.139889 192 234 140
-0.157236 -0.487825 -0.122917 192 234 140
0.202588 -0.2537 -0.236966 192 234 140
0.20071 -0.163602 -0.254934 192 234 140
0.201934 -0.21758 -0.24165 192 234 140
0.194462 -0.29732 -0.381289 192 234 140
0.19677 -0.440473 0.198262 192 234 140
0.193699 -0.422402 -0.240549 192 234 140
0.185733 -0.151647 -0.470686 192 234 140
0.187769 -0.396176 -0.474791 192 234 140
0.0169442 -0.489278 -0.338038 192 234 140
0.201251 -0.338985 -0.182305 192 234 140
0.190159 -0.378602 -0.421494 192 234 140
0.177617 -0.475187 0.0013786 192 234 140
0.198926 -0.189083 -0.412161 192 234 140
0.194633 -0.27135 -0.433497 192 234 140
0.197776 -0.363868 -0.262871 192 234 140
-0.139162 -0.487799 -0.0959581 192 234 140
0.195843 -0.278251 -0.38791 192 234 140
0.148352 -0.488538 -0.37688 192 234 140
0.19159 -0.344915 -0.405079 192 234 140
-0.181075 -0.488073 -0.22706 192 234 140
0.200743 -0.168454 -0.255279 192 234 140
0.186174 -0.189472 -0.476292 192 234 140
0.204409 -0.299299 -0.235392 192 234 140
0.05652 -0.489432 -0.375701 192 234 140
0.187924 -0.472434 -0.466451 192 234 140
0.194285 -0.30664 -0.367697 192 234 140
0.204379 -0.283518 -0.175026 192 234 140
0.187714 -0.155727 -0.472541 192 234 140
0.197725 -0.221296 -0.318239 192 234 140
0.178762 -0.482834 -0.251481 192 234 140
-0.241455 -0.487199 0.193373 192 234 140
0.195854 -0.170603 -0.446195 192 234 140
0.197421 -0.17935 -0.303831 192 234 140
-0.288679 -0.48653 0.145376 192 234 140
0.190133 -0.404803 -0.208653 192 234 140
0.192063 -0.347153 -0.359581 192 234 140
0.188531 -0.26549 -0.464911 192 234 140
0.0923554 -0.487875 -0.286909 192 234 140
0.201735 -0.274759 -0.285616 192 234 140
0.121387 -0.486736 0.0762014 192 234 140
0.047321 -0.48783 -0.178511 192 234 140
0.166455 -0.484245 -0.170985 192 234 140
0.196219 -0.166769 -0.318822 192 234 140
0.201512 -0.164551 -0.228263 192 234 140
0.194463 -0.309615 -0.345323 192 234 140
0.178477 -0.482692 -0.244381 192 234 140
0.19178 -0.353359 -0.371195 192 234 140
0.185518 -0.21894 -0.479662 192 234 140
0.190539 -0.268202 -0.450676 192 234 140
-0.204484 -0.487791 -0.142853 192 234 140
0.184022 -0.378471 -0.481563 192 234 140
