ply
format ascii 1.0
comment Created by Open3D
element vertex 1156
property double x
property double y
property double z
property uchar red
property uchar green
property uchar blue
end_header
0.187016 -0.0949818 -0.2986 192 234 140
0.179792 -0.210103 -0.297993 192 234 140
0.178459 -0.111142 -0.0596159 192 234 140
0.173613 -0.378764 -0.285508 192 234 140
0.00633774 -0.386671 -0.323841 192 234 140
0.0183769 -0.189341 -0.326258 192 234 140
-0.0184073 -0.377727 -0.323383 192 234 140
-0.0993475 -0.349669 -0.319811 192 234 140
0.181532 -0.187672 -0.259735 192 234 140
0.175237 -0.333462 -0.270934 192 234 140
0.172331 -0.450213 -0.200883 192 234 140
0.174613 -0.279978 -0.309923 192 234 140
0.102985 -0.0865518 -0.321706 192 234 140
0.180452 -0.17754 -0.211286 192 234 140
0.0168252 -0.298952 -0.324564 192 234 140
-0.0295832 -0.487213 -0.27431 192 234 140
0.169547 -0.286118 -0.317637 192 234 140
0.0777068 -0.30302 -0.322388 192 234 140
0.0242349 -0.458086 -0.318156 192 234 140
0.14516 -0.488008 -0.298561 192 234 140
0.176607 -0.293999 -0.265133 192 234 140
0.175328 -0.285478 -0.19369 192 234 140
0.175959 -0.47757 -0.232155 192 234 140
0.0654113 -0.221854 -0.32241 192 234 140
0.0941002 -0.402938 -0.323374 192 234 140
0.175185 -0.337048 -0.260413 192 234 140
0.042451 -0.23977 -0.32429 192 234 140
0.173739 -0.371124 -0.287002 192 234 140
0.0984354 -0.350075 -0.32296 192 234 140
0.0562505 -0.152782 -0.323581 192 234 140
0.180447 -0.159582 -0.162159 192 234 140
0.18422 -0.119956 -0.225672 192 234 140
0.186051 -0.373692 -0.0687731 192 234 140
0.125926 -0.419754 -0.321541 192 234 140
0.173852 -0.414627 -0.182037 192 234 140
0.0624637 -0.33682 -0.323937 192 234 140
-0.0903067 -0.387133 -0.3196 192 234 140
0.032573 -0.296219 -0.325062 192 234 140
0.170893 -0.454966 -0.309873 192 234 140
-0.115548 -0.339979 -0.318393 192 234 140
0.174867 -0.325559 -0.284091 192 234 140
-0.174747 -0.486563 -0.104809 192 234 140
0.127854 -0.172371 -0.321128 192 234 140
0.0647308 -0.313033 -0.323467 192 234 140
0.183624 -0.0899564 -0.183635 192 234 140
-0.0475053 -0.396271 -0.321543 192 234 140
0.0176704 -0.37325 -0.324094 192 234 140
0.177581 -0.268331 -0.254945 192 234 140
0.17501 -0.332242 -0.244608 192 234 140
0.00686888 -0.268654 -0.324189 192 234 140
0.0151574 -0.289598 -0.324416 192 234 140
0.0522727 -0.335003 -0.324496 192 234 140
0.182826 -0.287486 -0.065156 192 234 140
0.0172828 -0.114903 -0.325567 192 234 140
-0.0464504 -0.314109 -0.321951 192 234 140
0.181613 -0.452447 -0.0527358 192 234 140
0.178339 -0.21923 -0.236923 192 234 140
0.127609 -0.170614 -0.321193 192 234 140
0.173493 -0.430488 -0.186653 192 234 140
0.09387 -0.121207 -0.321924 192 234 140
0.176058 -0.269692 -0.189246 192 234 140
0.0775498 -0.426626 -0.322718 192 234 140
0.17248 -0.440415 -0.26999 192 234 140
0.172849 -0.394441 -0.191791 192 234 140
0.0639004 -0.450168 -0.319815 192 234 140
0.177771 -0.239596 -0.180133 192 234 140
0.187551 -0.107245 -0.287284 192 234 140
0.184546 -0.423466 -0.0891794 192 234 140
-0.009841 -0.487554 -0.224507 192 234 140
0.133973 -0.333394 -0.320983 192 234 140
0.0755822 -0.411247 -0.32329 192 234 140
0.172976 -0.448106 -0.217719 192 234 140
0.123564 -0.193513 -0.320496 192 234 140
-0.068738 -0.388334 -0.320629 192 234 140
0.169174 -0.069825 -0.325252 192 234 140
0.0430935 -0.485568 -0.3145 192 234 140
0.000312977 -0.218205 -0.325397 192 234 140
-0.080779 -0.400948 -0.319407 192 234 140
0.0695327 -0.193064 -0.322528 192 234 140
0.173823 -0.377834 -0.239358 192 234 140
0.180871 -0.39124 -0.137609 192 234 140
0.179187 -0.201962 -0.195693 192 234 140
-0.00187175 -0.114062 -0.326113 192 234 140
0.180037 -0.14422 -0.115915 192 234 140
0.18368 -0.0994392 -0.191363 192 234 140
0.0583615 -0.143091 -0.323321 192 234 140
0.171028 -0.413143 -0.293867 192 234 140
0.0597066 -0.303134 -0.32374 192 234 140
0.14644 -0.152896 -0.322018 192 234 140
0.179257 -0.307956 -0.134213 192 234 140
0.0284862 -0.338323 -0.324747 192 234 140
0.0349853 -0.424874 -0.322608 192 234 140
0.0154747 -0.485666 -0.314483 192 234 140
0.175446 -0.2901 -0.220384 192 234 140
0.0241941 -0.281593 -0.324963 192 234 140
0.179734 -0.105418 -0.0935516 192 234 140
0.179626 -0.145155 -0.0660755 192 234 140
0.130664 -0.436655 -0.32045 192 234 140
0.17184 -0.421413 -0.279091 192 234 140
0.180298 -0.0880128 -0.3229 192 234 140
0.169365 -0.281127 -0.318123 192 234 140
0.0988703 -0.304153 -0.321959 192 234 140
0.173011 -0.443763 -0.228524 192 234 140
0.0318141 -0.400724 -0.32374 192 234 140
0.00695759 -0.117585 -0.326029 192 234 140
0.107996 -0.280788 -0.321052 192 234 140
0.162844 -0.303446 -0.320315 192 234 140
0.181175 -0.076912 -0.128348 192 234 140
0.0604988 -0.199959 -0.323101 192 234 140
0.13217 -0.167271 -0.321177 192 234 140
0.164174 -0.278418 -0.320221 192 234 140
0.161604 -0.208169 -0.321109 192 234 140
0.179399 -0.22245 -0.276039 192 234 140
-0.0406571 -0.345419 -0.3227 192 234 140
0.0915276 -0.28963 -0.321858 192 234 140
0.0849772 -0.453482 -0.318698 192 234 140
0.0377262 -0.275367 -0.324754 192 234 140
0.187421 -0.115476 -0.286647 192 234 140
0.154561 -0.188906 -0.321216 192 234 140
0.17616 -0.266434 -0.214432 192 234 140
-0.0792049 -0.23985 -0.321607 192 234 140
-0.00628917 -0.366065 -0.32391 192 234 140
0.135668 -0.304268 -0.320309 192 234 140
0.181392 -0.192765 -0.268504 192 234 140
0.177068 -0.484484 -0.129585 192 234 140
0.182342 -0.135543 -0.202426 192 234 140
0.180781 -0.175582 -0.227576 192 234 140
0.174617 -0.28166 -0.309776 192 234 140
0.177597 -0.251074 -0.178024 192 234 140
0.180877 -0.188942 -0.244312 192 234 140
0.17517 -0.324245 -0.234541 192 234 140
0.175542 -0.489515 -0.260122 192 234 140
0.0925894 -0.32402 -0.322599 192 234 140
0.132324 -0.233107 -0.319686 192 234 140
0.146361 -0.486846 -0.309516 192 234 140
0.177022 -0.483248 -0.260375 192 234 140
0.184435 -0.121827 -0.230168 192 234 140
0.181654 -0.158553 -0.222945 192 234 140
0.181108 -0.152897 -0.177371 192 234 140
0.174873 -0.463371 -0.173954 192 234 140
0.17115 -0.444017 -0.299886 192 234 140
0.178996 -0.122892 -0.069799 192 234 140
0.180471 -0.147037 -0.108144 192 234 140
0.186035 -0.10207 -0.25043 192 234 140
0.0912482 -0.1835 -0.321416 192 234 140
0.144948 -0.18702 -0.320705 192 234 140
0.18044 -0.200617 -0.255987 192 234 140
0.181009 -0.235316 -0.141988 192 234 140
0.102252 -0.333602 -0.322415 192 234 140
0.185131 -0.142262 -0.26049 192 234 140
0.173924 -0.375114 -0.250064 192 234 140
0.180797 -0.192017 -0.246748 192 234 140
0.092038 -0.335538 -0.322879 192 234 140
0.0819971 -0.223473 -0.321162 192 234 140
0.0700486 -0.294293 -0.322713 192 234 140
-0.0199255 -0.349903 -0.323493 192 234 140
0.0764802 -0.1627 -0.322321 192 234 140
0.106597 -0.149865 -0.321888 192 234 140
0.137274 -0.123714 -0.321573 192 234 140
-0.0854757 -0.375163 -0.320284 192 234 140
0.176317 -0.277007 -0.28495 192 234 140
0.00728057 -0.252783 -0.324667 192 234 140
0.173712 -0.440293 -0.178371 192 234 140
0.0401832 -0.441235 -0.321107 192 234 140
-0.0749966 -0.325473 -0.320454 192 234 140
0.0838131 -0.278776 -0.32156 192 234 140
-0.0671094 -0.302392 -0.320517 192 234 140
0.0163391 -0.165662 -0.32633 192 234 140
0.184907 -0.153047 -0.277445 192 234 140
0.035231 -0.376115 -0.323991 192 234 140
0.0462453 -0.375626 -0.323956 192 234 140
0.00759972 -0.306714 -0.324066 192 234 140
0.11576 -0.120961 -0.32157 192 234 140
0.180646 -0.161584 -0.0760696 192 234 140
0.172517 -0.435598 -0.230993 192 234 140
0.172454 -0.398211 -0.202952 192 234 140
0.155543 -0.198627 -0.320999 192 234 140
-0.125248 -0.487902 -0.186322 192 234 140
0.0237509 -0.487788 -0.157063 192 234 140
0.180119 -0.287937 -0.132112 192 234 140
0.0118689 -0.422677 -0.323497 192 234 140
0.0696229 -0.200294 -0.322428 192 234 140
-0.0899094 -0.447879 -0.315587 192 234 140
0.0670103 -0.445068 -0.321072 192 234 140
0.175657 -0.469122 -0.253573 192 234 140
0.128149 -0.330183 -0.321443 192 234 140
0.157232 -0.475057 -0.316824 192 234 140
0.17709 -0.250309 -0.304675 192 234 140
-0.0110875 -0.28574 -0.323256 192 234 140
0.00376603 -0.132053 -0.326173 192 234 140
0.0772372 -0.124124 -0.322257 192 234 140
0.0987214 -0.379461 -0.323079 192 234 140
0.0917873 -0.317777 -0.322497 192 234 140
-0.103217 -0.397855 -0.318086 192 234 140
0.177908 -0.42963 -0.158693 192 234 140
-0.0812786 -0.455739 -0.313872 192 234 140
0.0898287 -0.34842 -0.323317 192 234 140
0.0453025 -0.44792 -0.320242 192 234 140
-0.0732409 -0.455929 -0.314511 192 234 140
-0.0278972 -0.377082 -0.322968 192 234 140
0.0886227 -0.464003 -0.315559 192 234 140
0.0274388 -0.159834 -0.325578 192 234 140
0.173064 -0.404187 -0.254931 192 234 140
-0.0150598 -0.405677 -0.323133 192 234 140
0.181384 -0.260397 -0.110115 192 234 140
0.186837 -0.121424 -0.298939 192 234 140
0.175477 -0.290097 -0.217998 192 234 140
0.162741 -0.253663 -0.320497 192 234 140
0.181363 -0.458151 -0.0354501 192 234 140
0.170993 -0.106842 -0.325313 192 234 140
0.179171 -0.37649 -0.142004 192 234 140
-0.105217 -0.36982 -0.319056 192 234 140
0.176073 -0.257733 -0.308844 192 234 140
-0.0905982 -0.448965 -0.315465 192 234 140
0.173846 -0.38661 -0.178616 192 234 140
0.0402424 -0.313044 -0.324938 192 234 140
0.175235 -0.331009 -0.274323 192 234 140
-0.149531 -0.487753 -0.277207 192 234 140
0.185793 -0.117579 -0.250987 192 234 140
0.0409628 -0.263687 -0.324464 192 234 140
0.0348535 -0.163996 -0.325206 192 234 140
0.118029 -0.109304 -0.321428 192 234 140
0.177634 -0.188248 -0.315843 192 234 140
0.180985 -0.16236 -0.215364 192 234 140
0.0105681 -0.350224 -0.324467 192 234 140
0.172716 -0.399168 -0.274973 192 234 140
0.0801866 -0.163205 -0.322155 192 234 140
0.171706 -0.444577 -0.295929 192 234 140
-0.0862044 -0.488099 -0.150648 192 234 140
-0.103371 -0.487782 -0.21156 192 234 140
-0.111602 -0.487735 -0.23442 192 234 140
0.035674 -0.416239 -0.322875 192 234 140
0.170868 -0.164245 -0.323337 192 234 140
0.034321 -0.481424 -0.313359 192 234 140
0.173876 -0.329929 -0.193366 192 234 140
0.128629 -0.404939 -0.321636 192 234 140
0.100439 -0.481776 -0.307048 192 234 140
0.180506 -0.135513 -0.146697 192 234 140
-0.0420254 -0.289323 -0.321778 192 234 140
0.143099 -0.295289 -0.320386 192 234 140
0.0437742 -0.0934239 -0.323752 192 234 140
0.177376 -0.253887 -0.2877 192 234 140
0.0627121 -0.449549 -0.320051 192 234 140
-0.0278894 -0.398285 -0.32233 192 234 140
0.174707 -0.428685 -0.1776 192 234 140
0.17036 -0.268962 -0.317138 192 234 140
0.143809 -0.295571 -0.32041 192 234 140
0.160717 -0.146977 -0.323554 192 234 140
0.0302392 -0.269327 -0.325115 192 234 140
0.175527 -0.326109 -0.266548 192 234 140
0.114944 -0.375177 -0.322549 192 234 140
0.156748 -0.487436 -0.16372 192 234 140
0.107635 -0.274216 -0.320826 192 234 140
-0.0069584 -0.129257 -0.326326 192 234 140
0.00568978 -0.341735 -0.324428 192 234 140
-0.0892363 -0.26669 -0.320346 192 234 140
0.00328218 -0.3036 -0.323764 192 234 140
-0.0105658 -0.248761 -0.324124 192 234 140
0.174767 -0.463827 -0.235887 192 234 140
0.179688 -0.149386 -0.140453 192 234 140
0.173843 -0.395957 -0.180388 192 234 140
-0.0507032 -0.365896 -0.321961 192 234 140
0.184713 -0.34853 -0.0510218 192 234 140
0.0760251 -0.302431 -0.32241 192 234 140
0.181132 -0.158057 -0.195285 192 234 140
0.179577 -0.223544 -0.27108 192 234 140
-0.019674 -0.434916 -0.321424 192 234 140
-0.0108206 -0.242936 -0.324276 192 234 140
0.0313157 -0.157104 -0.325292 192 234 140
0.00233282 -0.47989 -0.313291 192 234 140
0.0468064 -0.128854 -0.323913 192 234 140
0.173196 -0.450107 -0.219775 192 234 140
-0.0050298 -0.143682 -0.326359 192 234 140
0.174257 -0.35675 -0.244624 192 234 140
0.177701 -0.24756 -0.287192 192 234 140
0.176358 -0.463759 -0.154696 192 234 140
0.165545 -0.120347 -0.324685 192 234 140
0.00509625 -0.233396 -0.325167 192 234 140
0.182758 -0.122062 -0.181583 192 234 140
-0.0155101 -0.405041 -0.323113 192 234 140
-0.0906984 -0.278416 -0.320019 192 234 140
0.177572 -0.27566 -0.264126 192 234 140
0.0389449 -0.424379 -0.322672 192 234 140
0.184184 -0.13337 -0.234863 192 234 140
0.178708 -0.198317 -0.167481 192 234 140
0.0470292 -0.245929 -0.323834 192 234 140
0.0935404 -0.486636 -0.13613 192 234 140
-0.0154241 -0.406273 -0.323119 192 234 140
0.105975 -0.277425 -0.321043 192 234 140
0.0458781 -0.144591 -0.324145 192 234 140
0.17742 -0.305172 -0.151991 192 234 140
0.153091 -0.488056 -0.29214 192 234 140
0.177524 -0.241141 -0.243049 192 234 140
0.175587 -0.476938 -0.184318 192 234 140
-0.0412019 -0.267826 -0.32224 192 234 140
0.172074 -0.447004 -0.295072 192 234 140
-0.097518 -0.254566 -0.319896 192 234 140
0.0780128 -0.314534 -0.322731 192 234 140
0.176598 -0.270268 -0.285931 192 234 140
0.149702 -0.386458 -0.32114 192 234 140
0.176771 -0.419345 -0.16383 192 234 140
-0.0525252 -0.283175 -0.321204 192 234 140
0.16594 -0.201991 -0.321399 192 234 140
0.180677 -0.199448 -0.262884 192 234 140
-0.127969 -0.430242 -0.313647 192 234 140
0.172968 -0.187771 -0.32128 192 234 140
0.0758181 -0.194015 -0.322074 192 234 140
0.175154 -0.319522 -0.22038 192 234 140
0.0413428 -0.253037 -0.324382 192 234 140
0.0745285 -0.239629 -0.321569 192 234 140
0.153497 -0.423879 -0.321335 192 234 140
0.177644 -0.232828 -0.18676 192 234 140
-0.00317207 -0.355754 -0.324059 192 234 140
0.172206 -0.113329 -0.325121 192 234 140
-0.000183132 -0.291256 -0.32358 192 234 140
0.180424 -0.205771 -0.272196 192 234 140
0.155048 -0.160559 -0.322383 192 234 140
0.106424 -0.328409 -0.322185 192 234 140
0.0830203 -0.238677 -0.321078 192 234 140
0.167541 -0.435102 -0.317147 192 234 140
-0.179949 -0.487855 -0.200774 192 234 140
-0.0794633 -0.220854 -0.322307 192 234 140
-0.0730258 -0.235655 -0.32192 192 234 140
0.000676304 -0.375292 -0.324011 192 234 140
0.139238 -0.443807 -0.319807 192 234 140
0.179598 -0.176733 -0.153215 192 234 140
0.0638008 -0.424731 -0.322929 192 234 140
0.0776635 -0.264361 -0.321414 192 234 140
-0.0920306 -0.487963 -0.169486 192 234 140
-0.133757 -0.440203 -0.311855 192 234 140
-0.0334946 -0.16637 -0.326128 192 234 140
-0.00193369 -0.486976 -0.294796 192 234 140
0.116496 -0.256578 -0.320073 192 234 140
0.099951 -0.362948 -0.322959 192 234 140
-0.130554 -0.477224 -0.314561 192 234 140
0.0986444 -0.133368 -0.321866 192 234 140
-0.321559 -0.392518 -0.226961 224 210 119
-0.310358 -0.395354 -0.0143543 224 210 119
-0.0847388 -0.202834 -0.32698 224 210 119
-0.389875 -0.333685 -0.156269 224 210 119
-0.0843368 -0.148888 -0.328447 224 210 119
-0.123403 -0.145697 -0.326839 224 210 119
-0.0807672 -0.387742 -0.336346 224 210 119
-0.125632 -0.182907 -0.326124 224 210 119
-0.0869281 -0.23291 -0.327893 224 210 119
-0.254483 -0.381289 -0.24135 224 210 119
0.0107772 -0.197189 -0.327513 224 210 119
-0.15843 -0.349161 -0.323801 224 210 119
-0.308161 -0.392833 -0.237881 224 210 119
-0.280186 -0.4176 -0.0874622 224 210 119
-0.0509432 -0.467344 -0.212451 224 210 119
-0.0994136 -0.484147 -0.055869 224 210 119
-0.121896 -0.141807 -0.327022 224 210 119
-0.335091 -0.443312 -0.205006 224 210 119
-0.114426 -0.206948 -0.325584 224 210 119
-0.0310646 -0.484758 -0.27137 224 210 119
-0.100597 -0.322005 -0.335872 224 210 119
0.0119389 -0.176616 -0.318402 224 210 119
-0.104651 -0.178496 -0.326465 224 210 119
-0.400381 -0.331991 -0.126636 224 210 119
-0.279344 -0.417469 -0.0305044 224 210 119
-0.164417 -0.385632 -0.327482 224 210 119
0.0809324 -0.101946 -0.332822 224 210 119
0.0533373 -0.205321 -0.326829 224 210 119
-0.247406 -0.463062 -0.0417341 224 210 119
-0.0118908 -0.143518 -0.331239 224 210 119
0.0476444 -0.112094 -0.326371 224 210 119
-0.264877 -0.458488 2.51792e-05 224 210 119
-0.108703 -0.374168 -0.329016 224 210 119
-0.400826 -0.336811 -0.141656 224 210 119
-0.160878 -0.304505 -0.32622 224 210 119
0.126213 -0.120395 -0.324937 224 210 119
-0.0982066 -0.396322 -0.326929 224 210 119
-0.324996 -0.368519 -0.219787 224 210 119
0.0562027 -0.443766 -0.327103 224 210 119
-0.352688 -0.335929 -0.074513 224 210 119
0.0535637 -0.310412 -0.325476 224 210 119
-0.135518 -0.485586 -0.0983888 224 210 119
-0.137847 -0.155257 -0.328464 224 210 119
-0.154936 -0.473824 -0.32812 224 210 119
-0.268569 -0.357418 -0.222636 224 210 119
-0.284869 -0.432575 -0.0299452 224 210 119
-0.375639 -0.332815 -0.139028 224 210 119
-0.200326 -0.381339 -0.321269 224 210 119
-0.235807 -0.441798 -0.302297 224 210 119
-0.0934699 -0.265965 -0.328219 224 210 119
-0.114734 -0.423006 -0.322833 224 210 119
-0.311797 -0.342426 -0.152335 224 210 119
-0.0934846 -0.244487 -0.327732 224 210 119
-0.102602 -0.329278 -0.328373 224 210 119
-0.394771 -0.333068 -0.107551 224 210 119
-0.149624 -0.368853 -0.328629 224 210 119
-0.118914 -0.468945 -0.330024 224 210 119
-0.123655 -0.319545 -0.328084 224 210 119
-0.261366 -0.371754 -0.267629 224 210 119
-0.0927055 -0.35642 -0.328562 224 210 119
-0.0507072 -0.486167 -0.263396 224 210 119
0.0820995 -0.112669 -0.332269 224 210 119
-0.337185 -0.375621 -0.215128 224 210 119
-0.348715 -0.339965 -0.180457 224 210 119
-0.0836967 -0.146977 -0.329593 224 210 119
-0.287464 -0.39704 -0.118229 224 210 119
-0.0795137 -0.263073 -0.328964 224 210 119
-0.0647867 -0.457764 -0.328581 224 210 119
-0.260232 -0.353601 -0.2439 224 210 119
-0.426443 -0.39867 -0.0836921 224 210 119
-0.00470568 -0.478096 -0.302826 224 210 119
-0.105943 -0.309244 -0.328295 224 210 119
0.00342687 -0.0848466 -0.329366 224 210 119
-0.29379 -0.401413 -0.25057 224 210 119
-0.328425 -0.411419 -0.0960696 224 210 119
-0.33524 -0.337595 -0.0795371 224 210 119
-0.315713 -0.373527 -0.227456 224 210 119
-0.115107 -0.109808 -0.324279 224 210 119
-0.270938 -0.454712 -0.270108 224 210 119
-0.395146 -0.357004 -0.175485 224 210 119
-0.12981 -0.297334 -0.327698 224 210 119
-0.285543 -0.420599 -0.0534865 224 210 119
-0.149909 -0.339071 -0.324822 224 210 119
-0.209355 -0.444078 -0.322211 224 210 119
-0.169897 -0.247865 -0.32411 224 210 119
-0.217927 -0.342455 -0.294359 224 210 119
-0.151364 -0.194807 -0.326114 224 210 119
0.112398 -0.206947 -0.324248 224 210 119
-0.13953 -0.211189 -0.326167 224 210 119
-0.256625 -0.431432 -0.17156 224 210 119
-0.0481794 -0.159908 -0.329968 224 210 119
0.0828697 -0.0812738 -0.332285 224 210 119
-0.18034 -0.436752 -0.326125 224 210 119
-0.108411 -0.290172 -0.337182 224 210 119
-0.125317 -0.16783 -0.326268 224 210 119
0.055165 -0.439939 -0.326979 224 210 119
-0.0974027 -0.16992 -0.33329 224 210 119
-0.27403 -0.421486 -0.29699 224 210 119
-0.0972311 -0.443465 -0.321301 224 210 119
-0.128949 -0.341317 -0.326956 224 210 119
0.0462308 -0.387084 -0.325934 224 210 119
-0.242912 -0.44946 -0.297341 224 210 119
-0.090792 -0.419983 -0.328996 224 210 119
-0.195492 -0.399114 -0.317712 224 210 119
-0.359392 -0.344175 -0.0164654 224 210 119
-0.331348 -0.339509 -0.167829 224 210 119
-0.33503 -0.341604 -0.187135 224 210 119
-0.126505 -0.285483 -0.327388 224 210 119
-0.224139 -0.358645 -0.294019 224 210 119
-0.0331195 -0.418526 -0.323049 224 210 119
-0.385354 -0.387128 -0.100581 224 210 119
-0.275831 -0.373851 -0.0934504 224 210 119
-0.0991713 -0.462188 -0.269746 224 210 119
-0.110158 -0.122557 -0.32537 224 210 119
-0.18732 -0.404494 -0.326889 224 210 119
-0.20264 -0.385114 -0.32009 224 210 119
-0.276511 -0.367054 -0.20251 224 210 119
-0.13418 -0.179972 -0.329949 224 210 119
0.0436449 -0.208671 -0.326955 224 210 119
-0.0603392 -0.21207 -0.330608 224 210 119
-0.164215 -0.382648 -0.32095 224 210 119
-0.0691207 -0.425644 -0.32816 224 210 119
-0.375119 -0.339319 -0.17628 224 210 119
-0.107794 -0.313122 -0.332755 224 210 119
-0.353851 -0.39702 -0.179526 224 210 119
-0.182236 -0.457665 -0.101866 224 210 119
-0.157109 -0.3085 -0.328117 224 210 119
-0.186218 -0.322906 -0.323149 224 210 119
-0.173168 -0.458697 -0.0931666 224 210 119
-0.369716 -0.365233 -0.191016 224 210 119
-0.271912 -0.365945 -0.213377 224 210 119
-0.220834 -0.382715 -0.302681 224 210 119
-0.325006 -0.429239 -0.137129 224 210 119
-0.214736 -0.397971 -0.298598 224 210 119
-0.298358 -0.348645 -0.157734 224 210 119
-0.202305 -0.35255 -0.312373 224 210 119
-0.130155 -0.208535 -0.325884 224 210 119
-0.247033 -0.404785 -0.288118 224 210 119
-0.358897 -0.342415 -0.185027 224 210 119
-0.196869 -0.423234 -0.324393 224 210 119
-0.143927 -0.185181 -0.326082 224 210 119
-0.0366036 -0.192146 -0.324918 224 210 119
-0.0347586 -0.483081 -0.189886 224 210 119
-0.081428 -0.166152 -0.327809 224 210 119
0.0323435 -0.384674 -0.326364 224 210 119
0.0112012 -0.0831479 -0.329992 224 210 119
-0.391764 -0.36329 -0.0602592 224 210 119
-0.0358971 -0.195979 -0.328857 224 210 119
-0.380419 -0.354218 -0.125039 224 210 119
-0.34504 -0.377631 -0.223414 224 210 119
-0.12521 -0.442792 -0.329373 224 210 119
-0.0813488 -0.338068 -0.330876 224 210 119
-0.301231 -0.37724 -0.0414982 224 210 119
0.0978778 -0.0825563 -0.33284 224 210 119
-0.0918602 -0.0960068 -0.330548 224 210 119
-0.0624301 -0.45113 -0.325044 224 210 119
-0.214919 -0.395695 -0.311995 224 210 119
-0.244826 -0.379856 -0.283774 224 210 119
-0.273304 -0.351787 -0.227268 224 210 119
-0.419929 -0.372689 -0.14882 224 210 119
-0.101801 -0.263148 -0.327654 224 210 119
-0.275422 -0.430936 -0.0175551 224 210 119
-0.264191 -0.443408 -0.183428 224 210 119
-0.387854 -0.398746 -0.18763 224 210 119
-0.100928 -0.358629 -0.325875 224 210 119
-0.351564 -0.336179 -0.0941516 224 210 119
-0.363708 -0.335749 -0.0934481 224 210 119
-0.13803 -0.457353 -0.298074 224 210 119
-0.225876 -0.415715 -0.305265 224 210 119
-0.160984 -0.345322 -0.323005 224 210 119
-0.287888 -0.41483 -0.256967 224 210 119
0.103519 -0.0764719 -0.330512 224 210 119
0.00320624 -0.331814 -0.32677 224 210 119
-0.109305 -0.328763 -0.328369 224 210 119
-0.071432 -0.466058 -0.2175 224 210 119
0.0521063 -0.210646 -0.326743 224 210 119
-0.357691 -0.39698 -0.0736442 224 210 119
-0.363342 -0.359471 -0.191937 224 210 119
-0.272958 -0.429451 -0.271161 224 210 119
-0.172151 -0.245994 -0.321489 224 210 119
-0.0909286 -0.122941 -0.329292 224 210 119
-0.365372 -0.362556 -0.184649 224 210 119
-0.330117 -0.415492 -0.172672 224 210 119
-0.015499 -0.205758 -0.315952 224 210 119
-0.148445 -0.370244 -0.327899 224 210 119
-0.296612 -0.348879 -0.171777 224 210 119
0.106452 -0.205076 -0.324594 224 210 119
-0.167957 -0.345206 -0.317382 224 210 119
-0.174063 -0.41061 -0.327703 224 210 119
-0.175929 -0.344371 -0.31128 224 210 119
-0.268508 -0.414045 -0.160661 224 210 119
-0.288016 -0.365596 -0.12335 224 210 119
-0.368927 -0.340111 -0.179268 224 210 119
-0.389879 -0.331787 -0.137798 224 210 119
-0.313982 -0.376359 -0.229366 224 210 119
-0.11232 -0.447069 -0.329195 224 210 119
-0.39047 -0.383137 -0.0217017 224 210 119
-0.070707 -0.324365 -0.338503 224 210 119
0.0457305 -0.423689 -0.326817 224 210 119
-0.224934 -0.421206 -0.307447 224 210 119
-0.242528 -0.412693 -0.305195 224 210 119
-0.294095 -0.448644 -0.240151 224 210 119
-0.195129 -0.481296 -0.0812254 224 210 119
-0.130293 -0.387647 -0.328598 224 210 119
-0.371151 -0.34434 -0.183294 224 210 119
-0.178497 -0.457972 -0.117932 224 210 119
-0.0565741 -0.484871 -0.210585 224 210 119
-0.2109 -0.402711 -0.316608 224 210 119
-0.281968 -0.38954 -0.100327 224 210 119
-0.19971 -0.376561 -0.320613 224 210 119
-0.0515178 -0.483888 -0.143353 224 210 119
-0.225876 -0.430292 -0.308862 224 210 119
-0.264461 -0.426203 -0.277714 224 210 119
-0.0940397 -0.21197 -0.341299 224 210 119
0.00117093 -0.163304 -0.329361 224 210 119
-0.106984 -0.161211 -0.332235 224 210 119
-0.302263 -0.42626 -0.0988062 224 210 119
-0.410626 -0.401508 -0.160224 224 210 119
0.00937581 -0.38203 -0.326949 224 210 119
-0.306353 -0.380044 -0.235761 224 210 119
0.0170314 -0.12929 -0.332381 224 210 119
-0.287511 -0.363264 -0.160689 224 210 119
-0.0291784 -0.408113 -0.327426 224 210 119
-0.160857 -0.332398 -0.328248 224 210 119
-0.192311 -0.36053 -0.324089 224 210 119
-0.262751 -0.443834 -0.185229 224 210 119
-0.376466 -0.399031 -0.194282 224 210 119
-0.304335 -0.344686 -0.178678 224 210 119
-0.194702 -0.347386 -0.298804 224 210 119
-0.392705 -0.359585 -0.177713 224 210 119
-0.316858 -0.387856 -0.128892 224 210 119
-0.339279 -0.349314 -0.0262542 224 210 119
-0.238969 -0.403629 -0.265614 224 210 119
0.0272559 -0.284822 -0.326199 224 210 119
-0.160248 -0.214242 -0.325421 224 210 119
-0.320077 -0.381907 -0.227537 224 210 119
-0.238778 -0.388218 -0.291423 224 210 119
-0.114761 -0.373459 -0.338106 224 210 119
-0.100222 -0.200229 -0.3261 224 210 119
-0.0416275 -0.182543 -0.326631 224 210 119
-0.0519901 -0.46728 -0.22209 224 210 119
0.0353699 -0.456617 -0.327833 224 210 119
-0.362959 -0.340134 -0.0287701 224 210 119
-0.205384 -0.339041 -0.296714 224 210 119
-0.2954 -0.358316 -0.229754 224 210 119
0.00017678 -0.209101 -0.327765 224 210 119
-0.150016 -0.462066 -0.328768 224 210 119
-0.123357 -0.371324 -0.328434 224 210 119
-0.0498192 -0.463105 -0.323227 224 210 119
-0.372242 -0.333243 -0.145658 224 210 119
-0.330751 -0.445222 -0.206308 224 210 119
-0.145105 -0.330951 -0.328007 224 210 119
-0.0392251 -0.205866 -0.32553 224 210 119
-0.114165 -0.460892 -0.268692 224 210 119
-0.188695 -0.310541 -0.318169 224 210 119
-0.0881059 -0.485343 -0.128249 224 210 119
-0.0832561 -0.428996 -0.327311 224 210 119
-0.163357 -0.336492 -0.328283 224 210 119
-0.151987 -0.374812 -0.327855 224 210 119
-0.167313 -0.457714 -0.326968 224 210 119
-0.215204 -0.39272 -0.310946 224 210 119
-0.3551 -0.337098 -0.166445 224 210 119
-0.13016 -0.236082 -0.326715 224 210 119
-0.369719 -0.335852 -0.0854367 224 210 119
-0.172929 -0.361247 -0.328054 224 210 119
-0.303738 -0.355565 -0.221742 224 210 119
-0.0885471 -0.16744 -0.3274 224 210 119
-0.300455 -0.426005 -0.123337 224 210 119
-0.09272 -0.202649 -0.326672 224 210 119
-0.0885054 -0.0962753 -0.330898 224 210 119
-0.202208 -0.462038 -0.216222 224 210 119
-0.132612 -0.462232 -0.120489 224 210 119
-0.16552 -0.399856 -0.317313 224 210 119
-0.364258 -0.394488 -0.0871526 224 210 119
-0.0306268 -0.194865 -0.328764 224 210 119
-0.0499867 -0.43588 -0.329616 224 210 119
-0.130094 -0.43457 -0.312086 224 210 119
-0.167299 -0.41938 -0.32765 224 210 119
-0.101213 -0.400384 -0.335197 224 210 119
-0.156027 -0.297628 -0.327699 224 210 119
-0.152166 -0.23746 -0.327045 224 210 119
-0.272449 -0.364282 -0.254996 224 210 119
-0.400983 -0.334514 -0.135064 224 210 119
-0.423646 -0.343844 -0.0882779 224 210 119
-0.146809 -0.338901 -0.33105 224 210 119
-0.139902 -0.403035 -0.328427 224 210 119
-0.215444 -0.366497 -0.304218 224 210 119
-0.412044 -0.337779 -0.111609 224 210 119
-0.190554 -0.312956 -0.313486 224 210 119
-0.0709677 -0.297027 -0.340498 224 210 119
-0.428375 -0.384291 -0.135149 224 210 119
-0.134335 -0.309067 -0.333721 224 210 119
-0.277278 -0.413906 -0.0887471 224 210 119
-0.168949 -0.354792 -0.328244 224 210 119
-0.228711 -0.438587 -0.308215 224 210 119
-0.0550099 -0.158454 -0.329762 224 210 119
-0.141528 -0.474969 -0.329635 224 210 119
-0.0766201 -0.195727 -0.327131 224 210 119
-0.367257 -0.39278 -0.0275868 224 210 119
-0.0550279 -0.143055 -0.330771 224 210 119
-0.0885601 -0.486638 -0.194262 224 210 119
-0.0314416 -0.472644 -0.318501 224 210 119
-0.330682 -0.385245 -0.222091 224 210 119
0.0210626 -0.169711 -0.319401 224 210 119
-0.0839068 -0.287625 -0.328668 224 210 119
-0.338078 -0.359166 -0.147412 224 210 119
-0.101787 -0.461383 -0.287548 224 210 119
-0.247983 -0.410603 -0.288044 224 210 119
-0.285161 -0.374244 -0.251655 224 210 119
-0.234087 -0.396213 -0.295798 224 210 119
-0.162775 -0.236693 -0.325721 224 210 119
-0.11339 -0.193473 -0.32583 224 210 119
-0.0933479 -0.274664 -0.328524 224 210 119
-0.103156 -0.46077 -0.293234 224 210 119
-0.0992835 -0.111517 -0.323553 224 210 119
0.0531352 -0.174446 -0.327677 224 210 119
-0.0178678 -0.349678 -0.327194 224 210 119
-0.1132 -0.105059 -0.325487 224 210 119
-0.253509 -0.430331 -0.26968 224 210 119
-0.291504 -0.368265 -0.239553 224 210 119
-0.133795 -0.241316 -0.326817 224 210 119
0.0862537 -0.303614 -0.324778 224 210 119
-0.181245 -0.34254 -0.326739 224 210 119
-0.0458782 -0.467691 -0.235445 224 210 119
-0.294807 -0.405887 -0.249553 224 210 119
-0.0299359 -0.245435 -0.329768 224 210 119
-0.0708513 -0.222413 -0.33433 224 210 119
-0.0421029 -0.267315 -0.334358 224 210 119
-0.0923287 -0.117044 -0.324087 224 210 119
-0.235221 -0.395152 -0.294752 224 210 119
-0.287933 -0.360427 -0.149136 224 210 119
-0.0711866 -0.466212 -0.145168 224 210 119
-0.259097 -0.40553 -0.278766 224 210 119
-0.0682714 -0.134723 -0.330286 224 210 119
-0.0297118 -0.398347 -0.327387 224 210 119
-0.0717422 -0.14555 -0.329395 224 210 119
-0.274862 -0.391154 -0.0836703 224 210 119
-0.254906 -0.431832 -0.17924 224 210 119
-0.185598 -0.303838 -0.318615 224 210 119
-0.13881 -0.362072 -0.334897 224 210 119
-0.137429 -0.461717 -0.2929 224 210 119
-0.233712 -0.396867 -0.296203 224 210 119
-0.352185 -0.337136 -0.144868 224 210 119
-0.105119 -0.306922 -0.330449 224 210 119
-0.343861 -0.433772 -0.214736 224 210 119
-0.14741 -0.434922 -0.32849 224 210 119
-0.220932 -0.445581 -0.315742 224 210 119
-0.353098 -0.342775 -0.0278737 224 210 119
-0.36841 -0.392579 -0.149221 224 210 119
-0.0978529 -0.29782 -0.324807 224 210 119
-0.228625 -0.438046 -0.265153 224 210 119
-0.240469 -0.396583 -0.291363 224 210 119
-0.392088 -0.367647 -0.180625 224 210 119
-0.228376 -0.392305 -0.299029 224 210 119
-0.0626113 -0.458625 -0.324251 224 210 119
-0.337035 -0.411891 -0.178114 224 210 119
-0.176387 -0.304899 -0.325732 224 210 119
-0.212664 -0.348577 -0.290288 224 210 119
0.0928852 -0.0892582 -0.333007 224 210 119
-0.0476157 -0.442003 -0.327819 224 210 119
-0.315371 -0.358337 -0.0406911 224 210 119
-0.331687 -0.35686 -0.012839 224 210 119
-0.0198796 -0.185593 -0.328676 224 210 119
-0.127098 -0.367017 -0.328306 224 210 119
-0.194038 -0.347894 -0.319681 224 210 119
-0.0750461 -0.471421 -0.329199 224 210 119
-0.172528 -0.347909 -0.312779 224 210 119
-0.3696 -0.335973 -0.0555625 224 210 119
-0.3948 -0.418921 -0.151591 224 210 119
-0.0891558 -0.434539 -0.328645 224 210 119
-0.320284 -0.394928 0.00946563 224 210 119
-0.129726 -0.462432 -0.121272 224 210 119
-0.0326487 -0.437129 -0.324936 224 210 119
-0.342059 -0.336253 -0.0954133 224 210 119
-0.36463 -0.394015 -0.152343 224 210 119
-0.260872 -0.37838 -0.271708 224 210 119
-0.285867 -0.44283 0.0184848 224 210 119
-0.393431 -0.337703 -0.160836 224 210 119
-0.100262 -0.181128 -0.326322 224 210 119
-0.342777 -0.403809 -0.0871328 224 210 119
-0.316533 -0.389281 -0.23151 224 210 119
-0.227642 -0.383121 -0.290923 224 210 119
-0.113288 -0.37411 -0.338132 224 210 119
-0.00945766 -0.413767 -0.327336 224 210 119
-0.02848 -0.343687 -0.331927 224 210 119
-0.302504 -0.344549 -0.198399 224 210 119
-0.225785 -0.438652 -0.301793 224 210 119
-0.229383 -0.426647 -0.303614 224 210 119
-0.109707 -0.42255 -0.323621 224 210 119
0.0173571 -0.361317 -0.32639 224 210 119
-0.189292 -0.399381 -0.318289 224 210 119
-0.39912 -0.408597 -0.168808 224 210 119
-0.0397696 -0.27356 -0.32847 224 210 119
0.0142957 -0.259266 -0.326159 224 210 119
-0.0982073 -0.479278 -0.260919 224 210 119
-0.0474444 -0.247183 -0.332979 224 210 119
-0.13373 -0.296396 -0.327725 224 210 119
-0.0943723 -0.486742 -0.215954 224 210 119
-0.0325744 -0.329093 -0.327523 224 210 119
-0.259508 -0.383081 -0.274718 224 210 119
-0.243226 -0.43169 -0.3043 224 210 119
-0.109737 -0.368797 -0.328862 224 210 119
-0.115363 -0.196012 -0.325785 224 210 119
-0.236324 -0.391105 -0.293513 224 210 119
-0.25133 -0.371263 -0.277018 224 210 119
-0.231313 -0.358209 -0.286942 224 210 119
-0.339437 -0.388568 -0.217206 224 210 119
-0.14497 -0.395909 -0.323133 224 210 119
-0.291568 -0.348164 -0.209874 224 210 119
-0.315272 -0.449004 -0.143108 224 210 119
-0.100986 -0.25836 -0.340059 224 210 119
-0.263188 -0.431283 -0.139098 224 210 119
-0.0659795 -0.351695 -0.327523 224 210 119
-0.0374189 -0.449985 -0.320676 224 210 119
-0.190709 -0.451628 -0.324606 224 210 119
-0.346397 -0.401184 -0.0664566 224 210 119
-0.277215 -0.427243 -0.290711 224 210 119
-0.197446 -0.321402 -0.31221 224 210 119
-0.102773 -0.236679 -0.32722 224 210 119
-0.361179 -0.34545 -0.0107348 224 210 119
0.0623869 -0.177033 -0.31935 224 210 119
-0.128266 -0.258336 -0.333466 224 210 119
-0.145313 -0.452256 -0.329013 224 210 119
-0.315318 -0.395595 -0.24956 224 210 119
-0.324026 -0.413634 -0.0971814 224 210 119
-0.0507265 -0.0970114 -0.324218 224 210 119
-0.00499911 -0.0884068 -0.325865 224 210 119
-0.279378 -0.402855 -0.0852645 224 210 119
-0.380522 -0.367075 -0.186335 224 210 119
0.00282715 -0.423541 -0.32732 224 210 119
-0.110549 -0.467969 -0.329506 224 210 119
-0.276872 -0.406621 -0.142029 224 210 119
0.0253414 -0.416569 -0.327233 224 210 119
-0.353687 -0.337319 -0.148165 224 210 119
-0.276528 -0.408544 -0.0738989 224 210 119
-0.139939 -0.146088 -0.326631 224 210 119
-0.0608027 -0.223777 -0.328216 224 210 119
-0.237871 -0.416197 -0.295012 224 210 119
-0.298587 -0.363242 -0.231546 224 210 119
-0.240617 -0.46481 -0.0987358 224 210 119
-0.0443476 -0.107257 -0.334146 224 210 119
-0.277257 -0.420896 -0.266834 224 210 119
-0.266648 -0.354579 -0.229169 224 210 119
-0.166765 -0.469624 -0.326954 224 210 119
-0.132543 -0.144624 -0.329236 224 210 119
-0.0243443 -0.168562 -0.329943 224 210 119
-0.275298 -0.390408 -0.0673173 224 210 119
-0.392475 -0.368583 -0.0679052 224 210 119
-0.0679583 -0.485554 -0.265355 224 210 119
-0.146919 -0.2919 -0.327548 224 210 119
0.0828416 -0.166816 -0.327253 224 210 119
-0.108547 -0.167676 -0.326905 224 210 119
-0.219555 -0.425111 -0.313823 224 210 119
-0.295303 -0.42719 -0.080321 224 210 119
-0.123512 -0.434627 -0.322001 224 210 119
-0.315318 -0.423471 -0.180741 224 210 119
-0.0015993 -0.108171 -0.325825 224 210 119
-0.0999955 -0.370928 -0.337602 224 210 119
-0.308978 -0.343177 -0.176179 224 210 119
0.0573095 -0.226078 -0.326084 224 210 119
-0.371571 -0.339558 -0.177808 224 210 119
-0.334292 -0.339868 -0.160337 224 210 119
-0.136713 -0.459127 -0.21262 224 210 119
-0.120045 -0.364233 -0.32838 224 210 119
-0.18826 -0.406932 -0.31471 224 210 119
-0.0684328 -0.105765 -0.323547 224 210 119
-0.133438 -0.334483 -0.335521 224 210 119
-0.0928971 -0.26464 -0.328198 224 210 119
-0.000271812 -0.30264 -0.327153 224 210 119
-0.0149336 -0.118328 -0.32548 224 210 119
-0.280522 -0.405007 -0.129197 224 210 119
-0.219336 -0.406819 -0.309633 224 210 119
0.00195592 -0.468418 -0.27072 224 210 119
-0.432077 -0.350666 -0.0803698 224 210 119
-0.0333743 -0.170917 -0.330003 224 210 119
-0.0847493 -0.0996279 -0.331366 224 210 119
-0.126946 -0.414309 -0.329465 224 210 119
-0.307126 -0.340404 -0.100519 224 210 119
0.0240068 -0.395448 -0.326832 224 210 119
-0.0798136 -0.479371 -0.278152 224 210 119
-0.175272 -0.316516 -0.326489 224 210 119
-0.118101 -0.161373 -0.326654 224 210 119
-0.373006 -0.357623 -0.162977 224 210 119
-0.154606 -0.292587 -0.32784 224 210 119
-0.219788 -0.461166 -0.318105 224 210 119
0.0338256 -0.0875586 -0.327434 224 210 119
0.0106301 -0.406561 -0.327212 224 210 119
0.0301615 -0.155576 -0.329769 224 210 119
-0.18028 -0.299757 -0.317567 224 210 119
-0.0284681 -0.48416 -0.268346 224 210 119
-0.260335 -0.418396 -0.30321 224 210 119
-0.0981175 -0.461323 -0.292308 224 210 119
0.0610893 -0.176645 -0.327301 224 210 119
-0.1612 -0.45741 -0.265207 224 210 119
-0.107171 -0.429223 -0.32298 224 210 119
-0.0496496 -0.147042 -0.325643 224 210 119
-0.33 -0.368114 -0.216566 224 210 119
-0.0280892 -0.482319 -0.306015 224 210 119
-0.269925 -0.375223 -0.0771556 224 210 119
-0.153537 -0.485674 -0.0908736 224 210 119
-0.290509 -0.350324 -0.176077 224 210 119
-0.18995 -0.404698 -0.307248 224 210 119
-0.18532 -0.375341 -0.327527 224 210 119
-0.271146 -0.388395 -0.267664 224 210 119
-0.285787 -0.436985 -0.208894 224 210 119
-0.137179 -0.459192 -0.219791 224 210 119
-0.141926 -0.171425 -0.326084 224 210 119
-0.346241 -0.338324 -0.171262 224 210 119
-0.0159059 -0.305082 -0.330554 224 210 119
0.0253393 -0.295229 -0.326301 224 210 119
-0.170388 -0.293674 -0.326099 224 210 119
-0.285578 -0.359599 -0.118374 224 210 119
-0.337241 -0.468284 -0.129841 255 178 96
-0.146261 -0.487238 -0.118758 255 178 96
-0.00871362 -0.487147 -0.198815 255 178 96
-0.159459 -0.483265 0.302383 255 178 96
0.0866531 -0.176657 0.304643 255 178 96
-0.194819 -0.487008 0.176226 255 178 96
-0.151631 -0.306355 0.29966 255 178 96
-0.0447319 -0.487024 0.187766 255 178 96
-0.17946 -0.249984 0.297976 255 178 96
-0.283819 -0.432931 0.232239 255 178 96
-0.0368737 -0.148839 0.302154 255 178 96
-0.194567 -0.487077 0.0480928 255 178 96
-0.287649 -0.487484 0.221747 255 178 96
-0.147616 -0.486936 0.283467 255 178 96
-0.227053 -0.482097 0.296238 255 178 96
-0.212887 -0.487245 -0.131621 255 178 96
-0.0960659 -0.402345 0.30368 255 178 96
-0.340003 -0.480248 -0.0750531 255 178 96
0.0235153 -0.487049 0.0874964 255 178 96
-0.0660745 -0.204414 0.301477 255 178 96
-0.289443 -0.487498 0.248457 255 178 96
-0.391149 -0.398666 -0.07958 255 178 96
0.0318255 -0.173262 0.303723 255 178 96
0.00331348 -0.42168 0.309094 255 178 96
0.139138 -0.486945 0.138347 255 178 96
-0.277651 -0.487399 0.258524 255 178 96
0.00162262 -0.48698 0.21561 255 178 96
-0.189683 -0.487018 0.197044 255 178 96
-0.113893 -0.487049 0.19301 255 178 96
-0.349305 -0.456791 0.0309114 255 178 96
-0.310543 -0.487479 0.079992 255 178 96
-0.189718 -0.461797 0.298723 255 178 96
-0.190892 -0.354531 0.296678 255 178 96
0.00219735 -0.487331 -0.1498 255 178 96
-0.241588 -0.487013 0.239345 255 178 96
0.0032066 -0.48703 0.162631 255 178 96
-0.113741 -0.48692 0.282241 255 178 96
-0.325213 -0.454471 0.185967 255 178 96
-0.123204 -0.487226 -0.287956 255 178 96
-0.0358497 -0.399502 0.30634 255 178 96
-0.181594 -0.303056 0.298173 255 178 96
0.00171912 -0.172118 0.302978 255 178 96
0.121415 -0.487006 -0.0841599 255 178 96
-0.26379 -0.487168 0.295551 255 178 96
-0.293453 -0.484684 0.263885 255 178 96
0.0526614 -0.487526 0.100387 255 178 96
-0.173229 -0.487051 0.110854 255 178 96
-0.139726 -0.308953 0.300506 255 178 96
-0.289683 -0.430863 0.224204 255 178 96
-0.12479 -0.487098 0.0110706 255 178 96
-0.272511 -0.442544 0.247963 255 178 96
-0.0957102 -0.233384 0.30056 255 178 96
-0.232888 -0.455072 0.296186 255 178 96
-0.147344 -0.218003 0.302707 255 178 96
-0.0590117 -0.368664 0.303978 255 178 96
-0.11083 -0.364154 0.301215 255 178 96
-0.27622 -0.486144 -0.170477 255 178 96
0.0482549 -0.366823 0.307127 255 178 96
0.0806873 -0.486895 0.287464 255 178 96
-0.263156 -0.482155 -0.215298 255 178 96
0.00224547 -0.478218 0.312256 255 178 96
-0.128442 -0.489478 0.203193 255 178 96
0.105096 -0.409459 0.307647 255 178 96
0.0774266 -0.487077 0.0531765 255 178 96
-0.195614 -0.482415 0.297805 255 178 96
-0.081915 -0.293122 0.302225 255 178 96
-0.190195 -0.33764 0.298461 255 178 96
-0.236092 -0.429854 0.294208 255 178 96
-0.279159 -0.487406 0.263638 255 178 96
-0.272981 -0.48725 -0.0821805 255 178 96
-0.150539 -0.487083 0.0789053 255 178 96
-0.129802 -0.486964 0.252892 255 178 96
-0.173368 -0.460121 0.300621 255 178 96
-0.0846719 -0.469873 0.310456 255 178 96
-0.304752 -0.487425 0.0784658 255 178 96
0.0931781 -0.147993 0.305087 255 178 96
-0.247712 -0.458127 0.296229 255 178 96
-0.334668 -0.471243 0.0643715 255 178 96
0.116996 -0.486933 0.269844 255 178 96
-0.260436 -0.418501 0.260397 255 178 96
-0.14387 -0.458342 0.304706 255 178 96
-0.250593 -0.434299 0.274706 255 178 96
-0.215749 -0.487056 0.070575 255 178 96
-0.117977 -0.473832 0.308117 255 178 96
0.140779 -0.388841 0.306101 255 178 96
0.0776495 -0.308164 0.30503 255 178 96
-0.0868538 -0.308057 0.302234 255 178 96
-0.207367 -0.487272 -0.216151 255 178 96
0.129461 -0.166543 0.304967 255 178 96
-0.228279 -0.402278 0.294757 255 178 96
-0.0593639 -0.405906 0.306084 255 178 96
-0.129435 -0.304268 0.300765 255 178 96
-0.137448 -0.18958 0.303932 255 178 96
-0.321297 -0.487484 0.0173946 255 178 96
-0.0518216 -0.406133 0.306333 255 178 96
-0.158539 -0.312279 0.299056 255 178 96
-0.235884 -0.46001 0.296663 255 178 96
-0.0401824 -0.476293 0.312502 255 178 96
-0.204137 -0.312743 0.293296 255 178 96
0.082866 -0.486968 0.242751 255 178 96
0.0791789 -0.487024 0.178981 255 178 96
-0.116704 -0.486876 0.302181 255 178 96
0.113746 -0.486986 -0.130589 255 178 96
-0.30805 -0.487427 0.0282823 255 178 96
-0.304095 -0.487255 -0.108111 255 178 96
-0.294589 -0.487315 0.0103164 255 178 96
-0.0849303 -0.488698 0.125507 255 178 96
-0.176237 -0.260693 0.300342 255 178 96
-0.281406 -0.487439 0.242017 255 178 96
0.00300828 -0.486994 0.205796 255 178 96
0.0294186 -0.351189 0.305786 255 178 96
-0.20386 -0.435123 0.296974 255 178 96
-0.0411169 -0.487052 0.142831 255 178 96
-0.205311 -0.310853 0.292842 255 178 96
-0.1909 -0.302456 0.296723 255 178 96
0.139398 -0.366274 0.305107 255 178 96
-0.251637 -0.487096 0.280137 255 178 96
-0.198758 -0.466459 0.297443 255 178 96
-0.321905 -0.472269 0.189209 255 178 96
-0.144596 -0.332902 0.299861 255 178 96
-0.244726 -0.487079 0.129207 255 178 96
0.0308705 -0.48715 -0.191864 255 178 96
0.116398 -0.156213 0.305102 255 178 96
-0.14039 -0.350371 0.299511 255 178 96
-0.0691149 -0.125257 0.303622 255 178 96
-0.0749345 -0.467012 0.311052 255 178 96
-0.255671 -0.487242 -0.100763 255 178 96
-0.111555 -0.46415 0.308232 255 178 96
-0.00340994 -0.487156 -0.232938 255 178 96
-0.243692 -0.371477 0.277001 255 178 96
0.0299086 -0.486939 0.250348 255 178 96
-0.115296 -0.451235 0.30683 255 178 96
-0.169169 -0.271706 0.299498 255 178 96
0.0345693 -0.487036 0.118132 255 178 96
-0.23745 -0.487022 0.173647 255 178 96
-0.106714 -0.332122 0.301193 255 178 96
-0.29738 -0.445764 0.222241 255 178 96
0.0145211 -0.374168 0.30653 255 178 96
-0.00735417 -0.4883 0.175613 255 178 96
0.00796084 -0.487083 0.0403409 255 178 96
-0.208323 -0.300319 0.291238 255 178 96
0.0103283 -0.44456 0.31139 255 178 96
-0.0680428 -0.487104 -0.00955261 255 178 96
-0.188773 -0.486905 0.286204 255 178 96
0.0580618 -0.486923 0.270816 255 178 96
-0.259642 -0.411412 0.25918 255 178 96
-0.291437 -0.480834 0.27792 255 178 96
-0.237052 -0.48724 -0.178734 255 178 96
-0.108118 -0.486925 0.276657 255 178 96
-0.340926 -0.462182 0.106762 255 178 96
-0.188898 -0.482772 0.298721 255 178 96
-0.303705 -0.447408 0.213586 255 178 96
-0.137613 -0.180761 0.304143 255 178 96
-0.0245204 -0.48691 0.280887 255 178 96
-0.103266 -0.48688 0.297315 255 178 96
-0.18637 -0.487103 0.027119 255 178 96
-0.196995 -0.487257 -0.152625 255 178 96
-0.219703 -0.37759 0.295286 255 178 96
-0.149081 -0.486993 0.237805 255 178 96
0.0554502 -0.475998 0.313759 255 178 96
-0.262011 -0.487164 0.2915 255 178 96
-0.120512 -0.487209 -0.304775 255 178 96
-0.253961 -0.487179 -0.00465259 255 178 96
-0.170811 -0.487249 -0.116525 255 178 96
-0.244639 -0.487211 -0.0577899 255 178 96
-0.100451 -0.458138 0.308691 255 178 96
-0.211988 -0.487274 -0.243557 255 178 96
-0.233099 -0.487037 0.291824 255 178 96
-0.322385 -0.487492 0.0202009 255 178 96
-0.219635 -0.48724 -0.127032 255 178 96
-0.322159 -0.470734 0.210829 255 178 96
-0.210587 -0.367234 0.296709 255 178 96
0.0121219 -0.487043 0.11542 255 178 96
-0.178554 -0.373161 0.298337 255 178 96
-0.0430891 -0.470096 0.31308 255 178 96
-0.205658 -0.463286 0.296629 255 178 96
-0.166776 -0.32428 0.298204 255 178 96
0.119645 -0.413007 0.307338 255 178 96
-0.157281 -0.487048 0.200425 255 178 96
-0.308685 -0.477453 -0.149861 255 178 96
0.113329 -0.307001 0.304611 255 178 96
-0.261797 -0.487177 0.147448 255 178 96
-0.0705352 -0.487001 0.22083 255 178 96
-0.330432 -0.470596 0.0955026 255 178 96
-0.190025 -0.487258 -0.137442 255 178 96
-0.171751 -0.487072 0.0668871 255 178 96
-0.1384 -0.29331 0.300534 255 178 96
-0.141714 -0.245684 0.301805 255 178 96
0.00511734 -0.487465 -0.0857387 255 178 96
-0.209272 -0.486986 0.184688 255 178 96
-0.0561332 -0.159996 0.3018 255 178 96
-0.154533 -0.434548 0.302338 255 178 96
-0.226308 -0.486994 0.29125 255 178 96
-0.132527 -0.487094 0.0825015 255 178 96
0.0880201 -0.487047 -0.251443 255 178 96
0.0424542 -0.23061 0.304539 255 178 96
0.0951101 -0.487125 -0.0639429 255 178 96
0.0746759 -0.483832 0.30418 255 178 96
0.0555872 -0.20324 0.304458 255 178 96
-0.187151 -0.247331 0.294543 255 178 96
-0.288942 -0.474708 0.288657 255 178 96
-0.288812 -0.474631 0.288742 255 178 96
-0.197624 -0.487014 0.144999 255 178 96
-0.111914 -0.347275 0.300761 255 178 96
-0.257655 -0.487171 0.20219 255 178 96
-0.173109 -0.48705 0.117644 255 178 96
-0.0756834 -0.486929 0.273353 255 178 96
-0.170797 -0.482977 0.301487 255 178 96
-0.111701 -0.358618 0.301039 255 178 96
0.00451077 -0.487543 -0.0540848 255 178 96
-0.142508 -0.171933 0.304484 255 178 96
-0.17524 -0.388751 0.2995 255 178 96
-0.250203 -0.439234 0.294207 255 178 96
-0.196502 -0.422658 0.297814 255 178 96
-0.0477148 -0.487152 -0.122417 255 178 96
-0.200209 -0.486998 0.161646 255 178 96
0.0177584 -0.487273 -0.16228 255 178 96
-0.0121038 -0.486844 0.303203 255 178 96
-0.283744 -0.487433 0.269602 255 178 96
-0.272071 -0.487344 0.245264 255 178 96
-0.0304695 -0.486906 -0.260818 255 178 96
-0.094079 -0.487078 0.140134 255 178 96
-0.215227 -0.487038 0.127566 255 178 96
0.0283191 -0.443602 0.311652 255 178 96
-0.25765 -0.487201 -0.0272746 255 178 96
-0.0170166 -0.186262 0.303058 255 178 96
-0.042186 -0.487103 -0.0151452 255 178 96
-0.149475 -0.435151 0.302729 255 178 96
0.0813614 -0.171992 0.304612 255 178 96
-0.387255 -0.411695 -0.0533531 255 178 96
-0.131399 -0.449863 0.30524 255 178 96
-0.0676789 -0.487079 0.0886142 255 178 96
0.0877849 -0.487105 0.00596846 255 178 96
-0.278793 -0.475231 0.292528 255 178 96
-0.324196 -0.487454 -0.00200745 255 178 96
-0.00702757 -0.448561 0.311697 255 178 96
-0.208436 -0.375699 0.296641 255 178 96
-0.29241 -0.486476 0.257856 255 178 96
-0.348938 -0.46067 0.00524969 255 178 96
0.0738445 -0.487093 0.0354689 255 178 96
0.0881714 -0.487009 -0.0519868 255 178 96
-0.101756 -0.255351 0.300758 255 178 96
-0.158921 -0.383217 0.299783 255 178 96
-0.304118 -0.458167 0.21631 255 178 96
-0.281831 -0.473416 0.286067 255 178 96
-0.14915 -0.480274 0.304542 255 178 96
-0.204047 -0.368462 0.297369 255 178 96
-0.24962 -0.487104 0.289632 255 178 96
-0.150587 -0.48709 0.0450114 255 178 96
-0.250901 -0.487075 0.162041 255 178 96
0.107529 -0.371274 0.305515 255 178 96
-0.383362 -0.408432 -0.0927444 255 178 96
-0.170701 -0.448484 0.300844 255 178 96
-0.329714 -0.471047 0.0964987 255 178 96
-0.0655414 -0.435664 0.308378 255 178 96
-0.102037 -0.487558 -0.150315 255 178 96
-0.333205 -0.470528 0.079988 255 178 96
-0.0905238 -0.338547 0.302035 255 178 96
-0.0228774 -0.327427 0.304205 255 178 96
-0.0494881 -0.252275 0.302818 255 178 96
-0.165381 -0.398162 0.300288 255 178 96
-0.304569 -0.478851 -0.152283 255 178 96
-0.302655 -0.481836 0.233663 255 178 96
0.0950301 -0.48694 -0.0527767 255 178 96
-0.311001 -0.487277 -0.0492923 255 178 96
-0.259511 -0.462132 0.295736 255 178 96
0.12533 -0.486938 0.25663 255 178 96
-0.188634 -0.486883 0.293279 255 178 96
-0.338027 -0.473502 -0.110152 255 178 96
-0.158509 -0.487145 -0.00295102 255 178 96
0.131648 -0.414201 0.307207 255 178 96
-0.0559795 -0.487028 -0.307564 255 178 96
0.049708 -0.304129 0.305334 255 178 96
-0.198719 -0.360273 0.297727 255 178 96
-0.0179285 -0.486995 0.20468 255 178 96
-0.282926 -0.487438 0.263885 255 178 96
-0.0543217 -0.487074 0.081316 255 178 96
-0.211287 -0.290146 0.288026 255 178 96
-0.240535 -0.421978 0.291875 255 178 96
-0.169681 -0.486896 0.293005 255 178 96
-0.224142 -0.487043 0.135052 255 178 96
-0.193248 -0.347701 0.297899 255 178 96
-0.00127329 -0.436401 0.310029 255 178 96
-0.0171805 -0.335153 0.304352 255 178 96
-0.133467 -0.447412 0.304806 255 178 96
-0.318036 -0.475252 -0.142435 255 178 96
-0.120907 -0.454451 0.306648 255 178 96
-0.0611217 -0.279527 0.302695 255 178 96
-0.241651 -0.400496 0.288039 255 178 96
0.0962369 -0.4872 -0.0451199 255 178 96
-0.087068 -0.487005 0.222001 255 178 96
-0.259115 -0.47256 0.296968 255 178 96
-0.180807 -0.288625 0.299102 255 178 96
0.0304463 -0.487054 0.067965 255 178 96
-0.0915969 -0.487126 -0.0472461 255 178 96
-0.246964 -0.487085 0.0666611 255 178 96
-0.0417498 -0.450845 0.311888 255 178 96
-0.0731122 -0.221492 0.301309 255 178 96
-0.127673 -0.486987 0.234848 255 178 96
-0.150995 -0.486899 0.296202 255 178 96
0.0519073 -0.433801 0.310555 255 178 96
-0.173605 -0.387494 0.299516 255 178 96
-0.28022 -0.407995 0.233679 255 178 96
-0.19997 -0.486951 0.25863 255 178 96
-0.371072 -0.43341 -0.0229196 255 178 96
-0.19402 -0.487266 -0.183221 255 178 96
-0.177888 -0.487224 -0.260996 255 178 96
0.0860798 -0.486933 -0.024343 255 178 96
