ply
format ascii 1.0
comment Created by Open3D
element vertex 1133
property double x
property double y
property double z
property uchar red
property uchar green
property uchar blue
end_header
-0.347267 -0.370059 -0.220147 160 249 161
-0.17361 -0.485354 -0.227134 160 249 161
-0.290912 -0.430461 -0.253829 160 249 161
-0.172174 -0.409195 -0.107622 160 249 161
-0.165446 -0.308307 -0.233454 160 249 161
-0.232805 -0.482785 -0.240067 160 249 161
-0.149058 -0.488148 0.0280897 160 249 161
-0.0116855 -0.48569 -0.0409065 160 249 161
-0.189693 -0.487436 -0.0473788 160 249 161
-0.143533 -0.303888 -0.24278 160 249 161
-0.133669 -0.423632 -0.0323098 160 249 161
-0.108266 -0.487908 0.102412 160 249 161
-0.14774 -0.488468 -0.00276478 160 249 161
-0.1523 -0.488347 -0.00193074 160 249 161
-0.108584 -0.48848 0.0597737 160 249 161
-0.189792 -0.487716 -0.0627782 160 249 161
-0.270598 -0.358791 -0.236489 160 249 161
-0.356379 -0.353845 -0.193659 160 249 161
-0.0768844 -0.487463 0.154421 160 249 161
-0.227102 -0.352831 -0.248705 160 249 161
-0.192693 -0.48262 -0.246554 160 249 161
-0.256181 -0.465182 -0.258271 160 249 161
-0.348105 -0.375509 -0.172096 160 249 161
-0.13044 -0.485492 -0.221864 160 249 161
-0.298614 -0.474382 -0.128836 160 249 161
-0.280602 -0.33456 -0.212441 160 249 161
-0.208531 -0.324289 -0.236306 160 249 161
-0.210554 -0.400883 -0.125098 160 249 161
-0.321483 -0.420585 -0.139493 160 249 161
-0.197337 -0.482314 -0.247699 160 249 161
-0.260801 -0.330087 -0.205931 160 249 161
-0.236079 -0.486231 -0.107443 160 249 161
-0.106772 -0.485424 -0.221713 160 249 161
-0.0312778 -0.487081 -0.00631453 160 249 161
-0.213978 -0.486731 -0.207826 160 249 161
-0.11169 -0.488493 0.0605781 160 249 161
-0.164488 -0.388373 -0.133997 160 249 161
-0.227707 -0.38813 -0.288021 160 249 161
-0.277554 -0.362909 -0.171241 160 249 161
-0.178865 -0.483637 -0.240371 160 249 161
-0.279805 -0.358606 -0.180795 160 249 161
-0.230229 -0.326085 -0.222144 160 249 161
-0.154374 -0.487642 0.0423681 160 249 161
-0.0263995 -0.48581 -0.100241 160 249 161
-0.198774 -0.486386 -0.218098 160 249 161
-0.137872 -0.486027 -0.129436 160 249 161
-0.243794 -0.484992 0.0138818 160 249 161
-0.25673 -0.483642 -0.212242 160 249 161
-0.150101 -0.346186 -0.272554 160 249 161
-0.0672267 -0.488231 0.0827674 160 249 161
-0.314252 -0.468768 -0.156626 160 249 161
-0.00609654 -0.487315 0.173012 160 249 161
-0.219611 -0.352493 -0.278821 160 249 161
-0.351835 -0.396038 -0.220865 160 249 161
-0.196933 -0.48625 0.106061 160 249 161
-0.26232 -0.482983 -0.0908034 160 249 161
-0.0730843 -0.478641 -0.230165 160 249 161
-0.142148 -0.487565 -0.0718701 160 249 161
-0.111272 -0.488433 0.0826798 160 249 161
-0.314971 -0.362917 -0.229856 160 249 161
-0.00526918 -0.485619 -0.0183252 160 249 161
-0.291235 -0.425258 -0.252879 160 249 161
-0.261146 -0.48325 -0.146773 160 249 161
-0.366758 -0.422507 -0.195174 160 249 161
-0.366452 -0.405851 -0.209649 160 249 161
-0.230614 -0.486916 0.078219 160 249 161
-0.303642 -0.465137 -0.206693 160 249 161
-0.271854 -0.479771 -0.159555 160 249 161
-0.105699 -0.485878 -0.169371 160 249 161
-0.123037 -0.488428 0.0572508 160 249 161
-0.357004 -0.429831 -0.217419 160 249 161
-0.226877 -0.401209 -0.290599 160 249 161
-0.0787055 -0.488351 0.060504 160 249 161
-0.241377 -0.484571 -0.222244 160 249 161
-0.104318 -0.487286 0.124991 160 249 161
-0.264341 -0.454803 -0.26281 160 249 161
-0.353972 -0.384651 -0.218746 160 249 161
-0.35189 -0.358268 -0.20834 160 249 161
-0.106026 -0.486721 -0.0766289 160 249 161
-0.311581 -0.397822 -0.14252 160 249 161
-0.163485 -0.485836 -0.199499 160 249 161
-0.106941 -0.293748 -0.250211 160 249 161
-0.341374 -0.352715 -0.211573 160 249 161
-0.319212 -0.466402 -0.166667 160 249 161
-0.242001 -0.483297 0.00580218 160 249 161
-0.338454 -0.35236 -0.188782 160 249 161
-0.0976798 -0.486772 -0.0679567 160 249 161
-0.0905399 -0.487922 -0.021058 160 249 161
-0.239257 -0.476174 -0.252207 160 249 161
-0.128223 -0.440055 -0.281343 160 249 161
-0.13288 -0.333044 -0.252396 160 249 161
-0.249121 -0.485549 -0.199439 160 249 161
-0.207013 -0.482283 0.0549128 160 249 161
-0.252199 -0.484547 -0.172832 160 249 161
-0.259909 -0.414263 -0.276257 160 249 161
-0.109919 -0.48765 0.108201 160 249 161
0.00250393 -0.485498 0.0251069 160 249 161
-0.228355 -0.482395 -0.243725 160 249 161
-0.178153 -0.35369 -0.29536 160 249 161
-0.0938483 -0.394671 -0.106499 160 249 161
-0.195685 -0.480255 -0.251642 160 249 161
0.015766 -0.48734 0.12729 160 249 161
-0.220485 -0.486581 0.0975445 160 249 161
-0.109009 -0.488464 0.0794778 160 249 161
-0.231064 -0.342759 -0.196361 160 249 161
-0.209937 -0.319187 -0.214612 160 249 161
-0.234288 -0.433094 -0.28251 160 249 161
-0.328553 -0.40444 -0.232043 160 249 161
-0.213948 -0.399522 -0.293928 160 249 161
-0.0620693 -0.488051 0.13927 160 249 161
-0.264372 -0.386776 -0.125248 160 249 161
-0.368942 -0.410347 -0.199963 160 249 161
-0.250085 -0.327217 -0.21167 160 249 161
-0.309157 -0.470975 -0.129334 160 249 161
-0.289443 -0.478755 -0.0795288 160 249 161
-0.235506 -0.485716 0.0430106 160 249 161
-0.0837887 -0.48839 0.0706856 160 249 161
-0.100374 -0.488446 0.0717467 160 249 161
-0.113088 -0.487174 0.116981 160 249 161
-0.153189 -0.48569 -0.189341 160 249 161
-0.0915902 -0.487903 0.121658 160 249 161
-0.235849 -0.416854 -0.286612 160 249 161
-0.223104 -0.486179 0.093972 160 249 161
-0.356849 -0.394255 -0.217414 160 249 161
-0.359303 -0.37676 -0.211564 160 249 161
-0.0459458 -0.485328 -0.148677 160 249 161
-0.230084 -0.486579 -0.133176 160 249 161
-0.214694 -0.382713 -0.294052 160 249 161
-0.139439 -0.488324 0.0402393 160 249 161
0.00422226 -0.487388 0.198705 160 249 161
-0.0938505 -0.4885 0.0247667 160 249 161
-0.191101 -0.41136 -0.291458 160 249 161
-0.350169 -0.404971 -0.169334 160 249 161
-0.100639 -0.341546 -0.275439 160 249 161
-0.346743 -0.451077 -0.167224 160 249 161
0.00976243 -0.487286 0.199122 160 249 161
-0.257261 -0.387309 -0.126179 160 249 161
-0.137366 -0.484394 -0.231463 160 249 161
-0.181663 -0.416853 -0.286139 160 249 161
-0.0982804 -0.488532 0.0418178 160 249 161
-0.270329 -0.334048 -0.219632 160 249 161
-0.282508 -0.398902 -0.255308 160 249 161
-0.358669 -0.359487 -0.200565 160 249 161
-0.359305 -0.377765 -0.1804 160 249 161
-0.138481 -0.348879 -0.292328 160 249 161
-0.33392 -0.437434 -0.22905 160 249 161
-0.127873 -0.488492 0.00663832 160 249 161
-0.0460721 -0.485914 -0.0646608 160 249 161
-0.0952271 -0.488083 0.112619 160 249 161
-0.235654 -0.486421 -0.146654 160 249 161
-0.215009 -0.351985 -0.278869 160 249 161
-0.168276 -0.308607 -0.228869 160 249 161
-0.277463 -0.483285 -0.0763493 160 249 161
-0.257876 -0.485562 -0.0194748 160 249 161
-0.367255 -0.392536 -0.197212 160 249 161
-0.258727 -0.386664 -0.127546 160 249 161
-0.275758 -0.334341 -0.203513 160 249 161
-0.170119 -0.487117 -0.110726 160 249 161
-0.228733 -0.382057 -0.142875 160 249 161
-0.232746 -0.4101 -0.288033 160 249 161
-0.26796 -0.417081 -0.113838 160 249 161
-0.229465 -0.334821 -0.199777 160 249 161
-0.214191 -0.392157 -0.13001 160 249 161
-0.242137 -0.485385 -0.0860747 160 249 161
-0.128741 -0.486941 0.125805 160 249 161
-0.0205223 -0.485544 -0.0124115 160 249 161
-0.0388835 -0.487768 0.128848 160 249 161
-0.280924 -0.36633 -0.245482 160 249 161
-0.247972 -0.380907 -0.276294 160 249 161
-0.248589 -0.353256 -0.262321 160 249 161
-0.0238455 -0.485601 -0.0134343 160 249 161
-0.308645 -0.348616 -0.221925 160 249 161
-0.145077 -0.487215 0.129989 160 249 161
-0.353439 -0.360264 -0.2083 160 249 161
-0.219759 -0.352266 -0.278656 160 249 161
-0.245758 -0.349294 -0.237198 160 249 161
-0.247397 -0.486137 0.0321958 160 249 161
-0.266936 -0.482775 -0.136031 160 249 161
-0.320253 -0.466306 -0.161243 160 249 161
-0.104562 -0.485902 -0.172463 160 249 161
-0.142305 -0.48751 -0.0744341 160 249 161
-0.275735 -0.481585 -0.106484 160 249 161
-0.251344 -0.35068 -0.23565 160 249 161
-0.0670351 -0.485493 -0.166772 160 249 161
-0.288138 -0.359755 -0.2397 160 249 161
-0.336562 -0.459006 -0.189517 160 249 161
-0.285452 -0.408088 -0.126323 160 249 161
-0.0132124 -0.418843 -0.134978 160 249 161
-0.112668 -0.488461 0.0491094 160 249 161
-0.263489 -0.442643 -0.0996669 160 249 161
-0.141478 -0.487407 -0.0782577 160 249 161
-0.125739 -0.488529 0.0230712 160 249 161
-0.141305 -0.488497 0.00353605 160 249 161
-0.155568 -0.48752 -0.0814345 160 249 161
-0.0948248 -0.486093 -0.192202 160 249 161
-0.120306 -0.488428 -0.0161331 160 249 161
-0.164603 -0.486153 -0.176387 160 249 161
-0.173272 -0.393791 -0.130875 160 249 161
-0.156637 -0.487035 0.0847589 160 249 161
-0.36133 -0.372613 -0.184166 160 249 161
-0.107438 -0.307869 -0.253336 160 249 161
-0.206756 -0.410044 -0.108283 160 249 161
-0.183042 -0.348461 -0.263384 160 249 161
-0.202194 -0.317182 -0.215674 160 249 161
-0.326967 -0.34774 -0.196127 160 249 161
-0.312812 -0.459246 -0.218993 160 249 161
-0.208547 -0.453905 -0.0735148 160 249 161
-0.327944 -0.461054 -0.143621 160 249 161
-0.14611 -0.486003 -0.144599 160 249 161
-0.224919 -0.486622 -0.200016 160 249 161
-0.184326 -0.487695 -0.0881355 160 249 161
-0.187033 -0.487246 -0.0345563 160 249 161
-0.33487 -0.36529 -0.223018 160 249 161
-0.165731 -0.41074 -0.110685 160 249 161
-0.292849 -0.360851 -0.2341 160 249 161
-0.084588 -0.486699 -0.0645351 160 249 161
-0.252779 -0.485441 -0.00432869 160 249 161
-0.200919 -0.482879 0.033506 160 249 161
-0.0693925 -0.488197 0.111251 160 249 161
-0.0213427 -0.487507 0.153636 160 249 161
-0.203424 -0.395335 -0.29658 160 249 161
-0.0669747 -0.48801 0.141289 160 249 161
-0.20185 -0.487044 -0.166514 160 249 161
-0.149366 -0.346994 -0.261696 160 249 161
-0.161882 -0.346992 -0.267743 160 249 161
-0.183976 -0.390603 -0.132561 160 249 161
-0.125354 -0.488353 -0.0277039 160 249 161
-0.281809 -0.446432 -0.255917 160 249 161
-0.000257179 -0.48516 -0.0316128 160 249 161
-0.16501 -0.410751 -0.11291 160 249 161
-0.246409 -0.483492 -0.045828 160 249 161
-0.185076 -0.487698 -0.0515607 160 249 161
-0.0808658 -0.486656 -0.0664308 160 249 161
-0.0853364 -0.488476 0.0263473 160 249 161
-0.287219 -0.477155 -0.143403 160 249 161
-0.184164 -0.445607 -0.273858 160 249 161
-0.253283 -0.474881 -0.0573268 160 249 161
-0.332249 -0.461405 -0.162596 160 249 161
-0.0863335 -0.305743 -0.257283 160 249 161
-0.130272 -0.487058 0.133353 160 249 161
-0.125456 -0.488367 0.0370194 160 249 161
-0.132542 -0.487638 -0.0625733 160 249 161
-0.130213 -0.411081 -0.086069 160 249 161
-0.219199 -0.322805 -0.222092 160 249 161
-0.174626 -0.483772 0.0973095 160 249 161
-0.233277 -0.437164 -0.281779 160 249 161
-0.363294 -0.370348 -0.192915 160 249 161
-0.199576 -0.487011 -0.173492 160 249 161
-0.151288 -0.488132 0.0190004 160 249 161
-0.239082 -0.482922 -0.0323858 160 249 161
-0.19109 -0.411192 -0.10006 160 249 161
-0.362956 -0.437179 -0.197558 160 249 161
-0.168131 -0.484377 0.117295 160 249 161
-0.294002 -0.431261 -0.252049 160 249 161
-0.0788684 -0.48751 -0.026992 160 249 161
-0.154677 -0.48774 0.0294685 160 249 161
-0.340088 -0.349225 -0.205328 160 249 161
-0.184298 -0.487778 -0.0543361 160 249 161
-0.254166 -0.34137 -0.197072 160 249 161
-0.260154 -0.485175 -0.0348304 160 249 161
-0.313408 -0.458792 -0.121614 160 249 161
-0.251836 -0.334112 -0.228595 160 249 161
-0.26255 -0.482948 -0.152189 160 249 161
-0.008494 -0.485009 -0.0835835 160 249 161
-0.368595 -0.402182 -0.20407 160 249 161
-0.34841 -0.364119 -0.213684 160 249 161
-0.0780952 -0.486327 -0.0872814 160 249 161
-0.259488 -0.355371 -0.188129 160 249 161
-0.259836 -0.486444 0.0146409 160 249 161
-0.318539 -0.347885 -0.191209 160 249 161
-0.331681 -0.350803 -0.190135 160 249 161
-0.361313 -0.406539 -0.215211 160 249 161
0.0107355 -0.48539 0.0388276 160 249 161
-0.287103 -0.479243 -0.101101 160 249 161
-0.161858 -0.487381 0.0470962 160 249 161
-0.144233 -0.488147 0.0454407 160 249 161
-0.260763 -0.481942 -0.184345 160 249 161
-0.172725 -0.488157 -0.0498433 160 249 161
-0.338488 -0.383845 -0.225994 160 249 161
-0.272065 -0.358144 -0.182791 160 249 161
-0.213086 -0.346416 -0.242615 160 249 161
-0.056498 -0.488397 0.0202549 160 249 161
-0.0567375 -0.487804 0.155102 160 249 161
-0.280946 -0.447333 -0.256092 160 249 161
-0.170914 -0.487964 -0.0690353 160 249 161
-0.112978 -0.487817 -0.043438 160 249 161
-0.088187 -0.487289 0.148696 160 249 161
-0.331279 -0.458769 -0.203919 160 249 161
-0.181359 -0.484122 0.0729557 160 249 161
-0.128034 -0.40701 -0.104404 160 249 161
-0.258374 -0.356879 -0.240481 160 249 161
-0.352851 -0.352268 -0.199388 160 249 161
-0.28513 -0.450409 -0.252441 160 249 161
-0.331288 -0.460429 -0.19565 160 249 161
-0.25085 -0.482196 -0.225182 160 249 161
-0.313766 -0.385723 -0.235153 160 249 161
-0.109589 -0.487074 0.127017 160 249 161
-0.228105 -0.486534 -0.081965 160 249 161
-0.205338 -0.480789 0.00833239 160 249 161
-0.147782 -0.483685 -0.236875 160 249 161
-0.166261 -0.485846 -0.212406 160 249 161
-0.0473307 -0.487585 0.175837 160 249 161
-0.275377 -0.415589 -0.263088 160 249 161
-0.132477 -0.487032 0.101261 160 249 161
-0.113253 -0.487909 0.0962647 160 249 161
-0.171615 -0.488186 -0.040118 160 249 161
-0.28689 -0.337435 -0.199347 160 249 161
-0.223104 -0.328556 -0.236807 160 249 161
-0.273826 -0.450788 -0.258391 160 249 161
-0.167834 -0.486949 -0.121109 160 249 161
-0.174116 -0.351562 -0.288605 160 249 161
-0.148295 -0.486122 -0.14061 160 249 161
-0.08662 -0.487929 0.127249 160 249 161
-0.01708 -0.467658 -0.128135 160 249 161
-0.130686 -0.412248 -0.0477533 160 249 161
-0.00890258 -0.43892 -0.082359 160 249 161
-0.155742 -0.487919 -0.0638001 160 249 161
-0.270942 -0.38101 -0.262129 160 249 161
-0.309049 -0.345247 -0.193181 160 249 161
-0.191783 -0.385167 -0.134716 160 249 161
-0.243861 -0.484848 -0.0862085 160 249 161
-0.254958 -0.429775 -0.27595 160 249 161
-0.0811091 -0.284878 -0.251888 160 249 161
-0.0218447 -0.486013 -0.00562314 160 249 161
-0.26522 -0.406049 -0.115739 160 249 161
-0.259995 -0.351369 -0.233332 160 249 161
-0.190564 -0.318147 -0.235098 160 249 161
-0.33748 -0.416013 -0.152995 160 249 161
-0.357774 -0.445132 -0.194772 160 249 161
-0.258221 -0.423509 -0.107163 160 249 161
-0.213271 -0.322734 -0.227282 160 249 161
-0.0244982 -0.483804 -0.140419 160 249 161
-0.160693 -0.485763 -0.201471 160 249 161
-0.0806876 -0.488056 -0.0100558 160 249 161
-0.18146 -0.384048 -0.135444 160 249 161
-0.108027 -0.48809 -0.0286961 160 249 161
-0.226417 -0.486438 -0.102591 160 249 161
-0.331801 -0.350776 -0.190207 160 249 161
-0.0608842 -0.487121 -0.0255802 160 249 161
-0.288499 -0.369375 -0.148223 160 249 161
-0.0723669 -0.488434 0.0255223 160 249 161
-0.190896 -0.487137 -0.0130944 160 249 161
-0.196067 -0.487031 -0.032142 160 249 161
-0.123061 -0.488174 -0.0363714 160 249 161
-0.304615 -0.410212 -0.241897 160 249 161
-0.250621 -0.484721 0.0123592 160 249 161
-0.185644 -0.421403 -0.284711 160 249 161
-0.205258 -0.405646 -0.294123 160 249 161
-0.283481 -0.335387 -0.214189 160 249 161
-0.36838 -0.420488 -0.202029 160 249 161
-0.310386 -0.36344 -0.22662 160 249 161
-0.189843 -0.442504 -0.273932 160 249 161
-0.288846 -0.34077 -0.223882 160 249 161
-0.0470887 -0.488014 0.0933854 160 249 161
-0.110841 -0.488525 0.00880123 160 249 161
-0.0757884 -0.488374 0.0458602 160 249 161
-0.192334 -0.487541 -0.0580656 160 249 161
-0.216832 -0.482943 0.0285096 160 249 161
-0.358859 -0.358914 -0.183666 160 249 161
0.130927 -0.488755 0.0200901 192 234 140
0.127738 -0.398253 0.0101679 192 234 140
0.155676 -0.480232 0.0487573 192 234 140
0.105479 -0.278422 -0.0575874 192 234 140
-0.0693434 -0.481074 -0.227723 192 234 140
-0.176611 -0.443086 -0.284461 192 234 140
-0.0836548 -0.294996 -0.303264 192 234 140
-0.055407 -0.205921 -0.285012 192 234 140
-0.0448913 -0.39698 -0.241071 192 234 140
-0.123578 -0.384863 -0.302029 192 234 140
-0.0888254 -0.274534 -0.304107 192 234 140
-0.15824 -0.470183 -0.122291 192 234 140
-0.0243892 -0.48186 -0.15634 192 234 140
-0.0556719 -0.173965 -0.284879 192 234 140
-0.135293 -0.442548 -0.31674 192 234 140
0.073238 -0.166456 -0.0794008 192 234 140
-0.0500552 -0.0897066 -0.256174 192 234 140
-0.100829 -0.419917 -0.306504 192 234 140
-0.117963 -0.356746 -0.302412 192 234 140
-0.105118 -0.353005 -0.301577 192 234 140
-0.0340374 -0.403553 -0.228254 192 234 140
-0.148479 -0.417485 -0.301428 192 234 140
-0.102763 -0.262825 -0.306186 192 234 140
-0.0889268 -0.485689 -0.0936098 192 234 140
-0.0861955 -0.252106 -0.30534 192 234 140
-0.0566411 -0.0818297 -0.283497 192 234 140
-0.0677228 -0.266285 -0.295899 192 234 140
0.000156989 -0.322897 -0.213957 192 234 140
-0.0503098 -0.0979537 -0.258992 192 234 140
-0.0774909 -0.37223 -0.295835 192 234 140
-0.110421 -0.35196 -0.30234 192 234 140
-0.0105393 -0.336621 -0.221548 192 234 140
0.0658884 -0.48786 -0.00832252 192 234 140
-0.159508 -0.332251 -0.307494 192 234 140
0.0887714 -0.48355 -0.0584981 192 234 140
-0.00909053 -0.303445 -0.21923 192 234 140
0.0349966 -0.384932 -0.15002 192 234 140
-0.0103856 -0.323784 -0.221337 192 234 140
-0.0530233 -0.205285 -0.279712 192 234 140
-0.12817 -0.333724 -0.30638 192 234 140
-0.0836726 -0.412537 -0.302797 192 234 140
-0.0991573 -0.363682 -0.300902 192 234 140
-0.123665 -0.248086 -0.30888 192 234 140
0.057301 -0.235342 -0.141796 192 234 140
-0.0599744 -0.133491 -0.292621 192 234 140
-0.0571352 -0.321646 -0.280355 192 234 140
0.0881151 -0.339443 -0.0868303 192 234 140
-0.115264 -0.341172 -0.304406 192 234 140
-0.0697868 -0.0681852 -0.305688 192 234 140
-0.131782 -0.330328 -0.306898 192 234 140
-0.0484455 -0.12199 -0.253877 192 234 140
-0.179893 -0.38418 -0.295943 192 234 140
-0.172179 -0.378096 -0.297149 192 234 140
-0.149141 -0.261142 -0.307673 192 234 140
-0.0714052 -0.203333 -0.30463 192 234 140
-0.0275422 -0.117781 -0.214478 192 234 140
-0.0419084 -0.342429 -0.25231 192 234 140
-0.0565735 -0.406309 -0.276513 192 234 140
0.0131927 -0.307264 -0.202689 192 234 140
-0.0609877 -0.468486 -0.236452 192 234 140
-0.0537891 -0.282306 -0.278857 192 234 140
-0.0636282 -0.260787 -0.293436 192 234 140
-0.0221278 -0.324634 -0.229192 192 234 140
-0.0858552 -0.230731 -0.306783 192 234 140
-0.0467623 -0.257084 -0.263722 192 234 140
-0.0102099 -0.242616 -0.21058 192 234 140
-0.0749294 -0.0703297 -0.306582 192 234 140
0.0411931 -0.162456 -0.129523 192 234 140
-0.114134 -0.141204 -0.310357 192 234 140
0.0165047 -0.380534 -0.178578 192 234 140
0.0741034 -0.234397 -0.110968 192 234 140
-0.0673567 -0.383496 -0.290684 192 234 140
-0.082083 -0.193334 -0.30648 192 234 140
-0.0498127 -0.221491 -0.272434 192 234 140
0.128005 -0.463841 -0.0268575 192 234 140
0.0115172 -0.367959 -0.19439 192 234 140
-0.0561409 -0.340423 -0.278055 192 234 140
0.108489 -0.320231 -0.0496563 192 234 140
0.0402774 -0.116329 -0.101715 192 234 140
0.00931971 -0.317953 -0.207141 192 234 140
0.13664 -0.430525 0.0317028 192 234 140
-0.0136946 -0.224475 -0.208748 192 234 140
-0.116313 -0.482858 -0.183714 192 234 140
-0.0490396 -0.348155 -0.270152 192 234 140
-0.0436082 -0.33207 -0.25893 192 234 140
-0.107031 -0.136426 -0.309722 192 234 140
-0.044234 -0.470842 -0.223944 192 234 140
-0.141489 -0.332701 -0.307539 192 234 140
0.00634781 -0.430091 -0.184146 192 234 140
0.0204489 -0.0954174 -0.126389 192 234 140
-0.0487706 -0.13876 -0.2587 192 234 140
-0.0592958 -0.10461 -0.290675 192 234 140
-0.19029 -0.406629 -0.305861 192 234 140
-0.124353 -0.412402 -0.304637 192 234 140
-0.0579375 -0.252208 -0.2882 192 234 140
-0.093369 -0.478096 -0.272145 192 234 140
-0.0924552 -0.310366 -0.304304 192 234 140
-0.0508502 -0.0707145 -0.259278 192 234 140
0.10306 -0.326134 -0.0590019 192 234 140
-0.0652096 -0.0994766 -0.300006 192 234 140
-0.143846 -0.185039 -0.311793 192 234 140
0.0430674 -0.486402 -0.0702455 192 234 140
-0.0738443 -0.325201 -0.295879 192 234 140
-0.194217 -0.449145 -0.170062 192 234 140
-0.191457 -0.3447 -0.297941 192 234 140
-0.214889 -0.379686 -0.288443 192 234 140
-0.0462241 -0.327473 -0.266347 192 234 140
0.149381 -0.4734 0.0170522 192 234 140
-0.139484 -0.154053 -0.311676 192 234 140
-0.0853009 -0.247619 -0.305553 192 234 140
0.00499101 -0.381789 -0.197961 192 234 140
0.0340072 -0.195004 -0.157735 192 234 140
-0.0624081 -0.254667 -0.29331 192 234 140
-0.061798 -0.284732 -0.289601 192 234 140
-0.0812039 -0.360588 -0.29652 192 234 140
0.152615 -0.468292 0.0311333 192 234 140
-0.108882 -0.192175 -0.310338 192 234 140
-0.137587 -0.258458 -0.308069 192 234 140
-0.131846 -0.477359 -0.277054 192 234 140
0.0215642 -0.172982 -0.164808 192 234 140
-0.095535 -0.22189 -0.308683 192 234 140
0.0864071 -0.224744 -0.0835549 192 234 140
-0.0992224 -0.338644 -0.302688 192 234 140
-0.0464037 -0.112715 -0.243763 192 234 140
0.146931 -0.484136 0.0967006 192 234 140
0.0715642 -0.294454 -0.118153 192 234 140
-0.0479062 -0.0661306 -0.244235 192 234 140
-0.0982384 -0.094358 -0.308431 192 234 140
-0.220661 -0.438431 -0.142255 192 234 140
-0.118332 -0.132932 -0.31057 192 234 140
-0.0489765 -0.0988538 -0.251439 192 234 140
-0.137375 -0.241666 -0.309253 192 234 140
-0.158892 -0.462687 -0.209301 192 234 140
0.054438 -0.325293 -0.142937 192 234 140
-0.0894859 -0.294817 -0.304489 192 234 140
-0.0338355 -0.120229 -0.22588 192 234 140
-0.0286269 -0.0772722 -0.211066 192 234 140
-0.0241066 -0.258368 -0.227278 192 234 140
-0.0541999 -0.110017 -0.277698 192 234 140
-0.156828 -0.42164 -0.313316 192 234 140
-0.021495 -0.214929 -0.21667 192 234 140
-0.0925837 -0.444223 -0.303898 192 234 140
-0.0327358 -0.404869 -0.226972 192 234 140
0.127388 -0.489076 0.0285898 192 234 140
-0.0400541 -0.464258 -0.230987 192 234 140
-0.0720743 -0.129921 -0.305942 192 234 140
0.134847 -0.48054 -0.0140834 192 234 140
-0.0708451 -0.466643 -0.261317 192 234 140
-0.195141 -0.4357 -0.267017 192 234 140
0.0290813 -0.427842 -0.150456 192 234 140
-0.0897874 -0.440078 -0.303085 192 234 140
-0.0416092 -0.284968 -0.25278 192 234 140
-0.0835468 -0.347728 -0.296655 192 234 140
-0.0572018 -0.255593 -0.286294 192 234 140
-0.106675 -0.0817205 -0.308945 192 234 140
0.126034 -0.410428 0.00887291 192 234 140
0.00514487 -0.208357 -0.192465 192 234 140
-0.0710045 -0.233728 -0.302352 192 234 140
-0.0807161 -0.355121 -0.296023 192 234 140
-0.0400888 -0.143278 -0.235936 192 234 140
-0.125402 -0.481593 -0.200905 192 234 140
-0.0268045 -0.467255 -0.217865 192 234 140
-0.0889593 -0.412487 -0.305161 192 234 140
-0.160328 -0.462822 -0.193033 192 234 140
-0.0664622 -0.415729 -0.291014 192 234 140
-0.0594953 -0.0841071 -0.291063 192 234 140
-0.0654162 -0.0831355 -0.300826 192 234 140
-0.167007 -0.322215 -0.308096 192 234 140
-0.0783405 -0.365596 -0.295843 192 234 140
-0.125646 -0.479296 -0.265539 192 234 140
-0.138669 -0.477323 -0.22157 192 234 140
-0.0617615 -0.377671 -0.284996 192 234 140
-0.103528 -0.372623 -0.301423 192 234 140
-0.00784803 -0.139403 -0.187573 192 234 140
-0.181677 -0.440004 -0.281781 192 234 140
-0.0497505 -0.397508 -0.254861 192 234 140
0.0175755 -0.185838 -0.174193 192 234 140
0.0860912 -0.181992 -0.0572408 192 234 140
-0.0602848 -0.109537 -0.292742 192 234 140
-0.0385687 -0.186467 -0.238331 192 234 140
-0.0554086 -0.394924 -0.277267 192 234 140
-0.140383 -0.260258 -0.307924 192 234 140
-0.169152 -0.459311 -0.180177 192 234 140
-0.053042 -0.364742 -0.274911 192 234 140
0.016815 -0.458337 -0.172912 192 234 140
-0.0574052 -0.169856 -0.288472 192 234 140
0.0106815 -0.143498 -0.166665 192 234 140
-0.0577825 -0.334988 -0.280128 192 234 140
0.109186 -0.488627 0.0512039 192 234 140
-0.179603 -0.321023 -0.306899 192 234 140
-0.0876317 -0.257446 -0.305097 192 234 140
-0.0463815 -0.104012 -0.242325 192 234 140
0.00254555 -0.201529 -0.193256 192 234 140
0.0182256 -0.0849528 -0.12389 192 234 140
-0.024334 -0.104344 -0.207324 192 234 140
-0.0945744 -0.344586 -0.301071 192 234 140
-0.130661 -0.394266 -0.302805 192 234 140
-0.0650024 -0.369319 -0.288563 192 234 140
-0.0448283 -0.174472 -0.249472 192 234 140
-0.00827485 -0.441169 -0.205138 192 234 140
-0.0676843 -0.0972583 -0.303713 192 234 140
-0.0937534 -0.22173 -0.308438 192 234 140
-0.0574019 -0.119164 -0.286348 192 234 140
-0.157133 -0.462276 -0.255465 192 234 140
-0.0700146 -0.307337 -0.295748 192 234 140
0.126779 -0.361997 -0.00152237 192 234 140
-0.12902 -0.251115 -0.308625 192 234 140
-0.130038 -0.101952 -0.310136 192 234 140
-0.0526461 -0.299044 -0.276613 192 234 140
-0.0692006 -0.118277 -0.305212 192 234 140
-0.091858 -0.239611 -0.307029 192 234 140
-0.0510057 -0.399642 -0.266326 192 234 140
-0.173406 -0.460734 -0.137852 192 234 140
-0.11556 -0.219818 -0.310785 192 234 140
-0.00663669 -0.182456 -0.198107 192 234 140
-0.0742531 -0.126691 -0.306297 192 234 140
-0.0562744 -0.106873 -0.283081 192 234 140
-0.0913953 -0.211115 -0.308053 192 234 140
-0.173479 -0.373663 -0.297016 192 234 140
-0.111781 -0.208541 -0.310686 192 234 140
0.0672031 -0.233126 -0.123936 192 234 140
-0.0801713 -0.109403 -0.306905 192 234 140
0.115918 -0.432756 -0.0246371 192 234 140
-0.0674282 -0.376457 -0.290608 192 234 140
-0.0798445 -0.335311 -0.296888 192 234 140
-0.0476958 -0.0912861 -0.245179 192 234 140
-0.175483 -0.462297 -0.101132 192 234 140
-0.0598449 -0.161193 -0.292978 192 234 140
-0.0466654 -0.153005 -0.253482 192 234 140
-0.226265 -0.422824 -0.230663 192 234 140
-0.144701 -0.262315 -0.307665 192 234 140
-0.213075 -0.418279 -0.281298 192 234 140
0.0258743 -0.177189 -0.160899 192 234 140
-0.0604214 -0.0999094 -0.292868 192 234 140
-0.104021 -0.135701 -0.309301 192 234 140
-0.0931473 -0.275508 -0.304522 192 234 140
-0.141129 -0.264669 -0.307577 192 234 140
-0.12209 -0.473271 -0.292088 192 234 140
0.0560613 -0.48764 -0.0447816 192 234 140
-0.0620827 -0.176537 -0.295834 192 234 140
-0.0233064 -0.186932 -0.218487 192 234 140
-0.0441054 -0.329211 -0.261107 192 234 140
-0.00475041 -0.267041 -0.212989 192 234 140
0.0220034 -0.147335 -0.154345 192 234 140
0.155515 -0.482822 0.0528618 192 234 140
-0.0382878 -0.158119 -0.234739 192 234 140
-0.0740722 -0.290109 -0.299131 192 234 140
0.0363081 -0.114583 -0.109916 192 234 140
-0.125759 -0.317315 -0.306433 192 234 140
-0.0973346 -0.381335 -0.30122 192 234 140
0.0589669 -0.138218 -0.0759284 192 234 140
-0.105755 -0.263278 -0.306317 192 234 140
-0.0624758 -0.0738965 -0.296001 192 234 140
-0.0484987 -0.282219 -0.268801 192 234 140
0.13453 -0.458366 -0.00669508 192 234 140
-0.00461472 -0.460744 -0.201397 192 234 140
0.0448566 -0.185672 -0.137187 192 234 140
-0.0696509 -0.163666 -0.304626 192 234 140
-0.019096 -0.31746 -0.226903 192 234 140
-0.0933668 -0.448362 -0.303692 192 234 140
-0.06012 -0.364043 -0.282874 192 234 140
-0.0443775 -0.321276 -0.261677 192 234 140
-0.0782689 -0.141554 -0.306718 192 234 140
0.0515078 -0.145518 -0.100453 192 234 140
-0.0715711 -0.124138 -0.305893 192 234 140
-0.0370748 -0.332645 -0.247309 192 234 140
0.104859 -0.435183 -0.0524372 192 234 140
0.087823 -0.485283 -0.0453506 192 234 140
0.117718 -0.342821 -0.0273392 192 234 140
-0.224222 -0.425971 -0.22137 192 234 140
-0.0647401 -0.238893 -0.29722 192 234 140
-0.0487693 -0.442337 -0.236339 192 234 140
-0.0547214 -0.366409 -0.276707 192 234 140
-0.108205 -0.25068 -0.307632 192 234 140
-0.0513419 -0.189405 -0.275438 192 234 140
-0.0544121 -0.257018 -0.280206 192 234 140
-0.103549 -0.331738 -0.303904 192 234 140
-0.116538 -0.0927626 -0.309353 192 234 140
-0.0199944 -0.106637 -0.200234 192 234 140
-0.1663 -0.374365 -0.298174 192 234 140
-0.102402 -0.143246 -0.309142 192 234 140
-0.176452 -0.455802 -0.184255 192 234 140
0.00979662 -0.143138 -0.167512 192 234 140
0.0618611 -0.140001 -0.0725761 192 234 140
0.11289 -0.380696 -0.0392875 192 234 140
-0.109685 -0.310077 -0.3055 192 234 140
-0.0255316 -0.141822 -0.214652 192 234 140
-0.12029 -0.303333 -0.306226 192 234 140
-0.101961 -0.484466 -0.196023 192 234 140
0.0318748 -0.238284 -0.177619 192 234 140
0.0183751 -0.350856 -0.190835 192 234 140
-0.0858266 -0.34328 -0.298399 192 234 140
-0.0701068 -0.344454 -0.291673 192 234 140
0.125952 -0.416032 0.0115548 192 234 140
-0.104951 -0.334588 -0.303824 192 234 140
-0.09478 -0.447146 -0.303943 192 234 140
-0.106426 -0.162647 -0.309971 192 234 140
0.104171 -0.387285 -0.0546478 192 234 140
-0.0447443 -0.38178 -0.254655 192 234 140
-0.0942173 -0.378215 -0.300949 192 234 140
-0.0841491 -0.428699 -0.302329 192 234 140
-0.11598 -0.360126 -0.301477 192 234 140
0.124109 -0.360409 -0.00873994 192 234 140
-0.133933 -0.336581 -0.306684 192 234 140
0.0515126 -0.48329 -0.0871361 192 234 140
-0.0121048 -0.0945361 -0.182804 192 234 140
0.11726 -0.405494 -0.0210055 192 234 140
-0.0433132 -0.222155 -0.251143 192 234 140
-0.0851656 -0.397975 -0.301054 192 234 140
0.0251755 -0.351614 -0.178808 192 234 140
-0.0449217 -0.234452 -0.258477 192 234 140
-0.0738319 -0.287119 -0.299136 192 234 140
-0.123179 -0.150863 -0.311103 192 234 140
-0.0490892 -0.310776 -0.270916 192 234 140
-0.12008 -0.462703 -0.308299 192 234 140
-0.0739413 -0.12271 -0.306266 192 234 140
0.14341 -0.438264 0.0372283 192 234 140
-0.0381718 -0.39525 -0.233133 192 234 140
-0.0457991 -0.209542 -0.26164 192 234 140
0.040372 -0.11913 -0.104182 192 234 140
-0.0287988 -0.12312 -0.217861 192 234 140
0.0144393 -0.434453 -0.172943 192 234 140
-0.0462761 -0.484351 -0.145935 192 234 140
-0.0310998 -0.156237 -0.225537 192 234 140
0.0802643 -0.169382 -0.0636597 192 234 140
-0.153832 -0.465987 -0.208753 192 234 140
0.00524051 -0.132012 -0.168243 192 234 140
-0.0927241 -0.0970251 -0.307734 192 234 140
-0.088671 -0.477123 -0.274339 192 234 140
-0.0538805 -0.102946 -0.276046 192 234 140
0.120189 -0.321728 -0.0259346 192 234 140
-0.00974945 -0.101387 -0.180769 192 234 140
-0.0146869 -0.329313 -0.224271 192 234 140
-0.128012 -0.361924 -0.302003 192 234 140
-0.0560688 -0.477943 -0.21608 192 234 140
-0.0533674 -0.066391 -0.27017 192 234 140
-0.0215953 -0.143936 -0.206912 192 234 140
-0.0714844 -0.261003 -0.299413 192 234 140
0.125353 -0.408855 0.00614321 192 234 140
-0.0719026 -0.378112 -0.293429 192 234 140
-0.0443565 -0.136636 -0.240243 192 234 140
-0.0633438 -0.186245 -0.297385 192 234 140
-0.127278 -0.141295 -0.311183 192 234 140
-0.038929 -0.472766 -0.217944 192 234 140
-0.0660001 -0.205793 -0.300203 192 234 140
-0.162824 -0.304374 -0.308533 192 234 140
-0.0661162 -0.479194 -0.227093 192 234 140
-0.0622071 -0.20365 -0.295925 192 234 140
-0.00108249 -0.448309 -0.199677 192 234 140
-0.232276 -0.425434 -0.197182 192 234 140
0.125915 -0.439561 -0.00234697 192 234 140
-0.00434117 -0.213429 -0.199916 192 234 140
-0.0864524 -0.35424 -0.298067 192 234 140
-0.113306 -0.120222 -0.309975 192 234 140
-0.177545 -0.322847 -0.306844 192 234 140
-0.158135 -0.255658 -0.307897 192 234 140
0.0576519 -0.167401 -0.105647 192 234 140
-0.137985 -0.460069 -0.308141 192 234 140
-0.0490677 -0.0920949 -0.25071 192 234 140
-0.0319021 -0.132521 -0.224493 192 234 140
-0.0705634 -0.471704 -0.249291 192 234 140
-0.166557 -0.453913 -0.268028 192 234 140
-0.0672177 -0.0877332 -0.30334 192 234 140
-0.107917 -0.165349 -0.310221 192 234 140
0.149986 -0.486516 0.0627413 192 234 140
-0.0498037 -0.115723 -0.25941 192 234 140
-0.0491266 -0.138956 -0.260191 192 234 140
-0.00440825 -0.427294 -0.197005 192 234 140
0.0375167 -0.387394 -0.145973 192 234 140
0.0159232 -0.426833 -0.168906 192 234 140
-0.0388764 -0.391864 -0.234821 192 234 140
-0.00705851 -0.382911 -0.214253 192 234 140
0.0181057 -0.338675 -0.196812 192 234 140
0.0723263 -0.21333 -0.106234 192 234 140
0.0129418 -0.462164 -0.177228 192 234 140
-0.0312423 -0.157948 -0.225902 192 234 140
-0.0908284 -0.378223 -0.300516 192 234 140
-0.0151539 -0.430187 -0.209217 192 234 140
-0.146783 -0.31851 -0.308286 192 234 140
0.0122447 -0.305746 -0.203609 192 234 140
-0.0475389 -0.10198 -0.246105 192 234 140
-0.118792 -0.392852 -0.303213 192 234 140
0.12151 -0.488959 0.0541415 192 234 140
0.0582731 -0.376126 -0.123278 192 234 140
0.150342 -0.486396 0.0623716 192 234 140
0.0496125 -0.17857 -0.125967 192 234 140
-0.0208007 -0.42711 -0.215318 192 234 140
-0.18834 -0.336194 -0.302064 192 234 140
-0.0418122 -0.32394 -0.252711 192 234 140
-0.0549689 -0.220618 -0.283957 192 234 140
0.0308173 -0.131458 -0.130026 192 234 140
-0.132734 -0.254603 -0.308363 192 234 140
-0.0219807 -0.260055 -0.223547 192 234 140
-0.0403017 -0.297655 -0.248171 192 234 140
-0.0718299 -0.300631 -0.297395 192 234 140
0.0376686 -0.480257 -0.130757 192 234 140
-0.0298587 -0.434398 -0.223721 192 234 140
-0.157492 -0.462201 -0.253044 192 234 140
-0.0443872 -0.143972 -0.24206 192 234 140
-0.143911 -0.205942 -0.31155 192 234 140
-0.0812595 -0.470662 -0.284203 192 234 140
0.095629 -0.251243 -0.0752975 192 234 140
0.0941865 -0.447581 -0.0780536 192 234 140
0.0109311 -0.344131 -0.206875 192 234 140
-0.0569093 -0.147062 -0.286356 192 234 140
-0.144498 -0.448639 -0.309912 192 234 140
0.113661 -0.280984 -0.0424333 192 234 140
-0.0575016 -0.11907 -0.286602 192 234 140
-0.0764931 -0.115233 -0.306676 192 234 140
-0.00847884 -0.0938881 -0.176373 192 234 140
0.0857141 -0.204791 -0.0759372 192 234 140
0.0898237 -0.402854 -0.0739317 192 234 140
-0.0501148 -0.0928196 -0.256944 192 234 140
-0.047674 -0.15636 -0.257976 192 234 140
0.00547053 -0.104848 -0.155681 192 234 140
0.0265862 -0.23297 -0.182669 192 234 140
-0.0715865 -0.236057 -0.302422 192 234 140
-0.127115 -0.282732 -0.307093 192 234 140
-0.204204 -0.423011 -0.287455 192 234 140
0.00597087 -0.463128 -0.186453 192 234 140
-0.109328 -0.296429 -0.305599 192 234 140
-0.111325 -0.326532 -0.305019 192 234 140
0.158261 -0.47128 0.0694251 192 234 140
-0.0603213 -0.135437 -0.293107 192 234 140
-0.0225933 -0.0975845 -0.204457 192 234 140
-0.136385 -0.468467 -0.297756 192 234 140
-0.0849001 -0.330932 -0.299803 192 234 140
-0.0175607 -0.338779 -0.225994 192 234 140
-0.0461059 -0.100367 -0.240417 192 234 140
-0.0514109 -0.381095 -0.271796 192 234 140
-0.0815552 -0.471666 -0.282778 192 234 140
0.0431562 -0.480077 -0.126824 192 234 140
0.0653362 -0.416511 -0.106473 192 234 140
-0.0850345 -0.218103 -0.307163 192 234 140
-0.0266422 -0.115671 -0.212266 192 234 140
-0.0179455 -0.244002 -0.216432 192 234 140
0.0795647 -0.34008 -0.101363 192 234 140
-0.0674008 -0.351021 -0.289781 192 234 140
-0.175962 -0.429919 -0.305427 192 234 140
-0.0852748 -0.182257 -0.306859 192 234 140
-0.0614365 -0.482133 -0.20093 192 234 140
0.0738123 -0.19896 -0.0957836 192 234 140
-0.0274597 -0.106201 -0.212306 192 234 140
-0.168455 -0.353375 -0.300088 192 234 140
-0.165061 -0.467873 -0.0947725 192 234 140
-0.071271 -0.109672 -0.305889 192 234 140
-0.121232 -0.37471 -0.301388 192 234 140
0.0150484 -0.476636 -0.169695 192 234 140
-0.080944 -0.119957 -0.306943 192 234 140
-0.0633651 -0.12371 -0.296645 192 234 140
-0.145459 -0.362233 -0.301172 192 234 140
-0.0991723 -0.238602 -0.307828 192 234 140
-0.100825 -0.463669 -0.302652 192 234 140
0.0162402 -0.314909 -0.200039 192 234 140
-0.0614312 -0.431911 -0.271855 192 234 140
-0.0457492 -0.381748 -0.258255 192 234 140
-0.121134 -0.21152 -0.31119 192 234 140
0.0827291 -0.278479 -0.101452 192 234 140
-0.0201635 -0.168538 -0.208496 192 234 140
-0.0966325 -0.380785 -0.301172 192 234 140
-0.16367 -0.302858 -0.308497 192 234 140
0.140402 -0.48755 0.0233891 192 234 140
0.0501451 -0.48096 -0.110616 192 234 140
0.153434 -0.482942 0.038312 192 234 140
-0.0572394 -0.212186 -0.289125 192 234 140
0.016536 -0.239239 -0.192103 192 234 140
-0.0058884 -0.218829 -0.201964 192 234 140
-0.115625 -0.338661 -0.3047 192 234 140
-0.0667158 -0.475126 -0.234949 192 234 140
0.0117174 -0.485846 -0.0755369 192 234 140
-0.12779 -0.301296 -0.306809 192 234 140
-0.015816 -0.438151 -0.211136 192 234 140
0.0668391 -0.209408 -0.115715 192 234 140
-0.0828101 -0.135047 -0.306826 192 234 140
-0.0105934 -0.435731 -0.205736 192 234 140
-0.0349103 -0.0854811 -0.22325 192 234 140
0.120522 -0.31137 -0.0262286 192 234 140
-0.0955152 -0.485238 -0.154067 192 234 140
0.0159733 -0.471237 -0.175298 192 234 140
-0.101583 -0.107831 -0.308823 192 234 140
-0.0907693 -0.362891 -0.299979 192 234 140
0.142523 -0.430849 0.043284 192 234 140
-0.143634 -0.213714 -0.31122 192 234 140
-0.0546019 -0.333594 -0.276465 192 234 140
-0.141183 -0.422003 -0.302367 192 234 140
-0.0597694 -0.288109 -0.286996 192 234 140
-0.119802 -0.373578 -0.301462 192 234 140
0.146249 -0.487587 0.0521136 192 234 140
-0.0917277 -0.337878 -0.301301 192 234 140
-0.100035 -0.484605 -0.100414 192 234 140
-0.0887883 -0.0900598 -0.307484 192 234 140
0.0661545 -0.192034 -0.107143 192 234 140
-0.00853844 -0.365993 -0.220417 192 234 140
0.118471 -0.392737 -0.0213772 192 234 140
-0.0864174 -0.143655 -0.306934 192 234 140
0.00720557 -0.0986474 -0.150147 192 234 140
0.0367401 -0.478454 -0.141332 192 234 140
-0.0286786 -0.341688 -0.234403 192 234 140
-0.00110739 -0.467943 -0.194402 192 234 140
0.0624948 -0.244952 -0.135634 192 234 140
-0.14387 -0.309254 -0.30823 192 234 140
-0.0534733 -0.483148 -0.123865 192 234 140
-0.0901744 -0.481293 -0.236164 192 234 140
-0.120038 -0.482632 -0.101216 192 234 140
-0.119194 -0.113865 -0.31006 192 234 140
-0.159525 -0.267374 -0.307993 192 234 140
-0.0718824 -0.341124 -0.292803 192 234 140
-0.0431441 -0.231805 -0.252327 192 234 140
-0.060306 -0.356695 -0.282896 192 234 140
0.0298426 -0.128675 -0.130113 192 234 140
-0.105289 -0.430793 -0.305411 192 234 140
-0.141193 -0.458249 -0.304969 192 234 140
-0.137554 -0.200112 -0.294815 224 210 119
-0.0592657 -0.108515 -0.312922 224 210 119
-0.121386 -0.3225 -0.312276 224 210 119
-0.102148 -0.377463 -0.310229 224 210 119
-0.0384256 -0.0757827 -0.30909 224 210 119
-0.199669 -0.344198 -0.269356 224 210 119
-0.153163 -0.115091 -0.255007 224 210 119
-0.278228 -0.44525 -0.251358 224 210 119
-0.182493 -0.257391 -0.206852 224 210 119
-0.138436 -0.309948 -0.308859 224 210 119
-0.13825 -0.109676 -0.212093 224 210 119
-0.0745918 -0.131287 -0.314747 224 210 119
-0.106587 -0.127324 -0.305082 224 210 119
-0.0927548 -0.196945 -0.191848 224 210 119
-0.0892458 -0.445065 -0.306423 224 210 119
-0.168665 -0.290139 -0.280283 224 210 119
-0.090202 -0.405802 -0.307962 224 210 119
-0.0308199 -0.249286 -0.308694 224 210 119
-0.0607781 -0.269197 -0.311563 224 210 119
-0.0638222 -0.264844 -0.283491 224 210 119
-0.107717 -0.0624178 -0.290628 224 210 119
-0.192803 -0.37173 -0.28005 224 210 119
-0.114267 -0.118799 -0.297825 224 210 119
-0.200744 -0.271398 -0.247742 224 210 119
-0.112759 -0.112136 -0.298407 224 210 119
-0.220086 -0.310645 -0.243735 224 210 119
-0.0956187 -0.0963834 -0.237083 224 210 119
-0.0831926 -0.063926 -0.305076 224 210 119
-0.102617 -0.266343 -0.220173 224 210 119
-0.150314 -0.353124 -0.306329 224 210 119
-0.0723505 -0.0877204 -0.273556 224 210 119
-0.0278764 -0.117579 -0.315851 224 210 119
-0.140318 -0.234472 -0.300608 224 210 119
-0.0744571 -0.111729 -0.313308 224 210 119
-0.172579 -0.188927 -0.255681 224 210 119
-0.0688636 -0.384089 -0.249716 224 210 119
-0.140402 -0.0881218 -0.260133 224 210 119
-0.0885943 -0.219564 -0.19103 224 210 119
-0.0753233 -0.204722 -0.314412 224 210 119
-0.0543888 -0.214849 -0.312016 224 210 119
-0.1671 -0.330454 -0.290294 224 210 119
-0.191105 -0.426834 -0.288408 224 210 119
-0.087975 -0.417677 -0.307056 224 210 119
-0.0970912 -0.416555 -0.308114 224 210 119
-0.101571 -0.104868 -0.305345 224 210 119
-0.153839 -0.137447 -0.217756 224 210 119
-0.136422 -0.336538 -0.310669 224 210 119
-0.137916 -0.305654 -0.308522 224 210 119
-0.149182 -0.113736 -0.230414 224 210 119
-0.097157 -0.0958191 -0.306133 224 210 119
-0.231378 -0.336044 -0.250635 224 210 119
-0.0992193 -0.0685944 -0.277845 224 210 119
-0.123264 -0.122722 -0.198829 224 210 119
-0.0698153 -0.0685345 -0.30754 224 210 119
-0.0955819 -0.207915 -0.200083 224 210 119
-0.211721 -0.3188 -0.253247 224 210 119
-0.134221 -0.234397 -0.306068 224 210 119
-0.104296 -0.323839 -0.206407 224 210 119
-0.0933587 -0.240796 -0.197598 224 210 119
-0.124322 -0.359887 -0.310815 224 210 119
-0.0450717 -0.338135 -0.307016 224 210 119
-0.191038 -0.391251 -0.284079 224 210 119
-0.0906687 -0.163247 -0.312833 224 210 119
-0.0951655 -0.421517 -0.30771 224 210 119
-0.111202 -0.134912 -0.303315 224 210 119
-0.162412 -0.205187 -0.202677 224 210 119
-0.0728468 -0.373223 -0.307611 224 210 119
-0.0853353 -0.322287 -0.190298 224 210 119
-0.298187 -0.373478 -0.212727 224 210 119
-0.153615 -0.149555 -0.265329 224 210 119
-0.184283 -0.412209 -0.292197 224 210 119
-0.103816 -0.105035 -0.304098 224 210 119
-0.076433 -0.107607 -0.262456 224 210 119
-0.0436933 -0.298666 -0.308375 224 210 119
-0.18566 -0.42597 -0.292928 224 210 119
-0.156216 -0.250947 -0.195438 224 210 119
-0.282197 -0.344403 -0.216132 224 210 119
-0.0636407 -0.246882 -0.192787 224 210 119
-0.0919921 -0.0588488 -0.293764 224 210 119
-0.257302 -0.374233 -0.249969 224 210 119
-0.269381 -0.395808 -0.246789 224 210 119
-0.15671 -0.124122 -0.245244 224 210 119
-0.094894 -0.134264 -0.310398 224 210 119
-0.0941454 -0.317205 -0.313425 224 210 119
-0.157568 -0.35898 -0.302902 224 210 119
-0.204221 -0.316478 -0.256877 224 210 119
-0.185382 -0.394501 -0.288727 224 210 119
-0.090803 -0.28187 -0.246196 224 210 119
-0.121441 -0.445632 -0.309035 224 210 119
-0.0898343 -0.342703 -0.263128 224 210 119
-0.199222 -0.26435 -0.218741 224 210 119
-0.148086 -0.155738 -0.271549 224 210 119
-0.201411 -0.333312 -0.265099 224 210 119
-0.101634 -0.423452 -0.308278 224 210 119
-0.185554 -0.354434 -0.281647 224 210 119
-0.0940127 -0.278126 -0.239963 224 210 119
-0.192388 -0.319034 -0.206621 224 210 119
-0.149607 -0.123433 -0.218724 224 210 119
-0.100947 -0.123401 -0.307932 224 210 119
-0.264289 -0.326629 -0.22064 224 210 119
-0.147718 -0.17969 -0.198295 224 210 119
-0.15904 -0.427601 -0.306644 224 210 119
-0.0211409 -0.358454 -0.306427 224 210 119
-0.0942975 -0.270269 -0.196133 224 210 119
-0.0894884 -0.293637 -0.314116 224 210 119
-0.0646248 -0.399463 -0.191434 224 210 119
-0.270637 -0.355109 -0.235331 224 210 119
-0.105018 -0.344906 -0.252754 224 210 119
-0.101636 -0.332493 -0.249931 224 210 119
-0.0434676 -0.436812 -0.306482 224 210 119
-0.141325 -0.159228 -0.27908 224 210 119
-0.115543 -0.225793 -0.31285 224 210 119
-0.103839 -0.257969 -0.314965 224 210 119
-0.248335 -0.426873 -0.262785 224 210 119
-0.0824071 -0.205359 -0.314682 224 210 119
-0.120367 -0.227056 -0.312055 224 210 119
-0.144598 -0.182098 -0.280592 224 210 119
-0.165026 -0.429152 -0.305062 224 210 119
-0.0492347 -0.366824 -0.306556 224 210 119
-0.0301137 -0.0957581 -0.31274 224 210 119
-0.036118 -0.33561 -0.307043 224 210 119
-0.0705075 -0.127861 -0.266993 224 210 119
-0.295633 -0.421987 -0.233086 224 210 119
-0.0286846 -0.125051 -0.316335 224 210 119
-0.0909758 -0.256639 -0.19975 224 210 119
-0.183127 -0.270978 -0.265258 224 210 119
-0.0279898 -0.214742 -0.309255 224 210 119
-0.240822 -0.336317 -0.246081 224 210 119
-0.104577 -0.406959 -0.212572 224 210 119
-0.217991 -0.298707 -0.215537 224 210 119
-0.123153 -0.412089 -0.310373 224 210 119
-0.141586 -0.104908 -0.268155 224 210 119
-0.123919 -0.303275 -0.312213 224 210 119
-0.0489524 -0.0536047 -0.299292 224 210 119
-0.195735 -0.427896 -0.284592 224 210 119
-0.290029 -0.406051 -0.233674 224 210 119
-0.125077 -0.0689885 -0.26902 224 210 119
-0.153125 -0.198468 -0.197234 224 210 119
-0.280404 -0.418913 -0.245034 224 210 119
-0.091791 -0.189473 -0.231051 224 210 119
-0.127737 -0.345284 -0.311151 224 210 119
-0.120785 -0.185322 -0.187104 224 210 119
-0.136433 -0.0866851 -0.266286 224 210 119
-0.088286 -0.0639809 -0.303181 224 210 119
-0.0205635 -0.401829 -0.151387 224 210 119
-0.150073 -0.110442 -0.237365 224 210 119
-0.298708 -0.401466 -0.223237 224 210 119
-0.136216 -0.0788095 -0.244069 224 210 119
-0.195917 -0.262034 -0.250365 224 210 119
-0.150945 -0.376515 -0.306981 224 210 119
-0.0853595 -0.193568 -0.242952 224 210 119
-0.199748 -0.274072 -0.249702 224 210 119
-0.0807703 -0.360869 -0.309441 224 210 119
-0.153965 -0.39483 -0.30681 224 210 119
-0.185501 -0.27658 -0.264561 224 210 119
-0.054448 -0.386997 -0.231522 224 210 119
-0.199295 -0.447514 -0.285768 224 210 119
-0.116284 -0.204798 -0.311205 224 210 119
-0.0485476 -0.38658 -0.306131 224 210 119
-0.0270721 -0.32208 -0.306601 224 210 119
-0.0838907 -0.178205 -0.313509 224 210 119
-0.281695 -0.384934 -0.235278 224 210 119
-0.130988 -0.396792 -0.310228 224 210 119
-0.0159085 -0.402069 -0.148655 224 210 119
-0.0810034 -0.372418 -0.308494 224 210 119
-0.246492 -0.322329 -0.213864 224 210 119
-0.0837846 -0.069916 -0.308134 224 210 119
-0.0647831 -0.270873 -0.283564 224 210 119
-0.278844 -0.344756 -0.220576 224 210 119
-0.0949746 -0.121748 -0.211879 224 210 119
-0.0814085 -0.41675 -0.306655 224 210 119
-0.215264 -0.284176 -0.222403 224 210 119
-0.296286 -0.373852 -0.215484 224 210 119
-0.193281 -0.371948 -0.279719 224 210 119
-0.0872918 -0.153041 -0.234984 224 210 119
-0.0903862 -0.317001 -0.246353 224 210 119
-0.0825219 -0.119391 -0.312753 224 210 119
-0.179703 -0.361887 -0.286827 224 210 119
-0.0786221 -0.0576572 -0.293664 224 210 119
-0.199482 -0.342875 -0.2692 224 210 119
-0.163162 -0.228554 -0.272699 224 210 119
-0.0525174 -0.409725 -0.137279 224 210 119
-0.298404 -0.386201 -0.21786 224 210 119
-0.10278 -0.148348 -0.308754 224 210 119
-0.117954 -0.158939 -0.302532 224 210 119
-0.111632 -0.344399 -0.312223 224 210 119
-0.11557 -0.074281 -0.288072 224 210 119
-0.0685312 -0.0937539 -0.309572 224 210 119
-0.0932378 -0.304755 -0.239784 224 210 119
-0.121055 -0.173542 -0.302803 224 210 119
-0.0577074 -0.0633937 -0.28163 224 210 119
-0.141985 -0.100701 -0.26535 224 210 119
-0.0396242 -0.0974494 -0.311841 224 210 119
-0.128935 -0.342903 -0.311118 224 210 119
-0.0716571 -0.236201 -0.313683 224 210 119
-0.0602215 -0.10673 -0.312523 224 210 119
-0.104188 -0.173369 -0.184625 224 210 119
-0.100887 -0.079313 -0.305191 224 210 119
-0.121231 -0.395117 -0.310699 224 210 119
-0.087394 -0.287717 -0.252454 224 210 119
-0.152984 -0.29727 -0.295911 224 210 119
-0.102472 -0.0764685 -0.302903 224 210 119
-0.133868 -0.101329 -0.278904 224 210 119
-0.0594914 -0.217862 -0.312485 224 210 119
-0.0670061 -0.373192 -0.307035 224 210 119
-0.0708469 -0.315938 -0.204408 224 210 119
-0.232353 -0.436817 -0.27133 224 210 119
-0.185292 -0.313685 -0.272127 224 210 119
-0.0947186 -0.235033 -0.197855 224 210 119
-0.211073 -0.279357 -0.221411 224 210 119
-0.0671095 -0.27761 -0.312071 224 210 119
-0.177416 -0.393042 -0.293744 224 210 119
-0.136099 -0.270595 -0.307458 224 210 119
-0.164481 -0.288728 -0.284073 224 210 119
-0.155605 -0.12111 -0.241485 224 210 119
-0.0855086 -0.302712 -0.255106 224 210 119
-0.0846739 -0.141095 -0.238816 224 210 119
-0.106953 -0.166418 -0.309455 224 210 119
-0.130127 -0.2547 -0.310091 224 210 119
-0.194774 -0.258526 -0.217956 224 210 119
-0.0241721 -0.223624 -0.308568 224 210 119
-0.0236857 -0.104012 -0.314767 224 210 119
-0.208043 -0.271894 -0.241076 224 210 119
-0.214005 -0.419166 -0.276437 224 210 119
-0.0552791 -0.0866587 -0.271273 224 210 119
-0.096524 -0.0700091 -0.277933 224 210 119
-0.159768 -0.154733 -0.26122 224 210 119
-0.280078 -0.395399 -0.24036 224 210 119
-0.131614 -0.307661 -0.311472 224 210 119
-0.0834081 -0.130414 -0.24383 224 210 119
-0.0800008 -0.138383 -0.314285 224 210 119
-0.0941575 -0.225399 -0.314949 224 210 119
-0.146607 -0.299998 -0.301748 224 210 119
-0.110261 -0.363194 -0.311277 224 210 119
-0.0871405 -0.367841 -0.309569 224 210 119
-0.141409 -0.105753 -0.21993 224 210 119
-0.0640238 -0.060948 -0.305633 224 210 119
-0.0777622 -0.08211 -0.275193 224 210 119
-0.133572 -0.202516 -0.30047 224 210 119
-0.0534911 -0.0645499 -0.305825 224 210 119
-0.122339 -0.124625 -0.291072 224 210 119
-0.114841 -0.0635369 -0.275 224 210 119
-0.0748312 -0.321209 -0.273888 224 210 119
-0.0542678 -0.124636 -0.314929 224 210 119
-0.0374991 -0.154546 -0.314574 224 210 119
-0.0516785 -0.238 -0.311473 224 210 119
-0.0759613 -0.0756295 -0.308023 224 210 119
-0.12833 -0.159238 -0.29231 224 210 119
-0.0577713 -0.0637997 -0.281002 224 210 119
-0.0759635 -0.144505 -0.314847 224 210 119
-0.167234 -0.238222 -0.271409 224 210 119
-0.11791 -0.361539 -0.211214 224 210 119
-0.111867 -0.336905 -0.212901 224 210 119
-0.123592 -0.0893391 -0.287177 224 210 119
-0.107855 -0.323031 -0.217896 224 210 119
-0.20648 -0.265747 -0.23079 224 210 119
-0.252138 -0.39601 -0.255103 224 210 119
-0.222364 -0.388709 -0.267827 224 210 119
-0.0334828 -0.421245 -0.306528 224 210 119
-0.098709 -0.23313 -0.223655 224 210 119
-0.0224622 -0.393881 -0.179313 224 210 119
-0.159128 -0.360085 -0.302025 224 210 119
