ply
format ascii 1.0
comment Created by Open3D
element vertex 1188
property double x
property double y
property double z
property uchar red
property uchar green
property uchar blue
end_header
-0.421011 -0.487064 0.365564 96 250 196
-0.0155053 -0.487223 0.181083 96 250 196
-0.136634 -0.487154 0.422611 96 250 196
0.328945 -0.486883 0.0878198 96 250 196
-0.0411517 -0.487238 -0.324285 96 250 196
0.414225 -0.166083 0.138561 96 250 196
-0.363263 -0.487311 -0.0051743 96 250 196
-0.170211 -0.487201 0.362756 96 250 196
0.0367899 -0.487189 -0.371174 96 250 196
0.391056 -0.47511 -0.146233 96 250 196
0.365439 -0.486814 0.354604 96 250 196
0.026558 -0.487233 -0.408554 96 250 196
-0.253382 -0.48719 0.19716 96 250 196
0.404036 -0.372957 0.201465 96 250 196
-0.356935 -0.487315 -0.00183527 96 250 196
0.407747 -0.226937 0.365697 96 250 196
0.396923 -0.462461 -0.120105 96 250 196
0.0211259 -0.48678 0.0462582 96 250 196
-0.233187 -0.487127 0.382891 96 250 196
0.202659 -0.486972 -0.260361 96 250 196
0.155558 -0.487014 0.355497 96 250 196
-0.0943595 -0.487221 -0.227501 96 250 196
0.395855 -0.486911 0.0625702 96 250 196
-0.416697 -0.467373 0.405782 96 250 196
-0.397518 -0.487116 0.293665 96 250 196
-0.288059 -0.487162 0.418375 96 250 196
-0.226485 -0.487312 -0.272466 96 250 196
-0.148457 -0.487294 -0.292971 96 250 196
0.399518 -0.433865 -0.11006 96 250 196
-0.14483 -0.48731 -0.318924 96 250 196
0.147386 -0.487086 -0.264933 96 250 196
0.41097 -0.165385 0.217398 96 250 196
-0.274312 -0.487334 -0.138123 96 250 196
0.177146 -0.487023 -0.215769 96 250 196
-0.029619 -0.487145 0.339355 96 250 196
0.420096 -0.223631 0.00660959 96 250 196
0.411253 -0.253996 0.0544688 96 250 196
-0.209667 -0.487264 0.0654483 96 250 196
-0.324597 -0.487209 -0.228241 96 250 196
0.404866 -0.280668 0.330867 96 250 196
0.384411 -0.475039 -0.176448 96 250 196
-0.143661 -0.487075 0.443352 96 250 196
0.349525 -0.48685 0.423342 96 250 196
0.371781 -0.486831 0.251848 96 250 196
-0.275526 -0.487233 -0.286468 96 250 196
-0.00654053 -0.487069 0.438781 96 250 196
0.415991 -0.439119 0.238384 96 250 196
-0.122865 -0.487297 -0.351963 96 250 196
0.156428 -0.487044 -0.223946 96 250 196
0.424563 -0.213523 -0.0203407 96 250 196
-0.405115 -0.487092 0.398465 96 250 196
-0.0904943 -0.487283 -0.337649 96 250 196
0.387137 -0.482312 0.37399 96 250 196
0.41336 -0.246525 0.0412193 96 250 196
0.0495755 -0.487174 -0.350298 96 250 196
-0.359621 -0.487325 -0.101469 96 250 196
-0.0562009 -0.487271 -0.37714 96 250 196
0.191562 -0.486949 0.447373 96 250 196
0.332108 -0.486861 -0.220248 96 250 196
-0.169402 -0.48731 -0.291377 96 250 196
0.416343 -0.309719 -0.0419291 96 250 196
0.105318 -0.487123 -0.343099 96 250 196
0.404573 -0.280867 0.313897 96 250 196
-0.303365 -0.486832 -0.27029 96 250 196
-0.0847746 -0.487211 -0.205861 96 250 196
0.416949 -0.103529 0.147134 96 250 196
-0.248919 -0.487199 0.17625 96 250 196
0.39666 -0.456638 -0.12501 96 250 196
-0.14685 -0.487259 -0.182639 96 250 196
0.379099 -0.48682 0.40043 96 250 196
0.38283 -0.482536 0.468023 96 250 196
0.0761431 -0.48716 -0.343198 96 250 196
0.0627846 -0.487111 -0.149446 96 250 196
0.357988 -0.48682 0.365699 96 250 196
0.0827468 -0.487126 -0.383529 96 250 196
0.390759 -0.47343 0.466128 96 250 196
0.417962 -0.262773 0.442434 96 250 196
0.0821323 -0.487026 0.438557 96 250 196
0.336389 -0.486917 -0.0534094 96 250 196
-0.282813 -0.480355 0.451448 96 250 196
0.408778 -0.3158 0.368342 96 250 196
0.19984 -0.486931 -0.301261 96 250 196
0.417277 -0.130402 0.113682 96 250 196
-0.279175 -0.487255 0.0461704 96 250 196
0.0105347 -0.487162 0.309853 96 250 196
0.406791 -0.232191 0.246893 96 250 196
-0.313543 -0.48735 -0.184637 96 250 196
0.273176 -0.486904 0.0157903 96 250 196
0.102784 -0.487024 0.430907 96 250 196
-0.216722 -0.487259 0.0631551 96 250 196
-0.0451938 -0.487241 -0.323095 96 250 196
0.404838 -0.371233 0.03264 96 250 196
-0.174124 -0.487097 0.427182 96 250 196
-0.207719 -0.487323 -0.275361 96 250 196
-0.256575 -0.487337 -0.11904 96 250 196
0.417601 -0.143456 0.0953695 96 250 196
0.41446 -0.369144 0.443213 96 250 196
-0.353696 -0.468537 0.440072 96 250 196
-0.359312 -0.486952 0.170705 96 250 196
0.419469 -0.239929 0.449849 96 250 196
-0.409175 -0.487095 0.305895 96 250 196
-0.133672 -0.487145 0.441673 96 250 196
-0.173159 -0.487314 -0.272968 96 250 196
0.414093 -0.181508 0.110017 96 250 196
0.407633 -0.43829 0.0244829 96 250 196
-0.38964 -0.487153 0.0990812 96 250 196
-0.406589 -0.487105 0.286166 96 250 196
-0.0195803 -0.487187 -0.291192 96 250 196
-0.172637 -0.48718 0.273364 96 250 196
-0.281898 -0.487155 0.317684 96 250 196
-0.06155 -0.487199 -0.13819 96 250 196
0.410151 -0.39507 0.26451 96 250 196
0.401898 -0.331149 0.308452 96 250 196
0.0364555 -0.48722 -0.410761 96 250 196
-0.407472 -0.487092 0.327616 96 250 196
-0.128483 -0.487082 0.268544 96 250 196
-0.193829 -0.487315 -0.199705 96 250 196
0.408897 -0.221111 0.402179 96 250 196
0.41857 -0.400748 0.470049 96 250 196
-0.0688193 -0.487279 -0.3534 96 250 196
0.32515 -0.486837 0.332401 96 250 196
0.408207 -0.206078 0.273 96 250 196
0.413631 -0.0587294 0.41496 96 250 196
-0.111964 -0.487292 -0.360153 96 250 196
-0.302633 -0.487228 -0.248931 96 250 196
0.405537 -0.265564 0.332511 96 250 196
0.111452 -0.487075 -0.369293 96 250 196
-0.332339 -0.487322 -0.0236484 96 250 196
0.178974 -0.486967 0.434088 96 250 196
-0.194739 -0.487317 -0.308354 96 250 196
0.408838 -0.448919 0.390419 96 250 196
0.416076 -0.166539 0.0982321 96 250 196
0.0226964 -0.487091 0.40412 96 250 196
0.0225155 -0.487221 -0.38514 96 250 196
-0.200825 -0.487313 -0.102991 96 250 196
0.0631742 -0.487173 -0.381958 96 250 196
0.406579 -0.290845 0.354518 96 250 196
-0.211895 -0.487331 -0.232588 96 250 196
0.353544 -0.48693 -0.0881139 96 250 196
-0.0250687 -0.487237 -0.34253 96 250 196
0.40292 -0.314479 0.316271 96 250 196
-0.269765 -0.487343 -0.191463 96 250 196
-0.060941 -0.486759 0.0227749 96 250 196
0.0919543 -0.48715 -0.315794 96 250 196
-0.30029 -0.487199 -0.261508 96 250 196
-0.386794 -0.487169 0.0316729 96 250 196
-0.102654 -0.487235 -0.00684607 96 250 196
0.417514 -0.415719 0.385703 96 250 196
0.41112 -0.389698 0.320973 96 250 196
-0.0469423 -0.487053 0.459178 96 250 196
-0.389783 -0.487153 0.126238 96 250 196
0.421295 -0.278681 -0.046774 96 250 196
0.410251 -0.44217 0.0672179 96 250 196
0.0826521 -0.487085 -0.0948516 96 250 196
-0.225416 -0.487223 0.371613 96 250 196
0.217716 -0.486966 0.2962 96 250 196
0.413503 -0.10492 0.426847 96 250 196
0.395488 -0.445429 -0.146252 96 250 196
-0.0475084 -0.487195 -0.190073 96 250 196
-0.00662135 -0.487209 0.217927 96 250 196
-0.142745 -0.487297 -0.304605 96 250 196
-0.259375 -0.48734 -0.185819 96 250 196
0.40555 -0.454828 0.39017 96 250 196
-0.389302 -0.487131 0.292025 96 250 196
0.411382 -0.267261 0.0331492 96 250 196
-0.418462 -0.486994 0.229684 96 250 196
0.351392 -0.486925 -0.0693245 96 250 196
-0.0543086 -0.487051 0.460773 96 250 196
0.283184 -0.486919 -0.117314 96 250 196
-0.101071 -0.487287 -0.342514 96 250 196
0.319972 -0.486886 0.431134 96 250 196
-0.103904 -0.487267 -0.299197 96 250 196
0.408966 -0.300823 0.0187163 96 250 196
-0.0362799 -0.487268 -0.38884 96 250 196
0.419517 -0.255967 -0.01414 96 250 196
0.244961 -0.486928 -0.156464 96 250 196
0.382817 -0.486923 -0.0492974 96 250 196
-0.370014 -0.487203 0.133273 96 250 196
-0.295249 -0.487219 0.0806455 96 250 196
-0.391943 -0.487141 0.145797 96 250 196
-0.359993 -0.487295 -0.117238 96 250 196
-0.145577 -0.487069 0.446235 96 250 196
0.339168 -0.486827 0.347687 96 250 196
0.0132998 -0.486867 0.120985 96 250 196
-0.435996 -0.482181 0.355615 96 250 196
0.414291 -0.31644 0.40158 96 250 196
-0.0779656 -0.487276 -0.337706 96 250 196
0.413654 -0.312146 0.398528 96 250 196
-0.108079 -0.48729 -0.354577 96 250 196
0.165312 -0.486979 -0.0375934 96 250 196
0.395032 -0.465492 0.471217 96 250 196
-0.241605 -0.487341 -0.209064 96 250 196
0.0728195 -0.4871 0.317117 96 250 196
0.116861 -0.487041 -0.154295 96 250 196
0.378024 -0.485491 0.475367 96 250 196
-0.287456 -0.487233 -0.264695 96 250 196
0.404807 -0.377667 0.124944 96 250 196
-0.412531 -0.468597 0.411539 96 250 196
-0.389254 -0.487034 0.240485 96 250 196
0.37937 -0.47936 -0.19496 96 250 196
0.222567 -0.486958 0.119072 96 250 196
0.416528 -0.0437688 0.315054 96 250 196
0.39302 -0.464604 -0.143828 96 250 196
0.413645 -0.106644 0.337935 96 250 196
0.0577532 -0.487103 0.330615 96 250 196
-0.373563 -0.487215 0.319943 96 250 196
-0.376488 -0.487132 0.289523 96 250 196
-0.0573679 -0.487273 -0.371799 96 250 196
-0.127452 -0.487184 0.282473 96 250 196
-0.415851 -0.487029 0.260009 96 250 196
0.000599164 -0.48718 0.273642 96 250 196
0.0476944 -0.487151 0.277393 96 250 196
-0.401915 -0.487091 0.197741 96 250 196
0.41109 -0.135933 0.361326 96 250 196
0.172177 -0.487046 -0.234573 96 250 196
-0.325653 -0.487171 -0.240425 96 250 196
-0.0817131 -0.487193 0.266823 96 250 196
0.380125 -0.484612 -0.180356 96 250 196
0.414248 -0.307904 -0.0287055 96 250 196
0.158782 -0.487001 -0.190437 96 250 196
0.00747005 -0.486893 0.136523 96 250 196
0.153262 -0.487036 -0.217107 96 250 196
0.123186 -0.487047 0.0467357 96 250 196
0.412345 -0.328825 -0.0357126 96 250 196
0.190693 -0.486987 0.094947 96 250 196
0.393843 -0.486873 0.174528 96 250 196
0.0799567 -0.48709 -0.0558615 96 250 196
0.405367 -0.476806 0.221832 96 250 196
0.403944 -0.30649 0.26109 96 250 196
-0.305789 -0.487188 -0.25827 96 250 196
-0.166135 -0.48731 -0.334396 96 250 196
-0.235096 -0.487289 -0.304774 96 250 196
0.369419 -0.486851 0.441916 96 250 196
0.413022 -0.085674 0.351722 96 250 196
-0.374127 -0.487243 0.0950402 96 250 196
0.364828 -0.486824 0.390771 96 250 196
-0.0337208 -0.487258 -0.362367 96 250 196
0.413655 -0.0498239 0.354782 96 250 196
-0.406695 -0.487071 0.223912 96 250 196
-0.294927 -0.487178 0.130626 96 250 196
0.405735 -0.356439 0.359439 96 250 196
0.414228 -0.374345 0.4323 96 250 196
0.415827 -0.0854668 0.241124 96 250 196
0.404849 -0.284992 0.222932 96 250 196
0.278078 -0.486942 -0.195009 96 250 196
0.0147924 -0.486886 0.13334 96 250 196
0.409447 -0.154806 0.384363 96 250 196
0.411639 -0.123421 0.415124 96 250 196
0.416318 -0.196962 0.444785 96 250 196
0.334184 -0.48688 -0.200987 96 250 196
0.417566 -0.315206 -0.103 96 250 196
0.218683 -0.486964 -0.184689 96 250 196
0.401191 -0.466389 0.344706 96 250 196
0.228729 -0.486916 -0.151657 96 250 196
0.302258 -0.48686 -0.245996 96 250 196
0.0169869 -0.487149 -0.270156 96 250 196
-0.0476417 -0.487241 -0.319886 96 250 196
0.2943 -0.486901 0.438752 96 250 196
0.415914 -0.0825057 0.218603 96 250 196
-0.165687 -0.487146 0.352526 96 250 196
-0.367698 -0.487288 -0.0757364 96 250 196
-0.205981 -0.487314 -0.292747 96 250 196
0.107932 -0.487058 -0.0103896 96 250 196
-0.0190084 -0.487219 -0.326792 96 250 196
0.389623 -0.486895 0.0977869 96 250 196
0.406552 -0.341065 0.00554901 96 250 196
-0.223543 -0.487318 -0.270339 96 250 196
0.356411 -0.486936 -0.10241 96 250 196
0.408811 -0.206103 0.365524 96 250 196
0.407381 -0.37347 -0.119131 96 250 196
-0.144747 -0.487226 0.152353 96 250 196
0.410705 -0.232606 0.0826667 96 250 196
0.0793295 -0.487088 -0.171225 96 250 196
0.410715 -0.435484 0.113134 96 250 196
0.0161264 -0.487199 -0.347694 96 250 196
0.0104388 -0.487257 -0.409905 96 250 196
-0.240999 -0.487168 0.289767 96 250 196
-0.302174 -0.487161 0.15414 96 250 196
0.00542408 -0.487179 -0.304204 96 250 196
0.402317 -0.453444 -0.0772272 96 250 196
-0.158322 -0.487129 0.379846 96 250 196
0.17124 -0.487044 -0.228595 96 250 196
-0.349103 -0.487141 0.3741 96 250 196
-0.31018 -0.48735 -0.177036 96 250 196
0.401744 -0.335075 0.280375 96 250 196
0.0923256 -0.487069 -0.137836 96 250 196
0.413852 -0.442238 0.333544 96 250 196
-0.0389036 -0.487151 0.332411 96 250 196
-0.342961 -0.487138 0.213024 96 250 196
-0.250564 -0.487044 0.414997 96 250 196
0.405192 -0.372225 -0.0356075 96 250 196
0.416784 -0.373395 0.452754 96 250 196
0.320097 -0.486904 -0.0381481 96 250 196
-0.262585 -0.487299 -0.257891 96 250 196
0.400086 -0.467296 0.352585 96 250 196
-0.182724 -0.487318 -0.276372 96 250 196
-0.356052 -0.468497 0.439132 96 250 196
0.387785 -0.475774 0.475149 96 250 196
0.166595 -0.487009 0.352672 96 250 196
0.0157065 -0.487247 -0.404997 96 250 196
0.41493 -0.27199 -0.00325615 96 250 196
-0.0534339 -0.487269 -0.386005 96 250 196
0.172638 -0.487042 -0.254152 96 250 196
-0.288051 -0.486342 -0.287636 96 250 196
0.0707465 -0.487145 -0.276322 96 250 196
-0.0690723 -0.486772 0.0409883 96 250 196
0.221633 -0.486953 0.398389 96 250 196
0.418526 -0.259624 -0.0121821 96 250 196
0.405256 -0.404577 -0.0515678 96 250 196
-0.189712 -0.487324 -0.263373 96 250 196
0.318622 -0.486862 0.20797 96 250 196
-0.317327 -0.474949 0.447431 96 250 196
0.0318733 -0.487146 -0.0824269 96 250 196
0.270575 -0.486929 -0.223528 96 250 196
0.30035 -0.486917 -0.199706 96 250 196
0.081682 -0.487089 -0.222565 96 250 196
-0.207961 -0.48731 -0.302842 96 250 196
0.415883 -0.0918225 0.214695 96 250 196
0.363876 -0.486817 0.364129 96 250 196
0.408245 -0.399437 0.0758328 96 250 196
0.415257 -0.378369 0.441803 96 250 196
0.359289 -0.486818 0.310317 96 250 196
-0.360675 -0.487105 0.440314 96 250 196
0.01078 -0.48704 0.46374 96 250 196
0.355085 -0.486927 -0.0782384 96 250 196
-0.10078 -0.487229 -0.250803 96 250 196
0.00427016 -0.487079 0.430261 96 250 196
0.407438 -0.235533 0.160735 96 250 196
0.00284668 -0.487213 0.202993 96 250 196
0.297301 -0.486941 -0.168528 96 250 196
0.404274 -0.302662 0.184068 96 250 196
0.290763 -0.486934 -0.127897 96 250 196
0.413058 -0.456626 0.271504 96 250 196
0.404532 -0.293941 0.28308 96 250 196
0.344106 -0.486892 -0.17697 96 250 196
0.189328 -0.486962 -0.174987 96 250 196
-0.158607 -0.487274 -0.20659 96 250 196
0.162745 -0.486981 -0.0843995 96 250 196
-0.371176 -0.487137 0.354679 96 250 196
0.0199532 -0.486645 0.472845 96 250 196
-0.168586 -0.487286 -0.218268 96 250 196
0.233767 -0.486905 -0.064903 96 250 196
-0.0171279 -0.487264 -0.395492 96 250 196
0.410509 -0.401599 0.232004 96 250 196
-0.0659391 -0.487203 -0.245608 96 250 196
0.415665 -0.277363 -0.0120391 96 250 196
-0.282488 -0.486452 -0.290377 96 250 196
-0.0968576 -0.487206 -0.138536 96 250 196
0.0419594 -0.487078 0.403704 96 250 196
-0.123236 -0.487297 -0.354029 96 250 196
-0.0135204 -0.487182 -0.0191262 96 250 196
0.396444 -0.486897 0.103127 96 250 196
0.0666019 -0.48706 0.416051 96 250 196
0.0479286 -0.487171 0.24818 96 250 196
0.407582 -0.450823 0.39808 96 250 196
0.408047 -0.466776 0.265619 96 250 196
0.417288 -0.387963 0.455966 96 250 196
0.250668 -0.486903 0.45829 96 250 196
0.41472 -0.334605 -0.0773288 96 250 196
0.410118 -0.446535 0.386275 96 250 196
-0.0428617 -0.487268 -0.386697 96 250 196
-0.20574 -0.487325 -0.202403 96 250 196
-0.262354 -0.487344 -0.199665 96 250 196
0.146992 -0.486997 -0.357214 96 250 196
0.112307 -0.487081 0.294546 96 250 196
0.412517 -0.441865 0.164368 96 250 196
0.363951 -0.486579 -0.194645 96 250 196
0.423797 -0.277442 -0.0871753 96 250 196
0.415452 -0.309054 0.417497 96 250 196
0.408305 -0.449945 0.383997 96 250 196
-0.334617 -0.487135 0.306598 96 250 196
-0.193739 -0.487315 -0.287711 96 250 196
0.409758 -0.169769 0.287183 96 250 196
-0.33607 -0.487146 0.394548 96 250 196
0.401771 -0.359007 0.145039 96 250 196
0.250601 -0.48688 -0.280401 96 250 196
-0.396483 -0.487121 0.276918 96 250 196
0.400745 -0.445528 -0.0970232 96 250 196
-0.197619 -0.487324 -0.265531 96 250 196
-0.337751 -0.487246 -0.190526 96 250 196
0.415996 -0.133873 0.154598 96 250 196
-0.360226 -0.487253 -0.136688 96 250 196
-0.228889 -0.48732 -0.0386446 96 250 196
0.16986 -0.487034 -0.270667 96 250 196
0.417116 -0.407958 0.378349 96 250 196
0.347789 -0.48689 0.0570915 96 250 196
-0.0706098 -0.487279 -0.356461 96 250 196
0.412953 -0.111773 0.42372 96 250 196
0.0983399 -0.487029 0.42891 96 250 196
0.264195 -0.486916 0.333618 96 250 196
0.399482 -0.464116 0.412924 96 250 196
-0.148848 -0.487207 0.392771 96 250 196
0.409512 -0.446067 0.122249 96 250 196
-0.371749 -0.48702 0.219569 96 250 196
-0.413752 -0.487013 0.206881 96 250 196
-0.32682 -0.487148 0.180112 96 250 196
0.418408 -0.312703 -0.0865899 96 250 196
-0.0789711 -0.487266 -0.321719 96 250 196
-0.273724 -0.487329 -0.233899 96 250 196
0.362309 -0.48682 0.372445 96 250 196
0.416826 -0.395499 0.45415 96 250 196
0.355636 -0.486907 -0.00730716 96 250 196
0.416027 -0.0800135 0.238461 96 250 196
0.283806 -0.486889 0.346357 96 250 196
-0.0308076 -0.48724 -0.340164 96 250 196
-0.360804 -0.487336 -0.0425943 96 250 196
-0.354776 -0.48719 0.132101 96 250 196
0.408326 -0.202161 0.235086 96 250 196
-0.0980271 -0.487203 0.419582 96 250 196
0.41472 -0.0759031 0.303872 96 250 196
-0.123727 -0.487263 -0.279576 96 250 196
-0.29457 -0.487282 -0.239452 96 250 196
-0.353787 -0.487222 -0.166678 96 250 196
0.411654 0.00982277 0.448926 128 254 179
0.413178 -0.0404771 0.0920564 128 254 179
0.405671 -0.233846 -0.00117925 128 254 179
0.409533 -0.307794 0.0890585 128 254 179
0.412644 -0.0658861 0.417031 128 254 179
0.414168 -0.125007 0.15293 128 254 179
0.420505 0.0345243 0.484012 128 254 179
0.414242 -0.0811437 0.196868 128 254 179
-0.0441393 -0.488756 0.0053441 128 254 179
0.407558 0.0135129 0.352723 128 254 179
0.411855 -0.00234335 0.10083 128 254 179
0.422495 -0.0626902 0.465066 128 254 179
0.414082 -0.140568 0.326962 128 254 179
0.421259 -0.263765 0.421441 128 254 179
0.412784 -0.301989 0.158111 128 254 179
0.437449 -0.321685 0.458419 128 254 179
0.422904 -0.378079 0.336156 128 254 179
0.423066 -0.104707 0.459452 128 254 179
0.41489 -0.157875 0.286048 128 254 179
0.143652 -0.488164 0.301751 128 254 179
0.451736 -0.390411 0.490103 128 254 179
0.412926 -0.0303526 0.43788 128 254 179
0.434473 -0.303268 0.459118 128 254 179
0.354117 -0.488561 0.0159758 128 254 179
0.375602 -0.487249 0.415365 128 254 179
0.427244 -0.115414 0.476553 128 254 179
0.429369 -0.0769403 0.488866 128 254 179
0.415192 -0.372294 0.254979 128 254 179
0.414211 -0.187466 0.309344 128 254 179
0.414738 -0.227079 0.252988 128 254 179
0.452492 -0.378541 0.488809 128 254 179
0.415381 -0.222216 0.389624 128 254 179
0.418921 -0.487388 0.462172 128 254 179
0.44069 -0.373576 0.44264 128 254 179
0.459424 -0.342107 0.477282 128 254 179
0.415487 -0.395841 0.259109 128 254 179
0.407932 -0.264244 0.0464438 128 254 179
0.419727 -0.144542 0.436182 128 254 179
0.448983 -0.393792 0.496693 128 254 179
0.445449 -0.398306 0.459394 128 254 179
0.3521 -0.488397 0.197931 128 254 179
0.413417 -0.155864 0.152066 128 254 179
0.413754 -0.0516705 0.198646 128 254 179
0.41227 0.00643453 0.265853 128 254 179
0.417773 -0.318706 0.329644 128 254 179
0.40718 0.0134561 0.422514 128 254 179
0.436077 -0.260541 0.483271 128 254 179
0.422 -0.144237 0.448188 128 254 179
0.423069 -0.262828 0.43599 128 254 179
0.35838 -0.485532 0.337686 128 254 179
0.418381 -0.302157 0.358542 128 254 179
0.414842 -0.212151 0.283675 128 254 179
0.420191 -0.255173 0.416955 128 254 179
0.441691 -0.456094 0.476924 128 254 179
0.411421 -0.044701 0.418127 128 254 179
0.41366 -0.130963 0.177817 128 254 179
0.413016 -0.0959709 0.375082 128 254 179
0.414649 -0.0857 0.299661 128 254 179
0.424768 -0.484696 0.124839 128 254 179
0.414226 -0.222929 0.375717 128 254 179
0.428818 -0.223635 0.478904 128 254 179
0.423182 -0.487187 0.433833 128 254 179
0.413193 -0.108602 0.390488 128 254 179
0.368695 -0.487155 0.286721 128 254 179
0.422619 -0.13793 0.451617 128 254 179
0.424024 -0.286466 0.433658 128 254 179
0.429583 -0.0868847 0.488333 128 254 179
0.106798 -0.488365 0.274131 128 254 179
0.41241 0.0100774 0.230204 128 254 179
0.410905 -0.129829 0.0453128 128 254 179
0.425204 -0.179016 0.462802 128 254 179
0.238229 -0.487659 0.343363 128 254 179
0.416266 -0.327254 0.299507 128 254 179
0.441945 -0.41746 0.434714 128 254 179
0.414179 -0.457844 0.191294 128 254 179
0.431982 -0.373625 0.386119 128 254 179
0.414991 0.0293076 0.466365 128 254 179
0.406583 -0.352999 0.0899476 128 254 179
0.384717 -0.487729 0.103857 128 254 179
0.400449 -0.487171 0.420546 128 254 179
0.416269 -0.308653 0.244282 128 254 179
-0.0337493 -0.488986 0.0395993 128 254 179
0.412222 -0.23013 0.157512 128 254 179
0.414025 -0.0617332 0.228168 128 254 179
0.414165 -0.124196 0.344726 128 254 179
0.412988 -0.389868 0.232664 128 254 179
0.414383 -0.0703121 0.29063 128 254 179
0.242848 -0.487742 0.469772 128 254 179
0.402773 -0.432682 0.141656 128 254 179
0.423773 -0.230801 0.44791 128 254 179
0.413708 -0.142903 0.390572 128 254 179
0.410292 0.00133794 0.438472 128 254 179
0.413075 -0.0287412 0.170742 128 254 179
0.424087 -0.195615 0.455611 128 254 179
0.414989 -0.180554 0.27352 128 254 179
0.384143 -0.476141 0.495424 128 254 179
0.413328 -0.116239 0.122551 128 254 179
0.452573 -0.361489 0.493706 128 254 179
0.413099 -0.17366 0.384757 128 254 179
0.428057 -0.231736 0.473211 128 254 179
0.437593 -0.463274 0.407857 128 254 179
0.408568 0.0152474 0.437922 128 254 179
0.412197 -0.38689 0.211203 128 254 179
0.215633 -0.487877 0.32276 128 254 179
0.425302 -0.01053 0.485754 128 254 179
0.410198 -0.0450481 0.375046 128 254 179
0.127441 -0.487598 0.437764 128 254 179
0.410217 -0.186743 0.0793399 128 254 179
0.406593 -0.485383 0.276561 128 254 179
0.413003 -0.0709944 0.0930527 128 254 179
0.414929 -0.181144 0.277445 128 254 179
0.41191 -0.187094 0.109734 128 254 179
0.286781 -0.489174 0.1454 128 254 179
0.414711 -0.107121 0.307873 128 254 179
0.412848 -0.03816 0.150627 128 254 179
0.407568 -0.317481 0.0663284 128 254 179
0.411741 -0.178456 0.100961 128 254 179
0.246476 -0.48912 0.13584 128 254 179
0.413611 -0.043429 0.18249 128 254 179
0.232691 -0.48813 0.277709 128 254 179
0.413531 -0.0249798 0.224765 128 254 179
0.420803 -0.482723 0.294931 128 254 179
0.426129 -0.480686 0.133887 128 254 179
0.412314 -0.0689115 0.056151 128 254 179
0.414164 -0.229703 0.224632 128 254 179
0.413658 -0.0502226 0.434809 128 254 179
0.413634 -0.142509 0.368993 128 254 179
0.401134 -0.40877 0.135101 128 254 179
0.426311 -0.484577 0.137721 128 254 179
0.339292 -0.487359 0.42892 128 254 179
0.414101 -0.127807 0.154637 128 254 179
0.427926 -0.280009 0.454773 128 254 179
0.411449 0.0475042 0.461757 128 254 179
0.0973648 -0.488079 0.325368 128 254 179
0.414809 -0.459148 0.189654 128 254 179
0.433456 -0.237441 0.487557 128 254 179
0.413832 -0.137555 0.381097 128 254 179
0.418517 -0.22405 0.415479 128 254 179
0.414959 -0.16307 0.278179 128 254 179
0.412941 -0.0444649 0.0644655 128 254 179
0.414975 -0.187093 0.24841 128 254 179
0.410826 0.00352477 0.318732 128 254 179
0.40737 -0.201123 0.0431598 128 254 179
0.428161 -0.199014 0.477035 128 254 179
0.402783 -0.475873 0.49297 128 254 179
0.43596 -0.343317 0.435718 128 254 179
0.451575 -0.339491 0.489815 128 254 179
0.245522 -0.489174 0.094318 128 254 179
0.4458 -0.29311 0.488785 128 254 179
0.2317 -0.487655 0.460584 128 254 179
0.427602 -0.0596203 0.482337 128 254 179
0.413635 -0.143733 0.371156 128 254 179
0.429537 -0.343923 0.402997 128 254 179
0.43519 -0.253421 0.487275 128 254 179
0.412925 -0.182244 0.157085 128 254 179
0.411651 0.019411 0.222402 128 254 179
0.414877 -0.268563 0.331658 128 254 179
0.129667 -0.489102 0.108899 128 254 179
0.408144 -0.0080863 0.386045 128 254 179
0.41499 -0.145811 0.269755 128 254 179
0.344708 -0.487724 0.477719 128 254 179
0.414507 -0.148542 0.300213 128 254 179
0.393221 -0.48741 0.460709 128 254 179
0.237729 -0.487975 0.489341 128 254 179
-0.0186309 -0.489032 0.0825046 128 254 179
0.422428 -0.480689 0.277004 128 254 179
0.417703 -0.197629 0.415343 128 254 179
0.431124 -0.231108 0.483891 128 254 179
0.413951 -0.123936 0.370267 128 254 179
0.408927 -0.156408 0.0144551 128 254 179
0.413242 -0.3001 0.168482 128 254 179
0.290631 -0.488089 0.268045 128 254 179
0.421748 -0.0406715 0.467648 128 254 179
0.4083 -0.0106798 0.394254 128 254 179
0.41486 -0.370542 0.249128 128 254 179
0.409543 -0.0093697 0.353098 128 254 179
0.437937 -0.462636 0.410553 128 254 179
0.411539 -0.23513 0.142142 128 254 179
0.426565 -0.146679 0.489282 128 254 179
0.412855 -0.0125381 0.0632527 128 254 179
0.334628 -0.487862 0.484597 128 254 179
0.414937 -0.104918 0.296276 128 254 179
0.416515 -0.338149 0.252754 128 254 179
0.427842 -0.370451 0.368118 128 254 179
0.413659 -0.139808 0.224414 128 254 179
0.446017 -0.423114 0.492379 128 254 179
0.427607 -0.0267109 0.49145 128 254 179
0.418881 -0.482092 0.296654 128 254 179
0.344946 -0.486743 0.337378 128 254 179
0.413663 -0.11378 0.371725 128 254 179
0.422722 -0.127545 0.452863 128 254 179
0.427875 -0.143923 0.488862 128 254 179
0.414319 -0.0767751 0.178124 128 254 179
0.415319 -0.256839 0.304269 128 254 179
0.413347 -0.210602 0.333383 128 254 179
0.411813 0.0167488 0.220272 128 254 179
0.428674 -0.454377 0.31741 128 254 179
0.416393 -0.326643 0.245412 128 254 179
0.42277 -0.466633 0.0666647 128 254 179
0.390038 -0.487549 0.475294 128 254 179
0.424541 0.0089168 0.488317 128 254 179
0.413033 -0.153128 0.128853 128 254 179
0.41341 -0.142035 0.206771 128 254 179
0.413823 -0.13899 0.401143 128 254 179
0.442021 -0.440434 0.428651 128 254 179
0.417563 -0.244133 0.399408 128 254 179
0.293183 -0.488903 0.197321 128 254 179
0.420212 -0.102881 0.448339 128 254 179
0.41351 -0.023479 0.222772 128 254 179
0.16314 -0.489201 0.0770411 128 254 179
0.424795 -0.103597 0.467297 128 254 179
0.455337 -0.37151 0.480579 128 254 179
0.414881 -0.162468 0.283034 128 254 179
0.41818 -0.295446 0.362285 128 254 179
0.416644 -0.383505 0.274741 128 254 179
0.41239 -0.0241006 0.313486 128 254 179
0.440687 -0.460715 0.456392 128 254 179
0.416321 -0.284793 0.33616 128 254 179
0.428712 -0.178544 0.481663 128 254 179
0.302086 -0.489083 0.00131725 128 254 179
0.437414 -0.472904 0.460014 128 254 179
0.439815 -0.397377 0.427369 128 254 179
0.413884 -0.140144 0.340974 128 254 179
0.413053 -0.20907 0.355177 128 254 179
0.417549 -0.319787 0.324876 128 254 179
0.413572 -0.384277 0.242734 128 254 179
0.415292 -0.0778061 0.43235 128 254 179
0.0631743 -0.488706 0.236743 128 254 179
0.431872 -0.228277 0.487274 128 254 179
0.447645 -0.337052 0.476346 128 254 179
0.41852 -0.0776557 0.447729 128 254 179
0.413975 -0.231397 0.36152 128 254 179
0.41408 -0.0676697 0.198377 128 254 179
0.417307 -0.293831 0.346405 128 254 179
0.437149 -0.338106 0.447068 128 254 179
0.408096 -0.175174 0.0190901 128 254 179
0.414282 -0.0897385 0.171862 128 254 179
0.445046 -0.437641 0.462225 128 254 179
0.30835 -0.485931 0.360466 128 254 179
0.329754 -0.488415 0.217586 128 254 179
0.4143 -0.477291 0.276933 128 254 179
0.152888 -0.489193 0.0867895 128 254 179
0.421432 -0.0230588 0.470643 128 254 179
0.221452 -0.487716 0.337685 128 254 179
0.441512 -0.33731 0.461238 128 254 179
0.414949 -0.097654 0.289207 128 254 179
0.40606 -0.369741 0.0995143 128 254 179
0.413675 -0.150399 0.333311 128 254 179
0.409478 -0.32472 0.109518 128 254 179
0.357451 -0.486954 0.30693 128 254 179
0.414986 -0.194844 0.277944 128 254 179
0.336592 -0.487821 0.295369 128 254 179
0.148724 -0.487733 0.464658 128 254 179
0.435808 -0.355766 0.421979 128 254 179
0.414767 -0.31397 0.199366 128 254 179
0.426257 -0.13174 0.47178 128 254 179
0.413516 -0.0519096 0.433446 128 254 179
0.411253 -0.0597805 0.380062 128 254 179
0.421283 -0.468732 -0.0312869 128 254 179
0.0330809 -0.489064 0.069276 128 254 179
0.416194 -0.276668 0.226594 128 254 179
0.00970792 -0.488953 0.134236 128 254 179
0.410944 -0.105586 0.0309187 128 254 179
0.394719 -0.484521 0.485491 128 254 179
0.414609 -0.132875 0.249878 128 254 179
0.413565 -0.212135 0.20295 128 254 179
0.44383 -0.445609 0.449809 128 254 179
0.428038 -0.484159 0.139878 128 254 179
0.442101 -0.278255 0.486229 128 254 179
0.435044 -0.247675 0.485928 128 254 179
0.412403 -0.0802072 0.381628 128 254 179
0.422094 -0.248823 0.433988 128 254 179
0.408979 -0.163533 0.0241224 128 254 179
0.432715 -0.416793 0.365993 128 254 179
0.419507 0.0313468 0.480231 128 254 179
0.413711 -0.0426835 0.23507 128 254 179
0.413727 -0.144861 0.389568 128 254 179
0.411357 -0.234394 0.138218 128 254 179
0.413529 -0.222479 0.362448 128 254 179
0.415922 -0.269238 0.228194 128 254 179
0.427138 -0.252401 0.463742 128 254 179
0.439501 -0.258099 0.480012 128 254 179
0.413102 -0.0731554 0.132462 128 254 179
0.416621 -0.484204 0.288014 128 254 179
0.411133 0.0168672 0.274625 128 254 179
0.441859 -0.278475 0.487427 128 254 179
0.418019 -0.312311 0.339036 128 254 179
0.414896 -0.0839861 0.277562 128 254 179
0.123313 -0.488921 0.179443 128 254 179
0.402204 -0.338107 0.0176119 128 254 179
0.410177 -0.0143888 0.428271 128 254 179
0.413936 -0.0407587 0.439328 128 254 179
0.444059 -0.321217 0.472258 128 254 179
0.432223 -0.483791 0.459446 128 254 179
0.419674 -0.168312 0.432822 128 254 179
0.413825 -0.218076 0.21659 128 254 179
0.414126 -0.110307 0.162079 128 254 179
0.422512 -0.377236 0.334819 128 254 179
0.437623 -0.472122 0.462673 128 254 179
0.414306 -0.0590733 0.263585 128 254 179
0.414738 -0.0940227 0.299616 128 254 179
0.415051 -0.41269 0.247732 128 254 179
0.421578 -0.300986 0.401424 128 254 179
0.428876 -0.209377 0.487466 128 254 179
0.424719 -0.201608 0.458379 128 254 179
0.413408 -0.0266796 0.280706 128 254 179
0.414462 -0.109352 0.324515 128 254 179
0.414846 -0.134967 0.265265 128 254 179
0.254506 -0.487158 0.387488 128 254 179
0.413268 -0.0603764 0.148629 128 254 179
0.41463 -0.173335 0.294564 128 254 179
0.446097 -0.296529 0.487214 128 254 179
0.424999 -0.194158 0.46067 128 254 179
0.409034 -0.00968006 0.360522 128 254 179
0.0561211 -0.4891 0.0888579 128 254 179
0.411421 -0.0511046 0.410372 128 254 179
0.413384 -0.0315694 0.183602 128 254 179
0.418916 -0.458663 0.0991371 128 254 179
0.392472 -0.460748 0.489485 128 254 179
0.412853 -0.0319755 0.0549338 128 254 179
0.429033 -0.138869 0.48825 128 254 179
0.414429 -0.333928 0.205826 128 254 179
0.408957 -0.436 0.0989937 128 254 179
0.408018 -0.174566 0.0165675 128 254 179
0.101441 -0.488338 0.279413 128 254 179
0.424222 -0.275662 0.441338 128 254 179
0.412368 -0.192572 0.131638 128 254 179
0.41326 -0.163215 0.359456 128 254 179
0.265969 -0.48765 0.339167 128 254 179
0.415948 -0.286114 0.212805 128 254 179
0.440208 -0.461295 0.434844 128 254 179
0.414029 -0.117555 0.362728 128 254 179
0.01098 -0.488956 0.133255 128 254 179
0.418811 -0.266273 0.39578 128 254 179
0.431805 -0.249992 0.478634 128 254 179
0.41449 -0.0940164 0.308767 128 254 179
0.403034 -0.363675 0.0524359 128 254 179
0.414626 -0.222641 0.298442 128 254 179
0.41874 -0.150188 0.429436 128 254 179
0.432589 -0.232803 0.486415 128 254 179
0.413943 -0.154824 0.318361 128 254 179
0.42117 -0.474537 -0.0321292 128 254 179
0.41458 -0.125009 0.246504 128 254 179
0.413715 -0.142571 0.349541 128 254 179
0.41146 -0.160656 0.0864597 128 254 179
0.413808 -0.18976 0.388798 128 254 179
0.457381 -0.360442 0.476093 128 254 179
0.413751 -0.139719 0.160832 128 254 179
0.4123 -0.0790277 0.390975 128 254 179
0.141059 -0.487667 0.457639 128 254 179
0.391834 -0.484043 0.340366 128 254 179
0.414916 -0.120469 0.294207 128 254 179
0.282837 -0.487277 0.407918 128 254 179
0.449112 -0.415612 0.479056 128 254 179
0.405233 -0.487294 0.446977 128 254 179
0.406839 -0.312607 0.0480199 128 254 179
0.414848 -0.234851 0.254725 128 254 179
0.413171 -0.0910613 0.405198 128 254 179
0.0309461 -0.488802 0.232211 128 254 179
0.423153 -0.0969979 0.461355 128 254 179
0.424542 -0.134882 0.462383 128 254 179
0.40908 -0.0119662 0.416752 128 254 179
0.413267 -0.109794 0.3949 128 254 179
0.414846 -0.0822338 0.285188 128 254 179
0.299124 -0.487205 0.373082 128 254 179
0.414675 -0.223234 0.235677 128 254 179
0.412029 -0.16227 0.0993424 128 254 179
0.413287 -0.13771 0.128388 128 254 179
0.162786 -0.487492 0.425036 128 254 179
0.425885 -0.477692 0.216087 128 254 179
0.414197 -0.0747944 0.223985 128 254 179
0.414791 -0.22767 0.237973 128 254 179
0.423988 -0.0341554 0.475961 128 254 179
0.442587 -0.396782 0.444474 128 254 179
0.414192 -0.0687043 0.232221 128 254 179
0.412287 -0.00280678 0.17494 128 254 179
0.413037 -0.167579 0.37087 128 254 179
0.413881 -0.0549914 0.230031 128 254 179
0.424323 0.0199124 0.492537 128 254 179
0.435944 -0.431983 0.377806 128 254 179
0.427904 -0.2101 0.474609 128 254 179
0.41054 0.0281188 0.452852 128 254 179
0.412815 -0.132629 0.111548 128 254 179
0.425495 -0.173794 0.464755 128 254 179
0.318688 -0.487149 0.375304 128 254 179
0.413115 -0.0732102 0.417267 128 254 179
0.413576 -0.180639 0.220159 128 254 179
0.413183 0.0308149 0.461688 128 254 179
0.418642 -0.35778 0.320003 128 254 179
0.412661 -0.0413913 0.317389 128 254 179
0.435037 -0.375572 0.404093 128 254 179
0.413892 -0.175148 0.226912 128 254 179
0.429659 -0.483572 0.46816 128 254 179
0.415667 -0.272047 0.264279 128 254 179
0.421975 -0.191515 0.444395 128 254 179
0.192012 -0.4878 0.471539 128 254 179
0.41387 -0.23813 0.333106 128 254 179
0.412976 -0.14059 0.121509 128 254 179
0.422894 -0.0155512 0.477017 128 254 179
0.410954 -0.0902654 0.0286474 128 254 179
0.29768 -0.489164 0.144767 128 254 179
-0.00580989 -0.488919 -0.00330664 128 254 179
0.427672 -0.139514 0.477913 128 254 179
0.413244 -0.150683 0.190439 128 254 179
0.413578 -0.120463 0.383602 128 254 179
0.411914 -0.294391 0.133683 128 254 179
0.424029 -0.13016 0.459764 128 254 179
0.445962 -0.362218 0.467018 128 254 179
0.414848 -0.10807 0.274015 128 254 179
0.410011 -0.0280194 0.411195 128 254 179
0.127088 -0.48913 0.101234 128 254 179
0.413014 -0.169696 0.380746 128 254 179
0.415011 -0.198212 0.274988 128 254 179
0.410713 -0.109932 0.0245902 128 254 179
0.414161 -0.15144 0.403665 128 254 179
0.279811 -0.489077 0.188146 128 254 179
0.413396 -0.154441 0.353882 128 254 179
0.429668 -0.343172 0.404592 128 254 179
0.144834 -0.489025 -0.00946465 128 254 179
0.422798 -0.299704 0.414197 128 254 179
0.418805 -0.0664979 0.452071 128 254 179
0.418466 -0.151272 0.427787 128 254 179
0.414588 -0.251942 0.322318 128 254 179
0.403712 -0.313963 0.00785588 128 254 179
0.412807 -0.059359 0.424001 128 254 179
0.413302 -0.144573 0.193751 128 254 179
0.422542 -0.113767 0.455174 128 254 179
0.414025 -0.100287 0.350054 128 254 179
0.314335 -0.48907 0.163407 128 254 179
0.410013 -0.0341992 0.360455 128 254 179
0.421641 -0.241088 0.433695 128 254 179
0.431829 -0.485283 0.415915 128 254 179
0.412492 -0.18917 0.129378 128 254 179
0.432463 -0.419918 0.36238 128 254 179
0.413968 -0.0582771 0.191927 128 254 179
0.0605806 -0.488287 0.289905 128 254 179
0.45266 -0.373266 0.494624 128 254 179
0.413061 -0.0243222 0.111775 128 254 179
0.402978 -0.485263 0.335372 128 254 179
0.414635 -0.127887 0.306088 128 254 179
0.413981 -0.124139 0.227236 128 254 179
0.426639 -0.134611 0.473636 128 254 179
0.406743 0.0146811 0.405499 128 254 179
0.411089 -0.278437 0.116644 128 254 179
0.435479 -0.458683 0.374703 128 254 179
0.428954 -0.125011 0.488953 128 254 179
0.411883 -0.3293 0.159148 128 254 179
0.216459 -0.487353 0.421354 128 254 179
0.409909 -0.210422 0.0900998 128 254 179
0.425456 -0.00677954 0.487109 128 254 179
0.414037 -0.137137 0.335902 128 254 179
0.413298 -0.148146 0.196744 128 254 179
0.429906 -0.485582 0.364677 128 254 179
0.436689 -0.315482 0.459033 128 254 179
0.411523 -0.172545 0.0927436 128 254 179
0.424725 -0.485088 0.34306 128 254 179
0.412991 -0.0323563 0.120635 128 254 179
0.429723 -0.236357 0.479227 128 254 179
0.414275 -0.091816 0.322413 128 254 179
0.411391 -0.142822 0.0718041 128 254 179
0.257284 -0.487309 0.417198 128 254 179
0.414626 -0.102786 0.309904 128 254 179
0.452401 -0.367636 0.490946 128 254 179
0.331817 -0.488181 0.244722 128 254 179
0.410909 0.00686963 0.31299 128 254 179
0.415118 -0.171431 0.263844 128 254 179
0.323001 -0.487266 0.399265 128 254 179
0.408457 -0.308304 0.0707312 128 254 179
0.414826 -0.209931 0.264829 128 254 179
0.23666 -0.48742 0.430368 128 254 179
0.0976666 -0.489026 0.12552 128 254 179
0.430849 -0.22291 0.488082 128 254 179
0.413001 -0.198678 0.345123 128 254 179
0.411767 -0.0862126 0.0472457 128 254 179
0.405537 0.0269638 0.383284 128 254 179
0.425632 -0.132614 0.468197 128 254 179
0.123696 -0.487717 0.353084 128 254 179
0.429234 -0.332032 0.41557 128 254 179
0.408009 -0.0013333 0.404274 128 254 179
0.409518 -0.26083 0.0809118 128 254 179
0.426647 -0.216856 0.466474 128 254 179
0.431415 -0.483576 0.229845 128 254 179
0.405718 -0.38173 0.109563 128 254 179
0.417849 -0.189319 0.417778 128 254 179
0.435803 -0.327742 0.451519 128 254 179
0.413545 -0.110324 0.402192 128 254 179
0.41499 -0.104201 0.283168 128 254 179
0.452229 -0.380641 0.495454 128 254 179
0.411324 -0.253965 0.13227 128 254 179
0.41344 -0.176116 0.180934 128 254 179
0.0468967 -0.488927 0.14916 128 254 179
0.413533 -0.0309528 0.27915 128 254 179
0.414212 -0.056233 0.26526 128 254 179
0.413371 -0.155469 0.195723 128 254 179
0.408626 1.03116e-05 0.423005 128 254 179
0.410679 -0.216997 0.11923 128 254 179
0.209557 -0.487908 0.482123 128 254 179
0.329125 -0.487808 0.298547 128 254 179
0.41382 -0.0319702 0.441713 128 254 179
0.40686 -0.394827 0.143316 128 254 179
0.413857 -0.0694456 0.309614 128 254 179
0.41499 -0.486034 0.16724 128 254 179
0.42747 -0.0997047 0.490219 128 254 179
0.4118 -0.0583909 0.409661 128 254 179
0.414244 -0.119354 0.235114 128 254 179
0.447705 -0.38404 0.471263 128 254 179
0.121437 -0.488285 0.288671 128 254 179
0.412978 -0.0417963 0.160665 128 254 179
0.416846 -0.303349 0.321558 128 254 179
0.448813 -0.340698 0.478787 128 254 179
0.427766 -0.047142 0.4849 128 254 179
0.414311 -0.0939566 0.183852 128 254 179
-0.0785313 -0.487671 -0.101367 160 249 161
-0.393427 -0.43936 0.20097 160 249 161
-0.409133 -0.204655 0.243952 160 249 161
-0.0681082 -0.487497 -0.0381937 160 249 161
-0.454357 -0.391117 0.34301 160 249 161
-0.426893 -0.40041 0.26801 160 249 161
-0.407368 -0.241543 0.222461 160 249 161
-0.0325538 -0.487117 -0.20558 160 249 161
-0.298391 -0.486668 -0.111164 160 249 161
-0.236747 -0.486876 -0.0534127 160 249 161
-0.361196 -0.490075 -0.00610957 160 249 161
-0.232422 -0.470667 -0.243075 160 249 161
-0.127216 -0.487169 -0.00855147 160 249 161
-0.108678 -0.487077 0.0171204 160 249 161
-0.356963 -0.48956 -0.0616335 160 249 161
-0.291917 -0.491977 -0.0458214 160 249 161
-0.201572 -0.48687 0.232596 160 249 161
0.13473 -0.489029 0.305645 160 249 161
-0.309972 -0.456626 0.119708 160 249 161
-0.227202 -0.472715 -0.268776 160 249 161
-0.43029 -0.156921 0.311342 160 249 161
-0.354127 -0.490543 -0.0262516 160 249 161
-0.257668 -0.487297 -0.118521 160 249 161
-0.412217 -0.2514 0.238892 160 249 161
-0.228897 -0.486665 0.189309 160 249 161
-0.357339 -0.487058 -0.0884998 160 249 161
-0.43293 -0.282903 0.366301 160 249 161
-0.423063 -0.463892 0.395558 160 249 161
-0.420539 -0.439039 0.224011 160 249 161
-0.437199 -0.378868 0.295793 160 249 161
0.0272048 -0.487079 0.00701851 160 249 161
-0.419793 -0.436981 0.223077 160 249 161
-0.42438 -0.217204 0.290089 160 249 161
-0.423373 -0.14012 0.290267 160 249 161
-0.345165 -0.484923 0.132951 160 249 161
-0.316721 -0.485262 0.304275 160 249 161
-0.434925 -0.405335 0.283353 160 249 161
-0.233021 -0.486855 0.207683 160 249 161
-0.420679 -0.111321 0.291076 160 249 161
-0.440556 -0.387143 0.300498 160 249 161
-0.402692 -0.475772 0.123262 160 249 161
-0.40422 -0.177539 0.232906 160 249 161
-0.420264 -0.428397 0.229815 160 249 161
-0.416993 -0.256641 0.25468 160 249 161
-0.437596 -0.397134 0.393592 160 249 161
-0.297185 -0.464473 -0.241114 160 249 161
-0.441604 -0.461132 0.305982 160 249 161
0.252662 -0.482492 -0.177213 160 249 161
-0.341436 -0.49079 0.0228262 160 249 161
-0.141123 -0.486712 0.145059 160 249 161
-0.408721 -0.255566 0.219844 160 249 161
-0.432074 -0.384078 0.283598 160 249 161
-0.236287 -0.486413 0.0574031 160 249 161
-0.339981 -0.484568 0.286066 160 249 161
-0.421822 -0.258117 0.273549 160 249 161
-0.437265 -0.471359 0.282398 160 249 161
-0.427968 -0.114871 0.331312 160 249 161
-0.441744 -0.429148 0.390832 160 249 161
-0.382588 -0.48804 0.04434 160 249 161
0.0976006 -0.485732 -0.0551239 160 249 161
-0.421309 -0.480906 0.246679 160 249 161
-0.45089 -0.371062 0.340137 160 249 161
-0.408394 -0.482132 0.289973 160 249 161
-0.410502 -0.414271 0.212004 160 249 161
-0.393064 -0.485458 0.0700856 160 249 161
-0.296153 -0.492288 -0.0796461 160 249 161
-0.374078 -0.489887 0.0237798 160 249 161
-0.447012 -0.44338 0.382789 160 249 161
-0.142017 -0.461775 -0.0753215 160 249 161
-0.307863 -0.485577 0.298344 160 249 161
-0.21683 -0.486364 0.0592394 160 249 161
-0.408646 -0.198298 0.243931 160 249 161
-0.374573 -0.365462 0.222901 160 249 161
-0.338389 -0.485254 0.114417 160 249 161
-0.258292 -0.486608 0.134039 160 249 161
-0.246881 -0.486909 0.37479 160 249 161
-0.298684 -0.486679 -0.117747 160 249 161
-0.1693 -0.48516 -0.0576719 160 249 161
-0.176921 -0.487255 -0.10337 160 249 161
-0.157292 -0.46732 -0.0681589 160 249 161
-0.426033 -0.273508 0.287163 160 249 161
-0.431139 -0.150087 0.321613 160 249 161
-0.170428 -0.442509 -0.199363 160 249 161
-0.370958 -0.482938 0.371994 160 249 161
-0.449525 -0.365295 0.339808 160 249 161
-0.165336 -0.487155 -0.0773163 160 249 161
-0.41198 -0.130545 0.264384 160 249 161
-0.301489 -0.48643 -0.0379964 160 249 161
-0.379598 -0.484585 0.00689566 160 249 161
-0.430546 -0.476678 0.370609 160 249 161
-0.314507 -0.485401 0.284265 160 249 161
-0.416222 -0.443412 0.207218 160 249 161
-0.204993 -0.487526 -0.140133 160 249 161
-0.263696 -0.492287 -0.0512826 160 249 161
0.198107 -0.485752 0.091759 160 249 161
-0.146206 -0.486663 0.143257 160 249 161
0.244977 -0.486339 0.183678 160 249 161
-0.31426 -0.483076 0.403755 160 249 161
-0.290214 -0.486154 0.33594 160 249 161
-0.323831 -0.485359 -0.0608899 160 249 161
-0.416191 -0.482152 0.175722 160 249 161
-0.350349 -0.472319 0.405326 160 249 161
-0.3656 -0.489488 0.00709504 160 249 161
-0.1681 -0.488458 -0.239034 160 249 161
-0.433993 -0.251516 0.318326 160 249 161
0.27119 -0.484643 0.0883132 160 249 161
-0.429585 -0.462938 0.246316 160 249 161
-0.432302 -0.436279 0.268896 160 249 161
-0.354827 -0.484059 0.306603 160 249 161
-0.248813 -0.500878 0.00768754 160 249 161
-0.425784 -0.305243 0.376444 160 249 161
0.190256 -0.488224 0.254048 160 249 161
-0.231956 -0.486626 0.181462 160 249 161
-0.317799 -0.486229 0.0953519 160 249 161
-0.363155 -0.489976 -0.0394021 160 249 161
-0.416318 -0.331643 0.244165 160 249 161
-0.306123 -0.439883 0.141704 160 249 161
-0.194597 -0.487586 0.379587 160 249 161
-0.0186669 -0.488141 0.144993 160 249 161
-0.322787 -0.491317 -0.00921044 160 249 161
-0.416199 -0.381079 0.239161 160 249 161
-0.442412 -0.46448 0.322365 160 249 161
-0.138013 -0.487282 -0.0414633 160 249 161
-0.417651 -0.350003 0.248652 160 249 161
-0.421464 -0.473485 0.206104 160 249 161
-0.146243 -0.487972 -0.236801 160 249 161
-0.403564 -0.139572 0.240332 160 249 161
-0.429072 -0.215266 0.353991 160 249 161
-0.451625 -0.452027 0.364309 160 249 161
-0.409786 -0.200555 0.246649 160 249 161
-0.425634 -0.392178 0.267464 160 249 161
-0.414182 -0.274276 0.238386 160 249 161
-0.433276 -0.344575 0.297232 160 249 161
-0.41423 -0.343452 0.229954 160 249 161
0.0658865 -0.485817 -0.15596 160 249 161
-0.234715 -0.489621 -0.0772383 160 249 161
0.0181661 -0.486812 -0.0596708 160 249 161
-0.394458 -0.469339 0.182549 160 249 161
-0.41574 -0.222498 0.261661 160 249 161
-0.431275 -0.428622 0.398268 160 249 161
-0.275859 -0.486442 0.301786 160 249 161
-0.407832 -0.187137 0.243021 160 249 161
-0.446133 -0.346288 0.335438 160 249 161
-0.420244 -0.474086 0.199778 160 249 161
-0.320307 -0.490633 -0.156849 160 249 161
0.032716 -0.486337 -0.135782 160 249 161
-0.425167 -0.389254 0.267245 160 249 161
-0.443824 -0.416847 0.304166 160 249 161
-0.266893 -0.486641 0.273052 160 249 161
-0.343389 -0.484974 0.136459 160 249 161
-0.413783 -0.258809 0.241773 160 249 161
-0.246326 -0.487546 -0.135334 160 249 161
-0.246485 -0.487798 -0.17655 160 249 161
-0.321166 -0.492023 -0.084021 160 249 161
-0.433527 -0.369101 0.291606 160 249 161
0.203487 -0.483755 -0.191022 160 249 161
-0.0161691 -0.487036 -0.0241269 160 249 161
-0.414486 -0.472438 0.174735 160 249 161
-0.359126 -0.487637 -0.0797236 160 249 161
-0.387526 -0.485728 0.0376742 160 249 161
-0.398416 -0.181582 0.228435 160 249 161
-0.228893 -0.487104 0.322054 160 249 161
-0.429023 -0.289994 0.28975 160 249 161
-0.22859 -0.486399 0.140541 160 249 161
0.248307 -0.482641 -0.140393 160 249 161
-0.190705 -0.487102 -0.0877557 160 249 161
-0.123999 -0.455921 -0.150786 160 249 161
-0.43992 -0.392457 0.297332 160 249 161
-0.416462 -0.317454 0.244732 160 249 161
-0.410424 -0.456886 0.191653 160 249 161
-0.428391 -0.290029 0.372147 160 249 161
0.0876653 -0.486048 -0.0345882 160 249 161
-0.455717 -0.401582 0.346772 160 249 161
-0.195845 -0.492819 -0.135221 160 249 161
-0.121165 -0.486967 0.160851 160 249 161
-0.176007 -0.487915 -0.210748 160 249 161
-0.374597 -0.489552 0.0628312 160 249 161
-0.210008 -0.487043 0.24915 160 249 161
-0.41187 -0.240861 0.244509 160 249 161
-0.204608 -0.486748 0.420439 160 249 161
-0.168379 -0.486466 0.0892873 160 249 161
-0.193699 -0.487285 0.284601 160 249 161
-0.423855 -0.236009 0.363973 160 249 161
-0.402786 -0.487674 0.116058 160 249 161
-0.347925 -0.484291 0.32205 160 249 161
-0.444028 -0.464896 0.375623 160 249 161
-0.396123 -0.485742 0.179935 160 249 161
-0.347369 -0.369611 0.228248 160 249 161
-0.329939 -0.491451 -0.0874212 160 249 161
-0.0603444 -0.487494 -0.00625805 160 249 161
-0.255713 -0.478395 -0.215504 160 249 161
0.0691177 -0.488788 0.303978 160 249 161
-0.412577 -0.482741 0.158068 160 249 161
-0.317129 -0.485103 0.38051 160 249 161
-0.383716 -0.483285 0.335588 160 249 161
-0.387054 -0.482891 0.29172 160 249 161
-0.110238 -0.445464 -0.170148 160 249 161
-0.451311 -0.405818 0.326043 160 249 161
-0.223996 -0.486714 -0.0234937 160 249 161
-0.414958 -0.265064 0.24365 160 249 161
-0.444697 -0.450795 0.313201 160 249 161
-0.325079 -0.485503 -0.0163302 160 249 161
-0.437822 -0.353409 0.310014 160 249 161
0.0212298 -0.487319 0.0674599 160 249 161
-0.446502 -0.380573 0.373846 160 249 161
-0.404731 -0.254045 0.21914 160 249 161
-0.250355 -0.486655 0.00157252 160 249 161
-0.361463 -0.490212 0.0438399 160 249 161
-0.284477 -0.486538 0.224433 160 249 161
-0.366665 -0.483265 0.370879 160 249 161
-0.413857 -0.262215 0.24011 160 249 161
-0.450845 -0.446894 0.341784 160 249 161
-0.286065 -0.486345 0.348794 160 249 161
-0.430696 -0.395098 0.3973 160 249 161
-0.0831068 -0.487813 -0.183901 160 249 161
-0.317815 -0.483348 -0.203466 160 249 161
-0.22162 -0.487698 -0.158171 160 249 161
0.0618604 -0.486172 -0.067618 160 249 161
-0.430726 -0.362287 0.288119 160 249 161
-0.0463707 -0.486975 -0.0977236 160 249 161
-0.428833 -0.138764 0.307362 160 249 161
-0.152298 -0.486586 0.0835353 160 249 161
-0.415046 -0.190142 0.266283 160 249 161
-0.25301 -0.474014 0.0404757 160 249 161
-0.429809 -0.43995 0.25853 160 249 161
-0.416536 -0.3085 0.245014 160 249 161
0.0873936 -0.485543 -0.196695 160 249 161
0.149203 -0.486064 0.0603185 160 249 161
-0.2445 -0.439629 0.0733649 160 249 161
-0.453078 -0.446791 0.362462 160 249 161
-0.432426 -0.412268 0.277494 160 249 161
0.0416549 -0.487663 0.122992 160 249 161
-0.309295 -0.485844 0.216757 160 249 161
-0.0830858 -0.487681 0.33143 160 249 161
-0.447169 -0.338443 0.35183 160 249 161
-0.00181861 -0.487163 0.354355 160 249 161
-0.323604 -0.436479 0.168322 160 249 161
-0.154158 -0.495802 -0.0894421 160 249 161
0.111018 -0.487561 0.131965 160 249 161
-0.445042 -0.438921 0.310325 160 249 161
-0.270607 -0.486666 0.041488 160 249 161
-0.450412 -0.438674 0.330588 160 249 161
-0.290269 -0.487049 -0.166823 160 249 161
-0.412262 -0.222652 0.249071 160 249 161
-0.428578 -0.127745 0.331851 160 249 161
0.0350469 -0.487201 0.0312493 160 249 161
-0.433545 -0.46127 0.26344 160 249 161
-0.439626 -0.269143 0.352272 160 249 161
-0.427828 -0.225099 0.357268 160 249 161
-0.432642 -0.215391 0.342551 160 249 161
-0.342893 -0.484436 0.321 160 249 161
-0.244081 -0.486888 0.302487 160 249 161
-0.408259 -0.219724 0.237403 160 249 161
0.080973 -0.485629 -0.12254 160 249 161
-0.282836 -0.481243 -0.218735 160 249 161
-0.415233 -0.151013 0.267822 160 249 161
0.100102 -0.487428 0.11157 160 249 161
-0.413039 -0.259931 0.237687 160 249 161
-0.230168 -0.487425 -0.121858 160 249 161
-0.296996 -0.484828 -0.206934 160 249 161
-0.435534 -0.423697 0.282998 160 249 161
-0.255115 -0.487355 -0.11937 160 249 161
-0.40496 -0.182912 0.234154 160 249 161
