ply
format ascii 1.0
comment Created by Open3D
element vertex 1181
property double x
property double y
property double z
property uchar red
property uchar green
property uchar blue
end_header
-0.159164 -0.495918 -0.267439 224 210 119
-0.0767562 -0.489886 -0.418382 224 210 119
-0.312853 -0.383 -0.19847 224 210 119
-0.326231 -0.432867 -0.100642 224 210 119
-0.264134 -0.345765 -0.21222 224 210 119
-0.280105 -0.332732 -0.141348 224 210 119
-0.146517 -0.493464 -0.438813 224 210 119
-0.360638 -0.398115 -0.113229 224 210 119
-0.25462 -0.470172 -0.160677 224 210 119
-0.267648 -0.380446 -0.158567 224 210 119
-0.331835 -0.330617 -0.133304 224 210 119
-0.281852 -0.378905 -0.202672 224 210 119
-0.317275 -0.391699 -0.194483 224 210 119
0.0677103 -0.182072 -0.399765 224 210 119
-0.251848 -0.359142 -0.171058 224 210 119
-0.250515 -0.366959 -0.138136 224 210 119
-0.331186 -0.335035 -0.107267 224 210 119
-0.203169 -0.492938 -0.034893 224 210 119
-0.249638 -0.358781 -0.159832 224 210 119
-0.240639 -0.474665 -0.155075 224 210 119
-0.407864 -0.368672 -0.141465 224 210 119
0.0747341 -0.239023 -0.406315 224 210 119
-0.21928 -0.495276 -0.120211 224 210 119
-0.282887 -0.437079 -0.107326 224 210 119
-0.30307 -0.429107 -0.19111 224 210 119
-0.177035 -0.490047 -0.0604327 224 210 119
-0.313919 -0.330294 -0.200125 224 210 119
0.00377407 -0.492617 -0.0875919 224 210 119
-0.255993 -0.326842 -0.208794 224 210 119
-0.321947 -0.337497 -0.0978411 224 210 119
-0.274753 -0.348493 -0.215288 224 210 119
-0.148223 -0.494281 -0.210375 224 210 119
0.0177206 -0.491798 0.0523276 224 210 119
0.0846147 -0.49419 -0.00694338 224 210 119
-0.317723 -0.354748 -0.0755794 224 210 119
-0.29368 -0.414225 -0.220374 224 210 119
-0.29608 -0.442215 -0.190463 224 210 119
-0.292164 -0.415349 -0.196846 224 210 119
-0.253455 -0.44895 -0.165271 224 210 119
-0.326499 -0.431898 -0.100999 224 210 119
-0.267542 -0.330646 -0.156153 224 210 119
-0.353961 -0.395232 -0.169345 224 210 119
-0.271662 -0.327437 -0.174284 224 210 119
-0.318899 -0.371961 -0.0966681 224 210 119
-0.337896 -0.3283 -0.186734 224 210 119
-0.429401 -0.337625 -0.0609914 224 210 119
-0.29885 -0.344273 -0.210751 224 210 119
-0.273415 -0.422348 -0.195939 224 210 119
-0.26324 -0.483922 -0.224691 224 210 119
-0.256631 -0.391388 -0.187962 224 210 119
-0.297402 -0.326463 -0.169215 224 210 119
-0.346736 -0.366636 -0.0841318 224 210 119
-0.312429 -0.439042 -0.12834 224 210 119
-0.280001 -0.444604 -0.225906 224 210 119
-0.24863 -0.479308 -0.297021 224 210 119
-0.293209 -0.462711 -0.155763 224 210 119
-0.335446 -0.395896 -0.0473855 224 210 119
-0.35659 -0.397022 -0.098899 224 210 119
-0.231934 -0.4855 -0.206469 224 210 119
-0.252092 -0.476992 -0.0556948 224 210 119
-0.324839 -0.356327 -0.195702 224 210 119
-0.254173 -0.363483 -0.174964 224 210 119
-0.38786 -0.33722 -0.0795094 224 210 119
-0.218273 -0.491512 -0.216114 224 210 119
-0.431828 -0.341086 -0.0966134 224 210 119
-0.195099 -0.488755 -0.270326 224 210 119
-0.288589 -0.329789 -0.155384 224 210 119
-0.261991 -0.477095 -0.138012 224 210 119
-0.324607 -0.412572 -0.151228 224 210 119
-0.308545 -0.339482 -0.206008 224 210 119
-0.120792 -0.492095 -0.397326 224 210 119
0.0734472 -0.386757 -0.386084 224 210 119
-0.195288 -0.50277 -0.178809 224 210 119
-0.391532 -0.373687 -0.153819 224 210 119
-0.295104 -0.457374 -0.169653 224 210 119
-0.112288 -0.490271 -0.0418021 224 210 119
-0.0665771 -0.497451 -0.171673 224 210 119
-0.434529 -0.35484 -0.0937015 224 210 119
-0.0132217 -0.506811 -0.158518 224 210 119
-0.337272 -0.329207 -0.145928 224 210 119
-0.365515 -0.326118 -0.172526 224 210 119
-0.367906 -0.351903 -0.0565634 224 210 119
-0.120599 -0.511523 -0.130643 224 210 119
0.0506222 -0.493046 -0.0575507 224 210 119
-0.271055 -0.364642 -0.216783 224 210 119
-0.348122 -0.378573 -0.176401 224 210 119
-0.0506468 -0.506032 0.0123403 224 210 119
-0.288192 -0.325083 -0.178805 224 210 119
-0.266441 -0.364078 -0.105776 224 210 119
-0.30361 -0.432212 -0.188459 224 210 119
-0.33634 -0.401943 -0.180172 224 210 119
-0.258822 -0.325364 -0.203968 224 210 119
-0.197204 -0.489449 -0.158633 224 210 119
-0.255455 -0.381828 -0.12426 224 210 119
-0.145325 -0.492018 -0.358795 224 210 119
-0.157727 -0.505817 0.0898602 224 210 119
-0.0596647 -0.498527 -0.28988 224 210 119
0.0475206 -0.461704 -0.401611 224 210 119
-0.216163 -0.490899 -0.0405398 224 210 119
-0.342736 -0.33976 -0.185482 224 210 119
-0.331734 -0.408291 -0.138622 224 210 119
-0.254134 -0.47965 -0.195999 224 210 119
-0.225876 -0.488737 -0.202248 224 210 119
-0.262703 -0.483206 -0.218896 224 210 119
-0.298103 -0.450555 -0.18439 224 210 119
-0.258396 -0.373512 -0.153543 224 210 119
-0.189768 -0.492042 -0.355364 224 210 119
-0.299024 -0.460813 -0.119687 224 210 119
-0.40927 -0.396345 -0.108874 224 210 119
-0.271808 -0.455357 -0.182732 224 210 119
-0.063481 -0.495813 -0.340053 224 210 119
-0.267007 -0.330921 -0.154318 224 210 119
-0.266647 -0.453616 -0.194407 224 210 119
-0.256885 -0.467267 -0.213673 224 210 119
-0.341562 -0.324321 -0.172921 224 210 119
0.0256129 -0.48318 -0.307468 224 210 119
-0.323913 -0.324618 -0.175943 224 210 119
-0.27431 -0.430761 -0.22445 224 210 119
-0.293756 -0.460693 -0.179809 224 210 119
-0.312703 -0.382702 -0.0619009 224 210 119
0.0424735 -0.477187 -0.378955 224 210 119
-0.257638 -0.489284 0.02286 224 210 119
-0.246747 -0.334661 -0.143981 224 210 119
-0.307007 -0.431049 -0.143376 224 210 119
0.0604158 -0.487626 -0.276085 224 210 119
-0.0154926 -0.503684 -0.22317 224 210 119
-0.366674 -0.406251 -0.158072 224 210 119
-0.429776 -0.333754 -0.0904803 224 210 119
0.0510031 -0.334788 -0.429192 224 210 119
-0.138882 -0.49216 -0.45055 224 210 119
-0.257274 -0.483248 -0.225062 224 210 119
-0.256785 -0.3361 -0.205482 224 210 119
-0.25686 -0.370634 -0.183596 224 210 119
-0.151902 -0.49464 -0.414278 224 210 119
-0.0238034 -0.506959 0.0668289 224 210 119
-0.27495 -0.338604 -0.214355 224 210 119
-0.266683 -0.329343 -0.1641 224 210 119
0.0420913 -0.495249 0.0902567 224 210 119
-0.256515 -0.376516 -0.192903 224 210 119
-0.240048 -0.334987 -0.150107 224 210 119
-0.238101 -0.491132 -0.321366 224 210 119
-0.389846 -0.329406 -0.135027 224 210 119
-0.270444 -0.340942 -0.21469 224 210 119
-0.25106 -0.357454 -0.171045 224 210 119
-0.391032 -0.367281 -0.0659891 224 210 119
-0.396078 -0.375008 -0.150931 224 210 119
-0.233805 -0.487852 0.2519 255 178 96
-0.298347 -0.488673 -0.0132435 255 178 96
-0.210071 -0.487929 -0.0758772 255 178 96
-0.140833 -0.488368 0.335657 255 178 96
0.0370171 -0.487098 0.369391 255 178 96
-0.0238167 -0.484273 0.414973 255 178 96
-0.00571736 -0.487482 0.416703 255 178 96
0.0302264 -0.389925 0.417467 255 178 96
-0.177327 -0.488687 0.34915 255 178 96
-0.153362 -0.485056 -0.131912 255 178 96
-0.0358134 -0.487589 0.314843 255 178 96
0.0165029 -0.295541 0.394038 255 178 96
-0.0460297 -0.42998 0.387474 255 178 96
0.0528997 -0.442567 0.37586 255 178 96
-0.313402 -0.488501 -0.11244 255 178 96
-0.181497 -0.487847 -0.0549176 255 178 96
-0.0967245 -0.487618 0.244734 255 178 96
-0.255371 -0.488172 0.283247 255 178 96
-0.269332 -0.488411 0.269136 255 178 96
-0.142226 -0.487917 0.0224472 255 178 96
-0.172176 -0.487836 -0.0964356 255 178 96
0.0613857 -0.440224 0.298906 255 178 96
0.0209868 -0.486914 0.280261 255 178 96
-0.233936 -0.488176 0.28642 255 178 96
-0.298572 -0.488414 -0.163411 255 178 96
-0.169623 -0.487956 -0.189436 255 178 96
0.0350596 -0.487302 0.101868 255 178 96
-0.152404 -0.487761 0.215972 255 178 96
-0.0946889 -0.488015 0.356976 255 178 96
-0.161828 -0.483871 0.0790961 255 178 96
-0.256256 -0.488586 0.0304337 255 178 96
-0.281041 -0.488622 0.0690216 255 178 96
0.0342143 -0.474981 0.429946 255 178 96
-0.314596 -0.488404 -0.176443 255 178 96
0.0452153 -0.43222 0.419642 255 178 96
-0.0287067 -0.487399 0.262102 255 178 96
-0.174758 -0.49973 0.326933 255 178 96
-0.163462 -0.484197 0.0214949 255 178 96
-0.193167 -0.487905 -0.0406007 255 178 96
-0.256714 -0.488093 -0.206142 255 178 96
-0.263884 -0.488174 0.20412 255 178 96
-0.282201 -0.488563 -0.0711711 255 178 96
0.0198492 -0.441356 0.420278 255 178 96
-0.120188 -0.488121 0.375032 255 178 96
-0.00691281 -0.439311 0.411853 255 178 96
-0.232083 -0.487808 0.193517 255 178 96
0.0502745 -0.475638 0.414803 255 178 96
-0.197707 -0.488155 0.0943126 255 178 96
-0.173626 -0.487896 0.239344 255 178 96
-0.318489 -0.488544 -0.0898278 255 178 96
-0.255369 -0.488583 0.0119438 255 178 96
-0.124093 -0.48796 -0.119586 255 178 96
0.041114 -0.486735 0.268496 255 178 96
-0.200892 -0.487849 -0.0702564 255 178 96
-0.167346 -0.496338 0.33654 255 178 96
-0.12711 -0.48799 -0.299315 255 178 96
0.0637757 -0.454144 0.25596 255 178 96
-0.142005 -0.487926 0.0554457 255 178 96
-0.187958 -0.487826 -0.113962 255 178 96
-0.0907294 -0.487634 0.242471 255 178 96
-0.147019 -0.487843 0.180459 255 178 96
-0.178899 -0.488619 0.351614 255 178 96
-0.305744 -0.488701 0.000774026 255 178 96
-0.00475545 -0.487471 0.330624 255 178 96
-0.0281345 -0.486791 -0.191723 255 178 96
0.0440496 -0.473046 0.421038 255 178 96
-0.144933 -0.488305 0.32223 255 178 96
-0.114396 -0.488188 0.34798 255 178 96
-0.0134258 -0.486979 -0.102229 255 178 96
-0.221435 -0.488661 0.323932 255 178 96
-0.284463 -0.488335 0.140645 255 178 96
-0.0462398 -0.487918 0.122803 255 178 96
0.0304828 -0.486771 0.289469 255 178 96
-0.00882795 -0.487523 0.412139 255 178 96
-0.246987 -0.487928 0.186631 255 178 96
-0.177012 -0.488049 0.261663 255 178 96
-0.10529 -0.487942 -0.0372901 255 178 96
0.0382253 -0.35655 0.412591 255 178 96
-0.275892 -0.488236 0.162534 255 178 96
-0.215729 -0.496797 0.317799 255 178 96
-0.193434 -0.485597 -0.240439 255 178 96
-0.177421 -0.488022 0.108984 255 178 96
0.0330955 -0.487185 0.363254 255 178 96
-0.116299 -0.488124 0.328683 255 178 96
-0.198857 -0.488239 0.291166 255 178 96
-0.202743 -0.488186 0.131359 255 178 96
0.0482241 -0.487169 0.116405 255 178 96
-0.162129 -0.487935 0.0533671 255 178 96
-0.250051 -0.488542 0.0567816 255 178 96
0.0238506 -0.436045 0.420927 255 178 96
0.000280231 -0.487512 0.357867 255 178 96
-0.229211 -0.488689 0.33025 255 178 96
-0.0857522 -0.487896 0.337012 255 178 96
-0.229254 -0.488114 -0.0882391 255 178 96
-0.027346 -0.487571 0.403301 255 178 96
-0.260108 -0.481859 0.0562258 255 178 96
-0.115988 -0.48775 0.226478 255 178 96
-0.209669 -0.487873 -0.188835 255 178 96
0.00862346 -0.487052 -0.100068 255 178 96
-0.221168 -0.48795 0.262191 255 178 96
-0.295087 -0.488368 -0.173792 255 178 96
-0.132401 -0.48776 0.241723 255 178 96
-0.0531349 -0.406654 0.374566 255 178 96
-0.0790263 -0.486018 -0.113797 255 178 96
-0.163508 -0.48786 0.23624 255 178 96
0.0150972 -0.487333 0.171494 255 178 96
-0.15746 -0.487776 0.224058 255 178 96
0.00526557 -0.487482 0.355394 255 178 96
-0.289119 -0.488459 -0.133153 255 178 96
-0.00657901 -0.487635 0.146931 255 178 96
-0.26167 -0.488296 -0.139827 255 178 96
0.0375674 -0.486894 0.237756 255 178 96
-0.0738253 -0.48784 0.392505 255 178 96
-0.193594 -0.487728 0.200492 255 178 96
-0.0815792 -0.485754 -0.0113425 255 178 96
-0.0138288 -0.487 -0.21075 255 178 96
-0.108648 -0.487705 0.27932 255 178 96
-0.124462 -0.487828 0.188713 255 178 96
-0.292453 -0.488474 -0.111058 255 178 96
-0.0570643 -0.487548 -0.301033 255 178 96
-0.0237695 -0.363983 0.384248 255 178 96
-0.137144 -0.487914 -0.0338198 255 178 96
-0.209478 -0.488013 0.264041 255 178 96
-0.19551 -0.487814 0.225877 255 178 96
-0.0282287 -0.46852 0.409087 255 178 96
-0.170806 -0.487992 0.136842 255 178 96
-0.00620603 -0.477389 0.421025 255 178 96
0.0302251 -0.350577 0.409256 255 178 96
-0.199424 -0.487826 0.179252 255 178 96
-0.245646 -0.487808 0.222393 255 178 96
0.0502411 -0.341544 0.398804 255 178 96
0.0501643 -0.486683 0.278363 255 178 96
-0.248896 -0.488054 0.170362 255 178 96
-0.230427 -0.4882 0.289028 255 178 96
-0.150038 -0.488183 0.302525 255 178 96
-0.0946939 -0.487904 0.317129 255 178 96
-0.110469 -0.487789 -0.338567 255 178 96
0.0545571 -0.473044 0.307425 255 178 96
-0.192484 -0.48795 -0.208195 255 178 96
-0.154996 -0.487948 0.0789235 255 178 96
0.0302691 -0.486984 0.227142 255 178 96
-0.217362 -0.488149 -0.0432073 255 178 96
0.051229 -0.387267 0.409106 255 178 96
-0.0822857 -0.487628 0.299643 255 178 96
-0.137468 -0.488002 0.290793 255 178 96
-0.232929 -0.488359 0.30264 255 178 96
-0.0188819 -0.484138 0.41672 255 178 96
-0.232432 -0.487682 0.221563 255 178 96
-0.227457 -0.488415 0.0581834 255 178 96
-0.100482 -0.488006 0.140504 255 178 96
-0.164874 -0.487952 0.251123 255 178 96
-0.24785 -0.488574 0.01716 255 178 96
0.0111376 -0.479946 0.422686 255 178 96
-0.253453 -0.488081 0.172776 255 178 96
-0.26446 -0.48859 0.0350575 255 178 96
-0.247879 -0.488002 0.176279 255 178 96
0.0538625 -0.478583 0.329868 255 178 96
-0.00323543 -0.487315 0.231351 255 178 96
0.049832 -0.29396 0.380281 255 178 96
-0.181666 -0.488042 0.132775 255 178 96
0.021524 -0.487282 0.414055 255 178 96
-0.17424 -0.488129 0.272508 255 178 96
-0.0393582 -0.487603 0.394762 255 178 96
-0.32282 -0.488473 -0.131191 255 178 96
-0.153948 -0.499793 0.324902 255 178 96
0.0551563 -0.470623 0.321435 255 178 96
-0.155204 -0.488513 0.338152 255 178 96
0.017466 -0.349392 0.402149 255 178 96
-0.24061 -0.488376 0.117009 255 178 96
0.0413709 -0.485218 0.421611 255 178 96
-0.111328 -0.485239 -0.00968329 255 178 96
0.0370222 -0.486739 0.279557 255 178 96
-0.260281 -0.488597 0.0940799 255 178 96
-0.18028 -0.487871 -0.140463 255 178 96
-0.083927 -0.485397 0.040698 255 178 96
-0.235359 -0.488267 0.294708 255 178 96
-0.0826129 -0.424672 0.36438 255 178 96
-0.0138865 -0.347685 0.386102 255 178 96
-0.0211626 -0.487551 0.405216 255 178 96
-0.132882 -0.458366 0.329503 255 178 96
-0.104034 -0.48791 0.172872 255 178 96
0.0450414 -0.447286 0.42082 255 178 96
0.0593972 -0.483536 0.218905 255 178 96
0.0436617 -0.447019 0.424594 255 178 96
-0.183435 -0.487843 -0.123959 255 178 96
-0.18022 -0.488044 0.130441 255 178 96
-0.248985 -0.488399 0.125833 255 178 96
-0.206814 -0.488338 0.300569 255 178 96
0.037891 -0.352303 0.411787 255 178 96
-0.154211 -0.487908 -0.0291671 255 178 96
-0.248255 -0.482416 0.0156833 255 178 96
-0.20371 -0.488547 0.320096 255 178 96
-0.205363 -0.488653 0.341583 255 178 96
-0.246975 -0.48787 0.253388 255 178 96
-0.171245 -0.492302 0.343796 255 178 96
-0.144326 -0.484715 -0.0704516 255 178 96
0.0610351 -0.480953 0.0849839 255 178 96
-0.0180148 -0.486977 -0.0848635 255 178 96
-0.00478631 -0.487518 0.188352 255 178 96
-0.279343 -0.488379 -0.141783 255 178 96
-0.0914889 -0.48693 -0.339463 255 178 96
0.0481305 -0.458948 0.419801 255 178 96
0.0471949 -0.399602 0.416138 255 178 96
-0.0461109 -0.487981 -0.0244837 255 178 96
-0.238737 -0.487746 0.215837 255 178 96
-0.202108 -0.487788 0.22422 255 178 96
-0.234717 -0.488445 0.0666612 255 178 96
-0.244398 -0.487856 0.196215 255 178 96
-0.305475 -0.488697 0.0022822 255 178 96
0.0471107 -0.332057 0.402147 255 178 96
0.0247855 -0.48713 0.329727 255 178 96
0.0573053 -0.247316 0.342035 255 178 96
-0.286959 -0.488452 -0.131557 255 178 96
-0.196228 -0.488122 0.274737 255 178 96
-0.225969 -0.488178 -0.064162 255 178 96
-0.289699 -0.48852 -0.0878714 255 178 96
-0.288439 -0.488495 -0.099365 255 178 96
-0.0121187 -0.487551 0.347391 255 178 96
-0.0314702 -0.487592 0.391494 255 178 96
-0.290461 -0.488655 0.0205815 255 178 96
-0.239054 -0.488234 0.140536 255 178 96
-0.213577 -0.487756 0.229019 255 178 96
-0.114297 -0.488061 0.376901 255 178 96
-0.103391 -0.44095 0.358227 255 178 96
-0.288239 -0.488588 -0.0435663 255 178 96
-0.259973 -0.488586 0.00894235 255 178 96
-0.131369 -0.487941 0.154314 255 178 96
0.0126949 -0.487164 0.310992 255 178 96
-0.0856523 -0.487762 0.221608 255 178 96
-0.114983 -0.488144 0.369802 255 178 96
-0.162888 -0.486451 -0.341564 255 178 96
0.0527431 -0.299177 0.374754 255 178 96
-0.00421562 -0.471884 0.420387 255 178 96
-0.1502 -0.488082 -0.266317 255 178 96
-0.204315 -0.488216 0.288475 255 178 96
-0.00906233 -0.363622 0.391678 255 178 96
-0.0298152 -0.488006 -0.0477665 255 178 96
-0.0589712 -0.487744 -0.180073 255 178 96
0.0266183 -0.486845 0.27963 255 178 96
-0.195771 -0.488647 0.344627 255 178 96
0.0106374 -0.473683 0.424646 255 178 96
-0.0677849 -0.487982 0.135351 255 178 96
-0.146738 -0.487924 0.0401796 255 178 96
-0.00724316 -0.479341 0.420909 255 178 96
-0.0155733 -0.487533 0.361315 255 178 96
-0.245597 -0.488487 0.0750088 255 178 96
-0.000351548 -0.487284 0.232649 255 178 96
-0.153575 -0.48823 0.304567 255 178 96
-0.295831 -0.488447 -0.13717 255 178 96
0.0219508 -0.465823 0.427412 255 178 96
-0.0516329 -0.486964 -0.284115 255 178 96
-0.129234 -0.487731 0.228153 255 178 96
-0.28934 -0.48858 0.0729689 255 178 96
0.0456465 -0.486464 0.386543 255 178 96
-0.168426 -0.488057 0.263111 255 178 96
-0.139888 -0.487866 0.16951 255 178 96
-0.218876 -0.498412 0.310916 255 178 96
-0.0856507 -0.487932 0.36603 255 178 96
-0.082599 -0.487709 -0.311022 255 178 96
-0.0304419 -0.487605 0.198687 255 178 96
-0.0883713 -0.487919 0.386987 255 178 96
-0.0894023 -0.487959 0.0988899 255 178 96
-0.22698 -0.488311 0.124695 255 178 96
-0.259802 -0.488135 0.254964 255 178 96
-0.0593583 -0.487599 0.246117 255 178 96
0.067535 -0.461 0.201126 255 178 96
0.0544264 -0.474919 0.313537 255 178 96
0.043626 -0.458461 0.422471 255 178 96
0.0209227 -0.487389 0.370346 255 178 96
-0.260552 -0.488612 0.0858108 255 178 96
-0.100141 -0.48796 -0.0825005 255 178 96
0.0545519 -0.424555 0.368719 255 178 96
-0.222865 -0.488216 0.14149 255 178 96
0.0608681 -0.443411 0.301017 255 178 96
-0.0752609 -0.48759 0.290557 255 178 96
-0.0118256 -0.48754 0.354538 255 178 96
-0.177569 -0.488698 0.347738 255 178 96
-0.298848 -0.488564 0.0886865 255 178 96
-0.145892 -0.488455 0.342016 255 178 96
-0.0870549 -0.487909 0.387441 255 178 96
-0.27097 -0.488304 0.200424 255 178 96
-0.274287 -0.488259 -0.189911 255 178 96
-0.169119 -0.487931 0.0378575 255 178 96
-0.169557 -0.487938 0.0578532 255 178 96
-0.147156 -0.484748 -0.0832065 255 178 96
-0.0215981 -0.345209 0.381891 255 178 96
-0.116785 -0.488126 0.328407 255 178 96
0.0455987 -0.486537 0.360718 255 178 96
-0.0280337 -0.487582 0.405797 255 178 96
0.0396253 -0.486703 0.27998 255 178 96
-0.172005 -0.487901 0.240684 255 178 96
-0.221892 -0.48784 0.18562 255 178 96
-0.339019 -0.488496 -0.144159 255 178 96
-0.191625 -0.487977 0.253296 255 178 96
0.0313631 -0.277653 0.397786 255 178 96
-0.021746 -0.487562 0.40916 255 178 96
-0.0585985 -0.487624 0.235462 255 178 96
-0.176492 -0.488482 0.319918 255 178 96
0.0477465 -0.454704 0.420207 255 178 96
0.0161414 -0.487318 0.173144 255 178 96
-0.0969188 -0.487976 0.384214 255 178 96
-0.0480201 -0.487662 -0.192751 255 178 96
0.0248392 -0.321946 0.402166 255 178 96
0.0296198 -0.351317 0.409188 255 178 96
-0.218268 -0.487903 0.255027 255 178 96
0.0507548 -0.212223 0.344622 255 178 96
0.00622963 -0.487384 0.404258 255 178 96
0.060098 -0.264184 0.342333 255 178 96
-0.0970064 -0.487999 0.134409 255 178 96
-0.211786 -0.4878 -0.111035 255 178 96
0.0123791 -0.355077 0.399495 255 178 96
-0.205425 -0.488234 0.0603774 255 178 96
-0.009446 -0.486996 -0.0748767 255 178 96
-0.0221712 -0.487783 0.122646 255 178 96
-0.0541233 -0.479664 0.399397 255 178 96
-0.304925 -0.488545 -0.080304 255 178 96
-0.146185 -0.49188 0.333799 255 178 96
0.0203969 -0.459104 0.42501 255 178 96
0.042151 -0.48658 0.392969 255 178 96
0.033325 -0.33371 0.40758 255 178 96
0.067455 -0.454763 0.215561 255 178 96
-0.181113 -0.487846 0.175771 255 178 96
-0.267979 -0.488393 0.147324 255 178 96
-0.21791 -0.487987 0.17035 255 178 96
-0.259662 -0.48838 -0.10901 255 178 96
0.00305538 -0.487497 0.367133 255 178 96
-0.0686954 -0.487796 0.374981 255 178 96
-0.17786 -0.488637 0.35135 255 178 96
-0.209574 -0.487876 0.245348 255 178 96
-0.127928 -0.455844 0.31653 255 178 96
-0.116243 -0.488193 0.359901 255 178 96
-0.224449 -0.488732 0.331102 255 178 96
-0.227992 -0.487746 0.199203 255 178 96
-0.0275515 -0.487557 0.397144 255 178 96
-0.132606 -0.487978 0.111859 255 178 96
-0.0511193 -0.487753 0.363513 255 178 96
-0.221275 -0.488363 0.0924889 255 178 96
0.0146398 -0.486168 0.419786 255 178 96
0.0236894 -0.470032 0.428231 255 178 96
-0.0903663 -0.487923 0.332904 255 178 96
-0.225387 -0.487695 0.204236 255 178 96
-0.25244 -0.488135 0.280245 255 178 96
-0.298263 -0.488573 -0.0647257 255 178 96
0.042235 -0.397481 0.416872 255 178 96
0.056943 -0.419093 0.399121 255 178 96
0.0218623 -0.456963 0.424778 255 178 96
-0.14014 -0.487876 -0.0805859 255 178 96
-0.299754 -0.488373 -0.184799 255 178 96
-0.282137 -0.488458 -0.113085 255 178 96
-0.18514 -0.487981 -0.00445248 255 178 96
-0.123002 -0.487769 0.268598 255 178 96
-0.162854 -0.487949 0.0809804 255 178 96
-0.257171 -0.488536 0.104123 255 178 96
-0.118599 -0.47839 0.364243 255 178 96
-0.127139 -0.488022 0.367828 255 178 96
-0.0425875 -0.487653 0.399156 255 178 96
-0.110764 -0.487705 0.275698 255 178 96
-0.0264863 -0.316677 0.372776 255 178 96
-0.239621 -0.488336 -0.0691375 255 178 96
-0.187589 -0.487748 0.197106 255 178 96
-0.236511 -0.488314 -0.064975 255 178 96
-0.194571 -0.488146 0.111899 255 178 96
0.0526153 -0.434533 0.363859 255 178 96
-0.25893 -0.488583 0.0514013 255 178 96
0.044613 -0.486857 0.243529 255 178 96
-0.0454858 -0.487906 0.0768422 255 178 96
-0.334327 -0.488446 -0.166153 255 178 96
0.054597 -0.401919 0.404197 255 178 96
-0.206052 -0.488193 0.00656282 255 178 96
-0.246465 -0.48856 0.0222971 255 178 96
-0.0910891 -0.487685 0.298799 255 178 96
-0.142546 -0.474951 0.339883 255 178 96
-0.247866 -0.488304 -0.0967365 255 178 96
-0.0193236 -0.487558 0.384575 255 178 96
-0.139737 -0.487985 0.12352 255 178 96
-0.216656 -0.488176 0.286358 255 178 96
-0.220691 -0.488296 0.297387 255 178 96
-0.24604 -0.488111 0.278207 255 178 96
0.0157528 -0.487319 0.410383 255 178 96
-0.185106 -0.487814 -0.0917163 255 178 96
-0.0440018 -0.486167 -0.0370832 255 178 96
-0.238151 -0.488304 -0.072391 255 178 96
0.0473779 -0.212539 0.352873 255 178 96
-0.14639 -0.488377 0.36461 255 178 96
0.0528235 -0.463676 0.365558 255 178 96
-0.261982 -0.488571 0.306771 255 178 96
-0.0815613 -0.487902 0.0273496 255 178 96
-0.199892 -0.48335 0.00974282 255 178 96
0.0601504 -0.483817 0.210976 255 178 96
-0.204771 -0.487688 0.205037 255 178 96
0.0190713 -0.48741 0.359353 255 178 96
-0.214752 -0.488114 0.27919 255 178 96
0.0572977 -0.399685 0.3683 255 178 96
-0.28942 -0.488473 -0.111297 255 178 96
-0.0818222 -0.487742 0.224962 255 178 96
-0.306867 -0.488358 -0.193744 255 178 96
-0.0877298 -0.487895 0.180651 255 178 96
-0.218883 -0.48765 0.214166 255 178 96
0.0132718 -0.353732 0.400012 255 178 96
-0.188254 -0.488306 0.297924 255 178 96
0.0485151 -0.394445 0.415474 255 178 96
-0.0986368 -0.487716 -0.337866 255 178 96
0.00800354 -0.487462 0.383099 255 178 96
-0.231949 -0.488347 0.301786 255 178 96
0.00390735 -0.487405 0.401956 255 178 96
-0.221645 -0.487816 0.188247 255 178 96
0.0506017 -0.483509 0.370421 255 178 96
-0.0269034 -0.395222 0.389267 255 178 96
0.0433384 -0.428778 0.423857 255 178 96
-0.140347 -0.484858 -0.0293537 255 178 96
-0.237835 -0.488462 0.0632756 255 178 96
-0.23704 -0.48841 0.0974769 255 178 96
-0.118247 -0.487986 0.119119 255 178 96
0.0182694 -0.485639 0.420824 255 178 96
-0.21999 -0.488128 0.281551 255 178 96
0.0123098 -0.281033 0.389406 255 178 96
-0.0323352 -0.487869 0.0234974 255 178 96
-0.169669 -0.488047 0.261267 255 178 96
-0.00691953 -0.486799 -0.0128269 255 178 96
0.0225248 -0.362864 0.407468 255 178 96
-0.0476747 -0.487734 0.362955 255 178 96
0.0417106 -0.486582 0.325866 255 178 96
0.0265201 -0.48706 0.217925 255 178 96
-0.0799685 -0.486286 -0.20061 255 178 96
-0.0229913 -0.487578 0.374387 255 178 96
-0.0558323 -0.425695 0.379448 255 178 96
0.0437325 -0.443856 0.426389 255 178 96
0.0229345 -0.486979 0.317133 255 178 96
-0.169398 -0.485873 -0.236157 255 178 96
-0.115729 -0.488016 -0.262951 255 178 96
-0.178606 -0.483603 0.0747835 255 178 96
-0.161042 -0.487961 0.0951332 255 178 96
-0.0151756 -0.487746 0.0544835 255 178 96
-0.210054 -0.488146 -0.0242794 255 178 96
-0.068919 -0.487679 0.233493 255 178 96
0.0141788 -0.359782 0.401533 255 178 96
-0.294055 -0.488572 0.071055 255 178 96
0.010263 -0.487448 0.353928 255 178 96
-0.17228 -0.498254 0.33104 255 178 96
-0.199933 -0.488182 0.0345359 255 178 96
-0.13879 -0.488142 0.308046 255 178 96
-0.248853 -0.487873 0.241266 255 178 96
-0.213751 -0.487819 -0.163036 255 178 96
-0.175059 -0.499406 0.327597 255 178 96
-0.17107 -0.48795 0.0644312 255 178 96
-0.169442 -0.487933 0.15103 255 178 96
0.0448147 -0.241221 0.371452 255 178 96
-0.255491 -0.488013 0.2082 255 178 96
-0.257814 -0.488243 -0.1441 255 178 96
-0.226564 -0.487724 0.234759 255 178 96
-0.192526 -0.487829 0.177201 255 178 96
0.0175449 -0.398846 0.411455 255 178 96
-0.066539 -0.371313 0.356956 255 178 96
-0.0185375 -0.445774 0.409207 255 178 96
-0.133857 -0.456436 0.340957 255 178 96
-0.30583 -0.488616 -0.0484686 255 178 96
0.0361429 -0.451923 0.428609 255 178 96
-0.114248 -0.488116 0.374872 255 178 96
-0.224805 -0.488681 0.333142 255 178 96
-0.0208323 -0.42695 0.402071 255 178 96
-0.11002 -0.487882 0.373813 255 178 96
-0.000657886 -0.487534 0.174615 255 178 96
-0.162055 -0.488025 0.263619 255 178 96
0.0401979 -0.485402 0.422495 255 178 96
0.0434806 -0.473906 0.421277 255 178 96
-0.0185665 -0.487179 -0.195712 255 178 96
-0.0547189 -0.487503 0.265431 255 178 96
-0.138181 -0.48781 0.251119 255 178 96
-0.191047 -0.487867 -0.152787 255 178 96
-0.058941 -0.487526 0.271072 255 178 96
0.0231369 -0.487367 0.380938 255 178 96
-0.259934 -0.488566 0.307595 255 178 96
-0.0599179 -0.487583 0.251425 255 178 96
0.0121043 -0.333832 0.396346 255 178 96
-0.0336323 -0.48775 0.172758 255 178 96
-0.249345 -0.488034 0.269632 255 178 96
-0.164905 -0.487983 0.118659 255 178 96
-0.00406734 -0.475104 0.421183 255 178 96
-0.0410779 -0.487681 0.381058 255 178 96
-0.26815 -0.488355 0.244273 255 178 96
-0.186691 -0.487865 -0.0375496 255 178 96
0.0376284 -0.478586 0.427686 255 178 96
-0.0700198 -0.487712 0.327284 255 178 96
-0.0864899 -0.419406 0.360086 255 178 96
-0.113965 -0.484764 0.0757674 255 178 96
0.0571313 -0.363895 0.378523 255 178 96
-0.245888 -0.487875 0.196153 255 178 96
0.0311341 -0.478039 0.427706 255 178 96
-0.120343 -0.487917 0.0170643 255 178 96
-0.0594737 -0.487681 0.335187 255 178 96
-0.220145 -0.488363 0.0673374 255 178 96
-0.164321 -0.487896 -0.136459 255 178 96
-0.255288 -0.488579 0.0515602 255 178 96
0.0341525 -0.48667 0.326583 255 178 96
0.00906711 -0.465048 0.422361 255 178 96
0.0434604 -0.460096 0.425702 255 178 96
-0.248577 -0.487867 0.24354 255 178 96
-0.072662 -0.48766 0.314234 255 178 96
-0.285185 -0.488572 0.0807435 255 178 96
-0.0014625 -0.487364 0.31847 255 178 96
-0.231334 -0.488438 0.0370459 255 178 96
-0.15712 -0.48853 0.339347 255 178 96
-0.0253772 -0.4876 0.382699 255 178 96
-0.250595 -0.488356 0.300446 255 178 96
-0.0973161 -0.488038 0.356093 255 178 96
-0.0411379 -0.487896 0.0993671 255 178 96
-0.271951 -0.48853 0.113832 255 178 96
-0.259632 -0.488553 0.1031 255 178 96
0.0372913 -0.486637 0.315982 255 178 96
-0.108596 -0.487753 0.223357 255 178 96
-0.00909061 -0.487266 0.27737 255 178 96
-0.207671 -0.489293 0.336957 255 178 96
0.0689895 -0.478336 0.178364 255 139 72
0.06965 -0.38637 0.0714291 255 139 72
0.0636904 -0.182439 0.314146 255 139 72
0.0725002 -0.215581 0.123674 255 139 72
0.0736219 -0.19423 0.0600115 255 139 72
0.0767137 -0.272729 0.0566129 255 139 72
0.0719272 -0.250624 0.132448 255 139 72
0.0798569 -0.348143 0.0560736 255 139 72
0.0767178 -0.311051 0.0614652 255 139 72
0.0772531 -0.351641 0.0592969 255 139 72
0.0661651 -0.468889 0.0442131 255 139 72
0.0740789 -0.468457 0.0809275 255 139 72
0.0885871 -0.149424 -0.332724 255 139 72
0.0552525 -0.355262 -0.233896 255 139 72
0.0632746 -0.198261 0.153164 255 139 72
0.0754203 -0.372145 0.136227 255 139 72
0.0729953 -0.0759831 0.150812 255 139 72
0.0656409 -0.331553 0.161793 255 139 72
0.0511615 -0.472726 0.042283 255 139 72
0.0767998 -0.382659 0.0564997 255 139 72
0.0743114 -0.35085 0.0674652 255 139 72
0.0676961 -0.0846857 0.230388 255 139 72
0.0651887 -0.323772 0.343792 255 139 72
0.0617808 -0.156987 0.124905 255 139 72
0.0595541 -0.491743 0.0522892 255 139 72
0.0759866 -0.190144 0.0488974 255 139 72
0.0608821 -0.340032 0.194061 255 139 72
-0.00409965 -0.467975 0.14198 255 139 72
0.0791969 -0.315019 0.0556016 255 139 72
0.0771449 -0.331325 0.0885872 255 139 72
0.0877877 -0.155133 -0.341166 255 139 72
0.0693339 -0.0714694 0.197156 255 139 72
0.0660808 -0.28595 0.122928 255 139 72
0.0675542 -0.0858772 0.295006 255 139 72
0.0747129 -0.229122 0.101636 255 139 72
0.0152379 -0.455786 0.155396 255 139 72
0.0655527 -0.254766 0.32658 255 139 72
0.0728152 -0.352338 0.170699 255 139 72
0.058219 -0.197159 0.361026 255 139 72
0.0627399 -0.19728 0.34228 255 139 72
0.0656563 -0.398377 0.231138 255 139 72
0.0118899 -0.437876 0.167756 255 139 72
0.0763638 -0.197192 0.0497338 255 139 72
0.0775454 -0.228637 0.0521259 255 139 72
0.0645241 -0.255763 0.341756 255 139 72
0.0619331 -0.181929 0.239442 255 139 72
0.0871916 -0.165737 -0.343256 255 139 72
0.0286386 -0.441679 -0.237224 255 139 72
0.0107703 -0.444251 -0.130834 255 139 72
-5.58645e-05 -0.48781 -0.214108 255 139 72
0.0335798 -0.312233 0.151335 255 139 72
0.076309 -0.423604 0.0507931 255 139 72
0.0864245 -0.241301 -0.34663 255 139 72
0.0724918 -0.0751751 0.160121 255 139 72
0.0704841 -0.0830169 0.182411 255 139 72
0.0717568 -0.20931 0.201446 255 139 72
0.075205 -0.181982 0.0613684 255 139 72
0.0764558 -0.4376 0.0832882 255 139 72
0.056185 -0.434515 0.367642 255 139 72
0.073248 -0.107464 0.0428997 255 139 72
0.00482468 -0.436861 -0.0751458 255 139 72
0.0610338 -0.214981 0.349724 255 139 72
0.0622565 -0.42142 0.0739777 255 139 72
0.0613757 -0.338905 0.208575 255 139 72
0.0764782 -0.384437 0.0545324 255 139 72
0.0766784 -0.418858 0.0526849 255 139 72
0.062914 -0.377771 0.282556 255 139 72
0.0766844 -0.42894 0.0440912 255 139 72
0.0652967 -0.272518 0.261256 255 139 72
0.0668728 -0.0759056 0.125321 255 139 72
0.0390868 -0.476675 -0.0147894 255 139 72
0.0708984 -0.240626 0.149717 255 139 72
0.0636798 -0.122583 0.309989 255 139 72
0.0754248 -0.323446 0.1335 255 139 72
0.074773 -0.235929 0.102198 255 139 72
0.076825 -0.266006 0.0560775 255 139 72
0.0547595 -0.465418 0.0668319 255 139 72
0.0673974 -0.332321 0.339155 255 139 72
0.0628709 -0.204656 0.141191 255 139 72
0.0995352 -0.207268 -0.198403 255 139 72
0.072844 -0.296065 0.148772 255 139 72
0.0671186 -0.432309 0.207367 255 139 72
0.0766312 -0.232999 0.0611594 255 139 72
0.0662997 -0.197626 0.20325 255 139 72
0.0675501 -0.128962 0.158295 255 139 72
0.0681235 -0.369068 0.108178 255 139 72
0.0633439 -0.223975 0.227535 255 139 72
0.0690111 -0.269991 0.185764 255 139 72
-0.0111746 -0.467597 -0.00204176 255 139 72
0.0636291 -0.0797224 0.328934 255 139 72
0.071317 -0.254888 0.148643 255 139 72
0.0762889 -0.378658 0.123148 255 139 72
0.069232 -0.379485 0.33321 255 139 72
0.0759015 -0.272677 0.0666608 255 139 72
0.0741336 -0.122189 0.0686145 255 139 72
0.0737664 -0.477389 0.0564957 255 139 72
0.0732654 -0.486205 0.294237 255 139 72
0.0659627 -0.365812 0.219879 255 139 72
0.0751264 -0.444345 0.0471063 255 139 72
0.0619221 -0.417601 0.10256 255 139 72
0.0644869 -0.122782 0.281596 255 139 72
0.069432 -0.18474 0.0771636 255 139 72
0.0753657 -0.453926 0.0560124 255 139 72
0.0691948 -0.293872 0.193851 255 139 72
0.0781916 -0.311673 0.0610283 255 139 72
0.0735498 -0.389735 0.152659 255 139 72
0.0727818 -0.0697322 0.109126 255 139 72
0.0597824 -0.13321 0.361912 255 139 72
0.0739827 -0.119974 0.0589565 255 139 72
0.0768181 -0.389691 0.0564056 255 139 72
0.0764977 -0.300053 0.0577246 255 139 72
0.0630404 -0.208947 0.225503 255 139 72
0.0620153 -0.460073 0.052627 255 139 72
0.00601369 -0.460685 0.153577 255 139 72
0.064636 -0.0956933 0.0785187 255 139 72
0.0649325 -0.136432 0.303079 255 139 72
0.0677446 -0.327887 0.0966914 255 139 72
0.0225731 -0.377671 -0.0701764 255 139 72
0.0740699 -0.0838118 0.0599223 255 139 72
0.0625607 -0.0997035 0.346561 255 139 72
0.0638846 -0.25428 0.253521 255 139 72
0.0783203 -0.26645 0.058966 255 139 72
-0.00202822 -0.442832 0.149055 255 139 72
0.0670389 -0.132336 0.196789 255 139 72
0.0718396 -0.168738 0.142414 255 139 72
0.0637929 -0.277647 0.279643 255 139 72
0.0647537 -0.357702 0.231803 255 139 72
0.0695412 -0.462401 0.176629 255 139 72
0.0745121 -0.334459 0.152626 255 139 72
0.0685554 -0.317996 0.203056 255 139 72
0.0772449 -0.407588 0.0850213 255 139 72
0.0669751 -0.313213 0.0925432 255 139 72
0.0773937 -0.356018 0.0810178 255 139 72
0.0722215 -0.173994 0.135834 255 139 72
0.0665102 -0.459838 0.299756 255 139 72
0.0750277 -0.145983 0.0859444 255 139 72
0.0728824 -0.437232 0.151548 255 139 72
-0.00910285 -0.483409 -0.127535 255 139 72
0.0588507 -0.401064 0.173617 255 139 72
0.0635104 -0.127469 0.311655 255 139 72
0.0542475 -0.377412 0.361146 255 139 72
0.0659215 -0.362705 0.21941 255 139 72
0.0712321 -0.211001 0.202444 255 139 72
0.0625813 -0.232119 0.240965 255 139 72
0.0715227 -0.474724 0.323449 255 139 72
0.0915432 -0.249972 -0.246648 255 139 72
0.0716005 -0.218669 0.160232 255 139 72
0.0759331 -0.235752 0.0853581 255 139 72
0.0208783 -0.431543 -0.16535 255 139 72
0.0691333 -0.435951 0.189687 255 139 72
0.0765093 -0.223138 0.0566192 255 139 72
0.0755942 -0.447393 0.0312072 255 139 72
0.0587515 -0.254944 0.354276 255 139 72
0.0864683 -0.175874 -0.342264 255 139 72
0.0754296 -0.289202 0.0637667 255 139 72
0.064103 -0.334269 0.271703 255 139 72
0.074483 -0.449382 0.111277 255 139 72
0.0700317 -0.219735 0.158594 255 139 72
0.0738667 -0.0896701 0.0659992 255 139 72
0.0709485 -0.179035 0.295365 255 139 72
0.0628925 -0.125011 0.249661 255 139 72
-0.0105311 -0.477819 0.0831746 255 139 72
0.0627238 -0.134164 0.244235 255 139 72
0.077354 -0.374356 0.0587891 255 139 72
0.0689772 -0.356143 0.0869455 255 139 72
0.0729325 -0.424715 0.0476732 255 139 72
0.0642777 -0.473684 0.285616 255 139 72
0.0663803 -0.390049 0.259494 255 139 72
0.0591514 -0.12398 0.368098 255 139 72
0.0744695 -0.338467 0.15406 255 139 72
0.0888598 -0.248309 -0.216773 255 139 72
0.0688313 -0.363265 0.196757 255 139 72
0.0770964 -0.329854 0.0615308 255 139 72
0.0756634 -0.203537 0.0701198 255 139 72
0.0431027 -0.304932 0.210569 255 139 72
0.0747308 -0.271418 0.102158 255 139 72
0.0767155 -0.418471 0.0559968 255 139 72
0.069837 -0.419955 0.0568057 255 139 72
0.0580887 -0.208152 0.360362 255 139 72
0.0745546 -0.168848 0.0521611 255 139 72
0.0623639 -0.102569 0.345426 255 139 72
0.0749565 -0.152667 0.0936299 255 139 72
0.0755413 -0.439906 0.0489531 255 139 72
0.0765194 -0.30236 0.0587543 255 139 72
0.0771192 -0.341512 0.106851 255 139 72
0.0744928 -0.354966 0.153148 255 139 72
0.0702255 -0.149289 0.168705 255 139 72
0.0652303 -0.376608 0.270839 255 139 72
0.0583786 -0.46836 0.0577287 255 139 72
0.0755243 -0.17434 0.0486428 255 139 72
0.0753695 -0.325978 0.135992 255 139 72
0.0767433 -0.38232 0.112284 255 139 72
0.0769714 -0.210865 0.0506859 255 139 72
0.0739362 -0.429235 0.141969 255 139 72
0.0666947 -0.223658 0.104855 255 139 72
0.0740829 -0.117644 0.0782779 255 139 72
0.0767427 -0.434848 0.071728 255 139 72
0.0737338 -0.285655 0.122785 255 139 72
0.0689986 -0.285847 0.333445 255 139 72
0.0733678 -0.0863231 0.100024 255 139 72
0.0603701 -0.337318 -0.242983 255 139 72
0.0260775 -0.344856 -0.0413662 255 139 72
0.0769936 -0.306845 0.0586274 255 139 72
0.0711347 -0.139624 0.159419 255 139 72
0.100177 -0.178927 -0.326885 255 139 72
0.0695471 -0.411258 0.0620682 255 139 72
0.0628597 -0.413332 0.0773204 255 139 72
0.0650672 -0.439019 0.323838 255 139 72
0.0740788 -0.112441 0.0698302 255 139 72
0.0643042 -0.0809868 0.346953 255 139 72
0.0716209 -0.186407 0.142557 255 139 72
0.0733015 -0.0950504 0.0942336 255 139 72
0.0861986 -0.244627 -0.34725 255 139 72
0.0663711 -0.1035 0.222752 255 139 72
0.0670024 -0.46121 0.311189 255 139 72
0.0654592 -0.218522 0.318343 255 139 72
0.0716989 -0.0681717 0.0935088 255 139 72
0.081371 -0.21238 0.249488 255 139 72
0.0544424 -0.174693 0.368323 255 139 72
0.0637295 -0.0814645 0.307788 255 139 72
0.0702434 -0.136027 0.170263 255 139 72
0.0743833 -0.126642 0.0763642 255 139 72
0.0762472 -0.275128 0.0603209 255 139 72
0.0771932 -0.37094 0.0581615 255 139 72
0.0566831 -0.410655 0.364031 255 139 72
0.0727242 -0.099254 0.134825 255 139 72
0.0747628 -0.142853 0.0952568 255 139 72
0.0638541 -0.3413 0.275035 255 139 72
0.0641814 -0.263124 0.285126 255 139 72
0.0736886 -0.0818498 0.0982109 255 139 72
0.0751832 -0.172267 0.172144 255 139 72
0.0499059 -0.202147 0.367603 255 139 72
0.0623847 -0.147587 0.267462 255 139 72
0.0749816 -0.263918 0.0982259 255 139 72
-0.00657165 -0.485001 -0.156103 255 139 72
-0.00182811 -0.484996 -0.138047 255 139 72
0.0655707 -0.241518 0.298899 255 139 72
0.0677954 -0.260701 0.0918679 255 139 72
0.0762088 -0.397213 0.119385 255 139 72
0.0640254 -0.264162 0.281594 255 139 72
0.0755119 -0.235605 0.0606508 255 139 72
0.0696855 -0.46914 0.315931 255 139 72
0.0375201 -0.365757 0.371847 255 139 72
0.0744855 -0.238181 0.10584 255 139 72
0.0638043 -0.425129 0.0674336 255 139 72
0.0745724 -0.258146 0.104508 255 139 72
0.0636166 -0.363538 0.298837 255 139 72
0.0717447 -0.2658 0.149283 255 139 72
0.0680639 -0.125767 0.188337 255 139 72
0.0648566 -0.245989 0.216058 255 139 72
0.0711817 -0.4021 0.17436 255 139 72
0.0765946 -0.304062 0.0584284 255 139 72
0.0776344 -0.37415 0.0600096 255 139 72
0.0632059 -0.353063 0.278838 255 139 72
0.0772484 -0.394365 0.0993804 255 139 72
0.0632635 -0.340991 0.2914 255 139 72
0.0676947 -0.414463 0.201029 255 139 72
0.0747764 -0.320469 0.140336 255 139 72
0.0590059 -0.177726 0.36017 255 139 72
0.0682805 -0.159427 0.269148 255 139 72
0.0674606 -0.308622 0.337844 255 139 72
0.0636294 -0.448355 0.262567 255 139 72
0.0562594 -0.443578 0.129664 255 139 72
0.0691564 -0.304347 0.196643 255 139 72
0.0686444 -0.25967 0.314335 255 139 72
0.0744664 -0.190881 0.181993 255 139 72
0.0655562 -0.121062 0.307752 255 139 72
0.0787762 -0.392742 0.0479863 255 139 72
0.00110891 -0.411164 0.158571 255 139 72
0.0771063 -0.30131 0.0589891 255 139 72
0.0776532 -0.40755 0.0453584 255 139 72
0.0641758 -0.251852 0.260021 255 139 72
0.0753794 -0.208062 0.0854769 255 139 72
0.0837551 -0.260787 -0.227323 255 139 72
0.0624774 -0.317384 0.222173 255 139 72
0.0755842 -0.277603 0.0857829 255 139 72
0.0665659 -0.321343 0.12192 255 139 72
0.0170983 -0.480065 -0.0718868 255 139 72
0.0626669 -0.388809 0.290246 255 139 72
0.0658895 -0.359211 0.265356 255 139 72
0.0773994 -0.354893 0.0819222 255 139 72
0.074156 -0.202098 0.106241 255 139 72
0.0715214 -0.41673 0.169887 255 139 72
0.0640594 -0.13658 0.21866 255 139 72
0.0633866 -0.490207 0.28277 255 139 72
0.0566138 -0.46497 0.0622855 255 139 72
0.103713 -0.180755 -0.285975 255 139 72
0.0770919 -0.246389 0.0549227 255 139 72
0.0678465 -0.418572 0.345396 255 139 72
0.0758255 -0.326806 0.130857 255 139 72
0.0655312 -0.455313 0.299682 255 139 72
0.0680741 -0.0738415 0.263627 255 139 72
0.0782902 -0.311224 -0.295458 255 139 72
0.0670028 -0.373175 0.319026 255 139 72
0.0721221 -0.462808 0.136598 255 139 72
0.0757188 -0.43255 0.11285 255 139 72
0.0777032 -0.362795 0.0603542 255 139 72
0.0793488 -0.332057 0.0588096 255 139 72
0.0656165 -0.408642 0.233857 255 139 72
0.0655499 -0.349389 0.264984 255 139 72
0.0774687 -0.234013 0.0532776 255 139 72
0.0363121 -0.451218 0.153676 255 139 72
0.0652902 -0.400305 0.109482 255 139 72
0.060846 -0.142773 0.34967 255 139 72
0.0695768 -0.471239 0.307322 255 139 72
0.0694113 -0.204886 0.170435 255 139 72
0.0658511 -0.251875 0.338362 255 139 72
0.0625623 -0.136964 0.245245 255 139 72
0.0745666 -0.145076 0.0550033 255 139 72
0.071829 -0.173478 0.273917 255 139 72
0.0500249 -0.473869 0.0335151 255 139 72
0.0771324 -0.243009 0.0546153 255 139 72
0.0694738 -0.0713104 0.145828 255 139 72
0.0704936 -0.459657 0.1615 255 139 72
0.0774907 -0.233746 0.0539937 255 139 72
0.0667944 -0.372722 0.343429 255 139 72
0.0741752 -0.292085 0.118103 255 139 72
0.0757097 -0.447258 0.0861473 255 139 72
0.0775773 -0.235585 0.052489 255 139 72
0.0738498 -0.272218 -0.195188 255 139 72
0.0685962 -0.360968 0.336776 255 139 72
0.0741034 -0.116519 0.0714137 255 139 72
0.0734752 -0.400565 0.151673 255 139 72
0.064724 -0.244051 0.165286 255 139 72
0.0680503 -0.439091 0.0504523 255 139 72
0.0630405 -0.157247 0.281015 255 139 72
0.0576255 -0.436256 0.086512 255 139 72
0.0768826 -0.342914 0.114916 255 139 72
0.0649521 -0.361353 0.25081 255 139 72
0.0629461 -0.18009 0.227404 255 139 72
0.0750997 -0.244479 0.0966602 255 139 72
0.0776789 -0.254498 0.0548814 255 139 72
0.0642916 -0.440119 0.313426 255 139 72
0.0674507 -0.368212 0.319524 255 139 72
0.0601275 -0.118248 0.361863 255 139 72
0.0428087 -0.239477 0.368341 255 139 72
0.0628748 -0.343402 0.286933 255 139 72
0.0355259 -0.370088 -0.144668 255 139 72
0.0706562 -0.469856 0.320316 255 139 72
0.0678048 -0.246073 0.094404 255 139 72
0.0994265 -0.21713 -0.321979 255 139 72
0.0780561 -0.38486 0.0525561 255 139 72
0.0707087 -0.147772 0.220727 255 139 72
0.0740961 -0.0780874 0.062334 255 139 72
0.044347 -0.292436 0.191954 255 139 72
0.0769872 -0.40733 0.0597644 255 139 72
0.0761631 -0.439512 0.0413591 255 139 72
0.0770125 -0.212143 0.0508594 255 139 72
0.0683983 -0.238738 0.184304 255 139 72
0.0644627 -0.235261 0.118423 255 139 72
0.061473 -0.157291 0.254552 255 139 72
0.0665381 -0.38585 0.264492 255 139 72
0.0631297 -0.0958435 0.0931996 255 139 72
0.0747418 -0.14895 0.1012 255 139 72
0.00572829 -0.479926 -0.132392 255 139 72
0.0768797 -0.421318 0.0958143 255 139 72
0.0743075 -0.18644 0.104425 255 139 72
0.0606546 -0.460645 0.0556115 255 139 72
0.0771133 -0.357604 0.0613583 255 139 72
0.073568 -0.420775 0.148047 255 139 72
0.0328924 -0.475946 -0.0557768 255 139 72
0.0772668 -0.405255 0.0853718 255 139 72
0.0762669 -0.273469 0.0601277 255 139 72
0.0674244 -0.233073 0.193787 255 139 72
0.0625427 -0.437397 0.289784 255 139 72
0.075436 -0.18029 0.0484901 255 139 72
0.0740923 -0.123636 0.0605798 255 139 72
0.0763993 -0.295812 0.0587094 255 139 72
0.0632707 -0.31416 0.28997 255 139 72
0.068626 -0.262896 0.214586 255 139 72
0.0634429 -0.180954 0.221024 255 139 72
0.0667949 -0.494649 0.0399745 255 139 72
0.0774813 -0.253271 0.0544291 255 139 72
0.0118997 -0.370522 0.156165 255 139 72
0.0773085 -0.221102 0.0516579 255 139 72
0.0676915 -0.457949 0.318864 255 139 72
0.0734781 -0.163688 0.178816 255 139 72
0.0763787 -0.283765 0.0617813 255 139 72
0.062821 -0.170882 0.120996 255 139 72
0.0653335 -0.0708599 0.32898 255 139 72
0.0900154 -0.344889 -0.348625 255 139 72
0.0682763 -0.0784073 0.280121 255 139 72
0.0685314 -0.0698872 0.304388 255 139 72
0.0375829 -0.406831 0.373554 255 139 72
0.062886 -0.101445 0.0968424 255 139 72
0.077173 -0.400058 0.0614848 255 139 72
0.070929 -0.431928 0.172937 255 139 72
-0.00685745 -0.473587 0.121245 255 139 72
0.0777555 -0.398249 0.0489954 255 139 72
0.0701574 -0.12058 0.170094 255 139 72
0.0772875 -0.366374 0.0719896 255 139 72
0.0765118 -0.32045 0.105891 255 139 72
0.0747342 -0.234684 0.102536 255 139 72
0.0628953 -0.326544 0.277458 255 139 72
0.067778 -0.0898058 0.225804 255 139 72
0.0700069 -0.4475 0.34806 255 139 72
0.0771207 -0.240215 0.0546529 255 139 72
0.0108869 -0.465726 0.150908 255 139 72
0.063342 -0.172125 0.293646 255 139 72
0.0605867 -0.12313 0.35488 255 139 72
0.0682842 -0.194584 0.183576 255 139 72
0.0655075 -0.313524 0.303458 255 139 72
0.0763649 -0.315981 0.0957292 255 139 72
0.0775243 -0.227062 0.0518912 255 139 72
0.0625627 -0.201435 0.295031 255 139 72
0.0709906 -0.348415 0.185147 255 139 72
0.0733769 -0.470464 0.0927187 255 139 72
0.0763519 -0.417211 0.0441788 255 139 72
0.0551712 -0.469007 0.0631448 255 139 72
0.0714148 -0.136779 0.0554469 255 139 72
0.0771049 -0.342396 0.0715156 255 139 72
0.0643752 -0.343024 0.245519 255 139 72
0.0780531 -0.250585 0.0557617 255 139 72
0.0751098 -0.2435 0.0623487 255 139 72
0.068141 -0.0770769 0.315068 255 139 72
0.0655164 -0.410602 0.319311 255 139 72
0.0766251 -0.363296 0.117319 255 139 72
0.0690599 -0.0969326 0.199704 255 139 72
0.0507779 -0.216644 0.365057 255 139 72
0.0112054 -0.431758 0.174884 255 139 72
0.0764275 -0.438251 0.0815669 255 139 72
0.0632847 -0.197887 0.337479 255 139 72
0.0763649 -0.377582 0.0617573 255 139 72
0.0679885 -0.241306 0.188992 255 139 72
0.0649938 -0.0720296 0.229971 255 139 72
0.0726378 -0.123326 0.0461203 255 139 72
0.0680659 -0.247654 0.319022 255 139 72
0.0630456 -0.1428 0.318775 255 139 72
0.065996 -0.282469 -0.179304 255 139 72
0.0648903 -0.267186 0.260105 255 139 72
0.0748989 -0.164244 0.0933829 255 139 72
0.0715456 -0.453919 0.152253 255 139 72
0.0660873 -0.376919 0.255784 255 139 72
0.0683442 -0.243479 0.214355 255 139 72
0.0774263 -0.230391 0.0533526 255 139 72
0.0760872 -0.421867 0.0423243 255 139 72
0.0720751 -0.335491 0.0695039 255 139 72
0.0647115 -0.285559 0.26475 255 139 72
0.080221 -0.237026 0.272319 255 139 72
0.0734865 -0.131142 0.115675 255 139 72
0.0730141 -0.214407 0.31399 255 139 72
0.0640859 -0.0951443 0.0838371 255 139 72
0.0734407 -0.485864 0.0624594 255 139 72
0.0730707 -0.344689 0.169478 255 139 72
0.0684975 -0.471234 0.293845 255 139 72
0.0772652 -0.354234 0.101879 255 139 72
0.0726612 -0.185096 0.129518 255 139 72
0.0286112 -0.477786 -0.0118465 255 139 72
0.0144202 -0.439317 0.166233 255 139 72
0.0749634 -0.448194 0.0469221 255 139 72
0.0485735 -0.469384 0.0813854 255 139 72
0.0812228 -0.225802 -0.356668 255 139 72
0.0706949 -0.192582 0.195707 255 139 72
0.0680181 -0.356695 0.108747 255 139 72
0.070353 -0.236147 0.160602 255 139 72
0.0667006 -0.0751653 0.139799 255 139 72
0.0739598 -0.469943 0.036818 255 139 72
0.0662293 -0.365518 0.345096 255 139 72
0.0650226 -0.0729135 0.208762 255 139 72
0.0665193 -0.447895 0.32523 255 139 72
0.0145912 -0.368704 0.188314 255 139 72
0.0664734 -0.161495 0.199413 255 139 72
0.0738316 -0.220194 0.110188 255 139 72
0.0637774 -0.44887 0.264842 255 139 72
0.0724896 -0.25822 0.12674 255 139 72
0.0727611 -0.136484 0.133102 255 139 72
0.0146944 -0.369061 0.192539 255 139 72
0.0717554 -0.207052 0.200753 255 139 72
0.0717638 -0.477146 0.311842 255 139 72
0.076081 -0.425096 0.110889 255 139 72
0.0718859 -0.200327 0.067329 255 139 72
0.0722906 -0.344709 0.176817 255 139 72
0.0740051 -0.0839082 0.0378181 255 139 72
0.0649961 -0.247399 0.0115405 255 139 72
0.0646891 -0.416507 0.311602 255 139 72
-0.00137693 -0.467803 0.144243 255 139 72
0.0706481 -0.15997 0.160692 255 139 72
0.075448 -0.297158 0.10112 255 139 72
0.0701552 -0.248796 0.168585 255 139 72
0.0707024 -0.231914 0.149483 255 139 72
0.0747681 -0.146579 0.0453384 255 139 72
0.0618794 -0.191999 0.285585 255 139 72
0.0760546 -0.208329 0.0552894 255 139 72
0.0752408 -0.190203 0.0878428 255 139 72
0.077271 -0.336951 0.100117 255 139 72
0.0630677 -0.367291 -0.27834 255 139 72
0.0500283 -0.286184 0.360432 255 139 72
0.0602734 -0.35189 0.199681 255 139 72
0.0545206 -0.385587 -0.267073 255 139 72
0.0623884 -0.155305 0.237802 255 139 72
0.0665711 -0.315072 0.340087 255 139 72
0.0652504 -0.223499 0.16922 255 139 72
0.0730822 -0.0713626 0.0940051 255 139 72
0.0637176 -0.163219 0.111426 255 139 72
0.0765839 -0.387052 0.114216 255 139 72
0.0348634 -0.42795 0.16696 255 139 72
-0.0144639 -0.47703 0.0592016 255 139 72
0.0652363 -0.126781 0.298725 255 139 72
0.0636593 -0.447257 0.299476 255 139 72
0.0656549 -0.131967 0.241706 255 139 72
0.0529465 -0.267229 0.358712 255 139 72
0.0724913 -0.0916821 0.143117 255 139 72
0.0626001 -0.411079 0.295831 255 139 72
0.0769241 -0.274749 0.0576187 255 139 72
0.0623202 -0.41672 0.14368 255 139 72
0.0735071 -0.114524 0.0492543 255 139 72
0.0696309 -0.272814 0.0778788 255 139 72
0.0734696 -0.201533 0.113504 255 139 72
0.0770174 -0.4249 0.0710734 255 139 72
0.0763192 -0.315372 0.0936426 255 139 72
0.0437972 -0.223514 0.369262 255 139 72
0.077045 -0.318159 0.0583692 255 139 72
-0.0363938 -0.449073 0.405347 255 95 48
0.0146279 -0.0813576 0.361715 255 95 48
0.04645 -0.0795125 0.367897 255 95 48
0.0327913 -0.113317 0.376444 255 95 48
0.072117 -0.30385 0.047149 255 95 48
0.0527293 -0.381024 0.370518 255 95 48
-0.021052 -0.380875 0.405735 255 95 48
0.0218711 -0.13958 0.374777 255 95 48
-0.0318301 -0.145837 0.362373 255 95 48
-0.0334747 -0.326785 0.392609 255 95 48
0.0617714 -0.326214 0.272128 255 95 48
