ply
format ascii 1.0
comment Created by Open3D
element vertex 1214
property double x
property double y
property double z
property uchar red
property uchar green
property uchar blue
end_header
0.240317 -0.486671 0.308213 95 49 253
-0.418277 -0.485222 0.0883005 95 49 253
-0.190154 -0.487077 0.427952 95 49 253
-0.375784 -0.485881 0.1521 95 49 253
-0.136804 -0.487006 0.362215 95 49 253
-0.0720004 -0.486875 0.280141 95 49 253
0.179207 -0.486503 0.406969 95 49 253
0.208659 -0.487646 0.0295577 95 49 253
0.134356 -0.486725 0.373595 95 49 253
-0.0642696 -0.487076 0.416854 95 49 253
-0.0597716 -0.487523 0.0644664 95 49 253
0.327018 -0.487342 0.206026 95 49 253
-0.203689 -0.487103 0.0770345 95 49 253
-0.144648 -0.48759 -0.0125016 95 49 253
0.293806 -0.487507 0.134183 95 49 253
-0.186573 -0.486789 0.148499 95 49 253
-0.311987 -0.48609 0.28784 95 49 253
-0.205641 -0.486525 0.278192 95 49 253
0.37367 -0.486924 0.294037 95 49 253
0.181225 -0.486652 0.350539 95 49 253
0.232928 -0.48765 0.0770785 95 49 253
0.25066 -0.487236 0.171167 95 49 253
0.080067 -0.487141 0.170444 95 49 253
-0.358251 -0.487239 -0.00179062 95 49 253
0.164463 -0.487574 0.0392398 95 49 253
-0.443918 -0.479941 0.380524 95 49 253
-0.262888 -0.487038 0.0686056 95 49 253
-0.291309 -0.486089 0.244291 95 49 253
-0.360245 -0.48646 0.419272 95 49 253
-0.0586179 -0.487594 0.0492669 95 49 253
0.311791 -0.488406 -0.100802 95 49 253
0.22579 -0.486681 0.288069 95 49 253
-0.171753 -0.48684 0.321688 95 49 253
0.128103 -0.487393 0.111345 95 49 253
-0.0933338 -0.486849 0.284079 95 49 253
0.330489 -0.487968 0.0637595 95 49 253
0.310519 -0.487638 0.109701 95 49 253
-0.212535 -0.487163 0.0585805 95 49 253
-0.320182 -0.486826 0.0795908 95 49 253
-0.121196 -0.487437 0.0377386 95 49 253
-0.277177 -0.486854 0.390775 95 49 253
-0.418783 -0.484177 0.0340478 95 49 253
-0.132835 -0.487078 0.381966 95 49 253
-0.168866 -0.486815 0.156565 95 49 253
0.306277 -0.487678 0.100711 95 49 253
0.317438 -0.488153 -0.00804923 95 49 253
0.3278 -0.488516 -0.164834 95 49 253
-0.151153 -0.487083 0.379986 95 49 253
-0.182528 -0.486589 0.257062 95 49 253
-0.0907177 -0.48688 0.202133 95 49 253
0.351545 -0.488027 0.0584303 95 49 253
-0.103233 -0.486904 0.302152 95 49 253
0.277088 -0.487701 0.0881676 95 49 253
-0.00288325 -0.487681 0.0434086 95 49 253
-0.277348 -0.486866 0.0908576 95 49 253
-0.158438 -0.486707 0.289027 95 49 253
0.229341 -0.488483 -0.143565 95 49 253
-0.20318 -0.486558 0.283707 95 49 253
-0.353851 -0.485741 0.278378 95 49 253
0.0100785 -0.487184 0.160145 95 49 253
-0.376948 -0.486864 0.0315213 95 49 253
-0.111662 -0.487208 0.0892461 95 49 253
-0.0249833 -0.486873 0.37449 95 49 253
-0.152973 -0.486941 0.131303 95 49 253
0.258649 -0.487103 0.210162 95 49 253
0.332463 -0.488318 -0.0663263 95 49 253
0.0480154 -0.486935 0.322054 95 49 253
-0.293925 -0.486109 0.185826 95 49 253
-0.00719879 -0.486938 0.402098 95 49 253
0.27761 -0.487259 0.187661 95 49 253
0.175135 -0.486759 0.273385 95 49 253
0.3258 -0.487164 0.250914 95 49 253
0.0991726 -0.487579 0.0533005 95 49 253
0.203644 -0.486724 0.271906 95 49 253
0.204805 -0.488033 -0.0810378 95 49 253
0.0870366 -0.487111 0.175238 95 49 253
0.318063 -0.487376 0.17977 95 49 253
-0.0130585 -0.487625 0.0796025 95 49 253
0.223213 -0.488016 -0.0625251 95 49 253
-0.356001 -0.485987 0.324301 95 49 253
-0.214679 -0.486477 0.218796 95 49 253
-0.0507741 -0.486886 0.263539 95 49 253
-0.425676 -0.483526 0.234325 95 49 253
-0.236635 -0.487274 0.0330906 95 49 253
0.144188 -0.488026 -0.0928709 95 49 253
0.0244308 -0.487375 0.126534 95 49 253
-0.0134764 -0.486902 0.306375 95 49 253
-0.0344864 -0.486927 0.386854 95 49 253
0.191765 -0.487197 0.146795 95 49 253
0.163962 -0.487354 0.112668 95 49 253
0.258851 -0.486734 0.294062 95 49 253
0.133662 -0.486808 0.347284 95 49 253
0.181546 -0.487604 0.00857286 95 49 253
-0.192428 -0.486668 0.305349 95 49 253
0.00791153 -0.487454 0.107553 95 49 253
-0.268235 -0.48688 0.386348 95 49 253
-0.196645 -0.487032 0.441201 95 49 253
-0.188359 -0.486594 0.193643 95 49 253
0.257058 -0.487341 0.148274 95 49 253
-0.297819 -0.486071 0.221048 95 49 253
0.265876 -0.486997 0.230036 95 49 253
0.32144 -0.487588 0.130693 95 49 253
0.302286 -0.487752 0.08943 95 49 253
-0.0152655 -0.48689 0.331946 95 49 253
0.373435 -0.486282 0.381642 95 49 253
0.253666 -0.487307 0.153611 95 49 253
0.212188 -0.487734 -0.0121823 95 49 253
0.3173 -0.486906 0.304232 95 49 253
0.3012 -0.486652 0.345673 95 49 253
0.251061 -0.487781 0.0497256 95 49 253
-0.103272 -0.486885 0.255428 95 49 253
-0.269518 -0.486255 0.173948 95 49 253
0.335473 -0.487125 0.263636 95 49 253
0.074139 -0.487094 0.183249 95 49 253
-0.299267 -0.486307 0.317427 95 49 253
-0.26919 -0.487493 -0.0159325 95 49 253
0.0809133 -0.48703 0.195662 95 49 253
-0.286627 -0.487042 0.061169 95 49 253
-0.0631118 -0.487268 0.102575 95 49 253
0.32565 -0.48799 0.0547833 95 49 253
0.19091 -0.486751 0.317829 95 49 253
0.250262 -0.486718 0.291041 95 49 253
0.34473 -0.487362 0.205774 95 49 253
0.296103 -0.487366 0.166005 95 49 253
-0.216678 -0.487042 0.422063 95 49 253
-0.101069 -0.487752 -0.0693023 95 49 253
-0.0868027 -0.487124 0.414207 95 49 253
-0.0136787 -0.487673 0.00435518 95 49 253
-0.401193 -0.485379 0.208136 95 49 253
0.170745 -0.487595 0.0156633 95 49 253
0.143848 -0.487295 0.132462 95 49 253
0.348653 -0.487103 0.280504 95 49 253
-0.413609 -0.485535 0.139156 95 49 253
0.230959 -0.487506 0.0985027 95 49 253
-0.289288 -0.487141 0.0494687 95 49 253
0.341827 -0.48767 0.120848 95 49 253
-0.410289 -0.484027 0.281774 95 49 253
-0.286916 -0.486158 0.265877 95 49 253
-0.00470935 -0.487003 0.205519 95 49 253
-0.118733 -0.487028 0.123112 95 49 253
-0.136258 -0.48697 0.35049 95 49 253
-0.41498 -0.481676 0.421086 95 49 253
0.358334 -0.488027 0.0616449 95 49 253
0.237456 -0.486751 0.270084 95 49 253
0.263144 -0.488203 -0.0671227 95 49 253
0.0836682 -0.487601 -0.00442037 95 49 253
-0.305931 -0.486735 0.440431 95 49 253
0.382492 -0.487188 0.19607 95 49 253
-0.159955 -0.486663 0.276248 95 49 253
-0.0465423 -0.48736 0.098127 95 49 253
-0.136206 -0.486791 0.183741 95 49 253
-0.0653469 -0.487295 0.097132 95 49 253
0.38356 -0.486815 0.290127 95 49 253
0.288577 -0.488431 -0.0944946 95 49 253
0.302873 -0.487299 0.199178 95 49 253
0.136376 -0.486708 0.380141 95 49 253
0.153766 -0.487572 0.0393265 95 49 253
-0.0638738 -0.486923 0.305085 95 49 253
-0.156219 -0.48679 0.308858 95 49 253
0.180748 -0.487631 -0.00703395 95 49 253
-0.364239 -0.486404 0.391188 95 49 253
0.372919 -0.487578 0.143978 95 49 253
0.252443 -0.487374 0.138183 95 49 253
0.0620925 -0.48693 0.329492 95 49 253
0.371338 -0.487603 0.140932 95 49 253
-0.309154 -0.486314 0.330972 95 49 253
0.263348 -0.487826 0.0497469 95 49 253
-0.0172737 -0.486961 0.410154 95 49 253
-0.409656 -0.485147 0.234751 95 49 253
-0.296591 -0.48679 0.430996 95 49 253
0.145779 -0.486796 0.244191 95 49 253
0.310685 -0.487979 0.0461619 95 49 253
0.198382 -0.48674 0.303366 95 49 253
-0.0968945 -0.487745 -0.0649946 95 49 253
0.0221054 -0.487633 0.00193811 95 49 253
-0.0464847 -0.487239 0.12166 95 49 253
0.0874148 -0.486953 0.219116 95 49 253
0.376028 -0.487083 0.259757 95 49 253
-0.0921646 -0.48695 0.178611 95 49 253
-0.373051 -0.4865 0.0960105 95 49 253
-0.345633 -0.48603 0.318735 95 49 253
0.260153 -0.486796 0.280862 95 49 253
0.235757 -0.487482 0.103807 95 49 253
-0.26345 -0.486859 0.374105 95 49 253
0.257767 -0.487464 0.116917 95 49 253
-0.116645 -0.486983 0.329971 95 49 253
-0.00179246 -0.487171 0.158491 95 49 253
-0.0748414 -0.487006 0.153289 95 49 253
-0.250827 -0.486626 0.132085 95 49 253
0.144855 -0.487563 0.0585182 95 49 253
-0.00016466 -0.487698 -0.0279523 95 49 253
-0.197968 -0.486563 0.280095 95 49 253
-0.23554 -0.487245 0.0393216 95 49 253
-0.0593685 -0.487664 -0.0137128 95 49 253
-0.204329 -0.486609 0.30081 95 49 253
0.228867 -0.486676 0.307317 95 49 253
-0.361359 -0.486306 0.367772 95 49 253
0.357258 -0.487483 0.165601 95 49 253
-0.260617 -0.486359 0.162762 95 49 253
-0.169042 -0.487058 0.441626 95 49 253
-0.288447 -0.487201 0.0427703 95 49 253
0.150816 -0.487358 0.114281 95 49 253
-0.405175 -0.47938 0.460188 95 49 253
-0.129298 -0.486872 0.171673 95 49 253
-0.0811639 -0.487478 0.0561174 95 49 253
-0.228317 -0.486529 0.163449 95 49 253
-0.100282 -0.486846 0.286581 95 49 253
-0.209992 -0.487054 0.378835 95 49 253
-0.376288 -0.485598 0.27897 95 49 253
0.141022 -0.487602 0.0057491 95 49 253
-0.281883 -0.486861 0.41649 95 49 253
-0.0604242 -0.487654 -0.00385348 95 49 253
0.00471338 -0.486917 0.264748 95 49 253
-0.0768858 -0.487038 0.144822 95 49 253
0.219402 -0.487675 0.0391925 95 49 253
0.291918 -0.487508 0.131284 95 49 253
-0.12575 -0.487044 0.117502 95 49 253
-0.33284 -0.486219 0.136728 95 49 253
-0.0382204 -0.487524 0.081422 95 49 253
-0.183131 -0.486826 0.143117 95 49 253
-0.34289 -0.486669 0.0990295 95 49 253
0.184402 -0.487891 -0.0551545 95 49 253
0.0157132 -0.487656 -0.0135185 95 49 253
-0.178463 -0.487261 0.0593921 95 49 253
-0.293696 -0.486865 0.0846707 95 49 253
-0.30436 -0.486726 0.446787 95 49 253
0.351476 -0.487058 0.296849 95 49 253
-0.0788722 -0.48689 0.208535 95 49 253
-0.244746 -0.486346 0.199039 95 49 253
-0.38809 -0.486339 0.0901163 95 49 253
-0.178918 -0.487126 0.393439 95 49 253
-0.00118385 -0.487661 0.0650411 95 49 253
-0.023337 -0.487593 0.0757884 95 49 253
-0.136047 -0.487177 0.0882916 95 49 253
-0.105742 -0.486902 0.302601 95 49 253
-0.0705128 -0.486928 0.200017 95 49 253
0.268432 -0.487421 0.137247 95 49 253
-0.174483 -0.48772 -0.0516511 95 49 253
-0.0211565 -0.487676 0.0304113 95 49 253
0.00850288 -0.487606 0.0903293 95 49 253
-0.161551 -0.487265 0.0650787 95 49 253
0.121371 -0.486678 0.422016 95 49 253
0.322883 -0.487394 0.177394 95 49 253
0.127395 -0.486765 0.363939 95 49 253
0.283221 -0.487302 0.171534 95 49 253
-0.429958 -0.482092 0.298108 95 49 253
-0.367138 -0.485642 0.267013 95 49 253
0.165948 -0.487184 0.150952 95 49 253
0.241243 -0.487532 0.0985199 95 49 253
0.0649654 -0.487729 -0.0445355 95 49 253
-0.146587 -0.48706 0.105133 95 49 253
-0.203232 -0.487088 0.402585 95 49 253
0.0578535 -0.486954 0.292004 95 49 253
-0.371103 -0.486467 0.101964 95 49 253
0.0856545 -0.486978 0.310289 95 49 253
-0.10557 -0.486896 0.300659 95 49 253
0.186095 -0.486755 0.250487 95 49 253
0.259372 -0.487058 0.216173 95 49 253
0.278024 -0.487443 0.139313 95 49 253
0.0502242 -0.487328 0.138414 95 49 253
-0.18513 -0.48663 0.287963 95 49 253
-0.462441 -0.478842 0.327877 95 49 253
-0.112378 -0.486846 0.261848 95 49 253
-0.234589 -0.486642 0.140294 95 49 253
0.157833 -0.488097 -0.105992 95 49 253
-0.0697866 -0.487193 0.114578 95 49 253
0.158229 -0.486582 0.423662 95 49 253
0.173305 -0.486791 0.236602 95 49 253
0.0281785 -0.487617 0.00489586 95 49 253
-0.209369 -0.486736 0.142958 95 49 253
0.0519574 -0.487449 0.11507 95 49 253
0.231353 -0.487705 0.0521782 95 49 253
0.000497402 -0.487352 0.122033 95 49 253
-0.153243 -0.487194 0.0802615 95 49 253
0.137731 -0.487654 -0.0202088 95 49 253
0.283821 -0.4867 0.3288 95 49 253
-0.0378542 -0.487543 0.0780224 95 49 253
0.157807 -0.486892 0.210786 95 49 253
-0.0759689 -0.486894 0.254469 95 49 253
-0.0868133 -0.486957 0.180389 95 49 253
0.222933 -0.487691 0.0386507 95 49 253
0.271535 -0.487525 0.111515 95 49 253
0.167909 -0.487264 0.133079 95 49 253
0.343933 -0.48835 -0.0625721 95 49 253
0.153439 -0.487905 -0.0638549 95 49 253
-0.00454008 -0.487288 0.133131 95 49 253
0.332401 -0.488164 -0.00145687 95 49 253
-0.417777 -0.485174 0.109735 95 49 253
-0.130822 -0.487653 -0.0287589 95 49 253
-0.0116652 -0.487047 0.188716 95 49 253
-0.386023 -0.486703 0.0383478 95 49 253
0.178034 -0.48739 0.103502 95 49 253
-0.407581 -0.48612 0.0842735 95 49 253
-0.148214 -0.487242 0.0725074 95 49 253
0.282435 -0.487896 0.0483442 95 49 253
0.341993 -0.48818 -0.00413849 95 49 253
0.231959 -0.487277 0.151633 95 49 253
0.180858 -0.487342 0.11321 95 49 253
0.326063 -0.487725 0.100414 95 49 253
0.168121 -0.487352 0.1126 95 49 253
-0.271178 -0.487044 0.0652305 95 49 253
0.350283 -0.488098 0.0346326 95 49 253
0.0934075 -0.486901 0.234683 95 49 253
0.251942 -0.488041 -0.0435758 95 49 253
-0.171437 -0.486816 0.318171 95 49 253
0.0220296 -0.486921 0.326795 95 49 253
-0.0604607 -0.486935 0.354434 95 49 253
0.36751 -0.487296 0.231718 95 49 253
0.215566 -0.486339 0.416155 95 49 253
-0.0241089 -0.486887 0.288865 95 49 253
-0.109861 -0.487234 0.0849091 95 49 253
0.132141 -0.488093 -0.111907 95 49 253
0.122418 -0.486899 0.285898 95 49 253
0.251008 -0.4865 0.348337 95 49 253
-0.444316 -0.47945 0.397783 95 49 253
0.112994 -0.486912 0.290725 95 49 253
0.0528434 -0.487247 0.151269 95 49 253
0.0224046 -0.487648 -0.0113073 95 49 253
-0.0270263 -0.487824 -0.061643 95 49 253
0.0645026 -0.487593 0.0596111 95 49 253
-0.335209 -0.486083 0.315573 95 49 253
0.365989 -0.488027 0.0604166 95 49 253
-0.22927 -0.486568 0.309722 95 49 253
0.106353 -0.487162 0.160985 95 49 253
-0.373055 -0.485614 0.262203 95 49 253
0.113855 -0.486893 0.224572 95 49 253
0.312409 -0.486942 0.293696 95 49 253
-0.41221 -0.483934 0.345083 95 49 253
0.364403 -0.487257 0.247215 95 49 253
0.180397 -0.486657 0.349888 95 49 253
0.217125 -0.487443 0.104123 95 49 253
0.388669 -0.486904 0.254866 95 49 253
-0.391499 -0.485449 0.212013 95 49 253
-0.388839 -0.485523 0.258106 95 49 253
-0.367515 -0.485021 0.449062 95 49 253
0.169697 -0.488017 -0.0847892 95 49 253
0.374944 -0.486955 0.286311 95 49 253
-0.0803969 -0.486873 0.222239 95 49 253
0.0355461 -0.487002 0.215488 95 49 253
-0.0977027 -0.302597 -0.2278 63 97 250
-0.142293 -0.393161 -0.201662 63 97 250
0.13644 -0.289924 -0.220003 63 97 250
0.110028 -0.304686 -0.165974 63 97 250
-0.11956 -0.43512 -0.234803 63 97 250
0.139041 -0.303212 -0.189627 63 97 250
0.153456 -0.292333 -0.220581 63 97 250
0.0476947 -0.386267 0.0420668 63 97 250
0.202063 -0.308943 -0.219461 63 97 250
0.0362631 -0.330685 -0.0896427 63 97 250
-0.00996281 -0.353497 -0.0300948 63 97 250
0.156585 -0.459405 0.180896 63 97 250
-0.0145152 -0.40227 0.119556 63 97 250
0.077126 -0.460931 0.403777 63 97 250
-0.294976 -0.490415 0.00921906 63 97 250
0.120622 -0.469957 0.24774 63 97 250
-0.359004 -0.433635 0.257661 63 97 250
0.0436932 -0.328228 -0.0951016 63 97 250
-0.350149 -0.494651 0.170487 63 97 250
0.159461 -0.294075 -0.218861 63 97 250
0.25915 -0.377006 0.0271986 63 97 250
0.0728504 -0.343949 -0.271257 63 97 250
-0.364447 -0.422539 0.263876 63 97 250
-0.122139 -0.389883 -0.138685 63 97 250
0.144383 -0.364351 -0.0495095 63 97 250
-0.118155 -0.44738 -0.23132 63 97 250
0.141622 -0.382086 -0.00873452 63 97 250
0.0257625 -0.470641 -0.264203 63 97 250
0.00630765 -0.329367 -0.0945689 63 97 250
0.180392 -0.336745 -0.160273 63 97 250
-0.172984 -0.463454 0.149205 63 97 250
0.145371 -0.354439 -0.075117 63 97 250
-0.0990008 -0.432152 0.0659741 63 97 250
0.0605336 -0.317913 -0.265281 63 97 250
-0.0239907 -0.317493 -0.158645 63 97 250
0.0518941 -0.29788 -0.258482 63 97 250
0.0485924 -0.461147 0.253541 63 97 250
0.159514 -0.321896 -0.166694 63 97 250
-0.086987 -0.45424 0.227829 63 97 250
-0.0870181 -0.326852 -0.233506 63 97 250
-0.0996504 -0.356194 -0.168829 63 97 250
0.316199 -0.446207 0.211764 63 97 250
0.00441242 -0.32948 -0.0944858 63 97 250
0.0516055 -0.322867 -0.107458 63 97 250
-0.162318 -0.457507 -0.0427929 63 97 250
-0.0756315 -0.402362 -0.00641339 63 97 250
0.0442518 -0.292064 -0.209677 63 97 250
0.147901 -0.30954 -0.179665 63 97 250
0.111539 -0.384138 0.0127496 63 97 250
-0.132416 -0.399724 -0.229437 63 97 250
0.328025 -0.439361 0.234622 63 97 250
0.322879 -0.43297 0.164467 63 97 250
0.256506 -0.432157 0.141128 63 97 250
-0.0494551 -0.472987 -0.255913 63 97 250
0.141562 -0.396053 0.0197351 63 97 250
0.13957 -0.349711 -0.0871978 63 97 250
0.0974018 -0.281299 -0.261195 63 97 250
0.153387 -0.338799 -0.118623 63 97 250
-0.216408 -0.459203 0.273826 63 97 250
-0.129763 -0.428951 -0.22723 63 97 250
-0.0167301 -0.322815 -0.119052 63 97 250
0.0109505 -0.362681 0.011129 63 97 250
0.117688 -0.297185 -0.205675 63 97 250
0.0868849 -0.292443 -0.206658 63 97 250
0.0119668 -0.462291 0.288049 63 97 250
0.165367 -0.342005 -0.129128 63 97 250
-0.0976704 -0.442427 0.182844 63 97 250
-0.328372 -0.430677 0.262372 63 97 250
0.00224102 -0.437128 0.165627 63 97 250
-0.096276 -0.456704 0.321123 63 97 250
-0.231346 -0.475933 0.191063 63 97 250
0.151924 -0.465593 0.366707 63 97 250
0.189655 -0.307857 -0.207472 63 97 250
-0.337845 -0.490092 0.193423 63 97 250
0.0764492 -0.275531 -0.255562 63 97 250
0.204248 -0.390017 0.0304934 63 97 250
0.153665 -0.295094 -0.214673 63 97 250
-0.0354538 -0.311015 -0.242664 63 97 250
0.0317639 -0.29257 -0.211509 63 97 250
0.105315 -0.369244 -0.280415 63 97 250
0.103379 -0.412258 0.0665398 63 97 250
0.00779573 -0.362955 0.0127257 63 97 250
-0.0860953 -0.346644 -0.156403 63 97 250
-0.0659149 -0.345109 -0.113606 63 97 250
0.180384 -0.328972 -0.174411 63 97 250
0.0908788 -0.325866 -0.105415 63 97 250
0.188154 -0.330865 -0.174214 63 97 250
-0.12205 -0.407481 -0.103579 63 97 250
-0.0753174 -0.376478 -0.24891 63 97 250
-0.251895 -0.452652 0.278244 63 97 250
-0.194833 -0.466912 0.166989 63 97 250
0.10912 -0.365099 -0.280777 63 97 250
0.0284154 -0.371334 0.0213408 63 97 250
-0.20479 -0.459841 -0.12137 63 97 250
-0.0257159 -0.306843 -0.203898 63 97 250
0.207141 -0.469051 0.337372 63 97 250
-0.21622 -0.471496 0.188005 63 97 250
0.0212966 -0.301385 -0.254895 63 97 250
0.00963718 -0.349812 -0.035765 63 97 250
0.081791 -0.30884 -0.144367 63 97 250
-0.146403 -0.462256 0.18045 63 97 250
0.208238 -0.332628 -0.182244 63 97 250
0.0295967 -0.35379 -0.0242279 63 97 250
-0.0891787 -0.317635 -0.212554 63 97 250
-0.067457 -0.392303 0.0221097 63 97 250
0.0645294 -0.46229 -0.270674 63 97 250
-0.0121335 -0.305951 -0.191812 63 97 250
0.0130367 -0.332383 -0.259721 63 97 250
-0.31795 -0.425485 0.258657 63 97 250
-0.00284562 -0.308624 -0.17432 63 97 250
-0.0413049 -0.295466 -0.233991 63 97 250
0.067733 -0.438987 0.124694 63 97 250
-0.20333 -0.468303 0.178884 63 97 250
-0.176892 -0.465407 0.205912 63 97 250
-0.0906011 -0.421949 0.032372 63 97 250
0.214743 -0.308803 -0.23087 63 97 250
0.248284 -0.424198 0.128059 63 97 250
-0.284076 -0.475951 0.256637 63 97 250
0.178859 -0.300226 -0.214226 63 97 250
0.048579 -0.305195 -0.17481 63 97 250
-0.0497255 -0.331869 -0.114789 63 97 250
-0.114265 -0.423153 -0.0418069 63 97 250
-0.0683296 -0.365313 -0.248379 63 97 250
0.255207 -0.46903 0.342006 63 97 250
-0.106018 -0.33088 -0.203091 63 97 250
-0.0404467 -0.358413 -0.0449243 63 97 250
-0.363818 -0.437992 0.268348 63 97 250
0.0603732 -0.313359 -0.135696 63 97 250
-0.119238 -0.46241 -0.230804 63 97 250
-0.134419 -0.442263 -0.0556018 63 97 250
0.138402 -0.303272 -0.187878 63 97 250
0.0839977 -0.287497 -0.215636 63 97 250
0.201709 -0.321732 -0.198674 63 97 250
0.326533 -0.458282 0.340102 63 97 250
0.331996 -0.455053 0.316381 63 97 250
-0.059362 -0.404243 0.136949 63 97 250
0.141942 -0.364364 -0.0490648 63 97 250
-0.0183863 -0.31567 -0.157738 63 97 250
0.200581 -0.329999 -0.180383 63 97 250
-0.0106165 -0.316968 -0.145958 63 97 250
0.201245 -0.470426 0.216489 63 97 250
-0.128707 -0.329361 -0.223078 63 97 250
-0.0520967 -0.375994 0.00159124 63 97 250
-0.0429785 -0.38032 0.0393436 63 97 250
-0.0572893 -0.306413 -0.235283 63 97 250
-0.13861 -0.416081 -0.221758 63 97 250
0.0239496 -0.337946 -0.0729995 63 97 250
-0.00623138 -0.298178 -0.221854 63 97 250
0.11555 -0.2817 -0.23855 63 97 250
0.0733195 -0.445633 0.133875 63 97 250
0.0671926 -0.280446 -0.254622 63 97 250
0.0675129 -0.426503 -0.276512 63 97 250
0.114292 -0.358339 -0.281275 63 97 250
-0.11168 -0.419934 -0.044325 63 97 250
0.0148336 -0.297508 -0.20328 63 97 250
-0.13847 -0.412576 -0.222948 63 97 250
0.0179564 -0.317312 -0.258548 63 97 250
-0.207329 -0.469538 0.177149 63 97 250
-0.097751 -0.393749 -0.0810495 63 97 250
0.0602884 -0.317027 -0.119109 63 97 250
0.0454073 -0.454791 0.359407 63 97 250
-0.35432 -0.450632 0.272237 63 97 250
0.0229197 -0.36556 0.013723 63 97 250
0.0506044 -0.308009 -0.16225 63 97 250
0.0798362 -0.337422 -0.0857941 63 97 250
0.023625 -0.446348 0.17176 63 97 250
-0.0894285 -0.354945 -0.132384 63 97 250
-0.0926067 -0.40411 -0.250137 63 97 250
-0.131935 -0.356811 -0.19343 63 97 250
-0.0776583 -0.409312 0.0575343 63 97 250
0.107105 -0.35549 -0.0502096 63 97 250
-0.0822631 -0.342371 -0.161126 63 97 250
-0.0100572 -0.36045 0.000529215 63 97 250
-0.230184 -0.483443 -0.188127 63 97 250
-0.159652 -0.455123 -0.196798 63 97 250
-0.0272367 -0.293207 -0.238628 63 97 250
-0.0599596 -0.396593 0.111112 63 97 250
-0.0806956 -0.322663 -0.198463 63 97 250
0.050918 -0.399473 0.0678613 63 97 250
-0.00761895 -0.451727 -0.266099 63 97 250
-0.115475 -0.414936 -0.0711681 63 97 250
-0.318379 -0.465561 0.294826 63 97 250
0.00496553 -0.349223 -0.0378608 63 97 250
0.0857641 -0.306088 -0.155229 63 97 250
0.119176 -0.287027 -0.224761 63 97 250
0.148888 -0.295522 -0.211838 63 97 250
0.0498739 -0.284145 -0.223265 63 97 250
0.186398 -0.324366 -0.182931 63 97 250
-0.262411 -0.478891 0.166451 63 97 250
-0.119699 -0.451615 0.214095 63 97 250
-0.0364632 -0.437816 -0.262253 63 97 250
0.0491024 -0.384084 0.0357382 63 97 250
0.0857929 -0.333786 -0.0921341 63 97 250
-0.125516 -0.377507 -0.171035 63 97 250
-0.00873463 -0.298996 -0.217394 63 97 250
-0.179651 -0.46504 0.133217 63 97 250
0.187223 -0.308812 -0.204607 63 97 250
0.039961 -0.465608 0.327966 63 97 250
-0.10117 -0.422272 -0.0139595 63 97 250
-0.026275 -0.380935 -0.260094 63 97 250
-0.149956 -0.454139 0.11335 63 97 250
0.0417207 -0.465979 -0.267276 63 97 250
0.120973 -0.300437 -0.199449 63 97 250
-0.119401 -0.413909 -0.237745 63 97 250
0.16118 -0.363585 -0.0748493 63 97 250
0.0882272 -0.301647 -0.175419 63 97 250
0.113935 -0.300865 -0.195145 63 97 250
0.192509 -0.379038 -0.00521046 63 97 250
-0.14398 -0.452412 0.261788 63 97 250
0.118276 -0.337787 -0.0978808 63 97 250
0.130653 -0.403846 0.039747 63 97 250
-0.143655 -0.40403 -0.217241 63 97 250
-0.161068 -0.459848 -0.202822 63 97 250
0.0739211 -0.307896 -0.148171 63 97 250
0.0886468 -0.308005 -0.269724 63 97 250
0.0565139 -0.284334 -0.237419 63 97 250
0.287595 -0.453909 0.209256 63 97 250
0.21611 -0.431938 0.127332 63 97 250
0.167741 -0.328165 -0.166537 63 97 250
0.0333769 -0.383301 0.0461027 63 97 250
-0.119086 -0.312245 -0.223382 63 97 250
0.0367398 -0.314468 -0.261444 63 97 250
-0.0255545 -0.381741 0.0849352 63 97 250
-0.0185608 -0.316317 -0.152879 63 97 250
-0.137811 -0.334606 -0.208507 63 97 250
-0.110312 -0.386379 -0.240759 63 97 250
-0.108113 -0.425313 -0.244273 63 97 250
0.106966 -0.295851 -0.20418 63 97 250
-0.170766 -0.445579 -0.121557 63 97 250
0.279389 -0.459879 0.306059 63 97 250
0.0140798 -0.316318 -0.257253 63 97 250
0.227473 -0.412108 0.0910603 63 97 250
0.165339 -0.348882 -0.111494 63 97 250
0.200531 -0.324208 -0.188378 63 97 250
0.34673 -0.459166 0.419341 63 97 250
-0.00182656 -0.324042 -0.108712 63 97 250
0.0625245 -0.297273 -0.259752 63 97 250
0.0639456 -0.447037 0.146228 63 97 250
0.049899 -0.275279 -0.249252 63 97 250
0.093427 -0.345613 -0.275234 63 97 250
-0.00258838 -0.286091 -0.238619 63 97 250
-0.0271365 -0.305278 -0.207537 63 97 250
0.104037 -0.347018 -0.277532 63 97 250
0.0454722 -0.312127 -0.150276 63 97 250
-0.158479 -0.463092 0.169107 63 97 250
0.200886 -0.310182 -0.216748 63 97 250
-0.0381908 -0.377747 0.0363719 63 97 250
-0.169841 -0.452842 -0.0804535 63 97 250
0.00777034 -0.318854 -0.132034 63 97 250
-0.0915671 -0.309044 -0.223691 63 97 250
-0.152855 -0.434541 -0.177065 63 97 250
-0.0775429 -0.388712 -0.0494196 63 97 250
0.111372 -0.301116 -0.190671 63 97 250
0.276967 -0.462857 0.318996 63 97 250
-0.0614094 -0.377211 -0.0166061 63 97 250
-0.311225 -0.473622 0.279304 63 97 250
-0.0181474 -0.308889 -0.184954 63 97 250
0.103906 -0.33398 -0.275998 63 97 250
0.0566313 -0.437169 0.133834 63 97 250
-0.166585 -0.454073 -0.0663199 63 97 250
0.103874 -0.301072 -0.18565 63 97 250
0.165238 -0.368972 -0.0571672 63 97 250
0.0530695 -0.317735 -0.120077 63 97 250
-0.14164 -0.476723 -0.216678 63 97 250
-0.0476874 -0.389952 0.0953402 63 97 250
-0.110332 -0.443229 -0.238718 63 97 250
0.111097 -0.33226 -0.104 63 97 250
0.0763028 -0.338529 -0.0836451 63 97 250
-0.187015 -0.466444 0.143589 63 97 250
-0.270247 -0.478346 0.219223 63 97 250
-0.089723 -0.379525 -0.0907593 63 97 250
-0.0130178 -0.381536 0.079851 63 97 250
-0.373773 -0.489236 0.25589 63 97 250
-0.0070552 -0.427044 -0.26552 63 97 250
-0.085089 -0.348496 -0.14438 63 97 250
0.150994 -0.298012 -0.208317 63 97 250
-0.115118 -0.353668 -0.185553 63 97 250
-0.107834 -0.367844 -0.152682 63 97 250
0.0458084 -0.295696 -0.256074 63 97 250
-0.0160985 -0.313506 -0.167316 63 97 250
0.143843 -0.262903 -0.259607 63 97 250
-0.242279 -0.469626 0.247132 63 97 250
-0.125476 -0.442849 0.0260321 63 97 250
0.140204 -0.421203 0.0732375 63 97 250
-0.312333 -0.469798 0.291836 63 97 250
0.0668314 -0.443683 -0.274898 63 97 250
-0.298544 -0.480944 0.238022 63 97 250
-0.371934 -0.483882 0.269302 63 97 250
0.00207007 -0.37082 0.0419691 63 97 250
0.146692 -0.306613 -0.1832 63 97 250
0.0706468 -0.473185 0.272691 63 97 250
0.297689 -0.413367 0.112123 63 97 250
0.0981574 -0.28958 -0.264031 63 97 250
-0.0429127 -0.327901 -0.140893 63 97 250
0.00123365 -0.316405 -0.253437 63 97 250
0.0344852 -0.316126 -0.140136 63 97 250
-0.120985 -0.313284 -0.220796 63 97 250
-0.0503289 -0.394746 0.116215 63 97 250
-0.118468 -0.410572 -0.238487 63 97 250
-0.06516 -0.34319 -0.118336 63 97 250
-0.208429 -0.46925 -0.176355 63 97 250
-0.240995 -0.478514 0.156152 63 97 250
-0.256241 -0.479149 -0.0409804 63 97 250
0.118449 -0.277073 -0.248874 63 97 250
0.322669 -0.459901 0.44049 63 97 250
0.0458212 -0.327199 -0.0972585 63 97 250
0.00249841 -0.331268 -0.0906121 63 97 250
-0.00281524 -0.298442 -0.218411 63 97 250
-0.267131 -0.481772 0.0179254 63 97 250
0.0316331 -0.315003 -0.260789 63 97 250
0.0184464 -0.358812 -0.263831 63 97 250
0.191253 -0.308091 -0.208105 63 97 250
-0.106532 -0.375273 -0.12163 63 97 250
0.208377 -0.32503 -0.197871 63 97 250
0.102703 -0.315484 -0.129306 63 97 250
-0.19353 -0.465773 -0.185074 63 97 250
0.238685 -0.378852 0.0304572 63 97 250
0.149826 -0.365609 -0.0477095 63 97 250
-0.376159 -0.436583 0.267515 63 97 250
-0.0796993 -0.326287 -0.192259 63 97 250
0.10581 -0.314517 -0.132589 63 97 250
0.0475693 -0.440811 0.148972 63 97 250
0.0371515 -0.315851 -0.140081 63 97 250
-0.141007 -0.377875 -0.198034 63 97 250
-0.131149 -0.381133 -0.172422 63 97 250
0.0754428 -0.336028 -0.0872073 63 97 250
0.0628187 -0.324983 -0.10172 63 97 250
-0.343487 -0.444517 0.269242 63 97 250
0.100197 -0.302997 -0.170564 63 97 250
0.194472 -0.362161 -0.0780632 63 97 250
0.173047 -0.293941 -0.222555 63 97 250
-0.0970538 -0.314293 -0.219943 63 97 250
0.160631 -0.295787 -0.216052 63 97 250
0.187984 -0.467285 0.330007 63 97 250
-0.338703 -0.496045 0.0800812 63 97 250
-0.0183927 -0.384784 0.0937686 63 97 250
0.102289 -0.422819 0.080726 63 97 250
0.266433 -0.459371 0.220743 63 97 250
-0.142995 -0.409393 -0.217204 63 97 250
0.123543 -0.303454 -0.181345 63 97 250
-0.0823651 -0.350983 -0.131063 63 97 250
0.00496476 -0.413545 -0.266847 63 97 250
-0.105234 -0.327336 -0.206591 63 97 250
0.188359 -0.298158 -0.221357 63 97 250
0.202358 -0.344876 -0.14841 63 97 250
0.199141 -0.298706 -0.245382 63 97 250
-0.0129815 -0.375089 0.0595123 63 97 250
-0.257113 -0.456814 0.295558 63 97 250
-0.123351 -0.449907 0.254889 63 97 250
-0.161504 -0.462061 0.0198504 63 97 250
-0.35018 -0.411416 0.242208 63 97 250
0.106601 -0.303699 -0.169683 63 97 250
0.015029 -0.396908 -0.267636 63 97 250
-0.0329774 -0.448228 -0.262556 63 97 250
0.115613 -0.286143 -0.265924 63 97 250
-0.11214 -0.403122 -0.242042 63 97 250
0.131259 -0.332029 -0.114187 63 97 250
-0.0693464 -0.436854 0.179131 63 97 250
-0.0495968 -0.331956 -0.142154 63 97 250
-0.0966622 -0.369449 -0.117049 63 97 250
0.129073 -0.316202 -0.147922 63 97 250
0.0794794 -0.285991 -0.219209 63 97 250
0.0365521 -0.453355 0.19068 63 97 250
0.30337 -0.448125 0.267719 63 97 250
0.0487176 -0.283155 -0.22587 63 97 250
-0.358404 -0.462057 0.283329 63 97 250
0.15625 -0.302962 -0.196723 63 97 250
0.31332 -0.460651 0.431591 63 97 250
-0.386992 -0.472132 0.273593 63 97 250
-0.0368627 -0.312609 -0.191749 63 97 250
0.0204485 -0.448351 0.176278 63 97 250
0.0315146 -0.422519 0.125537 63 97 250
0.0527951 -0.455615 0.190963 63 97 250
-0.0680008 -0.393406 0.023827 63 97 250
0.0535055 -0.315593 -0.130145 63 97 250
0.178413 -0.291034 -0.234753 63 97 250
-0.105573 -0.327425 -0.229636 63 97 250
-0.0882077 -0.392533 -0.0650618 63 97 250
-0.0990492 -0.301813 -0.229114 63 97 250
0.162779 -0.300594 -0.205995 63 97 250
0.0810884 -0.400845 0.0583967 63 97 250
0.029294 -0.303134 -0.18733 63 97 250
-0.0950091 -0.410667 -0.250681 63 97 250
-0.155877 -0.439629 -0.173505 63 97 250
0.0721963 -0.293699 -0.203618 63 97 250
0.165155 -0.316029 -0.182571 63 97 250
-0.0476103 -0.436866 -0.260519 63 97 250
-0.0271539 -0.417131 0.147886 63 97 250
0.0719131 -0.473956 0.268094 63 97 250
-0.139364 -0.436618 -0.214546 63 97 250
-0.091928 -0.336457 -0.235154 63 97 250
0.217843 -0.31477 -0.222059 63 97 250
-0.0361969 -0.323848 -0.151418 63 97 250
-0.11145 -0.3899 -0.102072 63 97 250
-0.0823719 -0.362453 -0.106425 63 97 250
-0.372757 -0.438067 0.268404 63 97 250
-0.00667551 -0.353813 -0.0259577 63 97 250
-0.373931 -0.449371 0.274492 63 97 250
0.0427756 -0.311887 -0.26181 63 97 250
0.192009 -0.301441 -0.22073 63 97 250
0.154577 -0.288466 -0.228338 63 97 250
0.011579 -0.384437 0.0658243 63 97 250
0.0426939 -0.435246 -0.273319 63 97 250
0.195324 -0.311914 -0.204701 63 97 250
-0.05546 -0.455812 0.237925 63 97 250
0.112575 -0.323116 -0.119307 63 97 250
-0.076523 -0.409371 0.103517 63 97 250
0.103616 -0.296051 -0.202556 63 97 250
0.15108 -0.284424 -0.237303 63 97 250
0.209104 -0.335172 -0.178541 63 97 250
-0.120932 -0.386488 -0.144641 63 97 250
-0.181921 -0.456447 -0.0825682 63 97 250
0.0730585 -0.313749 -0.126376 63 97 250
0.039211 -0.309313 -0.260857 63 97 250
0.00232291 -0.288213 -0.244378 63 97 250
-0.255643 -0.464196 0.285282 63 97 250
0.217991 -0.318212 -0.211292 63 97 250
0.229199 -0.364759 -0.0689436 63 97 250
0.129979 -0.461192 0.283257 63 97 250
-0.285613 -0.488726 -0.0104947 63 97 250
-0.280174 -0.477176 0.240528 63 97 250
0.0118765 -0.474182 0.295841 63 97 250
-0.0537885 -0.318578 -0.190514 63 97 250
0.141379 -0.28531 -0.232736 63 97 250
0.150104 -0.304098 -0.189418 63 97 250
0.0300965 -0.34807 -0.0424791 63 97 250
-0.0446574 -0.301047 -0.236916 63 97 250
-0.122876 -0.451351 0.174028 63 97 250
0.149889 -0.290163 -0.223791 63 97 250
-0.142878 -0.455392 0.219905 63 97 250
0.12681 -0.283216 -0.235496 63 97 250
-0.167945 -0.462156 0.129111 63 97 250
0.115603 -0.299842 -0.198692 63 97 250
-0.000775628 -0.455944 0.364029 63 97 250
0.0928213 -0.299768 -0.185668 63 97 250
0.140521 -0.464167 0.209351 63 97 250
-0.03003 -0.372601 0.0284089 63 97 250
-0.0180539 -0.459011 -0.264644 63 97 250
-0.128719 -0.431714 -0.227521 63 97 250
0.0366973 -0.313816 -0.149158 63 97 250
0.359929 -0.451697 0.357558 63 97 250
-0.0833835 -0.343314 -0.159296 63 97 250
0.0534877 -0.284496 -0.239192 63 97 250
0.177298 -0.286091 -0.247147 63 97 250
0.105245 -0.366973 -0.280232 63 97 250
0.215264 -0.358094 -0.0881501 63 97 250
0.123637 -0.302617 -0.190262 63 97 250
-0.118725 -0.390828 -0.236766 63 97 250
0.169605 -0.371785 -0.0496006 63 97 250
-0.227541 -0.468053 -0.127532 63 97 250
0.145166 -0.464157 0.349653 63 97 250
0.128793 -0.463282 0.392992 63 97 250
0.11665 -0.32671 -0.115429 63 97 250
0.103846 -0.302097 -0.178329 63 97 250
-0.0285695 -0.319378 -0.157145 63 97 250
0.167315 -0.298039 -0.213252 63 97 250
-0.0418478 -0.367404 -0.013605 63 97 250
0.177577 -0.300172 -0.213783 63 97 250
-0.0572218 -0.379469 0.00389177 63 97 250
0.167394 -0.320211 -0.179154 63 97 250
0.105661 -0.449695 0.146095 63 97 250
-0.354236 -0.411381 0.249517 63 97 250
0.0760914 -0.283248 -0.226422 63 97 250
-0.177831 -0.464119 0.146187 63 97 250
0.317314 -0.450822 0.446427 63 97 250
-0.00668222 -0.35034 -0.0379726 63 97 250
-0.207759 -0.47283 0.156507 63 97 250
-0.0420215 -0.301331 -0.223982 63 97 250
-0.0109444 -0.435976 -0.264953 63 97 250
0.0651958 -0.290039 -0.210545 63 97 250
-0.141218 -0.392561 -0.191633 63 97 250
-0.219511 -0.474162 -0.177429 63 97 250
-0.0808694 -0.340815 -0.167361 63 97 250
-0.0044867 -0.303502 -0.198577 63 97 250
-0.0307456 -0.32394 -0.121649 63 97 250
0.00547264 -0.357044 -0.00787633 63 97 250
-0.0462104 -0.443811 0.18093 63 97 250
0.110211 -0.335445 -0.098308 63 97 250
0.0995833 -0.283588 -0.231675 63 97 250
0.0815992 -0.311319 -0.134447 63 97 250
-0.0769156 -0.341028 -0.152855 63 97 250
0.0841982 -0.284539 -0.224876 63 97 250
0.0047435 -0.450086 -0.267548 63 97 250
-0.050505 -0.328257 -0.161676 63 97 250
-0.05152 -0.398905 0.130628 63 97 250
-0.0950973 -0.362683 -0.126966 63 97 250
0.0896615 -0.473062 0.248068 63 97 250
-0.12637 -0.409827 -0.114777 63 97 250
0.0406304 -0.368638 -0.268186 63 97 250
-0.021198 -0.311857 -0.246364 63 97 250
0.125357 -0.304523 -0.172634 63 97 250
-0.131308 -0.354432 -0.225806 63 97 250
-0.113116 -0.409335 -0.0760749 63 97 250
0.137662 -0.341701 -0.101648 63 97 250
0.0924246 -0.356539 -0.0413828 63 97 250
0.194399 -0.316618 -0.197374 63 97 250
-0.0895412 -0.34082 -0.180575 63 97 250
0.00541128 -0.315095 -0.254345 63 97 250
0.0638657 -0.305147 -0.263461 63 97 250
0.152091 -0.281085 -0.245529 63 97 250
0.0407999 -0.330512 -0.0897317 63 97 250
0.016785 -0.305415 -0.183008 63 97 250
-0.344511 -0.495126 0.142296 63 97 250
-0.0897768 -0.338385 -0.185196 63 97 250
0.0294235 -0.318217 -0.131413 63 97 250
5.19864e-05 -0.311686 -0.164816 63 97 250
0.211674 -0.31698 -0.209656 63 97 250
0.0454613 -0.305422 -0.261032 63 97 250
-0.0324412 -0.305644 -0.208565 63 97 250
-0.0240562 -0.388716 0.105911 63 97 250
0.149661 -0.302072 -0.198958 63 97 250
0.0276701 -0.475122 0.301172 63 97 250
0.395122 -0.283715 0.0350215 31 142 243
0.390501 -0.383 0.0267872 31 142 243
0.128451 -0.506565 0.060704 31 142 243
0.391307 -0.212101 0.0999794 31 142 243
0.16798 -0.459405 0.395671 31 142 243
0.356129 -0.459201 0.443797 31 142 243
0.390901 -0.30587 0.356512 31 142 243
0.369031 -0.502495 0.237021 31 142 243
0.307887 -0.453197 -0.106805 31 142 243
0.33443 -0.49657 0.258377 31 142 243
0.223073 -0.459003 0.363298 31 142 243
0.00898687 -0.504499 0.227598 31 142 243
0.407912 -0.270641 0.330996 31 142 243
0.37348 -0.113953 0.082532 31 142 243
0.38787 -0.171338 0.271958 31 142 243
0.385867 -0.141019 0.149756 31 142 243
0.373946 -0.364952 -0.177509 31 142 243
0.383081 -0.297527 -0.0106398 31 142 243
0.216366 -0.452395 -0.0101375 31 142 243
0.391735 -0.229043 0.252006 31 142 243
0.387376 -0.15269 0.219334 31 142 243
0.213993 -0.452287 0.461624 31 142 243
0.386641 -0.0908625 0.27818 31 142 243
0.380714 -0.488929 0.0319135 31 142 243
0.342848 -0.453966 0.386242 31 142 243
0.379643 -0.193424 0.16554 31 142 243
0.076687 -0.451051 0.179784 31 142 243
0.128256 -0.490426 0.39181 31 142 243
0.391778 -0.3315 0.0622181 31 142 243
0.375704 -0.0840226 0.0865582 31 142 243
0.235641 -0.458858 0.364181 31 142 243
0.393879 -0.400556 0.126766 31 142 243
0.373535 -0.185542 0.0337366 31 142 243
-0.095424 -0.477218 0.441218 31 142 243
-0.0106232 -0.49504 0.352601 31 142 243
0.343349 -0.493984 0.0690445 31 142 243
0.114949 -0.457137 -0.0716303 31 142 243
0.378462 -0.026064 0.139062 31 142 243
0.380376 -0.0880288 0.200211 31 142 243
-0.0876097 -0.462174 0.358629 31 142 243
0.407813 -0.417266 0.248604 31 142 243
-0.0313376 -0.468474 0.429326 31 142 243
-0.0136891 -0.50823 0.0634789 31 142 243
0.400442 -0.372324 0.35958 31 142 243
0.0141791 -0.502955 0.266397 31 142 243
0.388424 -0.323438 0.403232 31 142 243
0.0806403 -0.501387 0.290472 31 142 243
0.395267 -0.388671 0.259636 31 142 243
0.390016 -0.507043 0.137771 31 142 243
0.387792 -0.420936 0.140305 31 142 243
0.381316 -0.510854 0.0324836 31 142 243
0.320223 -0.449421 -0.0416837 31 142 243
0.318817 -0.447671 0.0327806 31 142 243
0.0909336 -0.500541 0.302668 31 142 243
0.241348 -0.451751 -0.0161393 31 142 243
0.391864 -0.498272 0.236978 31 142 243
0.297557 -0.457067 0.412191 31 142 243
-0.102771 -0.504191 0.232375 31 142 243
4.96798e-05 -0.470413 0.462487 31 142 243
0.377473 -0.0274606 0.0117759 31 142 243
0.37563 -0.216021 0.0341262 31 142 243
0.126829 -0.456359 -0.0484818 31 142 243
0.345728 -0.494805 0.111939 31 142 243
0.385801 -0.27874 0.0884328 31 142 243
0.198107 -0.46098 0.422036 31 142 243
0.410637 -0.31087 0.313306 31 142 243
0.352343 -0.494513 0.162324 31 142 243
-0.201383 -0.470484 0.421801 31 142 243
0.378803 -0.0207348 0.0715292 31 142 243
0.248145 -0.500567 0.0645232 31 142 243
0.370062 -0.376043 -0.223137 31 142 243
0.110733 -0.462587 0.415314 31 142 243
0.376414 -0.0603955 0.179378 31 142 243
0.391448 -0.213402 0.272975 31 142 243
0.339746 -0.453797 0.30295 31 142 243
0.38426 -0.455567 0.347116 31 142 243
0.355792 -0.455761 0.444363 31 142 243
0.342781 -0.494122 0.0723144 31 142 243
0.380517 -0.106001 0.0713223 31 142 243
0.100997 -0.484411 0.461597 31 142 243
0.296918 -0.446482 0.15384 31 142 243
0.388111 -0.347045 -0.00227557 31 142 243
0.0819188 -0.461804 0.376153 31 142 243
0.298279 -0.497048 0.318839 31 142 243
0.379214 -0.482066 0.421823 31 142 243
0.127907 -0.505089 0.208562 31 142 243
0.144587 -0.506145 0.0778731 31 142 243
0.383688 -0.451605 0.2809 31 142 243
0.379905 -0.0571272 0.260911 31 142 243
0.36903 -0.499561 0.301662 31 142 243
0.381505 -0.201849 0.177485 31 142 243
0.386802 -0.175038 0.349632 31 142 243
0.0579526 -0.506782 0.14367 31 142 243
0.378743 -0.0216722 0.0573746 31 142 243
0.377382 -0.444303 0.137058 31 142 243
0.396655 -0.453329 0.326689 31 142 243
0.368559 -0.187605 -0.0936113 31 142 243
0.281873 -0.447537 0.170693 31 142 243
0.403082 -0.342374 0.230279 31 142 243
0.256145 -0.45725 0.341393 31 142 243
0.381024 -0.400041 -0.109004 31 142 243
0.379805 -0.466164 -0.100223 31 142 243
0.407395 -0.361532 0.344312 31 142 243
-0.110917 -0.462683 0.398645 31 142 243
0.319158 -0.498425 0.199521 31 142 243
0.165473 -0.461185 0.406765 31 142 243
0.387658 -0.497918 0.0054361 31 142 243
0.380101 -0.412973 -0.12296 31 142 243
0.380624 -0.516433 0.201539 31 142 243
0.234164 -0.4588 0.3626 31 142 243
0.324247 -0.495503 0.327129 31 142 243
0.389579 -0.342669 0.0139472 31 142 243
0.302845 -0.448646 0.0131154 31 142 243
-0.310335 -0.478862 0.433796 31 142 243
-0.143909 -0.46492 0.415586 31 142 243
0.00799239 -0.465844 0.427487 31 142 243
0.375937 -0.222118 0.030136 31 142 243
0.371446 -0.489439 0.132289 31 142 243
-0.00259288 -0.500141 0.309306 31 142 243
0.275006 -0.474926 0.454581 31 142 243
0.226871 -0.44614 0.437986 31 142 243
-0.352998 -0.47792 0.42903 31 142 243
0.245904 -0.456821 0.414321 31 142 243
0.39259 -0.312403 0.241377 31 142 243
-0.324127 -0.478335 0.432384 31 142 243
0.382485 -0.4459 0.427069 31 142 243
0.410276 -0.335697 0.296143 31 142 243
0.179256 -0.504992 0.141549 31 142 243
0.397643 -0.451123 0.28598 31 142 243
0.393741 -0.249947 0.379032 31 142 243
0.152035 -0.454306 0.271134 31 142 243
0.402759 -0.339575 0.229834 31 142 243
0.276329 -0.450232 -0.013108 31 142 243
0.385841 -0.223004 0.342745 31 142 243
0.296685 -0.457249 0.365571 31 142 243
0.385332 -0.480026 0.0319152 31 142 243
0.370946 -0.451191 0.262537 31 142 243
0.297137 -0.44716 0.0809642 31 142 243
0.381124 -0.287817 -0.016207 31 142 243
0.378849 -0.0419799 0.0522586 31 142 243
0.378521 -0.0239939 0.165346 31 142 243
0.390002 -0.207341 0.303682 31 142 243
0.152007 -0.458829 0.464258 31 142 243
0.37212 -0.490928 0.0477146 31 142 243
0.377093 -0.017782 0.185639 31 142 243
0.373162 -0.217148 -0.0580871 31 142 243
0.351366 -0.474023 0.444857 31 142 243
0.37912 -0.393757 -0.133121 31 142 243
0.392883 -0.453486 0.326015 31 142 243
0.376108 -0.0541962 0.170252 31 142 243
0.390933 -0.384794 -0.0520238 31 142 243
0.389233 -0.310735 0.377417 31 142 243
0.00541042 -0.507088 0.142734 31 142 243
0.0868484 -0.504486 0.233087 31 142 243
0.1498 -0.505617 0.0134345 31 142 243
0.390591 -0.222858 0.163191 31 142 243
0.362636 -0.487729 0.211337 31 142 243
0.37419 -0.202762 0.0229204 31 142 243
0.167586 -0.45533 -0.0427135 31 142 243
0.37999 -0.484342 0.074102 31 142 243
-0.0244762 -0.500545 0.302569 31 142 243
0.37558 -0.446035 0.161002 31 142 243
0.372494 -0.287948 -0.157142 31 142 243
0.376167 -0.20999 0.0757897 31 142 243
0.386173 -0.205955 0.199248 31 142 243
0.391167 -0.507654 0.0816563 31 142 243
0.410505 -0.362871 0.289287 31 142 243
0.373453 -0.344994 -0.167032 31 142 243
0.373276 -0.489308 0.144911 31 142 243
-0.0644627 -0.465121 0.420884 31 142 243
0.377282 -0.0207662 0.195999 31 142 243
0.386503 -0.144804 0.195613 31 142 243
0.366472 -0.416781 0.0276054 31 142 243
0.0756525 -0.4581 -0.0233831 31 142 243
0.382611 -0.101428 0.236026 31 142 243
0.407904 -0.412402 0.259173 31 142 243
0.123678 -0.460081 0.40014 31 142 243
0.380654 -0.146385 0.185715 31 142 243
-0.0285081 -0.477892 0.460164 31 142 243
0.373404 -0.107345 -0.0108369 31 142 243
0.380343 -0.453147 0.310594 31 142 243
0.37639 -0.496167 0.387314 31 142 243
0.380065 -0.0695328 0.221534 31 142 243
-0.198599 -0.46338 0.406506 31 142 243
0.20669 -0.448007 0.163216 31 142 243
0.386366 -0.469242 -0.0262604 31 142 243
0.39914 -0.314768 0.217804 31 142 243
-0.00991244 -0.489651 0.382288 31 142 243
0.373504 -0.392896 -0.197459 31 142 243
-0.0807176 -0.488928 0.449825 31 142 243
-0.0677567 -0.501962 0.282475 31 142 243
0.391037 -0.247126 0.268799 31 142 243
0.391086 -0.316902 0.0513864 31 142 243
0.00895052 -0.508451 0.022936 31 142 243
0.080208 -0.464217 0.427264 31 142 243
0.186608 -0.45254 0.0128381 31 142 243
0.160152 -0.453096 0.253529 31 142 243
-0.0975436 -0.463543 0.38308 31 142 243
0.366883 -0.407174 0.438155 31 142 243
0.0844406 -0.486502 0.411292 31 142 243
0.0703311 -0.456334 0.289168 31 142 243
0.393118 -0.348475 0.104653 31 142 243
0.39771 -0.460366 0.229784 31 142 243
0.377715 -0.0554638 -0.00187315 31 142 243
0.37985 -0.508157 0.121949 31 142 243
0.0976452 -0.457728 -0.05556 31 142 243
0.1601 -0.505571 0.0579478 31 142 243
0.114892 -0.487948 0.405065 31 142 243
0.120804 -0.485045 0.421743 31 142 243
0.385527 -0.338983 -0.0204271 31 142 243
-0.113459 -0.486988 0.448517 31 142 243
-0.194312 -0.462551 0.404336 31 142 243
0.378308 -0.0161102 0.154278 31 142 243
0.396849 -0.401489 0.246632 31 142 243
0.384459 -0.139945 0.222381 31 142 243
0.386907 -0.27753 0.37694 31 142 243
-0.108022 -0.505467 0.19751 31 142 243
0.392949 -0.330076 0.0956425 31 142 243
0.390598 -0.410417 0.13091 31 142 243
0.212387 -0.485276 0.428674 31 142 243
0.377504 -0.0749034 0.148608 31 142 243
0.331974 -0.483694 0.446034 31 142 243
0.174096 -0.505093 0.0724973 31 142 243
0.382263 -0.0705806 0.239362 31 142 243
0.309031 -0.449475 0.211588 31 142 243
0.376747 -0.510721 -0.0437314 31 142 243
0.393923 -0.430625 0.131648 31 142 243
0.368714 -0.490361 0.288054 31 142 243
0.38576 -0.513384 0.0412015 31 142 243
0.390417 -0.280017 0.211688 31 142 243
0.377813 -0.0225953 0.201828 31 142 243
0.381136 -0.0640353 0.266255 31 142 243
0.407127 -0.440685 0.332158 31 142 243
0.387279 -0.451804 0.287927 31 142 243
0.376451 -0.0461944 0.100358 31 142 243
0.382763 -0.432857 -0.0811284 31 142 243
-0.277689 -0.480756 0.434725 31 142 243
0.0954379 -0.452019 0.086433 31 142 243
0.0438078 -0.475655 0.445715 31 142 243
0.378054 -0.225201 0.105963 31 142 243
0.37564 -0.191027 0.125152 31 142 243
0.351266 -0.447078 0.0364245 31 142 243
0.390574 -0.23454 0.308286 31 142 243
0.0738003 -0.508219 -0.016335 31 142 243
0.378452 -0.0922618 0.158545 31 142 243
-0.151743 -0.493156 0.449718 31 142 243
0.247695 -0.502608 0.200362 31 142 243
0.377224 -0.08777 0.0943841 31 142 243
0.374551 -0.481947 0.0878975 31 142 243
0.328428 -0.488384 0.419876 31 142 243
0.26059 -0.4881 0.417283 31 142 243
0.315649 -0.447285 0.0620928 31 142 243
0.379596 -0.0268748 0.00833414 31 142 243
0.374463 -0.103981 0.095412 31 142 243
0.377478 -0.0891254 0.143285 31 142 243
-0.0461486 -0.509825 -0.0263601 31 142 243
0.388943 -0.512036 0.138472 31 142 243
0.228224 -0.449268 0.0608027 31 142 243
0.263791 -0.45366 -0.0887008 31 142 243
0.360412 -0.492056 0.361751 31 142 243
0.369073 -0.164176 -0.0607707 31 142 243
-0.117147 -0.477312 0.439793 31 142 243
0.182527 -0.455691 -0.0753477 31 142 243
0.383637 -0.502052 0.327953 31 142 243
0.379015 -0.0727391 0.171465 31 142 243
0.0733734 -0.480091 0.446353 31 142 243
0.375419 -0.48094 0.428776 31 142 243
-0.0443045 -0.48084 0.450408 31 142 243
0.167044 -0.455645 0.290451 31 142 243
0.411205 -0.353076 0.306076 31 142 243
0.374759 -0.192847 0.0610649 31 142 243
0.384381 -0.33922 -0.030932 31 142 243
0.388387 -0.321961 0.0162341 31 142 243
0.325042 -0.497843 0.211256 31 142 243
0.328974 -0.454761 0.31858 31 142 243
0.390936 -0.325946 0.361013 31 142 243
0.384401 -0.27134 0.135216 31 142 243
0.379645 -0.0337816 0.0127086 31 142 243
0.197773 -0.448152 0.110315 31 142 243
0.384725 -0.107221 0.313711 31 142 243
0.393939 -0.345819 0.263272 31 142 243
0.370903 -0.127288 -0.034001 31 142 243
0.378575 -0.0962384 0.158921 31 142 243
0.36195 -0.44208 0.0597112 31 142 243
0.291768 -0.449223 0.00662458 31 142 243
0.353541 -0.492251 0.243004 31 142 243
-0.242134 -0.462356 0.399107 31 142 243
-0.191392 -0.469573 0.421149 31 142 243
0.233388 -0.453271 -0.0351482 31 142 243
0.395039 -0.334887 0.38501 31 142 243
0.380195 -0.401532 0.0232268 31 142 243
-0.0411748 -0.483834 0.452635 31 142 243
0.392571 -0.349647 0.174059 31 142 243
0.366145 -0.445674 0.146837 31 142 243
0.376801 -0.481106 0.424866 31 142 243
0.295154 -0.454149 0.297445 31 142 243
0.394164 -0.41591 0.304511 31 142 243
0.275481 -0.457939 0.369037 31 142 243
0.376203 -0.0363866 0.119989 31 142 243
0.273238 -0.500368 0.273547 31 142 243
0.211334 -0.497698 0.33095 31 142 243
0.0193966 -0.50097 0.297118 31 142 243
0.377664 -0.0907307 0.146619 31 142 243
0.383701 -0.340326 -0.037302 31 142 243
-0.243232 -0.474064 0.423716 31 142 243
0.394356 -0.351034 0.384759 31 142 243
0.0120218 -0.461451 0.403434 31 142 243
0.392066 -0.492015 0.0990955 31 142 243
-0.160974 -0.463786 0.377411 31 142 243
0.336458 -0.426872 0.4496 31 142 243
0.236431 -0.450327 0.0357711 31 142 243
0.329623 -0.447786 0.396908 31 142 243
0.371587 -0.439798 0.436088 31 142 243
0.329918 -0.424788 0.451881 31 142 243
0.127226 -0.50633 -0.00713542 31 142 243
0.390034 -0.19746 0.21424 31 142 243
0.230806 -0.449537 0.196293 31 142 243
0.386687 -0.28613 0.171409 31 142 243
0.390734 -0.212612 0.189587 31 142 243
0.392604 -0.332546 0.0897291 31 142 243
0.258039 -0.458262 0.379066 31 142 243
-0.0532397 -0.509222 0.007835 31 142 243
0.405757 -0.278527 0.338899 31 142 243
0.388976 -0.310746 0.383098 31 142 243
0.167661 -0.453629 -0.0104028 31 142 243
0.381554 -0.510581 0.0549046 31 142 243
0.0235369 -0.46051 -0.0124903 31 142 243
0.361919 -0.491728 0.200071 31 142 243
0.378412 -0.359606 -0.115981 31 142 243
0.383881 -0.261175 0.153693 31 142 243
0.379731 -0.100531 0.173829 31 142 243
0.262501 -0.453312 -0.0750006 31 142 243
-0.0818202 -0.47481 0.434975 31 142 243
0.0836972 -0.458246 -0.0542074 31 142 243
0.393414 -0.297855 0.187742 31 142 243
0.397247 -0.429986 0.262315 31 142 243
0.242382 -0.451072 0.0123512 31 142 243
0.401857 -0.429202 0.348292 31 142 243
0.269768 -0.450532 -0.00419893 31 142 243
0.244774 -0.451046 0.228627 31 142 243
0.0673388 -0.458754 -0.0353179 31 142 243
0.32359 -0.447684 0.0242887 31 142 243
0.380782 -0.0969126 0.208328 31 142 243
0.393291 -0.265477 0.0639591 31 142 243
0.324829 -0.496041 0.309992 31 142 243
0.233386 -0.458745 0.417278 31 142 243
0.392435 -0.326817 0.0861852 31 142 243
0.409815 -0.338303 0.281335 31 142 243
0.385942 -0.128047 0.112032 31 142 243
0.263784 -0.481923 0.442205 31 142 243
0.347227 -0.495211 0.249667 31 142 243
0.373711 -0.480154 0.0992348 31 142 243
0.386195 -0.15456 0.324719 31 142 243
0.115512 -0.460106 0.355664 31 142 243
0.397334 -0.258963 -0.0158165 31 142 243
0.372186 -0.123567 0.056859 31 142 243
0.366893 -0.485372 0.433727 31 142 243
0.376122 -0.0435697 0.149765 31 142 243
0.37878 -0.0255791 0.0818104 31 142 243
0.33679 -0.471336 0.448174 31 142 243
0.380783 -0.0736472 0.166687 31 142 243
0.240637 -0.500479 0.0381565 31 142 243
0.39515 -0.363652 0.205279 31 142 243
