ply
format ascii 1.0
comment Created by Open3D
element vertex 1155
property double x
property double y
property double z
property uchar red
property uchar green
property uchar blue
end_header
0.352422 -0.449741 -0.0005654 96 250 196
-0.143583 -0.486951 0.405948 96 250 196
-0.412628 -0.467393 0.0108321 96 250 196
-0.474188 -0.321474 0.00391954 96 250 196
0.219731 -0.487245 0.0793284 96 250 196
0.193829 -0.487344 0.145385 96 250 196
-0.101764 -0.487319 0.0613161 96 250 196
-0.101737 -0.345271 0.000261871 96 250 196
-0.232329 -0.486462 0.425298 96 250 196
-0.408275 -0.486116 0.378042 96 250 196
0.0160281 -0.487365 0.176954 96 250 196
-0.0511616 -0.476249 0.00553992 96 250 196
-0.297642 -0.486827 0.0530257 96 250 196
0.244116 -0.176247 0.024066 96 250 196
0.0388857 -0.486746 0.385857 96 250 196
0.0946527 -0.486979 0.357946 96 250 196
0.0204815 -0.487398 0.214456 96 250 196
-0.277199 -0.340866 0.00372746 96 250 196
-0.15606 -0.487208 0.0234678 96 250 196
0.195324 -0.355138 0.000861067 96 250 196
-0.374062 -0.486545 0.069645 96 250 196
-0.40252 -0.363007 0.00597259 96 250 196
-0.313183 -0.497288 0.203123 96 250 196
0.083466 -0.487483 0.288913 96 250 196
0.169555 -0.487349 0.237947 96 250 196
-0.311521 -0.157762 0.0231781 96 250 196
-0.308899 -0.486775 0.0353046 96 250 196
0.326569 -0.478863 0.00349881 96 250 196
0.185913 -0.487377 0.163878 96 250 196
0.175105 -0.487414 0.112243 96 250 196
-0.11619 -0.487298 0.219181 96 250 196
-0.483495 -0.270906 0.00846576 96 250 196
-0.445395 -0.263957 0.0138206 96 250 196
0.0419127 -0.487413 0.303061 96 250 196
0.155465 -0.158575 0.0234442 96 250 196
0.270414 -0.321838 0.00321896 96 250 196
-0.447664 -0.48606 0.071042 96 250 196
-0.342586 -0.486749 0.134609 96 250 196
-0.114591 -0.487316 0.280532 96 250 196
0.113256 -0.43164 0.00555455 96 250 196
-0.174419 -0.203672 0.0162892 96 250 196
0.218633 -0.481528 0.0151851 96 250 196
-0.0135236 -0.487843 0.374351 128 254 179
0.165499 -0.488912 0.336692 128 254 179
-0.0290813 -0.487595 0.273276 128 254 179
-0.181776 -0.487895 0.365244 128 254 179
0.351439 -0.485426 -0.00559844 128 254 179
-0.0242001 -0.487493 0.224922 128 254 179
-0.284344 -0.485518 0.187084 128 254 179
-0.088294 -0.487144 0.185626 128 254 179
-0.0352401 -0.48712 0.102143 128 254 179
-0.0936668 -0.48572 0.0873523 128 254 179
0.206034 -0.489144 0.311221 128 254 179
0.076681 -0.488494 0.280977 128 254 179
-0.0592631 -0.487499 0.276209 128 254 179
0.29769 -0.48851 0.0728734 128 254 179
0.294927 -0.487386 0.00591371 128 254 179
0.330993 -0.486221 -0.00667947 128 254 179
-0.338804 -0.483988 0.188174 128 254 179
0.203656 -0.49023 0.257324 128 254 179
0.147378 -0.489053 0.335275 128 254 179
-0.244554 -0.48764 0.323175 128 254 179
-0.283123 -0.487679 0.372391 128 254 179
0.170141 -0.486945 0.0144237 128 254 179
-0.0584617 -0.487735 0.35533 128 254 179
-0.198869 -0.487898 0.380759 128 254 179
-0.324352 -0.478228 0.117736 128 254 179
-0.316321 -0.480581 0.137206 128 254 179
-0.185397 -0.487146 0.21616 128 254 179
0.161907 -0.490163 0.188962 128 254 179
0.213881 -0.490093 0.113891 128 254 179
0.202434 -0.486808 0.00481397 128 254 179
-0.313799 -0.478195 0.114163 128 254 179
-0.193542 -0.483033 0.117118 128 254 179
0.0318688 -0.487928 0.227358 128 254 179
0.161899 -0.48942 0.147152 128 254 179
-0.341777 -0.487195 0.366496 128 254 179
-0.0507628 -0.487722 0.346959 128 254 179
-0.0394272 -0.487727 0.332096 128 254 179
-0.0624476 -0.475983 0.0377255 128 254 179
0.0108499 -0.48291 0.049605 128 254 179
-0.274858 -0.485463 0.170684 128 254 179
-0.050148 -0.487591 0.288561 128 254 179
-0.168942 -0.487977 0.402427 128 254 179
0.219914 -0.489964 0.102083 128 254 179
0.00608786 -0.487823 0.283062 128 254 179
-0.0308478 -0.487729 0.353827 128 254 179
-0.362006 -0.462543 0.0442316 128 254 179
0.346003 -0.475325 0.0406858 128 254 179
-0.293147 -0.4874 0.321812 128 254 179
-0.130061 -0.487814 0.365304 128 254 179
0.329668 -0.486329 -0.00194145 128 254 179
-0.0311212 -0.484557 0.0714312 128 254 179
0.204811 -0.488714 0.0612637 128 254 179
-0.370988 -0.475173 0.106197 128 254 179
-0.201366 -0.487475 0.280015 128 254 179
0.0551379 -0.487893 0.104906 128 254 179
-0.0328773 -0.487369 0.171644 128 254 179
0.0587021 -0.482618 0.0338357 128 254 179
-0.291437 -0.485889 0.196169 128 254 179
0.166656 -0.490904 0.237907 128 254 179
-0.206261 -0.487779 0.334711 128 254 179
0.327878 -0.486121 -0.0123745 128 254 179
0.00779608 -0.487925 0.309754 128 254 179
-0.125881 -0.486988 0.16405 128 254 179
0.111334 -0.486975 0.031317 128 254 179
0.370703 -0.467443 0.0143508 128 254 179
-0.330631 -0.48744 0.386802 128 254 179
-0.281194 -0.487854 0.402953 128 254 179
0.199628 -0.489934 0.276092 128 254 179
0.16837 -0.487545 0.0313004 128 254 179
0.0166458 -0.487979 0.30843 128 254 179
-0.0327745 -0.487595 0.278566 128 254 179
0.0149966 -0.487993 0.356311 128 254 179
0.274673 -0.489077 0.116571 128 254 179
0.178345 -0.4891 0.322933 128 254 179
0.249785 -0.489819 0.0774697 128 254 179
0.178628 -0.490925 0.230018 128 254 179
-0.241067 -0.487782 0.355902 128 254 179
-0.175815 -0.487402 0.252102 128 254 179
0.207386 -0.490698 0.178169 128 254 179
0.252638 -0.490201 0.113985 128 254 179
0.232034 -0.489876 0.228175 128 254 179
0.0616856 -0.488461 0.320709 128 254 179
-0.0632449 -0.487732 0.33986 128 254 179
-0.343648 -0.468569 0.0714799 128 254 179
-0.306624 -0.487374 0.330155 128 254 179
-0.109104 -0.487778 0.359051 128 254 179
0.215659 -0.48813 0.0304547 128 254 179
-0.333155 -0.486426 0.217679 128 254 179
-0.0426467 -0.487513 0.269798 128 254 179
0.119169 -0.489069 0.208145 128 254 179
-0.0367436 -0.487502 0.26032 128 254 179
0.249494 -0.490092 0.135452 128 254 179
0.0919318 -0.489083 0.356087 128 254 179
0.216372 -0.490204 0.241962 128 254 179
0.336265 -0.486093 -0.00161052 128 254 179
0.219696 -0.489626 0.280371 128 254 179
-0.017847 -0.48751 0.215757 128 254 179
0.344688 -0.485733 -0.00323566 128 254 179
0.0943412 -0.48825 0.183229 128 254 179
0.278988 -0.48673 -0.0116145 128 254 179
-0.156101 -0.487859 0.364289 128 254 179
0.154372 -0.48987 0.299522 128 254 179
-0.0562681 -0.482694 0.0707381 128 254 179
-0.0458389 -0.487804 0.383755 128 254 179
-0.0600687 -0.487763 0.319836 128 254 179
-0.253797 -0.482172 0.12967 128 254 179
-0.032524 -0.487671 0.292202 128 254 179
0.177639 -0.489118 0.322576 128 254 179
-0.0799497 -0.487751 0.346009 128 254 179
-0.121094 -0.487691 0.300012 128 254 179
0.02489 -0.487811 0.149299 128 254 179
0.0781101 -0.488149 0.172248 128 254 179
0.22468 -0.489267 0.0696163 128 254 179
-0.00573431 -0.488195 0.383085 128 254 179
-0.0964871 -0.482449 0.0832302 128 254 179
0.194289 -0.490527 0.16081 128 254 179
0.146181 -0.488945 0.34348 128 254 179
0.204975 -0.490016 0.267226 128 254 179
0.0746218 -0.488542 0.302673 128 254 179
-0.238234 -0.486907 0.210367 128 254 179
-0.235766 -0.485529 0.167858 128 254 179
-0.123121 -0.487803 0.353079 128 254 179
0.110532 -0.489424 0.305982 128 254 179
0.222032 -0.490253 0.217953 128 254 179
0.0789576 -0.488625 0.303621 128 254 179
0.128308 -0.488951 0.356113 128 254 179
0.290047 -0.488477 0.0458057 128 254 179
0.285971 -0.487657 0.0106603 128 254 179
0.093614 -0.488275 0.166697 128 254 179
-0.360624 -0.469681 0.0806447 128 254 179
0.0339975 -0.488001 0.279691 128 254 179
0.211945 -0.489836 0.272988 128 254 179
0.0485444 -0.488206 0.313045 128 254 179
0.0758721 -0.488473 0.279165 128 254 179
0.167583 -0.489313 0.31707 128 254 179
0.197355 -0.490743 0.22161 128 254 179
-0.00248441 -0.487694 0.242827 128 254 179
-0.269585 -0.487467 0.309676 128 254 179
0.0886984 -0.487385 0.0566544 128 254 179
0.230858 -0.489449 0.0710926 128 254 179
0.0387489 -0.488074 0.310163 128 254 179
-0.101158 -0.487179 0.202774 128 254 179
0.0617747 -0.488384 0.311623 128 254 179
0.0287822 -0.488405 0.368331 128 254 179
-0.0121125 -0.487512 0.162025 128 254 179
0.195882 -0.489294 0.0896112 128 254 179
0.149747 -0.488399 0.0836274 128 254 179
-0.242865 -0.487899 0.385733 128 254 179
-0.203792 -0.487089 0.208887 128 254 179
-0.116809 -0.473995 0.0442212 128 254 179
-0.211849 -0.482732 0.120647 128 254 179
0.183736 -0.487413 0.0219492 128 254 179
0.223484 -0.489686 0.274797 128 254 179
0.145502 -0.490389 0.252376 128 254 179
-0.278444 -0.487718 0.3632 128 254 179
0.020519 -0.488011 0.332564 128 254 179
0.178463 -0.490358 0.268964 128 254 179
0.359575 -0.46645 0.0456987 128 254 179
-0.30868 -0.486941 0.275994 128 254 179
-0.121494 -0.487805 0.349183 128 254 179
-0.130448 -0.487729 0.310801 128 254 179
0.164662 -0.490362 0.272681 128 254 179
-0.0183061 -0.487816 0.37397 128 254 179
0.234969 -0.489519 0.276781 128 254 179
0.172092 -0.48809 0.0503918 128 254 179
-0.112017 -0.487328 0.25424 128 254 179
-0.237426 -0.478437 0.0926377 128 254 179
-0.106477 -0.47409 0.0415237 128 254 179
0.0171805 -0.487824 0.227939 128 254 179
-0.282299 -0.487043 0.269295 128 254 179
-0.114658 -0.487897 0.393833 128 254 179
-0.196019 -0.487899 0.375094 128 254 179
0.333779 -0.482283 0.0252899 128 254 179
-0.138197 -0.487581 0.279032 128 254 179
-0.255164 -0.484728 0.151147 128 254 179
-0.322685 -0.486999 0.290898 128 254 179
-0.0115346 -0.479634 0.0416557 128 254 179
0.345148 -0.480576 0.0136246 128 254 179
-0.0783765 -0.487132 0.13731 128 254 179
-0.28539 -0.487634 0.348663 128 254 179
0.154592 -0.488386 0.0802737 128 254 179
0.208803 -0.489024 0.0720424 128 254 179
-0.148871 -0.487551 0.275619 128 254 179
0.0508222 -0.488132 0.285874 128 254 179
0.341062 -0.485857 -0.00538937 128 254 179
-0.280522 -0.487633 0.344624 128 254 179
0.0871897 -0.488451 0.225076 128 254 179
-0.0144836 -0.487902 0.378077 128 254 179
-0.0298044 -0.487945 0.38816 128 254 179
-0.0331762 -0.487431 0.225143 128 254 179
-0.178436 -0.487894 0.364311 128 254 179
-0.200609 -0.487201 0.222511 128 254 179
0.0301534 -0.487786 0.1103 128 254 179
-0.0200573 -0.487489 0.213892 128 254 179
-0.0125022 -0.487701 0.280516 128 254 179
-0.300114 -0.483665 0.159856 128 254 179
-0.0775535 -0.487721 0.303421 128 254 179
-0.261687 -0.487767 0.366096 128 254 179
0.0770356 -0.484041 0.0325747 128 254 179
-0.199226 -0.487473 0.277146 128 254 179
-0.0364694 -0.487413 0.225206 128 254 179
0.257425 -0.487749 0.00953224 128 254 179
0.183721 -0.490466 0.171092 128 254 179
0.136619 -0.489634 0.21091 128 254 179
0.430848 -0.414122 0.00937417 128 254 179
0.379815 -0.468262 0.00377892 128 254 179
0.385362 -0.464746 0.00218842 128 254 179
0.357126 -0.485147 -0.00916852 128 254 179
0.062756 -0.487494 0.0773 128 254 179
0.269204 -0.488581 0.0415932 128 254 179
0.179771 -0.490925 0.228924 128 254 179
-0.134138 -0.487825 0.352326 128 254 179
0.108074 -0.489346 0.307469 128 254 179
0.408478 -0.435721 0.0132087 128 254 179
0.282279 -0.488669 0.0431255 128 254 179
0.336165 -0.478974 0.0373284 128 254 179
-0.039386 -0.487485 0.259466 128 254 179
0.232111 -0.489779 0.249376 128 254 179
0.0626462 -0.488003 0.198426 128 254 179
0.375081 -0.474233 0.000135548 128 254 179
0.134136 -0.488801 0.364385 128 254 179
0.132246 -0.485729 0.0146062 128 254 179
0.0809629 -0.488644 0.294485 128 254 179
0.13323 -0.489162 0.191851 128 254 179
0.221527 -0.490274 0.214657 128 254 179
-0.268061 -0.487821 0.386336 128 254 179
0.17307 -0.488803 0.346466 128 254 179
-0.201492 -0.48786 0.354571 128 254 179
0.022687 -0.485518 0.0430449 128 254 179
0.2437 -0.490374 0.11658 128 254 179
0.0743841 -0.488373 0.240237 128 254 179
0.335396 -0.482562 0.022006 128 254 179
-0.225065 -0.487384 0.276331 128 254 179
0.210983 -0.489474 0.292889 128 254 179
0.16543 -0.489636 0.154717 128 254 179
-0.349382 -0.487212 0.376959 128 254 179
-0.23554 -0.48748 0.295174 128 254 179
-0.0692961 -0.487201 0.177657 128 254 179
0.0951649 -0.488992 0.296924 128 254 179
-0.332136 -0.487267 0.362388 128 254 179
-0.224536 -0.487227 0.248169 128 254 179
0.0603737 -0.488564 0.342966 128 254 179
0.236838 -0.490426 0.123309 128 254 179
0.0309943 -0.488011 0.287162 128 254 179
-0.0380269 -0.487303 0.184062 128 254 179
0.0146674 -0.487653 0.200615 128 254 179
0.287273 -0.486761 -0.00988398 128 254 179
0.232792 -0.490151 0.10446 128 254 179
-0.0214013 -0.487518 0.226565 128 254 179
0.150744 -0.49034 0.219714 128 254 179
0.175244 -0.489411 0.124703 128 254 179
0.214931 -0.48965 0.0910872 128 254 179
-0.09845 -0.487793 0.381507 128 254 179
0.117185 -0.488573 0.178616 128 254 179
-0.0855365 -0.487768 0.374217 128 254 179
0.15163 -0.489056 0.143636 128 254 179
0.11504 -0.489122 0.336194 128 254 179
-0.110646 -0.485202 0.102797 128 254 179
0.217419 -0.49042 0.133781 128 254 179
-0.104005 -0.486881 0.13683 128 254 179
-0.0449701 -0.487243 0.193573 128 254 179
0.345916 -0.485706 -0.00121989 128 254 179
0.0859977 -0.488796 0.309636 128 254 179
-0.168357 -0.483127 0.109503 128 254 179
-0.248528 -0.485394 0.150889 128 254 179
0.248887 -0.489334 0.203803 128 254 179
0.0868512 -0.488225 0.137718 128 254 179
-0.0350879 -0.486473 0.0786693 128 254 179
0.24162 -0.490377 0.123488 128 254 179
-0.132551 -0.487676 0.297386 128 254 179
0.185543 -0.490778 0.188925 128 254 179
0.04168 -0.487878 0.181942 128 254 179
0.289273 -0.488658 0.0544043 128 254 179
0.13044 -0.489104 0.33623 128 254 179
0.0931665 -0.489049 0.27916 128 254 179
-0.098056 -0.486882 0.130916 128 254 179
0.0729273 -0.488422 0.283306 128 254 179
0.250701 -0.489902 0.0817413 128 254 179
-0.104052 -0.487211 0.208172 128 254 179
0.269835 -0.487813 0.0114794 128 254 179
-0.145528 -0.487726 0.310177 128 254 179
0.244026 -0.488202 0.0259554 128 254 179
-0.0245517 -0.487328 0.113858 128 254 179
-0.207683 -0.487892 0.372328 128 254 179
0.163319 -0.490835 0.217347 128 254 179
-0.028594 -0.48782 0.378911 128 254 179
0.262471 -0.489368 0.0621618 128 254 179
-0.3911 -0.467896 0.0793622 128 254 179
-0.156065 -0.487839 0.384362 128 254 179
0.0966564 -0.489126 0.288459 128 254 179
-0.22934 -0.487728 0.335699 128 254 179
0.186192 -0.488868 0.332873 128 254 179
0.0419082 -0.488005 0.230679 128 254 179
-0.086876 -0.487148 0.184543 128 254 179
0.216519 -0.490616 0.164596 128 254 179
-0.089899 -0.485364 0.0893306 128 254 179
-0.0725989 -0.487768 0.376083 128 254 179
-0.0335642 -0.487425 0.22259 128 254 179
-0.0430406 -0.48754 0.276119 128 254 179
0.0158184 -0.487284 0.0809004 128 254 179
0.0513814 -0.488559 0.356305 128 254 179
0.181589 -0.491005 0.201768 128 254 179
-0.0190945 -0.487591 0.255603 128 254 179
-0.00874385 -0.487446 0.192018 128 254 179
-0.000208333 -0.487592 0.159896 128 254 179
0.116302 -0.489551 0.301867 128 254 179
0.13072 -0.487844 0.0606578 128 254 179
0.0635938 -0.488527 0.326147 128 254 179
0.228535 -0.486602 -0.00365174 128 254 179
0.102115 -0.488606 0.208991 128 254 179
-0.0710976 -0.487745 0.340448 128 254 179
0.142146 -0.488864 0.14771 128 254 179
0.278394 -0.486729 -0.0117129 128 254 179
-0.196142 -0.48724 0.229487 128 254 179
-0.300826 -0.485681 0.19384 128 254 179
-0.0985549 -0.487197 0.204809 128 254 179
-0.0876288 -0.487225 0.205788 128 254 179
0.125111 -0.489784 0.287811 128 254 179
0.140114 -0.490158 0.284026 128 254 179
0.0127549 -0.487953 0.310277 128 254 179
-0.0171197 -0.487279 0.105756 128 254 179
-0.131395 -0.487812 0.370089 128 254 179
-0.0869252 -0.487124 0.160869 128 254 179
-0.00178402 -0.487535 0.114641 128 254 179
0.0505346 -0.488555 0.35696 128 254 179
0.0108507 -0.487765 0.221916 128 254 179
-0.126367 -0.48765 0.288912 128 254 179
-0.115053 -0.48779 0.353466 128 254 179
-0.0674744 -0.48774 0.339071 128 254 179
-0.370915 -0.467635 0.0736302 128 254 179
-0.163603 -0.479792 0.0838232 128 254 179
-0.061517 -0.483657 0.0775055 128 254 179
0.0240832 -0.48611 0.0443703 128 254 179
-0.0838041 -0.487794 0.383231 128 254 179
-0.240084 -0.488012 0.404096 128 254 179
-0.169484 -0.487348 0.244934 128 254 179
-0.245358 -0.486964 0.215828 128 254 179
-0.0262766 -0.487358 0.197575 128 254 179
-0.098758 -0.485539 0.0899751 128 254 179
0.187543 -0.490953 0.210008 128 254 179
-0.0074639 -0.48712 0.0785072 128 254 179
-0.0110064 -0.487782 0.294981 128 254 179
0.0680403 -0.488098 0.15084 128 254 179
0.263194 -0.489555 0.12337 128 254 179
0.148979 -0.488864 0.347184 128 254 179
-0.197247 -0.487452 0.264797 128 254 179
0.154747 -0.48762 0.0378822 128 254 179
0.0925534 -0.488932 0.2549 128 254 179
-0.274985 -0.487729 0.373416 128 254 179
-0.0251804 -0.487719 0.355338 128 254 179
-0.217454 -0.475176 0.0722358 128 254 179
-0.0164973 -0.481628 0.049813 128 254 179
-0.217968 -0.487319 0.257415 128 254 179
0.105386 -0.489304 0.299747 128 254 179
0.0289423 -0.487825 0.209679 128 254 179
0.314672 -0.487146 0.0217486 128 254 179
0.122711 -0.488499 0.120169 128 254 179
-0.065743 -0.487744 0.334655 128 254 179
0.00616439 -0.487621 0.114751 128 254 179
0.347604 -0.485639 -0.000996068 128 254 179
0.171962 -0.490005 0.288051 128 254 179
0.191207 -0.488514 0.0621616 128 254 179
-0.117008 -0.487805 0.382927 128 254 179
-0.347933 -0.487283 0.384406 128 254 179
0.263386 -0.488989 0.168307 128 254 179
0.135458 -0.489965 0.233825 128 254 179
0.163206 -0.490218 0.281323 128 254 179
0.131612 -0.489075 0.33967 128 254 179
0.0243175 -0.487919 0.266863 128 254 179
0.30074 -0.487762 0.0261662 128 254 179
0.0489529 -0.488339 0.332246 128 254 179
-0.159907 -0.485789 0.118975 128 254 179
0.261075 -0.489931 0.106583 128 254 179
-0.29582 -0.487729 0.39582 128 254 179
0.273202 -0.489379 0.0987453 128 254 179
0.0556041 -0.487299 0.0656833 128 254 179
-0.161439 -0.487424 0.257515 128 254 179
-0.067858 -0.487182 0.193334 128 254 179
0.228162 -0.489988 0.231315 128 254 179
0.0405112 -0.488086 0.309049 128 254 179
-0.248239 -0.48797 0.396461 128 254 179
-0.127677 -0.48789 0.392261 128 254 179
0.0212923 -0.48777 0.128236 128 254 179
-0.0649589 -0.487137 0.12116 128 254 179
-0.114981 -0.487036 0.171972 128 254 179
-0.251481 -0.485556 0.153797 128 254 179
0.103937 -0.488531 0.202666 128 254 179
0.0914591 -0.489033 0.338724 128 254 179
-0.140071 -0.473627 0.0491977 128 254 179
-0.108146 -0.487058 0.169538 128 254 179
0.165752 -0.488819 0.0919696 128 254 179
0.0845906 -0.488702 0.25205 128 254 179
-0.0248685 -0.487498 0.228399 128 254 179
0.0639134 -0.488508 0.322891 128 254 179
-0.159523 -0.486773 0.173515 128 254 179
-0.114519 -0.487788 0.355981 128 254 179
-0.0399829 -0.487273 0.194948 128 254 179
0.213315 -0.490467 0.140417 128 254 179
-0.318748 -0.486058 0.205756 128 254 179
-0.137383 -0.487534 0.27356 128 254 179
0.276095 -0.489221 0.0992748 128 254 179
-0.18029 -0.487436 0.256319 128 254 179
0.164779 -0.488862 0.0941771 128 254 179
-0.219045 -0.48787 0.368481 128 254 179
0.0572414 -0.488494 0.338516 128 254 179
-0.0509389 -0.487812 0.385245 128 254 179
0.167225 -0.490171 0.28281 128 254 179
0.2256 -0.48994 0.243083 128 254 179
-0.259191 -0.485452 0.179779 128 254 179
-0.304322 -0.479503 0.123028 128 254 179
0.090019 -0.488244 0.16942 128 254 179
0.260329 -0.490016 0.0897165 128 254 179
-0.252272 -0.486939 0.216341 128 254 179
0.303636 -0.4876 0.0211324 128 254 179
-0.104612 -0.487744 0.3148 128 254 179
-0.0531299 -0.487682 0.305765 128 254 179
0.172948 -0.489019 0.097378 128 254 179
0.224039 -0.489524 0.283764 128 254 179
-0.0287065 -0.486408 0.0732915 128 254 179
0.14944 -0.4905 0.259751 128 254 179
-0.0402997 -0.486826 0.0946546 128 254 179
-0.222849 -0.472827 0.0638749 128 254 179
0.359231 -0.4803 0.00206108 128 254 179
0.213545 -0.489367 0.29773 128 254 179
-0.0236652 -0.487819 0.317889 128 254 179
-0.27746 -0.487464 0.316717 128 254 179
0.212871 -0.490479 0.203979 128 254 179
0.020262 -0.488006 0.31848 128 254 179
0.152955 -0.489099 0.331136 128 254 179
-0.149963 -0.487667 0.295489 128 254 179
-0.0757502 -0.487746 0.353941 128 254 179
-0.123874 -0.487185 0.208511 128 254 179
0.183149 -0.487533 0.0250579 128 254 179
0.178307 -0.487138 0.0168061 128 254 179
-0.07909 -0.487615 0.288809 128 254 179
0.137551 -0.490083 0.239236 128 254 179
0.190145 -0.489025 0.32106 128 254 179
0.0286278 -0.488137 0.350295 128 254 179
0.0359715 -0.486877 0.0516145 128 254 179
-0.000778798 -0.48757 0.203379 128 254 179
-0.22217 -0.487144 0.228277 128 254 179
-0.0635268 -0.487242 0.203229 128 254 179
-0.207942 -0.487249 0.233296 128 254 179
-0.337999 -0.487316 0.37757 128 254 179
0.194105 -0.489923 0.131036 128 254 179
0.197424 -0.488848 0.3313 128 254 179
0.0209438 -0.488425 0.374302 128 254 179
0.394276 -0.4513 0.00897749 128 254 179
-0.257342 -0.487768 0.363525 128 254 179
0.298878 -0.488356 0.0572396 128 254 179
0.329581 -0.480721 0.0437476 128 254 179
0.302618 -0.487187 0.00397803 128 254 179
0.00558945 -0.487821 0.28344 128 254 179
0.13047 -0.488811 0.167947 128 254 179
-0.223738 -0.484298 0.138045 128 254 179
-0.0498255 -0.487798 0.384027 128 254 179
0.0863395 -0.488755 0.292864 128 254 179
-0.359525 -0.47755 0.122828 128 254 179
0.250585 -0.488221 0.0260076 128 254 179
-0.0414566 -0.486466 0.0824747 128 254 179
0.201835 -0.490483 0.149454 128 254 179
0.1736 -0.490898 0.2358 128 254 179
0.266211 -0.488725 0.0452641 128 254 179
-0.325865 -0.487374 0.372961 128 254 179
0.226284 -0.489945 0.240902 128 254 179
0.227249 -0.488215 0.029226 128 254 179
0.0243316 -0.485441 0.0462335 128 254 179
-0.394442 -0.469568 0.088002 128 254 179
0.202142 -0.488544 0.0548149 128 254 179
-0.22605 -0.488057 0.407024 128 254 179
0.0349673 -0.488001 0.277587 128 254 179
0.103597 -0.489329 0.275474 128 254 179
0.194618 -0.49027 0.262674 128 254 179
0.0174778 -0.488468 0.377802 128 254 179
0.0665922 -0.488111 0.133336 128 254 179
-0.241906 -0.481928 0.124027 128 254 179
0.175594 -0.490518 0.261189 128 254 179
-0.199976 -0.487898 0.385681 128 254 179
-0.148417 -0.487674 0.29664 128 254 179
0.193976 -0.48788 0.028204 128 254 179
0.0113085 -0.487657 0.179197 128 254 179
0.267011 -0.488491 0.0381109 128 254 179
-0.205587 -0.487574 0.296453 128 254 179
-0.123575 -0.487593 0.279623 128 254 179
-0.169265 -0.480899 0.0942899 128 254 179
-0.317527 -0.486857 0.272415 128 254 179
0.100376 -0.48918 0.257824 128 254 179
0.0937331 -0.489089 0.346513 128 254 179
0.213571 -0.490494 0.190896 128 254 179
0.229215 -0.490384 0.162724 128 254 179
0.224468 -0.490253 0.115326 128 254 179
0.159216 -0.486901 0.0161735 128 254 179
-0.247237 -0.487066 0.234035 128 254 179
-0.044293 -0.487447 0.256014 128 254 179
-0.200663 -0.48787 0.358544 128 254 179
-0.310733 -0.487642 0.396008 128 254 179
-0.155307 -0.485762 0.123094 128 254 179
0.313612 -0.486737 -0.0029005 128 254 179
-0.182687 -0.487535 0.277042 128 254 179
0.259403 -0.487702 0.00864583 128 254 179
-0.209519 -0.482227 0.116288 128 254 179
0.0169265 -0.487863 0.254355 128 254 179
0.272736 -0.488669 0.157044 128 254 179
-0.282407 -0.48769 0.378488 128 254 179
0.124597 -0.489693 0.239604 128 254 179
0.102872 -0.489308 0.271925 128 254 179
0.108168 -0.489326 0.319921 128 254 179
-0.0768804 -0.48757 0.285263 128 254 179
-0.0482132 -0.481044 0.0571284 128 254 179
0.114968 -0.487045 0.0333063 128 254 179
0.17309 -0.48633 0.00520417 128 254 179
-0.0475854 -0.487297 0.164415 128 254 179
-0.439013 -0.265147 0.0239358 160 249 161
-0.415589 -0.485314 0.0138362 160 249 161
-0.209402 -0.330561 0.0237932 160 249 161
-0.418839 -0.136322 0.0124548 160 249 161
-0.460565 -0.230695 0.0223183 160 249 161
-0.430569 -0.184645 0.0268585 160 249 161
-0.457839 -0.0886536 0.0275656 160 249 161
-0.470147 -0.449658 0.0125052 160 249 161
-0.414148 -0.10515 0.0284448 160 249 161
-0.334794 -0.385383 0.0185058 160 249 161
-0.423944 -0.0556644 0.0304369 160 249 161
-0.419289 -0.238094 0.0269862 160 249 161
-0.430291 -0.315591 -0.00197435 160 249 161
-0.402323 -0.161899 0.0261623 160 249 161
-0.465794 -0.364593 0.0130395 160 249 161
-0.0542642 -0.473934 0.0729201 160 249 161
-0.379469 -0.486618 0.0183731 160 249 161
-0.146123 -0.491124 0.115764 160 249 161
-0.0961898 -0.491586 0.094327 160 249 161
-0.45493 -0.0808795 0.0281357 160 249 161
-0.133301 -0.491233 0.14288 160 249 161
-0.228325 -0.490473 0.0909216 160 249 161
-0.423371 -0.491671 0.0953651 160 249 161
-0.393066 -0.489982 0.0739892 160 249 161
-0.466401 -0.337398 0.0150048 160 249 161
-0.34467 -0.318309 0.0192997 160 249 161
-0.446407 -0.396512 -0.00372085 160 249 161
-0.269724 -0.489846 0.021377 160 249 161
-0.414052 -0.357819 0.0258567 160 249 161
-0.438385 -0.156917 0.017507 160 249 161
-0.463635 -0.264758 0.0223618 160 249 161
-0.437226 -0.0235773 0.0314183 160 249 161
-0.375386 -0.234376 0.0228707 160 249 161
-0.240382 -0.445683 0.0303581 160 249 161
-0.456199 -0.271773 0.021805 160 249 161
-0.440711 -0.491328 0.0957466 160 249 161
-0.404751 -0.319214 -0.00103506 160 249 161
-0.315769 -0.400547 0.0177956 160 249 161
-0.322513 -0.189016 0.0222729 160 249 161
-0.153115 -0.405558 0.0433836 160 249 161
-0.2156 -0.0873083 0.0276203 160 249 161
-0.297655 -0.489101 0.0264076 160 249 161
-0.395713 -0.323646 -0.0023819 160 249 161
-0.447968 -0.0259861 0.0299629 160 249 161
-0.44167 -0.279664 0.0236281 160 249 161
-0.46076 -0.386496 0.0127313 160 249 161
-0.346889 -0.34927 0.0197273 160 249 161
-0.279842 -0.230822 0.0210321 160 249 161
-0.465819 -0.216276 0.0255163 160 249 161
-0.446981 -0.468038 0.0102664 160 249 161
-0.451888 -0.0476879 0.0292622 160 249 161
-0.282862 -0.300089 0.0185127 160 249 161
-0.467044 -0.403746 0.00897823 160 249 161
-0.384676 -0.310166 0.0230373 160 249 161
-0.271884 -0.490645 0.0255494 160 249 161
-0.0911918 -0.117849 0.025548 160 249 161
-0.466729 -0.0114855 0.0244506 160 249 161
-0.174521 -0.356428 0.0337492 160 249 161
-0.46562 -0.282872 0.0214242 160 249 161
-0.419079 -0.0624024 0.0298224 160 249 161
-0.384573 -0.23831 0.0240329 160 249 161
-0.327571 -0.219811 0.0208861 160 249 161
-0.444454 -0.301571 0.0231911 160 249 161
-0.325415 -0.199933 0.021842 160 249 161
-0.174854 -0.490704 0.0940482 160 249 161
-0.350621 -0.489237 0.218239 160 249 161
-0.0883747 -0.459201 0.0628698 160 249 161
-0.389674 -0.320484 0.0237542 160 249 161
-0.47077 -0.433175 0.00666569 160 249 161
-0.169282 -0.138357 0.0256709 160 249 161
-0.448835 -0.490669 0.161424 160 249 161
-0.40614 -0.156375 0.00753081 160 249 161
-0.457945 -0.459871 0.00853811 160 249 161
-0.409834 -0.0576753 0.02898 160 249 161
-0.44628 -0.30431 0.001192 160 249 161
-0.350192 -0.140867 0.0245765 160 249 161
-0.295159 -0.486924 0.145053 160 249 161
-0.444373 -0.249492 0.0232407 160 249 161
-0.258725 -0.024352 0.0280535 160 249 161
-0.337834 -0.418839 0.017554 160 249 161
-0.42298 -0.490405 0.0654093 160 249 161
-0.0598427 -0.488286 0.0853932 160 249 161
-0.121766 -0.446104 0.0533835 160 249 161
-0.455533 -0.236412 0.0207468 160 249 161
-0.332728 -0.419122 0.0177265 160 249 161
-0.457169 -0.219075 0.0229008 160 249 161
-0.378297 -0.26507 0.0232876 160 249 161
-0.392046 -0.345091 -0.00755755 160 249 161
-0.428885 -0.329283 0.0246993 160 249 161
-0.128906 -0.1825 0.023111 160 249 161
-0.437445 -0.299105 0.0241832 160 249 161
-0.3869 -0.141334 0.0251374 160 249 161
-0.462639 -0.435835 0.00872746 160 249 161
-0.431125 -0.278613 0.0247701 160 249 161
-0.378298 -0.192044 0.000899805 160 249 161
-0.286575 -0.37069 0.0194864 160 249 161
-0.160983 -0.489788 0.0715308 160 249 161
-0.205205 -0.288722 0.0201755 160 249 161
-0.418755 -0.312581 0.000506028 160 249 161
-0.158662 -0.491035 0.136297 160 249 161
-0.397056 -0.248955 -0.000921672 160 249 161
-0.437683 -0.194905 0.0174652 160 249 161
-0.451406 -0.27432 0.0146983 160 249 161
-0.421741 -0.348533 -0.0101899 160 249 161
-0.359407 -0.234214 0.021389 160 249 161
-0.141322 -0.480381 0.0675689 160 249 161
-0.420456 -0.194529 0.0276992 160 249 161
-0.463455 -0.418095 0.00917661 160 249 161
-0.449256 -0.0208538 0.0170348 160 249 161
-0.351402 -0.371744 0.0195331 160 249 161
-0.438613 -0.0716915 0.0304383 160 249 161
-0.224392 -0.433338 0.0331792 160 249 161
-0.180564 -0.423277 0.0429495 160 249 161
-0.378392 -0.101402 0.0256961 160 249 161
-0.467482 -0.333143 0.0185299 160 249 161
-0.271563 -0.388699 0.0227929 160 249 161
-0.460824 -0.10533 0.0268128 160 249 161
-0.399313 -0.160432 0.00591876 160 249 161
-0.232151 -0.328326 0.021274 160 249 161
-0.380703 -0.033863 0.0281213 160 249 161
-0.232821 -0.369167 0.0178311 160 249 161
-0.469153 -0.415439 0.00705294 160 249 161
-0.381379 -0.293798 -0.00554589 160 249 161
-0.468921 -0.450294 0.0175424 160 249 161
0.00872901 -0.471468 0.0775322 160 249 161
-0.434595 -0.0899295 0.0151795 160 249 161
-0.455047 -0.160832 0.0248277 160 249 161
-0.448377 -0.254058 0.0224527 160 249 161
-0.465592 -0.0878352 0.0217192 160 249 161
-0.434071 -0.203753 0.0262141 160 249 161
-0.298545 -0.385713 0.0186397 160 249 161
0.0365765 -0.482018 0.0897717 160 249 161
-0.410618 -0.206662 0.0269267 160 249 161
-0.365508 -0.102084 0.00851435 160 249 161
-0.350779 -0.157236 0.0238567 160 249 161
-0.444579 -0.490779 0.135515 160 249 161
-0.425075 -0.349892 -0.0107336 160 249 161
0.0812977 -0.47282 0.0870684 160 249 161
-0.337168 -0.337793 0.0191054 160 249 161
-0.393351 -0.150917 0.00612397 160 249 161
-0.365251 -0.282534 0.0212682 160 249 161
-0.400035 -0.182662 0.00397465 160 249 161
-0.431569 -0.305124 0.0247708 160 249 161
-0.453177 -0.491464 0.150092 160 249 161
-0.463382 -0.150207 0.0250278 160 249 161
-0.224408 -0.102557 0.0274769 160 249 161
-0.387675 -0.106539 0.0262259 160 249 161
-0.429929 -0.0448591 0.0310643 160 249 161
-0.365985 -0.326685 -0.00773067 160 249 161
-0.442221 -0.330178 0.023589 160 249 161
-0.44701 -0.283254 0.00927461 160 249 161
-0.372114 -0.489777 0.180491 160 249 161
-0.459605 -0.308966 0.0155743 160 249 161
-0.435587 -0.228492 0.0253746 160 249 161
-0.243013 -0.160655 0.0253699 160 249 161
-0.458734 -0.378841 0.0157094 160 249 161
-0.363899 -0.4625 0.0189266 160 249 161
-0.311258 -0.105735 0.0270855 160 249 161
-0.0769384 -0.491388 0.0883438 160 249 161
-0.349538 -0.258166 0.0201464 160 249 161
-0.390047 -0.276575 0.0245007 160 249 161
-0.374473 -0.144256 0.00539713 160 249 161
-0.393119 -0.290839 0.0245255 160 249 161
-0.439705 -0.0683765 0.0304157 160 249 161
-0.416816 -0.324101 -0.00311442 160 249 161
-0.469701 -0.315435 0.0209967 160 249 161
-0.419448 -0.0780692 0.0157136 160 249 161
-0.153683 -0.232464 0.0228201 160 249 161
-0.467784 -0.442237 0.0145692 160 249 161
-0.465641 -0.395082 0.0079866 160 249 161
-0.41747 -0.176128 0.0277981 160 249 161
-0.464867 -0.331728 0.0195921 160 249 161
-0.336469 -0.0434645 0.0287846 160 249 161
-0.4368 -0.290203 0.0241719 160 249 161
-0.462702 -0.192491 0.0234642 160 249 161
-0.466818 -0.325446 0.0197887 160 249 161
-0.460776 -0.488518 0.0992101 160 249 161
-0.386092 -0.313234 0.0232292 160 249 161
-0.454367 -0.218237 0.0210497 160 249 161
-0.400007 -0.324805 0.0252002 160 249 161
-0.45705 -0.490277 0.0409185 160 249 161
-0.436685 -0.490984 0.133527 160 249 161
-0.468252 -0.419433 0.0092837 160 249 161
-0.45199 -0.305629 0.00493451 160 249 161
-0.455734 -0.406419 0.0023435 160 249 161
-0.457519 -0.483739 0.0954387 160 249 161
-0.266224 -0.490424 0.0812544 160 249 161
-0.371767 -0.455119 0.0189673 160 249 161
-0.418831 -0.349936 0.0256559 160 249 161
-0.334136 -0.487928 0.138527 160 249 161
-0.329662 -0.330851 0.018816 160 249 161
-0.421372 -0.322338 -0.00300252 160 249 161
-0.162336 -0.122985 0.0260686 160 249 161
-0.383489 -0.443627 0.0205603 160 249 161
-0.458014 -0.0984648 0.0272122 160 249 161
-0.360181 -0.300484 -0.00845501 160 249 161
-0.401982 -0.275414 -0.00038605 160 249 161
-0.0742638 -0.466432 0.0675314 160 249 161
-0.432124 -0.484998 0.0115032 160 249 161
-0.465536 -0.483515 0.045103 160 249 161
-0.16469 -0.270629 0.0230561 160 249 161
-0.468539 -0.0900641 0.0269469 160 249 161
-0.355194 -0.368795 0.0200481 160 249 161
-0.103334 -0.152358 0.0243047 160 249 161
-0.349606 -0.0845667 0.0268977 160 249 161
-0.404547 -0.356492 0.0256339 160 249 161
-0.447143 -0.218268 0.0199291 160 249 161
-0.307044 -0.252429 0.0196359 160 249 161
-0.363631 -0.0784882 0.0267105 160 249 161
-0.39687 -0.229244 0.000362083 160 249 161
-0.266232 -0.395066 0.0135449 160 249 161
-0.423202 -0.13282 0.0287527 160 249 161
-0.426145 -0.197388 0.0114387 160 249 161
-0.359813 -0.127289 0.0247059 160 249 161
-0.307583 -0.486969 0.16143 160 249 161
-0.026558 -0.485341 0.0855024 160 249 161
-0.450195 -0.3224 0.0220896 160 249 161
-0.306624 -0.248139 0.0198727 160 249 161
-0.463858 -0.376257 0.0115104 160 249 161
-0.369428 -0.277946 0.0218354 160 249 161
-0.441643 -0.0427003 0.0153119 160 249 161
-0.416758 -0.205853 0.00765085 160 249 161
-0.413669 -0.108038 0.0283355 160 249 161
-0.423457 -0.214679 0.00933005 160 249 161
-0.438874 -0.381668 -0.00971483 160 249 161
-0.365681 -0.461713 0.0188889 160 249 161
-0.452803 -0.18159 0.0241029 160 249 161
-0.437532 -0.140459 0.0276499 160 249 161
-0.153143 -0.490967 0.130911 160 249 161
-0.470198 -0.430811 0.00589295 160 249 161
-0.454745 -0.490596 0.0693389 160 249 161
-0.0882111 -0.481835 0.0748659 160 249 161
-0.430361 -0.174318 0.0272182 160 249 161
-0.454246 -0.170986 0.0244132 160 249 161
-0.258359 -0.326534 0.0192156 160 249 161
-0.386831 -0.474388 0.0153188 160 249 161
-0.196317 -0.39174 0.0408733 160 249 161
-0.146753 -0.124894 0.0254856 160 249 161
-0.15735 -0.464911 0.0568774 160 249 161
-0.468031 -0.429113 0.0115741 160 249 161
-0.457733 -0.0480013 0.028481 160 249 161
-0.290739 -0.486909 0.144631 160 249 161
-0.172205 -0.348622 0.0243891 160 249 161
-0.446377 -0.211872 0.0239798 160 249 161
-0.386191 -0.490217 0.192762 160 249 161
-0.456773 -0.340674 0.0202522 160 249 161
-0.378083 -0.211165 0.023257 160 249 161
-0.406705 -0.0820842 0.0282944 160 249 161
-0.435579 -0.416755 0.020071 160 249 161
-0.268571 -0.30374 0.0185688 160 249 161
-0.448195 -0.117431 0.0277328 160 249 161
-0.447045 -0.137943 0.0268501 160 249 161
-0.444303 -0.0463233 0.0304415 160 249 161
-0.176213 -0.0432914 0.0270432 160 249 161
-0.360518 -0.414035 0.0193199 160 249 161
-0.316594 -0.172456 0.0231818 160 249 161
-0.365174 -0.11004 0.0254093 160 249 161
-0.377491 -0.0191657 0.0284142 160 249 161
-0.371073 -0.077782 0.0265897 160 249 161
-0.413419 -0.103938 0.0284114 160 249 161
-0.379511 -0.158499 0.0241144 160 249 161
-0.357217 -0.278203 0.020604 160 249 161
-0.44782 -0.0964911 0.0286793 160 249 161
-0.459041 -0.321006 0.0115131 160 249 161
-0.362115 -0.425352 0.0197584 160 249 161
-0.351234 -0.488438 0.136953 160 249 161
-0.455162 -0.40239 0.00123521 160 249 161
-0.471275 -0.0495219 0.0261865 160 249 161
-0.451839 -0.371123 -0.00349838 160 249 161
-0.317218 -0.398169 0.0177825 160 249 161
-0.444212 -0.190203 0.0248977 160 249 161
-0.303516 -0.0803717 0.028211 160 249 161
-0.383277 -0.314394 -0.00512115 160 249 161
-0.203123 -0.428853 0.0421463 160 249 161
-0.278721 -0.44339 0.0203466 160 249 161
-0.465412 -0.139679 0.0254776 160 249 161
-0.366721 -0.0778206 0.0266753 160 249 161
-0.177734 -0.465668 0.0524104 160 249 161
-0.0588109 -0.461262 0.0669469 160 249 161
-0.338852 -0.0276157 0.0291497 160 249 161
-0.314629 -0.062387 0.0287195 160 249 161
0.155171 -0.481852 0.106186 160 249 161
-0.372083 -0.471997 0.017391 160 249 161
-0.404523 -0.490121 0.196172 160 249 161
-0.46463 -0.163541 0.0222189 160 249 161
-0.468654 -0.104344 0.0231593 160 249 161
-0.333357 -0.0746088 0.0279778 160 249 161
-0.314954 -0.487463 0.126557 160 249 161
-0.468264 -0.14761 0.0249576 160 249 161
-0.443663 -0.0501999 0.0304977 160 249 161
-0.217056 -0.0516533 0.0276202 160 249 161
-0.362985 -0.262803 0.0211838 160 249 161
-0.41774 -0.433979 0.0201434 160 249 161
-0.461356 -0.167825 0.0241475 160 249 161
-0.465421 -0.259111 0.0240429 160 249 161
-0.465013 -0.385836 0.00908845 160 249 161
-0.434354 -0.432643 0.0245089 160 249 161
-0.393342 -0.489858 0.0664787 160 249 161
-0.382563 -0.490188 0.19271 160 249 161
-0.469051 -0.293565 0.0220188 160 249 161
-0.44779 -0.327451 0.0225826 160 249 161
-0.243254 -0.0253328 0.027734 160 249 161
-0.452046 -0.490857 0.0810884 160 249 161
-0.389396 -0.140611 0.02535 160 249 161
-0.189953 -0.436855 0.0431891 160 249 161
-0.321395 -0.357069 0.0186793 160 249 161
-0.301618 -0.24487 0.0201151 160 249 161
-0.218525 -0.168999 0.0252026 160 249 161
-0.184037 -0.442037 0.0424653 160 249 161
-0.439337 -0.296392 0.00445303 160 249 161
-0.405661 -0.383142 -0.0115495 160 249 161
-0.466449 -0.369108 0.0111512 160 249 161
-0.424329 -0.135402 0.0288007 160 249 161
-0.17896 -0.490816 0.13286 160 249 161
-0.315249 -0.374635 0.0188789 160 249 161
-0.223828 -0.175499 0.0247067 160 249 161
-0.455317 -0.307363 0.021165 160 249 161
-0.393301 -0.0721658 0.0276216 160 249 161
-0.357215 -0.489641 0.223146 160 249 161
-0.297613 -0.176828 0.0231381 160 249 161
-0.468694 -0.416316 0.00841842 160 249 161
-0.20673 -0.306558 0.0211924 160 249 161
-0.356544 -0.243857 0.0208814 160 249 161
-0.413033 -0.212049 0.027214 160 249 161
-0.402596 -0.482246 0.0127404 160 249 161
-0.0967112 -0.040159 0.027396 160 249 161
-0.24467 -0.278371 0.0195909 160 249 161
-0.43967 -0.0885414 0.0296319 160 249 161
-0.413141 -0.201397 0.0270929 160 249 161
-0.39322 -0.101587 0.0111074 160 249 161
-0.135235 -0.27241 0.0262923 160 249 161
-0.0246651 -0.49051 0.0939675 160 249 161
-0.410164 -0.48928 0.238634 160 249 161
-0.295337 -0.491253 0.0964919 160 249 161
-0.351665 -0.48917 0.211272 160 249 161
-0.458174 -0.0185275 0.0195263 160 249 161
-0.310421 -0.0478596 0.0290854 160 249 161
-0.0970486 -0.491731 0.105515 160 249 161
-0.150297 -0.112685 0.0261606 160 249 161
-0.312584 -0.481325 0.0239695 160 249 161
-0.229364 -0.446739 0.033747 160 249 161
-0.251361 -0.126679 0.026869 160 249 161
-0.390759 -0.34826 -0.00831001 160 249 161
-0.410328 -0.364231 -0.013074 160 249 161
-0.445779 -0.284104 0.00872878 160 249 161
-0.460432 -0.485543 0.0977512 160 249 161
-0.403491 -0.488716 0.0472173 160 249 161
-0.411964 -0.382119 0.0253312 160 249 161
-0.22259 -0.113125 0.0271906 160 249 161
-0.463972 -0.441753 0.00792338 160 249 161
-0.378272 -0.428077 0.0218516 160 249 161
-0.217318 -0.463267 0.0420873 160 249 161
-0.0162947 -0.463175 0.0709545 160 249 161
-0.471315 -0.0689396 0.0268994 160 249 161
-0.443187 -0.0379619 0.0307176 160 249 161
-0.464317 -0.0540106 0.0278126 160 249 161
-0.283326 -0.142415 0.0253214 160 249 161
-0.401468 -0.419578 0.0239834 160 249 161
-0.127266 -0.0604633 0.0271697 160 249 161
-0.397989 -0.490186 0.101293 160 249 161
-0.43399 -0.236346 0.0253236 160 249 161
-0.435099 -0.135454 0.0279954 160 249 161
-0.299558 -0.297756 0.0183195 160 249 161
0.0422729 -0.478914 0.0872029 160 249 161
-0.383095 -0.46089 0.018133 160 249 161
-0.468377 -0.41204 0.00651894 160 249 161
-0.165706 -0.488594 0.0688531 160 249 161
-0.232556 -0.383547 0.0238438 160 249 161
-0.429106 -0.355992 0.0250097 160 249 161
-0.4119 -0.360557 -0.012316 160 249 161
-0.31384 -0.487978 0.108574 160 249 161
-0.453326 -0.39922 -0.000392642 160 249 161
-0.439895 -0.231437 0.0163921 160 249 161
-0.387827 -0.490335 0.144743 160 249 161
-0.462794 -0.400827 0.0101461 160 249 161
-0.250981 -0.467487 0.028734 160 249 161
-0.174825 -0.268964 0.0219275 160 249 161
-0.387799 -0.341727 -0.00686278 160 249 161
-0.406333 -0.303017 0.0264069 160 249 161
-0.462892 -0.362542 0.0155985 160 249 161
-0.466713 -0.0132775 0.0267465 160 249 161
-0.430064 -0.390227 -0.00644831 160 249 161
-0.360434 -0.408116 0.0191481 160 249 161
-0.458925 -0.0393107 0.0283684 160 249 161
-0.454667 -0.255258 0.0223531 160 249 161
-0.377994 -0.28401 0.0227257 160 249 161
-0.459576 -0.170839 0.0240414 160 249 161
-0.105991 -0.490909 0.0828288 160 249 161
-0.445076 -0.296929 0.0230942 160 249 161
-0.464484 -0.421213 0.0084018 160 249 161
-0.179789 -0.4908 0.109654 160 249 161
-0.453355 -0.156619 0.0252443 160 249 161
-0.349358 -0.170188 0.0232488 160 249 161
-0.363245 -0.38808 0.0204836 160 249 161
-0.190116 -0.0437565 0.0272701 160 249 161
-0.409707 -0.48869 0.0571649 160 249 161
-0.46094 -0.420849 0.0104545 160 249 161
-0.461974 -0.243632 0.0224513 160 249 161
-0.461504 -0.265181 0.0219626 160 249 161
-0.373889 -0.474589 0.0168379 160 249 161
-0.445484 -0.124884 0.0276378 160 249 161
-0.156073 -0.236822 0.0227903 160 249 161
-0.252796 -0.113838 0.0273904 160 249 161
-0.464897 -0.108368 0.0211175 160 249 161
-0.383108 -0.0783745 0.0267255 160 249 161
-0.291233 -0.156835 0.0242748 160 249 161
-0.377426 -0.0999366 0.0257264 160 249 161
-0.19499 -0.410327 0.0431542 160 249 161
-0.443273 -0.302083 0.00182025 160 249 161
-0.425233 -0.0884235 0.0154216 160 249 161
-0.462777 -0.225141 0.0232402 160 249 161
-0.242157 -0.490257 0.0891878 160 249 161
-0.464626 -0.015741 0.0229644 160 249 161
-0.434251 -0.269111 0.0244404 160 249 161
-0.442745 -0.441117 0.0150302 160 249 161
-0.41398 -0.488147 0.0466777 160 249 161
-0.28962 -0.425873 0.0155952 160 249 161
-0.465142 -0.0798152 0.0216271 160 249 161
-0.398997 -0.489832 0.137554 160 249 161
-0.358233 -0.139597 0.00497355 160 249 161
-0.2973 -0.0342938 0.0288867 160 249 161
-0.460894 -0.115746 0.0264371 160 249 161
-0.283286 -0.327378 0.0180435 160 249 161
-0.148037 -0.20066 0.0229354 160 249 161
-0.250513 -0.483838 0.0254446 160 249 161
-0.416111 -0.290105 0.00206693 160 249 161
-0.362446 -0.0875777 0.00969712 160 249 161
-0.243124 -0.446792 0.0297931 160 249 161
-0.109063 -0.0706134 0.0268837 160 249 161
-0.17338 -0.34855 0.0237539 160 249 161
-0.343654 -0.234295 0.0203144 160 249 161
-0.272889 -0.489928 0.0205559 160 249 161
-0.417654 -0.159035 0.01035 160 249 161
-0.134598 -0.491256 0.130077 160 249 161
-0.464142 -0.336985 0.0193646 160 249 161
-0.437342 -0.242672 0.013999 160 249 161
-0.46701 -0.188482 0.0239102 160 249 161
-0.446979 -0.0251993 0.0301321 160 249 161
-0.466456 -0.115548 0.0261776 160 249 161
-0.315068 -0.488157 0.101799 160 249 161
-0.463667 -0.300549 0.0207277 160 249 161
-0.327545 -0.482667 0.0275038 160 249 161
-0.116171 -0.22061 0.0244576 160 249 161
-0.190549 -0.433515 0.0433489 160 249 161
-0.100695 -0.0449869 0.0273801 160 249 161
-0.468549 -0.41891 0.00594971 160 249 161
-0.201061 -0.444287 0.0432004 160 249 161
-0.436087 -0.228697 0.0253075 160 249 161
-0.132212 -0.491263 0.139388 160 249 161
-0.150774 -0.490752 0.0759252 160 249 161
-0.468346 -0.442954 0.0146275 160 249 161
-0.441643 -0.48421 0.125214 160 249 161
-0.159641 -0.176929 0.023779 160 249 161
-0.375416 -0.277756 0.0225334 160 249 161
-0.442504 -0.220575 0.0191195 160 249 161
-0.29621 -0.246569 0.020095 160 249 161
-0.322504 -0.100983 0.0271189 160 249 161
-0.418156 -0.295573 0.0260601 160 249 161
-0.404055 -0.15872 0.0068383 160 249 161
-0.224722 -0.172118 0.0249072 160 249 161
-0.423606 -0.378337 0.0249334 160 249 161
-0.449484 -0.490996 0.0322219 160 249 161
-0.408972 -0.107145 0.0279701 160 249 161
-0.27604 -0.14548 0.0253418 160 249 161
-0.136217 -0.333519 0.0275163 160 249 161
-0.383015 -0.378777 0.0230027 160 249 161
-0.399996 -0.169783 0.0256884 160 249 161
-0.457548 -0.489517 0.114761 160 249 161
-0.456361 -0.268039 0.0219947 160 249 161
-0.372472 -0.133374 0.024419 160 249 161
-0.341487 -0.1611 0.0237842 160 249 161
-0.0471094 -0.484778 0.0824112 160 249 161
-0.42039 -0.0180223 0.0301605 160 249 161
-0.38444 -0.412023 0.02191 160 249 161
-0.4329 -0.15412 0.027368 160 249 161
-0.429156 -0.126475 0.0287981 160 249 161
-0.436352 -0.286431 0.0242047 160 249 161
-0.36943 -0.0862576 0.02628 160 249 161
-0.211564 -0.0795073 0.0276719 160 249 161
-0.21653 -0.15212 0.0259643 160 249 161
-0.356441 -0.261577 0.0206476 160 249 161
-0.397594 -0.148393 0.0260204 160 249 161
-0.187127 -0.391161 0.0427482 160 249 161
-0.345265 -0.488444 0.109249 160 249 161
-0.465302 -0.26416 0.0233394 160 249 161
-0.124103 -0.153087 0.0241675 160 249 161
-0.195407 -0.219022 0.0232257 160 249 161
-0.207624 -0.163055 0.0253138 160 249 161
-0.437957 -0.48592 0.0109491 160 249 161
-0.445578 -0.491433 0.0551383 160 249 161
-0.195101 -0.182737 0.0243884 160 249 161
-0.315407 -0.0588332 0.0287972 160 249 161
-0.425366 -0.123255 0.0157321 160 249 161
-0.360911 -0.156161 0.0235557 160 249 161
-0.318478 -0.487236 0.177421 160 249 161
-0.41673 -0.24309 0.00527567 160 249 161
-0.321074 -0.384033 0.018837 160 249 161
-0.43818 -0.160219 0.0268596 160 249 161
-0.462965 -0.228418 0.0232687 160 249 161
-0.341801 -0.202028 0.0215904 160 249 161
-0.469838 -0.135286 0.0253068 160 249 161
-0.213984 -0.285949 0.0198526 160 249 161
-0.201925 -0.415854 0.0412514 160 249 161
-0.415752 -0.486726 0.0164628 160 249 161
-0.463798 -0.228793 0.0239075 160 249 161
-0.216885 -0.340062 0.0236457 160 249 161
-0.360174 -0.145665 0.0239388 160 249 161
-0.291915 -0.128467 0.0261149 160 249 161
-0.467373 -0.479959 0.0156502 160 249 161
-0.0765695 -0.464216 0.0663948 160 249 161
-0.36161 -0.250728 0.0210912 160 249 161
-0.468222 -0.0985599 0.0229957 160 249 161
0.398584 -0.189287 0.0136147 192 234 140
-0.181326 -0.178413 0.0024736 192 234 140
0.467466 -0.378388 0.010985 192 234 140
-0.181386 -0.303623 0.00234412 192 234 140
0.478304 -0.308926 0.010227 192 234 140
-0.297548 -0.454897 0.00314754 192 234 140
-0.0562238 -0.257457 0.00199096 192 234 140
0.247413 -0.374724 0.00683156 192 234 140
0.439876 -0.39126 0.0111916 192 234 140
0.412927 -0.261686 0.0104053 192 234 140
0.465045 -0.227133 0.0114197 192 234 140
0.106577 -0.238138 0.00776715 192 234 140
0.254367 -0.170085 0.00783352 192 234 140
0.392901 -0.147054 0.0147789 192 234 140
0.425173 -0.360124 0.0104297 192 234 140
0.426164 -0.255898 0.0104451 192 234 140
-0.288507 -0.264844 0.00339772 192 234 140
-0.258906 -0.15918 0.00192094 192 234 140
0.188043 -0.281292 0.00862807 192 234 140
-0.25833 -0.323312 0.00230772 192 234 140
-0.102966 -0.400214 0.0023406 192 234 140
-0.00995054 -0.442706 0.00608619 192 234 140
0.377076 -0.321835 0.00881365 192 234 140
-0.0837981 -0.375488 0.00152586 192 234 140
0.0185425 -0.195945 0.00819081 192 234 140
0.455513 -0.338787 0.0100037 192 234 140
-0.161696 -0.307885 0.00191264 192 234 140
0.106489 -0.215883 0.00766519 192 234 140
0.320651 -0.224703 0.00896227 192 234 140
0.445047 -0.266122 0.0101824 192 234 140
-0.0124517 -0.276296 0.005959 192 234 140
0.25432 -0.24025 0.009041 192 234 140
0.234139 -0.244215 0.00885564 192 234 140
-0.0402205 -0.307842 0.00314875 192 234 140
-0.330365 -0.299571 0.00331471 192 234 140
0.266737 -0.20562 0.00862493 192 234 140
0.400937 -0.41781 0.0110451 192 234 140
0.226718 -0.261309 0.00875194 192 234 140
-0.127925 -0.145 0.00265288 192 234 140
0.00498038 -0.237481 0.00715904 192 234 140
-0.0277263 -0.242383 0.00470661 192 234 140
0.249203 -0.369981 0.00706506 192 234 140
0.350347 -0.176303 0.0116834 192 234 140
0.322275 -0.456092 0.0117907 192 234 140
0.420449 -0.173964 0.0149439 192 234 140
0.313231 -0.243789 0.00827519 192 234 140
0.187169 -0.331684 0.00881297 192 234 140
-0.213471 -0.177137 0.00252195 192 234 140
-0.0342766 -0.330418 0.00375627 192 234 140
0.434945 -0.165805 0.0149392 192 234 140
0.336332 -0.269301 0.00735521 192 234 140
0.124106 -0.372326 0.00717515 192 234 140
0.144167 -0.453171 0.00575181 192 234 140
-0.237015 -0.224894 0.0027652 192 234 140
0.215312 -0.46366 0.00840655 192 234 140
0.301711 -0.168801 0.00751987 192 234 140
0.352562 -0.385163 0.0071398 192 234 140
0.478778 -0.352149 0.0106786 192 234 140
-0.207744 -0.346507 0.00113113 192 234 140
-0.00201983 -0.336477 0.00659544 192 234 140
0.195695 -0.210127 0.0080737 192 234 140
0.0118976 -0.469379 0.00798454 192 234 140
0.385296 -0.422933 0.0105487 192 234 140
0.225769 -0.396794 0.0055526 192 234 140
-0.306065 -0.316761 0.0025589 192 234 140
0.204945 -0.270764 0.00861477 192 234 140
0.222959 -0.428317 0.00587055 192 234 140
0.402252 -0.232546 0.0120799 192 234 140
-0.0591412 -0.418968 0.00328151 192 234 140
0.184494 -0.344028 0.00867878 192 234 140
0.109151 -0.128848 0.00803252 192 234 140
0.156215 -0.258525 0.00821666 192 234 140
0.1442 -0.391821 0.00594311 192 234 140
0.176759 -0.228388 0.00822372 192 234 140
0.474388 -0.356142 0.0107127 192 234 140
0.237962 -0.197629 0.00825605 192 234 140
0.427521 -0.166782 0.0151034 192 234 140
0.402645 -0.29157 0.00941282 192 234 140
0.337628 -0.160394 0.0103534 192 234 140
0.162829 -0.145645 0.00794953 192 234 140
0.457905 -0.278431 0.00948479 192 234 140
0.142726 -0.360109 0.00793544 192 234 140
-0.263019 -0.140509 0.00184968 192 234 140
0.404108 -0.358603 0.00985409 192 234 140
-0.0969976 -0.262926 0.000195872 192 234 140
-0.0114274 -0.225949 0.00605805 192 234 140
-0.0208021 -0.23854 0.00531225 192 234 140
-0.0917778 -0.12716 0.00323442 192 234 140
-0.222898 -0.424241 0.00332661 192 234 140
