ply
format ascii 1.0
comment Created by Open3D
element vertex 1195
property double x
property double y
property double z
property uchar red
property uchar green
property uchar blue
end_header
0.415331 -0.268305 -0.380312 31 142 243
-0.156772 -0.228744 -0.291938 31 142 243
0.204666 -0.492695 -0.254625 31 142 243
-0.155838 -0.266412 -0.250097 31 142 243
0.421376 -0.267239 -0.382647 31 142 243
0.0634376 -0.231978 -0.3859 31 142 243
0.19608 -0.488142 -0.302221 31 142 243
0.214504 -0.489841 -0.30471 31 142 243
-0.156737 -0.25499 -0.235678 31 142 243
0.329981 -0.276079 -0.370561 31 142 243
-0.137838 -0.419073 -0.208791 31 142 243
0.129313 -0.247962 -0.381135 31 142 243
-0.134558 -0.39404 -0.416407 0 180 235
0.199861 -0.434251 -0.314697 0 180 235
-0.114702 -0.423443 0.121166 0 180 235
-0.133873 -0.328545 -0.0572086 0 180 235
-0.131859 -0.340476 -0.168267 0 180 235
-0.0390156 -0.329182 -0.270436 0 180 235
-0.144449 -0.219939 0.0937445 0 180 235
-0.137566 -0.383082 -0.13346 0 180 235
0.0596765 -0.469993 0.0429253 0 180 235
-0.140318 -0.25984 0.0362193 0 180 235
-0.139918 -0.218251 -0.32678 0 180 235
-0.134564 -0.334837 0.0138228 0 180 235
-0.122067 -0.480383 -0.402545 0 180 235
-0.140334 -0.405149 -0.0734225 0 180 235
-0.122082 -0.37978 0.1666 0 180 235
-0.136399 -0.360408 -0.0625845 0 180 235
0.240584 -0.403179 -0.323047 0 180 235
-0.143 -0.207743 -0.370342 0 180 235
-0.142729 -0.27824 0.171522 0 180 235
-0.138207 -0.233005 -0.0317019 0 180 235
-0.135351 -0.218432 -0.218906 0 180 235
-0.130765 -0.271267 -0.258211 0 180 235
-0.121893 -0.412757 0.117254 0 180 235
0.0360103 -0.470018 -0.019015 0 180 235
0.105833 -0.355128 -0.229047 0 180 235
-0.136985 -0.31867 -0.402221 0 180 235
-0.123879 -0.279324 -0.346328 0 180 235
0.0638815 -0.358241 -0.299281 0 180 235
-0.138676 -0.293787 0.194188 0 180 235
-0.133513 -0.37018 -0.152574 0 180 235
-0.128761 -0.296098 -0.15784 0 180 235
-0.026805 -0.345772 -0.278703 0 180 235
-0.127387 -0.279209 -0.292105 0 180 235
-0.0865066 -0.322969 0.264372 0 180 235
0.0537806 -0.438785 -0.265232 0 180 235
-0.137554 -0.412473 -0.0472742 0 180 235
-0.0412441 -0.334683 -0.280217 0 180 235
-0.136728 -0.255233 -0.0431181 0 180 235
-0.129223 -0.431756 -0.0991586 0 180 235
0.112887 -0.401735 -0.293261 0 180 235
0.107614 -0.384673 -0.215321 0 180 235
-0.00663957 -0.329576 -0.332528 0 180 235
0.0558456 -0.352598 -0.209583 0 180 235
0.0291999 -0.417109 -0.333362 0 180 235
-0.134956 -0.354074 -0.0110339 0 180 235
0.0772979 -0.422845 -0.265108 0 180 235
-0.126424 -0.293769 -0.251975 0 180 235
0.0621206 -0.374093 -0.17094 0 180 235
-0.113077 -0.384018 0.203447 0 180 235
-0.0693804 -0.435638 -0.331972 0 180 235
0.189464 -0.415271 -0.129445 0 180 235
0.0953361 -0.402107 -0.358482 0 180 235
-0.00400426 -0.386854 -0.374999 0 180 235
-0.127696 -0.286675 -0.262981 0 180 235
-0.135685 -0.265368 -0.0377183 0 180 235
-0.00676025 -0.367059 -0.366693 0 180 235
-0.0288332 -0.347292 -0.249563 0 180 235
-0.0529798 -0.354171 -0.265892 0 180 235
-0.0120236 -0.36712 -0.274464 0 180 235
-0.0763946 -0.338477 -0.37413 0 180 235
-0.137226 -0.212096 -0.18562 0 180 235
-0.132837 -0.260871 -0.203861 0 180 235
0.00184 -0.461444 0.190008 0 180 235
0.0561515 -0.328831 -0.330228 0 180 235
-0.133684 -0.231389 -0.167868 0 180 235
0.234032 -0.348482 -0.312544 0 180 235
-0.0322668 -0.330463 -0.302767 0 180 235
-0.129867 -0.281578 -0.187088 0 180 235
-0.140402 -0.21837 -0.0329349 0 180 235
-0.134496 -0.308041 0.146462 0 180 235
-0.0452789 -0.333106 -0.305246 0 180 235
-0.146028 -0.266873 0.224559 0 180 235
-0.133604 -0.242026 -0.367061 0 180 235
-0.0760032 -0.453486 -0.160123 0 180 235
-0.107106 -0.308932 -0.269891 0 180 235
-0.135429 -0.323519 0.0577458 0 180 235
0.103532 -0.330566 -0.331934 0 180 235
0.140648 -0.333847 -0.266624 0 180 235
-0.0719877 -0.398913 -0.390974 0 180 235
-0.146381 -0.222248 0.132864 0 180 235
-0.126763 -0.280476 -0.299189 0 180 235
-0.130811 -0.276064 -0.217976 0 180 235
-0.115508 -0.375963 0.206302 0 180 235
-0.135055 -0.212642 -0.142595 0 180 235
-0.134441 -0.235917 -0.232752 0 180 235
-0.0143627 -0.462423 -0.187944 0 180 235
-0.146361 -0.25998 0.15518 0 180 235
-0.0200524 -0.470392 -0.172273 0 180 235
-0.133206 -0.306581 -0.080398 0 180 235
-0.146572 -0.204436 -0.305373 0 180 235
-0.107691 -0.408809 -0.405339 0 180 235
0.164487 -0.384595 -0.256452 0 180 235
-0.14193 -0.279323 0.097693 0 180 235
0.217859 -0.377578 -0.306503 0 180 235
-0.132133 -0.2341 -0.30155 0 180 235
0.0453068 -0.328827 -0.328194 0 180 235
-0.132494 -0.284833 -0.0837555 0 180 235
-0.132154 -0.263407 -0.255943 0 180 235
0.301219 -0.413722 -0.296334 0 180 235
0.0417019 -0.419694 -0.251772 0 180 235
-0.131983 -0.34645 0.140465 0 180 235
0.203463 -0.342704 -0.280044 0 180 235
-0.139639 -0.342226 -0.409797 0 180 235
-0.132125 -0.249708 -0.28573 0 180 235
0.0303855 -0.328133 -0.302157 0 180 235
-0.0906403 -0.424224 -0.176221 0 180 235
-0.138586 -0.22242 -0.340484 0 180 235
-0.129534 -0.285297 -0.187468 0 180 235
0.111122 -0.351589 -0.366772 0 180 235
0.235282 -0.376974 -0.320257 0 180 235
-0.148184 -0.257897 0.224811 0 180 235
-0.142335 -0.207193 -0.310233 0 180 235
-0.0620134 -0.393921 -0.224261 0 180 235
-0.14738 -0.211606 -0.188048 0 180 235
-0.0392808 -0.313252 -0.322987 0 180 235
0.0736968 -0.422421 -0.345132 0 180 235
-0.0878531 -0.376177 -0.391478 0 180 235
-0.134003 -0.235683 -0.193951 0 180 235
-0.130376 -0.277279 -0.169901 0 180 235
-0.0633486 -0.418703 -0.390907 0 180 235
-0.147767 -0.234297 0.147789 0 180 235
-0.1344 -0.235255 -0.234239 0 180 235
-0.141108 -0.209694 -0.246416 0 180 235
-0.130235 -0.296361 0.246185 0 180 235
-0.109124 -0.297396 -0.362539 0 180 235
-0.0162075 -0.32843 -0.344511 0 180 235
0.0588089 -0.436582 -0.0872876 0 180 235
-0.019164 -0.366629 -0.37179 0 180 235
-0.151264 -0.209186 -0.225325 0 180 235
-0.131181 -0.327284 -0.164343 0 180 235
-0.143645 -0.215682 0.0911921 0 180 235
-0.136934 -0.390065 0.0288256 0 180 235
-0.133136 -0.296021 -0.386157 0 180 235
-0.134668 -0.219905 -0.172217 0 180 235
-0.140627 -0.210397 -0.113977 0 180 235
-0.0772254 -0.461951 -0.0969978 0 180 235
-0.132637 -0.244682 -0.146894 0 180 235
0.0160086 -0.416779 -0.245247 0 180 235
-0.147141 -0.213608 -0.149809 0 180 235
-0.143369 -0.207177 -0.376014 0 180 235
-0.13735 -0.217456 -0.279586 0 180 235
-0.13887 -0.211495 -0.0841302 0 180 235
0.0911514 -0.327803 -0.300447 0 180 235
-0.0501646 -0.404012 -0.302431 0 180 235
-0.13425 -0.226509 -0.128519 0 180 235
0.101959 -0.330789 -0.340658 0 180 235
-0.136519 -0.396166 -0.0286614 0 180 235
-0.148808 -0.224116 0.168452 0 180 235
-0.133286 -0.257038 -0.191111 0 180 235
-0.126341 -0.395771 0.129921 0 180 235
-0.137363 -0.361444 -0.0907286 0 180 235
-0.135115 -0.294129 -0.403713 0 180 235
-0.132009 -0.257 -0.143441 0 180 235
-0.138304 -0.293512 0.201871 0 180 235
-0.139466 -0.213255 -0.268519 0 180 235
-0.136361 -0.303164 0.105471 0 180 235
-0.149372 -0.25121 0.206828 0 180 235
-0.135093 -0.301847 0.00603759 0 180 235
-0.0988185 -0.314602 -0.268388 0 180 235
0.110251 -0.379823 -0.259916 0 180 235
-0.097469 -0.438662 -0.158301 0 180 235
-0.0767955 -0.381379 -0.223419 0 180 235
-0.0731011 -0.454569 -0.382896 0 180 235
-0.138716 -0.266331 0.0211612 0 180 235
-0.145932 -0.227913 0.120824 0 180 235
-0.134605 -0.218001 -0.14374 0 180 235
-0.126095 -0.379471 -0.405959 0 180 235
-0.139126 -0.213766 -0.0352394 0 180 235
-0.13262 -0.231439 -0.291428 0 180 235
0.128181 -0.45559 -0.243212 0 180 235
0.122418 -0.328607 -0.36565 0 180 235
-0.140097 -0.384657 -0.097574 0 180 235
-0.0439774 -0.310849 -0.327911 0 180 235
-0.14389 -0.384551 -0.422739 0 180 235
-0.137658 -0.293282 0.206764 0 180 235
-0.00306096 -0.469905 -0.187001 0 180 235
0.16316 -0.3354 -0.274747 0 180 235
-0.140684 -0.301192 -0.425904 0 180 235
0.187837 -0.375728 -0.353739 0 180 235
-0.133676 -0.299453 -0.0334593 0 180 235
-0.130927 -0.270933 -0.150341 0 180 235
-0.13648 -0.355507 -0.135165 0 180 235
-0.135513 -0.423348 -0.0990123 0 180 235
-0.00780877 -0.461818 0.197432 0 180 235
-0.144885 -0.203618 -0.36118 0 180 235
-0.129054 -0.273779 -0.366183 0 180 235
-0.131338 -0.290841 -0.380769 0 180 235
0.0211447 -0.427782 -0.361553 0 180 235
0.298956 -0.408204 -0.284848 0 180 235
-0.132538 -0.298146 -0.0837848 0 180 235
-0.0589932 -0.414979 -0.311811 0 180 235
-0.0867248 -0.39816 0.227214 0 180 235
-0.146017 -0.215997 0.108411 0 180 235
-0.0568385 -0.340367 -0.26662 0 180 235
-0.134546 -0.32246 -0.0948387 0 180 235
-0.0732466 -0.304614 -0.345043 0 180 235
0.0283395 -0.470129 0.0317326 0 180 235
-0.133692 -0.318774 -0.0178028 0 180 235
-0.0665072 -0.30387 -0.32021 0 180 235
0.133191 -0.433038 -0.313813 0 180 235
-0.127784 -0.266155 -0.351019 0 180 235
-0.0188741 -0.328048 -0.297231 0 180 235
0.0781024 -0.377049 -0.221435 0 180 235
-0.150487 -0.220552 -0.0271601 0 180 235
0.172769 -0.327539 -0.339055 0 180 235
-0.143494 -0.215016 0.0789859 0 180 235
-0.135619 -0.308046 0.09404 0 180 235
-0.105338 -0.312578 -0.263775 0 180 235
-0.134012 -0.226958 -0.178207 0 180 235
-0.123302 -0.356815 0.200457 0 180 235
-0.138174 -0.258449 -0.00587491 0 180 235
-0.138162 -0.284064 0.0250287 0 180 235
0.228338 -0.437466 -0.291244 0 180 235
0.0943359 -0.360893 -0.313186 0 180 235
-0.0442013 -0.434217 -0.385204 0 180 235
0.0136685 -0.4703 -0.160126 0 180 235
0.0280062 -0.328089 -0.305914 0 180 235
-0.148864 -0.258274 0.241567 0 180 235
0.143412 -0.437653 -0.267677 0 180 235
-0.1424 -0.276594 0.139753 0 180 235
0.0469135 -0.422211 -0.0224782 0 180 235
-0.129661 -0.284502 -0.214073 0 180 235
-0.147871 -0.216833 -0.0866519 0 180 235
-0.120562 -0.361189 0.213551 0 180 235
-0.129351 -0.299572 -0.146915 0 180 235
-0.120769 -0.434814 0.0168105 0 180 235
-0.143699 -0.239077 0.0698292 0 180 235
-0.111004 -0.286861 -0.341696 0 180 235
-0.13078 -0.395659 -0.148009 0 180 235
-0.0997884 -0.389764 0.223717 0 180 235
0.00104037 -0.367833 -0.245651 0 180 235
-0.146535 -0.265121 0.206421 0 180 235
0.148074 -0.331118 -0.312777 0 180 235
-0.143444 -0.269188 0.25104 0 180 235
0.15685 -0.355404 -0.362598 0 180 235
-0.140535 -0.285855 0.208822 0 180 235
-0.0700739 -0.443722 -0.347496 0 180 235
-0.134859 -0.351394 -0.0138556 0 180 235
0.0236855 -0.420286 -0.348383 0 180 235
-0.143785 -0.271766 0.145713 0 180 235
-0.1185 -0.397828 -0.168599 0 180 235
-0.116227 -0.441658 -0.101508 0 180 235
-0.128366 -0.409698 0.101009 0 180 235
0.114195 -0.390039 -0.212315 0 180 235
0.113552 -0.457783 -0.251693 0 180 235
-0.133846 -0.26287 -0.0974895 0 180 235
-0.130343 -0.249064 -0.333572 0 180 235
-0.139574 -0.210111 -0.115279 0 180 235
0.0454882 -0.4188 -0.363099 0 180 235
-0.13165 -0.274524 -0.376496 0 180 235
-0.150457 -0.220464 0.065582 0 180 235
0.0201768 -0.465349 0.160477 0 180 235
-0.142298 -0.209127 -0.34722 0 180 235
-0.0790594 -0.414734 -0.396597 0 180 235
-0.14212 -0.209765 -0.368723 0 180 235
-0.138564 -0.213148 -0.254323 0 180 235
-0.137358 -0.229269 -0.361967 0 180 235
0.0275082 -0.393409 -0.266609 0 180 235
0.103489 -0.392563 -0.34956 0 180 235
0.155178 -0.427678 -0.04014 0 180 235
-0.142024 -0.210178 -0.166049 0 180 235
-0.135305 -0.422935 -0.0580085 0 180 235
-0.137005 -0.222665 -0.0520698 0 180 235
-0.124369 -0.295957 -0.263796 0 180 235
-0.124684 -0.356724 0.193798 0 180 235
0.07845 -0.373021 -0.378742 0 180 235
-0.135572 -0.331766 -0.105027 0 180 235
-0.134141 -0.277302 -0.397344 0 180 235
0.0885635 -0.37994 -0.247989 0 180 235
-0.13215 -0.265657 -0.246271 0 180 235
0.00524322 -0.468358 -0.0581432 0 180 235
0.268753 -0.392816 -0.307878 0 180 235
0.0668915 -0.468479 -0.188666 0 180 235
0.0122048 -0.469849 0.00631879 0 180 235
-0.103024 -0.461973 -0.392363 0 180 235
0.013796 -0.355492 -0.390387 0 180 235
-0.142065 -0.394823 -0.105531 0 180 235
-0.135758 -0.241236 -0.0850529 0 180 235
-0.0526296 -0.366352 -0.273949 0 180 235
-0.138656 -0.313456 -0.412784 0 180 235
0.150488 -0.398681 -0.237957 0 180 235
0.251478 -0.435129 -0.294567 0 180 235
-0.0995385 -0.378635 0.231259 0 180 235
-0.133611 -0.287746 0.249655 0 180 235
-0.137725 -0.227261 -0.398661 0 180 235
-0.00485814 -0.327236 -0.320577 0 180 235
0.0497607 -0.469148 -0.207513 0 180 235
-0.10307 -0.373827 -0.397191 0 180 235
0.0368858 -0.412352 -0.169749 0 180 235
0.0358202 -0.392327 -0.258026 0 180 235
-0.144779 -0.268858 0.177811 0 180 235
-0.132664 -0.262519 -0.228778 0 180 235
-0.12738 -0.434066 -0.0211079 0 180 235
-0.131585 -0.303069 0.213766 0 180 235
-0.144933 -0.212749 -0.149721 0 180 235
-0.0527596 -0.405811 -0.387943 0 180 235
0.110197 -0.46016 -0.0356182 0 180 235
0.0155883 -0.393684 -0.368943 0 180 235
-0.131039 -0.430296 -0.0983839 0 180 235
-0.12837 -0.319516 -0.19144 0 180 235
-0.10326 -0.441312 0.1041 0 180 235
-0.129094 -0.26108 -0.354306 0 180 235
0.07281 -0.468463 0.0953305 0 180 235
-0.0689015 -0.444536 -0.353682 0 180 235
-0.126493 -0.279637 -0.359376 0 180 235
-0.148447 -0.213837 -0.149946 0 180 235
-0.131941 -0.316207 -0.389558 0 180 235
-0.143563 -0.272867 0.125439 0 180 235
0.104546 -0.358414 -0.373919 0 180 235
0.0362944 -0.408104 -0.172008 0 180 235
-0.1319 -0.429408 -0.072587 0 180 235
-0.0933065 -0.430523 -0.402007 0 180 235
-0.145497 -0.207298 -0.267188 0 180 235
-0.130848 -0.270916 -0.155762 0 180 235
0.194616 -0.405695 -0.248949 0 180 235
-0.044565 -0.350965 -0.261924 0 180 235
-0.140891 -0.209644 -0.240249 0 180 235
-0.145678 -0.215221 -0.0584398 0 180 235
0.119669 -0.359581 -0.372823 0 180 235
-0.132314 -0.428679 -0.0763534 0 180 235
-0.143878 -0.228535 0.0824127 0 180 235
-0.133432 -0.254694 -0.249562 0 180 235
-0.139902 -0.243453 0.00183457 0 180 235
-0.150267 -0.220508 0.0268519 0 180 235
-0.133119 -0.237717 -0.264924 0 180 235
-0.142247 -0.209347 -0.331219 0 180 235
-0.147083 -0.215683 0.127724 0 180 235
-0.140888 -0.242868 0.0195538 0 180 235
-0.132158 -0.29276 -0.383138 0 180 235
-0.133922 -0.243322 -0.239538 0 180 235
-0.0609958 -0.333272 -0.271696 0 180 235
0.186009 -0.41323 -0.342172 0 180 235
-0.136089 -0.21609 -0.253847 0 180 235
-0.133957 -0.408505 -0.418515 0 180 235
-0.0838197 -0.312404 -0.29216 0 180 235
-0.145826 -0.216805 0.00693447 0 180 235
0.0679619 -0.326921 -0.288518 0 180 235
-0.0661171 -0.303702 -0.32149 0 180 235
-0.0353644 -0.332694 -0.283188 0 180 235
-0.136784 -0.362486 -0.137894 0 180 235
-0.0526763 -0.463139 0.118195 0 180 235
-0.0137363 -0.462628 0.180951 0 180 235
-0.130864 -0.264435 -0.27336 0 180 235
-0.131885 -0.277645 -0.115298 0 180 235
-0.131519 -0.242237 -0.328586 0 180 235
-0.143095 -0.355679 -0.416596 0 180 235
-0.138998 -0.213128 -0.0491008 0 180 235
-0.136318 -0.229891 -0.350524 0 180 235
0.00412283 -0.419017 -0.377863 0 180 235
-0.133998 -0.250957 -0.224739 0 180 235
-0.138654 -0.210027 -0.192411 0 180 235
0.133993 -0.454738 -0.258685 0 180 235
-0.104924 -0.3149 -0.258348 0 180 235
0.211995 -0.417881 -0.166344 0 180 235
0.104481 -0.33073 -0.344341 0 180 235
-0.150706 -0.213359 -0.157737 0 180 235
-0.132179 -0.292976 -0.0800928 0 180 235
0.0904623 -0.358543 -0.318524 0 180 235
0.0112826 -0.326427 -0.277414 0 180 235
0.232821 -0.347924 -0.31147 0 180 235
0.0349715 -0.395152 -0.266873 0 180 235
0.0209547 -0.349909 -0.227707 0 180 235
-0.115608 -0.472052 -0.396128 0 180 235
0.0606845 -0.358264 -0.381444 0 180 235
-0.150561 -0.220518 0.0201726 0 180 235
-0.131873 -0.248048 -0.293817 0 180 235
-0.136209 -0.349014 -0.0780038 0 180 235
0.152305 -0.437204 -0.301509 0 180 235
-0.133919 -0.254336 -0.211326 0 180 235
-0.141448 -0.222261 -0.43734 0 180 235
-0.136954 -0.350118 -0.105372 0 180 235
-0.147691 -0.233521 0.148096 0 180 235
-0.0173264 -0.337156 -0.254395 0 180 235
0.0159894 -0.46846 -0.0748474 0 180 235
-0.131527 -0.425033 0.00244976 0 180 235
-0.130023 -0.357037 0.160002 0 180 235
0.164619 -0.344093 -0.260072 0 180 235
-0.0624166 -0.324978 -0.284443 0 180 235
0.0317691 -0.330631 -0.366392 0 180 235
-0.135162 -0.218279 -0.196905 0 180 235
-0.130789 -0.271599 -0.162056 0 180 235
0.120784 -0.385101 -0.318883 0 180 235
-0.144627 -0.237725 0.0899702 0 180 235
-0.0203621 -0.468659 -0.0948448 0 180 235
-0.138918 -0.339445 -0.408087 0 180 235
0.0890739 -0.359663 -0.211214 0 180 235
-0.0405655 -0.427833 -0.38552 0 180 235
0.0524004 -0.468464 -0.155441 0 180 235
-0.103474 -0.411916 -0.404815 0 180 235
-0.14496 -0.216087 0.0103059 0 180 235
-0.0620734 -0.388587 -0.289278 0 180 235
-0.127531 -0.265521 -0.340263 0 180 235
-0.142617 -0.276799 0.158131 0 180 235
-0.0376305 -0.328892 -0.290021 0 180 235
-0.144848 -0.20749 -0.414845 0 180 235
-0.0525032 -0.339654 -0.265025 0 180 235
-0.140253 -0.209321 -0.180668 0 180 235
-0.018349 -0.339862 -0.355121 0 180 235
-0.0648604 -0.414755 -0.391224 0 180 235
-0.144708 -0.231081 0.101901 0 180 235
0.184264 -0.436567 -0.309538 0 180 235
-0.150963 -0.230677 0.209733 0 180 235
-0.0988967 -0.37609 0.232975 0 180 235
0.0640671 -0.442343 -0.248801 0 180 235
-0.0518426 -0.395812 -0.297172 0 180 235
-0.144579 -0.215033 0.097818 0 180 235
-0.143686 -0.214545 0.0688683 0 180 235
-0.133684 -0.233896 -0.326104 0 180 235
-0.145535 -0.216311 -0.0115664 0 180 235
-0.141543 -0.215291 -0.405192 0 180 235
-0.0182034 -0.327769 -0.396551 0 180 235
-0.129672 -0.346205 0.173134 0 180 235
-0.144149 -0.258287 0.0925435 0 180 235
0.0420129 -0.397613 -0.275855 0 180 235
-0.134148 -0.351683 -0.152923 0 180 235
-0.149362 -0.25589 0.236569 0 180 235
-0.147025 -0.217836 -0.0150548 0 180 235
-0.00817376 -0.376326 -0.255807 0 180 235
-0.123078 -0.430583 -0.130196 0 180 235
-0.148081 -0.21437 0.157116 0 180 235
-0.149964 -0.203134 -0.31569 0 180 235
-0.132039 -0.451138 -0.419732 0 180 235
-0.0469959 -0.441127 0.204988 0 180 235
-0.129303 -0.256911 -0.347692 0 180 235
-0.121684 -0.365701 -0.400815 0 180 235
-0.0960157 -0.424768 -0.403294 0 180 235
-0.0782402 -0.401953 -0.394091 0 180 235
-0.143456 -0.246266 0.068606 0 180 235
-0.134019 -0.285248 0.257589 0 180 235
0.127036 -0.384589 -0.318613 0 180 235
-0.122357 -0.304724 0.259905 0 180 235
-0.0719219 -0.456316 -0.37952 0 180 235
-0.126673 -0.272418 -0.319352 0 180 235
-0.115747 -0.290211 -0.308512 0 180 235
-0.130157 -0.302949 0.224473 0 180 235
-0.139216 -0.223115 -0.407791 0 180 235
-0.138848 -0.211675 -0.228651 0 180 235
0.167193 -0.432787 -0.322545 0 180 235
0.0587048 -0.379134 -0.173212 0 180 235
0.0841893 -0.367188 -0.379297 0 180 235
-0.0466005 -0.314475 -0.34325 0 180 235
-0.138819 -0.212529 -0.0633845 0 180 235
-0.0710472 -0.303524 -0.317355 0 180 235
-0.136925 -0.236906 -0.417051 0 180 235
-0.0408332 -0.44436 -0.368148 0 180 235
0.108102 -0.394048 -0.347305 0 180 235
-0.145303 -0.261358 0.114221 0 180 235
-0.137592 -0.251066 -0.0366033 0 180 235
-0.00400615 -0.326996 -0.276483 0 180 235
-0.139125 -0.289523 0.112887 0 180 235
-0.0248536 -0.403376 -0.306142 0 180 235
0.000651398 -0.344273 -0.348 0 180 235
-0.149325 -0.219487 0.0758801 0 180 235
-0.136748 -0.349024 -0.10149 0 180 235
-0.0505054 -0.443559 0.197475 0 180 235
-0.132036 -0.285627 -0.0979186 0 180 235
-0.135933 -0.348884 0.0798622 0 180 235
-0.134423 -0.232141 -0.100427 0 180 235
-0.0177962 -0.462492 0.167683 0 180 235
-0.13984 -0.211872 -0.0637575 0 180 235
0.193313 -0.416494 -0.340016 0 180 235
0.0368786 -0.351643 -0.206738 0 180 235
-0.154841 -0.237582 0.24651 0 180 235
-0.135735 -0.257144 -0.0657425 0 180 235
-0.136734 -0.23116 -0.0597779 0 180 235
-0.14586 -0.267665 0.220462 0 180 235
-0.1403 -0.365142 -0.415367 0 180 235
-0.0914968 -0.46088 -0.38548 0 180 235
0.266794 -0.410264 -0.271379 0 180 235
-0.138792 -0.292078 0.123306 0 180 235
0.109001 -0.462197 0.0367952 0 180 235
0.00113652 -0.462136 0.200515 0 180 235
-0.0364228 -0.405479 -0.385638 0 180 235
-0.13834 -0.211285 -0.204207 0 180 235
0.196031 -0.384607 -0.288218 0 180 235
0.004797 -0.46651 0.121105 0 180 235
-0.137218 -0.22648 -0.0504331 0 180 235
0.0704454 -0.468194 -0.174928 0 180 235
-0.127601 -0.285723 -0.267048 0 180 235
-0.136158 -0.379245 -0.0423879 0 180 235
-0.048871 -0.313085 -0.31666 0 180 235
0.0207931 -0.419936 -0.371833 0 180 235
-0.148033 -0.24012 0.14884 0 180 235
-0.134634 -0.218775 -0.118883 0 180 235
-0.122544 -0.457345 -0.409708 0 180 235
0.126751 -0.373545 -0.37297 0 180 235
-0.140317 -0.216112 -0.384892 0 180 235
-0.138879 -0.221973 -0.341538 0 180 235
-0.134452 -0.242935 -0.223983 0 180 235
-0.0201975 -0.46121 0.192667 0 180 235
-0.127412 -0.383256 -0.40816 0 180 235
-0.13781 -0.235975 -0.0387603 0 180 235
-0.140124 -0.250864 0.0180845 0 180 235
-0.135749 -0.304807 0.150162 0 180 235
-0.136437 -0.229152 -0.348937 0 180 235
0.0936857 -0.458008 -0.243976 0 180 235
-0.133171 -0.238749 -0.26499 0 180 235
-0.133449 -0.305227 -0.0249038 0 180 235
-0.141707 -0.21736 -0.0526786 0 180 235
-0.144687 -0.215732 -0.00638699 0 180 235
-0.0237983 -0.35356 -0.253487 0 180 235
-0.132104 -0.289975 -0.0786778 0 180 235
0.0559154 -0.411057 -0.180293 0 180 235
-0.134403 -0.226509 -0.11303 0 180 235
-0.133904 -0.227419 -0.250772 0 180 235
0.186069 -0.391051 -0.339129 0 180 235
-0.150592 -0.216084 -0.112216 0 180 235
-0.14803 -0.21833 0.160805 0 180 235
-0.151412 -0.204632 -0.28258 0 180 235
-0.148119 -0.205856 -0.285395 0 180 235
0.163368 -0.40983 -0.348521 0 180 235
0.066659 -0.406979 -0.36365 0 180 235
0.404846 -0.486971 -0.296512 32 212 224
0.260542 -0.487404 -0.29548 32 212 224
-0.127225 -0.471284 -0.411612 32 212 224
0.383806 -0.48696 -0.221638 32 212 224
-0.16161 -0.467068 -0.385513 32 212 224
0.229784 -0.351122 -0.398167 32 212 224
0.122106 -0.487655 -0.173183 32 212 224
-0.14614 -0.473853 0.288623 32 212 224
0.16298 -0.487962 -0.336564 32 212 224
-0.0489931 -0.487631 -0.000976518 32 212 224
0.309522 -0.354574 -0.40282 32 212 224
0.305164 -0.487133 -0.234613 32 212 224
0.388864 -0.486705 -0.114386 32 212 224
0.331435 -0.487649 0.143695 32 212 224
-0.0563967 -0.486552 0.133766 32 212 224
0.0334093 -0.43267 -0.404354 32 212 224
0.304341 -0.268715 -0.402073 32 212 224
-0.107879 -0.462725 0.364626 32 212 224
0.198293 -0.369642 -0.392977 32 212 224
0.481265 -0.475988 -0.358814 32 212 224
0.483274 -0.465969 -0.287395 32 212 224
-0.143011 -0.478466 0.294037 32 212 224
0.458138 -0.294912 -0.405697 32 212 224
0.170253 -0.487938 -0.332445 32 212 224
0.207661 -0.48713 0.0707991 32 212 224
-0.160829 -0.485952 -0.20742 32 212 224
-0.0800031 -0.488725 -0.195312 32 212 224
-0.0746252 -0.489783 -0.395283 32 212 224
0.356734 -0.382651 -0.39898 32 212 224
0.0387986 -0.487621 -0.0267705 32 212 224
0.47105 -0.299558 -0.408523 32 212 224
0.154602 -0.487675 0.175096 32 212 224
0.331551 -0.209512 -0.398654 32 212 224
0.476399 -0.435229 -0.365029 32 212 224
-0.145223 -0.438663 0.302692 32 212 224
0.460835 -0.486975 -0.226793 32 212 224
0.0529355 -0.386379 -0.40148 32 212 224
0.242449 -0.213909 -0.396397 32 212 224
0.313246 -0.315864 -0.40496 32 212 224
0.314669 -0.212423 -0.397658 32 212 224
-0.127102 -0.481862 0.299978 32 212 224
-0.0520718 -0.486605 0.181435 32 212 224
0.0192535 -0.487314 0.109562 32 212 224
-0.055366 -0.483578 -0.409847 32 212 224
0.405909 -0.486978 -0.257711 32 212 224
0.387394 -0.272254 -0.403513 32 212 224
-0.165053 -0.475728 -0.312483 32 212 224
-0.0944634 -0.486223 -0.0114914 32 212 224
0.364818 -0.346655 -0.405937 32 212 224
0.143556 -0.487436 -0.11851 32 212 224
0.168051 -0.487948 -0.334134 32 212 224
0.371064 -0.486844 -0.369096 32 212 224
0.339984 -0.373968 -0.399643 32 212 224
-0.0713854 -0.48674 0.0390803 32 212 224
-0.0172193 -0.486818 0.184267 32 212 224
0.323247 -0.297772 -0.404537 32 212 224
-0.0562207 -0.489906 -0.361738 32 212 224
-0.133264 -0.481295 0.287353 32 212 224
0.275976 -0.240322 -0.399779 32 212 224
0.302549 -0.21876 -0.397707 32 212 224
0.208144 -0.409077 -0.396058 32 212 224
0.44767 -0.23622 -0.409777 32 212 224
0.392418 -0.225276 -0.403746 32 212 224
-0.0704266 -0.438834 -0.410693 32 212 224
0.479145 -0.457467 -0.360376 32 212 224
0.472483 -0.486256 -0.389226 32 212 224
0.028006 -0.488062 -0.13998 32 212 224
0.324893 -0.388118 -0.397269 32 212 224
0.142882 -0.48785 0.24985 32 212 224
0.177259 -0.487735 -0.221788 32 212 224
0.397752 -0.247853 -0.404527 32 212 224
0.333049 -0.339723 -0.40551 32 212 224
0.224608 -0.48258 -0.392748 32 212 224
0.47625 -0.467823 -0.426745 32 212 224
0.358755 -0.486985 -0.236832 32 212 224
-0.10128 -0.486022 0.283914 32 212 224
0.429277 -0.486725 -0.352915 32 212 224
0.00387271 -0.487019 0.276327 32 212 224
0.462231 -0.299043 -0.406264 32 212 224
-0.00593926 -0.48761 0.0300824 32 212 224
0.0487149 -0.487211 0.1478 32 212 224
0.42373 -0.486633 -0.373322 32 212 224
0.255507 -0.487072 -0.081025 32 212 224
0.470654 -0.450787 -0.419132 32 212 224
0.0773035 -0.488402 -0.386757 32 212 224
0.409853 -0.47227 -0.408558 32 212 224
0.228897 -0.487256 0.25239 32 212 224
0.35504 -0.262404 -0.402187 32 212 224
0.351994 -0.212257 -0.40006 32 212 224
0.310388 -0.487022 -0.374938 32 212 224
0.453504 -0.268156 -0.40762 32 212 224
0.463379 -0.279277 -0.408816 32 212 224
0.307064 -0.486739 0.034126 32 212 224
-0.149379 -0.467762 0.246683 32 212 224
-0.0894813 -0.487382 -0.0642918 32 212 224
0.435011 -0.486949 -0.190386 32 212 224
0.179628 -0.373201 -0.391701 32 212 224
0.24123 -0.487533 -0.299104 32 212 224
0.128325 -0.293803 -0.392034 32 212 224
0.29631 -0.242085 -0.400109 32 212 224
0.440154 -0.486922 -0.119005 32 212 224
0.0252589 -0.487218 0.233244 32 212 224
0.403053 -0.353688 -0.405024 32 212 224
0.0605065 -0.48801 -0.177838 32 212 224
0.12485 -0.487767 -0.378315 32 212 224
0.0883837 -0.487335 -0.0219233 32 212 224
-0.149868 -0.474488 0.234545 32 212 224
0.474178 -0.312306 -0.409069 32 212 224
0.217435 -0.487478 -0.199502 32 212 224
-0.115991 -0.48941 -0.368647 32 212 224
0.0132072 -0.487641 0.012075 32 212 224
0.346179 -0.48698 -0.335523 32 212 224
0.22106 -0.251526 -0.398549 32 212 224
0.45616 -0.364362 -0.406573 32 212 224
0.367549 -0.387606 -0.398627 32 212 224
0.354463 -0.486681 0.077886 32 212 224
-0.0300797 -0.489085 -0.268709 32 212 224
0.0577942 -0.48736 0.0386252 32 212 224
-0.0524877 -0.486615 0.163465 32 212 224
0.276525 -0.487203 -0.185968 32 212 224
-0.0509969 -0.489223 -0.282618 32 212 224
0.475511 -0.486234 -0.386983 32 212 224
-0.0745518 -0.390364 -0.405413 32 212 224
0.278335 -0.487086 -0.140485 32 212 224
0.475637 -0.436339 -0.374571 32 212 224
0.312779 -0.486785 0.00589938 32 212 224
0.0370907 -0.321064 -0.397045 32 212 224
0.0142056 -0.488612 -0.237863 32 212 224
-0.0617274 -0.484597 0.353071 32 212 224
-0.0904839 -0.488727 -0.189353 32 212 224
0.160166 -0.487711 0.182896 32 212 224
0.474248 -0.364881 -0.413076 32 212 224
0.32014 -0.37211 -0.399893 32 212 224
0.0159854 -0.488046 -0.104419 32 212 224
0.297418 -0.486873 -0.392462 32 212 224
0.465047 -0.487084 -0.196432 32 212 224
0.473705 -0.486977 -0.412249 32 212 224
0.461825 -0.456675 -0.417965 32 212 224
0.403583 -0.486378 0.0136751 32 212 224
0.299737 -0.242494 -0.400158 32 212 224
0.436262 -0.486907 -0.285334 32 212 224
-0.130517 -0.48672 0.214017 32 212 224
0.149128 -0.477585 -0.393508 32 212 224
0.473162 -0.308645 -0.409067 32 212 224
0.185136 -0.487283 -0.0238688 32 212 224
0.403879 -0.244072 -0.405643 32 212 224
0.195364 -0.487349 -0.0971934 32 212 224
-0.126071 -0.486353 0.186379 32 212 224
0.4394 -0.486496 -0.38506 32 212 224
0.476415 -0.461057 -0.424214 32 212 224
0.414317 -0.310344 -0.403305 32 212 224
-0.0868889 -0.484993 0.347459 32 212 224
0.360955 -0.486695 -0.102288 32 212 224
0.29463 -0.48677 0.0382377 32 212 224
0.433754 -0.27973 -0.404798 32 212 224
-0.0126729 -0.487648 0.00907563 32 212 224
0.101715 -0.487533 -0.141021 32 212 224
0.285856 -0.487868 0.204759 32 212 224
0.376135 -0.217956 -0.401955 32 212 224
0.330195 -0.486493 0.068785 32 212 224
0.228252 -0.278396 -0.399679 32 212 224
0.259276 -0.32336 -0.402018 32 212 224
0.409984 -0.194692 -0.404434 32 212 224
0.461292 -0.486856 -0.301177 32 212 224
0.468742 -0.285958 -0.409638 32 212 224
0.114381 -0.488273 -0.336478 32 212 224
-0.075312 -0.485193 0.317173 32 212 224
0.0949406 -0.48848 -0.352651 32 212 224
0.440416 -0.486794 -0.333874 32 212 224
0.288118 -0.486976 -0.0758352 32 212 224
0.331414 -0.309925 -0.404992 32 212 224
0.475862 -0.435485 -0.419616 32 212 224
0.458273 -0.33837 -0.402721 32 212 224
0.335594 -0.486998 -0.2007 32 212 224
0.284599 -0.487806 0.18028 32 212 224
-0.0607241 -0.489587 -0.320074 32 212 224
0.246903 -0.487066 -0.0444028 32 212 224
0.208136 -0.487344 -0.150876 32 212 224
-0.029518 -0.488012 -0.0764022 32 212 224
0.307623 -0.487091 -0.304271 32 212 224
0.440334 -0.486888 -0.28313 32 212 224
0.434338 -0.486654 -0.0457505 32 212 224
-0.117004 -0.486944 -0.134638 32 212 224
0.281298 -0.487007 -0.0962714 32 212 224
0.301766 -0.354351 -0.402519 32 212 224
0.288007 -0.48715 -0.350575 32 212 224
0.374383 -0.356534 -0.403939 32 212 224
0.462054 -0.487108 -0.181904 32 212 224
0.473329 -0.472453 -0.411121 32 212 224
0.410689 -0.486975 -0.256553 32 212 224
0.162412 -0.4878 -0.218346 32 212 224
0.313166 -0.35512 -0.402796 32 212 224
0.00346732 -0.486837 0.188799 32 212 224
0.482123 -0.486859 -0.287491 32 212 224
0.218822 -0.487283 -0.143351 32 212 224
0.0169771 -0.489014 -0.316064 32 212 224
0.459194 -0.486425 -0.381644 32 212 224
0.419409 -0.486566 -0.38396 32 212 224
0.472039 -0.488434 -0.417776 32 212 224
0.260053 -0.48707 -0.0919337 32 212 224
-0.157634 -0.457081 -0.159423 32 212 224
0.0184943 -0.487475 0.0886539 32 212 224
0.0596906 -0.272642 -0.395165 32 212 224
0.265009 -0.466143 -0.401099 32 212 224
0.164491 -0.257113 -0.39667 32 212 224
0.428471 -0.486661 -0.0549468 32 212 224
0.472059 -0.469436 -0.414534 32 212 224
-0.141242 -0.465023 0.340795 32 212 224
0.395594 -0.486982 -0.283248 32 212 224
0.34688 -0.424105 -0.399951 32 212 224
0.459526 -0.31631 -0.402509 32 212 224
0.136678 -0.487828 -0.211302 32 212 224
0.377928 -0.353386 -0.40521 32 212 224
0.00543002 -0.486934 0.206986 32 212 224
-0.15126 -0.486317 -0.225991 32 212 224
-0.060393 -0.489487 -0.310052 32 212 224
0.365772 -0.486903 -0.184684 32 212 224
-0.141236 -0.451956 0.330627 32 212 224
0.454974 -0.487019 -0.207411 32 212 224
-0.021033 -0.488679 -0.404309 32 212 224
0.152461 -0.487952 -0.322534 32 212 224
0.473959 -0.48704 -0.218314 32 212 224
0.423095 -0.28038 -0.404014 32 212 224
-0.069897 -0.489385 -0.295852 32 212 224
0.377697 -0.441028 -0.403132 32 212 224
-0.143245 -0.464576 -0.410516 32 212 224
0.236054 -0.419435 -0.398187 32 212 224
0.266603 -0.468132 -0.400738 32 212 224
-0.010551 -0.488425 -0.181222 32 212 224
0.417713 -0.232521 -0.40735 32 212 224
0.305355 -0.487137 -0.323344 32 212 224
0.0987398 -0.469318 -0.398591 32 212 224
-0.00135691 -0.486791 0.149808 32 212 224
0.148261 -0.48799 0.239625 32 212 224
0.116869 -0.429095 -0.397731 32 212 224
0.178889 -0.457452 -0.397704 32 212 224
0.114273 -0.488022 -0.246875 32 212 224
0.271776 -0.487332 -0.304971 32 212 224
0.420764 -0.192726 -0.405733 32 212 224
0.450086 -0.486531 -0.3767 32 212 224
0.282012 -0.486948 -0.0557674 32 212 224
0.42526 -0.486661 -0.0588072 32 212 224
-0.129061 -0.485655 -0.0169345 32 212 224
-0.163801 -0.486423 -0.301174 32 212 224
0.477827 -0.44739 -0.363271 32 212 224
0.416849 -0.486771 -0.351188 32 212 224
0.401758 -0.48698 -0.254449 32 212 224
0.242309 -0.467301 -0.399902 32 212 224
0.0694593 -0.487345 0.185929 32 212 224
0.406371 -0.205442 -0.404685 32 212 224
-0.138211 -0.455929 0.359486 32 212 224
-0.0642962 -0.48746 -0.00464942 32 212 224
0.231854 -0.333276 -0.399223 32 212 224
-0.112992 -0.486169 -0.0267691 32 212 224
0.472419 -0.486614 -0.358017 32 212 224
0.429558 -0.334172 -0.403187 32 212 224
0.445345 -0.254466 -0.40845 32 212 224
-0.156311 -0.449677 -0.131126 32 212 224
0.471302 -0.490636 -0.423149 32 212 224
0.412996 -0.486602 -0.381502 32 212 224
0.228828 -0.487546 -0.260216 32 212 224
0.436695 -0.327426 -0.402618 32 212 224
0.328016 -0.398529 -0.396695 32 212 224
0.218131 -0.468531 -0.39818 32 212 224
-0.133699 -0.471824 -0.408448 32 212 224
-0.117912 -0.482624 0.324406 32 212 224
0.0116776 -0.488114 -0.130294 32 212 224
0.231569 -0.487109 0.0452499 32 212 224
0.200784 -0.423649 -0.396698 32 212 224
0.452019 -0.486641 -0.358171 32 212 224
-0.129093 -0.478324 0.329925 32 212 224
-0.0917379 -0.487939 -0.10018 32 212 224
-0.07558 -0.485034 0.329065 32 212 224
-0.113342 -0.48958 -0.359189 32 212 224
0.295764 -0.239546 -0.39994 32 212 224
0.316072 -0.368267 -0.400553 32 212 224
0.442859 -0.240755 -0.409312 32 212 224
0.269775 -0.486882 0.0420653 32 212 224
0.205738 -0.487724 -0.277614 32 212 224
0.435388 -0.33995 -0.403029 32 212 224
0.00914624 -0.486926 0.198563 32 212 224
0.225877 -0.370723 -0.395661 32 212 224
-0.161199 -0.485873 -0.247732 32 212 224
0.403515 -0.486876 -0.337426 32 212 224
0.245277 -0.39257 -0.395561 32 212 224
0.300908 -0.487886 0.183972 32 212 224
0.238141 -0.487315 -0.375831 32 212 224
0.149738 -0.48746 -0.124634 32 212 224
0.225168 -0.487663 -0.315272 32 212 224
0.228471 -0.48778 0.199936 32 212 224
0.191624 -0.298958 -0.397163 32 212 224
0.430288 -0.486894 -0.150675 32 212 224
0.445182 -0.486351 -0.394066 32 212 224
0.444427 -0.37306 -0.403726 32 212 224
0.240106 -0.487559 -0.321381 32 212 224
-0.0181101 -0.4863 0.289769 32 212 224
-0.0062388 -0.486822 0.210956 32 212 224
0.227195 -0.486939 0.10146 32 212 224
0.292284 -0.336788 -0.40396 32 212 224
-0.140491 -0.48739 -0.230399 32 212 224
0.387415 -0.281509 -0.403862 32 212 224
0.400948 -0.353543 -0.405134 32 212 224
-0.0251355 -0.48944 -0.320918 32 212 224
-0.108888 -0.488884 -0.209331 32 212 224
0.457902 -0.377708 -0.408442 32 212 224
0.429402 -0.296788 -0.402661 32 212 224
-0.155542 -0.459841 -0.0986288 32 212 224
0.468614 -0.367795 -0.412124 32 212 224
0.294087 -0.487185 -0.240851 32 212 224
-0.152066 -0.485871 0.0124663 32 212 224
0.0457579 -0.487956 -0.13278 32 212 224
-0.0812189 -0.485576 0.231106 32 212 224
-0.158341 -0.466246 -0.395879 32 212 224
-0.04155 -0.48557 0.299761 32 212 224
0.327823 -0.368174 -0.400604 32 212 224
-0.104025 -0.48586 0.303558 32 212 224
0.175108 -0.487481 -0.147821 32 212 224
0.315213 -0.486943 -0.156947 32 212 224
0.0895545 -0.487731 0.268869 32 212 224
0.471503 -0.464687 -0.422585 32 212 224
-0.0579112 -0.383465 -0.40542 32 212 224
0.425142 -0.23711 -0.408308 32 212 224
-0.164239 -0.469938 -0.361814 32 212 224
-0.00877343 -0.401553 -0.404237 32 212 224
0.232269 -0.487344 -0.180053 32 212 224
-0.100834 -0.485972 0.257687 32 212 224
0.478193 -0.486245 -0.379363 32 212 224
0.382429 -0.486937 -0.201526 32 212 224
0.428882 -0.486344 -0.401183 32 212 224
0.470769 -0.297501 -0.408736 32 212 224
0.32353 -0.257475 -0.401316 32 212 224
-0.111227 -0.477836 0.345295 32 212 224
0.383544 -0.486804 -0.363725 32 212 224
0.306851 -0.48679 0.011453 32 212 224
0.410969 -0.486542 -0.039409 32 212 224
0.401597 -0.202039 -0.403919 32 212 224
-0.0353029 -0.487627 0.01237 32 212 224
0.231525 -0.230666 -0.397479 32 212 224
0.319861 -0.244267 -0.400224 32 212 224
0.351775 -0.23544 -0.399581 32 212 224
-0.00664301 -0.489276 -0.322541 32 212 224
0.0418629 -0.322455 -0.396816 32 212 224
0.227804 -0.2149 -0.396496 32 212 224
0.237739 -0.487448 -0.366131 32 212 224
0.00108987 -0.488607 -0.22603 32 212 224
0.0835122 -0.488441 -0.376584 32 212 224
-0.00574001 -0.489371 -0.336591 32 212 224
0.454902 -0.447202 -0.412417 32 212 224
0.207461 -0.449528 -0.39877 32 212 224
0.0829457 -0.432641 -0.402393 32 212 224
-0.0665428 -0.486551 0.132565 32 212 224
0.428945 -0.486563 -0.382239 32 212 224
-0.0716798 -0.409512 -0.406412 32 212 224
-0.0290534 -0.488176 -0.118379 32 212 224
0.0500359 -0.487912 -0.123583 32 212 224
0.302732 -0.231285 -0.399267 32 212 224
0.271205 -0.487262 -0.340281 32 212 224
0.469871 -0.487176 -0.417253 32 212 224
0.361597 -0.373971 -0.400669 32 212 224
0.0965994 -0.487358 -0.0545977 32 212 224
-0.135467 -0.488561 -0.35995 32 212 224
-0.15775 -0.444316 -0.0525235 32 212 224
-0.0312529 -0.486705 0.170056 32 212 224
0.389386 -0.371592 -0.402265 32 212 224
-0.15741 -0.483434 -0.141775 32 212 224
-0.0182449 -0.488241 -0.145144 32 212 224
0.140805 -0.48748 0.26647 32 212 224
0.268096 -0.269622 -0.401294 32 212 224
0.435781 -0.486953 -0.193417 32 212 224
-0.153099 -0.472915 -0.0192757 32 212 224
-0.0618946 -0.48977 -0.335541 32 212 224
0.41081 -0.352697 -0.404895 32 212 224
0.295244 -0.428138 -0.400531 32 212 224
0.0960035 -0.488115 -0.389682 32 212 224
0.250614 -0.206904 -0.39568 32 212 224
-0.0254111 -0.4876 0.0427193 32 212 224
0.133262 -0.487896 -0.236343 32 212 224
0.280458 -0.48671 0.0744749 32 212 224
0.385716 -0.486515 -0.031531 32 212 224
0.302829 -0.48654 0.0959959 32 212 224
-0.0382217 -0.485459 0.308244 32 212 224
0.0512437 -0.487306 0.204753 32 212 224
0.140903 -0.487278 0.143905 32 212 224
0.458505 -0.381101 -0.408666 32 212 224
0.155642 -0.487639 -0.384801 32 212 224
0.375759 -0.486646 0.0698432 32 212 224
0.353904 -0.283495 -0.403847 32 212 224
0.469815 -0.475967 -0.424544 32 212 224
-0.158525 -0.46223 -0.171481 32 212 224
-0.0416952 -0.486696 0.200244 32 212 224
-0.0260345 -0.488702 -0.215087 32 212 224
-0.15671 -0.480242 -0.135162 32 212 224
0.224967 -0.487199 -0.0757174 32 212 224
0.260926 -0.291985 -0.40168 32 212 224
0.316463 -0.350085 -0.404338 32 212 224
0.0746267 -0.487366 0.055686 32 212 224
-0.0427127 -0.48652 0.218086 32 212 224
0.476176 -0.486949 -0.247966 32 212 224
0.130777 -0.487873 -0.363013 32 212 224
0.393938 -0.413586 -0.399021 32 212 224
0.458824 -0.486859 -0.288041 32 212 224
0.105752 -0.487408 -0.09981 32 212 224
0.224101 -0.487658 -0.301837 32 212 224
0.237278 -0.463535 -0.400253 32 212 224
0.0229505 -0.37882 -0.402297 32 212 224
0.335941 -0.417027 -0.399026 32 212 224
0.0434797 -0.487404 0.295963 32 212 224
0.371982 -0.401173 -0.396227 32 212 224
-0.12673 -0.485869 -0.13747 32 212 224
-0.125097 -0.486368 0.200012 32 212 224
0.476913 -0.486903 -0.265687 32 212 224
0.269722 -0.217836 -0.397359 32 212 224
0.420592 -0.241896 -0.407907 32 212 224
0.0334074 -0.488897 -0.321247 32 212 224
-0.165722 -0.485355 -0.248079 32 212 224
0.397747 -0.243526 -0.40469 32 212 224
0.134909 -0.487681 0.25897 32 212 224
0.399123 -0.486898 -0.174383 32 212 224
-0.11377 -0.485913 0.113526 32 212 224
0.0225825 -0.487188 0.23342 32 212 224
0.427597 -0.289501 -0.402916 32 212 224
-0.159128 -0.4713 -0.178605 32 212 224
-0.00980159 -0.488595 -0.209539 32 212 224
0.424209 -0.285186 -0.403269 32 212 224
0.477699 -0.44661 -0.421583 32 212 224
0.251223 -0.424168 -0.399558 32 212 224
0.217087 -0.487634 -0.271958 32 212 224
0.0359672 -0.487626 -0.0186027 32 212 224
0.381818 -0.486309 0.033509 32 212 224
0.404283 -0.486925 -0.206778 32 212 224
0.298082 -0.486939 -0.0802532 32 212 224
0.0906184 -0.487345 -0.0313143 32 212 224
0.287878 -0.317029 -0.404183 32 212 224
-0.0458564 -0.487042 0.0863565 32 212 224
0.00528103 -0.48719 0.128055 32 212 224
0.245579 -0.487477 -0.281326 32 212 224
-0.0683205 -0.488027 -0.0911792 32 212 224
0.0264186 -0.487976 -0.0890285 32 212 224
-0.151963 -0.474965 0.201249 32 212 224
-0.0440092 -0.488709 -0.205824 32 212 224
0.45673 -0.487124 -0.158913 32 212 224
-0.142402 -0.464596 0.325554 32 212 224
0.104058 -0.487332 -0.0552245 32 212 224
0.430631 -0.254642 -0.4079 32 212 224
0.139024 -0.458907 -0.397677 32 212 224
0.454194 -0.302256 -0.403335 32 212 224
0.269114 -0.252403 -0.400544 32 212 224
0.269065 -0.487151 -0.153203 32 212 224
0.255199 -0.487379 -0.355603 32 212 224
0.233367 -0.487284 -0.159691 32 212 224
-0.110697 -0.487107 -0.118214 32 212 224
0.0895745 -0.488416 -0.277362 32 212 224
0.457735 -0.486845 -0.317428 32 212 224
0.143026 -0.487942 -0.257843 32 212 224
0.460363 -0.487008 -0.216941 32 212 224
0.475544 -0.351592 -0.411509 32 212 224
0.263016 -0.296204 -0.402044 32 212 224
-0.0409624 -0.486284 -0.407191 32 212 224
-0.155824 -0.458043 -0.118964 32 212 224
-0.0545998 -0.487636 -0.404444 32 212 224
0.236664 -0.48706 0.0232683 32 212 224
-0.0508452 -0.488994 -0.251251 32 212 224
-0.142047 -0.435055 0.329897 32 212 224
0.435047 -0.486909 -0.275866 32 212 224
-0.0243105 -0.488166 -0.116585 32 212 224
0.433328 -0.486918 -0.229309 32 212 224
-0.158537 -0.445221 0.0150081 32 212 224
0.469289 -0.457244 -0.420144 32 212 224
0.442881 -0.254033 -0.408389 32 212 224
0.299254 -0.487143 -0.306577 32 212 224
0.356968 -0.486802 0.0857293 32 212 224
0.282254 -0.455391 -0.402645 32 212 224
0.228581 -0.303408 -0.39968 32 212 224
-0.0170247 -0.487843 -0.0448694 32 212 224
-0.039232 -0.486567 0.220107 32 212 224
0.0973916 -0.487357 -0.0557833 32 212 224
0.436078 -0.48239 -0.408176 32 212 224
0.237523 -0.432219 -0.399737 32 212 224
-0.0854823 -0.486264 0.0125507 32 212 224
-0.149776 -0.486554 0.0245404 32 212 224
0.44194 -0.365233 -0.404006 32 212 224
0.300852 -0.469253 -0.400945 32 212 224
0.427236 -0.486898 -0.16322 32 212 224
0.175579 -0.487549 -0.165365 32 212 224
0.0196988 -0.488839 -0.279332 32 212 224
-0.025133 -0.376713 -0.403546 32 212 224
0.480697 -0.462574 -0.349078 32 212 224
0.29474 -0.294718 -0.403544 32 212 224
0.0807753 -0.487327 0.0222278 32 212 224
0.442789 -0.349377 -0.402891 32 212 224
0.471056 -0.387597 -0.414502 32 212 224
0.146885 -0.487753 0.253255 32 212 224
0.455452 -0.472992 -0.417423 32 212 224
0.192052 -0.487574 0.25187 32 212 224
0.259498 -0.487881 0.196177 32 212 224
0.250618 -0.487293 -0.179783 32 212 224
0.0412557 -0.453924 -0.403885 32 212 224
0.0619029 -0.488794 -0.347243 32 212 224
0.162742 -0.487595 0.163898 32 212 224
-0.0491855 -0.488212 -0.123338 32 212 224
0.402922 -0.486976 -0.25195 32 212 224
-0.130751 -0.480004 0.313287 32 212 224
-0.0697801 -0.48503 0.324667 32 212 224
0.0182412 -0.48723 0.254216 32 212 224
-0.153159 -0.478664 -0.0448113 32 212 224
0.0576682 -0.488311 -0.229911 32 212 224
0.319414 -0.486801 -0.0314436 32 212 224
0.360189 -0.427032 -0.400734 32 212 224
-0.149438 -0.430711 0.257961 32 212 224
0.474987 -0.467277 -0.402282 32 212 224
0.19807 -0.487513 -0.376754 32 212 224
0.240677 -0.487083 0.254995 32 212 224
0.309377 -0.485501 -0.405542 64 236 211
0.523291 -0.409469 -0.411964 64 236 211
-0.156225 -0.482927 -0.346989 64 236 211
0.170587 -0.367962 -0.42094 64 236 211
0.101832 -0.487864 -0.00896424 64 236 211
0.234761 -0.486696 -0.401436 64 236 211
0.126807 -0.26622 -0.415513 64 236 211
0.320227 -0.487619 -0.141142 64 236 211
0.232576 -0.47907 -0.411346 64 236 211
0.20999 -0.487615 -0.170003 64 236 211
0.0489831 -0.438511 -0.426673 64 236 211
0.189226 -0.476503 -0.41681 64 236 211
-0.135871 -0.47952 0.201722 64 236 211
-0.158688 -0.293976 -0.216532 64 236 211
0.472072 -0.361286 -0.412112 64 236 211
-0.069608 -0.487734 -0.292202 64 236 211
0.371088 -0.258671 -0.412314 64 236 211
0.461096 -0.486259 -0.407351 64 236 211
0.18848 -0.318398 -0.415397 64 236 211
0.122953 -0.219475 -0.415123 64 236 211
-0.00572254 -0.476302 -0.432193 64 236 211
0.495161 -0.406684 -0.412643 64 236 211
-0.053689 -0.487767 -0.240941 64 236 211
0.193142 -0.263101 -0.411337 64 236 211
-0.0770645 -0.32839 -0.429441 64 236 211
-0.0281396 -0.487729 -0.164297 64 236 211
0.0193924 -0.3346 -0.429147 64 236 211
0.363262 -0.477203 -0.413522 64 236 211
0.235482 -0.487636 -0.140338 64 236 211
0.127097 -0.487237 0.0488048 64 236 211
-0.160884 -0.462817 -0.386641 64 236 211
0.384336 -0.487269 -0.344578 64 236 211
-0.160366 -0.313181 -0.397338 64 236 211
0.039755 -0.261424 -0.424669 64 236 211
0.109036 -0.252197 -0.41619 64 236 211
0.314337 -0.477701 -0.413148 64 236 211
0.110914 -0.438086 -0.42336 64 236 211
0.0568989 -0.317585 -0.426063 64 236 211
0.0419314 -0.468156 -0.429019 64 236 211
-0.0544805 -0.388355 -0.43068 64 236 211
-0.148835 -0.307369 0.22197 64 236 211
0.157502 -0.487376 -0.279813 64 236 211
-0.0839008 -0.487975 -0.142417 64 236 211
0.099951 -0.247495 -0.416972 64 236 211
0.00659063 -0.302368 -0.429189 64 236 211
0.328866 -0.333451 -0.416424 64 236 211
0.15236 -0.461419 -0.422733 64 236 211
0.156423 -0.231544 -0.412892 64 236 211
0.194671 -0.487326 -0.322661 64 236 211
-0.16004 -0.394561 -0.280782 64 236 211
-0.0837742 -0.487935 -0.22718 64 236 211
0.382332 -0.487137 -0.391238 64 236 211
-0.0340149 -0.487915 0.0229941 64 236 211
0.329443 -0.445165 -0.41919 64 236 211
-0.15383 -0.384527 0.0281521 64 236 211
0.19674 -0.337893 -0.416649 64 236 211
0.0480058 -0.447985 -0.42681 64 236 211
0.0805187 -0.487482 -0.230548 64 236 211
0.0973859 -0.26855 -0.418826 64 236 211
0.38085 -0.35987 -0.416886 64 236 211
-0.151723 -0.323384 0.103712 64 236 211
-0.158331 -0.477484 -0.283356 64 236 211
0.0191848 -0.445353 -0.428304 64 236 211
-0.157418 -0.317505 -0.141504 64 236 211
-0.157015 -0.41539 -0.173626 64 236 211
-0.0778097 -0.486953 -0.406341 64 236 211
-0.149313 -0.450871 0.264533 64 236 211
0.0788136 -0.273105 -0.42116 64 236 211
-0.098372 -0.488021 -0.088595 64 236 211
-0.0076219 -0.347814 -0.430264 64 236 211
0.178175 -0.413345 -0.424363 64 236 211
-0.0133519 -0.269357 -0.429467 64 236 211
0.302056 -0.25205 -0.40993 64 236 211
0.206996 -0.39042 -0.422848 64 236 211
-0.0853597 -0.487666 -0.364519 64 236 211
-0.16174 -0.354745 -0.299139 64 236 211
0.00250306 -0.487492 -0.276553 64 236 211
0.0943 -0.328309 -0.423743 64 236 211
-0.156271 -0.306096 -0.117832 64 236 211
0.449602 -0.474008 -0.413277 64 236 211
-0.153563 -0.455169 0.0616574 64 236 211
0.0489992 -0.487247 -0.365084 64 236 211
0.290914 -0.487261 -0.370146 64 236 211
-0.0615666 -0.487706 0.249537 64 236 211
0.1894 -0.484425 -0.404608 64 236 211
-0.0946802 -0.456872 -0.427515 64 236 211
-0.15671 -0.460385 -0.145106 64 236 211
0.203286 -0.487661 0.0202314 64 236 211
-0.157502 -0.277098 -0.39542 64 236 211
-0.15749 -0.342498 -0.142474 64 236 211
-0.150688 -0.484231 -0.245866 64 236 211
0.0769991 -0.358466 -0.427249 64 236 211
-0.160893 -0.416838 -0.385516 64 236 211
-0.10581 -0.487887 -0.275874 64 236 211
-0.0774394 -0.487738 0.243049 64 236 211
0.228465 -0.469245 -0.420869 64 236 211
-0.154621 -0.458133 -0.0337218 64 236 211
-0.159479 -0.34103 -0.193547 64 236 211
0.255017 -0.376662 -0.419998 64 236 211
0.0734849 -0.487826 -0.0298206 64 236 211
-0.150981 -0.387375 0.166444 64 236 211
-0.148657 -0.321116 0.245974 64 236 211
-0.15714 -0.441408 -0.152655 64 236 211
0.371765 -0.430428 -0.41793 64 236 211
-0.0626012 -0.487821 0.187216 64 236 211
0.111817 -0.242828 -0.415655 64 236 211
0.364754 -0.319776 -0.415893 64 236 211
0.168476 -0.487598 -0.17226 64 236 211
0.454412 -0.487142 -0.366662 64 236 211
-0.153924 -0.335798 -0.0251032 64 236 211
0.249762 -0.474901 -0.415808 64 236 211
-0.0911035 -0.487938 0.00371525 64 236 211
0.114512 -0.302083 -0.41991 64 236 211
-0.159372 -0.383838 -0.222291 64 236 211
0.339007 -0.452862 -0.419081 64 236 211
-0.14934 -0.436725 0.205828 64 236 211
-0.0860678 -0.253601 -0.429603 64 236 211
0.0087762 -0.487102 -0.374888 64 236 211
0.097544 -0.487324 -0.295714 64 236 211
0.416152 -0.398559 -0.415336 64 236 211
0.370297 -0.487319 -0.323099 64 236 211
-0.000464695 -0.486525 -0.408855 64 236 211
0.0155736 -0.2674 -0.427659 64 236 211
0.072603 -0.380148 -0.428402 64 236 211
0.342145 -0.476409 -0.413973 64 236 211
-0.159241 -0.390093 -0.231413 64 236 211
-0.110188 -0.487963 0.0238923 64 236 211
0.0304478 -0.4072 -0.430039 64 236 211
0.230003 -0.347344 -0.416864 64 236 211
-0.151446 -0.45462 0.145673 64 236 211
0.031997 -0.487552 -0.224142 64 236 211
0.24749 -0.270689 -0.409957 64 236 211
0.362809 -0.28478 -0.414226 64 236 211
0.196345 -0.487264 -0.376638 64 236 211
0.347388 -0.487059 -0.401014 64 236 211
-0.161985 -0.346918 -0.32956 64 236 211
-0.0271603 -0.270432 -0.430353 64 236 211
0.275866 -0.477223 -0.412507 64 236 211
0.0591917 -0.486793 -0.389563 64 236 211
-0.0836118 -0.487837 -0.273413 64 236 211
-0.161446 -0.324116 -0.386115 64 236 211
-0.0020155 -0.48765 -0.192913 64 236 211
0.22874 -0.37271 -0.420683 64 236 211
-0.157502 -0.46598 -0.183955 64 236 211
-0.148248 -0.370348 0.271825 64 236 211
0.0388241 -0.300706 -0.426514 64 236 211
0.19156 -0.261911 -0.411301 64 236 211
-0.160049 -0.460642 -0.321139 64 236 211
-0.0879864 -0.447415 -0.427751 64 236 211
-0.0467784 -0.276684 -0.431534 64 236 211
0.0186714 -0.3869 -0.430321 64 236 211
0.0662126 -0.487886 0.00063207 64 236 211
-0.13854 -0.487997 -0.204275 64 236 211
-0.0215694 -0.368148 -0.431024 64 236 211
0.358613 -0.404182 -0.418354 64 236 211
-0.017561 -0.256416 -0.429189 64 236 211
-0.148663 -0.377304 0.255304 64 236 211
0.101564 -0.487332 -0.29257 64 236 211
0.04074 -0.48739 -0.292113 64 236 211
