ply
format ascii 1.0
comment Created by Open3D
element vertex 1146
property double x
property double y
property double z
property uchar red
property uchar green
property uchar blue
end_header
-0.324794 -0.0466497 -0.015359 160 249 161
-0.137488 -0.488239 -0.0170629 160 249 161
-0.224548 -0.489478 0.0928138 160 249 161
-0.326581 -0.12507 0.270593 160 249 161
-0.316859 -0.453671 0.0715785 160 249 161
-0.327857 -0.0819046 0.0664616 160 249 161
-0.327338 -0.0409131 0.0684829 160 249 161
-0.321398 -0.234243 -0.146096 160 249 161
-0.331892 -0.104768 0.225694 160 249 161
-0.324022 -0.114653 -0.0567989 160 249 161
-0.32308 -0.0322388 -0.0328434 160 249 161
-0.32363 -0.35191 0.0277212 160 249 161
-0.321521 -0.411167 0.248092 160 249 161
-0.327873 -0.0667649 0.139751 160 249 161
-0.314643 -0.377855 -0.154927 160 249 161
-0.312564 -0.386852 -0.194361 160 249 161
-0.322275 -0.00467941 -0.0999451 160 249 161
-0.324337 -0.0150782 0.0200209 160 249 161
-0.320048 -0.449798 0.294986 160 249 161
-0.321671 -0.356226 -0.0336769 160 249 161
-0.329509 -0.258842 0.0108771 160 249 161
-0.322022 -0.418143 0.297971 160 249 161
-0.321136 -0.378097 0.295209 160 249 161
-0.323102 -0.19207 -0.10615 160 249 161
-0.331345 -0.0745585 0.184313 160 249 161
-0.325598 -0.303706 0.160808 160 249 161
-0.317557 -0.425649 0.0216491 160 249 161
-0.323934 -0.0570973 -0.14066 160 249 161
-0.325314 -0.240907 -0.0821769 160 249 161
-0.326825 -0.122808 0.131879 160 249 161
-0.329827 -0.238152 0.046654 160 249 161
-0.320712 -0.3931 0.119269 160 249 161
-0.324709 -0.334718 0.130432 160 249 161
-0.322512 -0.182247 -0.124025 160 249 161
-0.324116 -0.201114 -0.0938863 160 249 161
-0.330868 -0.170388 0.209521 160 249 161
-0.328385 0.0147121 0.161368 160 249 161
-0.325517 -0.276395 0.120657 160 249 161
-0.232767 -0.489369 0.0302053 160 249 161
-0.325376 -0.151402 -0.0433897 160 249 161
-0.323735 -0.243225 -0.107769 160 249 161
-0.329133 -0.155245 0.253927 160 249 161
-0.323169 -0.0885114 -0.0581353 160 249 161
-0.323001 -0.0133831 -0.113237 160 249 161
-0.310896 -0.402557 -0.164275 160 249 161
-0.321408 -0.446282 0.251146 160 249 161
-0.303454 -0.482293 0.0835647 160 249 161
-0.323751 -0.353016 0.135201 160 249 161
-0.323447 -0.386995 0.200948 160 249 161
-0.33149 -0.101113 0.240384 160 249 161
-0.32959 -0.250229 0.0455159 160 249 161
-0.324486 -0.0514536 -0.0226021 160 249 161
-0.319753 -0.475025 0.139913 160 249 161
-0.327397 0.0155113 0.150659 160 249 161
-0.330154 -0.170543 0.18102 160 249 161
-0.324144 0.00193479 0.0099072 160 249 161
-0.321382 -0.0261904 -0.0801149 160 249 161
-0.330295 -0.244187 0.0548926 160 249 161
-0.32249 -0.239938 -0.12344 160 249 161
-0.327748 -0.068325 0.0793232 160 249 161
-0.0294978 -0.234745 -0.265361 192 234 140
0.00758176 -0.149711 -0.266593 192 234 140
-0.169533 -0.480214 -0.273415 192 234 140
-0.139035 -0.362561 -0.26991 192 234 140
0.296934 -0.452731 -0.103561 192 234 140
0.170527 -0.261512 -0.270791 192 234 140
-0.0354479 -0.13581 -0.266271 192 234 140
-0.116799 -0.485096 0.0439247 192 234 140
0.130559 -0.485467 -0.246106 192 234 140
0.0996724 -0.378558 -0.271966 192 234 140
0.138412 -0.388517 -0.271614 192 234 140
0.216665 -0.475983 -0.27285 192 234 140
0.14434 -0.372653 -0.272222 192 234 140
-0.0629095 -0.313926 -0.268777 192 234 140
0.0290917 -0.0100087 -0.269018 192 234 140
0.184051 -0.0769728 -0.27078 192 234 140
0.218946 -0.478509 0.00326528 192 234 140
0.161607 -0.15462 -0.269431 192 234 140
0.201536 -0.21545 -0.271719 192 234 140
0.00248167 -0.483139 -0.227304 192 234 140
0.155547 -0.26742 -0.271114 192 234 140
0.206517 -0.419302 -0.270981 192 234 140
0.148737 -0.142445 -0.268694 192 234 140
0.146386 -0.416155 -0.269095 192 234 140
-0.152439 -0.0426018 -0.269789 192 234 140
0.0512631 -0.103919 -0.269995 192 234 140
0.244413 -0.211895 -0.271203 192 234 140
0.0782671 -0.088241 -0.269681 192 234 140
0.199641 -0.0648938 -0.27083 192 234 140
0.165402 -0.294418 -0.27108 192 234 140
0.146433 -0.471727 -0.272763 192 234 140
-0.122096 -0.289026 -0.270229 192 234 140
0.317584 -0.41739 -0.2158 192 234 140
0.0440084 -0.358973 -0.270248 192 234 140
0.102465 -0.483043 -0.0306219 192 234 140
0.0967054 -0.0294386 -0.269334 192 234 140
0.245399 -0.296995 -0.27266 192 234 140
-0.0921335 -0.483759 -0.242106 192 234 140
0.0731648 -0.0851398 -0.269723 192 234 140
0.0363668 -0.0012491 -0.269238 192 234 140
0.158051 -0.481166 -0.0348324 192 234 140
0.210744 -0.352215 -0.27199 192 234 140
0.127176 -0.483802 -0.178938 192 234 140
0.258311 -0.268274 -0.26948 192 234 140
0.267611 -0.390393 -0.26406 192 234 140
-0.0462794 -0.130195 -0.266883 192 234 140
-0.0848363 -0.484859 -0.117369 192 234 140
0.170508 -0.350412 -0.271739 192 234 140
0.0483526 -0.00443664 -0.269434 192 234 140
-0.0715394 -0.251511 -0.267858 192 234 140
0.265447 -0.215339 -0.266258 192 234 140
-0.0758674 -0.484616 0.157895 192 234 140
0.265118 -0.225095 -0.266471 192 234 140
0.253698 -0.0780102 -0.270722 192 234 140
0.205357 -0.0923158 -0.270381 192 234 140
-0.207888 -0.371212 -0.270638 192 234 140
0.180544 -0.4776 -0.271463 192 234 140
-0.202789 -0.481228 -0.271101 192 234 140
0.247802 -0.361161 -0.272227 192 234 140
0.275007 -0.422029 -0.257973 192 234 140
-0.238722 -0.48231 -0.269552 192 234 140
0.0402409 -0.207104 -0.267306 192 234 140
0.255698 -0.442052 -0.26904 192 234 140
-0.032442 -0.100657 -0.266934 192 234 140
-0.111956 -0.0288621 -0.268963 192 234 140
0.212919 -0.265197 -0.271897 192 234 140
0.252048 -0.437359 -0.270129 192 234 140
0.111936 -0.123767 -0.268444 192 234 140
-0.0500031 -0.485058 -0.00918799 192 234 140
-0.224202 -0.484961 0.072776 192 234 140
0.191022 -0.397076 -0.271426 192 234 140
0.0668387 -0.0228459 -0.269947 192 234 140
0.255759 -0.388366 -0.26896 192 234 140
0.000981651 -0.325201 -0.268563 192 234 140
-0.181087 -0.393427 -0.269445 192 234 140
0.21056 -0.247488 -0.271822 192 234 140
0.129908 -0.189127 -0.269746 192 234 140
-0.151465 -0.484518 0.10394 192 234 140
0.180234 -0.391543 -0.271331 192 234 140
0.25679 -0.18597 -0.267652 192 234 140
0.304746 -0.357388 -0.239227 192 234 140
-0.078603 -0.105751 -0.269113 192 234 140
-0.16076 -0.48412 0.158702 192 234 140
-0.141767 -0.0434976 -0.269618 192 234 140
0.187044 -0.486209 -0.228808 192 234 140
-0.0336803 -0.0660465 -0.266912 192 234 140
-0.00301042 -0.483825 -0.207254 192 234 140
0.288346 -0.455975 -0.213065 192 234 140
0.0868594 -0.209198 -0.269491 192 234 140
0.0494652 -0.141697 -0.268358 192 234 140
0.195866 -0.273425 -0.270898 192 234 140
0.289586 -0.309522 -0.251058 192 234 140
0.00230321 -0.392182 -0.266269 192 234 140
0.0017187 -0.0452403 -0.267784 192 234 140
-0.0722076 -0.065453 -0.268472 192 234 140
0.0507246 -0.0780784 -0.269646 192 234 140
-0.0209316 -0.333811 -0.268291 192 234 140
-0.0882374 -0.103002 -0.269521 192 234 140
0.182728 -0.0966661 -0.269528 192 234 140
0.169536 -0.234142 -0.270467 192 234 140
0.0867383 -0.292833 -0.271876 192 234 140
0.0886988 -0.483125 -0.204432 192 234 140
0.223964 -0.40426 -0.271393 192 234 140
-0.092891 -0.3479 -0.269807 192 234 140
-0.200604 -0.485132 -0.0742934 192 234 140
0.240513 -0.336117 -0.273428 192 234 140
0.078887 -0.344257 -0.272292 192 234 140
0.188286 -0.155914 -0.269759 192 234 140
-0.196829 -0.337604 -0.270351 192 234 140
-0.233114 -0.485104 0.053408 192 234 140
-0.160202 -0.276143 -0.270137 192 234 140
0.0828172 -0.104171 -0.269839 192 234 140
0.266838 -0.274034 -0.267199 192 234 140
0.143289 -0.483971 -0.168652 192 234 140
0.227032 -0.29103 -0.272527 192 234 140
0.248316 -0.322702 -0.272705 192 234 140
0.131649 -0.154676 -0.268535 192 234 140
0.00745776 -0.105703 -0.268174 192 234 140
0.0150375 -0.355022 -0.269209 192 234 140
-0.0124485 -0.397443 -0.265893 192 234 140
0.101062 -0.110166 -0.269077 192 234 140
0.174598 -0.279265 -0.270696 192 234 140
0.193502 -0.0410028 -0.270524 192 234 140
-0.193775 -0.357193 -0.270403 192 234 140
-0.178656 -0.444689 -0.276008 192 234 140
-0.056311 -0.484578 0.129619 192 234 140
-0.158306 -0.305727 -0.270206 192 234 140
-0.230136 -0.47526 -0.280648 192 234 140
0.252273 -0.357447 -0.271554 192 234 140
0.217909 -0.0545975 -0.271611 192 234 140
-0.122162 -0.485058 -0.0130056 192 234 140
-0.164429 -0.101358 -0.271506 192 234 140
0.168663 -0.386499 -0.271222 192 234 140
0.201472 -0.0726007 -0.270965 192 234 140
0.11603 -0.482696 -0.168663 192 234 140
0.146036 -0.229225 -0.270262 192 234 140
-0.163552 -0.483792 -0.24451 192 234 140
0.0116283 -0.481589 -0.266733 192 234 140
0.0599081 -0.426052 -0.268761 192 234 140
-0.216898 -0.484795 -0.140262 192 234 140
-0.0997503 -0.38916 -0.269171 192 234 140
0.187017 -0.0388495 -0.27036 192 234 140
0.0199593 -0.0823625 -0.268499 192 234 140
-0.0834633 -0.401265 -0.267976 192 234 140
-0.125292 -0.475121 -0.279356 192 234 140
0.147396 -0.0514204 -0.269927 192 234 140
0.138704 -0.327722 -0.273111 192 234 140
-0.0322482 -0.451932 -0.270746 192 234 140
0.236375 -0.340087 -0.273325 192 234 140
0.111679 -0.346647 -0.272878 192 234 140
0.0787802 -0.354232 -0.272155 192 234 140
0.282783 -0.420271 -0.251922 192 234 140
0.224282 -0.128231 -0.271895 192 234 140
0.181607 -0.133826 -0.26907 192 234 140
0.148705 -0.481913 -0.12492 192 234 140
0.122393 -0.429956 -0.26865 192 234 140
0.245474 -0.397795 -0.270605 192 234 140
-0.227063 -0.479798 -0.275382 192 234 140
-0.072178 -0.236704 -0.267537 192 234 140
-0.17052 -0.256103 -0.269884 192 234 140
-0.214995 -0.484751 -0.149578 192 234 140
0.240063 -0.138474 -0.271 192 234 140
-0.172115 -0.469676 -0.281248 192 234 140
0.26619 -0.392742 -0.264571 192 234 140
0.119916 -0.164406 -0.268384 192 234 140
0.193547 -0.4677 -0.275527 192 234 140
0.251915 -0.313844 -0.271732 192 234 140
0.268445 -0.464579 -0.0408507 192 234 140
0.270837 -0.338802 -0.265224 192 234 140
-0.193829 -0.262984 -0.270264 192 234 140
0.16774 -0.138426 -0.269388 192 234 140
0.219374 -0.228548 -0.272082 192 234 140
-0.00274763 -0.0677423 -0.267538 192 234 140
-0.190823 -0.484588 -0.185331 192 234 140
0.211331 -0.466198 -0.276271 192 234 140
-0.159085 -0.484725 0.0719511 192 234 140
-0.0886905 -0.484591 -0.184333 192 234 140
-0.153445 -0.18292 -0.268818 192 234 140
0.131002 -0.301848 -0.27329 192 234 140
0.131789 -0.036002 -0.269212 192 234 140
0.233658 -0.168158 -0.271212 192 234 140
0.238703 -0.244002 -0.272502 192 234 140
0.00288179 -0.326063 -0.268651 192 234 140
0.142073 -0.351194 -0.272969 192 234 140
0.190957 -0.47961 -0.0779646 192 234 140
0.0176126 -0.22373 -0.26625 192 234 140
0.162402 -0.0864657 -0.270362 192 234 140
0.220266 -0.255701 -0.271938 192 234 140
0.120946 -0.072931 -0.269051 192 234 140
-0.063433 -0.25388 -0.267502 192 234 140
0.155259 -0.38177 -0.271577 192 234 140
0.100472 -0.368708 -0.272191 192 234 140
0.235357 -0.0988367 -0.271931 192 234 140
0.0334087 -0.0846483 -0.269 192 234 140
0.199835 -0.0555586 -0.270731 192 234 140
0.0335781 -0.106989 -0.269168 192 234 140
0.198584 -0.485133 -0.227909 192 234 140
0.0843056 -0.483165 -0.263876 192 234 140
-0.0261975 -0.435662 -0.268895 192 234 140
-0.0801505 -0.0162812 -0.268091 192 234 140
0.0970936 -0.288472 -0.272245 192 234 140
0.196982 -0.0468138 -0.270615 192 234 140
0.0394423 -0.307682 -0.268856 192 234 140
0.0395503 -0.483661 0.120115 192 234 140
0.139113 -0.401116 -0.270662 192 234 140
0.0241098 -0.0547901 -0.268686 192 234 140
0.187998 -0.478057 -0.270425 192 234 140
0.0109405 -0.462059 -0.269788 192 234 140
0.235993 -0.371267 -0.272396 192 234 140
0.157824 -0.114744 -0.269244 192 234 140
-0.0966621 -0.484986 -0.0562971 192 234 140
0.0439196 -0.112986 -0.269389 192 234 140
0.306142 -0.450355 -0.115355 192 234 140
-0.0545655 -0.485079 -0.0310858 192 234 140
-0.0404389 -0.215451 -0.265373 192 234 140
0.277901 -0.462749 -0.138548 192 234 140
0.127474 -0.201118 -0.269966 192 234 140
0.133669 -0.424394 -0.267624 192 234 140
0.109925 -0.151907 -0.267869 192 234 140
0.206415 -0.273819 -0.271352 192 234 140
0.116742 -0.295729 -0.273242 192 234 140
0.27902 -0.460086 -0.0992202 192 234 140
0.280916 -0.381908 -0.257299 192 234 140
-0.166362 -0.330057 -0.270271 192 234 140
0.26189 -0.177935 -0.266306 192 234 140
0.147889 -0.481005 -0.267499 192 234 140
-0.00541187 -0.23096 -0.265624 192 234 140
0.197755 -0.143119 -0.269982 192 234 140
-0.12245 -0.0709152 -0.269951 192 234 140
-0.143013 -0.387476 -0.269531 192 234 140
0.19208 -0.167338 -0.270147 192 234 140
0.104276 -0.449377 -0.270997 192 234 140
-0.162256 -0.0793157 -0.271084 192 234 140
0.254791 -0.450379 -0.268877 192 234 140
0.214671 -0.219575 -0.271995 192 234 140
0.177818 -0.325021 -0.271593 192 234 140
0.253318 -0.241368 -0.269899 192 234 140
0.187158 -0.206114 -0.271326 192 234 140
0.262381 -0.202563 -0.266754 192 234 140
-0.173657 -0.484742 -0.108593 192 234 140
0.199997 -0.063502 -0.270824 192 234 140
-0.191032 -0.484904 -0.0911437 192 234 140
-0.0345095 -0.361202 -0.268251 192 234 140
0.302397 -0.44243 -0.213152 192 234 140
0.32272 -0.437738 -0.176752 192 234 140
0.252153 -0.41054 -0.268641 192 234 140
0.209705 -0.365569 -0.271787 192 234 140
0.147257 -0.481568 -0.0321989 192 234 140
-0.146505 -0.483772 -0.24091 192 234 140
0.239617 -0.435265 -0.272948 192 234 140
0.0640123 -0.265041 -0.26903 192 234 140
-0.105669 -0.485117 0.0352673 192 234 140
0.00316245 -0.1155 -0.26791 192 234 140
0.182422 -0.224329 -0.27079 192 234 140
0.0774755 -0.438025 -0.270894 192 234 140
-0.156145 -0.0527901 -0.270127 192 234 140
0.288483 -0.404409 -0.250562 192 234 140
-0.0086515 -0.393026 -0.266031 192 234 140
0.170892 -0.412285 -0.27028 192 234 140
0.267636 -0.46832 -0.17114 192 234 140
0.270321 -0.248794 -0.264867 192 234 140
0.102167 -0.074412 -0.269114 192 234 140
0.248761 -0.183073 -0.269446 192 234 140
0.143716 -0.0578325 -0.269671 192 234 140
0.179422 -0.236366 -0.270607 192 234 140
0.0329806 -0.484056 0.0755678 192 234 140
0.262829 -0.274917 -0.268407 192 234 140
0.212348 -0.469185 -0.276284 192 234 140
0.0539757 -0.327931 -0.270995 192 234 140
0.10077 -0.0679957 -0.269066 192 234 140
0.114171 -0.334078 -0.273125 192 234 140
-0.112809 -0.140593 -0.269621 192 234 140
-0.00133258 -0.0221814 -0.267808 192 234 140
0.107295 -0.148577 -0.267821 192 234 140
0.114191 -0.164829 -0.268351 192 234 140
-0.120664 -0.288342 -0.270191 192 234 140
0.0261257 -0.311102 -0.268559 192 234 140
0.254691 -0.148106 -0.268722 192 234 140
0.141539 -0.419249 -0.26843 192 234 140
0.275099 -0.29222 -0.263836 192 234 140
0.0722857 -0.0479778 -0.269823 192 234 140
0.0239468 -0.0527783 -0.268692 192 234 140
0.0482898 -0.430367 -0.269039 192 234 140
0.293123 -0.367901 -0.249688 192 234 140
0.313153 -0.369476 -0.227957 192 234 140
0.2883 -0.307305 -0.253138 192 234 140
0.0739329 -0.207279 -0.26865 192 234 140
0.260016 -0.175147 -0.266868 192 234 140
-0.0500559 -0.314111 -0.268309 192 234 140
0.266345 -0.281645 -0.267572 192 234 140
-0.194304 -0.484428 0.119642 192 234 140
0.308575 -0.437498 -0.208372 192 234 140
0.075097 -0.483223 0.0465836 192 234 140
0.0118713 -0.44927 -0.269151 192 234 140
0.142721 -0.484918 -0.259626 192 234 140
0.181916 -0.0730226 -0.270809 192 234 140
0.146975 -0.481671 -0.121059 192 234 140
0.14155 -0.0788302 -0.269698 192 234 140
0.184596 -0.300719 -0.271128 192 234 140
-0.0521668 -0.354235 -0.269048 192 234 140
0.253455 -0.0809508 -0.270599 192 234 140
0.290147 -0.311976 -0.24651 192 234 140
0.207184 -0.0981393 -0.27041 192 234 140
0.219007 -0.368228 -0.27212 192 234 140
0.242497 -0.193963 -0.270837 192 234 140
0.132363 -0.172983 -0.269237 192 234 140
0.105647 -0.121997 -0.268579 192 234 140
0.225239 -0.369634 -0.272276 192 234 140
0.0308745 -0.108447 -0.26901 192 234 140
0.0819707 -0.375954 -0.271449 192 234 140
0.0911944 -0.423481 -0.268351 192 234 140
0.2567 -0.286317 -0.270084 192 234 140
0.217426 -0.431985 -0.273116 192 234 140
0.192578 -0.0519087 -0.270703 192 234 140
0.044631 -0.484094 -0.0914275 192 234 140
0.154076 -0.472795 -0.272955 192 234 140
0.144591 -0.0946893 -0.269776 192 234 140
0.24243 -0.367905 -0.27243 192 234 140
0.129499 -0.412502 -0.269096 192 234 140
-0.189604 -0.327018 -0.270416 192 234 140
-0.0466561 -0.484498 0.134957 192 234 140
0.0918617 -0.0367679 -0.269399 192 234 140
0.199801 -0.0559143 -0.270739 192 234 140
-0.0984606 -0.0804175 -0.269596 192 234 140
0.202272 -0.333401 -0.272074 192 234 140
0.0347894 -0.0239365 -0.269179 192 234 140
-0.175991 -0.15772 -0.270686 192 234 140
0.268217 -0.404367 -0.262459 192 234 140
-0.0533388 -0.0842888 -0.267761 192 234 140
0.187962 -0.484901 -0.240951 192 234 140
-0.137329 -0.0172904 -0.269094 192 234 140
0.0314472 -0.175729 -0.266603 192 234 140
0.191951 -0.147951 -0.269716 192 234 140
0.286268 -0.323662 -0.253979 192 234 140
0.169003 -0.146236 -0.269551 192 234 140
0.201523 -0.469972 -0.275707 192 234 140
0.110933 -0.465209 -0.270947 192 234 140
0.0724909 -0.352522 -0.272132 192 234 140
-0.0810662 -0.065339 -0.268794 192 234 140
0.261978 -0.413602 -0.26491 192 234 140
0.254953 -0.340494 -0.271474 192 234 140
0.197067 -0.460228 -0.275171 192 234 140
0.0433251 -0.484009 0.0360618 192 234 140
0.224743 -0.0866497 -0.271719 192 234 140
0.222246 -0.367745 -0.272216 192 234 140
0.139763 -0.481801 -0.0470454 192 234 140
-0.18402 -0.212293 -0.269057 192 234 140
0.25658 -0.211768 -0.268567 192 234 140
0.0592193 -0.037577 -0.269869 192 234 140
0.00486814 -0.0953852 -0.267984 192 234 140
-0.184689 -0.485225 -0.00280885 192 234 140
0.175668 -0.283351 -0.270732 192 234 140
0.0541874 -0.380747 -0.2691 192 234 140
0.16462 -0.404105 -0.270414 192 234 140
0.104139 -0.393761 -0.271052 192 234 140
0.272931 -0.451669 -0.250809 192 234 140
0.144356 -0.208196 -0.27018 192 234 140
0.146869 -0.39129 -0.271233 192 234 140
-0.0702569 -0.355079 -0.269321 192 234 140
0.185027 -0.452634 -0.273621 192 234 140
0.190943 -0.418146 -0.270656 192 234 140
0.294736 -0.403626 -0.245748 192 234 140
-0.0742246 -0.484224 -0.213759 192 234 140
0.102611 -0.482545 0.0556417 192 234 140
0.278033 -0.461445 -0.216223 192 234 140
0.11089 -0.437489 -0.270153 192 234 140
-0.146272 -0.484485 0.115067 192 234 140
0.0914205 -0.159531 -0.268689 192 234 140
0.184638 -0.0712838 -0.270804 192 234 140
-0.109754 -0.3739 -0.269827 192 234 140
0.185165 -0.229295 -0.270785 192 234 140
0.232467 -0.179395 -0.271146 192 234 140
0.116681 -0.387988 -0.271785 192 234 140
-0.211806 -0.485383 -0.0488887 192 234 140
0.0684924 -0.367599 -0.271466 192 234 140
0.163866 -0.103867 -0.269667 192 234 140
-0.0647607 -0.206715 -0.266404 192 234 140
0.0652749 -0.247783 -0.268714 192 234 140
-0.0496104 -0.412443 -0.266381 192 234 140
-0.10996 -0.212474 -0.268234 192 234 140
0.175153 -0.45015 -0.273055 192 234 140
0.201604 -0.470836 -0.275728 192 234 140
-0.129686 -0.484938 0.0672742 192 234 140
0.160602 -0.237594 -0.270274 192 234 140
-0.0939515 -0.43242 -0.270812 192 234 140
-0.0771503 -0.455072 -0.273942 192 234 140
-0.0255331 -0.46104 -0.271203 192 234 140
0.324106 -0.411771 -0.210121 192 234 140
0.245568 -0.141654 -0.270247 192 234 140
0.0905179 -0.119866 -0.269213 192 234 140
0.0183575 -0.11076 -0.268601 192 234 140
0.173708 -0.373213 -0.271438 192 234 140
0.11096 -0.148518 -0.267721 192 234 140
0.00752978 -0.260482 -0.26669 192 234 140
0.0898883 -0.429375 -0.269272 192 234 140
0.15912 -0.0268704 -0.27038 192 234 140
0.255936 -0.33831 -0.271181 192 234 140
0.0889712 -0.151572 -0.268442 192 234 140
0.327421 -0.426555 -0.187212 192 234 140
0.24361 -0.439889 -0.272326 192 234 140
-0.0916559 -0.484869 0.096671 192 234 140
0.128884 -0.43577 -0.269361 192 234 140
0.174471 -0.342184 -0.27157 192 234 140
0.0449729 -0.484193 -0.0700604 192 234 140
-0.0707645 -0.468373 -0.276127 192 234 140
0.00124722 -0.324343 -0.268528 192 234 140
0.161797 -0.38737 -0.271271 192 234 140
0.277717 -0.355064 -0.261039 192 234 140
-0.0444644 0.00154844 -0.267061 192 234 140
-0.0171368 -0.397748 -0.266005 192 234 140
0.216704 -0.473752 -0.275984 192 234 140
0.198649 -0.0750094 -0.270726 192 234 140
0.101272 -0.42915 -0.269144 192 234 140
0.0356628 -0.138992 -0.267944 192 234 140
0.291897 -0.381872 -0.250152 192 234 140
-0.0178609 -0.320131 -0.267874 192 234 140
0.177864 -0.39603 -0.271163 192 234 140
0.242873 -0.0788728 -0.271715 192 234 140
0.207159 -0.18264 -0.271039 192 234 140
0.206771 -0.408089 -0.271131 192 234 140
-0.0542771 -0.177262 -0.2651 192 234 140
-0.00400873 -0.442721 -0.269095 192 234 140
0.187734 -0.247413 -0.270623 192 234 140
-0.0203333 -0.0434083 -0.267133 192 234 140
-0.15306 -0.200353 -0.268638 192 234 140
0.100259 -0.257215 -0.270935 192 234 140
-0.0526075 0.00398169 -0.267256 192 234 140
0.0777033 -0.157448 -0.268206 192 234 140
-0.111042 -0.0766232 -0.269837 192 234 140
0.122295 -0.409655 -0.26941 192 234 140
0.254293 -0.104065 -0.269375 192 234 140
0.306561 -0.40908 -0.233868 192 234 140
0.0668675 -0.255426 -0.269017 192 234 140
-0.111441 -0.0806569 -0.269918 192 234 140
-0.0701235 -0.119402 -0.268761 192 234 140
0.189691 -0.0683823 -0.270727 192 234 140
0.127998 -0.15151 -0.268235 192 234 140
0.173375 -0.254306 -0.27076 192 234 140
-0.0656592 -0.484681 0.123129 192 234 140
-0.155081 -0.484801 -0.0835226 192 234 140
0.178609 -0.103652 -0.269145 192 234 140
0.192743 -0.217715 -0.271382 192 234 140
-0.0122401 0.00517721 -0.267506 192 234 140
0.300154 -0.426967 -0.234865 192 234 140
-0.104304 -0.480032 -0.274325 192 234 140
0.217232 -0.469572 -0.276419 192 234 140
0.0696132 -0.45962 -0.270557 192 234 140
0.293786 -0.431167 -0.240047 192 234 140
-0.220336 -0.483892 -0.240742 192 234 140
0.274042 -0.279666 -0.2641 192 234 140
0.201175 -0.375396 -0.271492 192 234 140
0.133988 -0.357983 -0.27299 192 234 140
-0.138852 -0.163036 -0.269399 192 234 140
-0.100809 -0.358302 -0.269793 192 234 140
-0.191372 -0.328243 -0.2704 192 234 140
0.295135 -0.348532 -0.24738 192 234 140
0.1581 -0.376544 -0.271797 192 234 140
-0.164051 -0.341852 -0.270081 192 234 140
-0.0762895 -0.484758 0.131317 192 234 140
-0.0786032 -0.200809 -0.266843 192 234 140
-0.223427 -0.485145 0.054995 192 234 140
0.158181 -0.367864 -0.271921 192 234 140
0.150781 -0.443503 -0.270714 192 234 140
0.142963 -0.10128 -0.269419 192 234 140
-0.0865741 -0.484739 0.132817 192 234 140
0.00840502 -0.0283123 -0.268175 192 234 140
0.223024 -0.477785 -0.265435 192 234 140
0.242209 -0.366081 -0.272501 192 234 140
0.306621 -0.356495 -0.236408 192 234 140
-0.051505 -0.484601 0.0974441 192 234 140
-0.0191224 -0.293799 -0.267283 192 234 140
0.211943 -0.481048 -0.256785 192 234 140
-0.0921572 -0.197694 -0.267232 192 234 140
0.208936 -0.372499 -0.27176 192 234 140
0.268798 -0.265734 -0.266025 192 234 140
0.0566389 -0.161093 -0.267405 192 234 140
0.0415198 -0.279624 -0.268146 192 234 140
0.258774 -0.149713 -0.267613 192 234 140
-0.25341 -0.48549 0.016262 192 234 140
-0.0866331 -0.103409 -0.269455 192 234 140
-0.0892152 -0.379663 -0.269314 192 234 140
0.23751 -0.0823368 -0.271893 192 234 140
0.184313 -0.102511 -0.26914 192 234 140
0.150411 -0.253396 -0.270767 192 234 140
0.24 -0.477995 -0.217342 192 234 140
-0.148332 -0.0617736 -0.270246 192 234 140
0.210782 -0.484145 -0.203674 192 234 140
0.210869 -0.292402 -0.271567 192 234 140
0.101304 -0.481969 -0.173983 192 234 140
0.106369 -0.182154 -0.269456 192 234 140
-0.117257 -0.484795 -0.109645 192 234 140
0.257625 -0.460189 -0.260056 192 234 140
0.047204 -0.244226 -0.267727 192 234 140
0.22546 -0.36467 -0.272413 192 234 140
0.176319 -0.486139 -0.19816 192 234 140
0.046702 -0.0630752 -0.269513 192 234 140
0.205185 -0.0709993 -0.271118 192 234 140
0.204174 -0.463426 -0.275877 192 234 140
-0.125121 -0.485142 0.0231378 192 234 140
0.0412506 -0.0587164 -0.269328 192 234 140
0.112314 -0.389848 -0.271614 192 234 140
0.291023 -0.377609 -0.25096 192 234 140
0.121793 -0.0467877 -0.268907 192 234 140
-0.131783 -0.456591 -0.276387 192 234 140
-0.192882 -0.484623 -0.168359 192 234 140
-0.205648 -0.333435 -0.270429 192 234 140
-0.0511219 -0.336442 -0.269011 192 234 140
0.0880764 -0.482905 0.0483292 192 234 140
0.114115 -0.206399 -0.269855 192 234 140
0.093924 -0.417514 -0.268204 192 234 140
0.13718 -0.108953 -0.268972 192 234 140
0.104234 -0.19688 -0.269802 192 234 140
-0.0172616 -0.178042 -0.266799 224 210 119
-0.254762 -0.194916 -0.266987 224 210 119
-0.134655 0.0139156 -0.258949 224 210 119
-0.241551 0.0372771 -0.265879 224 210 119
-0.222951 -0.108793 -0.260011 224 210 119
-0.332131 -0.193177 -0.0634137 224 210 119
-0.0586727 -0.226899 -0.266105 224 210 119
-0.328131 -0.252397 0.0978909 224 210 119
-0.310464 -0.428099 0.027159 224 210 119
-0.331284 0.0190109 -0.104815 224 210 119
-0.21787 -0.0567143 -0.2587 224 210 119
-0.160569 0.00353219 -0.258923 224 210 119
-0.00989581 -0.377888 -0.265541 224 210 119
-0.0984859 -0.313638 -0.266804 224 210 119
-0.311539 -0.106502 -0.261659 224 210 119
-0.31788 0.0193376 -0.268496 224 210 119
-0.335207 -0.212633 -0.100582 224 210 119
-0.191615 -0.242967 -0.269789 224 210 119
-0.337243 0.029187 -0.181525 224 210 119
-0.33166 -0.184213 -0.150431 224 210 119
-0.324483 -0.134261 0.0736525 224 210 119
-0.332294 -0.360057 -0.175494 224 210 119
-0.319491 -0.254629 -0.240224 224 210 119
-0.296391 -0.0784775 -0.263015 224 210 119
-0.322233 -0.118647 0.121546 224 210 119
-0.331609 -0.421744 -0.055579 224 210 119
-0.334728 0.0241438 -0.14891 224 210 119
-0.32416 -0.079237 -0.229361 224 210 119
-0.328691 -0.296294 -0.207895 224 210 119
-0.0946192 -0.0121874 -0.258031 224 210 119
-0.150145 -0.28076 -0.268143 224 210 119
0.0827363 -0.181811 -0.261652 224 210 119
-0.132677 0.00403596 -0.258548 224 210 119
-0.0504028 -0.182383 -0.266995 224 210 119
-0.328649 -0.0588574 0.123099 224 210 119
-0.29214 -0.0984025 -0.263063 224 210 119
-0.271474 -0.449742 -0.270086 224 210 119
-0.334011 -0.370958 -0.0581337 224 210 119
-0.2931 -0.191195 -0.26669 224 210 119
-0.323285 -0.357139 0.0139955 224 210 119
-0.330351 -0.0206459 -0.201694 224 210 119
-0.33171 -0.193331 -0.152504 224 210 119
-0.32874 -0.247756 0.0607801 224 210 119
-0.239991 -0.267213 -0.269889 224 210 119
-0.322396 -0.145818 -0.254023 224 210 119
-0.0627521 -0.250017 -0.26551 224 210 119
-0.332879 -0.445185 -0.0976245 224 210 119
-0.329119 -0.182347 -0.00924915 224 210 119
-0.32188 0.0410136 -0.269317 224 210 119
-0.335139 -0.419022 -0.172072 224 210 119
-0.331702 -0.470569 -0.242136 224 210 119
-0.2246 -0.193631 -0.265217 224 210 119
-0.171505 -0.166048 -0.264668 224 210 119
-0.326972 -0.237408 -0.228404 224 210 119
-0.32464 -0.000910103 0.0272442 224 210 119
-0.333392 -0.251417 -0.170743 224 210 119
-0.259667 -0.0298901 -0.268599 224 210 119
-0.319782 0.00954736 -0.26635 224 210 119
-0.318451 -0.275913 -0.262123 224 210 119
-0.328151 -0.289346 0.0620236 224 210 119
-0.193102 -0.24958 -0.269691 224 210 119
-0.323989 -0.364607 0.108568 224 210 119
-0.332865 -0.196438 -0.0773829 224 210 119
0.0928563 -0.188724 -0.261762 224 210 119
-0.315854 -0.298117 -0.249201 224 210 119
-0.331759 -0.218008 -0.175875 224 210 119
-0.328186 -0.142617 -0.182226 224 210 119
-0.331082 -0.176144 -0.151844 224 210 119
-0.271555 -0.455057 -0.270257 224 210 119
-0.320854 -0.0422701 -0.260834 224 210 119
-0.26322 -0.418234 -0.269374 224 210 119
-0.0202783 -0.147848 -0.26584 224 210 119
-0.279676 -0.402752 -0.269778 224 210 119
-0.170673 0.00279453 -0.257973 224 210 119
-0.325947 -0.3824 0.0578906 224 210 119
-0.322411 -0.110197 -0.254663 224 210 119
-0.330653 -0.165605 -0.111776 224 210 119
-0.129873 -0.155972 -0.266724 224 210 119
-0.334048 -0.193673 -0.122318 224 210 119
-0.323985 -0.0831171 -0.0331305 224 210 119
0.0308815 -0.470061 -0.262052 224 210 119
-0.0777642 -0.305603 -0.266179 224 210 119
-0.324377 -0.0708891 -0.13657 224 210 119
-0.327105 -0.14791 -0.195125 224 210 119
-0.237231 -0.421042 -0.269659 224 210 119
-0.32539 -0.00796259 0.0322888 224 210 119
-0.00189991 -0.473498 -0.262966 224 210 119
-0.324371 -0.245691 -0.254863 224 210 119
-0.128983 -0.197445 -0.268722 224 210 119
-0.332089 -0.169272 -0.139506 224 210 119
-0.32548 -0.0294153 -0.147051 224 210 119
-0.266422 -0.199667 -0.267544 224 210 119
-0.209261 -0.47653 -0.270256 224 210 119
-0.247486 -0.362132 -0.268386 224 210 119
-0.216466 -0.0432517 -0.258857 224 210 119
-0.217749 -0.299839 -0.269411 224 210 119
0.0209029 -0.383018 -0.265264 224 210 119
-0.13285 0.0224511 -0.257056 224 210 119
-0.322352 -0.245177 -0.217303 224 210 119
-0.244809 -0.238882 -0.270033 224 210 119
-0.0313428 -0.0347927 -0.257008 224 210 119
-0.337481 -0.254246 -0.107635 224 210 119
-0.328191 -0.138054 -0.181378 224 210 119
-0.333558 -0.25381 -0.170103 224 210 119
-0.0108475 -0.295345 -0.265496 224 210 119
-0.252904 -0.462062 -0.270938 224 210 119
-0.326777 -0.0909224 -0.198374 224 210 119
-0.322253 -0.311666 -0.22648 224 210 119
-0.321815 -0.0115336 0.0078057 224 210 119
-0.125846 -0.10609 -0.263488 224 210 119
0.0560031 -0.376723 -0.264924 224 210 119
-0.227487 0.0114741 -0.262418 224 210 119
-0.113292 -0.0518251 -0.259595 224 210 119
-0.326419 -0.11197 -0.10739 224 210 119
-0.219048 -0.198306 -0.265358 224 210 119
-0.329639 -0.357246 -0.234016 224 210 119
-0.191146 -0.170502 -0.263993 224 210 119
-0.33436 -0.289272 -0.155117 224 210 119
-0.335816 0.0337306 -0.21449 224 210 119
-0.327897 -0.135502 -0.0729285 224 210 119
-0.105495 -0.303906 -0.266456 224 210 119
-0.177159 -0.122341 -0.260764 224 210 119
0.0169214 -0.472614 -0.262364 224 210 119
-0.135586 -0.320774 -0.267072 224 210 119
-0.160447 -0.0275746 -0.256846 224 210 119
-0.324724 -0.345757 0.128567 224 210 119
-0.32091 -0.431995 0.117723 224 210 119
-0.185286 -0.102285 -0.259071 224 210 119
-0.0531486 -0.316923 -0.265813 224 210 119
-0.110309 -0.140474 -0.265787 224 210 119
-0.31744 -0.177867 -0.25859 224 210 119
-0.241409 -0.327295 -0.268719 224 210 119
-0.292497 -0.487809 -0.270993 224 210 119
-0.0278368 0.0117316 -0.255039 224 210 119
-0.238484 -0.395683 -0.269087 224 210 119
-0.327161 -0.188743 -0.20229 224 210 119
-0.329121 -0.395214 -0.251043 224 210 119
-0.150408 -0.351016 -0.267563 224 210 119
-0.288012 0.0309804 -0.271035 224 210 119
-0.327782 -0.235891 -0.205717 224 210 119
-0.326505 -0.354856 -0.257746 224 210 119
-0.306654 -0.143708 -0.262782 224 210 119
-0.0761738 -0.415927 -0.265391 224 210 119
-0.327821 -0.349483 -0.25317 224 210 119
-0.327687 -0.244968 -0.217124 224 210 119
-0.330499 -0.191925 -0.175723 224 210 119
-0.314073 -0.19286 0.0503866 224 210 119
-0.194953 -0.436754 -0.268685 224 210 119
0.0701071 -0.289323 -0.263982 224 210 119
-0.324103 -0.0476199 -0.109728 224 210 119
-0.330468 -0.219179 -0.185271 224 210 119
-0.333657 -0.382107 -0.0598169 224 210 119
-0.267187 -0.0186858 -0.263651 224 210 119
-0.326599 -0.214111 -0.218843 224 210 119
-0.0181935 -0.124022 -0.264296 224 210 119
-0.323598 -0.064525 -0.0508195 224 210 119
-0.124852 -0.265253 -0.26755 224 210 119
-0.320011 -0.437375 -0.0715372 224 210 119
0.00998967 -0.430587 -0.263744 224 210 119
-0.228472 -0.226492 -0.267855 224 210 119
-0.323537 -0.112508 -0.228242 224 210 119
-0.334068 -0.232587 -0.0618078 224 210 119
-0.21409 0.0512553 -0.264553 224 210 119
-0.316043 -0.16578 -0.259418 224 210 119
-0.32945 0.00296583 -0.256062 224 210 119
-0.139345 -0.280122 -0.26776 224 210 119
-0.05172 -0.0924782 -0.261639 224 210 119
-0.313291 -0.191406 -0.261181 224 210 119
-0.318723 -0.349257 -0.247955 224 210 119
-0.32866 -0.311384 -0.237586 224 210 119
-0.00422079 -0.423228 -0.264053 224 210 119
0.00765718 -0.170183 -0.265207 224 210 119
-0.323545 -0.122726 -0.252589 224 210 119
-0.328002 -0.191711 0.0719863 224 210 119
-0.0993019 -0.161157 -0.266625 224 210 119
-0.318295 -0.369577 -0.26534 224 210 119
-0.272272 -0.0460116 -0.273312 224 210 119
-0.145146 -0.28804 -0.267717 224 210 119
-0.329372 -0.336063 -0.229178 224 210 119
-0.290534 -0.462711 -0.270309 224 210 119
-0.329642 -0.318403 -0.194107 224 210 119
-0.333536 -0.312676 -0.0484375 224 210 119
-0.335198 -0.366277 -0.160862 224 210 119
-0.0763292 -0.0531562 -0.258121 224 210 119
-0.317616 -0.455987 -0.114571 224 210 119
-0.323537 -0.366309 -0.261212 224 210 119
-0.327375 -0.22876 -0.139187 224 210 119
-0.0207141 -0.432701 -0.264002 224 210 119
-0.108797 -0.421231 -0.265212 224 210 119
-0.123053 -0.191683 -0.268432 224 210 119
-0.324077 -0.030324 -0.060128 224 210 119
-0.28341 0.0443404 -0.269913 224 210 119
-0.248821 -0.0465226 -0.261009 224 210 119
-0.285476 -0.409608 -0.270185 224 210 119
-0.322717 -0.423087 -0.263224 224 210 119
-0.219128 -0.404976 -0.268932 224 210 119
-0.158368 0.0401459 -0.259301 224 210 119
-0.330458 -0.420547 -0.244127 224 210 119
-0.243505 -0.108083 -0.261344 224 210 119
-0.268426 -0.278554 -0.2717 224 210 119
-0.328617 -0.414688 0.005602 224 210 119
-0.308616 -0.382031 -0.269488 224 210 119
-0.181974 -0.0221767 -0.256716 224 210 119
-0.309016 0.0253903 -0.270425 224 210 119
-0.0877624 -0.25542 -0.266269 224 210 119
-0.0980858 -0.274706 -0.265951 224 210 119
-0.330747 0.0260749 -0.259533 224 210 119
-0.176579 -0.349862 -0.268504 224 210 119
-0.32807 -0.199451 0.0915553 224 210 119
-0.335461 -0.226715 -0.140415 224 210 119
-0.103454 -0.304681 -0.266474 224 210 119
-0.321882 -0.0511228 -0.0267373 224 210 119
-0.336758 -0.287503 -0.0985522 224 210 119
-0.324561 -0.150026 -0.234328 224 210 119
-0.320446 -0.312995 -0.239518 224 210 119
-0.262619 -0.149544 -0.264523 224 210 119
-0.035069 -0.346787 -0.266044 224 210 119
-0.328728 -0.293112 -0.209822 224 210 119
-0.32321 -0.417322 -0.262593 224 210 119
-0.297031 -0.271295 -0.27131 224 210 119
-0.28342 -0.312934 -0.271704 224 210 119
-0.0338438 -0.406477 -0.264721 224 210 119
-0.111038 -0.0560646 -0.259941 224 210 119
-0.331746 -0.291749 -0.0187947 224 210 119
-0.266629 -0.187367 -0.259901 224 210 119
0.0325595 -0.374157 -0.265193 224 210 119
-0.314136 -0.426888 5.31375e-05 224 210 119
-0.276473 -0.0128772 -0.267895 224 210 119
-0.334239 -0.334849 -0.0565342 224 210 119
-0.10584 -0.382217 -0.266293 224 210 119
-0.0670116 -0.216043 -0.266571 224 210 119
0.0561767 -0.324349 -0.264823 224 210 119
-0.156735 0.0183955 -0.258806 224 210 119
-0.328713 -0.345583 -0.245801 224 210 119
-0.180731 0.0361519 -0.261238 224 210 119
-0.0715765 -0.308954 -0.266211 224 210 119
-0.0861187 -0.237181 -0.266706 224 210 119
-0.324312 -0.0746974 -0.0818913 224 210 119
-0.32741 -0.174496 0.0236979 224 210 119
-0.320925 -0.182596 -0.255778 224 210 119
-0.300536 -0.130362 -0.263809 224 210 119
-0.213228 -0.446456 -0.269565 224 210 119
-0.327053 -0.211269 -0.204658 224 210 119
-0.267304 -0.0640509 -0.261564 224 210 119
-0.184815 -0.0507197 -0.256642 224 210 119
-0.183347 -0.442946 -0.268307 224 210 119
-0.277787 -0.453117 -0.270045 224 210 119
-0.323823 -0.0210517 -0.261152 224 210 119
-0.330746 -0.469884 -0.251775 224 210 119
-0.140576 -0.311575 -0.26728 224 210 119
-0.334253 -0.0481976 -0.178279 224 210 119
-0.235871 -0.139403 -0.262393 224 210 119
-0.319126 -0.293957 -0.261466 224 210 119
-0.225304 -0.457597 -0.270172 224 210 119
-0.325873 -0.322816 0.125464 224 210 119
-0.332338 -0.218616 -0.161679 224 210 119
-0.0949424 -0.473272 -0.265522 224 210 119
-0.322464 -0.477431 -0.266572 224 210 119
-0.334987 -0.359499 -0.160702 224 210 119
-0.321609 -0.106886 0.122269 224 210 119
-0.121905 -0.0749798 -0.261352 224 210 119
-0.064643 -0.250792 -0.26557 224 210 119
-0.313686 -0.319257 0.0488033 224 210 119
-0.331514 -0.208121 -0.170229 224 210 119
0.0720171 -0.260174 -0.263299 224 210 119
-0.326925 -0.0316513 0.107113 224 210 119
-0.32064 -0.457997 -0.266654 224 210 119
-0.0450881 -0.313115 -0.265644 224 210 119
-0.329202 -0.307349 -0.196281 224 210 119
-0.310789 -0.375432 -0.269041 224 210 119
-0.324031 -0.363569 0.110288 224 210 119
-0.319925 0.0181388 -0.267329 224 210 119
-0.323903 -0.0669493 -0.082592 224 210 119
-0.326829 -0.119547 -0.199582 224 210 119
-0.329875 -0.344772 -0.217212 224 210 119
-0.323541 -0.350206 -0.219243 224 210 119
-0.300598 0.00485855 -0.268274 224 210 119
-0.3233 0.0639579 -0.275089 224 210 119
-0.328043 -0.274229 0.090516 224 210 119
-0.340324 -0.045762 -0.223724 224 210 119
-0.099089 -0.0670973 -0.260773 224 210 119
-0.328218 -0.0744172 -0.171519 224 210 119
-0.192564 0.0245781 -0.261546 224 210 119
-0.0244714 -0.117946 -0.263948 224 210 119
-0.324179 -0.0693511 -0.134693 224 210 119
-0.322525 -0.379794 0.136944 224 210 119
-0.321193 -0.420527 -0.264197 224 210 119
-0.337079 -0.377777 -0.139894 224 210 119
-0.263889 -0.0400451 -0.262146 224 210 119
-0.327914 -0.0681207 -0.000471868 224 210 119
-0.323705 -0.371632 0.10254 224 210 119
-0.325078 -0.00317191 -0.0512856 224 210 119
-0.329235 -0.321512 0.0179643 224 210 119
-0.334462 -0.205507 -0.137994 224 210 119
-0.102125 -0.382219 -0.266275 224 210 119
-0.342455 0.057149 -0.258812 224 210 119
-0.126382 -0.458469 -0.265155 224 210 119
-0.33066 -0.193584 -0.174064 224 210 119
0.0395584 -0.033704 -0.256203 224 210 119
0.0204923 -0.119602 -0.262239 224 210 119
-0.32435 -0.0349954 -0.136341 224 210 119
-0.322676 -0.436968 -0.0856586 224 210 119
-0.330482 0.00930342 -0.252294 224 210 119
-0.326459 -0.20616 -0.219855 224 210 119
-0.33123 0.0237155 -0.120384 224 210 119
0.026659 -0.294932 -0.264612 224 210 119
-0.328673 -0.347006 -0.0587289 224 210 119
-0.3361 -0.418602 -0.156692 224 210 119
-0.237087 0.012478 -0.263314 224 210 119
-0.170166 -0.319529 -0.268476 224 210 119
-0.336415 -0.446704 -0.177257 224 210 119
-0.33214 -0.415587 -0.0593164 224 210 119
-0.326951 -0.0318678 0.109649 224 210 119
-0.328238 -0.235754 0.101858 224 210 119
-0.189997 -0.259262 -0.269457 224 210 119
-0.334756 0.0322882 -0.167329 224 210 119
-0.323959 -0.0688606 -0.0673879 224 210 119
0.0338022 -0.0771484 -0.257163 224 210 119
-0.0775143 -0.0308978 -0.257546 224 210 119
-0.331294 -0.18158 -0.0802141 224 210 119
-0.30972 -0.141144 -0.261837 224 210 119
-0.0749053 -0.153064 -0.266315 224 210 119
-0.306191 -0.23114 -0.267761 224 210 119
-0.33718 -0.330234 -0.110207 224 210 119
-0.243785 -0.29809 -0.269369 224 210 119
-0.255115 -0.195736 -0.263188 224 210 119
-0.331877 -0.473413 -0.230477 224 210 119
-0.331563 -0.406252 -0.20719 224 210 119
-0.219816 -0.288072 -0.269417 224 210 119
-0.141812 -0.48829 -0.266563 224 210 119
-0.160651 -0.0350027 -0.256772 224 210 119
-0.169566 -0.472269 -0.268205 224 210 119
-0.325579 -0.0781012 -0.25109 224 210 119
-0.324779 -0.357409 -0.00301238 224 210 119
-0.329195 -0.144705 -0.153298 224 210 119
-0.327971 -0.277651 -0.182694 224 210 119
-0.170539 -0.431322 -0.267539 224 210 119
-0.325593 -0.394276 -0.234647 224 210 119
-0.328284 -0.415562 -0.145971 224 210 119
-0.315499 -0.294499 -0.264174 224 210 119
-0.260392 -0.342707 -0.269214 224 210 119
-0.258271 -0.377054 -0.268327 224 210 119
-0.32191 -0.424433 -0.0553797 224 210 119
-0.335848 -0.261339 -0.086974 224 210 119
-0.3299 -0.371565 -0.236445 224 210 119
-0.325427 -0.323034 -0.257791 224 210 119
-0.0196187 -0.299853 -0.265655 224 210 119
-0.29786 -0.149073 -0.264472 224 210 119
-0.328725 -0.245775 0.0634963 224 210 119
-0.32184 -0.0148935 0.0778343 224 210 119
-0.187582 -0.0368514 -0.262403 224 210 119
-0.320622 -0.378552 -0.250239 224 210 119
-0.322678 -0.173775 -0.25347 224 210 119
-0.0717564 -0.346815 -0.266978 224 210 119
-0.0548606 -0.210279 -0.266732 224 210 119
-0.33294 -0.214655 -0.151234 224 210 119
-0.151727 -0.055186 -0.258183 224 210 119
-0.325295 -0.00178793 -0.00489683 224 210 119
0.087863 -0.18329 -0.261624 224 210 119
-0.325123 -0.0877061 -0.0728373 224 210 119
-0.332068 -0.473099 -0.224999 224 210 119
0.0469858 -0.274251 -0.264126 224 210 119
-0.333931 -0.25374 -0.165688 224 210 119
-0.0488159 -0.24818 -0.265636 224 210 119
-0.320662 -0.450562 -0.0899334 224 210 119
0.0486656 -0.31766 -0.264856 224 210 119
-0.163937 0.0005638 -0.257619 224 210 119
-0.336868 -0.227945 -0.119936 224 210 119
-0.233035 -0.0714171 -0.25978 224 210 119
0.0777467 -0.218709 -0.26254 224 210 119
-2.90573e-06 -0.0567986 -0.257259 224 210 119
-0.333252 -0.346877 -0.0389585 224 210 119
-0.335826 -0.342662 -0.153966 224 210 119
-0.321182 -0.267842 -0.233668 224 210 119
-0.331285 -0.126894 -0.139242 224 210 119
-0.330723 -0.187461 -0.157644 224 210 119
-0.325921 -0.0884222 -0.209553 224 210 119
-0.19408 -0.10414 -0.276908 224 210 119
-0.328982 -0.416106 -0.185793 224 210 119
-0.193172 -0.246634 -0.269752 224 210 119
-0.330067 -0.194644 -0.181831 224 210 119
-0.325047 -0.238602 -0.102737 224 210 119
0.0297869 -0.184153 -0.263975 224 210 119
-0.335756 -0.323443 -0.0840197 224 210 119
-0.327742 -0.436027 -0.123348 224 210 119
-0.327371 -0.247225 -0.236075 224 210 119
-0.261385 0.0320796 -0.268615 224 210 119
0.0523738 -0.359106 -0.264868 224 210 119
-0.328597 -0.404417 -0.215063 224 210 119
-0.324414 -0.00826391 0.0854688 224 210 119
-0.332262 -0.380224 -0.174575 224 210 119
-0.268875 -0.137471 -0.264059 224 210 119
-0.0822448 -0.138098 -0.265677 224 210 119
-0.274643 -0.226188 -0.269967 224 210 119
-0.328477 -0.341705 0.0311881 224 210 119
-0.261494 -0.22766 -0.269815 224 210 119
-0.328304 -0.249279 -0.206058 224 210 119
-0.0138138 -0.370956 -0.265688 224 210 119
-0.321168 -0.177502 -0.255461 224 210 119
-0.281807 -0.395001 -0.269997 224 210 119
-0.329716 -0.349415 -0.229449 224 210 119
-0.33119 -0.411317 -0.216904 224 210 119
-0.328349 -0.0397462 0.137937 224 210 119
-0.270276 -0.104135 -0.262567 224 210 119
-0.32668 -0.162812 0.0367461 224 210 119
-0.324915 -0.124148 -0.216105 224 210 119
-0.326205 -0.401583 0.0474356 224 210 119
-0.115063 -0.123098 -0.264596 224 210 119
-0.328696 -0.313383 -0.228629 224 210 119
-0.0333588 0.00817322 -0.254303 224 210 119
-0.294821 -0.090602 -0.262989 224 210 119
-0.32405 -0.0685934 -0.10568 224 210 119
-0.331703 -0.162935 -0.130766 224 210 119
-0.0661544 -0.0736188 -0.259487 224 210 119
-0.330542 -0.391555 -0.00957004 224 210 119
-0.305646 -0.460521 -0.0115256 224 210 119
-0.325492 -0.00597628 -0.0750972 224 210 119
-0.323267 -0.32511 -0.260324 224 210 119
-0.333243 -0.200062 -0.145307 224 210 119
-0.330143 -0.316934 0.00319364 224 210 119
-0.326998 -0.0721257 -0.183795 224 210 119
-0.332991 -0.268363 -0.17556 224 210 119
-0.323671 -0.0627424 -0.128977 224 210 119
-0.326904 -0.217472 -0.245539 224 210 119
-0.161952 -0.423317 -0.267313 224 210 119
-0.149934 -0.00374572 -0.258114 224 210 119
-0.132309 -0.0860971 -0.261579 224 210 119
-0.255755 -0.429453 -0.269767 224 210 119
-0.32764 -0.103398 -0.075511 224 210 119
-0.0860964 -0.246328 -0.266472 224 210 119
-0.248337 -0.191721 -0.266684 224 210 119
-0.332133 -0.189741 -0.0749091 224 210 119
0.0900379 -0.201766 -0.262211 224 210 119
-0.0294923 -0.262667 -0.265507 224 210 119
-0.327812 -0.0121073 -0.15516 224 210 119
-0.327787 -0.279011 0.0992732 224 210 119
-0.313387 -0.274331 -0.265624 224 210 119
-0.196487 -0.186163 -0.26521 224 210 119
0.065405 -0.0342751 -0.256399 224 210 119
0.00736453 -0.0960972 -0.260528 224 210 119
-0.330385 -0.238214 0.00381445 224 210 119
-0.315388 0.0412322 -0.271877 224 210 119
-0.325407 -0.0971716 -0.0493542 224 210 119
-0.0664827 -0.339875 -0.26669 224 210 119
0.00582508 -0.0341712 -0.256582 224 210 119
-0.152822 -0.469184 -0.267186 224 210 119
-0.119704 0.01193 -0.258728 224 210 119
-0.321837 -0.399087 -0.257729 224 210 119
-0.325198 -0.444257 -0.113661 224 210 119
-0.333199 -0.0419309 -0.131074 224 210 119
-0.334283 -0.448798 -0.122972 224 210 119
-0.329794 -0.34984 -0.227033 224 210 119
-0.340851 0.01767 -0.205158 224 210 119
-0.329689 -0.43107 -0.167784 224 210 119
-0.331106 -0.125778 -0.122514 224 210 119
-0.058788 -0.0987394 -0.262233 224 210 119
-0.268366 -0.251416 -0.271532 224 210 119
-0.329005 -0.320794 -0.182931 224 210 119
-0.0335296 -0.396337 -0.265198 224 210 119
-0.334619 -0.220739 -0.0756967 224 210 119
-0.328801 -0.376538 0.0216019 224 210 119
-0.250536 -0.391004 -0.26881 224 210 119
-0.139027 -0.139989 -0.264997 224 210 119
0.0292595 -0.182626 -0.263966 224 210 119
-0.240375 -0.00732299 -0.262026 224 210 119
-0.338414 -0.284386 -0.11597 224 210 119
-0.328158 -0.0654482 -0.16879 224 210 119
-0.0351564 -0.236547 -0.266334 224 210 119
-0.11786 -0.263525 -0.2673 224 210 119
-0.331487 -0.409545 -0.20961 224 210 119
0.080107 -0.205122 -0.262448 224 210 119
-0.274364 -0.133034 -0.264003 224 210 119
-0.281321 -0.117844 -0.263586 224 210 119
-0.320551 -0.205613 -0.25721 224 210 119
0.0691183 -0.199981 -0.262593 224 210 119
-0.333892 -0.417323 -0.184586 224 210 119
-0.0582886 -0.377908 -0.266604 224 210 119
-0.333556 -0.293986 -0.163474 224 210 119
0.00174074 -0.0134055 -0.255918 224 210 119
-0.330671 -0.335998 -0.191987 224 210 119
-0.323365 -0.419872 -0.246288 224 210 119
-0.329217 -0.332079 -0.228594 224 210 119
-0.325365 -0.119031 -0.212265 224 210 119
-0.337123 -0.354666 -0.139011 224 210 119
-0.0856746 -0.14577 -0.265896 224 210 119
-0.00423938 -0.0223207 -0.256235 224 210 119
-0.0995797 -0.131823 -0.265151 224 210 119
-0.250022 -0.0903241 -0.261101 224 210 119
-0.234838 -0.403654 -0.269214 224 210 119
-0.024648 -0.290717 -0.265771 224 210 119
-0.309822 -0.410236 -0.26939 224 210 119
-0.317221 -0.112304 -0.259513 224 210 119
0.0283035 -0.0611487 -0.256805 224 210 119
-0.0577062 -0.0727063 -0.259265 224 210 119
-0.267742 -0.0494577 -0.261931 224 210 119
-0.158698 -0.261779 -0.269096 224 210 119
-0.234895 -0.11969 -0.276613 224 210 119
-0.142633 -0.108445 -0.262487 224 210 119
-0.150102 -0.24267 -0.269155 224 210 119
-0.333871 0.0347395 -0.249212 224 210 119
-0.175025 -0.299244 -0.268518 224 210 119
-0.324394 -0.351002 0.129033 224 210 119
-0.332204 -0.442048 -0.0779615 224 210 119
-0.32103 -0.355012 -0.232923 224 210 119
-0.211967 0.0128377 -0.261271 224 210 119
-0.10041 -0.0987911 -0.263212 224 210 119
-0.284135 -0.006254 -0.265938 224 210 119
-0.24427 -0.338815 -0.268429 224 210 119
-0.335511 -0.0601269 -0.23735 224 210 119
-0.327318 -0.024082 -0.241883 224 210 119
-0.327958 -0.158927 -0.18643 224 210 119
-0.322383 -0.180511 -0.253951 224 210 119
-0.322601 -0.038144 0.297492 255 178 96
-0.333637 -0.279288 0.174422 255 178 96
-0.298106 -0.0330849 0.298931 255 178 96
-0.183508 -0.437308 0.294914 255 178 96
-0.333259 -0.0804252 0.179149 255 178 96
-0.32729 -0.110548 0.00205786 255 178 96
-0.335556 -0.111722 0.270025 255 178 96
-0.331964 -0.116113 0.148522 255 178 96
-0.336789 -0.460406 0.268757 255 178 96
-0.326399 -0.241682 0.0583523 255 178 96
-0.331264 -0.109057 0.137229 255 178 96
-0.190127 -0.488157 0.179136 255 178 96
-0.307576 -0.247415 0.295123 255 178 96
-0.293529 -0.485185 -0.0949654 255 178 96
-0.338222 -0.441799 0.186824 255 178 96
-0.334931 -0.0419164 0.239137 255 178 96
-0.247227 -0.130948 0.297641 255 178 96
-0.249691 -0.18152 0.295971 255 178 96
-0.221226 -0.4888 0.21839 255 178 96
-0.31694 -0.488262 0.282052 255 178 96
-0.331003 -0.186497 -0.132742 255 178 96
-0.336237 -0.287318 0.254044 255 178 96
-0.279865 -0.438936 0.299115 255 178 96
-0.335314 -0.25996 0.201028 255 178 96
-0.171725 -0.26798 0.292746 255 178 96
-0.328487 -0.240155 -0.0139862 255 178 96
-0.332473 -0.323539 -0.0142449 255 178 96
-0.0914581 -0.117414 0.29633 255 178 96
-0.319814 -0.44965 0.2959 255 178 96
-0.334061 0.0127588 0.160278 255 178 96
-0.329936 -0.0368862 0.0897482 255 178 96
-0.314698 -0.0413102 0.297921 255 178 96
-0.33484 -0.0148673 0.294781 255 178 96
-0.334223 -0.211275 0.289702 255 178 96
-0.327201 -0.0982388 -0.00603356 255 178 96
-0.335213 -0.292808 0.223238 255 178 96
-0.317299 -0.488011 0.159992 255 178 96
-0.328985 -0.195169 0.106644 255 178 96
-0.209598 -0.488801 0.214808 255 178 96
-0.330963 -0.358083 0.168929 255 178 96
-0.336435 -0.446208 0.00764008 255 178 96
-0.111156 -0.400547 0.293434 255 178 96
-0.330673 -0.228329 0.293328 255 178 96
-0.270599 -0.472926 0.296464 255 178 96
-0.0421187 -0.220617 0.293372 255 178 96
-0.32694 -0.225103 0.0163191 255 178 96
-0.326756 -0.177977 0.0467353 255 178 96
-0.328461 -0.175271 -0.0831112 255 178 96
-0.330428 -0.264552 -0.0358088 255 178 96
-0.296368 -0.246391 0.295124 255 178 96
-0.335831 -0.376166 0.258528 255 178 96
-0.269198 -0.188523 0.296744 255 178 96
-0.110724 -0.443429 0.294373 255 178 96
-0.186781 -0.436971 0.294989 255 178 96
-0.279619 -0.152154 0.29816 255 178 96
-0.335725 -0.330727 0.286953 255 178 96
-0.312437 -0.486491 -0.0399562 255 178 96
-0.335736 -0.474207 0.144397 255 178 96
-0.32597 -0.282127 0.0653015 255 178 96
-0.326566 -0.0482399 -0.0699451 255 178 96
-0.23834 -0.176981 0.295901 255 178 96
-0.287881 -0.484863 -0.120534 255 178 96
