ply
format ascii 1.0
comment Created by Open3D
element vertex 1181
property double x
property double y
property double z
property uchar red
property uchar green
property uchar blue
end_header
-0.0312553 -0.0345553 -0.20421 63 97 250
-0.0583137 -0.197182 -0.201071 63 97 250
-0.0395179 -0.019614 -0.203599 63 97 250
0.200675 -0.225788 -0.177498 63 97 250
-0.0220882 -0.282468 -0.190808 63 97 250
-0.183041 -0.0784988 -0.196825 63 97 250
0.226769 -0.205135 -0.178883 63 97 250
-0.039 -0.419269 -0.196273 63 97 250
-0.0609873 -0.0885732 -0.20766 63 97 250
-0.000966441 -0.412642 -0.192324 63 97 250
-0.160716 -0.32464 -0.198727 63 97 250
-0.0602596 -0.446324 -0.20151 63 97 250
-0.0832915 -0.445555 -0.202209 63 97 250
-0.278693 -0.144086 -0.193211 63 97 250
-0.121954 -0.43775 -0.204072 63 97 250
-0.0248604 -0.40609 -0.191821 63 97 250
-0.172669 -0.285938 -0.192025 63 97 250
0.0382483 -0.0182066 -0.19924 63 97 250
0.128758 -0.283319 -0.174651 63 97 250
-0.205245 -0.0394434 -0.187515 63 97 250
-0.113627 -0.210671 -0.199048 63 97 250
-0.140647 -0.0125933 -0.187039 63 97 250
-0.263491 -0.0327845 -0.195756 63 97 250
-0.0334966 -0.189141 -0.200532 63 97 250
0.0517717 -0.339472 -0.183885 63 97 250
0.0341658 -0.161925 -0.197904 63 97 250
-0.0607046 -0.149655 -0.203193 63 97 250
0.138315 -0.178789 -0.185717 63 97 250
0.00664967 -0.257777 -0.190792 63 97 250
-0.105658 -0.271019 -0.189348 63 97 250
-0.0191885 -0.0191443 -0.202951 63 97 250
-0.246127 -0.453258 -0.226183 63 97 250
-0.208486 -0.37564 -0.199289 63 97 250
-0.126133 -0.304586 -0.197916 63 97 250
-0.176009 -0.334826 -0.200695 63 97 250
-0.00827571 -0.265274 -0.192186 63 97 250
-0.215406 -0.186986 -0.198055 63 97 250
-0.0599134 -0.248017 -0.202893 63 97 250
-0.0835974 -0.395901 -0.190003 63 97 250
0.0795527 -0.443023 -0.191849 63 97 250
0.000373721 -0.128104 -0.201897 63 97 250
0.19366 -0.182362 -0.18173 63 97 250
-0.0333365 -0.0952295 -0.205227 63 97 250
0.00291862 -0.00133711 -0.201295 63 97 250
0.148399 -0.255556 -0.174818 63 97 250
-0.0441214 -0.0525381 -0.205588 63 97 250
-0.29954 -0.099624 -0.194622 63 97 250
0.139755 -0.178018 -0.18575 63 97 250
-0.0861977 -0.282786 -0.186711 63 97 250
-0.205993 -0.284373 -0.200614 63 97 250
-0.0467676 -0.157399 -0.202835 63 97 250
-0.134063 -0.0222155 -0.197089 63 97 250
-0.11898 -0.37753 -0.190876 63 97 250
-0.276568 -0.146201 -0.198847 63 97 250
0.0831715 -0.231995 -0.181123 63 97 250
-0.214242 -0.183411 -0.198072 63 97 250
-0.00174285 -0.444767 -0.200128 63 97 250
0.131164 -0.168202 -0.1878 63 97 250
0.074066 -0.204082 -0.196639 63 97 250
0.25026 -0.0447701 -0.188402 63 97 250
-0.0379808 -0.296499 -0.199481 63 97 250
-0.0376858 -0.346417 -0.186608 63 97 250
-0.250575 -0.291537 -0.203496 63 97 250
0.170918 -0.0932574 -0.19366 63 97 250
0.0456094 -0.00516887 -0.197996 63 97 250
-0.0398446 -0.139524 -0.203916 63 97 250
-0.0641254 -0.285964 -0.192712 63 97 250
0.24491 -0.211261 -0.178255 63 97 250
-0.054781 -0.216863 -0.200998 63 97 250
-0.248872 -0.123956 -0.199172 63 97 250
-0.203568 -0.425545 -0.21027 63 97 250
0.0469887 -0.183099 -0.192738 63 97 250
-0.295447 -0.364807 -0.207427 63 97 250
-0.0721298 -0.440461 -0.200254 63 97 250
-0.0577622 -0.220754 -0.200987 63 97 250
0.135782 -0.157763 -0.189068 63 97 250
-0.0573331 -0.182178 -0.201823 63 97 250
-0.0553056 -0.134199 -0.20491 63 97 250
-0.0584096 -0.240634 -0.202206 63 97 250
-0.030714 -0.345494 -0.195912 63 97 250
-0.0469715 -0.271394 -0.201788 63 97 250
-0.283823 -0.0662315 -0.197433 63 97 250
-0.281226 -0.156364 -0.192953 63 97 250
-0.16421 -0.10362 -0.184307 63 97 250
-0.194009 -0.287739 -0.192179 63 97 250
-0.0142354 -0.10465 -0.203231 63 97 250
-0.00270536 -0.120793 -0.202137 63 97 250
-0.0773174 -0.130891 -0.203768 63 97 250
-0.232818 -0.300285 -0.199678 63 97 250
-0.195469 -0.458754 -0.218537 63 97 250
0.00064278 -0.416081 -0.192592 63 97 250
-0.00948922 -0.397521 -0.192811 63 97 250
0.206652 -0.242237 -0.175711 63 97 250
-0.283276 -0.148522 -0.193252 63 97 250
0.0870725 -0.0442763 -0.197023 63 97 250
-0.186945 -0.24765 -0.197897 63 97 250
0.0926847 -0.356608 -0.180378 63 97 250
-0.0571234 -0.397373 -0.197786 63 97 250
0.0827016 -0.0851476 -0.198452 63 97 250
-0.241664 -0.10597 -0.198422 63 97 250
0.052008 -0.0960833 -0.199538 63 97 250
-0.0444201 -0.409119 -0.1933 63 97 250
-0.23169 -0.184763 -0.198273 63 97 250
-0.0240387 -0.196673 -0.19924 63 97 250
-0.228164 -0.412243 -0.21233 63 97 250
-0.111161 -0.341713 -0.197773 63 97 250
0.13966 -0.337658 -0.183227 63 97 250
0.0207194 -0.145621 -0.199769 63 97 250
-0.124109 -0.288817 -0.197577 63 97 250
0.0988602 -0.201755 -0.181813 63 97 250
-0.165233 -0.43065 -0.206226 63 97 250
-0.164037 -0.433746 -0.206493 63 97 250
0.0950283 -0.30202 -0.177131 63 97 250
-0.105094 -0.232343 -0.197852 63 97 250
0.0150122 -0.201932 -0.193653 63 97 250
-0.0402846 -0.180246 -0.201451 63 97 250
-0.0735026 -0.222945 -0.198885 63 97 250
-0.0741936 -0.260254 -0.201218 63 97 250
0.0334047 -0.356455 -0.187374 63 97 250
0.0641923 -0.0222724 -0.196777 63 97 250
0.0720312 -0.432159 -0.187376 63 97 250
-0.0833595 -0.258633 -0.199291 63 97 250
-0.186077 -0.316239 -0.193101 63 97 250
-0.272498 -0.0380001 -0.196044 63 97 250
-0.245507 -0.114507 -0.198854 63 97 250
-0.108534 -0.120196 -0.187041 63 97 250
-0.055798 -0.207432 -0.200861 63 97 250
-0.30668 -0.215483 -0.198225 63 97 250
0.113769 -0.00693864 -0.193149 63 97 250
-0.0676629 -0.312122 -0.202322 63 97 250
-0.0617494 -0.401149 -0.191653 63 97 250
0.273587 -0.12202 -0.18947 63 97 250
-0.107832 -0.359703 -0.189416 63 97 250
-0.109364 -0.349361 -0.190285 63 97 250
0.000569399 -0.237878 -0.191818 63 97 250
0.00557777 -0.222409 -0.188704 63 97 250
-0.0329232 -0.234512 -0.199361 63 97 250
0.169388 -0.170007 -0.184341 63 97 250
-0.182591 -0.381367 -0.203673 63 97 250
0.141693 -0.401127 -0.185543 63 97 250
-0.167682 -0.394966 -0.202495 63 97 250
-0.0309283 -0.454302 -0.201211 63 97 250
-0.233553 -0.12439 -0.189462 63 97 250
-0.0944368 -0.00627617 -0.199195 63 97 250
0.0452436 -0.149473 -0.196914 63 97 250
0.0220489 -0.275503 -0.188318 63 97 250
-0.116474 -0.0988287 -0.186982 63 97 250
-0.104201 0.0129024 -0.192966 63 97 250
-0.309328 -0.402991 -0.192624 63 97 250
-0.166445 -0.117788 -0.199264 63 97 250
-0.0597482 -0.0637661 -0.206349 63 97 250
0.0250058 -0.217239 -0.18994 63 97 250
-0.212643 -0.309161 -0.200113 63 97 250
0.037652 -0.302648 -0.185221 63 97 250
-0.21048 -0.176835 -0.198016 63 97 250
-0.297374 -0.0949652 -0.194484 63 97 250
-0.306893 -0.157561 -0.197458 63 97 250
-0.0282169 -0.184259 -0.200502 63 97 250
0.0523399 -0.297409 -0.187534 63 97 250
0.117957 -0.145168 -0.191698 63 97 250
-0.309691 -0.397939 -0.192847 63 97 250
-0.171093 0.000604033 -0.19264 63 97 250
0.139605 -0.289527 -0.174165 63 97 250
-0.268955 -0.0651483 -0.192777 63 97 250
-0.129759 -0.231601 -0.198411 63 97 250
0.149864 -0.199741 -0.181125 63 97 250
-0.0764485 -0.222597 -0.18738 63 97 250
0.0358117 -0.279504 -0.185804 63 97 250
0.0200116 -0.224104 -0.190542 63 97 250
0.0240432 -0.400951 -0.189488 63 97 250
-0.229613 -0.132956 -0.198735 63 97 250
0.18594 -0.297432 -0.172672 63 97 250
0.297016 -0.157563 -0.187447 63 97 250
-0.0697527 -0.131373 -0.204709 63 97 250
0.0433001 -0.375286 -0.188484 63 97 250
-0.0518518 -0.000668108 -0.201854 63 97 250
0.159219 -0.07118 -0.197404 63 97 250
-0.0653607 -0.262293 -0.202985 63 97 250
0.282685 -0.0701754 -0.189329 63 97 250
-0.0361067 -0.275091 -0.199736 63 97 250
0.206596 -0.213294 -0.178748 63 97 250
-0.0909208 -0.162049 -0.200044 63 97 250
0.146616 -0.387464 -0.188706 63 97 250
-0.279307 -0.143673 -0.198645 63 97 250
0.0651465 -0.361991 -0.183238 63 97 250
-0.241143 -0.0825421 -0.197523 63 97 250
-0.0761258 -0.330464 -0.201379 63 97 250
-0.245584 -0.314464 -0.20572 63 97 250
0.069154 -0.322784 -0.180856 63 97 250
-0.232587 -0.426832 -0.214227 63 97 250
-0.0784842 -0.4474 -0.202229 63 97 250
-0.156792 -0.264533 -0.196782 63 97 250
0.0860721 -0.227776 -0.195697 63 97 250
0.0260728 -0.156765 -0.198945 63 97 250
0.18851 -0.0245355 -0.190192 63 97 250
-0.0406958 -0.200648 -0.200507 63 97 250
-0.0127018 -0.208274 -0.188582 63 97 250
0.0586129 -0.0181158 -0.197089 63 97 250
-0.115292 0.0108633 -0.192452 63 97 250
-0.148968 -0.0517281 -0.197817 63 97 250
0.205011 -0.0317707 -0.189105 63 97 250
0.21091 -0.0761873 -0.194499 63 97 250
0.187688 -0.0740268 -0.192109 63 97 250
-0.183971 -0.400769 -0.200583 63 97 250
-0.00109566 -0.296 -0.192452 63 97 250
0.16602 -0.126049 -0.203223 63 97 250
0.160962 -0.190577 -0.182404 63 97 250
-0.110169 -0.15049 -0.199092 63 97 250
-0.125578 -0.304094 -0.197935 63 97 250
-0.285771 -0.209362 -0.198656 63 97 250
-0.069514 -0.140279 -0.203995 63 97 250
-0.140779 -0.208931 -0.187302 63 97 250
-0.277882 -0.183116 -0.198793 63 97 250
0.0277646 -0.197117 -0.193277 63 97 250
-0.0305315 -0.299379 -0.187126 63 97 250
-0.0718979 -0.254434 -0.201412 63 97 250
-0.0165684 -0.358406 -0.194127 63 97 250
-0.309509 -0.293063 -0.198685 63 97 250
-0.0427468 -0.304562 -0.200379 63 97 250
-0.212102 -0.0683509 -0.195948 63 97 250
-0.00541475 -0.3007 -0.18736 63 97 250
0.261536 -0.0873118 -0.190022 63 97 250
0.112842 -0.0628872 -0.196615 63 97 250
0.029092 -0.343289 -0.187136 63 97 250
-0.00864322 -0.119481 -0.202221 63 97 250
-0.132273 -0.32534 -0.197838 63 97 250
-0.0657781 -0.101153 -0.20728 63 97 250
-0.217705 -0.306429 -0.201878 63 97 250
-0.13813 -0.389482 -0.192197 63 97 250
-0.192736 -0.146468 -0.198843 63 97 250
-0.244094 -0.0208315 -0.191973 63 97 250
0.058698 -0.139434 -0.195672 63 97 250
0.036189 -0.260421 -0.186165 63 97 250
-0.183065 -0.360735 -0.202719 63 97 250
-0.242443 -0.243056 -0.198865 63 97 250
-0.282183 -0.303787 -0.189853 63 97 250
-0.201214 -0.166014 -0.198135 63 97 250
-0.16144 -0.0339679 -0.185949 63 97 250
-0.191872 -0.168394 -0.186052 63 97 250
0.165672 -0.0365331 -0.192088 63 97 250
-0.0107659 -0.252465 -0.193873 63 97 250
-0.285438 -0.411583 -0.18728 63 97 250
0.176201 -0.0398304 -0.19075 63 97 250
-0.0768808 -0.0988768 -0.206392 63 97 250
-0.156186 -0.217571 -0.19826 63 97 250
-0.101788 -0.299279 -0.199695 63 97 250
-0.149886 -0.185028 -0.198694 63 97 250
-0.0583713 -0.346677 -0.202168 63 97 250
-0.0609941 -0.0584693 -0.205865 63 97 250
0.138931 -0.199928 -0.181051 63 97 250
0.296347 -0.153849 -0.187743 63 97 250
0.191607 -0.316895 -0.174096 63 97 250
-0.178636 -0.0638066 -0.196025 63 97 250
-0.113905 -0.206167 -0.199184 63 97 250
-0.167213 -0.141721 -0.187033 63 97 250
-0.125934 -0.162158 -0.186673 63 97 250
-0.300898 -0.246239 -0.199564 63 97 250
0.123702 -0.373327 -0.184703 63 97 250
-0.284916 -0.143475 -0.193484 63 97 250
-0.0673404 -0.3379 -0.186682 63 97 250
-0.0459462 0.00159365 -0.194048 63 97 250
-0.303572 -0.208045 -0.198597 63 97 250
-0.0216357 0.010124 -0.201728 63 97 250
0.137524 -0.319428 -0.18597 63 97 250
0.010213 -0.306623 -0.18981 63 97 250
-0.0880142 -0.293536 -0.201065 63 97 250
-0.274206 -0.0839747 -0.198301 63 97 250
0.125312 -0.116005 -0.194377 63 97 250
-0.00149587 -0.0705817 -0.193148 63 97 250
-0.0697312 -0.380012 -0.199241 63 97 250
0.0687776 -0.19722 -0.18637 63 97 250
0.0559262 -0.147443 -0.195512 63 97 250
-0.173511 -0.205754 -0.19818 63 97 250
0.0656664 -0.319982 -0.181195 63 97 250
-0.0656673 -0.103812 -0.207254 63 97 250
-0.153624 -0.200685 -0.19867 63 97 250
0.0486739 0.00914444 -0.196972 63 97 250
0.00297601 0.00952304 -0.200634 63 97 250
0.117064 -0.420118 -0.186399 63 97 250
-0.0866966 -0.0788203 -0.188879 63 97 250
-0.0148698 -0.148833 -0.201042 63 97 250
-0.169305 -0.263114 -0.191225 63 97 250
0.11479 -0.182231 -0.202652 63 97 250
-0.0468081 -0.173804 -0.20221 63 97 250
-0.181304 -0.404844 -0.201017 63 97 250
-0.212771 -0.328447 -0.205094 63 97 250
0.06615 -0.392282 -0.188957 63 97 250
0.0890388 -0.278423 -0.17805 63 97 250
0.0779473 -0.0681073 -0.201154 63 97 250
0.0434625 -0.285176 -0.184529 63 97 250
-0.141973 -0.142086 -0.198897 63 97 250
-0.111349 -0.0975161 -0.201525 63 97 250
0.0214625 0.0017252 -0.198727 63 97 250
0.102165 -0.155801 -0.191485 63 97 250
0.106579 -0.321393 -0.186416 63 97 250
-0.215341 -0.203553 -0.189362 63 97 250
-0.139914 0.00618459 -0.191089 63 97 250
-0.0310962 -0.384418 -0.189824 63 97 250
0.0738938 -0.0727834 -0.201192 63 97 250
-0.00266314 -0.279193 -0.188021 63 97 250
0.046538 -0.297726 -0.183728 63 97 250
0.0983917 -0.244655 -0.193185 63 97 250
-0.0765804 0.0209371 -0.19676 63 97 250
-0.021506 -0.389221 -0.194346 63 97 250
-0.0488319 -0.287427 -0.202099 63 97 250
-0.183826 -0.336401 -0.194438 63 97 250
0.0497443 -0.0249613 -0.198048 63 97 250
0.0512054 -0.0183058 -0.197857 63 97 250
-0.1399 -0.41975 -0.202528 63 97 250
-0.060238 -0.166024 -0.202435 63 97 250
0.149706 -0.2037 -0.180538 63 97 250
-0.0539559 -0.193859 -0.201503 63 97 250
-0.252648 -0.383676 -0.213126 63 97 250
-0.00118886 -0.0696646 -0.203468 63 97 250
-0.109845 -0.277785 -0.198226 63 97 250
0.264189 -0.0778356 -0.189956 63 97 250
-0.160056 -0.196691 -0.188719 63 97 250
-0.0432524 -0.372223 -0.197965 63 97 250
-0.0103338 -0.170593 -0.188863 63 97 250
-0.0947595 -0.433064 -0.201349 63 97 250
0.154989 -0.260878 -0.174298 63 97 250
-0.0541326 -0.262273 -0.1849 63 97 250
-0.178978 -0.264212 -0.19161 63 97 250
-0.266247 -0.321026 -0.18834 63 97 250
-0.238951 -0.116803 -0.190102 63 97 250
-0.0795798 0.0191421 -0.197553 63 97 250
0.163407 -0.177223 -0.183903 63 97 250
-0.171956 -0.462913 -0.216485 63 97 250
-0.303325 -0.174315 -0.194575 63 97 250
0.00319027 -0.241435 -0.191318 63 97 250
0.129656 -0.372393 -0.181679 63 97 250
0.014094 -0.291768 -0.187273 63 97 250
-0.0610868 -0.179013 -0.201702 63 97 250
-0.152273 -0.105137 -0.199216 63 97 250
-0.173381 -0.179426 -0.188113 63 97 250
-0.207651 -0.106586 -0.197796 63 97 250
0.186935 -0.180301 -0.182003 63 97 250
0.073064 -0.141829 -0.194521 63 97 250
0.174678 -0.280306 -0.172771 63 97 250
0.128157 -0.19599 -0.181688 63 97 250
-0.0345769 -0.199745 -0.200022 63 97 250
-0.101499 -0.0515901 -0.18923 63 97 250
-0.182075 -0.117554 -0.199426 63 97 250
-0.106098 -0.2462 -0.189184 63 97 250
-0.00725253 -0.202476 -0.196986 63 97 250
-0.15099 0.0029101 -0.192277 63 97 250
0.0211612 -0.452292 -0.192529 63 97 250
-0.0712426 -0.292857 -0.202317 63 97 250
-0.263558 -0.183974 -0.198814 63 97 250
-0.0514881 -0.314061 -0.201675 63 97 250
-0.269593 -0.132216 -0.199395 63 97 250
0.268385 -0.199348 -0.181219 63 97 250
0.0284146 -0.307642 -0.186692 63 97 250
-0.225856 -0.403105 -0.211267 63 97 250
-0.309922 -0.417099 -0.201716 63 97 250
0.0163861 -0.0730215 -0.202437 63 97 250
-0.159158 -0.163413 -0.199014 63 97 250
0.292706 -0.162216 -0.186876 63 97 250
0.149312 -0.0159557 -0.191612 63 97 250
-0.147288 -0.247041 -0.197682 63 97 250
-0.19466 -0.241032 -0.198337 63 97 250
-0.214238 -0.274356 -0.196873 63 97 250
-0.190193 -0.0653784 -0.195455 63 97 250
0.178135 -0.0500124 -0.192957 63 97 250
-0.209661 -0.321403 -0.201824 63 97 250
-0.128923 -0.0293589 -0.198623 63 97 250
0.245668 -0.0681054 -0.190333 63 97 250
-0.0127247 -0.25636 -0.190823 63 97 250
-0.192658 -0.303646 -0.200969 63 97 250
-0.0589027 -0.210455 -0.200561 63 97 250
0.14228 -0.209155 -0.179935 63 97 250
0.0992357 -0.0958073 -0.197052 63 97 250
0.21614 -0.265029 -0.174097 63 97 250
-0.0682512 -0.316314 -0.202305 63 97 250
0.051623 0.00705734 -0.196857 63 97 250
0.294188 -0.128375 -0.188356 63 97 250
0.260187 -0.114818 -0.189884 63 97 250
0.114361 -0.140756 -0.192404 63 97 250
0.00291736 -0.252243 -0.191324 63 97 250
-0.266687 -0.437036 -0.218233 63 97 250
-0.0162283 -0.166098 -0.199996 63 97 250
0.0418139 -0.411865 -0.188035 63 97 250
0.200196 -0.29651 -0.172381 63 97 250
0.0668313 -0.324178 -0.186749 63 97 250
0.0149523 -0.00476682 -0.199221 63 97 250
-0.0706789 -0.257184 -0.186536 63 97 250
-0.157904 -0.445603 -0.207929 63 97 250
-0.147803 -0.14469 -0.199001 63 97 250
-0.167027 -0.224806 -0.197572 63 97 250
0.293662 -0.162475 -0.186895 63 97 250
-0.0906428 -0.436296 -0.201428 63 97 250
-0.0136506 -0.109689 -0.202893 63 97 250
-0.106214 -0.370352 -0.189652 63 97 250
-0.152399 -0.0292818 -0.196146 63 97 250
-0.180752 -0.0602887 -0.195627 63 97 250
-0.00552501 -0.057183 -0.193508 63 97 250
-0.16899 -0.0387813 -0.195274 63 97 250
-0.131955 -0.0509075 -0.199906 63 97 250
0.259238 -0.0417677 -0.187604 63 97 250
-0.0584679 -0.105392 -0.207239 63 97 250
-0.0607687 -0.292327 -0.203036 63 97 250
-0.287041 -0.0852024 -0.197475 63 97 250
0.114801 -0.350834 -0.183802 63 97 250
-0.122318 0.00518997 -0.19564 63 97 250
0.189121 -0.103206 -0.192687 63 97 250
-0.0590111 -0.439368 -0.19913 63 97 250
-0.00320756 -0.120283 -0.202154 63 97 250
-0.00773005 -0.0986049 -0.202954 63 97 250
0.155719 -0.176977 -0.184638 63 97 250
0.0769059 -0.390025 -0.188645 63 97 250
0.0218192 -0.217018 -0.189888 63 97 250
-0.0414107 -0.271735 -0.192402 63 97 250
0.0301545 -0.0421898 -0.20003 63 97 250
0.158773 -0.112333 -0.193065 63 97 250
-0.0107596 -0.110626 -0.202656 63 97 250
-0.126656 -0.262363 -0.197272 63 97 250
-0.0874574 -0.042903 -0.203413 63 97 250
-0.249674 -0.218955 -0.19793 63 97 250
-0.0132344 -0.236334 -0.186356 63 97 250
-0.275712 -0.370858 -0.188193 63 97 250
-0.168609 -0.430634 -0.197233 63 97 250
-0.296194 0.0527817 -0.193814 31 142 243
-0.16244 0.0751001 -0.289191 31 142 243
-0.00734553 0.0754737 -0.326333 31 142 243
0.0121762 0.0750621 -0.24852 31 142 243
-0.141968 0.0309477 -0.199363 31 142 243
-0.148162 0.0750921 -0.376634 31 142 243
-0.127408 0.0749423 -0.248346 31 142 243
-0.30745 0.0113084 -0.245914 31 142 243
-0.269714 0.0734227 -0.290428 31 142 243
-0.0159791 0.0458346 -0.210942 31 142 243
-0.114673 0.0750964 -0.334521 31 142 243
-0.317152 0.0449337 -0.349542 31 142 243
0.0363887 0.0752492 -0.270636 31 142 243
-0.304176 -0.0544306 -0.243003 31 142 243
-0.153466 0.00691321 -0.192627 31 142 243
-0.0546417 0.0750609 -0.268306 31 142 243
0.0945336 0.0304009 -0.211391 31 142 243
-0.166893 0.0751297 -0.318581 31 142 243
-0.305623 -0.116811 -0.278245 31 142 243
-0.296783 0.0110594 -0.191059 31 142 243
-0.0453707 0.0751944 -0.312111 31 142 243
-0.0113665 0.075211 -0.292788 31 142 243
-0.167274 0.0751405 -0.33234 31 142 243
-0.310618 -0.140004 -0.335749 31 142 243
-0.208345 0.0468308 -0.193775 31 142 243
-0.297054 0.0376665 -0.192783 31 142 243
-0.0721554 0.0753073 -0.346709 31 142 243
-0.280568 0.0270239 -0.191448 31 142 243
-0.0636316 0.0618316 -0.212646 31 142 243
-0.00676494 0.0478359 -0.211671 31 142 243
-0.164999 0.0751072 -0.372254 31 142 243
-0.308577 -0.146089 -0.312227 31 142 243
-0.312164 -0.105997 -0.339255 31 142 243
-0.187729 0.0751407 -0.352223 31 142 243
-0.0480056 0.0754322 -0.346745 31 142 243
-0.315236 0.00986583 -0.374721 31 142 243
-0.110577 -0.0402232 -0.196787 31 142 243
-0.310356 0.00546107 -0.267859 31 142 243
-0.0898604 0.0751011 -0.323895 31 142 243
-0.2452 0.0750519 -0.372607 31 142 243
0.0622481 0.0723477 -0.24686 31 142 243
0.0192694 -0.121148 -0.208802 31 142 243
-0.167342 0.0751477 -0.357808 31 142 243
0.118114 -0.0194322 -0.201311 31 142 243
-0.297937 -0.0607194 -0.211043 31 142 243
-0.254064 -0.080807 -0.198143 31 142 243
-0.231491 0.0734913 -0.246541 31 142 243
-0.246611 0.0750926 -0.331389 31 142 243
-0.317351 0.0496745 -0.350364 31 142 243
-0.0122386 0.0754247 -0.321789 31 142 243
-0.20952 0.0742725 -0.208011 31 142 243
-0.311575 -0.109794 -0.331468 31 142 243
-0.311631 0.0040919 -0.388834 31 142 243
-0.217764 0.0751178 -0.346435 31 142 243
-0.00344367 0.0753653 -0.305976 31 142 243
-0.0676258 -0.0178974 -0.199445 31 142 243
-0.284378 0.0733924 -0.291012 31 142 243
-0.308552 -0.0613597 -0.277479 31 142 243
-0.29786 -0.0566331 -0.210629 31 142 243
-0.239005 0.0748007 -0.314113 31 142 243
-0.0885276 0.0751094 -0.325161 31 142 243
-0.106477 0.0146971 -0.201116 31 142 243
0.0261304 -0.0573375 -0.205907 31 142 243
-0.183472 0.0751492 -0.341647 31 142 243
-0.313694 -0.0373793 -0.325547 31 142 243
-0.285238 -0.0287035 -0.192781 31 142 243
-0.1256 0.0275312 -0.201411 31 142 243
-0.296353 0.0291028 -0.196269 31 142 243
-0.273714 0.0750527 -0.328686 31 142 243
-0.164792 0.074182 -0.214703 31 142 243
-0.190597 0.0750701 -0.303548 31 142 243
0.0055469 0.0751918 -0.277229 31 142 243
0.00875928 0.0733841 -0.220279 31 142 243
-0.192041 0.0702555 -0.203919 31 142 243
-0.304425 -0.244567 -0.355556 31 142 243
-0.306036 -0.0612448 -0.198398 31 142 243
-0.181569 0.0745708 -0.284475 31 142 243
0.0226797 0.00423669 -0.20433 31 142 243
-0.161919 0.0751403 -0.361341 31 142 243
-0.0607458 0.0750567 -0.260812 31 142 243
-0.142063 0.0751131 -0.319038 31 142 243
-0.308513 0.0686594 -0.343754 31 142 243
-0.315934 0.00793496 -0.353746 31 142 243
-0.164854 0.0410206 -0.198368 31 142 243
-0.198587 0.0653197 -0.199697 31 142 243
-0.238401 0.0743421 -0.208692 31 142 243
-0.299097 0.0740521 -0.358004 31 142 243
-0.315186 0.0607112 -0.350519 31 142 243
-0.213346 0.0751166 -0.35085 31 142 243
-0.181669 0.0751469 -0.35225 31 142 243
-0.314182 -0.0130219 -0.317508 31 142 243
-0.245919 -0.067644 -0.195627 31 142 243
-0.0544793 0.0753013 -0.332048 31 142 243
-0.160085 0.0751257 -0.318625 31 142 243
-0.285344 -0.0101975 -0.191036 31 142 243
-0.299921 0.0736873 -0.354687 31 142 243
-0.281963 0.0732676 -0.278914 31 142 243
-0.237765 0.0743037 -0.209994 31 142 243
-0.312353 0.0616319 -0.377856 31 142 243
0.0742709 -0.0529009 -0.20484 31 142 243
-0.254754 0.0734255 -0.24974 31 142 243
-0.314218 -0.0382621 -0.337337 31 142 243
-0.12157 0.00817307 -0.197131 31 142 243
0.0766597 0.068804 -0.254711 31 142 243
-0.257644 0.0750749 -0.334591 31 142 243
0.00178921 0.0752949 -0.293526 31 142 243
-0.196901 0.0290091 -0.191463 31 142 243
-0.309395 -0.151176 -0.323004 31 142 243
0.00668157 0.0317649 -0.209106 31 142 243
-0.0968347 0.0751063 -0.333173 31 142 243
-0.298029 0.0713259 -0.229306 31 142 243
-0.172066 0.074048 -0.253652 31 142 243
-0.0959379 0.00889954 -0.201232 31 142 243
-0.310449 0.02788 -0.263806 31 142 243
-0.0503413 0.0750386 -0.231372 31 142 243
-0.137384 0.0750929 -0.291979 31 142 243
-0.305766 0.062493 -0.25017 31 142 243
-0.0403017 -0.262886 -0.212148 31 142 243
-0.23723 0.0735908 -0.284155 31 142 243
-0.217734 0.0750862 -0.367505 31 142 243
-0.228406 0.0751206 -0.32963 31 142 243
-0.307162 -0.143829 -0.299807 31 142 243
0.0169762 0.075055 -0.240633 31 142 243
0.0259221 0.0752789 -0.280074 31 142 243
-0.166436 0.0553597 -0.201876 31 142 243
-0.242473 0.0740933 -0.299879 31 142 243
-0.0422601 0.0751379 -0.301418 31 142 243
-0.310678 -0.0955109 -0.314276 31 142 243
-0.107314 0.0750911 -0.324459 31 142 243
-0.14821 0.0485156 -0.202758 31 142 243
-0.240854 -0.143541 -0.202529 31 142 243
-0.307971 0.0633796 -0.390185 31 142 243
-0.304128 -0.0457098 -0.239889 31 142 243
-0.200825 0.0750757 -0.37627 31 142 243
0.0626953 -0.352983 -0.214652 31 142 243
0.0615095 0.0225242 -0.207846 31 142 243
0.0529659 0.0740888 -0.232808 31 142 243
-0.181045 0.0169909 -0.190776 31 142 243
-0.282158 -0.148723 -0.204016 31 142 243
-0.221722 0.0739842 -0.220408 31 142 243
0.0249703 -0.283678 -0.211001 31 142 243
-0.0615397 -0.00259082 -0.200984 31 142 243
0.0326151 0.0402207 -0.211448 31 142 243
0.120852 -0.283317 -0.208981 31 142 243
-0.0973945 0.0727365 -0.217894 31 142 243
0.0160677 0.0432124 -0.211689 31 142 243
0.106243 -0.0772877 -0.205939 31 142 243
-0.261154 -0.11046 -0.200965 31 142 243
-0.306564 -0.214414 -0.336298 31 142 243
-0.306961 -0.0925852 -0.28005 31 142 243
-0.24911 0.0735388 -0.245174 31 142 243
-0.0972323 0.0751835 -0.352908 31 142 243
-0.277226 0.0732407 -0.265112 31 142 243
-0.128603 0.0751119 -0.336818 31 142 243
-0.0922933 0.0750435 -0.221674 31 142 243
-0.050927 -0.208273 -0.210614 31 142 243
-0.313326 -0.0754578 -0.341778 31 142 243
-0.304151 0.0689136 -0.30691 31 142 243
-0.153168 0.074201 -0.22347 31 142 243
-0.154364 0.074223 -0.21966 31 142 243
-0.0358753 0.0754415 -0.339551 31 142 243
0.0315889 0.0750646 -0.24096 31 142 243
-0.16089 -0.137504 -0.2024 31 142 243
-0.192209 0.0385165 -0.193938 31 142 243
0.112696 -0.00392896 -0.203399 31 142 243
-0.0559034 0.075041 -0.232583 31 142 243
-0.297352 -0.0299815 -0.207538 31 142 243
-0.276373 0.0740789 -0.308309 31 142 243
-0.298016 -0.0653335 -0.211743 31 142 243
-0.17917 -0.0347871 -0.19095 31 142 243
-0.265282 0.0738818 -0.300578 31 142 243
-0.0526157 0.00372996 -0.202315 31 142 243
-0.144236 0.0751252 -0.351803 31 142 243
-0.0128854 0.0750434 -0.225764 31 142 243
-0.298062 0.0377444 -0.19314 31 142 243
-0.160754 0.0748752 -0.27959 31 142 243
0.0525026 0.0746073 -0.243976 31 142 243
-0.314534 0.0227038 -0.379152 31 142 243
-0.31006 0.0629942 -0.294824 31 142 243
-0.283247 0.0733021 -0.258549 31 142 243
-0.14171 -0.145862 -0.203736 31 142 243
0.119356 -0.0122632 -0.201385 31 142 243
-0.267665 0.073258 -0.2584 31 142 243
-0.151544 0.0751256 -0.325298 31 142 243
-0.161047 -0.136954 -0.202353 31 142 243
-0.155926 0.0750722 -0.382819 31 142 243
-0.281715 0.074996 -0.328449 31 142 243
-0.244069 0.0733175 -0.271964 31 142 243
-0.279354 0.075028 -0.361942 31 142 243
-0.301485 0.0730315 -0.35575 31 142 243
-0.200321 0.0740725 -0.279005 31 142 243
-0.314562 0.0291474 -0.301122 31 142 243
0.0336843 0.0750401 -0.228961 31 142 243
-0.0885981 0.0750655 -0.261421 31 142 243
-0.0595929 -0.0859971 -0.205853 31 142 243
-0.0253576 0.0750819 -0.281115 31 142 243
-0.087553 0.0750709 -0.275225 31 142 243
-0.167489 0.0751263 -0.314538 31 142 243
-0.29366 -0.0322536 -0.193307 31 142 243
-0.20401 0.0743523 -0.205166 31 142 243
-0.260527 0.0750584 -0.353794 31 142 243
-0.215857 0.075136 -0.319502 31 142 243
0.143126 -0.139001 -0.205136 31 142 243
0.0825221 0.0677768 -0.24518 31 142 243
-0.20236 0.0736456 -0.258931 31 142 243
-0.312044 -0.101377 -0.345144 31 142 243
0.0516995 0.0498267 -0.214009 31 142 243
-0.311444 -0.0824213 -0.358535 31 142 243
-0.167071 -0.162262 -0.204273 31 142 243
-0.244982 0.0750242 -0.384818 31 142 243
-0.00378378 -0.106169 -0.208284 31 142 243
-0.178567 0.0751176 -0.298401 31 142 243
-0.301516 -0.043659 -0.228387 31 142 243
-0.311099 0.0660754 -0.355669 31 142 243
-0.305049 0.0642629 -0.229832 31 142 243
-0.183682 0.0739262 -0.225752 31 142 243
-0.175526 0.0751355 -0.319529 31 142 243
-0.229087 0.0450308 -0.191389 31 142 243
-0.315752 0.0303328 -0.314925 31 142 243
-0.292683 0.0750251 -0.350945 31 142 243
-0.312746 0.0560854 -0.289766 31 142 243
-0.013679 -0.241491 -0.211131 31 142 243
0.0648001 -0.0106837 -0.201472 31 142 243
-0.105083 0.0750879 -0.331249 31 142 243
-0.186163 0.0742929 -0.278165 31 142 243
-0.298891 -0.0621918 -0.197173 31 142 243
-0.301627 0.0669229 -0.254424 31 142 243
-0.0423731 0.0754502 -0.34553 31 142 243
-0.306189 -0.0235519 -0.246132 31 142 243
-0.306135 0.0683447 -0.314145 31 142 243
-0.0484868 0.0751848 -0.312401 31 142 243
-0.316616 0.0521976 -0.365078 31 142 243
-0.267849 0.07334 -0.28509 31 142 243
-0.248834 0.0737122 -0.292063 31 142 243
-0.0446009 0.0750722 -0.277744 31 142 243
-0.146262 0.0744059 -0.215625 31 142 243
-0.271177 0.0744564 -0.315044 31 142 243
-0.0671784 0.0754786 -0.36676 31 142 243
-0.251623 0.0738007 -0.234857 31 142 243
-0.0823363 0.0750798 -0.297862 31 142 243
-0.15021 0.0742125 -0.230818 31 142 243
-0.307251 0.0608529 -0.239802 31 142 243
-0.145076 -0.0743547 -0.197837 31 142 243
-0.0574041 0.0750546 -0.259099 31 142 243
-0.304746 0.0695212 -0.315238 31 142 243
-0.31168 -0.0809004 -0.320512 31 142 243
-0.307654 -0.0527261 -0.267557 31 142 243
-0.303371 0.0670903 -0.391615 31 142 243
-0.238506 0.0750853 -0.356109 31 142 243
-0.259386 0.0737149 -0.294961 31 142 243
-0.307753 -0.0994376 -0.289866 31 142 243
-0.311304 0.0547877 -0.268742 31 142 243
-0.0195565 0.0754975 -0.338201 31 142 243
-0.143014 0.0750981 -0.298682 31 142 243
-0.304244 0.0703737 -0.319659 31 142 243
-0.00369537 0.0750707 -0.255907 31 142 243
0.0116862 -0.0178144 -0.202607 31 142 243
-0.314892 0.0267366 -0.305356 31 142 243
0.133613 -0.044969 -0.201998 31 142 243
-0.302627 -0.0946394 -0.246595 31 142 243
-0.175162 0.0751336 -0.317779 31 142 243
-0.204805 0.0421405 -0.193304 31 142 243
-0.306737 0.0630803 -0.270166 31 142 243
0.0542217 0.0732583 -0.273221 31 142 243
-0.298377 -0.0500827 -0.218512 31 142 243
-0.309729 -0.0586831 -0.290619 31 142 243
-0.141702 0.0750761 -0.270109 31 142 243
-0.166614 0.0750689 -0.384048 31 142 243
-0.0217279 -0.0107779 -0.201014 31 142 243
-0.245755 0.0750935 -0.333321 31 142 243
-0.313064 0.0630488 -0.327333 31 142 243
-0.167869 0.0751297 -0.317989 31 142 243
-0.301151 -0.072579 -0.23139 31 142 243
-0.218653 0.0751347 -0.326443 31 142 243
-0.313963 -0.0428249 -0.352504 31 142 243
-0.238304 0.0736317 -0.240414 31 142 243
0.0141787 -0.0290603 -0.203462 31 142 243
-0.311061 -0.0152001 -0.281082 31 142 243
-0.164535 0.0594657 -0.203275 31 142 243
-0.132993 0.0750986 -0.373317 31 142 243
0.0366768 0.075395 -0.292352 31 142 243
-0.29956 -0.128323 -0.234249 31 142 243
0.0256251 -0.205271 -0.209586 31 142 243
-0.303769 0.0657016 -0.264578 31 142 243
0.00334404 0.075124 -0.268385 31 142 243
-0.0782648 0.0596528 -0.212018 31 142 243
-0.305504 -0.0340528 -0.244572 31 142 243
-0.291928 0.0747441 -0.206471 31 142 243
-0.221341 -0.0507134 -0.192306 31 142 243
-0.176144 0.0751127 -0.368921 31 142 243
-0.165465 0.0751423 -0.340953 31 142 243
-0.302029 -0.142238 -0.25915 31 142 243
-0.092903 0.0750871 -0.31186 31 142 243
-0.251683 0.00816606 -0.18981 31 142 243
-0.310581 0.0521051 -0.2603 31 142 243
-0.189116 0.0751287 -0.306679 31 142 243
-0.275844 0.073234 -0.267604 31 142 243
-0.0386381 0.0752504 -0.316077 31 142 243
-0.214135 0.0735414 -0.251979 31 142 243
-0.209572 -0.0744089 -0.195841 31 142 243
-0.31461 0.0587411 -0.313991 31 142 243
-0.0428625 -0.178987 -0.209583 31 142 243
-0.308565 -0.071005 -0.284388 31 142 243
-0.240498 -0.130971 -0.201497 31 142 243
-0.275743 0.0349739 -0.192039 31 142 243
-0.120418 0.0751008 -0.330971 31 142 243
-0.152109 0.0741774 -0.231149 31 142 243
-0.291787 0.0750182 -0.361163 31 142 243
-0.161481 0.0750867 -0.378814 31 142 243
-0.272592 0.0732753 -0.27913 31 142 243
-0.181264 0.0738148 -0.243461 31 142 243
-0.142023 0.0597653 -0.206625 31 142 243
-0.247853 0.0735249 -0.28647 31 142 243
-0.0152335 0.0752301 -0.298188 31 142 243
-0.273189 0.0739646 -0.229338 31 142 243
-0.0908304 0.0752136 -0.35466 31 142 243
-0.0634794 -0.0479316 -0.201951 31 142 243
-0.0197915 0.0752238 -0.30108 31 142 243
-0.168145 0.0285103 -0.194885 31 142 243
0.166206 -0.212346 -0.2063 31 142 243
-0.295343 0.075025 -0.341566 31 142 243
-0.113621 0.0750852 -0.287525 31 142 243
0.159627 -0.211577 -0.206419 31 142 243
-0.296999 0.0726592 -0.226554 31 142 243
-0.296504 0.0720712 -0.389176 31 142 243
-0.115996 0.0689949 -0.213169 31 142 243
-0.126397 0.0751058 -0.352936 31 142 243
-0.218828 0.0750725 -0.373105 31 142 243
-0.0297173 -0.0154627 -0.200856 31 142 243
-0.0674904 0.0753409 -0.348585 31 142 243
0.109865 -0.00328242 -0.203549 31 142 243
-0.204892 0.0736088 -0.249289 31 142 243
-0.230277 0.0734443 -0.249393 31 142 243
-0.0511371 0.0751796 -0.313109 31 142 243
-0.136535 0.0745809 -0.21832 31 142 243
-0.176199 0.0267622 -0.193489 31 142 243
-0.206362 0.075126 -0.347988 31 142 243
-0.011102 0.075225 -0.294287 31 142 243
-0.314419 0.0592805 -0.315501 31 142 243
0.0571587 -0.0756852 -0.206951 31 142 243
-0.12103 0.0751794 -0.376315 31 142 243
-0.103213 0.0750738 -0.266876 31 142 243
-0.191375 0.0738662 -0.260444 31 142 243
-0.0535402 -0.138879 -0.20828 31 142 243
-0.31335 -0.0334763 -0.317941 31 142 243
-0.30832 -0.153563 -0.367582 31 142 243
-0.1729 0.0718076 -0.207767 31 142 243
-0.303467 0.0705792 -0.378913 31 142 243
-0.266368 0.0750466 -0.357081 31 142 243
-0.0321642 0.0750457 -0.237316 31 142 243
-0.205734 0.0751205 -0.352713 31 142 243
-0.143264 0.0751112 -0.31545 31 142 243
-0.0362541 0.00576216 -0.203366 31 142 243
-0.16077 0.0472242 -0.200463 31 142 243
-0.011375 0.0750687 -0.256635 31 142 243
0.0720614 -0.0178699 -0.201967 31 142 243
-0.30588 0.0693677 -0.320045 31 142 243
0.0712446 -0.243375 -0.20921 31 142 243
-0.313211 -0.00875811 -0.383305 31 142 243
-0.0115251 0.00853005 -0.204764 31 142 243
-0.278705 0.075043 -0.34833 31 142 243
-0.311269 -0.0201657 -0.287711 31 142 243
-0.146146 0.0751227 -0.359889 31 142 243
-0.0540169 0.0750601 -0.266461 31 142 243
-0.309787 0.058476 -0.265618 31 142 243
-0.307311 0.0609398 -0.247406 31 142 243
-0.191704 0.0737416 -0.240018 31 142 243
-0.31466 0.0337712 -0.300749 31 142 243
-0.314138 0.0624398 -0.352628 31 142 243
0.12125 -0.0312694 -0.201871 31 142 243
-0.281036 0.0181019 -0.191076 31 142 243
-0.225465 -0.00287748 -0.188227 31 142 243
-0.30771 0.0561293 -0.237007 31 142 243
-0.14853 0.0751266 -0.329828 31 142 243
-0.0306191 0.0320989 -0.207588 31 142 243
-0.306048 0.044725 -0.230538 31 142 243
-0.301196 -0.133411 -0.249852 31 142 243
0.0558477 0.0737634 -0.236361 31 142 243
-0.0991733 0.0516738 -0.209507 31 142 243
-0.312266 0.0530489 -0.276608 31 142 243
-0.22989 0.0750781 -0.366269 31 142 243
-0.0190868 0.0751095 -0.281922 31 142 243
-0.269018 0.0750152 -0.378738 31 142 243
-0.312088 0.00129626 -0.285186 31 142 243
-0.0456288 0.0750613 -0.263639 31 142 243
-0.063825 -0.00538739 -0.200582 31 142 243
-0.237445 0.0741086 -0.218222 31 142 243
-0.0253234 0.0208943 -0.206033 31 142 243
-0.242896 0.0733217 -0.266581 31 142 243
-0.183225 0.0751426 -0.324314 31 142 243
-0.303178 -0.0871878 -0.248746 31 142 243
-0.288389 0.0266829 -0.19169 31 142 243
-0.152983 -0.148293 -0.203469 31 142 243
-0.0799218 0.0750786 -0.296558 31 142 243
-0.258718 0.074107 -0.304243 31 142 243
-0.317153 0.0397776 -0.336922 31 142 243
-0.303389 -0.12853 -0.26464 31 142 243
-0.102472 0.0751697 -0.356739 31 142 243
-0.130049 0.0242126 -0.199636 31 142 243
-0.303489 0.0675297 -0.390222 31 142 243
-0.148321 0.0747267 -0.263125 31 142 243
-0.140969 0.074549 -0.239461 31 142 243
-0.0190267 0.0750765 -0.269352 31 142 243
-0.31541 0.0562927 -0.312946 31 142 243
-0.314287 -0.0307081 -0.356006 31 142 243
-0.0809397 0.0750457 -0.224981 31 142 243
-0.294833 0.0729954 -0.29771 31 142 243
-0.303 -0.125587 -0.260774 31 142 243
-0.310114 0.0545105 -0.255319 31 142 243
-0.104084 0.0750679 -0.251542 31 142 243
-0.298464 0.0734523 -0.375492 31 142 243
-0.193758 0.0737029 -0.24881 31 142 243
-0.283365 -0.0380257 -0.194004 31 142 243
-0.273297 -0.0869383 -0.199548 31 142 243
-0.169203 0.0751439 -0.336391 31 142 243
0.0233492 -0.0672691 -0.206801 31 142 243
-0.304202 0.0714412 -0.368355 31 142 243
0.0590189 -0.359001 -0.215341 31 142 243
-0.303536 0.00885238 -0.227279 31 142 243
-0.146869 0.0751172 -0.31985 31 142 243
-0.307781 -0.0878507 -0.285317 31 142 243
-0.313972 -0.0377777 -0.355226 31 142 243
-0.150632 0.0751248 -0.32511 31 142 243
0.139809 -0.141731 -0.205277 31 142 243
-0.10758 0.0751531 -0.359679 31 142 243
-0.155387 -0.093566 -0.199117 31 142 243
-0.0922172 0.075076 -0.282307 31 142 243
-0.0606721 0.0750381 -0.224569 31 142 243
0.102437 0.0206551 -0.209138 31 142 243
-0.136007 0.0751181 -0.350748 31 142 243
-0.154422 0.0751149 -0.310606 31 142 243
-0.265802 0.075063 -0.339157 31 142 243
-0.0723533 0.0750725 -0.286781 31 142 243
-0.240792 0.0741367 -0.217835 31 142 243
-0.287137 0.0733365 -0.287071 31 142 243
-0.279003 0.0741263 -0.224651 31 142 243
-0.31205 0.0631816 -0.31471 31 142 243
-0.229451 0.0736324 -0.281694 31 142 243
-0.0625603 0.0750697 -0.286522 31 142 243
-0.139935 0.0750813 -0.270846 31 142 243
-0.312497 -0.0570241 -0.363034 31 142 243
-0.299153 0.0664482 -0.206689 31 142 243
-0.308252 -0.17867 -0.34257 31 142 243
-0.228745 0.0500589 -0.192331 31 142 243
0.00271814 0.0751292 -0.26953 31 142 243
-0.309136 -0.0639279 -0.286261 31 142 243
-0.137909 0.0751135 -0.360381 31 142 243
-0.315661 0.0577959 -0.370143 31 142 243
-0.0355158 -0.273448 -0.212339 31 142 243
0.00773735 0.0750511 -0.232685 31 142 243
0.0616741 -0.286534 -0.210863 31 142 243
-0.0644635 0.0751289 -0.312961 31 142 243
-0.315286 0.0605155 -0.34895 31 142 243
-0.246868 0.0526475 -0.193098 31 142 243
-0.314831 0.0528512 -0.301858 31 142 243
-0.209554 -0.128515 -0.200615 31 142 243
-0.278837 0.0749929 -0.388196 31 142 243
-0.241387 0.0750993 -0.33592 31 142 243
0.040917 -0.19644 -0.209026 31 142 243
-0.278816 0.0732417 -0.266342 31 142 243
-0.303731 0.027604 -0.225758 31 142 243
-0.295747 0.032117 -0.198407 31 142 243
-0.224216 0.0751273 -0.317976 31 142 243
-0.313639 0.0408795 -0.290148 31 142 243
-0.126312 0.075109 -0.346337 31 142 243
-0.298532 0.0698447 -0.255298 31 142 243
-0.313707 -0.035717 -0.358788 31 142 243
-0.3107 0.0445276 -0.262727 31 142 243
-0.0730611 0.067131 -0.213652 31 142 243
0.00151903 0.0750844 -0.262503 31 142 243
-0.139856 0.0751217 -0.334289 31 142 243
-0.225528 0.073708 -0.235678 31 142 243
-0.0774525 0.0752924 -0.350113 31 142 243
-0.30611 -0.135023 -0.288253 31 142 243
-0.304149 -0.0793702 -0.252805 31 142 243
-0.300743 0.0728895 -0.371892 31 142 243
-0.105576 0.0750755 -0.268335 31 142 243
-0.235099 0.0750603 -0.373046 31 142 243
0.0443265 0.0751403 -0.247097 31 142 243
-0.0657855 0.0750612 -0.267489 31 142 243
-0.281809 0.0680477 -0.198326 31 142 243
-0.31194 -0.0651212 -0.315454 31 142 243
0.0565612 -0.0977434 -0.207431 31 142 243
-0.0895869 0.0750652 -0.26044 31 142 243
-0.301153 0.0712321 -0.311965 31 142 243
0.0778093 -0.0497005 -0.204506 31 142 243
-0.306357 -0.117935 -0.285126 31 142 243
0.0153206 -0.115462 -0.208712 31 142 243
-0.275126 0.0746327 -0.208853 31 142 243
-0.313432 -0.0227271 -0.314356 31 142 243
-0.194139 0.0742075 -0.209612 31 142 243
-0.240948 0.0733277 -0.271855 31 142 243
-0.274041 -0.0585224 -0.196093 31 142 243
-0.294019 0.0735798 -0.242742 31 142 243
-0.302733 0.0655844 -0.252493 31 142 243
-0.193256 0.0748514 -0.298615 31 142 243
-0.31751 0.0483679 -0.33742 31 142 243
-0.0867372 -0.247476 -0.212671 31 142 243
-0.263494 0.0743889 -0.312153 31 142 243
0.000892185 -0.00571513 -0.202729 31 142 243
-0.0839265 0.0720323 -0.217318 31 142 243
-0.21311 0.0750952 -0.364546 31 142 243
-0.107417 0.0750518 -0.22589 31 142 243
-0.27376 0.0749875 -0.327289 31 142 243
-0.0400755 0.0751069 -0.295271 31 142 243
-0.030471 0.075462 -0.339441 31 142 243
-0.310554 -0.141456 -0.335704 31 142 243
-0.234438 0.0733801 -0.260008 31 142 243
-0.144617 0.0749105 -0.266632 31 142 243
-0.301849 0.0581438 -0.217226 31 142 243
-0.192422 0.0741808 -0.210792 31 142 243
0.0127105 0.0750511 -0.234165 31 142 243
-0.127218 -0.0266489 -0.202687 0 180 235
0.290575 -0.204643 -0.196376 0 180 235
0.111856 0.00304067 -0.203907 0 180 235
0.136961 0.0125136 -0.201689 0 180 235
-0.281039 -0.0137939 -0.21617 0 180 235
-0.275488 -0.200691 -0.209733 0 180 235
-0.299533 -0.199045 -0.270851 0 180 235
0.300662 -0.0601747 -0.200116 0 180 235
-0.140271 -0.237767 -0.196267 0 180 235
0.130204 0.0157138 -0.201425 0 180 235
-0.0475459 0.0415645 -0.201966 0 180 235
0.252337 -0.18042 -0.197347 0 180 235
0.0518094 -0.173622 -0.201385 0 180 235
0.163923 -0.068034 -0.203429 0 180 235
0.302505 -0.193759 -0.196384 0 180 235
0.0437137 -0.0527332 -0.206067 0 180 235
0.0948703 -0.027768 -0.205333 0 180 235
0.0174606 -0.28624 -0.197421 0 180 235
0.342746 -0.236388 -0.196418 0 180 235
0.0994575 -0.125941 -0.202306 0 180 235
0.203851 -0.164136 -0.199271 0 180 235
-0.200706 -0.22316 -0.196132 0 180 235
0.173515 -0.0755195 -0.203203 0 180 235
-0.291259 -0.124529 -0.235567 0 180 235
0.0119982 -0.196114 -0.200705 0 180 235
-0.127317 -0.0290585 -0.202734 0 180 235
0.231661 -0.339126 -0.191052 0 180 235
0.355732 -0.244972 -0.196264 0 180 235
-0.0593545 -0.312236 -0.19783 0 180 235
0.310365 -0.0653328 -0.199936 0 180 235
0.0462129 -0.0693382 -0.206016 0 180 235
-0.0960938 -0.318624 -0.197329 0 180 235
0.082272 0.0334352 -0.200788 0 180 235
-0.241084 -0.197569 -0.199195 0 180 235
-0.294453 0.0550096 -0.24448 0 180 235
0.0025939 -0.28797 -0.197608 0 180 235
0.181704 -0.284875 -0.169289 0 180 235
-0.224274 0.0576013 -0.189193 0 180 235
-0.0219286 -0.0311472 -0.206319 0 180 235
-0.279939 0.0129775 -0.219576 0 180 235
-0.130435 -0.339398 -0.196949 0 180 235
-0.304937 -0.127747 -0.276722 0 180 235
-0.0504661 0.0320941 -0.202891 0 180 235
-0.107189 0.0304509 -0.201334 0 180 235
0.341022 -0.179148 -0.197153 0 180 235
-0.156244 0.0274269 -0.198953 0 180 235
-0.224014 -0.131495 -0.198511 0 180 235
-0.00662762 -0.277798 -0.198008 0 180 235
-0.212856 -0.154106 -0.197466 0 180 235
-0.0605562 -0.0294074 -0.205192 0 180 235
-0.0263677 -0.104846 -0.204913 0 180 235
0.167763 -0.110282 -0.202131 0 180 235
0.00602523 -0.243859 -0.19855 0 180 235
-0.0368503 -0.0927868 -0.205123 0 180 235
-0.0686782 -0.323157 -0.197685 0 180 235
-0.194858 -0.246398 -0.195476 0 180 235
-0.04896 -0.168055 -0.203081 0 180 235
0.0883489 0.0210968 -0.202882 0 180 235
-0.199515 -0.19552 -0.196616 0 180 235
-0.310946 -0.103247 -0.294178 0 180 235
0.106635 -0.240541 -0.196957 0 180 235
-0.161836 -0.238682 -0.195427 0 180 235
0.255563 -0.0599352 -0.201269 0 180 235
0.0979804 -0.0181868 -0.205145 0 180 235
-0.301702 -0.187522 -0.275138 0 180 235
-0.158801 0.0617677 -0.190585 0 180 235
0.242214 -0.283299 -0.171169 0 180 235
-0.290321 0.0650233 -0.216278 0 180 235
0.105244 -0.33681 -0.195385 0 180 235
0.146884 -0.103263 -0.202538 0 180 235
0.179602 -0.25833 -0.195457 0 180 235
0.093252 0.03231 -0.200256 0 180 235
-0.0345398 -0.0811147 -0.20549 0 180 235
0.00718924 -0.11882 -0.204861 0 180 235
-0.229118 0.0455785 -0.193392 0 180 235
0.0313697 0.0270741 -0.203496 0 180 235
0.314775 -0.0596515 -0.199458 0 180 235
-0.288428 -0.304394 -0.257181 0 180 235
-0.072446 -0.404098 -0.197371 0 180 235
-0.0921763 -0.201598 -0.200448 0 180 235
-0.0231968 -0.18194 -0.202376 0 180 235
0.050517 -0.185428 -0.200816 0 180 235
-0.30669 -0.0224324 -0.287602 0 180 235
0.0414748 -0.312024 -0.189587 0 180 235
0.217643 -0.1335 -0.199442 0 180 235
-0.242992 -0.0917855 -0.200225 0 180 235
0.0164142 -0.0221221 -0.205915 0 180 235
0.164233 -0.13885 -0.200374 0 180 235
0.194199 -0.361672 -0.166124 0 180 235
-0.289284 -0.117768 -0.231533 0 180 235
-0.227113 0.030163 -0.19548 0 180 235
-0.0966887 -0.0240851 -0.203427 0 180 235
-0.261315 -0.0420058 -0.197658 0 180 235
0.14275 -0.297968 -0.198126 0 180 235
-0.267761 -0.024864 -0.200464 0 180 235
-0.166314 0.0418553 -0.19582 0 180 235
-0.285778 -0.0199369 -0.225202 0 180 235
-0.277787 -0.129993 -0.211018 0 180 235
-0.194563 0.0649919 -0.187649 0 180 235
0.23285 -0.0444899 -0.201698 0 180 235
-0.20223 0.0507561 -0.192298 0 180 235
-0.244972 0.0450244 -0.193482 0 180 235
-0.170777 0.051206 -0.193573 0 180 235
0.0754204 -0.307415 -0.1849 0 180 235
0.140776 -0.0145155 -0.203794 0 180 235
-0.200641 0.00568061 -0.19638 0 180 235
-0.144648 0.03599 -0.198103 0 180 235
0.121669 -0.336619 -0.196788 0 180 235
-0.167062 -0.329093 -0.195453 0 180 235
-0.287162 -0.0387733 -0.225523 0 180 235
-0.248232 -0.348285 -0.202642 0 180 235
-0.141397 -0.16661 -0.198665 0 180 235
0.0384762 0.0465806 -0.197247 0 180 235
0.0489881 -0.0430755 -0.206045 0 180 235
0.160946 -0.12048 -0.201467 0 180 235
-0.0653196 -0.0432181 -0.205336 0 180 235
-0.296326 0.0644204 -0.232295 0 180 235
-0.275989 -0.146713 -0.209447 0 180 235
-0.213878 -0.0324611 -0.195961 0 180 235
-0.249383 -0.0103818 -0.195008 0 180 235
-0.0715921 -0.158552 -0.203022 0 180 235
0.233502 -0.320512 -0.195398 0 180 235
0.221555 -0.0815098 -0.20136 0 180 235
0.0126596 -0.330023 -0.198058 0 180 235
0.0885377 -0.0372903 -0.205365 0 180 235
-0.010007 0.00990781 -0.204601 0 180 235
-0.257247 0.0666836 -0.186433 0 180 235
-0.288962 0.0258121 -0.239964 0 180 235
0.189668 -0.0721759 -0.202629 0 180 235
-0.27631 -0.31243 -0.229262 0 180 235
-0.296511 -0.108301 -0.252031 0 180 235
-0.284415 0.0326778 -0.228971 0 180 235
-0.294702 -0.0578822 -0.246675 0 180 235
-0.0551922 -0.0438851 -0.205617 0 180 235
0.0356414 -0.289832 -0.199948 0 180 235
-0.276818 -0.228963 -0.21529 0 180 235
-0.20605 -0.0400552 -0.197239 0 180 235
-0.179082 -0.346324 -0.195123 0 180 235
0.334375 -0.317212 -0.197508 0 180 235
0.0498677 -0.312896 -0.198235 0 180 235
0.245715 -0.206406 -0.196529 0 180 235
-0.293753 -0.273148 -0.267087 0 180 235
-0.259164 0.0677458 -0.186216 0 180 235
-0.157729 -0.110721 -0.200824 0 180 235
-0.254811 -0.223269 -0.202226 0 180 235
-0.142672 -0.051436 -0.20262 0 180 235
-0.0508223 -0.257069 -0.199079 0 180 235
-0.119575 -0.216384 -0.198275 0 180 235
-0.0519712 0.0475119 -0.200606 0 180 235
0.00591334 -0.295368 -0.179442 0 180 235
-0.296662 -0.0999817 -0.252006 0 180 235
0.24512 -0.0548589 -0.201538 0 180 235
-0.0384584 0.0553423 -0.1965 0 180 235
-0.111141 0.0309284 -0.200996 0 180 235
-0.264067 0.0646337 -0.189456 0 180 235
0.169258 0.0160593 -0.200764 0 180 235
0.0457766 -0.374589 -0.195105 0 180 235
0.0298265 -0.0498108 -0.206308 0 180 235
-0.183239 -0.118983 -0.199375 0 180 235
-0.279279 -0.100006 -0.211206 0 180 235
0.0545362 -0.293363 -0.175527 0 180 235
0.0799792 -0.0889486 -0.204774 0 180 235
0.193172 0.0128409 -0.200819 0 180 235
0.145222 -0.00997764 -0.203271 0 180 235
0.297267 -0.164298 -0.197091 0 180 235
0.275389 -0.0980215 -0.198864 0 180 235
0.010297 -0.0410549 -0.206549 0 180 235
0.242787 -0.0759418 -0.201082 0 180 235
-0.211409 -0.15779 -0.197301 0 180 235
0.0193195 0.049024 -0.197748 0 180 235
0.168694 0.0199926 -0.198032 0 180 235
0.340224 -0.166858 -0.197546 0 180 235
0.21767 -0.0855572 -0.201263 0 180 235
0.153092 -0.293281 -0.173566 0 180 235
0.330464 -0.13085 -0.198256 0 180 235
-0.0963999 -0.213355 -0.199512 0 180 235
0.247086 -0.312907 -0.197319 0 180 235
0.13134 -0.296537 -0.19439 0 180 235
-0.269533 -0.144261 -0.206255 0 180 235
-0.00685451 -0.190632 -0.201434 0 180 235
-0.25727 -0.121459 -0.203009 0 180 235
0.173489 -0.163634 -0.199596 0 180 235
0.206419 -0.0283208 -0.201666 0 180 235
0.233304 -0.0941464 -0.200349 0 180 235
-0.186287 -0.129954 -0.198714 0 180 235
0.131895 -0.0948099 -0.203358 0 180 235
-0.299922 -0.0484355 -0.261494 0 180 235
-0.265905 0.0300455 -0.200536 0 180 235
-0.187418 -0.182083 -0.197044 0 180 235
0.318886 -0.121967 -0.198226 0 180 235
-0.304777 0.0290135 -0.290919 0 180 235
0.019218 -0.341717 -0.196673 0 180 235
-0.278478 -0.129618 -0.212035 0 180 235
-0.139266 0.0194954 -0.200643 0 180 235
-0.0721207 0.0280319 -0.202882 0 180 235
-0.0807534 -0.0926537 -0.205128 0 180 235
0.0936952 -0.0230823 -0.205418 0 180 235
-0.0295418 -0.00552209 -0.204807 0 180 235
-0.119907 -0.190794 -0.19925 0 180 235
0.288425 -0.0535919 -0.200407 0 180 235
-0.0491952 -0.40998 -0.197653 0 180 235
-0.270089 -0.282526 -0.212539 0 180 235
-0.194632 -0.109176 -0.199609 0 180 235
-0.119304 -0.0545679 -0.203594 0 180 235
-0.0618063 -0.201458 -0.200839 0 180 235
-0.136015 -0.0209559 -0.202232 0 180 235
-0.265228 -0.0132359 -0.199747 0 180 235
-0.256901 -0.251098 -0.203333 0 180 235
0.11334 -0.109186 -0.202896 0 180 235
0.137961 -0.199723 -0.197864 0 180 235
-0.237597 0.0675923 -0.184247 0 180 235
-0.25455 -0.366354 -0.205328 0 180 235
0.158559 -0.361449 -0.165451 0 180 235
-0.231464 -0.0279048 -0.194892 0 180 235
-0.117414 -0.0535476 -0.203625 0 180 235
-0.148374 -0.0718246 -0.202826 0 180 235
0.0151579 0.039294 -0.201924 0 180 235
0.143882 -0.0770541 -0.20369 0 180 235
0.194233 -0.0701302 -0.202575 0 180 235
-0.252527 0.0673619 -0.185 0 180 235
0.0271963 -0.021808 -0.205867 0 180 235
-0.130133 0.0331928 -0.199529 0 180 235
-0.293309 -0.0146491 -0.246066 0 180 235
0.120918 -0.177228 -0.199738 0 180 235
-0.130421 -0.0581697 -0.203216 0 180 235
0.0222487 -0.00481585 -0.204861 0 180 235
-0.114204 0.0209912 -0.202159 0 180 235
0.195364 -0.00167558 -0.201042 0 180 235
-0.179441 0.0621752 -0.190025 0 180 235
-0.0861938 0.0269347 -0.202437 0 180 235
-0.296546 -0.22712 -0.2668 0 180 235
0.100836 -0.100255 -0.203766 0 180 235
-0.108661 0.0434071 -0.197936 0 180 235
-0.278816 -0.107299 -0.211086 0 180 235
0.346618 -0.185348 -0.197116 0 180 235
-0.042349 -0.147671 -0.203809 0 180 235
-0.207161 -0.168412 -0.197056 0 180 235
-0.212722 -0.126496 -0.198382 0 180 235
0.0503684 -0.319428 -0.197666 0 180 235
0.11524 0.00437711 -0.203499 0 180 235
0.0816774 0.0210438 -0.203153 0 180 235
0.204263 -0.172716 -0.198901 0 180 235
0.245837 -0.0937207 -0.19997 0 180 235
-0.298727 -0.178922 -0.265349 0 180 235
-0.303635 0.0513374 -0.280095 0 180 235
-0.087308 -0.110032 -0.204533 0 180 235
-0.0333288 0.013146 -0.204404 0 180 235
-0.258011 0.0523405 -0.193008 0 180 235
