ply
format ascii 1.0
comment Created by Open3D
element vertex 1213
property double x
property double y
property double z
property uchar red
property uchar green
property uchar blue
end_header
-0.172803 -0.485763 -0.0786977 255 178 96
-0.216821 -0.442851 0.272073 255 178 96
-0.0632624 -0.486053 -0.101071 255 178 96
-0.0210522 -0.487798 0.287717 255 178 96
0.229186 -0.474826 -0.0550214 255 178 96
-0.0382765 -0.486709 0.0232866 255 178 96
0.19426 -0.487779 0.351667 255 178 96
0.198578 -0.487729 0.349523 255 178 96
0.35806 -0.486791 0.186664 255 178 96
-0.20079 -0.466865 0.0361133 255 178 96
-0.134484 -0.487055 0.137791 255 178 96
0.166629 -0.487406 0.248746 255 178 96
-0.119055 -0.487717 0.299337 255 178 96
-0.106875 -0.487809 0.309581 255 178 96
-0.230657 -0.444458 -0.0116265 255 178 96
-0.0685406 -0.488073 0.319506 255 178 96
-0.070651 -0.485386 -0.185717 255 178 96
0.143795 -0.486964 0.120609 255 178 96
0.00942037 -0.486872 0.0374086 255 178 96
0.0619228 -0.484751 0.40238 255 178 96
-0.162523 -0.485477 -0.156427 255 178 96
-0.0911609 -0.487792 0.273829 255 178 96
-0.161154 -0.48703 0.072905 255 178 96
-0.269404 -0.413637 0.123644 255 178 96
0.192417 -0.486446 -0.0130428 255 178 96
0.0678887 -0.487031 0.144592 255 178 96
-0.167938 -0.485555 -0.143698 255 178 96
0.243622 -0.475263 -0.0568769 255 178 96
0.0590507 -0.486443 -0.0837139 255 178 96
-0.102974 -0.487746 0.276179 255 178 96
-0.0934295 -0.487114 0.162205 255 178 96
-0.145551 -0.486672 0.0384169 255 178 96
-0.076016 -0.486766 0.054668 255 178 96
0.16447 -0.486858 0.0609365 255 178 96
0.134761 -0.486402 -0.0569437 255 178 96
-0.25965 -0.423945 -0.0747433 255 178 96
0.0661656 -0.48518 -0.297322 255 178 96
-0.128467 -0.487232 0.169034 255 178 96
-0.152651 -0.486884 0.0535295 255 178 96
-0.257513 -0.44792 -0.186609 255 178 96
-0.201072 -0.47747 -0.046626 255 178 96
0.00190658 -0.486926 0.125393 255 178 96
-0.145773 -0.485551 -0.145606 255 178 96
-0.187059 -0.480263 0.0128281 255 178 96
-0.152328 -0.486274 -0.032304 255 178 96
-0.0852361 -0.487368 0.195944 255 178 96
0.0745176 -0.487416 0.226125 255 178 96
-0.00882748 -0.487488 0.228289 255 178 96
-0.146077 -0.486169 -0.0526416 255 178 96
-0.238365 -0.458736 -0.135668 255 178 96
-0.0705687 -0.483688 0.354407 255 178 96
-0.211468 -0.458731 0.0439368 255 178 96
-0.10947 -0.487149 0.168392 255 178 96
-0.168252 -0.486436 -0.00130148 255 178 96
0.293117 -0.486849 0.106138 255 178 96
-0.0416965 -0.487822 0.283242 255 178 96
0.0121156 -0.48697 0.0967324 255 178 96
-0.189736 -0.464253 0.26872 255 178 96
-0.17426 -0.486154 -0.0272871 255 178 96
-0.0383157 -0.486812 0.0457692 255 178 96
-0.103556 -0.486372 -0.0275969 255 178 96
0.155637 -0.487051 0.170373 255 178 96
0.110184 -0.483393 -0.214497 255 178 96
-0.138019 -0.48635 -0.0252064 255 178 96
-0.0406127 -0.488173 0.347934 255 178 96
-0.195292 -0.483754 -0.0580294 255 178 96
-0.229493 -0.468422 -0.192927 255 178 96
-0.207049 -0.462189 0.100298 255 178 96
0.170841 -0.48673 0.0362865 255 178 96
-0.00900317 -0.486358 -0.0676128 255 178 96
0.0138213 -0.484865 -0.28578 255 178 96
0.168217 -0.486977 0.128759 255 178 96
0.0245715 -0.477508 0.39205 255 178 96
0.348544 -0.486633 0.130378 255 178 96
-0.020513 -0.486281 -0.0784512 255 178 96
0.0780514 -0.471444 0.412338 255 178 96
-0.0238463 -0.486874 0.0557419 255 178 96
0.0796009 -0.488702 0.396335 255 178 96
-0.19453 -0.470823 0.247751 255 178 96
0.189338 -0.488213 0.406578 255 178 96
-0.127339 -0.48572 -0.126978 255 178 96
0.117045 -0.486244 -0.0870902 255 178 96
-0.0444014 -0.485292 -0.201118 255 178 96
-0.103402 -0.482474 0.339446 255 178 96
-0.243365 -0.461446 -0.236308 255 178 96
-0.104511 -0.486479 -0.0106805 255 178 96
-0.101323 -0.484706 -0.256039 255 178 96
0.114729 -0.484282 -0.261913 255 178 96
0.0576634 -0.487349 0.217907 255 178 96
-0.0842389 -0.486631 0.0205333 255 178 96
-0.12177 -0.486262 -0.0439103 255 178 96
0.311318 -0.48751 0.393691 255 178 96
0.181784 -0.488281 0.409638 255 178 96
0.239763 -0.487636 0.367137 255 178 96
-0.161269 -0.487233 0.135944 255 178 96
0.198489 -0.477154 0.422234 255 178 96
0.265269 -0.487104 0.183235 255 178 96
-0.250865 -0.431242 0.106748 255 178 96
-0.200191 -0.468329 0.178668 255 178 96
0.337568 -0.479434 -0.115785 255 178 96
0.336482 -0.453379 0.426664 255 178 96
-0.163267 -0.486497 0.00783398 255 178 96
-0.249024 -0.444584 -0.106342 255 178 96
-0.136624 -0.485661 -0.131577 255 178 96
-0.0371593 -0.486784 0.0396688 255 178 96
0.0808607 -0.487088 0.160459 255 178 96
-0.110422 -0.485137 -0.217362 255 178 96
0.349762 -0.486936 0.18622 255 178 96
0.366705 -0.487036 0.223887 255 178 96
-0.0536276 -0.486794 0.0498721 255 178 96
-0.219247 -0.474188 -0.143264 255 178 96
-0.0659591 -0.486959 0.140517 255 178 96
-0.0894184 -0.485202 -0.2088 255 178 96
0.241736 -0.482419 -0.204289 255 178 96
-0.164686 -0.440546 0.310113 255 178 96
-0.0304313 -0.487865 0.294878 255 178 96
-0.0870869 -0.487319 0.188238 255 178 96
0.33894 -0.486698 0.106231 255 178 96
0.0501214 -0.487711 0.279194 255 178 96
0.168073 -0.487659 0.321011 255 178 96
-0.0383165 -0.48788 0.293198 255 178 96
-0.20669 -0.475466 -0.0661613 255 178 96
0.0870977 -0.479914 0.410737 255 178 96
-0.0506967 -0.487903 0.293482 255 178 96
0.000961318 -0.486641 -0.00979852 255 178 96
-0.159889 -0.486855 0.043967 255 178 96
-0.242878 -0.43195 0.0120222 255 178 96
-0.176185 -0.4605 0.289358 255 178 96
-0.256907 -0.414229 0.00792145 255 178 96
-0.164069 -0.485766 -0.110931 255 178 96
-0.066607 -0.488051 0.354909 255 178 96
0.343888 -0.486671 0.116153 255 178 96
-0.103892 -0.485699 0.335238 255 178 96
-0.114602 -0.484833 -0.246814 255 178 96
0.0450474 -0.486659 -0.0347119 255 178 96
-0.172056 -0.485956 -0.059998 255 178 96
0.315682 -0.478657 -0.130405 255 178 96
0.194326 -0.486875 0.0730614 255 178 96
-0.0472954 -0.487422 0.206641 255 178 96
0.320927 -0.487352 0.338535 255 178 96
-0.112933 -0.486499 -0.00343768 255 178 96
-0.153175 -0.482362 0.280661 255 178 96
-0.245663 -0.443729 -0.0903765 255 178 96
-0.10737 -0.485333 -0.186291 255 178 96
-0.271257 -0.428433 0.20399 255 178 96
-0.155331 -0.487468 0.21636 255 178 96
0.325656 -0.48666 0.057273 255 178 96
-0.0691215 -0.486528 -0.00726011 255 178 96
-0.231665 -0.44502 0.0470018 255 178 96
0.354682 -0.486571 0.164267 255 178 96
-0.231469 -0.447047 0.150384 255 178 96
0.0227931 -0.488163 0.334891 255 178 96
-0.120562 -0.485765 -0.12334 255 178 96
0.129737 -0.488647 0.405604 255 178 96
0.267886 -0.472286 0.427879 255 178 96
-0.185255 -0.479931 0.219505 255 178 96
-0.231951 -0.397573 0.27636 255 178 96
0.0732501 -0.486811 -0.0129986 255 178 96
-0.189705 -0.48524 -0.121678 255 178 96
-0.138514 -0.487216 0.160815 255 178 96
-0.115533 -0.486586 0.0252332 255 178 96
-0.229635 -0.446742 -0.0333472 255 178 96
-0.258661 -0.446252 -0.169738 255 178 96
-0.248492 -0.454006 -0.178095 255 178 96
-0.268969 -0.399685 0.0265833 255 178 96
0.0816637 -0.486716 -0.0332291 255 178 96
0.0922284 -0.486992 0.139398 255 178 96
0.274421 -0.48658 0.0269571 255 178 96
-0.0905685 -0.486946 0.14216 255 178 96
0.188951 -0.486837 0.063299 255 178 96
0.0123535 -0.486921 0.049776 255 178 96
0.199652 -0.486937 0.0939543 255 178 96
-0.0468229 -0.487939 0.299948 255 178 96
-0.0453694 -0.486737 0.0317786 255 178 96
0.339118 -0.487308 0.383667 255 178 96
-0.148297 -0.487225 0.155521 255 178 96
-0.112594 -0.485351 -0.182517 255 178 96
-0.018014 -0.487271 0.190403 255 178 96
0.0140398 -0.486142 -0.115145 255 178 96
0.0700954 -0.484574 -0.272563 255 178 96
-0.145983 -0.486044 -0.0700499 255 178 96
-0.0759945 -0.487705 0.253541 255 178 96
-0.254945 -0.41884 0.0326219 255 178 96
0.20199 -0.48753 0.326186 255 178 96
-0.147889 -0.48679 0.0474435 255 178 96
-0.133045 -0.485084 -0.222407 255 178 96
0.0788071 -0.487496 0.236789 255 178 96
0.340859 -0.486738 0.146478 255 178 96
0.0872797 -0.485979 -0.134154 255 178 96
0.170905 -0.486501 -0.0111882 255 178 96
-0.286629 -0.4147 -0.148408 255 178 96
0.0473467 -0.487593 0.260312 255 178 96
-0.194215 -0.485139 -0.12846 255 178 96
0.155744 -0.488104 0.362304 255 178 96
-0.142762 -0.484559 -0.273988 255 178 96
0.362981 -0.486436 0.146301 255 178 96
-0.0233591 -0.485255 -0.214446 255 178 96
0.28172 -0.482079 -0.171498 255 178 96
-0.0434424 -0.486663 0.0149663 255 178 96
-0.236189 -0.460308 -0.132034 255 178 96
-0.246705 -0.442702 0.223155 255 178 96
0.0735002 -0.487073 0.155081 255 178 96
0.0513549 -0.488241 0.341976 255 178 96
-0.1851 -0.485333 -0.103503 255 178 96
0.168952 -0.478821 0.418773 255 178 96
-0.15674 -0.487079 0.096121 255 178 96
0.0355924 -0.487479 0.239547 255 178 96
-0.247992 -0.449855 -0.132042 255 178 96
-0.229923 -0.448988 0.163182 255 178 96
0.0635956 -0.486117 -0.124319 255 178 96
-0.131324 -0.486259 -0.043635 255 178 96
0.0882468 -0.482692 -0.235346 255 178 96
-0.136859 -0.487197 0.159599 255 178 96
0.111207 -0.488387 0.366899 255 178 96
-0.132269 -0.487022 0.132971 255 178 96
0.217779 -0.477475 -0.178249 255 178 96
-0.00773081 -0.485641 -0.167847 255 178 96
0.150409 -0.485402 -0.21888 255 178 96
0.323225 -0.486696 0.0701834 255 178 96
0.00657045 -0.488419 0.372307 255 178 96
-0.0109244 -0.488064 0.329149 255 178 96
-0.192938 -0.47474 0.208127 255 178 96
-0.0999677 -0.485501 -0.162672 255 178 96
-0.00383254 -0.48719 0.179438 255 178 96
0.327345 -0.487341 0.369581 255 178 96
-0.21169 -0.4588 0.0885931 255 178 96
-0.148857 -0.485206 -0.199493 255 178 96
-0.219484 -0.454979 0.154996 255 178 96
0.126822 -0.483747 -0.209371 255 178 96
-0.163095 -0.485992 -0.0721369 255 178 96
-0.153757 -0.443769 0.316755 255 178 96
0.185252 -0.487589 0.317844 255 178 96
-0.017959 -0.487677 0.264193 255 178 96
0.125894 -0.487865 0.320154 255 178 96
-0.246309 -0.429085 -0.0364177 255 178 96
0.213933 -0.486917 0.0935103 255 178 96
-0.170307 -0.484743 0.247864 255 178 96
-0.19728 -0.48507 -0.214109 255 178 96
-0.273349 -0.435023 -0.215993 255 178 96
-0.135908 -0.481774 0.306319 255 178 96
0.0341956 -0.486961 0.0606944 255 178 96
-0.273707 -0.431696 -0.181867 255 178 96
0.155609 -0.48745 0.252724 255 178 96
-0.0426909 -0.487217 0.364595 255 178 96
-0.00380236 -0.488018 0.322285 255 178 96
-0.103052 -0.462845 0.341267 255 178 96
0.108101 -0.487808 0.300239 255 178 96
-0.233797 -0.441457 0.0215775 255 178 96
-0.19734 -0.483502 -0.0942119 255 178 96
-0.0462506 -0.486285 -0.0633939 255 178 96
-0.154051 -0.485239 -0.193735 255 178 96
-0.131741 -0.484562 -0.277024 255 178 96
0.283141 -0.482872 -0.0349635 255 178 96
0.0648382 -0.476247 0.407172 255 178 96
-0.191584 -0.472987 0.0721176 255 178 96
0.252604 -0.487264 0.232713 255 178 96
0.0977858 -0.48699 0.102641 255 178 96
0.231081 -0.482797 -0.1027 255 178 96
-0.180152 -0.484047 0.0296894 255 178 96
0.0851351 -0.485023 -0.220054 255 178 96
-0.202987 -0.464923 0.047535 255 178 96
0.333416 -0.487305 0.36927 255 178 96
0.115688 -0.487365 0.220351 255 178 96
0.0672747 -0.486581 -0.0637065 255 178 96
-0.168367 -0.486485 0.163573 255 178 96
-0.127203 -0.484557 -0.2679 255 178 96
0.0125953 -0.486038 -0.126711 255 178 96
-0.0194469 -0.487726 0.276079 255 178 96
0.0879283 -0.484992 -0.22593 255 178 96
0.159256 -0.486663 0.018709 255 178 96
0.19545 -0.486633 0.0195847 255 178 96
0.136634 -0.485446 -0.169519 255 178 96
0.319321 -0.486284 0.00523165 255 178 96
0.127918 -0.486953 0.124647 255 178 96
0.00505135 -0.487455 0.228019 255 178 96
0.184869 -0.485738 -0.106243 255 178 96
-0.128249 -0.486309 -0.0353847 255 178 96
-0.239019 -0.461512 -0.199263 255 178 96
0.0383871 -0.484882 -0.248836 255 178 96
0.0938213 -0.487387 0.215787 255 178 96
-0.0667786 -0.485495 -0.173458 255 178 96
-0.14425 -0.487577 0.245807 255 178 96
-0.178555 -0.465773 0.279462 255 178 96
0.0727815 -0.4861 -0.123972 255 178 96
-0.153735 -0.471191 0.301352 255 178 96
0.0742464 -0.487064 0.153017 255 178 96
0.00515804 -0.463605 0.387985 255 178 96
-0.180817 -0.479917 0.149802 255 178 96
0.224697 -0.482531 -0.0983797 255 178 96
0.294 -0.487343 0.309614 255 178 96
0.272113 -0.48366 -0.142633 255 178 96
-0.136085 -0.449972 0.325739 255 178 96
-0.228728 -0.454161 0.212382 255 178 96
-0.0157439 -0.485944 -0.133148 255 178 96
0.0662573 -0.486992 0.0714461 255 178 96
0.0252536 -0.488273 0.348568 255 178 96
0.212757 -0.483735 -0.121508 255 178 96
-0.188958 -0.485245 -0.1137 255 178 96
-0.0951365 -0.487498 0.216967 255 178 96
0.223786 -0.487437 0.294332 255 178 96
-0.012738 -0.485802 -0.149374 255 178 96
-0.157205 -0.484574 -0.26409 255 178 96
-0.136613 -0.487551 0.22775 255 178 96
0.135651 -0.486911 0.0713232 255 178 96
-0.185865 -0.476137 0.249291 255 178 96
-0.178213 -0.485914 0.0280701 255 178 96
-0.10617 -0.487797 0.299392 255 178 96
-0.021497 -0.486718 0.0168657 255 178 96
-0.168995 -0.486761 0.182664 255 178 96
-0.0510176 -0.487839 0.283534 255 178 96
0.0200348 -0.48694 0.125757 255 178 96
0.33512 -0.485568 0.398041 255 178 96
0.0311642 -0.488227 0.341401 255 178 96
-0.106743 -0.487527 0.222084 255 178 96
-0.141448 -0.486052 -0.0703295 255 178 96
-0.211669 -0.480936 -0.221166 255 178 96
-0.278582 -0.411731 -0.107241 255 178 96
-0.082919 -0.486421 -0.022355 255 178 96
-0.177594 -0.456863 0.292344 255 178 96
-0.237501 -0.437198 0.00745278 255 178 96
-0.216663 -0.474289 -0.126756 255 178 96
0.113523 -0.474737 0.41477 255 178 96
0.148969 -0.486957 0.103498 255 178 96
0.276856 -0.476041 -0.0561737 255 178 96
0.106454 -0.485545 -0.173548 255 178 96
-0.0030494 -0.476334 0.383057 255 178 96
-0.104561 -0.487475 0.213613 255 178 96
-0.140297 -0.485104 -0.217587 255 178 96
-0.0911427 -0.487925 0.312633 255 178 96
-0.172817 -0.45708 0.296955 255 178 96
-0.0142724 -0.486727 0.0156906 255 178 96
-0.260115 -0.440678 -0.13466 255 178 96
0.189594 -0.488158 0.396205 255 178 96
0.113622 -0.488017 0.328055 255 178 96
0.352252 -0.48719 0.308084 255 178 96
0.0542581 -0.486374 -0.0925843 255 178 96
0.237629 -0.487505 0.340729 255 178 96
-0.104113 -0.487705 0.264034 255 178 96
-0.230299 -0.447838 0.244351 255 178 96
-0.0444507 -0.486799 0.0448934 255 178 96
0.107881 -0.487428 0.228004 255 178 96
0.290887 -0.487142 0.193912 255 178 96
-0.219363 -0.456791 -0.0178995 255 178 96
0.211767 -0.485964 -0.0664547 255 178 96
-0.195265 -0.429332 0.296055 255 178 96
-0.0221562 -0.486132 -0.107868 255 178 96
-0.0437258 -0.486749 0.0336823 255 178 96
0.363321 -0.487062 0.217922 255 178 96
0.289783 -0.48686 0.119786 255 178 96
-0.0311698 -0.484899 -0.244257 255 178 96
0.334847 -0.486799 0.166057 255 178 96
-0.0372876 -0.486242 -0.0778061 255 178 96
0.169476 -0.484173 -0.184745 255 178 96
-0.0647324 -0.487843 0.281121 255 178 96
0.220115 -0.487449 0.300336 255 178 96
0.204771 -0.487574 0.335731 255 178 96
-0.204059 -0.463931 0.0614527 255 178 96
0.0507207 -0.48708 0.155902 255 178 96
-0.271158 -0.405906 0.0866281 255 178 96
0.171208 -0.488129 0.374878 255 178 96
-0.204587 -0.465046 0.163963 255 178 96
-0.115309 -0.487132 0.165138 255 178 96
-0.11341 -0.485429 -0.169712 255 178 96
-0.0924172 -0.485377 -0.183105 255 178 96
-0.0108344 -0.486923 0.104125 255 178 96
-0.0372418 -0.487744 0.272608 255 178 96
-0.141718 -0.485898 -0.0953826 255 178 96
-0.187991 -0.476396 0.188297 255 178 96
0.252431 -0.484344 -0.131545 255 178 96
0.262004 -0.46474 0.426657 255 178 96
0.0326347 -0.487002 0.0811688 255 178 96
0.00930943 -0.488449 0.377138 255 178 96
0.246662 -0.483319 -0.175671 255 178 96
0.185344 -0.485325 -0.167751 255 178 96
-0.26624 -0.426375 -0.104495 255 178 96
0.157699 -0.486969 0.115934 255 178 96
0.275782 -0.487447 0.345327 255 178 96
0.179617 -0.48818 0.388264 255 178 96
-0.227067 -0.447758 0.0101198 255 178 96
0.108442 -0.486051 -0.114856 255 178 96
-0.2128 -0.458997 0.11445 255 178 96
0.359324 -0.486868 0.194567 255 178 96
-0.125086 -0.451136 0.330745 255 178 96
0.244319 -0.477689 -0.159381 255 178 96
0.180015 -0.478687 -0.265493 255 178 96
0.100756 -0.486791 -0.0017363 255 178 96
0.284526 -0.484159 -0.0791995 255 178 96
-0.227284 -0.450247 -0.0396404 255 178 96
-0.176542 -0.483177 0.240369 255 178 96
0.0698396 -0.486997 0.131438 255 178 96
-0.127303 -0.485186 -0.204989 255 178 96
0.177409 -0.472177 0.420433 255 178 96
-0.229855 -0.448561 0.158157 255 178 96
-0.0828596 -0.486052 -0.0923155 255 178 96
0.0865056 -0.487279 0.199143 255 178 96
-0.0688157 -0.485732 -0.142602 255 178 96
-0.230292 -0.465688 -0.138662 255 178 96
-0.0978925 -0.486141 -0.0691668 255 178 96
0.0439448 -0.487648 0.270273 255 178 96
0.218963 -0.487617 0.351647 255 178 96
0.209698 -0.483943 -0.147064 255 178 96
-0.0912734 -0.48504 -0.231858 255 178 96
-0.0767843 -0.486021 -0.100501 255 178 96
0.038598 -0.487613 0.265535 255 178 96
-0.112352 -0.484556 -0.271705 255 178 96
0.0442071 -0.486028 -0.132973 255 178 96
-0.162848 -0.486289 0.255678 255 178 96
0.252973 -0.487375 0.286038 255 178 96
-0.121991 -0.487634 0.250849 255 178 96
0.120129 -0.488199 0.409402 255 178 96
0.102214 -0.487074 0.165625 255 178 96
-0.165261 -0.471091 0.286765 255 178 96
-0.189733 -0.449234 0.288869 255 178 96
0.256337 -0.455367 0.425064 255 178 96
-0.156179 -0.487543 0.249121 255 178 96
-0.230419 -0.449922 0.2377 255 178 96
0.27354 -0.480565 0.427573 255 178 96
-0.056429 -0.485279 -0.200054 255 178 96
0.182217 -0.487226 0.20601 255 178 96
-0.0909781 -0.486401 -0.0243446 255 178 96
-0.152223 -0.487459 0.199791 255 178 96
0.155627 -0.487068 0.174208 255 178 96
-0.167331 -0.485423 -0.163879 255 178 96
-0.136947 -0.482261 0.303755 255 178 96
-0.0953946 -0.487298 0.1866 255 178 96
0.0260257 -0.485465 -0.198035 255 178 96
-0.0178611 -0.488309 0.365506 255 178 96
-0.281111 -0.421791 -0.151316 255 178 96
-0.0646811 -0.48726 0.177912 255 178 96
-0.065178 -0.487255 0.176955 255 178 96
-0.176885 -0.484989 -0.224187 255 178 96
-0.0534333 -0.485819 -0.137985 255 178 96
0.0492827 -0.486631 -0.0426941 255 178 96
-0.01748 -0.487363 0.205533 255 178 96
0.323499 -0.344943 0.185265 255 139 72
0.356129 -0.345352 0.261348 255 139 72
0.295509 -0.345238 0.332521 255 139 72
0.257352 -0.408544 0.239289 255 139 72
0.221211 -0.358616 -0.0692074 255 139 72
0.23207 -0.344891 0.00803027 255 139 72
0.380331 -0.356917 -0.00669603 255 139 72
0.189335 -0.407674 0.0508034 255 139 72
0.281718 -0.364114 0.159681 255 139 72
0.190286 -0.35926 0.274642 255 139 72
0.308869 -0.366924 -0.072004 255 139 72
0.406831 -0.356958 0.189804 255 139 72
0.350157 -0.35208 0.0541588 255 139 72
0.226092 -0.351217 -0.00984107 255 139 72
0.14193 -0.370415 0.125072 255 139 72
0.362869 -0.344036 0.203626 255 139 72
0.197008 -0.34992 0.112445 255 139 72
0.203762 -0.412217 0.0403831 255 139 72
0.125819 -0.382162 -0.0193218 255 139 72
0.302146 -0.352197 0.00218155 255 139 72
0.365713 -0.358497 0.28671 255 139 72
0.376096 -0.358605 -0.042459 255 139 72
0.288688 -0.357828 -0.0700361 255 139 72
0.416575 -0.361631 0.00258814 255 139 72
0.167074 -0.371414 0.28947 255 139 72
0.0670698 -0.397962 0.162982 255 139 72
0.210892 -0.348706 0.0324149 255 139 72
0.308625 -0.349216 0.0503155 255 139 72
0.207088 -0.369146 0.194326 255 139 72
0.271308 -0.358605 0.186332 255 139 72
0.444612 -0.387919 0.0372043 255 139 72
0.345 -0.354855 -0.0173739 255 139 72
0.301501 -0.343388 0.323509 255 139 72
0.128462 -0.382359 0.00794368 255 139 72
0.251834 -0.422723 0.0426168 255 139 72
0.221842 -0.407924 0.0895844 255 139 72
0.409856 -0.361019 0.01158 255 139 72
0.400493 -0.354362 0.102661 255 139 72
0.301661 -0.342519 0.289269 255 139 72
0.283249 -0.420168 0.0836544 255 139 72
0.375958 -0.358078 -0.0296828 255 139 72
0.298919 -0.375153 0.344271 255 139 72
0.186015 -0.387039 0.161676 255 139 72
0.158917 -0.378543 0.125783 255 139 72
0.252793 -0.426399 0.0175761 255 139 72
0.328403 -0.353828 -0.0215041 255 139 72
0.278082 -0.357638 0.000165723 255 139 72
0.261857 -0.350061 0.348396 255 139 72
0.161806 -0.371191 0.307524 255 139 72
0.251398 -0.360029 0.230024 255 139 72
0.246741 -0.351461 0.144008 255 139 72
0.355973 -0.349443 0.0749645 255 139 72
0.210132 -0.349873 0.222512 255 139 72
0.198042 -0.361722 -0.0232909 255 139 72
0.234997 -0.410439 0.225891 255 139 72
0.245249 -0.354064 0.115459 255 139 72
0.179724 -0.360644 0.192891 255 139 72
0.141963 -0.385655 -0.0440072 255 139 72
0.141033 -0.381638 0.00261787 255 139 72
0.407264 -0.356135 0.127582 255 139 72
0.29306 -0.349375 0.0541263 255 139 72
0.279264 -0.362709 0.161415 255 139 72
0.378244 -0.356609 0.268087 255 139 72
0.290668 -0.36072 -0.0189425 255 139 72
0.385838 -0.345911 0.215107 255 139 72
0.183199 -0.409979 0.0310449 255 139 72
0.111965 -0.396624 0.0786954 255 139 72
0.392548 -0.35337 0.0954718 255 139 72
0.356075 -0.352413 0.0582963 255 139 72
0.23035 -0.347795 0.245361 255 139 72
0.134549 -0.402968 0.180307 255 139 72
0.250804 -0.354019 0.10174 255 139 72
0.184142 -0.365462 0.268285 255 139 72
0.1031 -0.39761 0.130136 255 139 72
0.214197 -0.347834 0.288547 255 139 72
0.370931 -0.371645 0.290662 255 139 72
0.275847 -0.346487 0.226503 255 139 72
0.257804 -0.349186 0.00659398 255 139 72
0.368398 -0.354827 0.277396 255 139 72
0.287192 -0.353365 0.0127089 255 139 72
0.32004 -0.34655 0.0796685 255 139 72
0.222312 -0.347155 0.0140935 255 139 72
0.167993 -0.357926 0.139935 255 139 72
0.375801 -0.375062 0.286716 255 139 72
0.200957 -0.350293 0.218054 255 139 72
0.350132 -0.349461 0.0705865 255 139 72
0.180102 -0.36028 0.0532726 255 139 72
0.33351 -0.345215 0.173028 255 139 72
0.249978 -0.349258 0.070569 255 139 72
0.359436 -0.349842 0.126819 255 139 72
0.190698 -0.362344 -0.0225631 255 139 72
0.235199 -0.345229 0.0716916 255 139 72
0.183907 -0.407863 0.204064 255 139 72
0.215622 -0.344002 0.0579963 255 139 72
0.249746 -0.420607 0.0485371 255 139 72
0.289151 -0.359737 -0.0139343 255 139 72
0.289671 -0.351805 0.340854 255 139 72
0.0126061 -0.392667 0.100998 255 139 72
0.433612 -0.370397 0.0137605 255 139 72
0.126298 -0.399163 0.0318589 255 139 72
0.428539 -0.390894 0.138602 255 139 72
0.433886 -0.368044 0.0734089 255 139 72
0.347147 -0.352316 0.0264295 255 139 72
0.310266 -0.3477 0.126984 255 139 72
0.282963 -0.347002 0.203272 255 139 72
0.345095 -0.355723 -0.0348672 255 139 72
0.33303 -0.347641 0.146611 255 139 72
0.226583 -0.345416 0.303553 255 139 72
0.417385 -0.37292 0.181021 255 139 72
0.359347 -0.353795 0.0113091 255 139 72
0.280227 -0.344078 0.296461 255 139 72
0.230697 -0.347916 0.104124 255 139 72
0.182623 -0.368058 0.213256 255 139 72
0.324374 -0.347602 0.0675999 255 139 72
0.370553 -0.346337 0.248811 255 139 72
0.371047 -0.349928 0.260339 255 139 72
0.181504 -0.403475 0.0881901 255 139 72
0.392388 -0.353819 0.129124 255 139 72
0.302473 -0.362681 -0.0755108 255 139 72
0.269019 -0.413035 0.106114 255 139 72
0.038509 -0.395164 0.131999 255 139 72
0.181885 -0.365891 -0.0347474 255 139 72
0.22517 -0.346635 0.011968 255 139 72
0.252612 -0.350239 0.0640152 255 139 72
0.288148 -0.343364 0.319241 255 139 72
0.222082 -0.348822 0.231993 255 139 72
0.295419 -0.342849 0.277511 255 139 72
0.128901 -0.399853 0.119341 255 139 72
0.251194 -0.349899 0.0740511 255 139 72
0.308115 -0.349516 0.0470715 255 139 72
0.20066 -0.361329 -0.0400871 255 139 72
0.424307 -0.359617 0.104337 255 139 72
0.396978 -0.358379 0.0398426 255 139 72
0.259111 -0.352517 0.120812 255 139 72
0.440417 -0.382263 0.0923965 255 139 72
0.201088 -0.382274 0.165175 255 139 72
0.33948 -0.346032 0.163709 255 139 72
0.2835 -0.350058 0.0670496 255 139 72
0.367797 -0.348599 0.259267 255 139 72
0.109273 -0.396384 0.0784373 255 139 72
0.399328 -0.358333 0.0102342 255 139 72
0.281683 -0.350006 -0.0891399 255 139 72
0.183551 -0.354752 0.0851286 255 139 72
0.210926 -0.409944 0.215567 255 139 72
0.230108 -0.34373 0.0504659 255 139 72
0.123126 -0.374434 0.0373455 255 139 72
0.316516 -0.344466 0.234435 255 139 72
0.430304 -0.366064 0.096199 255 139 72
0.170545 -0.383103 0.175468 255 139 72
0.271428 -0.355919 0.0253114 255 139 72
0.339372 -0.349748 0.0611604 255 139 72
0.225828 -0.34798 0.10672 255 139 72
0.325488 -0.350626 0.0457203 255 139 72
0.285553 -0.393503 0.251114 255 139 72
0.375481 -0.347674 0.246547 255 139 72
0.226411 -0.349916 0.347849 255 139 72
0.26865 -0.356936 0.0302429 255 139 72
0.239651 -0.39796 0.0128443 255 139 72
0.249729 -0.370963 0.123489 255 139 72
0.259906 -0.346416 -0.106258 255 139 72
0.421657 -0.36538 0.0213192 255 139 72
0.189781 -0.359531 0.222548 255 139 72
0.421932 -0.367088 0.133771 255 139 72
0.220589 -0.350166 0.196137 255 139 72
0.361602 -0.357306 -0.0408509 255 139 72
0.170806 -0.374325 -0.0543262 255 139 72
0.252966 -0.346795 -0.00235991 255 139 72
0.347787 -0.343433 0.226676 255 139 72
0.448431 -0.391424 0.0259397 255 139 72
0.174504 -0.355725 0.0926902 255 139 72
0.275275 -0.357087 0.0104338 255 139 72
0.205583 -0.380405 0.0531408 255 139 72
0.146796 -0.37412 0.12908 255 139 72
0.339236 -0.343656 0.247475 255 139 72
0.327095 -0.354871 0.328439 255 139 72
0.292081 -0.4011 0.225046 255 139 72
0.285933 -0.415064 0.0651854 255 139 72
0.184054 -0.363741 0.246839 255 139 72
0.135592 -0.397615 0.0634566 255 139 72
0.21743 -0.350862 0.327966 255 139 72
0.44916 -0.39477 0.047871 255 139 72
0.21507 -0.350254 0.117243 255 139 72
0.284032 -0.355588 0.00658932 255 139 72
0.223443 -0.343271 0.0514019 255 139 72
0.280215 -0.343699 0.271983 255 139 72
0.15676 -0.378163 -0.0398091 255 139 72
0.0941309 -0.399727 0.170962 255 139 72
0.340887 -0.350137 0.306463 255 139 72
0.366316 -0.385096 0.299626 255 139 72
0.184452 -0.37194 0.226786 255 139 72
0.245427 -0.433197 0.0113513 255 139 72
0.418896 -0.391365 0.195417 255 139 72
0.393719 -0.356626 0.00385034 255 139 72
0.276049 -0.418785 -0.00960573 255 139 72
0.362315 -0.349112 0.0827588 255 139 72
0.449101 -0.39341 0.0550483 255 139 72
0.310541 -0.397617 0.183395 255 139 72
0.272364 -0.360517 0.203566 255 139 72
0.351296 -0.360402 -0.0634348 255 139 72
0.174414 -0.355382 0.0971251 255 139 72
0.334483 -0.354095 -0.0193746 255 139 72
0.206191 -0.409829 0.268135 255 139 72
0.263998 -0.346723 0.231286 255 139 72
0.249872 -0.35001 0.166539 255 139 72
0.281575 -0.358377 -0.0315661 255 139 72
0.241673 -0.345396 0.0193739 255 139 72
0.210019 -0.354369 0.341074 255 139 72
0.367987 -0.366228 0.291175 255 139 72
0.267793 -0.350481 -0.0915104 255 139 72
0.295148 -0.392696 0.11394 255 139 72
0.214585 -0.34897 0.233854 255 139 72
0.418563 -0.383525 0.188046 255 139 72
0.343 -0.363561 -0.0693553 255 139 72
0.189791 -0.353836 0.213896 255 139 72
0.326175 -0.355959 -0.0357033 255 139 72
0.277639 -0.351493 0.0841288 255 139 72
0.254761 -0.407825 0.253793 255 139 72
0.332872 -0.366778 -0.0725429 255 139 72
0.229649 -0.369846 0.127291 255 139 72
0.359982 -0.347456 0.162999 255 139 72
0.331076 -0.351739 0.0371802 255 139 72
0.194662 -0.353941 0.243096 255 139 72
0.358097 -0.355485 0.292308 255 139 72
0.38975 -0.349699 0.223434 255 139 72
0.208854 -0.354521 0.142433 255 139 72
0.295969 -0.396665 0.0911382 255 139 72
0.246393 -0.411107 0.146396 255 139 72
0.254026 -0.353447 0.0895281 255 139 72
0.156235 -0.368577 0.0303761 255 139 72
0.342395 -0.344677 0.18585 255 139 72
0.279747 -0.343812 0.326946 255 139 72
0.182128 -0.41032 0.0257857 255 139 72
0.272398 -0.35032 0.134451 255 139 72
0.340565 -0.352304 0.0401631 255 139 72
0.210038 -0.413373 0.0413451 255 139 72
0.216444 -0.408053 0.375875 255 139 72
0.225188 -0.349328 0.215375 255 139 72
0.299549 -0.347943 0.120238 255 139 72
0.363951 -0.349593 0.150004 255 139 72
0.254012 -0.352118 0.136371 255 139 72
0.33353 -0.349775 0.0571249 255 139 72
0.29887 -0.404151 0.125625 255 139 72
0.162737 -0.363333 0.158544 255 139 72
0.259032 -0.352577 0.119597 255 139 72
0.311996 -0.356264 -0.0256594 255 139 72
0.301678 -0.347469 0.111199 255 139 72
0.317843 -0.347222 0.121177 255 139 72
0.118143 -0.37829 0.0298183 255 139 72
0.257923 -0.346447 -0.0300403 255 139 72
0.292465 -0.387224 0.131388 255 139 72
0.249182 -0.349864 0.172507 255 139 72
0.286606 -0.396945 0.243098 255 139 72
0.239783 -0.43107 -0.00264006 255 139 72
0.278855 -0.344159 0.295508 255 139 72
0.121026 -0.381768 0.0169409 255 139 72
0.282629 -0.372059 0.35013 255 139 72
0.253171 -0.411389 0.105993 255 139 72
0.206902 -0.348559 0.240502 255 139 72
0.300653 -0.346272 0.163443 255 139 72
0.278614 -0.3485 -0.100869 255 139 72
0.351486 -0.3506 0.0652467 255 139 72
0.321032 -0.351505 0.0282236 255 139 72
0.368394 -0.349845 0.0836171 255 139 72
0.257391 -0.349504 -0.0975512 255 139 72
0.243897 -0.345293 0.278908 255 139 72
0.228705 -0.402345 -0.0531454 255 139 72
0.246783 -0.349534 0.0838956 255 139 72
0.377406 -0.381606 0.288756 255 139 72
0.254132 -0.353561 0.114822 255 139 72
0.344412 -0.352055 0.0475029 255 139 72
0.371271 -0.350222 0.0849637 255 139 72
0.268219 -0.422515 0.0377067 255 139 72
0.286564 -0.414323 0.133202 255 139 72
0.257928 -0.345581 0.334183 255 139 72
0.41992 -0.358867 0.0986421 255 139 72
0.289089 -0.358387 -0.00961347 255 139 72
0.410022 -0.359048 0.181694 255 139 72
0.427459 -0.399909 0.154211 255 139 72
0.318146 -0.351714 0.00755772 255 139 72
0.354205 -0.374757 0.312443 255 139 72
0.278766 -0.347231 0.200464 255 139 72
0.242637 -0.34691 0.0576078 255 139 72
0.350988 -0.348869 0.11513 255 139 72
0.398311 -0.36842 0.238462 255 139 72
0.203583 -0.36001 -0.0138451 255 139 72
0.291839 -0.348254 0.0764163 255 139 72
0.423282 -0.396451 0.170121 255 139 72
0.406366 -0.381214 0.224237 255 139 72
0.364995 -0.353792 0.0183838 255 139 72
0.363936 -0.356337 -0.0170475 255 139 72
0.371077 -0.39009 0.295719 255 139 72
0.127016 -0.406459 0.251772 255 139 72
0.263655 -0.355191 0.07398 255 139 72
0.116187 -0.382023 0.0186985 255 139 72
0.362427 -0.349792 0.14662 255 139 72
0.445549 -0.388887 0.0315129 255 139 72
0.31007 -0.351251 0.00929012 255 139 72
0.172342 -0.391221 0.198088 255 139 72
0.299373 -0.348686 0.0546517 255 139 72
0.197758 -0.358129 0.360079 255 139 72
0.314211 -0.377789 0.338484 255 139 72
0.290098 -0.401531 0.226905 255 139 72
0.243725 -0.351031 -0.0376665 255 139 72
0.164684 -0.374806 0.178564 255 139 72
0.257033 -0.419938 0.0625578 255 139 72
0.258407 -0.348497 -0.00554681 255 139 72
0.244279 -0.353776 0.130468 255 139 72
0.422768 -0.359254 0.100487 255 139 72
0.242701 -0.347586 0.0784768 255 139 72
0.38552 -0.353764 0.0709119 255 139 72
0.270149 -0.356844 0.0226376 255 139 72
0.36185 -0.355359 -0.00717401 255 139 72
0.347917 -0.352456 0.0451796 255 139 72
0.220987 -0.369326 0.109558 255 139 72
0.379267 -0.354836 0.0232293 255 139 72
0.401643 -0.353765 0.0852878 255 139 72
0.170693 -0.356724 0.133985 255 139 72
0.16612 -0.372622 0.286412 255 139 72
0.155988 -0.377824 0.287252 255 139 72
0.253148 -0.349616 0.0435492 255 139 72
0.403956 -0.358575 -0.0151977 255 139 72
0.259365 -0.394042 0.0493288 255 139 72
0.193531 -0.354532 0.147939 255 139 72
0.2916 -0.386402 0.124059 255 139 72
0.366779 -0.355202 -0.000893868 255 139 72
0.394931 -0.347364 0.186214 255 139 72
0.202559 -0.356766 0.00895798 255 139 72
0.241546 -0.41041 0.135867 255 139 72
0.220248 -0.349307 0.224321 255 139 72
0.374787 -0.354432 0.0192381 255 139 72
0.283959 -0.349022 0.137511 255 139 72
0.202106 -0.357606 -0.0920836 255 139 72
0.357604 -0.350527 0.0693266 255 139 72
0.168316 -0.391655 0.204417 255 139 72
0.271035 -0.350711 0.110636 255 139 72
0.388114 -0.35252 0.0829592 255 139 72
0.21912 -0.352196 0.167996 255 139 72
0.347705 -0.352236 0.0296582 255 139 72
0.215168 -0.41521 0.0371194 255 139 72
0.224436 -0.358174 -0.0725973 255 139 72
0.0725815 -0.39814 0.162272 255 139 72
0.30177 -0.345349 0.224502 255 139 72
0.274347 -0.350102 0.112159 255 139 72
0.310988 -0.39498 0.189722 255 139 72
0.273899 -0.412613 0.147737 255 139 72
0.283404 -0.412793 0.156707 255 139 72
0.304325 -0.397607 0.209353 255 139 72
0.3469 -0.348448 0.109856 255 139 72
0.317027 -0.344306 0.239692 255 139 72
0.341619 -0.347699 0.150387 255 139 72
0.356865 -0.345284 0.178138 255 139 72
0.244512 -0.34499 0.303963 255 139 72
0.393882 -0.356523 0.0126579 255 139 72
0.139993 -0.405393 0.218942 255 139 72
0.305966 -0.351488 0.00713973 255 139 72
0.186606 -0.360674 0.261546 255 139 72
0.336699 -0.348087 0.304537 255 139 72
0.297834 -0.360362 -0.0264165 255 139 72
0.308952 -0.347411 0.14648 255 139 72
0.190132 -0.359563 0.224469 255 139 72
0.265677 -0.351823 0.00195691 255 139 72
0.247915 -0.349594 0.178932 255 139 72
0.216078 -0.350126 0.316418 255 139 72
0.213483 -0.364083 0.366996 255 139 72
0.171882 -0.360014 0.169398 255 139 72
0.368045 -0.347895 0.256601 255 139 72
0.387862 -0.381317 0.274523 255 139 72
0.431466 -0.40211 0.137148 255 139 72
0.305594 -0.350964 0.0218766 255 139 72
0.197007 -0.351503 0.213148 255 139 72
0.194608 -0.410209 0.250511 255 139 72
0.362085 -0.349045 0.0864426 255 139 72
0.20966 -0.354437 0.345131 255 139 72
0.332138 -0.347635 0.126654 255 139 72
0.161315 -0.365434 0.161438 255 139 72
0.403881 -0.360434 0.219007 255 139 72
0.204196 -0.41087 0.242367 255 139 72
0.294107 -0.370879 0.225758 255 139 72
0.197376 -0.350288 0.234331 255 139 72
0.212811 -0.343347 0.0781229 255 139 72
0.434324 -0.370611 0.0952925 255 139 72
0.213118 -0.351352 0.187371 255 139 72
0.269888 -0.356067 0.0444675 255 139 72
0.29471 -0.377583 0.252335 255 139 72
0.247002 -0.408342 0.259403 255 139 72
0.195149 -0.367234 0.218018 255 139 72
0.343563 -0.355601 -0.0312284 255 139 72
0.355771 -0.34377 0.215761 255 139 72
0.223786 -0.352246 0.124842 255 139 72
0.299028 -0.342718 0.276478 255 139 72
0.228711 -0.345209 0.306428 255 139 72
0.161708 -0.376234 -0.0757889 255 139 72
0.321074 -0.345858 0.31678 255 139 72
0.26878 -0.348697 0.154834 255 139 72
0.0920834 -0.402932 0.219177 255 139 72
0.207178 -0.349116 0.234527 255 139 72
0.255861 -0.352686 0.0793692 255 139 72
0.283385 -0.359374 -0.052935 255 139 72
0.211452 -0.355831 -0.00296778 255 139 72
0.286938 -0.343353 0.268231 255 139 72
0.320304 -0.344652 0.21036 255 139 72
0.390604 -0.356303 0.242154 255 139 72
0.199731 -0.353805 0.144484 255 139 72
0.207028 -0.37447 0.140622 255 139 72
0.220234 -0.395251 0.372147 255 139 72
0.377997 -0.358612 -0.0353576 255 139 72
0.25423 -0.345484 0.265478 255 139 72
0.18647 -0.404082 0.0976084 255 139 72
0.177671 -0.363517 0.295445 255 139 72
0.421082 -0.359004 0.0913883 255 139 72
0.208063 -0.359189 0.257109 255 139 72
0.335318 -0.352147 0.0181338 255 139 72
0.202738 -0.361195 -0.0333084 255 139 72
0.243072 -0.354332 0.123897 255 139 72
0.293773 -0.406727 0.0297606 255 139 72
0.29559 -0.373597 0.344973 255 139 72
0.220572 -0.409495 0.18172 255 139 72
0.331345 -0.384439 0.329847 255 139 72
0.238166 -0.378632 0.363971 255 139 72
0.344742 -0.348286 0.121965 255 139 72
0.159685 -0.387079 0.156927 255 139 72
0.160232 -0.387852 0.157311 255 139 72
0.368602 -0.353684 0.0248496 255 139 72
0.269545 -0.412806 0.117379 255 139 72
0.397961 -0.357836 0.0231067 255 139 72
0.193508 -0.359279 0.270997 255 139 72
0.328935 -0.346902 0.151685 255 139 72
0.258307 -0.345075 0.32215 255 139 72
0.19569 -0.358002 0.34713 255 139 72
0.270357 -0.348005 0.1635 255 139 72
0.247996 -0.354645 0.112925 255 139 72
0.165028 -0.409203 0.261301 255 139 72
0.443611 -0.374805 0.0149965 255 139 72
0.224594 -0.342863 0.0559691 255 139 72
0.343034 -0.348163 0.14676 255 139 72
0.419767 -0.377304 0.168782 255 139 72
0.276556 -0.376276 0.130986 255 139 72
0.304949 -0.345166 0.215794 255 139 72
0.217 -0.349933 0.31727 255 139 72
0.285369 -0.345355 0.23769 255 139 72
0.396874 -0.357416 0.0167869 255 139 72
0.15984 -0.37269 0.167337 255 139 72
0.197908 -0.3552 0.315802 255 139 72
0.198682 -0.365957 0.30368 255 139 72
0.304925 -0.383121 0.203071 255 139 72
0.212935 -0.372691 0.15181 255 139 72
0.334544 -0.344161 0.214499 255 139 72
0.36841 -0.351486 0.0714149 255 139 72
0.194999 -0.405506 0.127182 255 139 72
0.392917 -0.353907 0.121368 255 139 72
0.250778 -0.351262 0.14329 255 139 72
0.186784 -0.358501 0.279574 255 139 72
0.4487 -0.38981 0.0226156 255 139 72
0.412489 -0.357317 0.104513 255 139 72
0.270049 -0.352343 -0.0462985 255 139 72
0.414391 -0.36412 0.0474159 255 139 72
0.296118 -0.35933 -0.0207065 255 139 72
0.282749 -0.405009 0.228403 255 139 72
0.22175 -0.389259 0.0373007 255 139 72
0.360004 -0.353042 0.0300898 255 139 72
0.28126 -0.351051 0.0623137 255 139 72
0.301776 -0.347155 0.0861194 255 139 72
0.339638 -0.353979 -0.0131216 255 139 72
0.220215 -0.351375 0.345373 255 139 72
0.165695 -0.405379 0.0409867 255 139 72
0.141153 -0.370691 0.087211 255 139 72
0.246711 -0.3684 0.132583 255 139 72
0.247829 -0.352925 0.134737 255 139 72
0.202239 -0.364087 0.232236 255 139 72
0.308977 -0.359814 -0.0354743 255 139 72
0.415754 -0.364363 0.0411646 255 139 72
0.448592 -0.393691 0.0488351 255 139 72
0.302881 -0.34709 0.0694529 255 139 72
0.29499 -0.354154 -0.0941621 255 139 72
0.165251 -0.358732 0.0839226 255 139 72
0.202314 -0.346469 0.0900491 255 139 72
0.254506 -0.361353 0.355093 255 139 72
0.295361 -0.400747 0.0921352 255 139 72
0.312501 -0.344807 0.219054 255 139 72
0.181774 -0.359627 0.0556978 255 139 72
0.298057 -0.356155 -0.0117662 255 139 72
0.308334 -0.352383 -0.00500451 255 139 72
0.217046 -0.369871 0.153811 255 139 72
0.260026 -0.429999 0.0463105 255 139 72
0.229574 -0.344632 0.016705 255 139 72
0.19938 -0.349217 0.110831 255 139 72
0.329415 -0.347653 0.313354 255 139 72
0.360388 -0.358478 -0.0584271 255 139 72
0.264303 -0.353821 0.0936888 255 139 72
0.267223 -0.356228 0.055863 255 139 72
0.254786 -0.348008 0.00585061 255 139 72
0.139468 -0.364139 0.120731 255 139 72
0.28441 -0.349642 0.0692837 255 139 72
0.147421 -0.372104 0.13894 255 139 72
0.434152 -0.373422 0.0499466 255 139 72
0.175725 -0.378672 0.232751 255 139 72
0.273261 -0.371583 0.35306 255 139 72
0.234894 -0.358834 0.229367 255 139 72
0.357837 -0.34885 0.0915798 255 139 72
0.326857 -0.35102 0.041725 255 139 72
0.224414 -0.366457 0.193468 255 139 72
0.246385 -0.433253 0.0118894 255 139 72
0.398615 -0.36075 0.230784 255 139 72
0.4148 -0.358928 0.133945 255 139 72
0.303894 -0.400474 0.139023 255 139 72
0.216574 -0.347035 0.25814 255 139 72
0.369539 -0.358035 -0.0487314 255 139 72
0.279769 -0.373899 0.351928 255 139 72
0.145672 -0.364349 0.0493329 255 139 72
0.284001 -0.360054 -0.0304492 255 139 72
0.199083 -0.349175 0.235508 255 139 72
0.319796 -0.367153 -0.0652541 255 139 72
0.340853 0.0765477 0.0204454 255 95 48
0.333878 0.076249 0.0910403 255 95 48
0.316795 0.0761258 0.103509 255 95 48
0.403082 0.0766389 -0.0406172 255 95 48
0.371878 0.0760274 0.455084 255 95 48
0.231459 0.078297 -0.339688 255 95 48
0.380547 0.0756991 0.213566 255 95 48
0.243968 0.0782393 -0.34216 255 95 48
0.399199 0.076599 -0.0106292 255 95 48
0.318307 0.0780183 -0.375987 255 95 48
0.280188 0.0761411 0.0592893 255 95 48
0.459836 0.0757769 -0.0549012 255 95 48
0.35713 0.0772448 -0.220611 255 95 48
0.409912 0.0771914 -0.269406 255 95 48
0.23169 0.0755677 0.220321 255 95 48
0.368316 0.0752909 0.35745 255 95 48
0.22092 0.0802612 0.416976 255 95 48
0.332332 0.0764483 0.0430963 255 95 48
0.488149 0.0741595 0.426477 255 95 48
0.483078 0.0740037 0.274296 255 95 48
0.462516 0.0756616 -0.134511 255 95 48
0.274237 0.0758452 0.131718 255 95 48
0.449353 0.0749122 0.35626 255 95 48
0.327474 0.0775268 -0.288711 255 95 48
0.205967 0.0767766 -0.154835 255 95 48
0.302953 0.0754842 0.206197 255 95 48
0.276753 0.0753782 0.264183 255 95 48
0.325094 0.0766958 -0.0363813 255 95 48
0.355774 0.0776829 -0.357031 255 95 48
0.366787 0.0752364 0.350686 255 95 48
0.341571 0.0752947 0.347935 255 95 48
0.4716 0.0631101 0.436032 255 95 48
0.406779 0.0771783 -0.252833 255 95 48
0.320589 0.0756567 0.18522 255 95 48
0.472497 0.0750385 0.402158 255 95 48
0.212239 -0.378569 0.0495786 255 95 48
0.359714 0.0754433 0.241755 255 95 48
0.359934 0.0776362 -0.347951 255 95 48
0.471768 0.0750574 0.403416 255 95 48
0.498022 0.074167 0.375236 255 95 48
0.433098 0.0766178 -0.122541 255 95 48
0.3474 0.0759855 0.409474 255 95 48
0.209076 0.0343459 0.274717 255 95 48
0.341512 0.0764546 0.434444 255 95 48
0.354234 0.0761566 0.456051 255 95 48
0.264237 0.0776964 -0.266552 255 95 48
0.198282 0.0830985 0.231506 255 95 48
0.350613 0.0757688 0.400038 255 95 48
0.396901 0.0750483 0.315667 255 95 48
0.409899 0.0758694 0.429309 255 95 48
0.385086 0.0766737 -0.0175696 255 95 48
0.460547 0.0752912 0.414314 255 95 48
0.363138 0.0762616 0.44228 255 95 48
0.191391 0.0775623 -0.264136 255 95 48
0.194496 0.0761385 0.0888593 255 95 48
0.349416 0.0752875 0.258623 255 95 48
0.215795 0.0757838 0.22382 255 95 48
0.206697 0.0831819 0.351838 255 95 48
0.480291 0.0740181 0.210756 255 95 48
0.391497 0.0759354 0.448412 255 95 48
0.211001 0.0760407 -0.00166613 255 95 48
0.262687 0.0766773 -0.0755851 255 95 48
0.266059 0.0759923 0.364078 255 95 48
0.203642 0.0778717 -0.288616 255 95 48
0.189021 0.0763067 -0.0956562 255 95 48
0.274167 0.0758915 0.108847 255 95 48
0.423234 0.0753427 0.378452 255 95 48
0.356443 0.0761437 0.133864 255 95 48
0.2976 0.075761 0.150065 255 95 48
0.476401 0.0736763 -0.0405093 255 95 48
0.313661 0.076379 0.0346513 255 95 48
0.310092 0.0755124 0.356028 255 95 48
0.176952 0.0783531 0.115469 255 95 48
0.189008 0.0764994 0.118848 255 95 48
0.220784 0.076535 -0.0954986 255 95 48
0.409805 0.0758587 0.431439 255 95 48
0.224117 0.0772689 -0.195647 255 95 48
0.422223 0.0769399 -0.200063 255 95 48
0.397969 0.0758882 0.444558 255 95 48
0.477692 0.0738839 0.437448 255 95 48
0.45979 0.0746652 0.343329 255 95 48
0.362502 0.0755226 0.380488 255 95 48
0.480582 0.0739463 0.119674 255 95 48
0.461744 0.0749791 0.369864 255 95 48
0.371059 0.0754302 0.373241 255 95 48
0.234162 0.0764254 0.37704 255 95 48
0.229562 0.0756635 0.197522 255 95 48
0.330917 0.0763963 0.455969 255 95 48
0.311385 0.0753708 0.335045 255 95 48
0.251713 0.0774793 -0.207943 255 95 48
0.485352 0.0744285 0.348639 255 95 48
0.190362 -0.411723 -0.00502532 255 95 48
0.396356 0.0757865 0.453024 255 95 48
0.227619 0.0758688 0.123409 255 95 48
0.469042 0.0751181 0.421154 255 95 48
0.409924 0.0772425 -0.293453 255 95 48
0.388348 0.0756886 0.217748 255 95 48
0.393839 0.0773139 -0.28668 255 95 48
0.38052 0.0761334 0.154473 255 95 48
0.372736 0.0762002 0.435421 255 95 48
0.295318 0.0764775 -0.0153569 255 95 48
0.206269 0.0765164 0.270105 255 95 48
0.354792 0.0762812 0.426671 255 95 48
0.355665 0.0762882 0.42778 255 95 48
0.483919 0.0747829 0.391139 255 95 48
0.295287 0.0766174 0.43079 255 95 48
0.190374 0.0761027 -0.0185409 255 95 48
0.418027 0.0755083 0.390022 255 95 48
0.492377 0.0739715 0.329594 255 95 48
0.218078 0.0760233 0.300639 255 95 48
0.268128 0.0754898 0.285563 255 95 48
0.453941 0.074738 0.333286 255 95 48
0.400197 0.0754971 0.386006 255 95 48
0.212813 0.0759718 0.246105 255 95 48
0.373451 0.0764891 0.0618208 255 95 48
0.441855 0.0765681 -0.16257 255 95 48
0.24263 0.0765344 -0.0692849 255 95 48
0.450434 0.075093 0.371225 255 95 48
0.168359 0.0809053 0.103273 255 95 48
0.385542 0.0772627 -0.253489 255 95 48
0.20359 0.0764637 0.219462 255 95 48
0.342499 0.0767278 -0.0177378 255 95 48
0.447242 0.0750013 0.281631 255 95 48
0.212134 -0.22392 0.118796 255 95 48
0.184992 0.0762184 -0.0209178 255 95 48
0.412788 0.0763361 0.0375346 255 95 48
0.479183 0.0747159 0.4263 255 95 48
0.421999 0.0753264 0.3769 255 95 48
0.341296 0.0751782 0.290949 255 95 48
0.312475 0.0777223 -0.321786 255 95 48
0.389727 0.0768321 -0.0956346 255 95 48
0.238969 0.0755439 0.245576 255 95 48
0.222768 0.0758353 0.170762 255 95 48
0.363132 0.0756287 0.393321 255 95 48
0.478995 0.074877 0.390468 255 95 48
0.264038 0.077907 -0.441446 255 95 48
0.228645 0.0767848 0.403709 255 95 48
0.201368 0.0428255 0.189438 255 95 48
0.461421 0.0748605 0.360406 255 95 48
0.263344 0.0766906 -0.0779246 255 95 48
0.342756 0.0771973 -0.195135 255 95 48
0.251794 0.0756055 0.186881 255 95 48
0.202412 -0.37649 0.017559 255 95 48
0.258206 0.0760276 0.0682205 255 95 48
0.192393 0.0803282 0.199803 255 95 48
0.252618 0.078086 -0.327899 255 95 48
0.328906 0.0769515 -0.094504 255 95 48
0.263428 0.0779523 -0.450138 255 95 48
0.450071 0.0756978 0.0558044 255 95 48
0.261374 0.0767782 0.432422 255 95 48
0.44834 0.0753031 0.388746 255 95 48
0.267006 0.0767944 0.435856 255 95 48
0.380033 0.0753288 0.267718 255 95 48
0.475197 0.0743982 0.24307 255 95 48
0.347691 0.0774588 -0.289912 255 95 48
0.488302 0.0741436 0.423526 255 95 48
0.214253 0.0764563 -0.0894682 255 95 48
0.500382 0.0739858 0.370362 255 95 48
0.459668 0.0756214 0.000101067 255 95 48
0.210301 0.0764226 0.307588 255 95 48
0.46214 0.0754265 0.0128791 255 95 48
0.405344 0.0765408 -0.00281741 255 95 48
0.390592 0.0753227 0.369852 255 95 48
0.230771 0.0760571 0.0248279 255 95 48
0.433309 0.0765299 -0.096122 255 95 48
0.389668 0.0765672 0.0163186 255 95 48
0.420243 0.075539 0.393634 255 95 48
0.411425 0.0759851 0.14063 255 95 48
0.284544 0.0775694 -0.261647 255 95 48
0.371407 0.0751394 0.295222 255 95 48
0.356537 0.0751515 0.333304 255 95 48
0.356629 0.0756627 0.206072 255 95 48
0.30571 0.0760096 0.389622 255 95 48
0.285533 0.0779037 -0.329195 255 95 48
0.191862 0.0765772 -0.140337 255 95 48
0.420139 0.0752081 0.286307 255 95 48
0.366023 0.0770035 -0.129918 255 95 48
0.339723 0.0779764 -0.389443 255 95 48
0.32792 0.0765443 0.437786 255 95 48
0.394968 0.0764615 0.0397336 255 95 48
0.242999 0.0780883 -0.429539 255 95 48
0.246392 0.0756961 0.171837 255 95 48
0.367079 0.0765587 0.0468362 255 95 48
0.437357 0.0752071 0.267242 255 95 48
0.335024 0.0756553 0.194468 255 95 48
0.22058 0.0757437 0.199169 255 95 48
0.201911 -0.0894058 0.128864 255 95 48
0.2622 0.0763758 -0.015131 255 95 48
0.20735 0.0760392 -0.000418231 255 95 48
0.389216 0.0757578 0.40301 255 95 48
0.489821 0.0735924 0.287443 255 95 48
0.328998 0.0779203 -0.369747 255 95 48
0.465805 0.0752028 0.452711 255 95 48
0.33613 0.075573 0.206797 255 95 48
0.423805 0.0750551 0.31004 255 95 48
0.387135 0.0771593 -0.214963 255 95 48
0.480512 0.0740343 0.436524 255 95 48
0.174733 0.0770664 0.0985061 255 95 48
0.305698 0.076553 -0.0259428 255 95 48
0.253866 0.07557 0.197882 255 95 48
0.406166 0.0756704 0.453526 255 95 48
0.378628 0.0761603 0.432851 255 95 48
0.212216 0.0770071 -0.177 255 95 48
0.210209 0.0765645 -0.113994 255 95 48
0.486516 0.0747255 0.391133 255 95 48
0.490722 0.0744979 0.40986 255 95 48
0.229324 0.0767926 0.405525 255 95 48
0.430078 0.0757683 0.144173 255 95 48
0.394359 0.0761119 0.14856 255 95 48
0.428934 0.0756735 0.183822 255 95 48
0.398092 0.0750428 0.335109 255 95 48
0.326519 0.0771933 -0.189853 255 95 48
0.344923 0.0770169 -0.120942 255 95 48
0.263463 0.0755397 0.203553 255 95 48
0.480586 0.0743261 0.323223 255 95 48
0.483116 0.0748137 0.400163 255 95 48
0.253814 0.0758791 0.12108 255 95 48
0.300589 0.0754574 0.21132 255 95 48
0.21129 0.0759808 0.0625492 255 95 48
0.281123 0.0767853 0.440204 255 95 48
0.232039 0.0786873 0.428797 255 95 48
0.480447 0.0743783 0.4412 255 95 48
0.317877 0.0766013 0.439091 255 95 48
0.428476 0.0753514 0.448027 255 95 48
0.464461 0.0751182 0.13479 255 95 48
0.28766 0.0756136 0.173185 255 95 48
0.310352 0.0782197 -0.39713 255 95 48
0.35343 0.0756152 0.21089 255 95 48
0.446201 0.0755117 0.1552 255 95 48
0.465431 0.0750903 0.0956809 255 95 48
0.462485 0.0746265 0.336988 255 95 48
0.384066 0.075938 0.182092 255 95 48
0.323127 0.0753681 0.23252 255 95 48
0.470528 0.074651 0.351588 255 95 48
0.46011 0.0759402 -0.16737 255 95 48
0.213828 0.0759554 0.0711907 255 95 48
0.359931 0.075096 0.311298 255 95 48
0.304653 0.0779326 -0.350049 255 95 48
0.218561 0.0762914 0.346792 255 95 48
0.280824 0.0756058 0.17728 255 95 48
0.387784 0.0766796 -0.0225147 255 95 48
0.360151 0.0754485 0.369569 255 95 48
0.391742 0.0753036 0.274301 255 95 48
0.302981 0.0762248 0.0641634 255 95 48
0.396935 0.0752326 0.360357 255 95 48
0.21826 0.0757819 0.238713 255 95 48
0.473091 0.0750312 0.413722 255 95 48
0.228771 0.0772975 -0.194542 255 95 48
0.296525 0.0753495 0.303809 255 95 48
0.411834 0.076678 -0.0825481 255 95 48
0.304839 0.0764701 0.423464 255 95 48
0.293945 0.0755698 0.184525 255 95 48
0.317124 0.0754812 0.35662 255 95 48
0.173417 0.0751378 0.122329 255 95 48
0.475331 0.0744439 0.130018 255 95 48
0.452935 0.0753935 0.410991 255 95 48
0.304337 0.0764374 -0.000257201 255 95 48
0.469191 0.0747012 0.213728 255 95 48
0.479793 0.0743383 0.318516 255 95 48
0.417364 0.076469 -0.0155578 255 95 48
0.246116 0.0761049 0.359525 255 95 48
0.2108 0.0761934 0.275117 255 95 48
0.207282 0.0761071 0.214221 255 95 48
0.406156 0.0756013 0.231733 255 95 48
0.447058 0.0750456 0.365666 255 95 48
0.271066 0.0762939 0.388412 255 95 48
0.332985 0.0754004 0.227888 255 95 48
