ply
format ascii 1.0
comment Created by Open3D
element vertex 1257
property double x
property double y
property double z
property uchar red
property uchar green
property uchar blue
end_header
0.00477374 -0.405411 0.198848 255 95 48
-0.155609 -0.0627194 0.223871 255 95 48
0.278611 -0.187752 0.209177 255 95 48
0.126791 -0.401488 0.282645 255 95 48
0.0945517 -0.327324 0.203494 255 95 48
0.0570072 -0.371346 0.200668 255 95 48
-0.154934 -0.292238 0.329621 255 95 48
0.10504 -0.099832 0.211668 255 95 48
0.176521 -0.384802 0.265519 255 95 48
0.119673 -0.389608 0.227686 255 95 48
0.0910469 -0.43369 0.234568 255 95 48
-0.15228 -0.146274 0.323586 255 95 48
0.242229 -0.383826 0.223938 255 95 48
0.213855 -0.122273 0.217435 255 95 48
-0.148801 -0.279659 0.294976 255 95 48
0.149404 -0.314703 0.205072 255 95 48
-0.150471 -0.25377 0.301774 255 95 48
0.2204 -0.123974 0.211111 255 95 48
0.0906611 -0.442399 0.237193 255 95 48
-0.152416 -0.122841 0.312218 255 95 48
0.18213 -0.262822 0.20582 255 95 48
-0.151932 -0.0962156 0.291405 255 95 48
0.0819039 -0.474452 0.249611 255 95 48
-0.0368574 -0.448545 0.210327 255 95 48
-0.0411191 -0.188742 0.195505 255 95 48
-0.156269 -0.353655 0.329405 255 95 48
0.0649894 -0.437319 0.232414 255 95 48
0.166614 -0.38356 0.259954 255 95 48
-0.153586 -0.183918 0.248339 255 95 48
0.0936902 -0.286767 0.201128 255 95 48
-0.146309 -0.0769125 0.26581 255 95 48
-0.153255 -0.292047 0.330951 255 95 48
-0.154962 -0.273827 0.219961 255 95 48
0.316324 -0.301558 0.205331 255 95 48
0.182845 -0.422949 0.297372 255 95 48
0.108881 -0.405413 0.253111 255 95 48
0.0942736 -0.145013 0.211216 255 95 48
-0.154109 -0.228704 0.322347 255 95 48
-0.0686511 -0.348667 0.205039 255 95 48
-0.156105 -0.442741 0.312124 255 95 48
0.208318 -0.107087 0.21251 255 95 48
-0.11078 -0.177331 0.216739 255 95 48
-0.149531 -0.11136 0.277119 255 95 48
0.129639 -0.409815 0.285337 255 95 48
0.228948 -0.356043 0.213936 255 95 48
-0.14612 -0.0536278 0.215977 255 95 48
-0.122045 -0.0668076 0.234979 255 95 48
0.318788 -0.175373 0.204306 255 95 48
0.118123 -0.357319 0.21231 255 95 48
-0.15205 -0.364796 0.225454 255 95 48
0.12656 -0.417458 0.290137 255 95 48
-0.152847 -0.19886 0.311848 255 95 48
-0.160634 -0.34842 0.272451 255 95 48
-0.0784099 -0.0921031 0.208316 255 95 48
0.234487 -0.167062 0.211688 255 95 48
0.334444 -0.22835 0.196074 255 95 48
0.155413 -0.10458 0.216885 255 95 48
-0.157671 -0.0630331 0.252006 255 95 48
-0.136349 -0.145719 0.214719 255 95 48
-0.0876881 -0.119407 0.206609 255 95 48
-0.153158 -0.0825443 0.310725 255 95 48
0.0752013 -0.372625 0.21648 255 95 48
-0.154279 -0.285084 0.320417 255 95 48
-0.138753 -0.335922 0.234768 255 95 48
-0.154589 -0.0992317 0.319608 255 95 48
-0.152201 -0.270258 0.3137 255 95 48
0.0238515 -0.0737677 0.209514 255 95 48
-0.159114 -0.0929314 0.240776 255 95 48
-0.151141 -0.267655 0.309632 255 95 48
0.249169 -0.113074 0.209605 255 95 48
0.22676 -0.184683 0.212087 255 95 48
-0.152912 -0.303344 0.31421 255 95 48
0.0446013 -0.430916 0.229024 255 95 48
0.11312 -0.457386 0.274867 255 95 48
0.096665 -0.252592 0.201025 255 95 48
0.249191 -0.248363 0.21399 255 95 48
-0.149631 -0.19094 0.292959 255 95 48
-0.0937573 -0.443666 0.209887 255 95 48
-0.155611 -0.369485 0.2296 255 95 48
-0.153698 -0.244919 0.333448 255 95 48
0.110951 -0.359454 0.205822 255 95 48
-0.149938 -0.0716862 0.264906 255 95 48
0.137995 -0.363381 0.218777 255 95 48
-0.153432 -0.0987917 0.321753 255 95 48
0.201798 -0.388656 0.273284 255 95 48
-0.152866 -0.118148 0.254425 255 95 48
0.255768 -0.143695 0.209499 255 95 48
0.0690554 -0.310855 0.211963 255 95 48
-0.138612 -0.15189 0.244197 255 95 48
0.227363 -0.303702 0.2023 255 95 48
0.159091 -0.377101 0.244547 255 95 48
0.26455 -0.142066 0.216352 255 95 48
-0.161767 -0.142112 0.219642 255 95 48
-0.156226 -0.283484 0.325276 255 95 48
-0.0309494 -0.162407 0.204299 255 95 48
-0.0861198 -0.100294 0.209624 255 95 48
0.135046 -0.0971021 0.214945 255 95 48
0.142208 -0.421161 0.294279 255 95 48
0.251457 -0.39175 0.253018 255 95 48
0.112211 -0.114859 0.211535 255 95 48
0.132301 -0.19435 0.2097 255 95 48
-0.14594 -0.268612 0.284732 255 95 48
-0.15664 -0.175301 0.215248 255 95 48
-0.147664 -0.435221 0.286075 255 95 48
-0.0990366 -0.0747653 0.214595 255 95 48
-0.0579013 -0.154024 0.205264 255 95 48
0.238038 -0.257867 0.211254 255 95 48
0.210691 -0.376176 0.23516 255 95 48
0.303004 -0.132835 0.206221 255 95 48
0.0290535 -0.233461 0.196052 255 95 48
0.309152 -0.276915 0.208268 255 95 48
0.293269 -0.127669 0.206674 255 95 48
-0.155248 -0.306502 0.321352 255 95 48
0.2111 -0.377588 0.239096 255 95 48
-0.11084 -0.0911512 0.209797 255 95 48
0.107776 -0.372411 0.213171 255 95 48
0.0792401 -0.0813135 0.211423 255 95 48
-0.155722 -0.257754 0.224159 255 95 48
0.115696 -0.243382 0.208056 255 95 48
-0.153707 -0.20103 0.325633 255 95 48
0.235546 -0.322825 0.202784 255 95 48
0.245984 -0.122266 0.214375 255 95 48
0.166471 -0.322391 0.207513 255 95 48
-0.152998 -0.158858 0.332049 255 95 48
0.225494 -0.408814 0.277978 255 95 48
-0.155789 -0.278001 0.327864 255 95 48
0.260811 -0.20237 0.223664 255 95 48
-0.154524 -0.284823 0.322392 255 95 48
0.108043 -0.250846 0.202264 255 95 48
0.259723 -0.353312 0.19738 255 95 48
0.25095 -0.158427 0.210548 255 95 48
-0.161456 -0.393399 0.282549 255 95 48
-0.151858 -0.315399 0.308769 255 95 48
-0.0798334 -0.0519986 0.207445 255 95 48
0.0137086 -0.167003 0.198167 255 95 48
-0.0428507 -0.0533215 0.205083 255 95 48
-0.0972674 -0.34695 0.221886 255 95 48
-0.103338 -0.0601446 0.219639 255 95 48
0.0891116 -0.455135 0.240587 255 95 48
-0.0342904 -0.0657177 0.204228 255 95 48
-0.148954 -0.328269 0.320838 255 95 48
0.0258738 -0.431866 0.206225 255 95 48
-0.153515 -0.0980161 0.29562 255 95 48
0.281931 -0.419267 0.204104 255 95 48
-0.14583 -0.270455 0.27053 255 95 48
-0.144977 -0.447821 0.240394 255 95 48
0.0582882 -0.43768 0.232754 255 95 48
0.135043 -0.376187 0.228843 255 95 48
0.17966 -0.37605 0.238959 255 95 48
0.034267 -0.192284 0.204382 255 95 48
-0.148193 -0.376351 0.278375 255 95 48
0.268378 -0.133343 0.207562 255 95 48
0.0960184 -0.464411 0.243735 255 95 48
0.106748 -0.424958 0.245426 255 95 48
0.0609508 -0.426417 0.225408 255 95 48
-0.15487 -0.117262 0.24738 255 95 48
-0.013215 -0.054809 0.204311 255 95 48
-0.1528 -0.237203 0.332024 255 95 48
0.122637 -0.132995 0.212285 255 95 48
0.110603 -0.411246 0.231262 255 95 48
-0.0846256 -0.0592126 0.214045 255 95 48
-0.151867 -0.148482 0.303984 255 95 48
-0.0268269 -0.0590514 0.206317 255 95 48
-0.157129 -0.138423 0.327946 255 95 48
-0.152837 -0.116008 0.33151 255 95 48
-0.109719 -0.458668 0.232222 255 95 48
-0.154319 -0.143089 0.321543 255 95 48
0.0667019 -0.382997 0.220428 255 95 48
0.148797 -0.195795 0.210605 255 95 48
0.0314415 -0.191525 0.204395 255 95 48
-0.153979 -0.216574 0.321376 255 95 48
0.115941 -0.43613 0.253741 255 95 48
-0.147154 -0.140137 0.267721 255 95 48
-0.104463 -0.243098 0.206174 255 95 48
0.0641333 -0.437335 0.232447 255 95 48
0.000759475 -0.0716874 0.20696 255 95 48
0.204683 -0.377309 0.23749 255 95 48
-0.151478 -0.318668 0.293094 255 95 48
0.154076 -0.117518 0.218122 255 95 48
-0.0262786 -0.460347 0.233974 255 95 48
0.0518279 -0.463431 0.238381 255 95 48
-0.150414 -0.240273 0.300947 255 95 48
-0.149835 -0.0581852 0.217773 255 95 48
-0.152789 -0.158057 0.314355 255 95 48
0.0163303 -0.418405 0.224613 255 95 48
-0.151865 -0.0905714 0.291682 255 95 48
-0.130518 -0.139415 0.232523 255 95 48
-0.0694111 -0.0652066 0.213311 255 95 48
0.244572 -0.267395 0.209432 255 95 48
0.129342 -0.130826 0.212508 255 95 48
-0.0999873 -0.42785 0.210452 255 95 48
-0.146472 -0.167121 0.262874 255 95 48
0.304598 -0.152815 0.212569 255 95 48
0.114453 -0.402533 0.230553 255 95 48
-0.148269 -0.398149 0.313162 255 95 48
-0.150901 -0.199514 0.301656 255 95 48
0.0527827 -0.0852559 0.210878 255 95 48
0.126726 -0.436983 0.295515 255 95 48
0.296457 -0.139565 0.211181 255 95 48
0.156909 -0.319063 0.206178 255 95 48
0.116717 -0.390939 0.253603 255 95 48
0.129102 -0.387011 0.272529 255 95 48
-0.154477 -0.189807 0.32585 255 95 48
0.257695 -0.29963 0.203021 255 95 48
-0.155876 -0.432913 0.311793 255 95 48
0.201007 -0.320066 0.209683 255 95 48
0.0864263 -0.147822 0.207563 255 95 48
-0.154722 -0.191662 0.331838 255 95 48
-0.14649 -0.443476 0.266693 255 95 48
-0.144633 -0.282753 0.212236 255 95 48
-0.152543 -0.125241 0.316079 255 95 48
-0.155311 -0.0979039 0.331706 255 95 48
0.2516 -0.393893 0.223167 255 95 48
-0.153471 -0.209362 0.328793 255 95 48
-0.150363 -0.384308 0.30744 255 95 48
-0.155516 -0.378488 0.308041 255 95 48
0.0705822 -0.453598 0.243876 255 95 48
0.282949 -0.130696 0.210614 255 95 48
-0.153285 -0.191048 0.212244 255 95 48
0.0347354 -0.200893 0.198703 255 95 48
0.0920469 -0.457825 0.239224 255 95 48
0.0962485 -0.384138 0.200855 255 95 48
-0.156054 -0.12482 0.331221 255 95 48
-0.153557 -0.138302 0.334432 255 95 48
-0.150804 -0.458645 0.244702 255 95 48
0.074386 -0.22355 0.200564 255 95 48
-0.15719 -0.401415 0.315533 255 95 48
-0.152667 -0.25139 0.315647 255 95 48
0.218651 -0.383523 0.268379 255 95 48
-0.132155 -0.16484 0.213363 255 95 48
0.0963213 -0.420962 0.224521 255 95 48
0.146067 -0.430553 0.296456 255 95 48
0.0573129 -0.0775909 0.211107 255 95 48
-0.150581 -0.196964 0.300582 255 95 48
0.140181 -0.251605 0.210442 255 95 48
0.234078 -0.137589 0.219448 255 95 48
-0.153979 -0.245212 0.325873 255 95 48
-0.00483071 -0.131193 0.201657 255 95 48
-0.145952 -0.232951 0.274996 255 95 48
-0.148809 -0.315434 0.321486 255 95 48
-0.00975724 -0.229469 0.201239 255 95 48
0.235686 -0.365741 0.211719 255 95 48
0.0803681 -0.0916562 0.212352 255 95 48
0.186223 -0.432072 0.299459 255 95 48
0.107552 -0.465105 0.256193 255 95 48
-0.149678 -0.176186 0.276003 255 95 48
-0.151262 -0.105751 0.285347 255 95 48
-0.0656307 -0.107292 0.208692 255 95 48
0.175676 -0.447063 0.269403 255 95 48
-0.149104 -0.298421 0.243885 255 95 48
-0.0207118 -0.348948 0.20137 255 95 48
0.117003 -0.118078 0.211789 255 95 48
-0.15056 -0.0865159 0.282718 255 95 48
-0.15296 -0.127978 0.323141 255 95 48
0.125821 -0.386786 0.27305 255 95 48
0.098078 -0.390153 0.217755 255 95 48
-0.154566 -0.315712 0.329818 255 95 48
-0.15205 -0.330254 0.307249 255 95 48
-0.00410927 -0.188963 0.203728 255 95 48
0.19121 -0.393486 0.278797 255 95 48
-0.154502 -0.0742699 0.276747 255 95 48
0.20994 -0.360693 0.221533 255 95 48
-0.145579 -0.293765 0.256966 255 95 48
-0.062535 -0.0581241 0.210898 255 95 48
0.213844 -0.379717 0.247949 255 95 48
0.042763 -0.12094 0.205173 255 95 48
-0.149909 -0.430189 0.320908 255 95 48
0.0719915 -0.259185 0.209011 255 95 48
-0.110817 -0.0571186 0.215317 255 95 48
-0.0472893 -0.101615 0.207449 255 95 48
0.318368 -0.284324 0.204717 255 95 48
-0.144833 -0.234143 0.269428 255 95 48
-0.0718089 -0.0618218 0.213681 255 95 48
0.0763779 -0.452535 0.243272 255 95 48
0.0607931 -0.457767 0.234126 255 95 48
0.132614 -0.386124 0.249181 255 95 48
-0.157225 -0.374143 0.319988 255 95 48
-0.154089 -0.15662 0.334309 255 95 48
-0.153093 -0.198868 0.313932 255 95 48
0.274243 -0.308624 0.204515 255 95 48
-0.152727 -0.13678 0.334375 255 95 48
-0.0423448 -0.106836 0.204134 255 95 48
0.245895 -0.386002 0.25995 255 95 48
0.155497 -0.30969 0.219712 255 95 48
0.081777 -0.185123 0.206166 255 95 48
-0.152347 -0.286555 0.313917 255 95 48
0.0374415 -0.0807125 0.210434 255 95 48
-0.126402 -0.453488 0.233611 255 95 48
0.113383 -0.446722 0.276002 255 95 48
0.252115 -0.402033 0.256509 255 95 48
-0.144944 -0.288779 0.278886 255 95 48
-0.0213907 -0.242867 0.194541 255 95 48
-0.150734 -0.146948 0.256549 255 95 48
-0.108133 -0.455029 0.221996 255 95 48
0.109415 -0.403686 0.253838 255 95 48
-0.118782 -0.455657 0.232802 255 95 48
-0.00301539 -0.176795 0.204678 255 95 48
0.15543 -0.448925 0.271039 255 95 48
-0.154512 -0.26762 0.231109 255 95 48
0.0880486 -0.1344 0.208936 255 95 48
-0.156234 -0.138894 0.325637 255 95 48
-0.129533 -0.31009 0.231722 255 95 48
-0.143569 -0.470308 0.254223 255 95 48
-0.147209 -0.437293 0.27484 255 95 48
0.0127044 -0.069296 0.207813 255 95 48
0.113412 -0.45681 0.276232 255 95 48
0.196318 -0.180742 0.217009 255 95 48
-0.151648 -0.120501 0.307277 255 95 48
0.134809 -0.0915944 0.213106 255 95 48
-0.150271 -0.115709 0.287646 255 95 48
0.269704 -0.318906 0.201503 255 95 48
0.117517 -0.412709 0.280542 255 95 48
0.0898731 -0.367278 0.212415 255 95 48
-0.0491289 -0.162123 0.203789 255 95 48
0.184477 -0.244144 0.210661 255 95 48
-0.157256 -0.134753 0.32807 255 95 48
-0.150824 -0.360489 0.300157 255 95 48
-0.102362 -0.125769 0.212733 255 95 48
-0.0127404 -0.0845437 0.208395 255 95 48
-0.153982 -0.222698 0.321325 255 95 48
-0.162183 -0.369361 0.242795 255 95 48
0.0156479 -0.45823 0.233873 255 95 48
-0.154628 -0.0953958 0.307315 255 95 48
0.090179 -0.462517 0.23977 255 95 48
0.201843 -0.32886 0.213262 255 95 48
0.208094 -0.166577 0.212684 255 95 48
-0.167477 -0.403473 0.265516 255 95 48
-0.105267 -0.0978295 0.215066 255 95 48
-0.158631 -0.0702123 0.271571 255 95 48
0.12883 -0.096903 0.215228 255 95 48
-0.15286 -0.145289 0.333453 255 95 48
-0.150553 -0.30751 0.299785 255 95 48
-0.170189 -0.449587 0.263661 255 95 48
0.109597 -0.456517 0.268286 255 95 48
-0.130555 -0.275954 0.231973 255 95 48
-0.152399 -0.212178 0.31164 255 95 48
-0.02606 -0.0985984 0.206716 255 95 48
0.217011 -0.332715 0.212829 255 95 48
-0.15311 -0.178535 0.312817 255 95 48
0.146792 -0.267926 0.203389 255 95 48
0.0968383 -0.430691 0.237988 255 95 48
-0.154137 -0.202321 0.319029 255 95 48
-0.146619 -0.141706 0.276639 255 95 48
0.230772 -0.214085 0.217668 255 95 48
-0.0857796 -0.48665 0.268562 255 95 48
-0.153589 -0.104252 0.311049 255 95 48
-0.156788 -0.364918 0.32434 255 95 48
0.105096 -0.398958 0.222002 255 95 48
-0.0979315 -0.228459 0.203766 255 95 48
0.0948333 -0.448616 0.238388 255 95 48
-0.14791 -0.270318 0.313009 255 95 48
0.117147 -0.388097 0.220716 255 95 48
-0.157119 -0.099655 0.330431 255 95 48
-0.121543 -0.29534 0.207454 255 95 48
0.105406 -0.464886 0.2569 255 95 48
-0.156211 -0.0769754 0.273841 255 95 48
0.087908 -0.442301 0.233881 255 95 48
-0.162289 -0.334708 0.244962 255 95 48
0.11714 -0.394793 0.250364 255 95 48
0.26287 -0.388838 0.20227 255 95 48
0.1884 -0.105328 0.21259 255 95 48
0.105187 -0.415429 0.248819 255 95 48
-0.117568 -0.137893 0.213409 255 95 48
0.170602 -0.171938 0.215482 255 95 48
-0.0967267 -0.459127 0.231379 255 95 48
0.0253892 -0.188504 0.198254 255 95 48
-0.153047 -0.202055 0.32864 255 95 48
0.117058 -0.416553 0.282874 255 95 48
-0.152907 -0.290838 0.31555 255 95 48
-0.156767 -0.419885 0.314546 255 95 48
-0.151841 -0.212346 0.308053 255 95 48
0.251536 -0.376106 0.204824 255 95 48
0.113442 -0.437873 0.270026 255 95 48
0.109923 -0.452194 0.26914 255 95 48
0.12018 -0.100973 0.212483 255 95 48
0.0479105 -0.372269 0.200436 255 95 48
-0.0281104 -0.12461 0.206899 255 95 48
-0.089302 -0.0546444 0.211625 255 95 48
0.106987 -0.0986874 0.214357 255 95 48
-0.15458 -0.257765 0.325164 255 95 48
-0.0651853 -0.275607 0.204656 255 95 48
0.318226 -0.341707 0.203585 255 95 48
-0.153602 -0.0927813 0.28848 255 95 48
-0.0455732 -0.309007 0.206512 255 95 48
-0.0836161 -0.423805 0.225491 255 95 48
-0.149704 -0.41021 0.314471 255 95 48
-0.112268 -0.444766 0.223605 255 95 48
0.142548 -0.336275 0.209115 255 95 48
-0.155168 -0.43594 0.304444 255 95 48
0.112195 -0.41216 0.23626 255 95 48
-0.15469 -0.0838321 0.316215 255 95 48
0.159994 -0.448483 0.2713 255 95 48
-0.153317 -0.0637466 0.278029 255 46 23
0.0810536 -0.353261 0.260193 255 46 23
-0.151319 -0.232927 0.317483 255 46 23
0.045744 -0.401088 0.210353 255 46 23
0.170408 -0.359992 0.271229 255 46 23
-0.155442 -0.328413 0.271524 255 46 23
0.131011 -0.376632 0.289804 255 46 23
-0.150897 -0.131255 0.252114 255 46 23
0.0387644 -0.372384 0.21492 255 46 23
-0.0718541 -0.185745 0.205955 255 46 23
0.0245722 -0.361838 0.23454 255 46 23
-0.0222329 -0.0967458 0.20143 255 46 23
0.0960911 -0.348679 0.249251 255 46 23
0.0335003 -0.393502 0.230669 255 46 23
-0.150603 -0.123711 0.257974 255 46 23
-0.0140239 -0.283244 0.213081 255 46 23
-0.108473 -0.458149 0.215499 255 46 23
-0.0119258 -0.219706 0.20587 255 46 23
0.122919 -0.377497 0.289888 255 46 23
0.0126793 -0.43551 0.223773 255 46 23
-0.0192476 -0.307618 0.210351 255 46 23
0.141084 -0.44414 0.283641 255 46 23
0.117799 -0.430788 0.219454 255 46 23
0.0418318 -0.335118 0.220563 255 46 23
0.105392 -0.352454 0.261454 255 46 23
-0.156706 -0.294655 0.298407 255 46 23
0.0179237 -0.364261 0.205265 255 46 23
0.0202029 -0.284165 0.208034 255 46 23
-0.166202 -0.375546 0.253159 255 46 23
-0.145451 -0.111821 0.32713 255 46 23
-0.0380173 -0.202487 0.206502 255 46 23
0.136127 -0.458925 0.21548 255 46 23
0.0334455 -0.347826 0.242905 255 46 23
-0.151255 -0.244632 0.257263 255 46 23
-0.148602 -0.249219 0.242757 255 46 23
-0.118346 -0.211324 0.212956 255 46 23
-0.146422 -0.14151 0.335127 255 46 23
0.087288 -0.32331 0.206481 255 46 23
0.0243711 -0.160206 0.200528 255 46 23
0.0148004 -0.21374 0.211765 255 46 23
-0.00931645 -0.188793 0.203561 255 46 23
-0.152676 -0.141447 0.277044 255 46 23
-0.154492 -0.248855 0.2954 255 46 23
-0.00337065 -0.138056 0.201875 255 46 23
0.0359781 -0.34551 0.243031 255 46 23
0.182639 -0.35485 0.230541 255 46 23
0.181182 -0.429959 0.288111 255 46 23
0.0237006 -0.0917865 0.206261 255 46 23
-0.0796962 -0.272438 0.209132 255 46 23
-0.119077 -0.149165 0.206923 255 46 23
-0.106058 -0.434665 0.214394 255 46 23
-0.0225618 -0.184599 0.202775 255 46 23
-0.151701 -0.172764 0.313175 255 46 23
-0.0750171 -0.0977404 0.196261 255 46 23
-0.160012 -0.444801 0.301177 255 46 23
-0.010022 -0.172349 0.201439 255 46 23
-0.00384695 -0.310279 0.21474 255 46 23
-0.152576 -0.211545 0.271734 255 46 23
0.135582 -0.358658 0.275731 255 46 23
-0.147639 -0.158709 0.334444 255 46 23
0.081073 -0.346433 0.231428 255 46 23
0.0579709 -0.380149 0.265641 255 46 23
0.00371034 -0.323068 0.219615 255 46 23
0.0613519 -0.473811 0.218271 255 46 23
0.0691049 -0.404702 0.206174 255 46 23
-0.131453 -0.0824045 0.20257 255 46 23
-0.146303 -0.128059 0.336051 255 46 23
-0.150554 -0.12771 0.250485 255 46 23
0.161331 -0.337629 0.207236 255 46 23
-0.153895 -0.0658938 0.264144 255 46 23
0.102262 -0.425523 0.223324 255 46 23
0.0469579 -0.425331 0.238334 255 46 23
-0.141502 -0.271169 0.224862 255 46 23
0.0928957 -0.230707 0.200696 255 46 23
-0.0477981 -0.349629 0.202793 255 46 23
-0.150598 -0.129404 0.249476 255 46 23
0.131847 -0.401797 0.213605 255 46 23
0.0279434 -0.386538 0.223566 255 46 23
-0.145391 -0.285833 0.229501 255 46 23
-0.153505 -0.161784 0.286264 255 46 23
-0.00576401 -0.387558 0.217946 255 46 23
-0.0475703 -0.246658 0.21044 255 46 23
-0.14549 -0.100292 0.33656 255 46 23
0.0857626 -0.364995 0.276484 255 46 23
-0.0995297 -0.0700769 0.195418 255 46 23
0.0810823 -0.366637 0.275128 255 46 23
-0.150039 -0.134128 0.309131 255 46 23
0.015943 -0.288744 0.209571 255 46 23
-0.148303 -0.176638 0.329886 255 46 23
0.0145177 -0.434631 0.223874 255 46 23
-0.0942838 -0.251866 0.211963 255 46 23
0.125031 -0.471319 0.242731 255 46 23
-0.0119667 -0.196164 0.204188 255 46 23
0.051934 -0.348228 0.245317 255 46 23
-0.0880374 -0.135722 0.200738 255 46 23
0.0810912 -0.153559 0.204377 255 46 23
0.0282177 -0.335113 0.232804 255 46 23
-0.151754 -0.247065 0.267644 255 46 23
-0.153983 -0.398225 0.299175 255 46 23
-0.154634 -0.196202 0.284449 255 46 23
-0.152667 -0.144162 0.285506 255 46 23
-0.153493 -0.172601 0.272456 255 46 23
-0.0709432 -0.0932529 0.196174 255 46 23
-0.148236 -0.101608 0.222779 255 46 23
0.109829 -0.42854 0.208365 255 46 23
0.0594273 -0.12236 0.203605 255 46 23
-0.176685 -0.406501 0.23446 255 46 23
0.0380751 -0.344256 0.214984 255 46 23
0.0244077 -0.246186 0.203192 255 46 23
0.0835626 -0.426555 0.244243 255 46 23
0.0305267 -0.154676 0.207435 255 46 23
0.181534 -0.395332 0.291937 255 46 23
-0.0445408 -0.47441 0.217407 255 46 23
-0.156782 -0.32467 0.306765 255 46 23
0.0740841 -0.382318 0.275571 255 46 23
0.0370864 -0.391176 0.235285 255 46 23
-0.0609991 -0.142567 0.200478 255 46 23
-0.151784 -0.126557 0.272087 255 46 23
0.0475736 -0.382934 0.26022 255 46 23
-0.151724 -0.186917 0.258109 255 46 23
0.174243 -0.356291 0.247263 255 46 23
-0.147983 -0.3188 0.232241 255 46 23
0.0875645 -0.391285 0.286314 255 46 23
-0.152129 -0.216335 0.269408 255 46 23
0.0303505 -0.208813 0.202089 255 46 23
-0.064494 -0.168335 0.202495 255 46 23
0.128644 -0.347771 0.223298 255 46 23
0.0427699 -0.37567 0.255567 255 46 23
0.222722 -0.362534 0.249556 255 46 23
0.150587 -0.410002 0.290758 255 46 23
0.0913006 -0.361776 0.276691 255 46 23
0.0999337 -0.238175 0.20842 255 46 23
0.110393 -0.350628 0.251333 255 46 23
0.0389419 -0.428478 0.231991 255 46 23
-0.00880313 -0.323914 0.217412 255 46 23
0.0723956 -0.352748 0.257097 255 46 23
-0.152047 -0.347289 0.225882 255 46 23
0.0334278 -0.339489 0.235898 255 46 23
-0.148172 -0.167098 0.332962 255 46 23
0.0220702 -0.301785 0.210931 255 46 23
0.0163827 -0.390489 0.229556 255 46 23
0.0135235 -0.364221 0.211724 255 46 23
-0.0968406 -0.123906 0.20069 255 46 23
-0.0568774 -0.174909 0.203249 255 46 23
0.0770185 -0.374834 0.275138 255 46 23
0.12241 -0.467372 0.241608 255 46 23
-0.13004 -0.451881 0.220134 255 46 23
-0.153859 -0.307252 0.257399 255 46 23
0.0164217 -0.243134 0.204006 255 46 23
0.070777 -0.395886 0.277821 255 46 23
0.00395574 -0.328206 0.216425 255 46 23
-0.153193 -0.156066 0.289625 255 46 23
-0.0472579 -0.100955 0.198099 255 46 23
0.0928326 -0.471646 0.246711 255 46 23
0.122186 -0.395724 0.293573 255 46 23
0.0407604 -0.37746 0.254124 255 46 23
0.0756704 -0.458815 0.193859 255 46 23
0.0690592 -0.475582 0.234857 255 46 23
0.0408898 -0.141209 0.207151 255 46 23
0.0516345 -0.366277 0.241828 255 46 23
0.0554704 -0.382959 0.264846 255 46 23
-0.15688 -0.310379 0.305908 255 46 23
0.0819527 -0.398094 0.247958 255 46 23
-0.144364 -0.255301 0.230583 255 46 23
-0.152266 -0.154665 0.264955 255 46 23
0.116403 -0.281771 0.207113 255 46 23
-0.153774 -0.0655871 0.267111 255 46 23
0.109323 -0.464686 0.243961 255 46 23
-0.109667 -0.175044 0.206478 255 46 23
-0.112965 -0.139045 0.204637 255 46 23
0.0997654 -0.317504 0.210928 255 46 23
-0.156623 -0.342332 0.3 255 46 23
0.0399237 -0.380942 0.237819 255 46 23
0.0335604 -0.38512 0.214308 255 46 23
0.213065 -0.359573 0.217998 255 46 23
-0.106581 -0.0864944 0.196063 255 46 23
0.046469 -0.146303 0.202054 255 46 23
0.13843 -0.323129 0.201614 255 46 23
-0.00579495 -0.359394 0.214347 255 46 23
0.103565 -0.338329 0.21062 255 46 23
-0.0167942 -0.33234 0.204467 255 46 23
0.117553 -0.406838 0.232219 255 46 23
0.0589871 -0.415956 0.237008 255 46 23
0.0621233 -0.403028 0.209991 255 46 23
0.0947014 -0.36389 0.246568 255 46 23
0.0513693 -0.350415 0.252076 255 46 23
0.0944311 -0.21643 0.207676 255 46 23
0.0631146 -0.34497 0.229069 255 46 23
-0.150247 -0.168577 0.243683 255 46 23
0.0199883 -0.288443 0.208888 255 46 23
-0.147104 -0.0927822 0.21455 255 46 23
-0.156863 -0.3384 0.304124 255 46 23
0.0497031 -0.381417 0.261239 255 46 23
-0.156265 -0.353236 0.309767 255 46 23
-0.156418 -0.382663 0.305949 255 46 23
0.0481656 -0.40503 0.245074 255 46 23
-0.110053 -0.286108 0.212606 255 46 23
0.0856124 -0.333654 0.212533 255 46 23
-0.0964883 -0.0700523 0.19522 255 46 23
-0.155644 -0.373197 0.293103 255 46 23
0.113048 -0.347168 0.2385 255 46 23
0.0704708 -0.284748 0.201869 255 46 23
-0.146693 -0.249004 0.234893 255 46 23
-0.154855 -0.187407 0.297711 255 46 23
0.0479276 -0.39252 0.257861 255 46 23
-0.108355 -0.236219 0.214013 255 46 23
-0.150378 -0.104729 0.254506 255 46 23
0.0845982 -0.352499 0.259028 255 46 23
0.0549665 -0.383988 0.264747 255 46 23
-0.0635257 -0.130318 0.199236 255 46 23
0.0661054 -0.407891 0.274334 255 46 23
0.0496388 -0.153289 0.20196 255 46 23
0.135868 -0.478063 0.24004 255 46 23
-0.120762 -0.0751936 0.199257 255 46 23
-0.0560955 -0.36665 0.203405 255 46 23
0.192627 -0.373945 0.284468 255 46 23
0.014883 -0.361118 0.2061 255 46 23
-0.155056 -0.273242 0.279437 255 46 23
0.0193173 -0.433638 0.2291 255 46 23
0.0369939 -0.340363 0.235569 255 46 23
0.0775005 -0.374092 0.275269 255 46 23
0.07481 -0.376494 0.274177 255 46 23
0.0871637 -0.386429 0.284769 255 46 23
0.0472846 -0.400643 0.208341 255 46 23
0.189788 -0.376854 0.217007 255 46 23
0.0967242 -0.286956 0.201775 255 46 23
0.0796277 -0.362825 0.236959 255 46 23
0.0384977 -0.159258 0.207817 255 46 23
0.146295 -0.354866 0.256304 255 46 23
0.183444 -0.383851 0.292008 255 46 23
0.0207617 -0.284577 0.207997 255 46 23
0.0127271 -0.318212 0.215538 255 46 23
0.0357245 -0.316356 0.211599 255 46 23
-0.151842 -0.12151 0.273901 255 46 23
-0.149537 -0.147528 0.237283 255 46 23
-0.0377394 -0.211418 0.207336 255 46 23
0.0159193 -0.343241 0.229441 255 46 23
0.183281 -0.346549 0.209182 255 46 23
-0.153942 -0.306392 0.263085 255 46 23
-0.144231 -0.205123 0.223937 255 46 23
0.139591 -0.454732 0.222436 255 46 23
-0.152713 -0.0797162 0.255217 255 46 23
0.157247 -0.347857 0.218833 255 46 23
-0.103451 -0.0709429 0.195652 255 46 23
0.0431552 -0.405268 0.232309 255 46 23
-0.151404 -0.157597 0.252319 255 46 23
-0.15324 -0.158017 0.287105 255 46 23
0.0251732 -0.358302 0.237364 255 46 23
0.156213 -0.347893 0.208992 255 46 23
-0.146262 -0.301827 0.229642 255 46 23
0.0546252 -0.366325 0.261151 255 46 23
0.0666037 -0.376251 0.269439 255 46 23
-0.0259863 -0.194606 0.204479 255 46 23
0.13128 -0.282227 0.199839 255 46 23
0.189157 -0.43352 0.287432 255 46 23
-0.155501 -0.313519 0.283526 255 46 23
-0.0117513 -0.316842 0.208198 255 46 23
-0.131807 -0.324053 0.212969 255 46 23
0.21453 -0.361183 0.22064 255 46 23
-0.0274671 -0.0814245 0.200496 255 46 23
0.072633 -0.361409 0.269037 255 46 23
-0.0643955 -0.266017 0.209048 255 46 23
0.0167219 -0.331088 0.222896 255 46 23
0.13314 -0.361438 0.278626 255 46 23
-0.154311 -0.248838 0.303337 255 46 23
0.0932422 -0.378178 0.211472 255 46 23
0.0800246 -0.353702 0.261165 255 46 23
0.063412 -0.325668 0.211255 255 46 23
-0.155652 -0.347592 0.278458 255 46 23
0.112919 -0.366896 0.211243 255 46 23
0.0500553 -0.34212 0.225613 255 46 23
0.0741446 -0.379392 0.274438 255 46 23
0.0179572 -0.340314 0.232676 255 46 23
0.188691 -0.35844 0.247547 255 46 23
0.076051 -0.340118 0.221139 255 46 23
-0.0111879 -0.127986 0.201843 255 46 23
0.00659539 -0.304505 0.214015 255 46 23
0.00272066 -0.3361 0.223995 255 46 23
0.0481027 -0.338779 0.222911 255 46 23
0.115894 -0.296725 0.207921 255 46 23
-0.15132 -0.305079 0.24316 255 46 23
-0.13092 -0.450931 0.219635 255 46 23
0.0131744 -0.231173 0.203661 255 46 23
0.0932182 -0.397865 0.289722 255 46 23
0.0327278 -0.355828 0.245373 255 46 23
0.0191665 -0.332131 0.219934 255 46 23
0.212596 -0.368838 0.275456 255 46 23
-0.154248 -0.345217 0.248067 255 46 23
-0.00144812 -0.181597 0.202215 255 46 23
0.0755905 -0.173894 0.201883 255 46 23
-0.148771 -0.151022 0.232372 255 46 23
0.00734409 -0.324055 0.22258 255 46 23
0.0213896 -0.327789 0.216777 255 46 23
0.0600148 -0.127399 0.206039 255 46 23
0.0905155 -0.25989 0.209793 255 46 23
-0.154963 -0.350946 0.260168 255 46 23
-0.153412 -0.064487 0.275298 255 46 23
-0.15108 -0.211461 0.319528 255 46 23
-0.152623 -0.15729 0.273246 255 46 23
0.0147606 -0.246929 0.20457 255 46 23
-0.0122793 -0.259126 0.209565 255 46 23
0.163854 -0.350573 0.210237 255 46 23
-0.107456 -0.163304 0.205603 255 46 23
-0.0888839 -0.200249 0.206769 255 46 23
-0.126522 -0.470475 0.229493 255 46 23
0.0705751 -0.462919 0.191908 255 46 23
0.0985524 -0.382993 0.287945 255 46 23
0.19353 -0.365774 0.278152 255 46 23
-0.152645 -0.199878 0.311137 255 46 23
0.0147193 -0.419507 0.216846 255 46 23
-0.15395 -0.223455 0.282668 255 46 23
-0.155645 -0.348594 0.278319 255 46 23
-0.158598 -0.398451 0.279891 255 46 23
-0.0910741 -0.25764 0.211046 255 46 23
-0.163132 -0.364005 0.244459 255 46 23
0.00863079 -0.118195 0.205414 255 46 23
0.170666 -0.408887 0.217123 255 46 23
0.0810098 -0.259463 0.201006 255 46 23
0.0146888 -0.330491 0.222033 255 46 23
0.0121914 -0.28073 0.208677 255 46 23
0.0588224 -0.402396 0.215521 255 46 23
-0.149715 -0.103544 0.303364 255 46 23
-0.154852 -0.184396 0.298616 255 46 23
0.194041 -0.386074 0.219505 255 46 23
0.0013608 -0.318531 0.217408 255 46 23
0.00899501 -0.354815 0.204137 255 46 23
-0.0524728 -0.108787 0.198354 255 46 23
-0.0111325 -0.210915 0.205313 255 46 23
-0.00753361 -0.19595 0.204202 255 46 23
0.0663688 -0.335388 0.240972 255 46 23
-0.128113 -0.109721 0.20519 255 46 23
0.0343866 -0.320139 0.21276 255 46 23
0.000204529 -0.306265 0.215254 255 46 23
0.029258 -0.358791 0.222998 255 46 23
-0.152846 -0.20845 0.273418 255 46 23
0.154749 -0.375017 0.288969 255 46 23
0.00999765 -0.232475 0.204168 255 46 23
0.133154 -0.452407 0.213655 255 46 23
0.0838221 -0.175493 0.202095 255 46 23
-0.19245 -0.469739 0.24961 255 46 23
0.11854 -0.297536 0.201075 255 46 23
0.0331103 -0.372971 0.243749 255 46 23
-0.160562 -0.383426 0.267246 255 46 23
0.0938816 -0.36631 0.280192 255 46 23
0.0512927 -0.336398 0.219817 255 46 23
0.0754088 -0.354897 0.263402 255 46 23
0.0645588 -0.353826 0.26005 255 46 23
-0.141746 -0.223162 0.224103 255 46 23
0.0719344 -0.353695 0.259424 255 46 23
0.0431141 -0.370784 0.255166 255 46 23
0.0199527 -0.258134 0.204518 255 46 23
0.107237 -0.388362 0.292182 255 46 23
-0.154104 -0.316982 0.256139 255 46 23
-0.0256491 -0.181205 0.202643 255 46 23
0.0273381 -0.330854 0.218199 255 46 23
-0.0133525 -0.252506 0.208837 255 46 23
0.110243 -0.41156 0.235157 255 46 23
-0.154041 -0.162584 0.296706 255 46 23
0.204293 -0.394744 0.289318 255 46 23
0.141282 -0.46417 0.235733 255 46 23
0.0118934 -0.32979 0.220721 255 46 23
-0.14712 -0.370063 0.216894 255 46 23
-0.155253 -0.212177 0.297248 255 46 23
-0.149706 -0.180384 0.2453 255 46 23
0.0450347 -0.401632 0.242372 255 46 23
0.1372 -0.383121 0.293218 255 46 23
0.135562 -0.436378 0.217262 255 46 23
-0.147918 -0.161274 0.335073 255 46 23
0.0608526 -0.334212 0.217059 255 46 23
0.0653469 -0.390372 0.272773 255 46 23
-0.149776 -0.271939 0.242616 255 46 23
0.110376 -0.215771 0.201836 255 46 23
0.0835878 -0.304297 0.203955 255 46 23
0.0582031 -0.301158 0.203974 255 46 23
-0.155038 -0.36839 0.278989 255 46 23
0.00196983 -0.323741 0.218501 255 46 23
-0.14677 -0.149819 0.336782 255 46 23
0.0814679 -0.350629 0.253478 255 46 23
-0.00021957 -0.318332 0.215056 255 46 23
0.0418329 -0.386735 0.250872 255 46 23
-0.14967 -0.201933 0.251653 255 46 23
0.11188 -0.349845 0.247921 255 46 23
0.106391 -0.395946 0.2212 255 46 23
-0.0813785 -0.189078 0.206293 255 46 23
-0.146509 -0.143764 0.335032 255 46 23
-0.149514 -0.19031 0.248119 255 46 23
0.0255421 -0.351869 0.222518 255 46 23
-0.152642 -0.163595 0.259735 255 46 23
-0.11552 -0.198197 0.2108 255 46 23
-0.128507 -0.32356 0.212483 255 46 23
-0.154236 -0.213159 0.283436 255 46 23
0.0951171 -0.42397 0.235522 255 46 23
0.128472 -0.253707 0.200505 255 46 23
-0.156517 -0.334971 0.297193 255 46 23
-0.151309 -0.0768259 0.231497 255 46 23
-0.014976 -0.47342 0.204087 255 46 23
0.0237365 -0.239359 0.21185 255 46 23
-0.1553 -0.267757 0.294267 255 46 23
0.0821098 -0.184197 0.201645 255 46 23
0.0789984 -0.354817 0.264363 255 46 23
-0.0972958 -0.077081 0.194147 255 46 23
-0.0828712 -0.390906 0.206712 255 46 23
0.0760626 -0.294678 0.202795 255 46 23
-0.12551 -0.224523 0.217061 255 46 23
-0.153912 -0.331443 0.249122 255 46 23
-0.103977 -0.139493 0.203033 255 46 23
0.0043751 -0.320495 0.219401 255 46 23
0.0327419 -0.238122 0.210831 255 46 23
-0.0698645 -0.256286 0.209568 255 46 23
-0.0242186 -0.210086 0.206301 255 46 23
0.146296 -0.397882 0.214125 255 46 23
0.0279525 -0.371838 0.201619 255 46 23
-0.110878 -0.100585 0.198169 255 46 23
-0.154173 -0.174986 0.282668 255 46 23
0.234364 -0.42954 0.278681 255 46 23
0.0766582 -0.46037 0.260879 255 46 23
0.133456 -0.445911 0.217983 255 46 23
0.0848024 -0.376294 0.279828 255 46 23
-0.139946 -0.293775 0.218939 255 46 23
0.02205 -0.359861 0.230529 255 46 23
-0.0913082 -0.126176 0.19998 255 46 23
0.197311 -0.352855 0.213907 255 46 23
-0.154407 -0.169029 0.297235 255 46 23
-0.146566 -0.132378 0.338135 255 46 23
-0.0734837 -0.36596 0.204873 255 46 23
-0.146051 -0.279333 0.231624 255 46 23
0.0219252 -0.248001 0.212136 255 46 23
0.0976948 -0.382137 0.287135 255 46 23
0.0487284 -0.382879 0.260921 255 46 23
0.0898284 -0.41648 0.285638 255 46 23
0.132064 -0.348339 0.216606 255 46 23
-0.00333768 -0.469105 0.202228 255 46 23
0.0754808 -0.305002 0.204215 255 46 23
-0.15225 -0.287706 0.248625 255 46 23
0.0636576 -0.404338 0.218985 255 46 23
-0.153408 -0.195661 0.272956 255 46 23
0.0343338 -0.303344 0.209196 255 46 23
-0.0160191 -0.171015 0.201362 255 46 23
0.139743 -0.367793 0.284553 255 46 23
-0.00671498 -0.226809 0.213888 255 46 23
0.1055 -0.364675 0.282073 255 46 23
0.141979 -0.330649 0.20853 255 46 23
0.189449 -0.351631 0.215007 255 46 23
0.0530683 -0.180659 0.201679 255 46 23
0.143448 -0.351071 0.240209 255 46 23
0.011195 -0.21143 0.202758 255 46 23
-0.154592 -0.407111 0.291128 255 46 23
0.112095 -0.328315 0.20952 255 46 23
0.126216 -0.395423 0.213206 255 46 23
0.0798303 -0.346324 0.234807 255 46 23
-0.148582 -0.194342 0.233778 255 46 23
0.0202446 -0.236889 0.203187 255 46 23
-0.146656 -0.133814 0.339398 255 46 23
-0.0062137 -0.249343 0.208333 255 46 23
-0.152726 -0.16958 0.262509 255 46 23
0.0720881 -0.345971 0.23973 255 46 23
-0.14759 -0.269944 0.235594 255 46 23
-0.0985679 -0.158893 0.203782 255 46 23
0.0542832 -0.343512 0.227046 255 46 23
-0.0366348 -0.0964771 0.199101 255 46 23
-0.148492 -0.104836 0.226616 255 46 23
-0.153657 -0.156272 0.297491 255 46 23
-0.150773 -0.320814 0.238589 255 46 23
0.0820985 -0.413263 0.20801 255 46 23
-0.141496 -0.134336 0.216157 255 46 23
-0.146036 -0.131294 0.330099 255 46 23
-0.146698 -0.0945577 0.213506 255 46 23
0.0811255 -0.424761 0.241849 255 46 23
0.0976054 -0.183029 0.202983 255 46 23
-0.104766 -0.0993922 0.196898 255 46 23
0.00125597 -0.317292 0.21722 255 46 23
-0.117054 -0.1645 0.20757 255 46 23
0.197964 -0.369018 0.279523 255 46 23
-0.00676278 -0.4138 0.216094 255 46 23
-0.0473466 -0.10276 0.198245 255 46 23
0.0575309 -0.385649 0.266565 255 46 23
0.0282012 -0.360957 0.241372 255 46 23
0.0870121 -0.365221 0.277119 255 46 23
0.195798 -0.361472 0.266266 255 46 23
0.083017 -0.205098 0.200885 255 46 23
0.0773811 -0.414476 0.221876 255 46 23
0.103095 -0.34679 0.230379 255 46 23
-0.118819 -0.119034 0.203989 255 46 23
0.0747603 -0.13976 0.204289 255 46 23
0.0324132 -0.255424 0.203242 255 46 23
0.0991235 -0.395026 0.218901 255 46 23
0.0190828 -0.331545 0.227753 255 46 23
0.122337 -0.304325 0.201203 255 46 23
0.20239 -0.412899 0.288537 255 46 23
0.0186604 -0.432478 0.224127 255 46 23
0.0354528 -0.373474 0.248247 255 46 23
0.160068 -0.44102 0.219101 255 46 23
-0.144609 -0.272066 0.229738 255 46 23
0.102893 -0.225504 0.201469 255 46 23
-0.00545562 -0.268504 0.210987 255 46 23
0.088871 -0.400407 0.249262 255 46 23
0.0750095 -0.372476 0.27364 255 46 23
0.0605202 -0.45167 0.199907 255 46 23
0.0372734 -0.345849 0.243709 255 46 23
-0.0917698 -0.121861 0.199352 255 46 23
0.007143 -0.431355 0.222657 255 46 23
0.0467534 -0.364293 0.256059 255 46 23
-0.15091 -0.233451 0.319547 255 46 23
-0.148576 -0.222178 0.244916 255 46 23
-0.04037 -0.274621 0.20887 255 46 23
0.066256 -0.358907 0.264861 255 46 23
0.0311524 -0.478288 0.229472 255 46 23
0.110222 -0.350472 0.210228 255 46 23
0.0732294 -0.355253 0.264176 255 46 23
0.0480933 -0.333355 0.216538 255 46 23
-0.071116 -0.162616 0.201981 255 46 23
0.135893 -0.365521 0.282646 255 46 23
0.0665541 -0.339191 0.203618 255 0 0
0.193352 -0.338179 0.20127 255 0 0
0.102104 -0.20196 0.207104 255 0 0
0.264557 -0.207182 0.19936 255 0 0
0.212279 -0.0898318 0.203399 255 0 0
-0.0151579 -0.105825 0.206165 255 0 0
0.209896 -0.288058 0.199958 255 0 0
0.316938 -0.381185 0.199084 255 0 0
0.0560705 -0.259957 0.206361 255 0 0
-0.0415696 -0.0631444 0.204935 255 0 0
0.287969 -0.0831767 0.194404 255 0 0
0.0995073 -0.112507 0.210092 255 0 0
0.198 -0.217012 0.202556 255 0 0
0.0645391 -0.168776 0.208482 255 0 0
0.202403 -0.352383 0.201549 255 0 0
0.311848 -0.392605 0.199249 255 0 0
-0.0185673 -0.154342 0.205593 255 0 0
0.327695 -0.374561 0.198645 255 0 0
0.0324534 -0.0587915 0.205347 255 0 0
0.23069 -0.282619 0.19894 255 0 0
0.276938 -0.145527 0.199276 255 0 0
0.228406 -0.370663 0.223333 255 0 0
-0.104369 -0.193821 0.203919 255 0 0
0.1605 -0.202481 0.204318 255 0 0
0.313571 -0.238671 0.197656 255 0 0
0.282981 -0.17143 0.198398 255 0 0
0.0285234 -0.365846 0.205611 255 0 0
0.298468 -0.0977131 0.196112 255 0 0
-0.0354059 -0.319868 0.203949 255 0 0
-0.0059869 -0.153353 0.206147 255 0 0
0.244701 -0.309915 0.197269 255 0 0
0.304735 -0.106872 0.197018 255 0 0
0.028972 -0.324133 0.20458 255 0 0
0.0805245 -0.465561 0.209847 255 0 0
-0.0118346 -0.475439 0.208079 255 0 0
-0.0172173 -0.158143 0.205708 255 0 0
0.231793 -0.389298 0.221248 255 0 0
-0.00175147 -0.293563 0.205545 255 0 0
0.313996 -0.276753 0.1966 255 0 0
0.160151 -0.19926 0.204413 255 0 0
-0.0556055 -0.127759 0.205505 255 0 0
0.0416738 -0.1754 0.208153 255 0 0
0.316313 -0.245055 0.198327 255 0 0
0.222256 -0.470834 0.204798 255 0 0
0.0183043 -0.0612491 0.205518 255 0 0
0.153165 -0.204696 0.204533 255 0 0
0.180304 -0.369665 0.202664 255 0 0
0.0677764 -0.212068 0.207163 255 0 0
0.278816 -0.265075 0.196705 255 0 0
0.0630376 -0.109404 0.209628 255 0 0
-0.0105118 -0.0647164 0.205508 255 0 0
0.267361 -0.0839343 0.196363 255 0 0
0.304688 -0.121339 0.196928 255 0 0
-0.0586099 -0.0706861 0.205181 255 0 0
0.334535 -0.380037 0.198096 255 0 0
-0.00650749 -0.332262 0.204868 255 0 0
0.303498 -0.119092 0.196677 255 0 0
0.0514063 -0.149324 0.208846 255 0 0
0.305445 -0.272633 0.196445 255 0 0
0.0465373 -0.336033 0.203973 255 0 0
0.064311 -0.109194 0.209684 255 0 0
0.0594399 -0.279831 0.205415 255 0 0
0.101595 -0.288029 0.204331 255 0 0
0.0533464 -0.10542 0.209136 255 0 0
0.20036 -0.346265 0.201393 255 0 0
0.310367 -0.412792 0.199824 255 0 0
0.259216 -0.122619 0.200069 255 0 0
0.0941558 -0.32795 0.2036 255 0 0
-0.0234376 -0.205701 0.205623 255 0 0
0.147192 -0.418848 0.219326 255 0 0
0.170539 -0.219325 0.20357 255 0 0
0.0130502 -0.061891 0.205486 255 0 0
0.0273686 -0.474443 0.208765 255 0 0
0.0643991 -0.0932252 0.209152 255 0 0
0.0893903 -0.364442 0.205007 255 0 0
0.250372 -0.141193 0.200702 255 0 0
-0.0317051 -0.0529817 0.204238 255 0 0
0.245182 -0.150112 0.201125 255 0 0
0.117893 -0.315664 0.20288 255 0 0
-0.119877 -0.340986 0.202915 255 0 0
0.258833 -0.317803 0.195971 255 0 0
-0.1324 -0.135313 0.203842 255 0 0
0.00911301 -0.255033 0.205956 255 0 0
0.300101 -0.090352 0.196184 255 0 0
0.189858 -0.394315 0.209121 255 0 0
0.122966 -0.415988 0.212305 255 0 0
0.267815 -0.0815547 0.195496 255 0 0
-0.0396135 -0.298641 0.204603 255 0 0
-0.0371867 -0.292331 0.204759 255 0 0
-0.0328895 -0.0570282 0.204595 255 0 0
0.243637 -0.0989582 0.20023 255 0 0
0.225835 -0.082034 0.199541 255 0 0
0.260262 -0.385505 0.198373 255 0 0
-0.133131 -0.131973 0.203882 255 0 0
0.0757862 -0.341366 0.203683 255 0 0
0.1907 -0.178686 0.20401 255 0 0
0.212567 -0.137292 0.203885 255 0 0
0.300059 -0.119181 0.196163 255 0 0
0.18313 -0.406596 0.204015 255 0 0
0.273556 -0.321396 0.195473 255 0 0
0.135747 -0.134357 0.20905 255 0 0
0.172392 -0.46586 0.208335 255 0 0
0.177596 -0.0780688 0.205195 255 0 0
0.136958 -0.449659 0.209394 255 0 0
0.0642706 -0.153725 0.208871 255 0 0
0.304355 -0.0942618 0.196948 255 0 0
0.0986129 -0.262848 0.205667 255 0 0
0.105014 -0.423193 0.207919 255 0 0
0.274385 -0.159079 0.199403 255 0 0
0.11164 -0.302177 0.203321 255 0 0
0.237429 -0.195564 0.201168 255 0 0
-0.0388764 -0.262388 0.204788 255 0 0
0.174312 -0.141913 0.206639 255 0 0
-0.0387952 -0.240188 0.204847 255 0 0
0.301964 -0.346978 0.195876 255 0 0
0.298641 -0.169873 0.197256 255 0 0
0.097586 -0.0624194 0.205697 255 0 0
0.143063 -0.180413 0.206062 255 0 0
0.208137 -0.188056 0.202719 255 0 0
-0.0505917 -0.316641 0.203994 255 0 0
0.243149 -0.0979033 0.200236 255 0 0
0.0823974 -0.0868316 0.209326 255 0 0
-0.00990902 -0.0829327 0.20634 255 0 0
0.296569 -0.242199 0.196961 255 0 0
0.200923 -0.342989 0.201202 255 0 0
0.0293982 -0.328493 0.204582 255 0 0
-0.0209708 -0.158383 0.205573 255 0 0
0.284607 -0.0938788 0.196814 255 0 0
0.0531896 -0.149004 0.208904 255 0 0
-0.0370518 -0.0845848 0.206139 255 0 0
0.0761066 -0.161598 0.208681 255 0 0
0.265082 -0.0928467 0.198206 255 0 0
0.0175302 -0.056623 0.204842 255 0 0
0.296644 -0.220942 0.197661 255 0 0
0.0580783 -0.246389 0.206722 255 0 0
0.254204 -0.287187 0.196939 255 0 0
0.306736 -0.334298 0.195382 255 0 0
0.267639 -0.0831015 0.196083 255 0 0
0.257856 -0.0873529 0.197777 255 0 0
0.19795 -0.459593 0.235142 255 0 0
0.249121 -0.342024 0.197146 255 0 0
0.270676 -0.243885 0.197762 255 0 0
-0.0751823 -0.0560198 0.203628 255 0 0
-0.117006 -0.254345 0.203732 255 0 0
0.295875 -0.0897157 0.195623 255 0 0
0.304469 -0.359647 0.196871 255 0 0
-0.0313614 -0.370327 0.20499 255 0 0
-0.056722 -0.253714 0.204522 255 0 0
0.307677 -0.144103 0.197541 255 0 0
0.220799 -0.108806 0.203192 255 0 0
0.1366 -0.0979423 0.209527 255 0 0
0.0816928 -0.299623 0.203823 255 0 0
0.102273 -0.471378 0.209243 255 0 0
0.249004 -0.0921634 0.199176 255 0 0
-0.0275419 -0.191873 0.205461 255 0 0
0.294429 -0.460765 0.200701 255 0 0
0.303337 -0.438823 0.200535 255 0 0
0.288068 -0.0915517 0.19626 255 0 0
0.124444 -0.383261 0.204835 255 0 0
0.288902 -0.241698 0.196579 255 0 0
-0.103425 -0.355916 0.20346 255 0 0
0.0855163 -0.239616 0.2064 255 0 0
0.237235 -0.182236 0.201225 255 0 0
0.285403 -0.297509 0.195297 255 0 0
0.0077051 -0.30411 0.205353 255 0 0
0.21367 -0.0856645 0.202149 255 0 0
0.060659 -0.244908 0.206717 255 0 0
-0.142829 -0.144308 0.203461 255 0 0
-0.0828774 -0.0682482 0.204273 255 0 0
0.0480522 -0.331651 0.203905 255 0 0
0.182853 -0.352229 0.202065 255 0 0
0.199569 -0.244264 0.201537 255 0 0
-0.0562911 -0.0864819 0.205622 255 0 0
0.11082 -0.10022 0.209857 255 0 0
0.102031 -0.302678 0.203798 255 0 0
0.271634 -0.403535 0.216243 255 0 0
0.0112597 -0.305276 0.205298 255 0 0
0.329907 -0.308264 0.199212 255 0 0
0.192963 -0.229832 0.202342 255 0 0
-0.0628058 -0.0879325 0.205446 255 0 0
0.29867 -0.0894226 0.195895 255 0 0
0.22282 -0.267278 0.199911 255 0 0
0.250721 -0.330845 0.196715 255 0 0
0.263474 -0.44335 0.207677 255 0 0
0.259713 -0.435438 0.20182 255 0 0
0.25885 -0.417648 0.20101 255 0 0
0.21876 -0.0990962 0.203321 255 0 0
0.253043 -0.370132 0.197778 255 0 0
-0.0788637 -0.312841 0.203935 255 0 0
0.243003 -0.424959 0.213378 255 0 0
0.274176 -0.0856004 0.195902 255 0 0
0.108121 -0.364488 0.204786 255 0 0
0.268479 -0.0948017 0.198074 255 0 0
0.170132 -0.426983 0.227508 255 0 0
0.202889 -0.23871 0.20168 255 0 0
0.213322 -0.12512 0.203801 255 0 0
0.0601958 -0.175631 0.208194 255 0 0
-0.0356891 -0.31811 0.203982 255 0 0
0.329745 -0.315523 0.198545 255 0 0
0.0782336 -0.172607 0.20828 255 0 0
-0.0906406 -0.339622 0.203513 255 0 0
0.0518854 -0.208874 0.207278 255 0 0
0.169516 -0.364121 0.219646 255 0 0
-0.079612 -0.197751 0.204213 255 0 0
0.274886 -0.262984 0.197004 255 0 0
0.232313 -0.230125 0.20108 255 0 0
0.256981 -0.0923732 0.198559 255 0 0
0.282258 -0.322002 0.195229 255 0 0
0.0561582 -0.0706964 0.207604 255 0 0
0.0923044 -0.179854 0.207787 255 0 0
0.259624 -0.342099 0.196175 255 0 0
0.116497 -0.366832 0.216098 255 0 0
0.30261 -0.0916491 0.196426 255 0 0
0.275416 -0.196995 0.199025 255 0 0
0.248411 -0.368283 0.205758 255 0 0
-0.11515 -0.275347 0.20361 255 0 0
0.22974 -0.335353 0.198947 255 0 0
-0.0282905 -0.339643 0.204402 255 0 0
0.191889 -0.182848 0.203797 255 0 0
0.0727324 -0.283702 0.204766 255 0 0
0.00789946 -0.299933 0.205505 255 0 0
0.0734368 -0.14792 0.209137 255 0 0
0.245208 -0.415713 0.201761 255 0 0
0.258147 -0.11841 0.200016 255 0 0
-0.104314 -0.237172 0.203901 255 0 0
0.173126 -0.309013 0.200948 255 0 0
0.160675 -0.365716 0.211614 255 0 0
0.130399 -0.266802 0.203603 255 0 0
0.244811 -0.428022 0.212738 255 0 0
0.272279 -0.315937 0.195617 255 0 0
0.260106 -0.450322 0.207029 255 0 0
0.0641511 -0.264988 0.206067 255 0 0
0.319787 -0.392223 0.199282 255 0 0
0.323336 -0.292959 0.197971 255 0 0
-0.0461437 -0.236762 0.20477 255 0 0
-0.0281139 -0.468038 0.208205 255 0 0
0.281988 -0.260268 0.196546 255 0 0
0.0920475 -0.340018 0.203848 255 0 0
0.210354 -0.107531 0.204031 255 0 0
0.274851 -0.206977 0.198847 255 0 0
0.301416 -0.116795 0.196145 255 0 0
-0.0383699 -0.0809609 0.20603 255 0 0
0.172449 -0.0831977 0.207011 255 0 0
0.16227 -0.238204 0.203177 255 0 0
0.123637 -0.469353 0.209539 255 0 0
0.185235 -0.450555 0.206547 255 0 0
0.304188 -0.0981203 0.197065 255 0 0
0.225419 -0.104009 0.202761 255 0 0
0.329617 -0.399286 0.19809 255 0 0
-0.0275129 -0.0878767 0.206175 255 0 0
0.289817 -0.422885 0.207348 255 0 0
-0.0528357 -0.459666 0.207725 255 0 0
0.312539 -0.271991 0.196667 255 0 0
0.118001 -0.471434 0.208997 255 0 0
0.295882 -0.157337 0.197194 255 0 0
0.0370099 -0.278426 0.205935 255 0 0
0.233783 -0.0933176 0.201209 255 0 0
0.0102952 -0.270031 0.205977 255 0 0
0.0457517 -0.14073 0.208758 255 0 0
0.144273 -0.145849 0.208237 255 0 0
-0.0213957 -0.412626 0.206377 255 0 0
0.00245317 -0.338344 0.204993 255 0 0
0.305487 -0.133854 0.197093 255 0 0
0.291957 -0.286126 0.195279 255 0 0
-0.0474359 -0.17584 0.205009 255 0 0
-0.0656616 -0.193544 0.204493 255 0 0
-0.0190688 -0.350548 0.204975 255 0 0
0.243017 -0.339654 0.197798 255 0 0
0.20251 -0.342195 0.201089 255 0 0
0.0940343 -0.1055 0.210248 255 0 0
0.31081 -0.266734 0.196743 255 0 0
-0.0172989 -0.0712572 0.205864 255 0 0
0.135037 -0.14075 0.208834 255 0 0
0.207484 -0.0792161 0.201381 255 0 0
0.0969031 -0.460184 0.210051 255 0 0
0.331769 -0.443398 0.199965 255 0 0
0.201194 -0.0786697 0.202242 255 0 0
0.266811 -0.241718 0.198043 255 0 0
0.169373 -0.0806589 0.206783 255 0 0
0.226907 -0.0938988 0.202274 255 0 0
0.29993 -0.334722 0.195321 255 0 0
0.22358 -0.121679 0.202927 255 0 0
0.0410893 -0.19379 0.20771 255 0 0
0.325132 -0.34064 0.196771 255 0 0
-0.00307264 -0.150395 0.206254 255 0 0
0.00256636 -0.0769725 0.206418 255 0 0
0.272661 -0.111607 0.198667 255 0 0
0.285042 -0.440669 0.200705 255 0 0
0.273276 -0.362677 0.19665 255 0 0
0.258122 -0.272569 0.19747 255 0 0
0.0595427 -0.231817 0.206907 255 0 0
0.275157 -0.179119 0.199132 255 0 0
0.264446 -0.303873 0.195974 255 0 0
0.0112523 -0.349983 0.20524 255 0 0
0.261991 -0.468241 0.203545 255 0 0
0.160705 -0.376137 0.202873 255 0 0
0.299524 -0.269571 0.196166 255 0 0
0.210706 -0.247761 0.201062 255 0 0
0.00500743 -0.384885 0.206252 255 0 0
-0.105402 -0.102154 0.204864 255 0 0
0.126626 -0.0919939 0.209587 255 0 0
0.223616 -0.42145 0.221886 255 0 0
0.0573238 -0.143535 0.209118 255 0 0
0.191034 -0.348659 0.201778 255 0 0
0.155277 -0.198936 0.204635 255 0 0
0.252314 -0.142802 0.200573 255 0 0
0.0268955 -0.341721 0.204728 255 0 0
0.271866 -0.284994 0.196401 255 0 0
0.280957 -0.0945355 0.19706 255 0 0
0.208845 -0.111012 0.204139 255 0 0
0.0478134 -0.379461 0.205725 255 0 0
0.00694479 -0.266786 0.205951 255 0 0
0.0935737 -0.394645 0.206077 255 0 0
0.190673 -0.39111 0.205833 255 0 0
0.180236 -0.374597 0.202751 255 0 0
-0.0182625 -0.370873 0.205733 255 0 0
0.183986 -0.083624 0.205571 255 0 0
0.163201 -0.231666 0.203348 255 0 0
0.291312 -0.127476 0.196982 255 0 0
0.274645 -0.331714 0.195511 255 0 0
0.300234 -0.0934471 0.196449 255 0 0
0.306956 -0.432226 0.204991 255 0 0
0.233175 -0.0928484 0.201284 255 0 0
0.0770163 -0.448055 0.210512 255 0 0
0.0170433 -0.132057 0.207359 255 0 0
-0.0260775 -0.173774 0.205539 255 0 0
-0.120519 -0.0837429 0.204871 255 0 0
-0.0186204 -0.203295 0.205795 255 0 0
0.173122 -0.182426 0.204497 255 0 0
-0.00191477 -0.242155 0.205837 255 0 0
0.0905677 -0.377098 0.205516 255 0 0
-0.0451049 -0.289408 0.204511 255 0 0
0.264125 -0.131316 0.20005 255 0 0
0.261632 -0.429531 0.210645 255 0 0
0.219328 -0.214788 0.201951 255 0 0
-0.0812981 -0.230135 0.204175 255 0 0
-0.047982 -0.143417 0.205067 255 0 0
0.169981 -0.35802 0.202273 255 0 0
0.278066 -0.26581 0.196745 255 0 0
0.303388 -0.111787 0.19676 255 0 0
0.0996405 -0.0714297 0.207809 255 0 0
0.143536 -0.161123 0.207072 255 0 0
-0.00869803 -0.46585 0.207949 255 0 0
0.0100737 -0.0537215 0.204262 255 0 0
-0.0269589 -0.275476 0.20538 255 0 0
0.0168974 -0.0520039 0.20368 255 0 0
0.0647624 -0.417414 0.21166 255 0 0
0.0401693 -0.0673511 0.206721 255 0 0
0.310865 -0.136421 0.198284 255 0 0
0.12554 -0.0967559 0.209701 255 0 0
-0.0247485 -0.166274 0.205564 255 0 0
0.299794 -0.261014 0.196467 255 0 0
0.303111 -0.407605 0.200054 255 0 0
