ply
format ascii 1.0
comment Created by Open3D
element vertex 1155
property double x
property double y
property double z
property uchar red
property uchar green
property uchar blue
end_header
0.206694 -0.487101 -0.12613 96 250 196
0.018419 -0.487189 0.0188094 96 250 196
0.0368571 -0.469499 0.355552 96 250 196
0.289938 -0.399648 -0.145943 96 250 196
-0.0571384 -0.42482 -0.0945267 96 250 196
0.118785 -0.444339 0.128454 96 250 196
0.0881146 -0.486552 0.110623 96 250 196
0.152093 -0.424217 0.0783437 96 250 196
0.173966 -0.468451 -0.0210963 96 250 196
-0.048196 -0.388748 -0.119979 96 250 196
0.00494557 -0.487116 0.308989 96 250 196
0.187932 -0.48709 -0.140301 96 250 196
0.295504 -0.249841 -0.144828 96 250 196
-0.0353818 -0.276767 0.387967 96 250 196
-0.0187945 -0.467772 -0.122193 96 250 196
0.292536 -0.309238 -0.144202 96 250 196
0.110348 -0.486498 -0.138805 96 250 196
0.142133 -0.35956 -0.133741 96 250 196
0.00438951 -0.265279 -0.13551 96 250 196
0.152607 -0.246065 -0.134033 96 250 196
0.133193 -0.45588 0.0706802 96 250 196
-0.0225129 -0.487168 0.191897 96 250 196
0.135623 -0.486858 -0.0287038 96 250 196
0.12278 -0.420734 0.235333 96 250 196
-0.0379043 -0.486536 -0.0914799 96 250 196
-0.0361638 -0.300194 -0.134205 96 250 196
-0.00630596 -0.487219 0.225669 96 250 196
-0.0446473 -0.224269 0.365081 96 250 196
-0.0305829 -0.48709 0.189978 96 250 196
-0.00604593 -0.222218 -0.138096 96 250 196
0.0755309 -0.487064 0.0148447 96 250 196
0.304515 -0.457413 -0.150224 96 250 196
-0.00859627 -0.466304 0.366834 96 250 196
0.234643 -0.290452 -0.141069 96 250 196
0.0660702 -0.48702 0.0919265 96 250 196
-0.0222606 -0.487165 0.133694 96 250 196
-0.0363649 -0.381496 0.375348 96 250 196
0.0171616 -0.487273 0.216928 96 250 196
0.0183859 -0.487204 0.0690256 96 250 196
0.0157351 -0.27049 -0.134762 96 250 196
0.145037 -0.487096 -0.132347 96 250 196
0.0908328 -0.45515 0.286855 96 250 196
0.160572 -0.292648 -0.133842 96 250 196
0.00961634 -0.416511 0.370827 96 250 196
0.10332 -0.486657 -0.138743 96 250 196
0.00843922 -0.487044 0.315561 96 250 196
-0.00617409 -0.486752 -0.116197 96 250 196
0.0673842 -0.472226 0.272395 96 250 196
0.104397 -0.163723 -0.13548 96 250 196
-0.0490212 -0.482788 -0.0386924 96 250 196
0.168053 -0.360381 -0.134712 96 250 196
-0.0393139 -0.388352 0.354067 96 250 196
0.124767 -0.46286 -0.138335 96 250 196
-0.0262337 -0.487062 0.317347 96 250 196
-0.0380687 -0.383931 0.285627 96 250 196
0.0899657 -0.244382 -0.132982 96 250 196
-0.02761 -0.367036 0.38803 96 250 196
0.203006 -0.408631 -0.137267 96 250 196
0.215638 -0.39273 -0.138372 96 250 196
0.298721 -0.414368 -0.148543 96 250 196
0.0860042 -0.487072 -0.116472 96 250 196
-0.058291 -0.25071 -0.0219578 96 250 196
0.0144569 -0.432471 -0.132781 96 250 196
0.0356345 -0.487169 0.015321 96 250 196
0.174308 -0.444144 0.00256954 96 250 196
0.249486 -0.487085 -0.146392 96 250 196
0.136791 -0.212944 -0.134705 96 250 196
0.0416768 -0.487193 0.209754 96 250 196
0.220369 -0.37147 -0.138395 96 250 196
0.131078 -0.478115 0.0361443 96 250 196
-0.0154781 -0.178438 -0.140278 96 250 196
0.0165417 -0.487238 0.116244 96 250 196
-0.0169302 -0.255032 -0.136688 96 250 196
0.162562 -0.433944 0.0391173 96 250 196
0.0338059 -0.487271 0.264999 96 250 196
0.151211 -0.181186 -0.136186 96 250 196
0.207572 -0.487095 -0.141028 96 250 196
0.191457 -0.446804 -0.0178786 96 250 196
0.15858 -0.414835 0.077338 96 250 196
-0.0132583 -0.217142 -0.138503 96 250 196
-0.023883 -0.487161 0.162113 96 250 196
0.139518 -0.486997 -0.0645409 96 250 196
0.299828 -0.38941 -0.147147 96 250 196
0.203433 -0.473847 -0.0542278 96 250 196
0.230714 -0.299709 -0.140123 96 250 196
-0.0515783 -0.468056 0.0480702 96 250 196
0.164114 -0.446391 0.0142356 96 250 196
0.211867 -0.487094 -0.141494 96 250 196
-0.0418691 -0.477494 0.252591 96 250 196
0.114785 -0.438972 0.166708 96 250 196
0.121392 -0.487142 -0.0982976 96 250 196
-0.0466116 -0.383905 0.0580326 96 250 196
0.135301 -0.365569 -0.133348 96 250 196
0.0465345 -0.220741 -0.133483 96 250 196
-0.0469846 -0.391203 0.0324828 96 250 196
0.247198 -0.460965 -0.0821947 96 250 196
0.296417 -0.360537 -0.145514 96 250 196
0.255852 -0.328903 -0.143049 96 250 196
0.0407961 -0.4865 0.278707 96 250 196
-0.0423605 -0.472996 0.194644 96 250 196
-0.0347911 -0.486507 0.361152 96 250 196
-0.0261747 -0.487104 0.100107 96 250 196
0.201129 -0.482444 -0.0714156 96 250 196
0.112814 -0.437785 0.198017 96 250 196
0.00368723 -0.382311 -0.13296 96 250 196
-0.0332003 -0.486971 0.135727 96 250 196
-0.0174207 -0.487151 0.288745 96 250 196
-0.0310986 -0.487048 0.209184 96 250 196
0.0400195 -0.487093 0.250917 96 250 196
-0.00737718 -0.48719 0.0516501 96 250 196
0.0791467 -0.486913 -0.131156 96 250 196
0.156449 -0.473321 -0.140795 96 250 196
0.276297 -0.448983 -0.099624 96 250 196
-0.0416751 -0.404749 0.225816 96 250 196
0.0188921 -0.486774 -0.122831 96 250 196
0.0528943 -0.314586 -0.131659 96 250 196
-0.0126872 -0.15087 -0.141024 96 250 196
0.0572195 -0.48709 -0.071669 96 250 196
0.032099 -0.486465 -0.128267 96 250 196
-0.0286986 -0.487087 0.224463 96 250 196
0.0954827 -0.452623 0.21916 96 250 196
-0.0537066 -0.24188 -0.132202 96 250 196
0.313721 -0.451517 -0.147317 96 250 196
0.272713 -0.285065 -0.144402 96 250 196
-0.0117357 -0.487213 0.123217 96 250 196
-0.0223358 -0.487143 0.259629 96 250 196
0.0425187 -0.467006 0.354824 96 250 196
0.0915036 -0.452854 0.244612 96 250 196
0.11521 -0.443447 0.145009 96 250 196
0.184998 -0.487085 -0.140686 96 250 196
0.102648 -0.150332 -0.135905 96 250 196
-0.0227168 -0.487168 0.169538 96 250 196
0.134479 -0.444784 -0.137348 96 250 196
-0.0430448 -0.342815 0.144463 96 250 196
-0.0230667 -0.487151 0.11379 96 250 196
0.17365 -0.481834 -0.143535 96 250 196
-0.0837163 -0.476089 0.227314 96 250 196
0.130009 -0.486811 -0.00684327 96 250 196
-0.048814 -0.402618 0.104411 96 250 196
0.172547 -0.486962 -0.0808476 96 250 196
-0.0487423 -0.427594 0.145192 96 250 196
-0.0531647 -0.31559 0.0146777 96 250 196
-0.0335412 -0.486979 0.151597 96 250 196
0.166462 -0.294761 -0.134103 96 250 196
0.104032 -0.447573 0.197927 96 250 196
0.143913 -0.190505 -0.135639 96 250 196
-0.0590263 -0.310885 -0.0437753 96 250 196
-0.0394846 -0.389073 0.27007 96 250 196
-0.0325143 -0.399354 -0.125959 96 250 196
-0.0108078 -0.486956 -0.0452897 96 250 196
0.255354 -0.368663 -0.142853 96 250 196
0.278001 -0.313242 -0.144179 96 250 196
-0.0462237 -0.460282 0.229266 96 250 196
0.214417 -0.443326 -0.0362272 96 250 196
0.11209 -0.458296 -0.13758 96 250 196
0.121321 -0.48205 0.0466391 96 250 196
0.120334 -0.156128 -0.136586 96 250 196
-0.0516575 -0.353392 0.000816788 96 250 196
-0.0587694 -0.348784 -0.079458 96 250 196
0.0243866 -0.486903 0.319902 96 250 196
-0.0173533 -0.413849 0.382247 96 250 196
0.107073 -0.446061 0.187449 96 250 196
0.0569614 -0.479156 0.280255 96 250 196
0.280366 -0.43399 -0.148941 96 250 196
0.0256584 -0.487143 -0.0268424 96 250 196
0.0418832 -0.487164 0.0146461 96 250 196
0.0662655 -0.405124 -0.133449 96 250 196
-0.0295635 -0.486997 0.350322 96 250 196
-0.0589737 -0.322616 -0.0620257 96 250 196
0.253163 -0.434967 0.185237 128 254 179
0.286341 -0.415436 0.214062 128 254 179
0.120759 -0.488143 0.0206041 128 254 179
0.190966 -0.475503 -0.118551 128 254 179
0.423251 -0.36972 0.194078 128 254 179
0.463975 -0.351551 0.197631 128 254 179
0.270382 -0.386391 0.295711 128 254 179
-0.0393455 -0.336781 0.312518 128 254 179
-0.0325662 -0.464146 0.218383 128 254 179
0.415399 -0.369754 0.226276 128 254 179
0.400617 -0.409237 -0.0459358 128 254 179
0.471658 -0.346607 0.144292 128 254 179
0.469137 -0.337686 0.0591574 128 254 179
0.0968509 -0.489291 0.276655 128 254 179
0.463222 -0.3557 0.159811 128 254 179
0.343133 -0.402273 0.143142 128 254 179
0.320624 -0.393473 0.278885 128 254 179
0.166687 -0.480745 -0.0648602 128 254 179
0.214467 -0.375602 0.29671 128 254 179
-0.0191719 -0.488913 0.260756 128 254 179
0.200689 -0.367615 0.295002 128 254 179
0.0953296 -0.485661 0.331698 128 254 179
0.107231 -0.426304 0.331124 128 254 179
0.389572 -0.390378 0.121866 128 254 179
0.310752 -0.345539 0.259556 128 254 179
0.32398 -0.402221 0.221854 128 254 179
0.0965393 -0.45575 0.336132 128 254 179
0.433779 -0.367767 0.176367 128 254 179
0.450387 -0.354309 0.218059 128 254 179
0.365915 -0.361263 0.27107 128 254 179
0.424047 -0.392225 0.031822 128 254 179
0.0300018 -0.489606 0.0232818 128 254 179
-0.0356603 -0.402774 0.236449 128 254 179
0.150161 -0.484815 -0.0476038 128 254 179
0.0452544 -0.489788 0.273272 128 254 179
0.288055 -0.365611 0.28287 128 254 179
0.00938269 -0.48946 0.0422044 128 254 179
0.466417 -0.359492 0.106038 128 254 179
0.334808 -0.392046 0.273494 128 254 179
0.128582 -0.482986 0.0955571 128 254 179
0.216156 -0.430756 0.294554 128 254 179
0.135617 -0.468004 0.315561 128 254 179
0.433783 -0.356618 0.238939 128 254 179
0.0831595 -0.489455 0.279604 128 254 179
0.084182 -0.481561 0.339685 128 254 179
0.377718 -0.385349 0.202588 128 254 179
0.242616 -0.4111 0.298552 128 254 179
0.316821 -0.405102 0.240105 128 254 179
0.342987 -0.43301 0.000601567 128 254 179
0.0806402 -0.489319 0.332133 128 254 179
0.320855 -0.418629 0.0895153 128 254 179
0.333636 -0.399267 0.204458 128 254 179
-0.0333398 -0.423375 0.204722 128 254 179
0.267759 -0.453384 0.0179122 128 254 179
0.22669 -0.380502 0.297581 128 254 179
0.214599 -0.454376 0.0895014 128 254 179
0.226344 -0.444388 0.177595 128 254 179
0.307365 -0.377331 0.286504 128 254 179
0.412403 -0.399503 0.0139504 128 254 179
0.197797 -0.454832 0.195966 128 254 179
0.471311 -0.349269 0.153933 128 254 179
-0.00325738 -0.489847 0.358968 128 254 179
0.213532 -0.355489 0.286083 128 254 179
0.263513 -0.441014 0.0818018 128 254 179
0.204943 -0.466171 0.030929 128 254 179
0.172196 -0.378254 0.308196 128 254 179
-0.0379243 -0.439185 0.107884 128 254 179
0.460367 -0.371709 0.052362 128 254 179
0.464579 -0.358499 0.129239 128 254 179
0.471411 -0.347993 0.130751 128 254 179
0.448065 -0.354879 0.220894 128 254 179
0.470772 -0.34249 0.11315 128 254 179
0.393983 -0.387851 0.133332 128 254 179
0.36038 -0.400166 0.114051 128 254 179
0.133404 -0.478415 0.138789 128 254 179
0.339847 -0.382386 0.278636 128 254 179
0.300105 -0.425211 0.110918 128 254 179
0.400281 -0.378663 0.191823 128 254 179
0.415346 -0.370962 0.212294 128 254 179
0.473012 -0.341777 0.0622193 128 254 179
0.214892 -0.351877 0.282153 128 254 179
0.225927 -0.472292 -0.119971 128 254 179
0.449692 -0.377398 0.0271691 128 254 179
0.353115 -0.391681 0.252993 128 254 179
0.47173 -0.340851 0.0728714 128 254 179
0.441969 -0.367576 0.14651 128 254 179
0.262649 -0.424125 0.270752 128 254 179
0.337918 -0.403151 0.150301 128 254 179
0.0842756 -0.489114 0.160662 128 254 179
0.147494 -0.441846 0.314942 128 254 179
0.400875 -0.373453 0.247295 128 254 179
0.164968 -0.471649 0.0825351 128 254 179
0.453161 -0.373747 0.0668806 128 254 179
0.252434 -0.42902 0.241708 128 254 179
0.196193 -0.345361 0.278465 128 254 179
0.117465 -0.484131 -0.0988088 128 254 179
0.0674342 -0.489137 -0.0833689 128 254 179
0.470333 -0.338057 0.0507496 128 254 179
0.144178 -0.48557 -0.00989016 128 254 179
0.366991 -0.388302 0.242268 128 254 179
0.0485248 -0.489347 0.342485 128 254 179
0.203089 -0.455268 0.137234 128 254 179
0.465988 -0.364254 0.0870022 128 254 179
-0.000209797 -0.48952 0.326015 128 254 179
0.412023 -0.359937 0.254114 128 254 179
0.0855593 -0.488823 0.104863 128 254 179
0.238166 -0.440199 0.182657 128 254 179
0.182097 -0.412723 0.314944 128 254 179
0.441855 -0.382196 0.0240265 128 254 179
0.156502 -0.448652 0.311308 128 254 179
0.278943 -0.418851 0.211856 128 254 179
0.404569 -0.374638 0.22238 128 254 179
0.39054 -0.367172 0.263911 128 254 179
0.258131 -0.444587 0.0713023 128 254 179
0.312578 -0.449022 -0.100889 128 254 179
0.365064 -0.389488 0.225451 128 254 179
-0.000820599 -0.489307 0.298733 128 254 179
0.472398 -0.342109 0.0658498 128 254 179
0.0194823 -0.489167 -0.02352 128 254 179
0.0327341 -0.489731 0.221532 128 254 179
0.123908 -0.428882 0.324538 128 254 179
0.0455721 -0.489516 0.332193 128 254 179
0.0324407 -0.485799 0.366747 128 254 179
0.473284 -0.338231 0.0403546 128 254 179
-0.0378873 -0.399218 0.334812 128 254 179
0.311015 -0.409169 0.181293 128 254 179
0.0413741 -0.489648 0.319098 128 254 179
0.293829 -0.407611 0.278905 128 254 179
0.362527 -0.38991 0.19053 128 254 179
0.0466558 -0.475478 -0.162708 128 254 179
-0.0322723 -0.477553 0.202558 128 254 179
-0.00142785 -0.489003 0.113127 128 254 179
0.37607 -0.421705 -0.0266155 128 254 179
0.306509 -0.407567 0.226437 128 254 179
0.206755 -0.450713 0.192697 128 254 179
0.078094 -0.489447 0.31107 128 254 179
-0.0335093 -0.448206 0.231664 128 254 179
0.11693 -0.423855 0.327684 128 254 179
0.251745 -0.434247 0.206809 128 254 179
0.210772 -0.467239 0.00206697 128 254 179
0.395135 -0.37981 0.200916 128 254 179
0.198477 -0.462796 0.0624408 128 254 179
0.355975 -0.389787 0.259983 128 254 179
0.322807 -0.43951 0.00765306 128 254 179
0.418325 -0.397658 -0.0124902 128 254 179
0.397866 -0.384325 0.152118 128 254 179
0.231928 -0.348851 0.276755 128 254 179
0.224012 -0.458854 0.0455438 128 254 179
0.349033 -0.395356 0.170233 128 254 179
0.299725 -0.3968 0.285693 128 254 179
0.46713 -0.350954 0.187303 128 254 179
-0.010638 -0.48885 0.118226 128 254 179
0.021545 -0.48986 0.364769 128 254 179
0.402585 -0.375766 0.216313 128 254 179
-0.035804 -0.485278 0.356514 128 254 179
0.160336 -0.470876 0.115572 128 254 179
0.47183 -0.344632 0.0979857 128 254 179
0.389259 -0.386083 0.158152 128 254 179
0.240827 -0.341095 0.267141 128 254 179
0.462607 -0.352189 0.199274 128 254 179
0.464226 -0.335686 0.0716766 128 254 179
0.287494 -0.428481 0.123612 128 254 179
0.0630566 -0.489818 0.254361 128 254 179
0.253893 -0.440895 0.106617 128 254 179
0.438558 -0.35357 0.226277 128 254 179
0.290825 -0.456305 -0.121176 128 254 179
0.110703 -0.460147 0.32866 128 254 179
0.46743 -0.339167 0.0914834 128 254 179
0.0606026 -0.489892 0.218962 128 254 179
0.190076 -0.38158 0.30618 128 254 179
0.428951 -0.363593 0.229414 128 254 179
-0.0148699 -0.488939 0.219624 128 254 179
0.435131 -0.361337 0.225315 128 254 179
0.201382 -0.456115 0.134442 128 254 179
0.148342 -0.475609 0.277851 128 254 179
0.125997 -0.480303 0.312654 128 254 179
-0.016309 -0.488976 0.274769 128 254 179
-0.0318972 -0.486764 0.178643 128 254 179
-0.0123165 -0.480088 0.00040321 128 254 179
-0.00943628 -0.489209 0.313084 128 254 179
-0.0252863 -0.456757 0.0312468 128 254 179
0.241743 -0.450592 0.0639551 128 254 179
0.00687884 -0.489546 0.308797 128 254 179
0.284564 -0.410403 0.28091 128 254 179
0.100464 -0.489007 0.30713 128 254 179
-0.0382653 -0.368305 0.299359 128 254 179
0.374617 -0.395264 0.117886 128 254 179
0.30907 -0.401781 0.276973 128 254 179
0.351986 -0.393479 0.24462 128 254 179
0.458687 -0.352087 0.205864 128 254 179
-0.0100312 -0.483293 -0.00400805 128 254 179
0.324916 -0.402179 0.251654 128 254 179
0.472585 -0.346501 0.133384 128 254 179
0.343047 -0.417096 0.0564149 128 254 179
0.471141 -0.346272 0.106041 128 254 179
0.122634 -0.482137 0.307562 128 254 179
0.357756 -0.359613 0.269554 128 254 179
0.0351981 -0.489616 0.157582 128 254 179
0.336436 -0.429054 0.0278412 128 254 179
0.154058 -0.418907 0.319607 128 254 179
0.469207 -0.359471 0.0317999 128 254 179
0.367926 -0.427776 -0.074456 128 254 179
0.123127 -0.482793 0.260279 128 254 179
0.356507 -0.429401 -0.0305024 128 254 179
0.157549 -0.476699 -0.149832 128 254 179
0.468865 -0.350877 0.17167 128 254 179
0.452295 -0.356567 0.200326 128 254 179
0.00777574 -0.489818 0.346882 128 254 179
0.145854 -0.419158 0.321534 128 254 179
0.108378 -0.488336 -0.0661692 128 254 179
0.332933 -0.438295 -0.00833687 128 254 179
0.269237 -0.463426 -0.141537 128 254 179
0.316719 -0.428809 0.0560201 128 254 179
0.471769 -0.340267 0.0672696 128 254 179
0.238329 -0.438968 0.216307 128 254 179
0.0872471 -0.448335 0.340372 128 254 179
0.306976 -0.382057 0.287501 128 254 179
0.160944 -0.468575 0.192648 128 254 179
0.0358625 -0.48966 0.168502 128 254 179
0.144625 -0.476612 0.263778 128 254 179
0.178719 -0.464174 0.252421 128 254 179
0.13885 -0.480659 0.0832994 128 254 179
0.0941057 -0.479572 -0.13719 128 254 179
0.111553 -0.462993 0.327935 128 254 179
0.360227 -0.408353 0.0628379 128 254 179
0.171127 -0.467958 0.284107 128 254 179
0.362929 -0.382425 0.268953 128 254 179
0.470958 -0.348685 0.162709 128 254 179
0.369666 -0.35463 0.260524 128 254 179
0.196973 -0.455131 0.205684 128 254 179
0.388692 -0.4136 -0.0102793 128 254 179
0.472862 -0.34563 0.126658 128 254 179
0.0245299 -0.489666 0.338484 128 254 179
0.1971 -0.476585 -0.124059 128 254 179
0.340856 -0.349088 0.259442 128 254 179
0.120735 -0.481426 0.220932 128 254 179
0.0167406 -0.49 0.369783 128 254 179
0.466568 -0.3568 0.12338 128 254 179
0.195178 -0.350714 0.284038 128 254 179
0.263367 -0.405148 0.29391 128 254 179
0.00435607 -0.49009 0.376228 128 254 179
0.462493 -0.332953 0.053973 128 254 179
0.0234861 -0.489636 0.349381 128 254 179
0.181186 -0.464126 0.111726 128 254 179
0.175637 -0.475686 0.0252226 128 254 179
0.260959 -0.418619 0.285369 128 254 179
0.440216 -0.376703 0.0849179 128 254 179
0.383971 -0.399586 0.0641637 128 254 179
0.279664 -0.42775 0.15279 128 254 179
0.0861276 -0.488974 -0.0478428 128 254 179
0.0217667 -0.489335 0.113056 128 254 179
-0.039942 -0.430681 0.073277 128 254 179
0.465536 -0.337966 0.0909458 128 254 179
0.250831 -0.435781 0.184801 128 254 179
-0.0287649 -0.459095 0.0563568 128 254 179
0.440265 -0.356272 0.231488 128 254 179
0.415611 -0.375213 0.175437 128 254 179
-0.0412704 -0.429972 0.0928079 128 254 179
0.351243 -0.433123 -0.0457111 128 254 179
0.230488 -0.4442 0.156842 128 254 179
-0.0137025 -0.488689 0.140652 128 254 179
0.172945 -0.46616 0.132656 128 254 179
0.447921 -0.34728 0.191225 128 254 179
0.34018 -0.398082 0.237003 128 254 179
0.462654 -0.350526 0.19253 128 254 179
-0.0330335 -0.429604 0.20183 128 254 179
0.278178 -0.457632 -0.0604801 128 254 179
0.254127 -0.404712 0.29737 128 254 179
0.315431 -0.446347 -0.0382808 128 254 179
-0.0111664 -0.489468 0.341101 128 254 179
0.0540149 -0.489853 0.235192 128 254 179
0.317879 -0.413756 0.141247 128 254 179
0.250893 -0.431019 0.231706 128 254 179
-0.0302694 -0.488689 0.23616 128 254 179
0.450358 -0.364481 0.138428 128 254 179
0.464589 -0.352079 0.189538 128 254 179
0.195968 -0.455507 0.218993 128 254 179
0.10768 -0.486977 0.256664 128 254 179
0.315674 -0.447776 -0.0855116 128 254 179
-0.0332109 -0.408147 0.182946 128 254 179
0.35609 -0.395811 0.156606 128 254 179
0.408822 -0.404268 -0.0369537 128 254 179
-0.0340678 -0.441126 0.23889 128 254 179
0.00367613 -0.489826 0.346984 128 254 179
0.34467 -0.398104 0.162608 128 254 179
0.207315 -0.453108 0.25903 128 254 179
0.000761188 -0.479396 -0.0495555 128 254 179
0.0106911 -0.489452 0.280112 128 254 179
0.465184 -0.351919 0.192033 128 254 179
0.267299 -0.44211 0.0684211 128 254 179
0.243605 -0.466707 -0.114331 128 254 179
0.060499 -0.482952 0.350949 128 254 179
0.0920925 -0.488923 -0.0872125 128 254 179
0.305723 -0.417248 0.154121 128 254 179
0.0580723 -0.489537 0.315412 128 254 179
0.111823 -0.485856 0.294046 128 254 179
0.453672 -0.356877 0.195797 128 254 179
-0.0140094 -0.488958 0.213489 128 254 179
0.37888 -0.385167 0.198046 128 254 179
0.117065 -0.484963 0.116656 128 254 179
0.119983 -0.483807 0.262136 128 254 179
0.155388 -0.472952 0.259469 128 254 179
-0.0146697 -0.489679 0.364833 128 254 179
0.42106 -0.363905 0.243643 128 254 179
-0.0123783 -0.489136 0.312831 128 254 179
0.298919 -0.43308 0.0592087 128 254 179
0.437322 -0.358052 0.229621 128 254 179
0.443723 -0.35491 0.225217 128 254 179
0.328309 -0.387361 0.280689 128 254 179
-0.00901195 -0.489159 0.0430056 128 254 179
0.211145 -0.347772 0.278547 128 254 179
0.0057975 -0.489441 0.295496 128 254 179
0.120167 -0.487918 -0.0402163 128 254 179
-0.0395992 -0.33632 0.319408 128 254 179
0.318293 -0.366699 0.278428 128 254 179
-0.0317451 -0.477166 0.257027 128 254 179
0.102717 -0.488782 0.0528032 128 254 179
0.315979 -0.371867 0.281868 128 254 179
0.19963 -0.476737 -0.12701 128 254 179
0.0281194 -0.489632 0.207966 128 254 179
0.312124 -0.407357 0.192645 128 254 179
0.269078 -0.383407 0.295103 128 254 179
0.182807 -0.426502 0.308716 128 254 179
0.00164546 -0.489405 0.305066 128 254 179
0.162528 -0.405422 0.320462 128 254 179
0.31183 -0.392098 0.283885 128 254 179
0.321865 -0.40188 0.262552 128 254 179
0.470958 -0.339078 0.0621151 128 254 179
0.244536 -0.434392 0.237648 128 254 179
0.368015 -0.391516 0.162839 128 254 179
0.301167 -0.451678 -0.0490201 128 254 179
0.31027 -0.356123 0.270553 128 254 179
0.359853 -0.344058 0.248301 128 254 179
0.113408 -0.487044 0.100421 128 254 179
0.435729 -0.385436 0.0407699 128 254 179
0.19859 -0.45687 0.275423 128 254 179
0.22542 -0.338722 0.266798 128 254 179
0.192975 -0.457092 0.198709 128 254 179
0.432915 -0.365006 0.201788 128 254 179
0.155774 -0.48249 -0.0065148 128 254 179
0.22191 -0.448786 0.137595 128 254 179
0.399561 -0.391915 0.0794891 128 254 179
0.0625305 -0.487454 -0.0799359 128 254 179
0.114611 -0.45356 0.327584 128 254 179
-0.0332992 -0.460728 0.281271 128 254 179
0.298739 -0.414192 0.182988 128 254 179
0.415959 -0.393183 0.0442224 128 254 179
0.00723213 -0.489138 0.109345 128 254 179
0.216537 -0.446897 0.201333 128 254 179
0.338143 -0.35309 0.263602 128 254 179
0.301378 -0.453356 -0.131741 128 254 179
0.0578498 -0.487318 0.349735 128 254 179
-0.0370961 -0.40709 0.116761 128 254 179
0.2485 -0.347317 0.272519 128 254 179
0.146959 -0.479722 0.0691852 128 254 179
0.422667 -0.352398 0.231985 128 254 179
0.327318 -0.42652 0.048831 128 254 179
0.470978 -0.346598 0.0816917 128 254 179
0.114889 -0.420463 0.32909 128 254 179
-0.0348081 -0.393881 0.152431 128 254 179
0.472675 -0.348424 0.0598364 128 254 179
-0.0384981 -0.381573 0.321355 128 254 179
0.468298 -0.349017 0.170601 128 254 179
0.472502 -0.342751 0.101163 128 254 179
0.229823 -0.442789 0.190821 128 254 179
0.226631 -0.347444 0.275952 128 254 179
0.404524 -0.361492 0.257854 128 254 179
0.258946 -0.435459 0.142704 128 254 179
0.312246 -0.405875 0.258785 128 254 179
0.370382 -0.406501 0.0550533 128 254 179
0.10443 -0.488553 0.0691962 128 254 179
0.175031 -0.464535 0.146113 128 254 179
0.353541 -0.347733 0.254989 128 254 179
0.467151 -0.350848 0.186879 128 254 179
0.181312 -0.461948 0.189832 128 254 179
0.244793 -0.340317 0.265586 128 254 179
0.465138 -0.335823 0.0633065 128 254 179
0.460787 -0.352931 0.18849 128 254 179
0.300604 -0.406238 0.275873 128 254 179
0.469279 -0.349981 0.153508 128 254 179
0.472086 -0.34162 0.0656699 128 254 179
0.0472094 -0.489734 0.17519 128 254 179
0.442025 -0.355732 0.232933 128 254 179
0.438936 -0.350789 0.216478 128 254 179
-0.0013567 -0.489796 0.351432 128 254 179
-0.0161824 -0.488836 0.185478 128 254 179
0.373271 -0.386261 0.212842 128 254 179
0.364815 -0.382269 0.268213 128 254 179
0.465291 -0.368352 0.0654148 128 254 179
-0.023718 -0.488725 0.103939 128 254 179
0.345148 -0.408272 0.0907019 128 254 179
0.473191 -0.343045 0.0462974 128 254 179
0.359204 -0.395334 0.153884 128 254 179
-0.019964 -0.488881 0.245042 128 254 179
0.312284 -0.425241 0.0773585 128 254 179
0.13769 -0.476073 0.198607 128 254 179
0.238984 -0.46401 -0.0483454 128 254 179
0.0794924 -0.489308 0.321081 128 254 179
0.143895 -0.47597 0.116677 128 254 179
0.0499919 -0.489798 0.207741 128 254 179
-0.0339054 -0.463929 0.314109 128 254 179
0.205193 -0.471963 -0.0857257 128 254 179
0.185786 -0.366109 0.297408 128 254 179
0.310329 -0.423138 0.0916741 128 254 179
0.102711 -0.488637 -0.0199539 128 254 179
0.299418 -0.344599 0.259971 128 254 179
0.451846 -0.374233 0.0677723 128 254 179
0.108548 -0.486913 0.315891 128 254 179
0.458418 -0.352623 0.209366 128 254 179
0.391752 -0.346779 0.23739 128 254 179
0.249271 -0.450466 0.0529948 128 254 179
0.11447 -0.488321 -0.0041955 128 254 179
0.0346723 -0.489687 0.318727 128 254 179
0.432408 -0.380195 0.077473 128 254 179
0.390585 -0.411702 0.000576213 128 254 179
0.113296 -0.487818 0.0852495 128 254 179
0.357166 -0.430212 -0.0447634 128 254 179
0.275153 -0.365215 0.284441 128 254 179
0.318398 -0.427007 0.0595702 128 254 179
0.147244 -0.477131 0.0884959 128 254 179
0.133042 -0.48159 0.0940992 128 254 179
0.0531213 -0.489679 0.158356 128 254 179
-0.00177958 -0.489174 0.210292 128 254 179
0.00400885 -0.489081 0.164136 128 254 179
0.143955 -0.431546 0.31806 128 254 179
0.124201 -0.481438 0.142803 128 254 179
0.183044 -0.464385 0.0893796 128 254 179
0.0410209 -0.478038 -0.141784 128 254 179
0.0533797 -0.48978 0.199489 128 254 179
0.391216 -0.411006 0.00495013 128 254 179
0.360868 -0.418498 0.0252708 128 254 179
0.426971 -0.385692 0.0596961 128 254 179
0.254277 -0.370233 0.288735 128 254 179
0.416396 -0.377336 0.156925 128 254 179
0.381863 -0.358192 0.264406 128 254 179
0.284752 -0.392538 0.291489 128 254 179
0.121686 -0.488085 -0.102397 128 254 179
0.0415366 -0.489808 0.261949 128 254 179
0.365826 -0.389084 0.223292 128 254 179
-0.0185289 -0.489178 0.328236 128 254 179
0.418371 -0.382508 0.100594 128 254 179
0.417273 -0.377733 0.149286 128 254 179
0.37555 -0.386335 0.191541 128 254 179
0.448555 -0.366597 0.128354 128 254 179
0.23434 -0.44165 0.178782 128 254 179
0.0358628 -0.489606 0.0851813 128 254 179
0.143631 -0.47611 0.300956 128 254 179
0.144178 -0.475525 0.240483 128 254 179
0.338914 -0.397637 0.248445 128 254 179
0.466735 -0.336073 0.0551457 128 254 179
0.41315 -0.380573 0.138042 128 254 179
0.353123 -0.417531 0.0409124 128 254 179
0.192882 -0.457724 0.168018 128 254 179
0.395834 -0.380227 0.189634 128 254 179
0.298008 -0.396451 0.286537 128 254 179
0.206286 -0.441208 0.290994 128 254 179
0.319738 -0.431384 0.0363009 128 254 179
0.0846053 -0.489339 -0.00380073 128 254 179
0.123752 -0.484359 0.0975755 128 254 179
0.222366 -0.464754 0.00412376 128 254 179
0.466426 -0.346281 0.150724 128 254 179
0.204653 -0.452948 0.248319 128 254 179
0.452078 -0.354612 0.210991 128 254 179
0.260026 -0.425921 0.252991 128 254 179
0.132099 -0.479948 0.254838 128 254 179
0.16152 -0.464933 0.302613 128 254 179
0.243486 -0.404759 0.301262 128 254 179
0.108847 -0.485386 0.18506 128 254 179
0.470445 -0.350219 0.168648 128 254 179
0.461128 -0.351976 0.204036 128 254 179
0.469125 -0.363549 0.0695743 128 254 179
0.212049 -0.447903 0.227037 128 254 179
0.175135 -0.466661 0.266367 128 254 179
0.31116 -0.378868 0.286635 128 254 179
0.311759 -0.427807 0.0677378 128 254 179
0.242974 -0.443005 0.120787 128 254 179
0.181201 -0.462586 0.241781 128 254 179
0.0723519 -0.489526 0.186976 128 254 179
0.381118 -0.384011 0.223263 128 254 179
0.42466 -0.36852 0.20029 128 254 179
-0.0356976 -0.401094 0.238151 128 254 179
0.426028 -0.390824 0.0354482 128 254 179
0.449291 -0.358766 0.196637 128 254 179
0.00960894 -0.489525 0.294815 128 254 179
0.230874 -0.335317 0.26223 128 254 179
0.469994 -0.356758 0.0791419 128 254 179
0.250475 -0.430516 0.239756 128 254 179
0.465355 -0.352762 0.161511 128 254 179
0.252118 -0.424283 0.281531 128 254 179
0.0748715 -0.489683 0.264507 128 254 179
0.245611 -0.41999 0.290959 128 254 179
0.025155 -0.489765 0.289257 128 254 179
0.342404 -0.386804 0.274612 128 254 179
0.0780387 -0.489475 0.308691 128 254 179
0.47332 -0.338915 0.040515 128 254 179
0.343255 -0.406132 0.115764 128 254 179
0.436037 -0.383117 0.0562228 128 254 179
0.0910323 -0.489277 0.278625 128 254 179
0.0127836 -0.489484 0.278107 128 254 179
0.399294 -0.376844 0.220874 128 254 179
0.210133 -0.425491 0.300528 128 254 179
0.302694 -0.411824 0.18656 128 254 179
0.471979 -0.341091 0.0752075 128 254 179
0.470611 -0.345791 0.140215 128 254 179
0.327196 -0.417179 0.0837988 128 254 179
0.27634 -0.425227 0.17589 128 254 179
0.287251 -0.415583 0.247571 128 254 179
0.393721 -0.383429 0.168763 128 254 179
0.336559 -0.412912 0.0849523 128 254 179
0.20375 -0.398834 0.311349 128 254 179
0.24727 -0.379292 0.294486 128 254 179
0.156901 -0.471808 0.247857 128 254 179
-0.0357362 -0.11551 0.319072 160 249 161
-0.0359598 -0.268181 0.00772781 160 249 161
-0.0349399 -0.461926 -0.0556757 160 249 161
-0.0391883 -0.303012 0.328016 160 249 161
-0.0367772 -0.383039 0.00665187 160 249 161
-0.0323005 -0.0852369 0.0706245 160 249 161
-0.0427049 -0.329817 0.210254 160 249 161
-0.0409951 -0.299427 0.260493 160 249 161
-0.0321839 -0.0693648 0.0737953 160 249 161
-0.0381115 -0.438859 0.0836696 160 249 161
-0.0354828 -0.281637 0.0996718 160 249 161
-0.03498 -0.221242 -0.087572 160 249 161
-0.0349982 -0.234197 0.022662 160 249 161
-0.0344717 -0.0670478 0.312758 160 249 161
-0.0357886 -0.333665 0.0328231 160 249 161
-0.0358979 -0.281268 -0.0752054 160 249 161
-0.0310795 -0.0123503 0.0446231 160 249 161
-0.0312231 -0.0788544 -0.0549541 160 249 161
-0.0367591 -0.369603 -0.084333 160 249 161
-0.0324116 -0.125262 0.108599 160 249 161
-0.0427044 -0.457091 0.249352 160 249 161
-0.0380086 -0.420349 -0.088204 160 249 161
-0.036548 -0.196733 0.310187 160 249 161
-0.0373656 -0.423571 -0.080324 160 249 161
-0.0301189 -0.00510295 0.138103 160 249 161
-0.0426819 -0.461712 0.233299 160 249 161
-0.0333891 -0.0785121 0.131295 160 249 161
-0.0405863 -0.410821 0.15339 160 249 161
-0.0428423 -0.426573 0.277129 160 249 161
-0.0302632 -0.016423 -0.048616 160 249 161
-0.0352369 -0.1851 0.0160475 160 249 161
-0.0395606 -0.432039 0.112966 160 249 161
-0.0425803 -0.406139 0.348475 160 249 161
-0.0408177 -0.312296 0.160581 160 249 161
-0.0417951 -0.315123 0.188882 160 249 161
-0.0358912 -0.361011 0.0588687 160 249 161
-0.0363419 -0.388988 -0.0219739 160 249 161
-0.0299752 0.0114129 0.0549656 160 249 161
-0.0354626 -0.307456 -0.0970278 160 249 161
-0.0367995 -0.402938 -0.0849029 160 249 161
-0.0300726 -0.0934736 -0.101919 160 249 161
-0.0418947 -0.431781 0.181299 160 249 161
-0.0375362 -0.201395 0.245963 160 249 161
-0.0365289 -0.378132 -0.0450215 160 249 161
-0.039215 -0.240661 0.156472 160 249 161
-0.036823 -0.367574 -0.0449996 160 249 161
-0.0358689 -0.379299 0.0360537 160 249 161
-0.0412 -0.336737 0.3358 160 249 161
-0.0325713 -0.117556 0.11206 160 249 161
-0.0335804 -0.111563 -0.00375046 160 249 161
-0.0349803 -0.230401 0.0231893 160 249 161
-0.0305184 0.0232786 -0.00621266 160 249 161
-0.0371126 -0.33662 0.012432 160 249 161
-0.0304644 -0.0920044 -0.0949176 160 249 161
-0.042423 -0.446273 0.313419 160 249 161
-0.0284578 -0.0257047 -0.0771377 160 249 161
-0.0334015 -0.476172 0.135924 160 249 161
-0.0412416 -0.336548 0.310336 160 249 161
-0.0304403 -0.00165355 0.120955 160 249 161
-0.0311539 -0.0724005 -0.0512705 160 249 161
-0.0383944 -0.279035 0.134051 160 249 161
-0.0372889 -0.461002 0.108085 160 249 161
-0.0292586 -0.0617185 -0.093946 160 249 161
-0.0316197 -0.106335 -0.0817678 160 249 161
-0.0286361 -0.00715041 -0.0713427 160 249 161
-0.0328605 -0.0524249 0.145054 160 249 161
-0.0334173 -0.114311 -0.0416192 160 249 161
-0.0384497 -0.228528 0.229172 160 249 161
-0.0372542 -0.224506 0.298324 160 249 161
-0.0364734 -0.190165 0.309273 160 249 161
-0.0399552 -0.275421 0.25915 160 249 161
-0.0402156 -0.247772 0.182383 160 249 161
-0.0351826 -0.267321 -0.0946336 160 249 161
-0.0392447 -0.299895 0.318475 160 249 161
-0.0369574 -0.345605 0.0899931 160 249 161
-0.042638 -0.413499 0.324937 160 249 161
-0.0340262 -0.128161 -0.0455355 160 249 161
-0.0291908 -0.0564829 -0.0820131 160 249 161
-0.0318293 -0.0503248 0.0863425 160 249 161
-0.0390407 -0.27504 0.29015 160 249 161
-0.0404955 -0.251367 0.19064 160 249 161
-0.04148 -0.340697 0.300682 160 249 161
-0.0389485 -0.277839 0.297717 160 249 161
-0.0419035 -0.360062 0.233699 160 249 161
-0.0361122 -0.373903 0.0570743 160 249 161
-0.0325235 -0.0896067 0.0420491 160 249 161
-0.0311551 -0.478549 0.0597093 160 249 161
-0.0381785 -0.35891 0.11644 160 249 161
-0.0373587 -0.231322 0.304109 160 249 161
-0.0379295 -0.44859 0.0857572 160 249 161
-0.0296899 -0.0279032 -0.0534167 160 249 161
-0.0421842 -0.457067 0.316515 160 249 161
-0.0391979 -0.286764 0.302299 160 249 161
-0.0371693 -0.269232 -0.0365108 160 249 161
-0.0362497 -0.193996 0.330683 160 249 161
-0.032759 -0.0658365 0.12631 160 249 161
-0.0341072 -0.0808479 0.162469 160 249 161
-0.0353179 -0.173444 -0.0458079 160 249 161
-0.038362 -0.27432 0.316662 160 249 161
-0.0342115 -0.129757 0.0251397 160 249 161
-0.0305407 -0.00883979 0.107438 160 249 161
-0.0348932 -0.43196 0.0139227 160 249 161
-0.0360267 -0.385384 -0.0357597 160 249 161
-0.0407278 -0.329871 0.30235 160 249 161
-0.0354076 -0.451663 -0.0549134 160 249 161
-0.0344658 -0.0915014 0.161453 160 249 161
-0.0375868 -0.235245 0.296602 160 249 161
-0.042141 -0.438786 0.185659 160 249 161
-0.0284921 -0.00625173 -0.079382 160 249 161
-0.0367114 -0.399242 -0.0702711 160 249 161
-0.0376611 -0.20149 0.239588 160 249 161
-0.0278313 -0.478877 0.11347 160 249 161
-0.0352334 -0.347542 0.0465237 160 249 161
-0.0427536 -0.394541 0.338997 160 249 161
-0.0375639 -0.162797 0.20057 160 249 161
-0.0346355 -0.099877 0.200798 160 249 161
-0.0317727 -0.0599718 -0.0112166 160 249 161
-0.0398945 -0.242481 0.172555 160 249 161
-0.0315485 -0.105796 -0.0804029 160 249 161
-0.0365066 -0.350922 -0.0681814 160 249 161
-0.0344584 -0.453056 0.00102962 160 249 161
-0.0341947 -0.162636 0.0315792 160 249 161
-0.0342988 -0.259347 0.100075 160 249 161
-0.0352584 -0.236797 -0.0861493 160 249 161
-0.0365449 -0.210662 -0.0412624 160 249 161
-0.0414514 -0.331277 0.184743 160 249 161
-0.036179 -0.159304 0.253494 160 249 161
-0.0417525 -0.307149 0.188181 160 249 161
-0.0314551 -0.107394 -0.0898111 160 249 161
-0.0353493 -0.428513 -0.0109779 160 249 161
-0.028372 -0.0343188 -0.0861379 160 249 161
0.013496 -0.484483 -0.00389127 160 249 161
-0.041611 -0.468016 0.208442 160 249 161
-0.0361171 -0.337201 0.0784803 160 249 161
-0.0305868 0.00399516 -0.0442012 160 249 161
-0.0338388 -0.132405 -0.0284762 160 249 161
-0.0388834 -0.291676 0.319516 160 249 161
-0.031541 -0.076684 -0.0460853 160 249 161
-0.0303633 0.0296202 -0.0369328 160 249 161
-0.0357346 -0.409416 -0.00318378 160 249 161
-0.0374354 -0.390381 0.0916169 160 249 161
-0.0301939 -0.00528503 0.156007 160 249 161
-0.0419418 -0.450849 0.154214 160 249 161
-0.0300828 -0.00215444 0.132368 160 249 161
-0.0386965 -0.304109 0.129122 160 249 161
-0.034682 -0.298549 0.0774033 160 249 161
0.00727249 -0.484859 0.0138378 160 249 161
-0.0377752 -0.46749 0.13838 160 249 161
-0.0363648 -0.179232 0.298129 160 249 161
-0.0352956 -0.468663 0.0969794 160 249 161
-0.0376474 -0.385276 0.102044 160 249 161
-0.0316116 -0.0248539 0.0310837 160 249 161
-0.0395715 -0.374145 0.151453 160 249 161
-0.0383371 -0.231901 0.257769 160 249 161
-0.028555 -0.0201978 -0.088213 160 249 161
-0.0334837 -0.0699753 0.199483 160 249 161
-0.0413905 -0.466898 0.194786 160 249 161
-0.0388012 -0.231515 0.219343 160 249 161
-0.0301782 -0.00246155 0.0645433 160 249 161
-0.0356934 -0.119757 0.316719 160 249 161
-0.0347466 -0.300301 0.0774809 160 249 161
-0.021444 -0.480818 0.109343 160 249 161
-0.0358448 -0.244053 0.11961 160 249 161
-0.0372544 -0.381727 0.0906052 160 249 161
-0.0401881 -0.297501 0.286945 160 249 161
-0.0391303 -0.435785 0.102117 160 249 161
0.00705492 -0.485339 0.0431088 160 249 161
-0.0324184 -0.0853195 0.0913829 160 249 161
-0.0424883 -0.397429 0.297049 160 249 161
-0.0373183 -0.342319 -0.0316332 160 249 161
-0.030366 0.0323401 -0.0373839 160 249 161
-0.0360696 -0.393388 -0.0227898 160 249 161
-0.0316349 -0.0242203 0.0371673 160 249 161
-0.034266 -0.0529138 0.31627 160 249 161
-0.0338785 -0.0859551 0.146864 160 249 161
-0.0410854 -0.316244 0.169315 160 249 161
-0.0418907 -0.384675 0.253066 160 249 161
-0.0309859 -0.0201346 0.0823933 160 249 161
-0.0288309 0.014247 -0.0685646 160 249 161
-0.0313034 -0.022772 0.154071 160 249 161
-0.0354075 -0.137631 0.242873 160 249 161
-0.0360566 -0.278185 -0.0681461 160 249 161
-0.0316676 -0.0538387 -0.00378227 160 249 161
-0.0238816 -0.481001 0.0729423 160 249 161
-0.0353753 -0.210018 0.0162159 160 249 161
-0.036432 -0.268478 -0.0576148 160 249 161
-0.037175 -0.295237 -0.000498868 160 249 161
-0.0375364 -0.248815 0.315678 160 249 161
-0.0422152 -0.436329 0.353745 160 249 161
-0.0311875 -0.0149737 0.186154 160 249 161
-0.0385944 -0.26458 0.290782 160 249 161
-0.0316257 -0.0349662 0.212856 160 249 161
-0.0346934 -0.283762 0.030655 160 249 161
-0.036533 -0.169584 0.252071 160 249 161
-0.0338073 -0.211985 0.0426763 160 249 161
-0.0424506 -0.429577 0.244706 160 249 161
-0.0360373 -0.394401 0.0147087 160 249 161
-0.0317289 -0.0481495 0.0530636 160 249 161
-0.0345876 -0.234805 0.112644 160 249 161
-0.0374957 -0.262363 0.331299 160 249 161
-0.0355762 -0.229807 0.00125575 160 249 161
-0.0369779 -0.378183 0.0859869 160 249 161
-0.0334139 -0.467668 -0.0135318 160 249 161
-0.0402723 -0.374398 0.175762 160 249 161
-0.0407166 -0.380831 0.226534 160 249 161
-0.0324871 -0.0810557 0.099272 160 249 161
-0.0345925 -0.0926842 0.296411 160 249 161
-0.0317905 -0.174647 0.10323 160 249 161
-0.0345562 -0.177043 0.0286428 160 249 161
-0.0344259 -0.463564 0.0229902 160 249 161
-0.0354263 -0.218128 0.00176283 160 249 161
-0.0359281 -0.194953 -0.0296278 160 249 161
-0.0323818 -0.115922 -0.0659381 160 249 161
-0.0335915 -0.12292 -0.0128806 160 249 161
-0.0356177 -0.469036 0.113708 160 249 161
-0.0323217 -0.0927123 -0.043842 160 249 161
-0.0379941 -0.186064 0.214966 160 249 161
-0.0330526 -0.0657248 0.266666 160 249 161
-0.0371265 -0.296823 0.114428 160 249 161
-0.0415492 -0.308467 0.252911 160 249 161
-0.0285032 -0.00437224 -0.0760923 160 249 161
-0.0377263 -0.351189 -0.0204931 160 249 161
-0.0358941 -0.166226 0.297529 160 249 161
-0.0410266 -0.331666 0.293522 160 249 161
-0.0409749 -0.385055 0.230904 160 249 161
0.0214397 -0.48537 0.0173852 160 249 161
-0.0408384 -0.374194 0.223711 160 249 161
-0.0308385 -0.0943178 -0.0907185 160 249 161
-0.0425374 -0.433324 0.246528 160 249 161
-0.032775 -0.134397 0.113177 160 249 161
-0.0303509 0.0267445 -0.0164337 160 249 161
-0.0401771 -0.387106 0.170889 160 249 161
-0.0371148 -0.349556 -0.0315772 160 249 161
-0.0309506 -0.0581436 -0.0467214 160 249 161
-0.0428981 -0.396522 0.366849 160 249 161
-0.0374954 -0.380459 0.0964091 160 249 161
-0.0378646 -0.175901 0.201304 160 249 161
-0.0413021 -0.390807 0.23295 160 249 161
-0.0377248 -0.364169 0.105035 160 249 161
-0.0310218 -0.08418 -0.0631097 160 249 161
-0.0343386 -0.289515 0.0773168 160 249 161
-0.0353511 -0.458119 -0.0589617 160 249 161
-0.035979 -0.288028 -0.0741848 160 249 161
-0.0400312 -0.320681 0.347517 160 249 161
-0.0382299 -0.287356 0.347183 160 249 161
-0.0333005 -0.085793 0.245835 160 249 161
-0.0421913 -0.354675 0.244707 160 249 161
-0.0359551 -0.155446 0.328059 160 249 161
-0.0426906 -0.45997 0.246099 160 249 161
-0.0351884 -0.106598 0.18616 160 249 161
-0.0341703 -0.470106 0.0409683 160 249 161
-0.037315 -0.372644 -0.00447718 160 249 161
-0.0407761 -0.424448 0.143992 160 249 161
-0.0320191 -0.0546466 0.0472762 160 249 161
-0.0370711 -0.280554 -0.0453217 160 249 161
-0.0365731 -0.423989 0.0429485 160 249 161
-0.0362307 -0.195628 0.336439 160 249 161
-0.0363105 -0.392084 -0.0190233 160 249 161
-0.0319303 -0.0652644 0.0570902 160 249 161
-0.0359189 -0.324195 -0.09013 160 249 161
-0.0356918 -0.160665 0.296354 160 249 161
-0.0312001 -0.022783 0.116533 160 249 161
-0.0339506 -0.148049 0.0322042 160 249 161
-0.036625 -0.321913 -0.0688708 160 249 161
-0.0356742 -0.420832 -0.0107382 160 249 161
-0.0309897 -0.0857193 -0.064684 160 249 161
-0.0411739 -0.36637 0.215663 160 249 161
-0.034698 -0.467225 0.0562638 160 249 161
-0.0369717 -0.337313 -0.0644714 160 249 161
-0.0365455 -0.302876 -0.0629008 160 249 161
-0.0352299 -0.239672 0.116385 160 249 161
-0.0372462 -0.144242 0.180813 160 249 161
-0.034127 -0.138423 -0.00613197 160 249 161
-0.0366608 -0.203595 0.307422 160 249 161
-0.0307836 -0.187268 0.086098 160 249 161
-0.0394141 -0.306857 0.32535 160 249 161
-0.0332591 -0.0828388 0.235192 160 249 161
-0.0371444 -0.417702 -0.0825685 160 249 161
-0.0396579 -0.31559 0.338831 160 249 161
-0.0398304 -0.412935 0.137551 160 249 161
-0.0420361 -0.448385 0.348433 160 249 161
-0.0389675 -0.461447 0.132259 160 249 161
-0.032339 -0.0797879 0.0748892 160 249 161
-0.0372058 -0.269348 -0.0374448 160 249 161
-0.0400481 -0.3212 0.343872 160 249 161
-0.0315943 -0.0263062 0.0421645 160 249 161
-0.0410522 -0.280803 0.223976 160 249 161
-0.036887 -0.190171 0.145494 160 249 161
-0.0428724 -0.378166 0.355701 160 249 161
-0.0367875 -0.36036 -0.0311367 160 249 161
-0.0330152 -0.246341 0.0550339 160 249 161
-0.0306838 -0.0857693 -0.0739179 160 249 161
-0.0337885 -0.126549 -0.0339155 160 249 161
-0.0303317 0.0266094 -0.0450902 160 249 161
-0.0319196 -0.0523643 0.0494135 160 249 161
-0.0327231 -0.0410293 0.155724 160 249 161
-0.0336219 -0.27651 0.0571787 160 249 161
-0.032755 -0.246255 0.0861969 160 249 161
-0.0369303 -0.462445 0.094064 160 249 161
-0.0319324 -0.0645191 0.060701 160 249 161
-0.0342331 -0.0942585 0.21006 160 249 161
-0.0404797 -0.301341 0.280487 160 249 161
-0.0368547 -0.331696 0.0921552 160 249 161
-0.0362854 -0.392576 0.0523157 160 249 161
-0.0372551 -0.226539 0.301965 160 249 161
-0.032027 -0.115444 -0.0822186 160 249 161
-0.0365155 -0.134179 0.334885 160 249 161
-0.0335462 -0.463792 -0.0221292 160 249 161
-0.0345428 -0.0991198 0.141064 160 249 161
-0.0360093 -0.390881 0.035133 160 249 161
-0.0360965 -0.402174 0.0256906 160 249 161
-0.0380281 -0.404645 0.10226 160 249 161
-0.00311549 -0.483973 -0.00378837 160 249 161
-0.0297451 -0.0635292 -0.0723832 160 249 161
-0.0359362 -0.119544 0.186756 160 249 161
-0.0374558 -0.409245 -0.0906414 160 249 161
-0.0374065 -0.314514 0.105379 160 249 161
-0.0401371 -0.35571 0.166594 160 249 161
-0.0313579 -0.0543604 -0.0305417 160 249 161
-0.0344612 -0.131886 0.129628 160 249 161
-0.0359813 -0.40281 -0.000785714 160 249 161
-0.0309131 -0.0111724 0.0476699 160 249 161
-0.0430286 -0.328746 0.220585 160 249 161
-0.0336758 -0.0625197 0.168016 160 249 161
-0.036836 -0.237345 0.329184 160 249 161
-0.0364826 -0.21974 0.330777 160 249 161
-0.0364819 -0.407012 0.0393092 160 249 161
-0.039931 -0.242444 0.193939 160 249 161
-0.0388545 -0.285087 0.312756 160 249 161
-0.0420706 -0.302157 0.201981 160 249 161
-0.0315184 -0.054371 -0.0192056 160 249 161
-0.0374734 -0.361745 0.0981176 160 249 161
-0.0284248 -0.0116564 -0.0796065 160 249 161
-0.0343874 -0.448597 0.00550325 160 249 161
-0.0344383 -0.096828 0.290133 160 249 161
-0.0426941 -0.390904 0.311233 160 249 161
-0.0387238 -0.433776 0.0948073 160 249 161
-0.0337008 -0.0848118 0.131158 160 249 161
-0.0364991 -0.364277 0.0774756 160 249 161
-0.0426108 -0.319549 0.207192 160 249 161
-0.0329103 -0.473555 -0.0144575 160 249 161
-0.0367055 -0.132164 0.185928 160 249 161
-0.0398412 -0.310512 0.142531 160 249 161
-0.0337977 -0.463003 -0.00311267 160 249 161
-0.0349081 -0.182919 -0.012986 160 249 161
-0.0366212 -0.36121 0.0800571 160 249 161
-0.0333398 -0.0988884 -2.38456e-05 160 249 161
-0.0331592 -0.0545225 0.187976 160 249 161
-0.042232 -0.430236 0.235212 160 249 161
-0.0378901 -0.428538 0.080854 160 249 161
-0.0355885 -0.331273 0.0362637 160 249 161
-0.0419021 -0.449826 0.352836 160 249 161
-0.0382945 -0.348334 0.114881 160 249 161
-0.0373861 -0.211025 0.278846 160 249 161
-0.0417888 -0.460964 0.177346 160 249 161
-0.0328817 -0.140301 0.0455433 160 249 161
-0.037306 -0.178765 0.23499 160 249 161
-0.0312568 -0.141965 0.0755732 160 249 161
-0.0369786 -0.246583 0.128789 160 249 161
-0.0366615 -0.367454 0.0809559 160 249 161
-0.04221 -0.335827 0.262195 160 249 161
-0.0331905 -0.126638 0.0390934 160 249 161
-0.0413617 -0.31905 0.270873 160 249 161
-0.0378489 -0.305682 -0.0215569 160 249 161
-0.0309006 -0.0913823 -0.0803224 160 249 161
-0.0398257 -0.253428 0.219052 160 249 161
-0.0381536 -0.226078 0.246844 160 249 161
-0.0380037 -0.362151 0.113532 160 249 161
-0.0424344 -0.425459 0.245063 160 249 161
-0.0304515 0.0234248 0.0197821 160 249 161
-0.0368827 -0.430477 -0.0665475 160 249 161
-0.0360762 -0.344994 0.0743455 160 249 161
-0.0288424 0.00970524 -0.0638861 160 249 161
-0.0321887 -0.0947261 0.0548379 160 249 161
-0.0347862 -0.222016 0.026724 160 249 161
-0.0378106 -0.368618 0.110299 160 249 161
-0.0428053 -0.322085 0.227954 160 249 161
-0.0325955 -0.18346 0.0565736 160 249 161
-0.0380695 -0.193403 0.158533 160 249 161
-0.036575 -0.397386 -0.0586038 160 249 161
-0.0340835 -0.0721656 0.178383 160 249 161
-0.0429131 -0.39357 0.365419 160 249 161
-0.0333509 -0.0776867 0.132033 160 249 161
-0.0410405 -0.299615 0.259189 160 249 161
-0.0351692 -0.175377 -0.0247336 160 249 161
-0.0306073 0.00910421 0.00455743 160 249 161
-0.0304833 0.0127254 -0.0448654 160 249 161
-0.0190075 -0.477635 -0.067496 160 249 161
-0.0358568 -0.1666 0.334367 160 249 161
-0.0417627 -0.426501 0.211706 160 249 161
-0.0343596 -0.143703 -0.000144286 160 249 161
-0.0370025 -0.285597 -0.0163105 160 249 161
-0.0370911 -0.331325 -0.0640282 160 249 161
-0.0335195 -0.0937886 0.125688 160 249 161
-0.0374648 -0.150114 0.178897 160 249 161
-0.0348356 -0.295285 0.0809841 160 249 161
-0.0392503 -0.273044 0.144477 160 249 161
-0.0371452 -0.206794 0.144481 160 249 161
-0.0382816 -0.334166 0.111901 160 249 161
-0.0359003 -0.385246 0.0367983 160 249 161
-0.033423 -0.0559171 0.178051 160 249 161
-0.0370623 -0.216277 0.140214 160 249 161
-0.0350948 -0.287257 0.089038 160 249 161
-0.0324121 -0.0949862 -0.0422867 160 249 161
-0.0328914 -0.0657485 0.258237 160 249 161
-0.035913 -0.404427 -9.96627e-05 160 249 161
-0.0364291 -0.431832 -0.0533452 160 249 161
-0.0130984 -0.479144 -0.0639969 160 249 161
-0.0290195 -0.0480826 -0.0765138 160 249 161
-0.0404326 -0.40538 0.158374 160 249 161
-0.0290501 -0.0292502 -0.0656104 160 249 161
-0.038091 -0.189305 0.212148 160 249 161
-0.0319295 -0.130439 -0.0988472 160 249 161
-0.0315602 -0.0364368 0.227263 160 249 161
-0.0343795 -0.465202 0.0395298 160 249 161
-0.0386203 -0.291299 0.32827 160 249 161
-0.0332234 -0.100548 0.120357 160 249 161
-0.029189 0.0263415 -0.0826329 160 249 161
-0.0350381 -0.208514 -0.0796032 160 249 161
-0.028906 0.00560343 -0.0884537 160 249 161
-0.0365436 -0.314111 0.0950143 160 249 161
-0.0330923 -0.272596 0.0686534 160 249 161
-0.0337563 -0.0883905 0.221405 160 249 161
-0.0309732 -0.168907 0.0759475 160 249 161
-0.0355595 -0.412224 0.0171794 160 249 161
-0.0387481 -0.290305 0.321864 160 249 161
-0.0404279 -0.36899 0.185919 160 249 161
-0.0343054 -0.230835 0.0356358 160 249 161
-0.0384407 -0.440015 0.090928 160 249 161
-0.0403248 -0.248502 0.187018 160 249 161
-0.0399692 -0.246051 0.198321 160 249 161
-0.0352594 -0.410031 -0.0324663 160 249 161
-0.0399341 -0.29138 0.283551 160 249 161
-0.0333705 -0.476681 0.0932444 160 249 161
-0.0359487 -0.410145 -0.0406555 160 249 161
-0.0332868 -0.270681 0.0758524 160 249 161
-0.030886 -0.028921 -0.0360686 160 249 161
-0.0385062 -0.300795 0.128021 160 249 161
-0.0331665 -0.133194 0.117107 160 249 161
-0.0412562 -0.365983 0.219135 160 249 161
-0.0321876 -0.229305 0.0658358 160 249 161
-0.0305449 0.00385396 -0.026586 160 249 161
-0.0379108 -0.43905 0.073722 160 249 161
-0.0374257 -0.299847 -0.0428971 160 249 161
-0.0398895 -0.317794 0.353053 160 249 161
-0.0422233 -0.373496 0.296469 160 249 161
-0.0341388 -0.0987394 0.278551 160 249 161
-0.0363254 -0.124916 0.184158 160 249 161
-0.0342597 -0.119429 0.00514189 160 249 161
-0.0391836 -0.238262 0.157354 160 249 161
-0.0357593 -0.467184 0.0987374 160 249 161
-0.0357497 -0.145414 0.31535 160 249 161
-5.1938e-05 -0.484035 -0.00510795 160 249 161
-0.0420195 -0.418902 0.37728 160 249 161
0.0208434 -0.482019 -0.0466681 160 249 161
-0.034297 -0.45766 0.0202992 160 249 161
-0.0356854 -0.243072 0.00320969 160 249 161
-0.039336 -0.463011 0.141915 160 249 161
-0.0305762 -0.014246 0.138083 160 249 161
-0.032807 -0.0608246 0.136304 160 249 161
-0.0311599 -0.0469583 -0.0324224 160 249 161
-0.0317751 -0.202062 0.0677482 160 249 161
-0.0415691 -0.339631 0.318068 160 249 161
-0.0369578 -0.407214 -0.0865688 160 249 161
-0.0327871 -0.243 0.0592705 160 249 161
-0.0379907 -0.373102 0.116046 160 249 161
-0.030366 0.0172308 -0.033515 160 249 161
-0.0374312 -0.15696 0.199132 160 249 161
-0.0424653 -0.466384 0.2274 160 249 161
-0.0363917 -0.170858 0.262815 160 249 161
-0.03869 -0.287933 0.321054 160 249 161
-0.0348411 -0.23474 -0.0944828 160 249 161
-0.0421023 -0.469296 0.23199 160 249 161
-0.0385043 -0.283695 0.3229 160 249 161
