ply
format ascii 1.0
comment Created by Open3D
element vertex 1195
property double x
property double y
property double z
property uchar red
property uchar green
property uchar blue
end_header
0.0532353 -0.486133 -0.300217 64 236 211
0.19918 -0.237048 -0.345886 64 236 211
0.0649006 -0.486067 -0.0597484 64 236 211
-0.00255067 -0.47918 0.131862 64 236 211
-0.0743059 -0.486189 -0.196142 64 236 211
0.253843 -0.476062 0.0215977 64 236 211
-0.0177353 -0.486296 -0.23771 64 236 211
0.107962 -0.485983 -0.111348 64 236 211
-0.00390886 -0.205255 -0.346706 64 236 211
-0.0273657 -0.486293 -0.21942 64 236 211
0.0247341 -0.477819 0.13591 64 236 211
0.254576 -0.485502 -0.236166 64 236 211
0.201095 -0.31697 -0.343346 64 236 211
0.0582197 -0.393885 -0.348558 64 236 211
-0.0663362 -0.486217 -0.204793 64 236 211
0.198847 -0.485787 -0.194028 64 236 211
-0.0195554 -0.458278 -0.350079 64 236 211
-0.175603 -0.485892 0.0176648 64 236 211
-0.126918 -0.344097 -0.341997 64 236 211
0.350914 -0.485077 -0.249918 64 236 211
-0.0165188 -0.215755 -0.346146 64 236 211
0.0140202 -0.482143 0.0602944 64 236 211
0.308423 -0.479882 -0.061961 64 236 211
0.261432 -0.485475 -0.236182 64 236 211
0.337948 -0.476039 -0.0191195 64 236 211
-0.0412921 -0.410452 -0.352742 64 236 211
-0.215423 -0.486137 -0.0782292 64 236 211
0.0871356 -0.463262 -0.345017 64 236 211
0.105858 -0.486051 -0.189262 64 236 211
0.040014 -0.485472 -0.00910721 64 236 211
-0.0229244 -0.207059 -0.345195 64 236 211
0.179585 -0.48584 -0.174162 64 236 211
0.162666 -0.483995 -0.339771 64 236 211
-0.0155784 -0.35222 -0.350511 64 236 211
0.0403104 -0.486112 -0.0533042 64 236 211
0.140448 -0.475846 0.0910309 64 236 211
0.0121896 -0.485824 -0.00743621 64 236 211
-0.0170594 -0.151065 -0.342144 64 236 211
-0.0612358 -0.472504 -0.349342 64 236 211
0.179759 -0.485806 -0.334793 64 236 211
-0.0676797 -0.464583 -0.350454 64 236 211
-0.062953 -0.348351 -0.350402 64 236 211
0.0101419 -0.486214 -0.179078 64 236 211
0.00133033 -0.247513 -0.348616 64 236 211
-0.0351993 -0.486425 -0.276369 64 236 211
0.29038 -0.485348 -0.152209 64 236 211
0.174434 -0.468594 0.15947 64 236 211
-0.0423877 -0.462211 -0.35077 64 236 211
0.280944 -0.48329 -0.0859897 64 236 211
-0.061651 -0.486606 -0.343052 64 236 211
0.107066 -0.486055 -0.18016 64 236 211
0.107146 -0.483229 -0.0218994 64 236 211
0.0357838 -0.24515 -0.349298 64 236 211
-0.0278895 -0.486257 -0.0698336 64 236 211
0.183789 -0.225002 -0.346248 64 236 211
0.273483 -0.484579 -0.336039 64 236 211
0.230181 -0.485143 -0.0879115 64 236 211
0.208984 -0.433624 -0.343292 64 236 211
0.363136 -0.484389 -0.33261 64 236 211
-0.11327 -0.4863 -0.208642 64 236 211
0.0622221 -0.275499 -0.347128 64 236 211
0.0364622 -0.486198 -0.215907 64 236 211
-0.113278 -0.486689 -0.284326 64 236 211
-0.077581 -0.469127 -0.350522 64 236 211
-0.0033911 -0.270475 -0.348141 64 236 211
0.125528 -0.454036 -0.345305 64 236 211
0.218494 -0.415269 -0.343384 64 236 211
-0.0356514 -0.482223 0.094099 64 236 211
-0.00444397 -0.13836 -0.342565 64 236 211
0.260295 -0.371549 -0.343634 64 236 211
0.0995234 -0.38318 -0.346467 64 236 211
0.213537 -0.30518 -0.343722 64 236 211
0.012885 -0.486313 -0.322302 64 236 211
-0.132181 -0.486119 -0.0267609 64 236 211
0.0165743 -0.486243 -0.198073 64 236 211
0.0389413 -0.485236 -0.338303 64 236 211
0.0126205 -0.486242 -0.203973 64 236 211
-0.00657323 -0.486271 -0.20053 64 236 211
0.197794 -0.480666 -0.0308998 64 236 211
0.127784 -0.250765 -0.34601 64 236 211
-0.207977 -0.486504 -0.237562 64 236 211
-0.0617446 -0.387748 -0.352423 64 236 211
-0.0708555 -0.486197 -0.199503 64 236 211
0.309468 -0.485274 -0.264851 64 236 211
0.0670527 -0.486085 -0.138466 64 236 211
0.0162554 -0.262197 -0.349636 64 236 211
0.332082 -0.480739 -0.33769 64 236 211
-0.0494311 -0.486449 -0.341584 64 236 211
-0.00882293 -0.486271 -0.0768829 64 236 211
0.295451 -0.378521 -0.343222 64 236 211
-0.0481469 -0.323886 -0.349202 64 236 211
0.342406 -0.485147 -0.137648 64 236 211
-0.0785009 -0.39131 -0.351357 64 236 211
0.263645 -0.484393 -0.33632 64 236 211
0.0579741 -0.472298 -0.343201 64 236 211
0.109247 -0.316581 -0.345657 64 236 211
0.350643 -0.48508 -0.284369 64 236 211
0.293597 -0.485343 -0.263469 64 236 211
0.0117454 -0.486222 -0.240622 64 236 211
-0.196986 -0.486441 -0.158018 64 236 211
0.160436 -0.320977 -0.34427 64 236 211
-0.191981 -0.447647 -0.330613 64 236 211
0.107781 -0.466451 -0.344279 64 236 211
0.344764 -0.483567 -0.104705 64 236 211
0.360953 -0.483599 -0.111019 64 236 211
0.11084 -0.358631 -0.345582 64 236 211
0.062543 -0.484863 -0.00472068 64 236 211
0.234935 -0.479163 -0.0249168 64 236 211
0.0438626 -0.4813 0.0557933 64 236 211
0.271563 -0.485434 -0.240962 64 236 211
0.327277 -0.39358 -0.341665 64 236 211
0.00648267 -0.360788 -0.349851 64 236 211
0.178939 -0.485797 -0.0856715 64 236 211
0.331315 -0.446956 -0.341974 64 236 211
0.204914 -0.482044 -0.0527293 64 236 211
-0.192238 -0.48677 -0.284708 64 236 211
-0.144102 -0.486427 -0.185031 64 236 211
0.0349265 -0.434676 -0.348667 64 236 211
0.145624 -0.331507 -0.344419 64 236 211
0.0782895 -0.233008 -0.347364 64 236 211
-0.0596917 -0.486436 -0.343874 64 236 211
0.0776707 -0.332679 -0.346155 64 236 211
0.061525 -0.258243 -0.347526 64 236 211
0.0236184 -0.172892 -0.345908 64 236 211
0.189287 -0.473486 0.09525 64 236 211
0.0109585 -0.486228 -0.235753 64 236 211
0.0881916 -0.486077 -0.213881 64 236 211
-0.0601356 -0.483097 0.0998301 64 236 211
-0.18923 -0.42974 -0.332019 64 236 211
-0.132185 -0.486437 -0.230174 64 236 211
0.228577 -0.485604 -0.273775 64 236 211
0.187568 -0.47757 0.0294182 64 236 211
0.00262536 -0.450024 -0.349287 64 236 211
0.225243 -0.484716 -0.0831896 64 236 211
0.0664351 -0.486086 -0.141757 64 236 211
0.260452 -0.460109 -0.343017 64 236 211
-0.00437314 -0.29853 -0.348018 64 236 211
-0.034718 -0.485915 -0.343593 64 236 211
-0.122721 -0.462254 -0.346556 64 236 211
0.288571 -0.485355 -0.152515 64 236 211
-0.134909 -0.486521 -0.248252 64 236 211
0.0350442 -0.253015 -0.349276 64 236 211
-0.0248314 -0.153661 -0.341572 64 236 211
0.342155 -0.478908 -0.0622979 64 236 211
-0.0370426 -0.467127 -0.349511 64 236 211
0.046728 -0.222836 -0.348273 64 236 211
0.0469638 -0.146373 -0.344291 64 236 211
0.104387 -0.218256 -0.346705 64 236 211
-0.0344007 -0.486497 -0.291877 64 236 211
0.0987276 -0.356567 -0.345947 64 236 211
-0.116476 -0.486165 -0.0590893 64 236 211
0.0330353 -0.141652 -0.343937 64 236 211
0.0454412 -0.480005 0.0816586 64 236 211
-0.0595769 -0.486167 -0.345929 64 236 211
0.086321 -0.197193 -0.347299 64 236 211
0.143859 -0.485938 -0.177204 64 236 211
0.0876904 -0.292417 -0.346438 64 236 211
0.0128183 -0.271055 -0.349186 64 236 211
0.19265 -0.484754 -0.0721294 64 236 211
0.380323 -0.484927 -0.184027 64 236 211
0.0553743 -0.478638 -0.341545 64 236 211
0.245529 -0.463064 0.181127 64 236 211
0.162215 -0.482459 -0.0393832 64 236 211
0.210286 -0.268651 -0.344939 64 236 211
-0.112881 -0.407131 -0.346613 64 236 211
0.254622 -0.471846 0.0759669 64 236 211
-0.00843523 -0.486187 -0.0420671 64 236 211
0.177425 -0.428134 -0.344665 64 236 211
-0.214012 -0.486411 -0.177997 64 236 211
0.0257751 -0.480593 0.0832103 64 236 211
-0.120784 -0.486046 -0.0169035 64 236 211
-0.0281316 -0.217658 -0.345181 64 236 211
0.0635663 -0.193627 -0.347067 64 236 211
-0.0767792 -0.483757 0.103461 64 236 211
-0.0379445 -0.267584 -0.345925 64 236 211
0.0450765 -0.313692 -0.347691 64 236 211
0.189315 -0.237944 -0.345828 64 236 211
-0.0222611 -0.486407 -0.285515 64 236 211
0.176812 -0.319839 -0.343836 64 236 211
-0.230625 -0.486365 -0.132743 64 236 211
0.330959 -0.481234 -0.0866412 64 236 211
0.170554 -0.485801 -0.264439 64 236 211
0.232031 -0.476261 0.0283549 64 236 211
0.077392 -0.355162 -0.346745 64 236 211
-0.0326232 -0.240107 -0.345728 64 236 211
0.292776 -0.37247 -0.343124 64 236 211
-0.213557 -0.485826 0.0143001 64 236 211
0.197675 -0.485743 -0.262193 64 236 211
0.250008 -0.476539 0.0150157 64 236 211
0.204235 -0.484638 -0.0683265 64 236 211
0.252576 -0.485662 -0.332036 64 236 211
0.0681739 -0.486146 -0.20422 64 236 211
-0.0579378 -0.486299 -0.22997 64 236 211
0.140737 -0.477791 0.0528234 64 236 211
0.295947 -0.472218 0.0492869 64 236 211
0.0835901 -0.473018 0.168941 64 236 211
0.267994 -0.379361 -0.343678 64 236 211
-0.0394966 -0.445792 -0.352058 64 236 211
-0.205871 -0.486181 -0.0717119 64 236 211
0.0298974 -0.300897 -0.348516 64 236 211
0.173714 -0.485798 -0.234425 64 236 211
0.250077 -0.48571 -0.316681 64 236 211
0.00569742 -0.486252 -0.195194 64 236 211
0.105341 -0.204715 -0.346863 64 236 211
0.277395 -0.46246 -0.342905 64 236 211
0.281596 -0.48217 -0.0814082 64 236 211
-0.144853 -0.486127 -0.0425506 64 236 211
-0.0818387 -0.486226 -0.213292 64 236 211
0.132954 -0.485947 -0.322415 64 236 211
-0.067385 -0.313302 -0.347684 64 236 211
-0.19384 -0.486847 -0.30562 64 236 211
0.0936241 -0.486035 -0.230076 64 236 211
0.158905 -0.465876 -0.34326 64 236 211
0.343537 -0.47565 -0.0163366 64 236 211
0.163206 -0.485852 -0.126433 64 236 211
0.165206 -0.484036 -0.0481892 64 236 211
-0.00791171 -0.486218 -0.119305 64 236 211
0.190532 -0.483803 -0.0568517 64 236 211
0.292111 -0.464857 0.131077 64 236 211
0.12531 -0.48567 -0.0604005 64 236 211
-0.0810854 -0.482148 0.136736 64 236 211
0.229598 -0.310906 -0.343315 64 236 211
-0.200228 -0.486702 -0.276969 64 236 211
0.0461652 -0.24386 -0.34869 64 236 211
-0.111727 -0.449204 -0.348243 64 236 211
-0.18171 -0.486365 -0.119851 64 236 211
0.12905 -0.485957 -0.329365 64 236 211
0.113041 -0.213206 -0.346547 64 236 211
0.0888809 -0.195511 -0.347238 64 236 211
-0.0816725 -0.48634 -0.239462 64 236 211
-0.0223366 -0.486325 -0.246848 64 236 211
-0.12937 -0.486356 -0.175286 64 236 211
0.175215 -0.265273 -0.345403 64 236 211
0.155894 -0.478226 0.0341512 64 236 211
0.352225 -0.458483 -0.340274 64 236 211
0.268137 -0.485461 -0.273557 64 236 211
-0.0216404 -0.366152 -0.351394 64 236 211
-0.106157 -0.486755 -0.29327 64 236 211
-0.143208 -0.486706 -0.27792 64 236 211
0.238417 -0.48006 -0.0388733 64 236 211
-0.169993 -0.486184 -0.0545515 64 236 211
0.0159244 -0.439422 -0.349414 64 236 211
-0.144834 -0.486551 -0.245904 64 236 211
-0.00187796 -0.326306 -0.348612 64 236 211
0.106904 -0.47212 -0.343228 64 236 211
-0.0317173 -0.233532 -0.345514 64 236 211
-0.0910615 -0.486777 -0.30165 64 236 211
0.263143 -0.409249 -0.343903 64 236 211
-0.217822 -0.449792 -0.323565 64 236 211
-0.1942 -0.485993 0.000437506 64 236 211
0.267316 -0.485565 -0.304638 64 236 211
0.297596 -0.485312 -0.238549 64 236 211
-0.10585 -0.486871 -0.319559 64 236 211
0.137439 -0.485927 -0.312048 64 236 211
0.121655 -0.48592 -0.249855 64 236 211
-0.0506088 -0.225879 -0.343543 64 236 211
0.111709 -0.353423 -0.345417 64 236 211
0.0203483 -0.486279 -0.313959 64 236 211
0.0961033 -0.311037 -0.346118 64 236 211
0.224918 -0.485651 -0.101472 64 236 211
0.122573 -0.484972 -0.0400001 64 236 211
-0.080619 -0.405461 -0.351541 64 236 211
0.287674 -0.47095 0.0682708 64 236 211
0.00637158 -0.465888 -0.346698 64 236 211
0.336559 -0.485142 -0.278617 64 236 211
0.0850826 -0.486084 -0.0935472 64 236 211
-0.0242932 -0.234479 -0.346127 64 236 211
0.136957 -0.406312 -0.345796 64 236 211
-0.0795325 -0.486198 -0.0762276 64 236 211
-0.100686 -0.486867 -0.335408 64 236 211
0.116299 -0.484776 -0.0403531 64 236 211
-0.0763879 -0.486782 -0.345931 64 236 211
0.267505 -0.481561 -0.0698136 64 236 211
-0.144136 -0.486808 -0.334635 64 236 211
0.29887 -0.469699 0.0753015 64 236 211
-0.168253 -0.486738 -0.275851 64 236 211
0.0862467 -0.483232 -0.0114372 64 236 211
-0.0431357 -0.209721 -0.343658 64 236 211
0.125842 -0.476236 0.0925365 64 236 211
0.450091 -0.31256 0.311265 96 250 196
-0.0137476 -0.488532 0.271115 96 250 196
0.241479 -0.445791 0.315987 96 250 196
0.460743 -0.31313 0.0370769 96 250 196
0.432832 -0.444031 -0.287477 96 250 196
0.45893 -0.475372 -0.252257 96 250 196
-0.0541532 -0.485708 -0.186896 96 250 196
0.456738 -0.403507 -0.27078 96 250 196
0.426717 -0.486525 -0.208395 96 250 196
0.398302 -0.486463 0.233199 96 250 196
0.404859 -0.433099 0.31069 96 250 196
-0.180405 -0.486044 0.0397642 96 250 196
0.451294 -0.398747 0.197156 96 250 196
-0.190238 -0.486209 0.181946 96 250 196
0.43034 -0.486596 -0.0190146 96 250 196
0.199718 -0.468387 -0.29951 96 250 196
0.255399 -0.486586 0.137708 96 250 196
0.457238 -0.486575 -0.247709 96 250 196
-0.155049 -0.485271 -0.221055 96 250 196
-0.0110625 -0.485402 -0.283611 96 250 196
0.0424962 -0.486186 -0.0404813 96 250 196
0.436298 -0.486573 -0.185223 96 250 196
0.387705 -0.486482 -0.198204 96 250 196
-0.104058 -0.486037 -0.0285004 96 250 196
0.0138264 -0.350809 0.305411 96 250 196
0.446689 -0.475339 0.294582 96 250 196
0.462496 -0.334855 -0.0748324 96 250 196
-0.00159099 -0.489008 0.240933 96 250 196
0.45809 -0.281196 0.173571 96 250 196
-0.208038 -0.484651 -0.274239 96 250 196
0.454431 -0.398102 -0.274471 96 250 196
0.458474 -0.476416 -0.0835341 96 250 196
0.458701 -0.35358 0.114362 96 250 196
0.441912 -0.486616 -0.262758 96 250 196
-0.0641037 -0.486184 0.00893102 96 250 196
0.0911502 -0.486028 -0.145369 96 250 196
-0.110041 -0.486415 0.271832 96 250 196
0.340683 -0.486493 -0.112145 96 250 196
0.239541 -0.486336 -0.0979824 96 250 196
-0.214123 -0.486177 0.220147 96 250 196
0.340381 -0.411438 0.317372 96 250 196
0.279219 -0.486087 0.30978 96 250 196
-0.221988 -0.484406 -0.276569 96 250 196
0.451352 -0.48296 0.170105 96 250 196
0.460503 -0.321972 0.0333544 96 250 196
0.0543936 -0.486476 0.245437 96 250 196
0.463163 -0.322141 -0.23723 96 250 196
0.453789 -0.347006 0.294978 96 250 196
0.433365 -0.486542 0.135231 96 250 196
0.423834 -0.486535 0.142435 96 250 196
-0.0576484 -0.486444 0.279173 96 250 196
0.0475189 -0.365004 0.305778 96 250 196
0.451842 -0.486615 -0.24454 96 250 196
0.0123102 -0.487751 0.280465 96 250 196
0.371924 -0.486332 -0.288563 96 250 196
-0.144029 -0.486274 0.162289 96 250 196
0.00596827 -0.485757 -0.201698 96 250 196
0.297025 -0.261701 0.322468 96 250 196
0.458239 -0.476722 -0.0187991 96 250 196
0.41983 -0.486528 0.136767 96 250 196
0.383685 -0.486439 0.284016 96 250 196
0.460857 -0.375125 -0.0314246 96 250 196
0.0886003 -0.486254 0.312008 96 250 196
0.458906 -0.425757 0.0773937 96 250 196
0.429729 -0.486488 0.19526 96 250 196
0.398263 -0.244883 0.321124 96 250 196
0.330185 -0.486185 -0.290341 96 250 196
0.451524 -0.215617 0.313264 96 250 196
0.458654 -0.411594 0.0913332 96 250 196
0.33906 -0.486425 -0.181355 96 250 196
0.155737 -0.445564 0.316078 96 250 196
0.188984 -0.486578 0.284821 96 250 196
0.407233 -0.486532 0.122395 96 250 196
0.363238 -0.48659 0.0999375 96 250 196
0.369668 -0.486381 0.290808 96 250 196
0.39755 -0.321422 0.31838 96 250 196
-0.0265495 -0.487507 0.301282 96 250 196
0.447278 -0.486596 -0.1415 96 250 196
0.460146 -0.332226 0.0751928 96 250 196
0.388573 -0.486481 0.219964 96 250 196
-0.0897896 -0.398996 0.330538 96 250 196
0.13622 -0.486294 0.310235 96 250 196
0.454056 -0.415114 -0.276166 96 250 196
0.440304 -0.486541 0.13712 96 250 196
0.0663225 -0.486003 -0.137773 96 250 196
0.131558 -0.4865 0.210634 96 250 196
0.0569611 -0.487203 0.252715 96 250 196
0.0585229 -0.486499 0.274211 96 250 196
0.036017 -0.486469 0.188618 96 250 196
0.454661 -0.25399 0.310447 96 250 196
0.44654 -0.257736 0.314675 96 250 196
0.404661 -0.486493 -0.16156 96 250 196
0.384339 -0.389507 0.315809 96 250 196
0.458601 -0.299351 0.148969 96 250 196
0.180275 -0.424613 0.316621 96 250 196
0.461684 -0.377301 -0.0785435 96 250 196
0.439348 -0.47516 -0.279638 96 250 196
0.45503 -0.486564 -0.00353635 96 250 196
-0.162771 -0.484867 -0.285824 96 250 196
-0.157052 -0.486372 0.29162 96 250 196
0.458256 -0.422497 0.0969748 96 250 196
-0.0563083 -0.485418 -0.261254 96 250 196
0.459901 -0.362579 0.0597832 96 250 196
0.331591 -0.486555 -0.0381222 96 250 196
0.335543 -0.486515 0.244478 96 250 196
-0.10325 -0.486393 0.242072 96 250 196
0.106228 -0.486103 -0.110072 96 250 196
0.449477 -0.444706 0.300076 96 250 196
0.425918 -0.486528 -0.222787 96 250 196
0.272267 -0.486418 0.293008 96 250 196
0.459483 -0.428247 0.0363721 96 250 196
0.438446 -0.486573 -0.238015 96 250 196
0.436896 -0.486551 0.124179 96 250 196
0.419128 -0.486471 0.220424 96 250 196
0.310917 -0.486578 0.223205 96 250 196
0.192318 -0.486552 0.241637 96 250 196
-0.108189 -0.485187 -0.27852 96 250 196
0.0589162 -0.486197 0.314846 96 250 196
0.227346 -0.339178 0.320004 96 250 196
0.444135 -0.307031 0.312285 96 250 196
0.449934 -0.394906 0.21023 96 250 196
-0.113828 -0.486445 0.290826 96 250 196
0.344108 -0.243188 0.322472 96 250 196
0.456174 -0.253801 0.305001 96 250 196
0.459147 -0.372487 0.0955063 96 250 196
0.0765197 -0.486338 0.27923 96 250 196
-0.198431 -0.484979 -0.234402 96 250 196
0.423993 -0.486559 -0.060615 96 250 196
0.41493 -0.486524 0.148587 96 250 196
0.0656486 -0.485749 -0.235764 96 250 196
0.454797 -0.367465 0.307226 96 250 196
-0.107246 -0.485826 -0.115202 96 250 196
-0.0360608 -0.356867 0.323858 96 250 196
0.292549 -0.48653 0.283163 96 250 196
0.45152 -0.286436 0.278222 96 250 196
0.314817 -0.486289 0.300953 96 250 196
0.0754737 -0.486607 0.231712 96 250 196
0.458026 -0.464408 0.0716835 96 250 196
0.455557 -0.242342 0.310472 96 250 196
-0.238238 -0.484226 -0.272951 96 250 196
-0.136177 -0.485056 -0.279491 96 250 196
0.380714 -0.486531 0.174593 96 250 196
0.454665 -0.45776 0.137344 96 250 196
-0.252458 -0.48569 -0.0559001 96 250 196
0.263236 -0.486598 0.247706 96 250 196
0.00821744 -0.486473 0.283751 96 250 196
-0.0459631 -0.489408 0.261645 96 250 196
0.371927 -0.462079 0.308709 96 250 196
-0.226374 -0.486112 0.200477 96 250 196
0.0730306 -0.486509 0.286945 96 250 196
0.389311 -0.486493 -0.0912734 96 250 196
-0.0421236 -0.351142 0.325305 96 250 196
0.27661 -0.486289 0.30251 96 250 196
-0.0426 -0.486227 0.309543 96 250 196
0.437739 -0.486611 -0.10488 96 250 196
0.438442 -0.34651 0.311756 96 250 196
-0.225209 -0.485324 -0.165698 96 250 196
0.128554 -0.462835 0.315969 96 250 196
0.0836156 -0.398573 0.31773 96 250 196
-0.0527081 -0.486433 0.206333 96 250 196
0.276358 -0.486063 -0.276572 96 250 196
-0.158189 -0.485636 -0.153007 96 250 196
0.332723 -0.23414 0.322107 96 250 196
0.411377 -0.486515 -0.0499913 96 250 196
0.0602664 -0.367548 0.318149 96 250 196
0.389527 -0.486447 0.2607 96 250 196
0.417114 -0.486518 -0.108552 96 250 196
0.416585 -0.486528 0.126511 96 250 196
0.452579 -0.257761 0.280861 96 250 196
-0.12541 -0.485257 -0.247889 96 250 196
-0.254493 -0.485278 -0.144644 96 250 196
0.420715 -0.486529 -0.0965309 96 250 196
-0.101949 -0.48632 0.138516 96 250 196
-0.0711294 -0.486441 0.284537 96 250 196
0.458914 -0.475366 -0.125547 96 250 196
0.424891 -0.438256 -0.28831 96 250 196
0.0653228 -0.487326 0.206728 96 250 196
0.452631 -0.427787 -0.278635 96 250 196
-0.205122 -0.486105 0.12856 96 250 196
0.388438 -0.486533 0.150435 96 250 196
0.152562 -0.486386 0.0139813 96 250 196
0.380783 -0.486575 0.0476845 96 250 196
0.450315 -0.363851 0.273876 96 250 196
0.440844 -0.486598 -0.245059 96 250 196
0.0169164 -0.486207 -0.0221127 96 250 196
0.429433 -0.479882 -0.285423 96 250 196
0.410179 -0.486499 -0.273217 96 250 196
0.328546 -0.486412 -0.154102 96 250 196
0.201798 -0.280837 0.320305 96 250 196
0.407085 -0.356473 0.315181 96 250 196
-0.214228 -0.484543 -0.274757 96 250 196
0.443631 -0.486509 0.161158 96 250 196
-0.019458 -0.487781 0.294143 96 250 196
0.453343 -0.292523 0.269594 96 250 196
0.387063 -0.245409 0.322011 96 250 196
0.364097 -0.451226 0.311605 96 250 196
0.45445 -0.468298 0.125141 96 250 196
-0.0306788 -0.485024 -0.30299 96 250 196
0.442124 -0.486613 -0.24917 96 250 196
0.459919 -0.356627 0.0497986 96 250 196
0.406173 -0.486398 0.274226 96 250 196
-0.00917658 -0.485923 -0.122426 96 250 196
-0.202772 -0.48456 -0.284678 96 250 196
0.243849 -0.486453 -0.0202852 96 250 196
-0.200876 -0.485381 -0.173675 96 250 196
-0.116729 -0.486208 0.0644024 96 250 196
-0.109187 -0.486261 0.0997852 96 250 196
0.449131 -0.40053 0.23617 96 250 196
0.0397517 -0.486492 0.285537 96 250 196
0.444509 -0.486597 -0.106047 96 250 196
0.459383 -0.467478 -0.120178 96 250 196
0.433557 -0.486394 0.242164 96 250 196
0.183127 -0.486184 -0.14907 96 250 196
0.211696 -0.349179 0.319195 96 250 196
-0.0100636 -0.332536 0.318127 96 250 196
0.379421 -0.38833 0.316445 96 250 196
0.450924 -0.406663 0.264396 96 250 196
0.121039 -0.485634 -0.285374 96 250 196
0.400038 -0.46067 -0.293471 96 250 196
0.443854 -0.443462 -0.283014 96 250 196
-0.197203 -0.485238 -0.193573 96 250 196
0.0327728 -0.358497 0.30621 96 250 196
-0.0618493 -0.485765 -0.171833 96 250 196
0.210861 -0.486527 0.125587 96 250 196
0.423952 -0.358738 0.313023 96 250 196
-0.21924 -0.486099 0.142972 96 250 196
-0.0672596 -0.489841 0.253114 96 250 196
0.433045 -0.453483 0.306406 96 250 196
0.407715 -0.486563 0.068364 96 250 196
0.0559306 -0.426053 0.319801 96 250 196
0.0120675 -0.485272 -0.29907 96 250 196
0.44545 -0.486404 0.214713 96 250 196
0.463968 -0.325731 -0.194948 96 250 196
0.422454 -0.486534 0.122229 96 250 196
-0.230417 -0.484779 -0.239044 96 250 196
-0.18429 -0.486305 0.243124 96 250 196
0.115325 -0.486477 0.174469 96 250 196
0.453488 -0.395344 -0.2774 96 250 196
0.262709 -0.268875 0.322314 96 250 196
0.1745 -0.486254 0.309327 96 250 196
0.422569 -0.48656 0.0234943 96 250 196
0.451965 -0.228147 0.292302 96 250 196
0.135657 -0.308868 0.317849 96 250 196
0.342738 -0.449894 -0.293126 96 250 196
0.460503 -0.45427 -0.234118 96 250 196
-0.043947 -0.486449 0.277983 96 250 196
-0.0577083 -0.485228 -0.293066 96 250 196
-0.164009 -0.471926 0.326726 96 250 196
0.258975 -0.468579 -0.298599 96 250 196
0.464279 -0.31927 -0.21513 96 250 196
0.0965514 -0.234867 0.318108 96 250 196
-0.103962 -0.485231 -0.273694 96 250 196
0.459386 -0.277984 -0.256652 96 250 196
0.14414 -0.253628 0.318801 96 250 196
0.352164 -0.446391 -0.292323 96 250 196
0.159698 -0.486491 0.291809 96 250 196
0.459211 -0.29495 0.135259 96 250 196
0.301248 -0.234394 0.322327 96 250 196
0.459938 -0.356975 0.0405779 96 250 196
0.458278 -0.422387 0.0964037 96 250 196
0.151469 -0.486313 -0.0395459 96 250 196
0.337547 -0.486604 0.118368 96 250 196
0.370909 -0.486585 0.0558109 96 250 196
0.447157 -0.445047 0.302845 96 250 196
0.408818 -0.486505 -0.0777685 96 250 196
0.328427 -0.273764 0.321939 96 250 196
-0.0891434 -0.486411 0.25992 96 250 196
0.288084 -0.486613 0.220273 96 250 196
-0.162514 -0.453414 0.331471 96 250 196
0.40787 -0.486496 -0.153012 96 250 196
-0.15647 -0.486379 0.282591 96 250 196
0.388678 -0.374266 0.316407 96 250 196
0.0819899 -0.486234 0.31309 96 250 196
0.432506 -0.414425 -0.284787 96 250 196
0.420782 -0.486559 0.0651667 96 250 196
0.349361 -0.486501 -0.0983805 96 250 196
-0.20518 -0.486166 0.294013 96 250 196
0.328623 -0.468694 0.310333 96 250 196
-0.134643 -0.485698 -0.144655 96 250 196
0.363522 -0.437536 -0.291365 96 250 196
-0.176641 -0.485216 -0.213117 96 250 196
-0.159068 -0.485688 -0.128881 96 250 196
0.120609 -0.355093 0.31668 96 250 196
0.239459 -0.486196 -0.195238 96 250 196
0.455401 -0.436571 -0.274064 96 250 196
0.462217 -0.390906 -0.136507 96 250 196
0.459397 -0.467898 -0.126978 96 250 196
0.453286 -0.443424 -0.277806 96 250 196
0.0642964 -0.48554 -0.283622 96 250 196
0.450967 -0.30837 0.282681 96 250 196
-0.185222 -0.485276 -0.197091 96 250 196
0.457396 -0.348918 -0.266611 96 250 196
0.114904 -0.485732 -0.261248 96 250 196
0.463255 -0.341334 -0.112246 96 250 196
0.101552 -0.486443 0.293377 96 250 196
0.404047 -0.486494 -0.259014 96 250 196
-0.172327 -0.4856 -0.156455 96 250 196
-0.157456 -0.484832 -0.291284 96 250 196
0.0572778 -0.486372 0.0699181 96 250 196
0.367759 -0.399245 0.316459 96 250 196
-0.136123 -0.486325 0.203036 96 250 196
0.251032 -0.486394 0.295996 96 250 196
0.455865 -0.209645 0.310969 96 250 196
0.0911809 -0.266245 0.318305 96 250 196
0.105781 -0.486495 0.218466 96 250 196
0.424941 -0.486538 -0.281966 96 250 196
0.462357 -0.398128 -0.163698 96 250 196
0.441447 -0.48639 0.231454 96 250 196
0.451032 -0.426624 0.302412 96 250 196
-0.15967 -0.486298 0.221439 96 250 196
0.0631736 -0.486349 0.0441255 96 250 196
0.449084 -0.403275 0.221852 96 250 196
0.394332 -0.486492 -0.234229 96 250 196
0.131058 -0.486462 0.122601 96 250 196
0.22631 -0.351528 0.319523 96 250 196
0.451538 -0.417863 0.26274 96 250 196
0.456759 -0.245196 0.30944 96 250 196
0.437847 -0.460228 -0.285838 96 250 196
0.458026 -0.481113 -0.0262128 96 250 196
0.273229 -0.48628 -0.159273 96 250 196
-0.0613247 -0.48643 0.265646 96 250 196
0.0907458 -0.43093 0.31759 96 250 196
0.0352722 -0.474028 0.300979 96 250 196
0.422949 -0.486525 -0.235974 96 250 196
0.451887 -0.339927 0.218373 96 250 196
-0.0877962 -0.485132 -0.29295 96 250 196
0.0953906 -0.48637 0.299362 96 250 196
0.225214 -0.486577 0.239411 96 250 196
0.344066 -0.31418 0.321506 96 250 196
0.083028 -0.485531 -0.29047 96 250 196
0.461117 -0.43608 -0.138355 96 250 196
0.0273323 -0.485277 -0.299789 96 250 196
0.430187 -0.412336 0.310641 96 250 196
0.0672593 -0.485445 -0.297066 96 250 196
-0.0309925 -0.455098 0.315743 96 250 196
0.396113 -0.486429 0.270283 96 250 196
-0.112587 -0.485326 -0.238856 96 250 196
0.268004 -0.486542 0.283632 96 250 196
-0.216687 -0.485698 -0.0717807 96 250 196
-0.046969 -0.486447 0.286311 96 250 196
0.458902 -0.266753 -0.25614 96 250 196
0.455211 -0.365274 0.176121 96 250 196
0.459986 -0.387843 0.0171071 96 250 196
0.452407 -0.456174 0.187508 96 250 196
0.121346 -0.486513 0.287358 96 250 196
0.439032 -0.398016 0.310616 96 250 196
0.424803 -0.486543 -0.102888 96 250 196
0.213823 -0.261053 0.321007 96 250 196
0.103354 -0.486525 0.281859 96 250 196
0.443454 -0.486573 0.0447465 96 250 196
-0.0990734 -0.485663 -0.18127 96 250 196
0.383218 -0.463112 -0.293339 96 250 196
0.410404 -0.48653 0.121658 96 250 196
0.108528 -0.302366 0.317709 96 250 196
0.45248 -0.486566 0.0473639 96 250 196
0.443216 -0.486599 -0.0955202 96 250 196
-0.137738 -0.486417 0.278017 96 250 196
0.430245 -0.41751 -0.285705 96 250 196
-0.111695 -0.484974 -0.294989 96 250 196
0.439306 -0.48658 -0.264094 96 250 196
0.446215 -0.486509 0.155825 96 250 196
0.457094 -0.221634 0.305154 96 250 196
0.420006 -0.486522 -0.276923 96 250 196
0.447919 -0.486569 0.0537888 96 250 196
0.408601 -0.486525 0.137521 96 250 196
0.107893 -0.486464 0.142271 96 250 196
-0.139908 -0.48508 -0.273721 96 250 196
-0.193024 -0.486191 0.173679 96 250 196
0.0780266 -0.485878 -0.206186 96 250 196
0.461812 -0.41897 -0.158464 96 250 196
0.452248 -0.469746 0.201602 96 250 196
0.135067 -0.259533 0.31864 96 250 196
-0.187552 -0.485425 -0.177377 96 250 196
0.418137 -0.433069 -0.289162 96 250 196
0.311274 -0.486379 -0.145579 96 250 196
0.183137 -0.469631 0.314015 96 250 196
0.376539 -0.486479 -0.174465 96 250 196
0.346353 -0.471443 0.308555 96 250 196
0.4435 -0.486506 0.163761 96 250 196
0.233402 -0.471539 -0.298517 96 250 196
0.442551 -0.486614 -0.202352 96 250 196
0.461192 -0.446423 -0.179099 96 250 196
0.0703589 -0.486417 0.103349 96 250 196
0.255872 -0.486386 -0.077535 96 250 196
0.400265 -0.486505 0.198528 96 250 196
0.458446 -0.417577 -0.262807 96 250 196
0.410003 -0.33717 0.315943 96 250 196
0.0495323 -0.487822 0.200973 96 250 196
0.429294 -0.43265 -0.286927 96 250 196
0.452133 -0.236739 0.312106 96 250 196
0.0165583 -0.485879 -0.171597 96 250 196
0.0571958 -0.435713 0.319868 96 250 196
-0.0828767 -0.487808 0.305848 96 250 196
0.297664 -0.276276 0.321988 96 250 196
0.424457 -0.486534 -0.279805 96 250 196
-0.186194 -0.484916 -0.262053 96 250 196
0.456878 -0.366947 0.15418 96 250 196
0.41259 -0.486511 -0.215603 96 250 196
0.283853 -0.377851 0.320206 96 250 196
0.286134 -0.486084 -0.281522 96 250 196
0.399454 -0.450319 0.309292 96 250 196
0.128279 -0.486532 0.267942 96 250 196
0.439775 -0.486605 -0.163377 96 250 196
0.451486 -0.433458 0.203355 96 250 196
0.447427 -0.48659 -0.0459724 96 250 196
0.290253 -0.385538 0.320071 96 250 196
0.392648 -0.404798 0.313638 96 250 196
0.0650231 -0.486303 0.0034095 96 250 196
0.0100409 -0.485416 -0.287123 96 250 196
0.355661 -0.486527 0.214458 96 250 196
0.230697 -0.485767 -0.29721 96 250 196
0.0294756 -0.488004 0.258588 96 250 196
0.227361 -0.486466 0.00566847 96 250 196
0.391889 -0.387615 0.315099 96 250 196
0.436223 -0.452978 -0.288154 96 250 196
0.330619 -0.486581 0.00141488 96 250 196
0.4408 -0.48629 0.282442 96 250 196
0.450585 -0.486591 -0.146879 96 250 196
0.447627 -0.486578 0.00100043 96 250 196
0.161732 -0.485746 -0.277604 96 250 196
0.390421 -0.486494 0.209484 96 250 196
0.207185 -0.4865 0.0903081 96 250 196
0.150935 -0.434197 0.316583 96 250 196
0.421135 -0.486543 -0.0467309 96 250 196
-0.1222 -0.458292 0.326657 96 250 196
0.402547 -0.477611 -0.293681 96 250 196
0.0570675 -0.485652 -0.260703 96 250 196
0.460631 -0.335332 -0.000654753 96 250 196
0.35727 -0.486598 0.0655946 96 250 196
0.458059 -0.486561 -0.243678 96 250 196
0.121351 -0.44577 0.316828 96 250 196
0.326397 -0.486614 0.0828393 96 250 196
-0.18911 -0.48611 0.10032 96 250 196
0.450438 -0.379243 0.211935 96 250 196
-0.0703198 -0.485669 -0.189524 96 250 196
0.460848 -0.420923 -0.246127 96 250 196
0.368543 -0.229171 0.323268 96 250 196
0.125167 -0.485752 -0.260131 96 250 196
0.452064 -0.263481 0.291368 96 250 196
0.338813 -0.486204 -0.292652 96 250 196
-0.0631386 -0.486385 0.297578 96 250 196
0.346236 -0.486608 0.0700278 96 250 196
0.0510924 -0.48549 -0.287482 96 250 196
-0.132605 -0.486365 0.251988 96 250 196
-0.230298 -0.48599 0.0698861 96 250 196
0.429637 -0.486535 -0.175966 96 250 196
0.215516 -0.486426 0.29598 96 250 196
-0.244664 -0.484693 -0.229848 96 250 196
-0.147661 -0.485204 -0.239325 96 250 196
0.148641 -0.486548 0.280376 96 250 196
0.462743 -0.331749 -0.0803282 96 250 196
0.242713 -0.48626 -0.147154 96 250 196
-0.148953 -0.484909 -0.289207 96 250 196
0.263331 -0.229547 0.321854 96 250 196
0.459241 -0.312913 0.118731 96 250 196
0.177162 -0.486242 0.309702 96 250 196
0.423247 -0.273112 0.317509 96 250 196
0.448569 -0.486537 0.119169 96 250 196
0.426267 -0.486524 0.173238 96 250 196
0.434576 -0.475982 0.301224 96 250 196
0.126401 -0.473073 -0.302598 96 250 196
0.461021 -0.391131 -0.0592989 96 250 196
0.356471 -0.486479 0.272496 96 250 196
-0.000147334 -0.489469 0.193798 96 250 196
-0.252059 -0.485968 0.0861358 96 250 196
-0.239487 -0.485855 -0.011963 96 250 196
0.114679 -0.486365 0.0201785 96 250 196
0.44674 -0.239265 0.315352 96 250 196
0.186864 -0.486217 -0.126137 96 250 196
-0.154678 -0.485586 -0.170959 96 250 196
-0.20624 -0.486135 0.150439 96 250 196
0.442577 -0.46407 0.302655 96 250 196
0.381659 -0.486385 -0.285301 96 250 196
-0.0513433 -0.486415 0.183212 96 250 196
-0.0375362 -0.44069 0.315025 96 250 196
0.0212237 -0.489024 0.173611 96 250 196
0.385089 -0.486523 -0.0450087 96 250 196
0.279437 -0.333485 0.320726 96 250 196
-0.223502 -0.486134 0.186635 96 250 196
0.345463 -0.486509 0.238893 96 250 196
0.146331 -0.48635 -0.00920012 96 250 196
0.261315 -0.486583 0.273901 96 250 196
0.431493 -0.48636 0.262709 96 250 196
0.366853 -0.486473 -0.183427 96 250 196
0.462335 -0.328933 -0.0623198 96 250 196
-0.174518 -0.485952 0.321104 96 250 196
0.222217 -0.486028 -0.241443 96 250 196
0.237284 -0.396696 0.318548 96 250 196
0.0589296 -0.376432 0.318321 96 250 196
-0.0614438 -0.487347 0.312065 96 250 196
0.101521 -0.341167 0.316974 96 250 196
0.452342 -0.374376 0.197002 96 250 196
0.116546 -0.486096 -0.124092 96 250 196
0.262174 -0.486391 -0.080004 96 250 196
0.265474 -0.232934 0.321931 96 250 196
0.407511 -0.307901 0.317809 96 250 196
-0.145052 -0.486364 0.249239 96 250 196
-0.102206 -0.485828 -0.116799 96 250 196
0.454811 -0.385809 0.171043 96 250 196
0.278478 -0.472132 -0.297634 96 250 196
0.459893 -0.356802 0.0747279 96 250 196
0.405833 -0.486511 -0.22909 96 250 196
0.189228 -0.353688 0.318533 96 250 196
0.360297 -0.230206 0.322891 96 250 196
0.452127 -0.325392 0.286884 96 250 196
-0.168413 -0.486336 0.244468 96 250 196
0.453137 -0.486542 0.105359 96 250 196
0.416686 -0.486425 0.248887 96 250 196
0.262128 -0.486528 0.285147 96 250 196
-0.202919 -0.485291 -0.18306 96 250 196
0.0501337 -0.455131 0.300882 96 250 196
0.417167 -0.486528 -0.0593 96 250 196
0.465474 -0.283497 0.288532 128 254 179
0.240578 -0.222246 0.340383 128 254 179
0.466303 -0.287888 0.244661 128 254 179
0.458195 -0.120789 0.325437 128 254 179
0.451003 -0.217253 0.331255 128 254 179
0.470829 -0.474025 0.225409 128 254 179
0.0555842 -0.157915 0.342614 128 254 179
0.236313 -0.161386 0.342503 128 254 179
0.440075 -0.474392 0.00239685 128 254 179
0.0699164 -0.226157 0.342495 128 254 179
0.452253 -0.254863 0.330965 128 254 179
-0.113116 -0.290419 0.339145 128 254 179
0.46641 -0.0112356 0.281372 128 254 179
0.466414 -0.184417 0.219364 128 254 179
0.404799 -0.433765 0.331542 128 254 179
0.463385 -0.0841354 0.315066 128 254 179
0.431623 -0.160621 0.335348 128 254 179
0.467405 -0.389511 0.291258 128 254 179
0.433595 -0.102697 0.337051 128 254 179
0.466018 -0.0361285 0.235067 128 254 179
0.464052 -0.288553 0.309418 128 254 179
0.467732 -0.380153 0.313462 128 254 179
0.458248 -0.401139 0.125048 128 254 179
0.463308 -0.113311 0.29674 128 254 179
0.389237 -0.154005 0.337992 128 254 179
0.0785382 -0.201625 0.342274 128 254 179
0.462897 -0.319068 0.146686 128 254 179
0.458233 -0.39315 0.09235 128 254 179
0.458131 -0.407769 0.148287 128 254 179
0.464171 -0.0913475 0.265041 128 254 179
0.46648 -0.176526 0.216427 128 254 179
0.203046 -0.354353 0.338741 128 254 179
0.420834 0.00739641 0.341029 128 254 179
0.289838 -0.0261759 0.34404 128 254 179
0.19936 -0.478341 0.33555 128 254 179
0.113608 -0.0861825 0.346294 128 254 179
0.450417 -0.0356755 0.333236 128 254 179
0.465236 -0.235097 0.255307 128 254 179
0.413509 -0.281654 0.338069 128 254 179
0.426996 -0.485773 0.295253 128 254 179
0.0315653 -0.30554 0.342037 128 254 179
0.441913 -0.0917452 0.33546 128 254 179
-0.102702 -0.359464 0.335494 128 254 179
0.459463 -0.382736 0.204 128 254 179
0.464652 -0.158605 0.241513 128 254 179
0.309357 -0.328548 0.336801 128 254 179
-0.10638 -0.279701 0.339332 128 254 179
0.0532576 -0.40934 0.336659 128 254 179
0.358593 -0.483236 0.324402 128 254 179
0.355376 -0.484266 0.307104 128 254 179
0.100602 -0.475579 0.337023 128 254 179
0.459036 -0.104565 0.325158 128 254 179
0.147403 -0.482756 0.323477 128 254 179
0.454565 0.00389842 0.331458 128 254 179
0.463312 -0.216164 0.316332 128 254 179
0.271364 -0.274388 0.337974 128 254 179
0.349241 -0.00535337 0.343 128 254 179
0.297623 -0.166499 0.340307 128 254 179
0.301275 -0.375843 0.33637 128 254 179
0.461626 -0.248215 0.321156 128 254 179
0.466423 -0.215524 0.219486 128 254 179
0.312805 -0.263133 0.337877 128 254 179
0.466787 -0.141651 0.175635 128 254 179
0.461642 -0.365186 0.246078 128 254 179
0.0705787 -0.298371 0.342487 128 254 179
0.408019 -0.0488927 0.341271 128 254 179
0.398816 -0.342017 0.337189 128 254 179
0.466702 -0.21026 0.174328 128 254 179
0.466325 -0.214802 0.162592 128 254 179
0.456142 -0.112583 0.32721 128 254 179
0.466109 -0.252095 0.240633 128 254 179
0.462238 -0.15264 0.318889 128 254 179
0.0921929 -0.105496 0.346244 128 254 179
0.457894 -0.479721 0.308279 128 254 179
0.439914 -0.245921 0.335823 128 254 179
0.295361 -0.449915 0.33485 128 254 179
0.467249 -0.163092 0.157083 128 254 179
0.0949177 -0.33691 0.34181 128 254 179
0.223759 -0.29128 0.337847 128 254 179
0.45968 -0.0933803 0.324964 128 254 179
0.462645 -0.323303 0.147779 128 254 179
0.0598496 -0.444172 0.335843 128 254 179
0.413031 -0.302024 0.337376 128 254 179
0.443283 -0.0204842 0.337234 128 254 179
0.356987 -0.0945057 0.340845 128 254 179
0.277509 -0.351064 0.336648 128 254 179
0.463242 -0.0242727 0.318542 128 254 179
0.217708 -0.206077 0.341314 128 254 179
0.464514 -0.274851 0.136951 128 254 179
0.468227 -0.368101 0.306295 128 254 179
0.00203275 -0.164719 0.342852 128 254 179
0.466542 -0.247465 0.221023 128 254 179
-0.0505359 -0.31856 0.339379 128 254 179
0.467161 -0.187493 0.169977 128 254 179
0.40944 -0.485365 0.182984 128 254 179
0.46452 -0.313813 0.305608 128 254 179
0.466322 -0.0592706 0.121576 128 254 179
0.458912 -0.036777 0.327967 128 254 179
0.465013 -0.239462 0.267745 128 254 179
0.466268 -0.0586154 0.13094 128 254 179
0.466942 -0.462642 0.267896 128 254 179
0.344727 -0.168675 0.338809 128 254 179
-0.0447967 -0.405198 0.334093 128 254 179
0.196041 -0.380725 0.338254 128 254 179
0.457741 -0.251651 0.326786 128 254 179
0.342356 -0.269176 0.337674 128 254 179
0.200259 -0.178137 0.342553 128 254 179
0.140709 -0.192293 0.34093 128 254 179
0.294785 -0.21095 0.339761 128 254 179
0.388399 -0.0169681 0.342482 128 254 179
0.466377 -0.201643 0.127937 128 254 179
0.102789 -0.309149 0.341793 128 254 179
0.463013 -0.161484 0.302313 128 254 179
0.457979 -0.392176 0.08294 128 254 179
0.249276 -0.286377 0.337532 128 254 179
0.318181 -0.0732656 0.342327 128 254 179
0.464723 -0.478158 0.107177 128 254 179
0.456595 0.032889 0.328702 128 254 179
0.462385 -0.323573 0.139792 128 254 179
0.471313 -0.4722 0.205068 128 254 179
0.466428 -0.114562 0.156993 128 254 179
0.460396 -0.171003 0.322519 128 254 179
0.466195 -0.218 0.161164 128 254 179
-0.0141454 -0.398014 0.335539 128 254 179
0.465968 -0.225217 0.231596 128 254 179
0.0515341 -0.21336 0.342892 128 254 179
0.315271 -0.105375 0.340716 128 254 179
0.465693 -0.0633388 0.221623 128 254 179
0.467327 -0.400512 0.2931 128 254 179
0.351286 -0.270049 0.337672 128 254 179
0.366592 -0.19004 0.338405 128 254 179
0.460445 -0.367734 0.17874 128 254 179
0.466497 0.0147584 0.300814 128 254 179
0.455906 -0.12709 0.327139 128 254 179
0.464349 -0.482926 0.238774 128 254 179
0.46409 -0.311676 0.320232 128 254 179
0.464143 -0.271301 0.110914 128 254 179
0.465672 -0.372396 0.319851 128 254 179
0.238639 -0.421352 0.336307 128 254 179
0.468252 -0.379897 0.307238 128 254 179
0.395344 -0.333396 0.337279 128 254 179
0.446155 -0.429763 0.327961 128 254 179
0.152117 -0.478504 0.33586 128 254 179
0.465565 -0.0630302 0.241498 128 254 179
0.437181 -0.138112 0.334616 128 254 179
0.0745516 -0.141131 0.342565 128 254 179
0.466772 -0.141496 0.158379 128 254 179
0.465704 -0.307101 0.205606 128 254 179
0.466316 -0.457322 0.223344 128 254 179
0.466918 -0.343326 0.313361 128 254 179
0.116999 -0.476145 0.336712 128 254 179
0.465635 -0.296934 0.286397 128 254 179
0.466449 -0.120318 0.158317 128 254 179
0.4616 -0.0648504 0.322322 128 254 179
0.134182 -0.338312 0.340772 128 254 179
0.414621 -0.484082 0.316345 128 254 179
0.466708 -0.222918 0.1949 128 254 179
0.286858 -0.139971 0.34115 128 254 179
0.463822 -0.155507 0.265027 128 254 179
0.456072 -0.308897 0.330721 128 254 179
0.457301 -0.406611 0.0708691 128 254 179
0.319465 -0.114259 0.340258 128 254 179
0.466394 -0.0739906 0.137503 128 254 179
0.344154 -0.122186 0.339745 128 254 179
0.372542 -0.456256 0.332491 128 254 179
0.460196 -0.437569 0.316929 128 254 179
0.464263 -0.48081 0.17651 128 254 179
0.465749 -0.030562 0.294039 128 254 179
0.463024 -0.137387 0.301102 128 254 179
0.466337 -0.471135 0.29737 128 254 179
0.281996 -0.307199 0.337067 128 254 179
0.465116 -0.445635 0.226642 128 254 179
0.335225 -0.411547 0.334374 128 254 179
0.269059 -0.153204 0.341532 128 254 179
0.457986 -0.378077 0.0528938 128 254 179
0.410576 -0.462679 0.330762 128 254 179
0.306753 -0.340973 0.336781 128 254 179
0.375014 -0.47567 0.331047 128 254 179
0.422486 -0.0505738 0.340398 128 254 179
0.461528 -0.345342 0.161057 128 254 179
0.430136 -0.410621 0.332746 128 254 179
0.464984 -0.160781 0.235693 128 254 179
0.116285 -0.272493 0.341768 128 254 179
0.424324 -0.230933 0.337265 128 254 179
0.457302 -0.405864 0.101696 128 254 179
0.466387 -0.0178398 0.272559 128 254 179
0.00109328 -0.164716 0.342842 128 254 179
0.434983 -0.32246 0.336271 128 254 179
0.428656 -0.168239 0.335676 128 254 179
0.466379 -0.0818092 0.157474 128 254 179
0.325879 -0.483833 0.176405 128 254 179
0.181116 -0.134315 0.344449 128 254 179
0.466032 -0.133113 0.214238 128 254 179
0.459557 -0.141641 0.32345 128 254 179
0.466075 -0.31696 0.260697 128 254 179
0.337458 -0.231632 0.338704 128 254 179
0.466331 -0.277205 0.241215 128 254 179
0.461164 -0.077953 0.323673 128 254 179
0.463938 -0.428424 0.107315 128 254 179
0.466404 -0.259755 0.207965 128 254 179
0.465386 -0.476083 0.296147 128 254 179
0.466604 0.00511746 0.27836 128 254 179
0.410575 -0.417886 0.332705 128 254 179
0.177768 -0.269383 0.339846 128 254 179
-0.00404574 -0.205435 0.342789 128 254 179
0.265972 -0.231171 0.339572 128 254 179
0.465862 -0.40042 0.281728 128 254 179
0.458775 -0.228575 0.325329 128 254 179
0.464189 -0.239463 0.313151 128 254 179
0.451519 -0.460748 0.320554 128 254 179
0.463412 -0.0868433 0.313135 128 254 179
-0.0868322 -0.216813 0.341943 128 254 179
0.211587 -0.484448 0.304163 128 254 179
0.467425 -0.357095 0.313083 128 254 179
0.464296 -0.330483 0.196564 128 254 179
0.408595 -0.347539 0.336778 128 254 179
0.468222 -0.444533 0.0909007 128 254 179
0.16381 -0.0695992 0.345493 128 254 179
0.219686 -0.426094 0.336206 128 254 179
0.269648 -0.34186 0.336711 128 254 179
0.461611 -0.418716 0.234966 128 254 179
0.462974 -0.350611 0.21297 128 254 179
0.34522 -0.328036 0.337064 128 254 179
0.434761 -0.486074 0.279265 128 254 179
0.465571 -0.333189 0.267747 128 254 179
0.13039 -0.145505 0.344231 128 254 179
0.449538 -0.0715028 0.332257 128 254 179
0.464929 -0.34388 0.283087 128 254 179
0.462389 -0.362432 0.258605 128 254 179
0.448487 -0.385894 0.332326 128 254 179
0.444465 -0.171688 0.333498 128 254 179
0.222816 -0.437676 0.33606 128 254 179
0.437562 -0.255184 0.336275 128 254 179
0.466006 -0.239657 0.172598 128 254 179
0.438799 -0.194198 0.335021 128 254 179
0.46273 -0.299453 0.0970222 128 254 179
0.456858 -0.462351 0.316835 128 254 179
0.465185 -0.339201 0.283258 128 254 179
0.182927 -0.32028 0.33972 128 254 179
0.464563 -0.248375 0.304855 128 254 179
0.462884 -0.481465 0.28481 128 254 179
0.445536 -0.0252035 0.336133 128 254 179
0.408834 -0.483651 0.107976 128 254 179
0.465866 0.000119239 0.309813 128 254 179
0.43951 -0.121911 0.334935 128 254 179
0.467054 -0.125454 0.103418 128 254 179
0.468289 -0.378887 0.306333 128 254 179
0.466135 -0.108257 0.188183 128 254 179
0.0602844 -0.224666 0.342811 128 254 179
0.465842 -0.00912498 0.307592 128 254 179
0.346309 -0.105759 0.340532 128 254 179
0.285906 -0.283049 0.337519 128 254 179
0.339152 -0.069764 0.342274 128 254 179
0.46388 -0.216384 0.3132 128 254 179
0.465656 -0.44252 0.122325 128 254 179
0.465047 -0.341422 0.283214 128 254 179
0.36842 -0.430642 0.331854 128 254 179
0.463815 -0.137722 0.257188 128 254 179
0.4664 -0.241163 0.227167 128 254 179
0.225959 -0.484806 0.30122 128 254 179
0.345448 -0.188213 0.338728 128 254 179
0.108973 -0.391712 0.339621 128 254 179
0.465898 -0.324461 0.268364 128 254 179
0.470609 -0.477485 0.244341 128 254 179
0.347981 -0.486161 0.239907 128 254 179
0.0231774 -0.264974 0.342833 128 254 179
0.358721 -0.0418237 0.34291 128 254 179
0.464512 -0.2337 0.303686 128 254 179
0.455275 -0.113381 0.327849 128 254 179
0.465279 -0.21265 0.24829 128 254 179
0.275104 -0.473811 -0.0139915 128 254 179
-0.00899377 -0.314263 0.340839 128 254 179
0.451431 -0.485156 0.274882 128 254 179
0.465259 -0.0738834 0.246185 128 254 179
0.107275 -0.482463 0.333969 128 254 179
0.3759 -0.480739 0.327409 128 254 179
0.468042 -0.452511 0.28955 128 254 179
0.465843 -0.116622 0.215518 128 254 179
0.465817 -0.356632 0.287741 128 254 179
0.206422 -0.0721745 0.34496 128 254 179
0.093108 -0.197046 0.341915 128 254 179
0.465928 -0.313003 0.274971 128 254 179
0.465164 -0.0552393 0.279499 128 254 179
0.365769 -0.478176 0.0238878 128 254 179
0.465937 -0.0458591 0.214096 128 254 179
0.248409 -0.0942421 0.343406 128 254 179
0.252236 -0.483001 0.320695 128 254 179
0.438433 -0.0146646 0.338436 128 254 179
0.464017 -0.117238 0.251104 128 254 179
0.378299 -0.117047 0.339466 128 254 179
0.467467 -0.369554 0.313714 128 254 179
0.476272 -0.462915 0.0734913 128 254 179
0.466598 -0.183759 0.215699 128 254 179
0.459897 -0.360117 0.092944 128 254 179
0.468323 -0.386282 0.301749 128 254 179
0.466828 -0.144643 0.156377 128 254 179
0.0573675 -0.168725 0.342498 128 254 179
0.100044 -0.447299 0.337092 128 254 179
0.464708 -0.261116 0.124338 128 254 179
0.342446 -0.294745 0.337103 128 254 179
0.228854 -0.0850667 0.34414 128 254 179
0.299925 -0.155934 0.340309 128 254 179
0.464942 -0.343177 0.281872 128 254 179
0.46745 -0.169951 0.188335 128 254 179
0.465308 -0.0352665 0.305187 128 254 179
0.411525 -0.321907 0.337053 128 254 179
0.435872 -0.0505548 0.33837 128 254 179
0.384077 -0.104628 0.339925 128 254 179
0.434397 -0.402023 0.333194 128 254 179
0.390648 -0.473316 -0.0687057 128 254 179
0.413702 -0.064672 0.340626 128 254 179
0.445546 -0.460393 0.323339 128 254 179
0.466127 -0.300794 0.229963 128 254 179
0.407928 -0.474847 0.329002 128 254 179
0.45826 -0.444165 0.317555 128 254 179
0.463584 -0.230286 0.316309 128 254 179
0.0236301 -0.364266 0.339157 128 254 179
0.453566 -0.484322 0.280036 128 254 179
0.4675 -0.172816 0.187495 128 254 179
0.19499 -0.468279 0.336348 128 254 179
0.464587 -0.103167 0.242889 128 254 179
0.467667 -0.382777 0.292942 128 254 179
0.463451 -0.117106 0.288126 128 254 179
0.140324 -0.235822 0.34064 128 254 179
0.41666 -0.178169 0.336706 128 254 179
0.4648 -0.255077 0.290521 128 254 179
0.458077 -0.380425 0.062808 128 254 179
0.464449 -0.199774 0.28216 128 254 179
0.286582 -0.357318 0.336634 128 254 179
0.181909 -0.2269 0.339416 128 254 179
0.458003 -0.399339 0.090332 128 254 179
0.464046 -0.0945116 0.26613 128 254 179
0.120306 -0.430341 0.337765 128 254 179
0.205784 -0.181934 0.342347 128 254 179
0.162525 -0.375736 0.339359 128 254 179
0.459715 -0.432007 0.318793 128 254 179
0.448777 0.0197721 0.334821 128 254 179
0.457539 -0.408095 0.0765315 128 254 179
0.465733 -0.228774 0.119926 128 254 179
0.0421868 -0.192678 0.342926 128 254 179
0.458038 -0.40252 0.109948 128 254 179
0.218795 -0.481064 0.33371 128 254 179
0.449022 -0.255386 0.33274 128 254 179
0.460297 -0.406346 0.229728 128 254 179
0.437008 -0.357169 0.334979 128 254 179
0.166457 -0.465971 -0.0997933 128 254 179
0.466027 -0.193852 0.227556 128 254 179
0.465136 -0.339375 0.270717 128 254 179
0.265794 -0.293007 0.337322 128 254 179
0.464921 -0.23119 0.082223 128 254 179
0.457715 -0.390865 0.327132 128 254 179
0.161678 -0.245731 0.339793 128 254 179
0.449868 -0.157062 0.330948 128 254 179
0.416003 -0.476083 -0.0116772 128 254 179
0.46496 -0.277209 0.17497 128 254 179
0.405277 -0.319382 0.337198 128 254 179
0.467186 -0.39498 0.314983 128 254 179
0.260214 -0.0530307 0.344134 128 254 179
0.464049 -0.401217 0.273976 128 254 179
0.116551 -0.213353 0.341349 128 254 179
0.241993 -0.0636153 0.344348 128 254 179
0.458636 -0.23519 0.32558 128 254 179
0.428604 -0.481838 0.317886 128 254 179
0.458723 -0.409209 0.150236 128 254 179
0.19253 -0.485073 0.301324 128 254 179
0.463947 -0.200637 0.302831 128 254 179
0.431302 -0.213341 0.336416 128 254 179
0.46646 -0.108136 0.14146 128 254 179
0.203979 -0.468417 0.336057 128 254 179
0.28971 -0.229288 0.339124 128 254 179
0.0730885 -0.216747 0.342443 128 254 179
0.435778 -0.405741 0.33291 128 254 179
0.450747 -0.43657 0.323717 128 254 179
0.0714937 -0.19245 0.342414 128 254 179
0.466164 -0.107305 0.180516 128 254 179
0.466198 -0.259887 0.242533 128 254 179
0.433012 -0.129924 0.335726 128 254 179
0.46338 -0.344206 0.203065 128 254 179
0.461295 -0.0233529 0.323463 128 254 179
0.384269 -0.263084 0.337993 128 254 179
0.467382 -0.479774 0.278738 128 254 179
0.286898 -0.481616 0.156854 128 254 179
0.116432 -0.131776 0.344522 128 254 179
0.465472 -0.449009 0.235431 128 254 179
0.460021 -0.209213 0.323497 128 254 179
0.464968 -0.237135 0.268782 128 254 179
0.4654 -0.0890101 0.227953 128 254 179
0.143477 -0.280962 0.34108 128 254 179
0.336377 -0.482974 0.32401 128 254 179
0.248421 -0.483422 0.313062 128 254 179
0.459929 -0.364494 0.141151 128 254 179
0.465073 -0.4098 0.277568 128 254 179
0.302375 -0.36538 0.33652 128 254 179
0.209657 -0.177174 0.342483 128 254 179
0.278249 -0.110241 0.341832 128 254 179
0.311672 -0.464423 0.333904 128 254 179
0.321997 -0.475197 0.332544 128 254 179
0.164376 -0.482249 0.331335 128 254 179
0.393342 -0.0525496 0.341464 128 254 179
0.465326 -0.296118 0.294923 128 254 179
0.302307 -0.0799209 0.342143 128 254 179
0.417171 -0.00171614 0.341461 128 254 179
0.459276 -0.388615 0.180211 128 254 179
0.0456835 -0.242902 0.343079 128 254 179
