ply
format ascii 1.0
comment Created by Open3D
element vertex 1193
property double x
property double y
property double z
property uchar red
property uchar green
property uchar blue
end_header
-0.106835 -0.478501 0.0772004 31 142 243
-0.2149 -0.33801 -0.0490721 31 142 243
-0.19621 -0.290086 0.104189 31 142 243
0.0193094 -0.255202 -0.235026 31 142 243
-0.108462 -0.302856 -0.234112 31 142 243
-0.201344 -0.331332 0.225098 31 142 243
-0.188504 -0.365381 -0.114156 31 142 243
-0.0597711 -0.410863 -0.186586 31 142 243
-0.177933 -0.481034 0.0227261 31 142 243
0.138283 -0.276289 -0.2289 31 142 243
0.122407 -0.479263 -0.14296 31 142 243
-0.205793 -0.364503 -0.211246 31 142 243
-0.205838 -0.373408 0.230388 31 142 243
-0.171915 -0.392476 -0.153461 31 142 243
-0.214399 -0.300749 0.0936438 31 142 243
0.112065 -0.481432 0.257897 31 142 243
-0.209785 -0.213191 0.135295 31 142 243
-0.198285 -0.251851 0.159258 31 142 243
0.171817 -0.457963 -0.160621 31 142 243
-0.086412 -0.440004 -0.168789 31 142 243
-0.0175575 -0.480116 -0.159657 31 142 243
-0.19501 -0.345723 0.0262845 31 142 243
0.185955 -0.273465 -0.228162 31 142 243
0.270019 -0.476158 -0.0292947 31 142 243
0.244498 -0.297532 -0.229423 31 142 243
-0.158359 -0.368204 -0.183107 31 142 243
-0.201227 -0.267593 -0.184827 31 142 243
-0.177443 -0.442505 0.340379 31 142 243
-0.200103 -0.303155 0.298645 31 142 243
-0.214441 -0.400693 0.0363676 31 142 243
0.0230668 -0.341187 -0.214257 31 142 243
0.156293 -0.250385 -0.233503 31 142 243
-0.205986 -0.233718 -0.0399997 31 142 243
-0.215098 -0.349437 -0.0423728 31 142 243
0.0315351 -0.298515 -0.227136 31 142 243
0.21493 -0.41494 -0.180649 31 142 243
-0.197121 -0.242783 0.0447472 31 142 243
-0.207081 -0.230591 0.271839 31 142 243
0.0976636 -0.321212 -0.221755 31 142 243
0.194715 -0.318952 -0.220268 31 142 243
-0.19746 -0.251338 -0.122727 31 142 243
0.188437 -0.483015 0.17862 31 142 243
-0.192697 -0.34864 -0.0740395 31 142 243
0.298888 -0.44616 -0.0327152 31 142 243
-0.203003 -0.224446 -0.0930159 31 142 243
-0.198967 -0.325142 0.161396 31 142 243
-0.203364 -0.465892 0.214588 31 142 243
-0.215418 -0.374577 0.11101 31 142 243
0.0739432 -0.477501 0.0739932 31 142 243
-0.083658 -0.480703 -0.119115 31 142 243
-0.209327 -0.303898 -0.142327 31 142 243
-0.0632932 -0.48533 0.142299 31 142 243
-0.12692 -0.484978 0.0148526 31 142 243
-0.212141 -0.205125 0.234547 31 142 243
-0.142131 -0.413974 -0.169699 31 142 243
0.172455 -0.481574 0.127401 31 142 243
-0.198388 -0.341601 0.0864467 31 142 243
-0.197338 -0.25307 -0.123001 31 142 243
-0.209987 -0.222605 0.0894625 31 142 243
-0.119092 -0.309065 -0.209626 31 142 243
-0.198854 -0.334784 0.0961482 31 142 243
-0.179838 -0.406669 -0.115875 31 142 243
-0.197961 -0.298848 0.144995 31 142 243
0.0159511 -0.487424 0.00331494 31 142 243
-0.169108 -0.469792 -0.0848554 31 142 243
-0.195633 -0.283466 0.0844251 31 142 243
-0.190147 -0.392318 0.00946473 31 142 243
-0.183698 -0.414851 -0.0875891 31 142 243
-0.185602 -0.325462 -0.152488 31 142 243
-0.194784 -0.266198 -0.0306919 31 142 243
-0.169516 -0.325386 -0.231722 31 142 243
-0.21501 -0.386748 0.115701 31 142 243
-0.210581 -0.266408 -0.0223876 31 142 243
-0.201786 -0.228141 0.100235 31 142 243
-0.212304 -0.385992 -0.174978 31 142 243
-0.206705 -0.248066 -0.0908603 31 142 243
-0.0182374 -0.485201 0.300459 31 142 243
-0.0854649 -0.477549 0.0596225 31 142 243
-0.0680418 -0.349564 -0.209844 31 142 243
0.0542462 -0.480107 0.14011 31 142 243
-0.203426 -0.419375 0.324504 31 142 243
-0.187489 -0.389296 -0.0552646 31 142 243
-0.185668 -0.411043 -0.0407032 31 142 243
-0.214089 -0.301136 0.194767 31 142 243
0.286329 -0.44983 -0.0365097 31 142 243
-0.182515 -0.311363 -0.167591 31 142 243
-0.184477 -0.421504 -0.0519397 31 142 243
0.00647254 -0.484662 0.248478 31 142 243
-0.137209 -0.479946 -0.0922955 31 142 243
-0.204836 -0.253392 0.274827 31 142 243
-0.194246 -0.322153 -0.0769679 31 142 243
0.0825752 -0.481505 0.156746 31 142 243
-0.166733 -0.382966 -0.171138 31 142 243
-0.206295 -0.443297 0.294485 31 142 243
-0.213226 -0.199273 0.247978 31 142 243
-0.203717 -0.383665 0.110129 31 142 243
0.151711 -0.247566 -0.234415 31 142 243
-0.16132 -0.452986 0.316877 31 142 243
-0.206427 -0.236349 0.268222 31 142 243
0.243424 -0.322238 -0.223952 31 142 243
0.22645 -0.4657 -0.0444838 31 142 243
-0.09317 -0.47174 -0.0310972 31 142 243
-0.107165 -0.477931 0.0672701 31 142 243
-0.162812 -0.285543 -0.22356 31 142 243
-0.123833 -0.471229 -0.0268628 31 142 243
0.332837 -0.422175 -0.0740679 31 142 243
0.201431 -0.416948 -0.180259 31 142 243
-0.213197 -0.259699 0.140405 31 142 243
0.156566 -0.475169 -0.039536 31 142 243
0.32984 -0.427967 -0.0879374 31 142 243
-0.19548 -0.285055 -0.090641 31 142 243
0.292904 -0.442417 -0.0146248 31 142 243
-0.0654816 -0.379759 -0.199117 31 142 243
-0.199204 -0.325531 0.110044 31 142 243
-0.212412 -0.22632 0.112952 31 142 243
-0.195386 -0.292981 0.0727812 31 142 243
-0.195886 -0.286028 0.0883484 31 142 243
-0.200661 -0.277296 0.200166 31 142 243
0.243703 -0.482449 0.149064 31 142 243
-0.0346504 -0.46805 -0.164211 31 142 243
-0.205031 -0.244883 -0.131173 31 142 243
0.11268 -0.431585 -0.0707216 0 180 235
-0.17645 -0.391281 0.0294566 0 180 235
-0.210775 -0.250476 -0.18114 0 180 235
0.00804167 -0.321591 -0.188608 0 180 235
-0.173964 -0.393497 0.0561096 0 180 235
0.160414 -0.323006 -0.15526 0 180 235
-0.0694198 -0.34136 -0.226043 0 180 235
-0.211088 -0.233372 -0.101218 0 180 235
-0.14527 -0.424364 -0.018714 0 180 235
0.209654 -0.411562 -0.146282 0 180 235
0.0682583 -0.487336 0.170802 0 180 235
-0.129866 -0.4585 -0.246696 0 180 235
0.102329 -0.485702 0.147491 0 180 235
-0.135447 -0.316479 -0.204798 0 180 235
-0.174797 -0.325329 -0.230558 0 180 235
0.139406 -0.441007 -0.152642 0 180 235
0.170816 -0.47009 -0.0289205 0 180 235
0.237285 -0.337554 -0.140492 0 180 235
-0.214016 -0.238105 -0.199199 0 180 235
-0.111597 -0.475429 0.0711569 0 180 235
0.135337 -0.366344 -0.185107 0 180 235
0.0296751 -0.479641 0.0925485 0 180 235
0.019255 -0.489154 0.203877 0 180 235
-0.218237 -0.207557 -0.0142232 0 180 235
-0.111912 -0.485982 0.253672 0 180 235
0.120847 -0.421456 -0.224016 0 180 235
-0.131312 -0.481234 0.25829 0 180 235
0.338581 -0.393393 -0.0602456 0 180 235
0.123287 -0.447181 -0.200439 0 180 235
-0.19497 -0.341525 0.0314768 0 180 235
-0.160219 -0.3125 -0.217655 0 180 235
0.113589 -0.481269 0.0895381 0 180 235
0.149209 -0.477191 0.0220177 0 180 235
-0.191953 -0.310384 -0.0920803 0 180 235
-0.216021 -0.236355 -0.218195 0 180 235
-0.191409 -0.324378 0.0967456 0 180 235
-0.0308228 -0.471326 -0.0339333 0 180 235
0.195365 -0.337831 -0.153741 0 180 235
0.106292 -0.374929 -0.111697 0 180 235
-0.198125 -0.323104 0.0395561 0 180 235
-0.0656799 -0.341696 -0.225686 0 180 235
0.13349 -0.442551 -0.166893 0 180 235
0.180736 -0.467307 -0.0388689 0 180 235
-0.136139 -0.483597 0.226257 0 180 235
-0.208757 -0.253789 -0.0781367 0 180 235
0.276734 -0.345829 -0.0929969 0 180 235
0.221384 -0.414029 -0.111898 0 180 235
-0.191073 -0.366282 -0.0184093 0 180 235
0.127249 -0.333122 -0.196634 0 180 235
-0.193576 -0.333169 -0.243995 0 180 235
-0.108409 -0.440421 0.0157226 0 180 235
-0.131361 -0.430466 0.0246228 0 180 235
-0.02961 -0.350247 -0.111523 0 180 235
0.0544504 -0.483823 0.153583 0 180 235
0.264203 -0.347678 -0.135771 0 180 235
0.158021 -0.476243 0.0159672 0 180 235
-0.101025 -0.475488 0.0760129 0 180 235
-0.212219 -0.216613 -0.0505018 0 180 235
-0.0100605 -0.328049 -0.207294 0 180 235
0.173044 -0.33611 -0.157428 0 180 235
-0.0932657 -0.47551 0.0729417 0 180 235
-0.14117 -0.431078 0.0505045 0 180 235
0.00422667 -0.38462 -0.0923751 0 180 235
-0.200616 -0.275264 0.189071 0 180 235
0.0848605 -0.33049 -0.157229 0 180 235
0.223229 -0.410547 -0.0882328 0 180 235
0.129678 -0.369758 -0.0562282 0 180 235
0.0939666 -0.348849 -0.129906 0 180 235
0.151179 -0.477472 0.0265645 0 180 235
0.150078 -0.446064 -0.218704 0 180 235
-0.224845 -0.209116 0.0503906 0 180 235
-0.199692 -0.271207 -0.168507 0 180 235
-0.203477 -0.264311 -0.16608 0 180 235
-0.0992778 -0.326007 -0.218914 0 180 235
-0.211742 -0.239331 0.00866737 0 180 235
-0.0939163 -0.391805 -0.0738167 0 180 235
-0.21412 -0.215048 0.0636725 0 180 235
-0.185706 -0.293761 -0.17196 0 180 235
0.157167 -0.439302 -0.148625 0 180 235
-0.198327 -0.349542 -0.252455 0 180 235
-0.169408 -0.365466 -0.243664 0 180 235
-0.208633 -0.254208 -0.0325665 0 180 235
-0.0372853 -0.409933 -0.0714383 0 180 235
-0.10566 -0.318419 -0.189981 0 180 235
0.0187692 -0.479433 0.0942624 0 180 235
-0.209945 -0.249184 -0.0530364 0 180 235
0.132337 -0.324957 -0.148295 0 180 235
0.200012 -0.413884 -0.133897 0 180 235
0.146568 -0.413281 -0.092874 0 180 235
-0.024108 -0.44761 -0.0601312 0 180 235
-0.208931 -0.252092 0.0204842 0 180 235
0.178103 -0.411715 -0.102775 0 180 235
0.118792 -0.321503 -0.16452 0 180 235
-0.189259 -0.42345 -0.24548 0 180 235
0.0389471 -0.392483 -0.122262 0 180 235
0.153896 -0.456542 -0.222667 0 180 235
-0.141036 -0.418044 -0.0382983 0 180 235
0.291341 -0.422684 -0.16048 0 180 235
0.0770441 -0.429093 -0.0864403 0 180 235
0.0606944 -0.388977 -0.0970302 0 180 235
0.050677 -0.473458 -0.0339132 0 180 235
0.246236 -0.410201 -0.130566 0 180 235
-0.208127 -0.277796 -0.2392 0 180 235
0.136346 -0.337277 -0.0989173 0 180 235
-0.191959 -0.36349 0.00698419 0 180 235
0.00531704 -0.433574 -0.0724161 0 180 235
-0.122451 -0.31629 -0.189475 0 180 235
-0.210885 -0.23569 -0.0966801 0 180 235
-0.0347343 -0.406779 -0.0735526 0 180 235
-0.079552 -0.492029 0.234183 0 180 235
-0.203882 -0.290845 -0.0582685 0 180 235
-0.0896257 -0.335009 -0.225467 0 180 235
0.127471 -0.343487 -0.179103 0 180 235
0.133347 -0.370448 -0.187478 0 180 235
-0.0772974 -0.492093 0.234089 0 180 235
-0.202287 -0.29497 -0.0834691 0 180 235
0.0056573 -0.478039 0.0528555 0 180 235
-0.18656 -0.433706 0.20804 0 180 235
-0.202874 -0.316331 -0.0450683 0 180 235
-0.00794356 -0.44821 -0.0641881 0 180 235
0.120219 -0.383013 -0.17227 0 180 235
0.350533 -0.40796 -0.0922755 0 180 235
0.148032 -0.477883 0.030051 0 180 235
0.128111 -0.336251 -0.122301 0 180 235
-0.0755041 -0.463673 -0.00592617 0 180 235
-0.159667 -0.377161 -0.0545219 0 180 235
0.0820715 -0.330267 -0.191597 0 180 235
-0.155259 -0.438868 0.0880737 0 180 235
0.239808 -0.422801 -0.185487 0 180 235
-0.204853 -0.289354 -0.0260177 0 180 235
-0.190544 -0.301333 -0.227561 0 180 235
-0.2156 -0.215281 -0.161767 0 180 235
-0.0240475 -0.463623 -0.0517611 0 180 235
0.0659368 -0.436456 -0.082421 0 180 235
-0.216006 -0.207726 -0.126734 0 180 235
-0.216562 -0.208478 -0.151927 0 180 235
0.0846318 -0.401271 -0.0948907 0 180 235
-0.20102 -0.326868 -0.0557427 0 180 235
0.243506 -0.408892 -0.148656 0 180 235
0.139315 -0.361677 -0.182127 0 180 235
0.1275 -0.344969 -0.134992 0 180 235
0.0317988 -0.482951 0.161843 0 180 235
0.30547 -0.417912 -0.102326 0 180 235
0.16822 -0.335433 -0.158729 0 180 235
-0.013666 -0.466712 -0.249124 0 180 235
0.0585135 -0.331825 -0.135123 0 180 235
0.010337 -0.49727 0.2741 0 180 235
-0.0634699 -0.426683 -0.245347 0 180 235
0.183895 -0.422938 -0.111522 0 180 235
0.22557 -0.411946 -0.126578 0 180 235
0.136183 -0.484221 0.120181 0 180 235
-0.0843208 -0.491851 0.234418 0 180 235
-0.116584 -0.328957 -0.225296 0 180 235
0.152963 -0.347266 -0.174401 0 180 235
0.109597 -0.321094 -0.164534 0 180 235
0.172405 -0.411265 -0.0876393 0 180 235
0.245484 -0.393762 -0.171642 0 180 235
-0.20811 -0.255076 -0.096189 0 180 235
-0.221322 -0.209576 0.118839 0 180 235
0.156861 -0.421599 -0.107555 0 180 235
0.247617 -0.404089 -0.147976 0 180 235
-0.0408422 -0.387866 -0.082278 0 180 235
0.153211 -0.464716 -0.0854646 0 180 235
0.0225865 -0.316684 -0.153162 0 180 235
0.224918 -0.464372 -0.0252751 0 180 235
-0.179416 -0.389274 -0.00622936 0 180 235
0.100444 -0.445766 -0.19356 0 180 235
0.0325005 -0.475524 -0.0072322 0 180 235
0.164949 -0.389781 -0.0524265 0 180 235
-0.0106181 -0.369264 -0.0990966 0 180 235
0.132134 -0.423949 -0.111764 0 180 235
0.153747 -0.453583 -0.221038 0 180 235
-0.15119 -0.429974 0.0693391 0 180 235
0.13115 -0.44919 -0.206432 0 180 235
-0.216777 -0.210662 0.101604 0 180 235
0.17337 -0.466154 -0.0526145 0 180 235
0.164202 -0.424613 -0.100344 0 180 235
0.0366427 -0.406967 -0.0841553 0 180 235
0.168545 -0.335162 -0.161929 0 180 235
-0.193305 -0.374019 0.197274 0 180 235
0.0900042 -0.434 -0.068658 0 180 235
-0.0190231 -0.47264 -0.0280158 0 180 235
-0.215252 -0.208849 0.0645321 0 180 235
0.240949 -0.464626 -0.00355422 0 180 235
0.052303 -0.328669 -0.18943 0 180 235
0.133372 -0.430405 -0.0984702 0 180 235
0.158343 -0.479749 0.0590092 0 180 235
-0.161662 -0.305509 -0.162236 0 180 235
0.374053 -0.391525 -0.0458835 0 180 235
-0.198669 -0.338126 -0.0422497 0 180 235
-0.179904 -0.379577 0.045406 0 180 235
-0.0852405 -0.470011 0.0141195 0 180 235
-0.142791 -0.311463 -0.178814 0 180 235
0.127377 -0.385409 -0.110539 0 180 235
-0.141787 -0.423988 -0.033007 0 180 235
0.0979329 -0.436182 -0.148589 0 180 235
0.0389236 -0.430417 -0.0781 0 180 235
-0.0410497 -0.315391 -0.149232 0 180 235
0.0448711 -0.365133 -0.108598 0 180 235
0.159057 -0.33952 -0.121704 0 180 235
0.14383 -0.480867 0.0718552 0 180 235
0.0536821 -0.431302 -0.172074 0 180 235
-0.0813434 -0.42675 -0.245815 0 180 235
0.257655 -0.403576 -0.146681 0 180 235
-0.117004 -0.334626 -0.122584 0 180 235
-0.0179372 -0.327932 -0.209221 0 180 235
0.0804229 -0.335718 -0.11528 0 180 235
0.134861 -0.396078 -0.164084 0 180 235
-0.0644865 -0.471618 -0.012985 0 180 235
0.15793 -0.456972 -0.0970198 0 180 235
-0.170014 -0.327112 -0.230436 0 180 235
0.224374 -0.384449 -0.148974 0 180 235
-0.2006 -0.288876 -0.0933178 0 180 235
-0.139119 -0.441551 0.0646422 0 180 235
0.102746 -0.391253 -0.172774 0 180 235
0.079373 -0.383382 -0.222496 0 180 235
0.146016 -0.361666 -0.17976 0 180 235
0.00308685 -0.398958 -0.0861077 0 180 235
0.24914 -0.380146 -0.146491 0 180 235
-0.137849 -0.428172 0.023484 0 180 235
0.0394273 -0.44635 -0.075441 0 180 235
0.0761807 -0.376044 -0.21982 0 180 235
0.061694 -0.438741 -0.243886 0 180 235
0.20026 -0.431514 -0.190656 0 180 235
0.261786 -0.412741 -0.109021 0 180 235
-0.206205 -0.287302 -0.0160675 0 180 235
0.112917 -0.454902 -0.232327 0 180 235
0.237116 -0.411938 -0.083548 0 180 235
-0.167265 -0.398601 -0.034306 0 180 235
0.203899 -0.42478 -0.189377 0 180 235
0.255319 -0.363595 -0.151643 0 180 235
0.335892 -0.377713 -0.108736 0 180 235
-0.155013 -0.417536 -0.0256286 0 180 235
0.161938 -0.418571 -0.135792 0 180 235
-0.201553 -0.320243 -0.0292593 0 180 235
-0.17787 -0.397878 -0.246132 0 180 235
-0.205064 -0.253769 0.212547 0 180 235
0.121443 -0.47431 -0.0343701 0 180 235
0.1831 -0.383646 -0.156972 0 180 235
-0.209755 -0.245827 -0.0883343 0 180 235
0.204467 -0.44858 -0.186259 0 180 235
0.227372 -0.415368 -0.0918493 0 180 235
-0.221502 -0.21007 0.133058 0 180 235
0.102575 -0.395877 -0.220486 0 180 235
-0.0238552 -0.476625 0.0331313 0 180 235
0.0201396 -0.46976 -0.0629311 0 180 235
0.0371216 -0.482918 0.155288 0 180 235
0.0663804 -0.319139 -0.165539 0 180 235
-0.186831 -0.347373 0.101573 0 180 235
-0.206465 -0.273803 -0.224877 0 180 235
-0.0512037 -0.317204 -0.164737 0 180 235
-0.092237 -0.476244 0.129038 0 180 235
0.287254 -0.346627 -0.140219 0 180 235
-0.172362 -0.402315 -0.00659597 0 180 235
0.345644 -0.383587 -0.0646023 0 180 235
0.0516638 -0.479674 0.0748244 0 180 235
0.212312 -0.340392 -0.134542 0 180 235
0.1809 -0.384542 -0.157203 0 180 235
0.0346449 -0.361003 -0.219304 0 180 235
-0.190504 -0.293933 -0.207116 0 180 235
0.197298 -0.399793 -0.152395 0 180 235
0.182942 -0.341548 -0.108135 0 180 235
0.0532445 -0.492135 0.197488 0 180 235
0.358287 -0.374228 -0.130687 0 180 235
0.0457974 -0.356398 -0.216228 0 180 235
-0.180038 -0.366114 -0.0469898 0 180 235
0.20575 -0.357375 -0.159001 0 180 235
0.0958226 -0.482232 0.104035 0 180 235
-0.215553 -0.216339 0.173759 0 180 235
0.134263 -0.351005 -0.179976 0 180 235
0.103281 -0.334554 -0.183174 0 180 235
0.0450296 -0.391111 -0.0937 0 180 235
0.0140819 -0.317687 -0.16866 0 180 235
-0.148098 -0.388876 -0.245844 0 180 235
0.0194034 -0.472989 -0.0340331 0 180 235
-0.0937209 -0.474637 0.0344015 0 180 235
0.0478999 -0.318467 -0.164709 0 180 235
-0.21322 -0.225705 -0.117203 0 180 235
-0.174407 -0.301077 -0.149289 0 180 235
0.105776 -0.46872 -0.0803047 0 180 235
-0.11165 -0.438396 -0.00963582 0 180 235
-0.199775 -0.295384 -0.0899997 0 180 235
0.221409 -0.343681 -0.0961643 0 180 235
0.0281242 -0.385036 -0.152384 0 180 235
0.0856414 -0.37112 -0.214613 0 180 235
-0.0819406 -0.318656 -0.177278 0 180 235
0.135776 -0.352309 -0.179863 0 180 235
0.106986 -0.46355 -0.241697 0 180 235
0.134032 -0.337826 -0.198035 0 180 235
0.133814 -0.450594 -0.23362 0 180 235
0.0272135 -0.475094 -0.0112366 0 180 235
-0.208872 -0.262722 0.0105571 0 180 235
-0.193294 -0.358023 -0.0391277 0 180 235
0.102099 -0.443654 -0.179361 0 180 235
0.0406905 -0.474455 -0.0222169 0 180 235
-0.192631 -0.349288 0.172684 0 180 235
-0.0891798 -0.44407 -0.0245444 0 180 235
-0.198516 -0.303978 -0.0863562 0 180 235
0.0862262 -0.418488 -0.0902055 0 180 235
0.0904002 -0.365401 -0.208173 0 180 235
-0.191723 -0.364905 -0.0171978 0 180 235
-0.120211 -0.468533 0.0683545 0 180 235
-0.0360701 -0.475197 0.0113935 0 180 235
0.0617382 -0.475487 -0.014838 0 180 235
-0.0708706 -0.442599 -0.0494688 0 180 235
-0.22084 -0.208711 0.0814638 0 180 235
0.0203169 -0.389597 -0.233652 0 180 235
-0.171399 -0.474263 0.190477 0 180 235
-0.0472996 -0.327832 -0.21695 0 180 235
0.110701 -0.441134 -0.164932 0 180 235
-0.104964 -0.41534 -0.0555035 0 180 235
-0.0686485 -0.452495 -0.0294449 0 180 235
0.274584 -0.385036 -0.157736 0 180 235
-0.177873 -0.380786 -0.0369226 0 180 235
-0.033151 -0.333596 -0.218459 0 180 235
-0.0781759 -0.455327 -0.00744975 0 180 235
-0.18758 -0.428045 -0.245857 0 180 235
-0.182573 -0.303472 -0.215443 0 180 235
-0.167817 -0.475957 0.200699 0 180 235
0.0478472 -0.372163 -0.100819 0 180 235
-0.18693 -0.297794 -0.20782 0 180 235
-0.169693 -0.34146 -0.236189 0 180 235
-0.13424 -0.429553 -0.0217383 0 180 235
0.0666058 -0.318247 -0.159231 0 180 235
0.29843 -0.410695 -0.0598027 0 180 235
0.0480483 -0.469386 -0.0710721 0 180 235
-0.218009 -0.219249 -0.207862 0 180 235
0.0620142 -0.357073 -0.21273 0 180 235
-0.217967 -0.208725 -0.159858 0 180 235
-0.179908 -0.384081 -0.24569 0 180 235
-0.12307 -0.475887 0.127903 0 180 235
-0.199787 -0.281983 -0.217762 0 180 235
-0.164291 -0.380379 -0.0489839 0 180 235
-0.163367 -0.421202 0.0892169 0 180 235
0.105368 -0.411515 -0.22564 0 180 235
-0.192439 -0.404516 0.212573 0 180 235
-0.00453926 -0.334027 -0.127637 0 180 235
0.140909 -0.320508 -0.157441 0 180 235
-0.210598 -0.241381 -0.112482 0 180 235
0.315103 -0.390971 -0.0717608 0 180 235
0.129267 -0.468586 -0.0793151 0 180 235
0.159635 -0.487216 0.170619 0 180 235
0.245087 -0.348197 -0.0331923 0 180 235
-0.115395 -0.313956 -0.156151 0 180 235
-0.213916 -0.230831 -0.182574 0 180 235
0.232548 -0.373188 -0.16353 0 180 235
-0.007641 -0.478792 0.122411 0 180 235
-0.211508 -0.244542 -0.171322 0 180 235
-0.20961 -0.243026 0.0406617 0 180 235
-0.0461193 -0.318667 -0.183454 0 180 235
-0.0459751 -0.464747 -0.0416076 0 180 235
-0.0559116 -0.404122 -0.244033 0 180 235
0.209755 -0.362572 -0.158213 0 180 235
0.0711391 -0.461624 -0.0800071 0 180 235
-0.0324338 -0.379859 -0.086923 0 180 235
0.316151 -0.443934 -0.0225544 0 180 235
0.351231 -0.34492 -0.129368 0 180 235
-0.143297 -0.477205 0.177842 0 180 235
0.202168 -0.421526 -0.0828388 0 180 235
-0.212783 -0.232267 -0.0639262 0 180 235
-0.136326 -0.3684 -0.241842 0 180 235
-0.219632 -0.209378 0.116658 0 180 235
0.267075 -0.359331 -0.115336 0 180 235
-0.194557 -0.384448 0.215451 0 180 235
0.121501 -0.482607 0.105187 0 180 235
0.0618421 -0.468482 -0.0768767 0 180 235
-0.214285 -0.206599 0.0289661 0 180 235
0.175568 -0.379167 -0.117085 0 180 235
0.0575828 -0.475519 -0.0135385 0 180 235
0.0387779 -0.496976 0.221085 0 180 235
0.323478 -0.378105 -0.121155 0 180 235
-0.088914 -0.3728 -0.0858069 0 180 235
-0.0353711 -0.499729 0.26759 0 180 235
-0.110898 -0.403161 -0.246414 0 180 235
0.0589891 -0.4304 -0.177844 0 180 235
-0.0582203 -0.320039 -0.194491 0 180 235
0.111215 -0.444665 -0.184006 0 180 235
0.0533882 -0.318792 -0.16558 0 180 235
0.0954657 -0.440971 -0.167252 0 180 235
-0.0634077 -0.496608 0.26804 0 180 235
0.0117879 -0.338209 -0.127472 0 180 235
0.13761 -0.420995 -0.161281 0 180 235
0.0129036 -0.323508 -0.192056 0 180 235
0.175847 -0.336214 -0.159413 0 180 235
0.124616 -0.481838 0.0897105 0 180 235
-0.18125 -0.30188 -0.118909 0 180 235
0.280621 -0.427939 -0.156713 0 180 235
0.0791845 -0.440491 -0.170495 0 180 235
0.0769478 -0.320775 -0.172947 0 180 235
0.278694 -0.377392 -0.0960277 0 180 235
-0.166618 -0.475281 0.238642 0 180 235
0.0586694 -0.327202 -0.163958 0 180 235
-0.0425362 -0.457117 -0.248472 0 180 235
0.215629 -0.341366 -0.0556516 0 180 235
-0.143472 -0.478785 0.194347 0 180 235
0.101246 -0.477496 0.000178121 0 180 235
-0.206728 -0.26313 0.0743957 0 180 235
-0.0219528 -0.49585 0.290244 0 180 235
-0.192044 -0.408414 -0.243632 0 180 235
-0.0940587 -0.423433 -0.0535986 0 180 235
-0.113093 -0.317423 -0.187626 0 180 235
-0.171509 -0.397563 0.0407775 0 180 235
-0.0832509 -0.491997 0.264639 0 180 235
-0.19355 -0.350743 0.180137 0 180 235
0.315493 -0.39963 -0.135246 0 180 235
-0.114506 -0.420242 -0.0483312 0 180 235
-0.169825 -0.303128 -0.152212 0 180 235
-0.199663 -0.275613 -0.128854 0 180 235
-0.214536 -0.206589 0.0258818 0 180 235
0.0221243 -0.475077 -0.0100375 0 180 235
-0.207849 -0.278975 -0.000900157 0 180 235
-0.211535 -0.209271 -0.0165983 0 180 235
-0.146577 -0.380933 -0.244826 0 180 235
-0.000133574 -0.500061 0.264112 0 180 235
-0.182861 -0.38136 -0.0138402 0 180 235
-0.162224 -0.43142 -0.24598 0 180 235
-0.122034 -0.434461 0.0225823 0 180 235
0.0476223 -0.499582 0.264643 0 180 235
0.0825154 -0.470311 -0.0683015 0 180 235
0.0889388 -0.498574 0.217506 0 180 235
0.196617 -0.450266 -0.18775 0 180 235
-0.213969 -0.229169 -0.178464 0 180 235
-0.125644 -0.407648 -0.247132 0 180 235
0.0796379 -0.330414 -0.146997 0 180 235
0.152345 -0.480939 0.0741574 0 180 235
-0.211454 -0.235375 -0.115229 0 180 235
-0.0479254 -0.493394 0.23727 0 180 235
-0.052759 -0.452923 -0.0446925 0 180 235
0.184338 -0.384774 -0.113446 0 180 235
-0.0437248 -0.459434 -0.0457058 0 180 235
0.162485 -0.323049 -0.154054 0 180 235
0.297785 -0.397521 -0.155153 0 180 235
-0.081193 -0.319452 -0.193871 0 180 235
0.155443 -0.446745 -0.204911 0 180 235
0.0996768 -0.439495 -0.158879 0 180 235
0.198195 -0.3436 -0.134755 0 180 235
-0.201284 -0.304432 0.0564387 0 180 235
0.0580172 -0.449834 -0.0784951 0 180 235
-0.213383 -0.239297 -0.192995 0 180 235
0.0657282 -0.481653 0.118771 0 180 235
0.133605 -0.323184 -0.16673 0 180 235
0.307264 -0.376917 -0.137687 0 180 235
-0.213496 -0.224481 -0.137396 0 180 235
0.243124 -0.408082 -0.179746 0 180 235
0.14836 -0.38512 -0.185328 0 180 235
0.0544007 -0.326535 -0.156372 0 180 235
0.0397241 -0.417932 -0.152375 0 180 235
-0.213443 -0.242082 -0.199093 0 180 235
-0.18045 -0.453277 -0.245204 0 180 235
-0.213652 -0.234716 -0.187557 0 180 235
-0.217552 -0.207337 0.0431718 0 180 235
-0.144562 -0.400268 -0.0474683 0 180 235
-0.195459 -0.279044 -0.169612 0 180 235
-0.120329 -0.340465 -0.230529 0 180 235
-0.218378 -0.208897 -0.167737 0 180 235
0.197103 -0.371309 -0.119253 0 180 235
0.345244 -0.366526 -0.137258 0 180 235
0.0635109 -0.433901 -0.1773 0 180 235
-0.0296766 -0.477352 0.0961627 0 180 235
0.134032 -0.437753 -0.0362345 0 180 235
0.0165244 -0.365382 -0.108811 0 180 235
0.286273 -0.416956 -0.109328 0 180 235
0.166608 -0.438912 -0.191314 0 180 235
-0.0726953 -0.318815 -0.165072 0 180 235
-0.210178 -0.253079 -0.186768 0 180 235
0.259212 -0.356367 0.00440565 0 180 235
0.0895724 -0.457239 -0.237446 0 180 235
-0.0889028 -0.478022 0.175486 0 180 235
-0.134915 -0.399806 -0.24741 0 180 235
0.0416018 -0.39278 -0.114537 0 180 235
0.103352 -0.333105 -0.144464 0 180 235
-0.0495046 -0.317753 -0.16998 0 180 235
0.101359 -0.372608 -0.11202 0 180 235
0.279345 -0.35072 -0.120003 0 180 235
0.10782 -0.396151 -0.170476 0 180 235
-0.0921171 -0.481759 0.203249 0 180 235
-0.210004 -0.253572 -0.155697 0 180 235
0.107693 -0.372595 -0.113455 0 180 235
-0.214341 -0.221572 -0.15587 0 180 235
0.0070549 -0.376027 -0.0984202 0 180 235
-0.151639 -0.455633 0.0999993 0 180 235
-0.20114 -0.273486 -0.120885 0 180 235
-0.204529 -0.313041 -0.255763 0 180 235
0.234955 -0.470505 0.0447205 0 180 235
-0.214759 -0.216753 -0.133679 0 180 235
0.325894 -0.34339 -0.121812 0 180 235
-0.110585 -0.374344 -0.0813604 0 180 235
0.209778 -0.424323 -0.188759 0 180 235
0.164717 -0.42309 -0.0920706 0 180 235
0.134978 -0.358626 -0.18264 0 180 235
-0.0403138 -0.319955 -0.192038 0 180 235
0.0246575 -0.472477 -0.040466 0 180 235
-0.217987 -0.207445 -0.00089838 0 180 235
0.109273 -0.424748 -0.141339 0 180 235
0.166405 -0.387673 -0.0504665 0 180 235
-0.0928835 -0.373461 -0.0848535 0 180 235
0.0623632 -0.4801 0.0802685 0 180 235
-0.190559 -0.398327 0.189863 0 180 235
-0.196224 -0.277493 -0.158328 0 180 235
0.0872964 -0.347443 -0.0926089 0 180 235
-0.0562955 -0.470625 -0.0281567 0 180 235
0.0901832 -0.492589 0.194593 0 180 235
0.106898 -0.481658 0.0949891 0 180 235
0.132348 -0.333493 -0.167177 0 180 235
-0.199141 -0.272066 -0.16761 0 180 235
-0.0205602 -0.416071 -0.0741618 0 180 235
-0.196197 -0.338899 0.0152546 0 180 235
0.216812 -0.404502 -0.0720512 0 180 235
-0.198289 -0.290816 -0.0994832 0 180 235
0.071745 -0.481692 0.109543 0 180 235
-0.0556168 -0.365851 -0.0940072 0 180 235
0.260854 -0.403966 -0.0566468 0 180 235
-0.164097 -0.488978 0.123715 32 212 224
0.306926 -0.486455 -0.102228 32 212 224
-0.0988843 -0.488835 0.311654 32 212 224
0.0237081 -0.487438 -0.078798 32 212 224
0.179778 -0.486855 0.119909 32 212 224
-0.0945228 -0.487672 -0.194071 32 212 224
0.396843 -0.485869 0.0887452 32 212 224
0.209169 -0.486454 -0.135172 32 212 224
0.0919636 -0.470673 -0.262333 32 212 224
-0.209512 -0.451373 0.12646 32 212 224
-0.0904069 -0.488902 0.299403 32 212 224
0.362895 -0.485982 -0.129185 32 212 224
0.314828 -0.486384 -0.00264431 32 212 224
0.410823 -0.485869 -0.0124976 32 212 224
-0.127765 -0.487744 -0.0797611 32 212 224
0.349516 -0.486203 0.0352304 32 212 224
0.0930765 -0.4877 0.279695 32 212 224
-0.0874819 -0.487643 0.122434 32 212 224
0.105069 -0.487255 -0.0730923 32 212 224
0.428259 -0.485703 0.0208711 32 212 224
0.165733 -0.486905 -0.0886872 32 212 224
0.256451 -0.486305 -0.219143 32 212 224
-0.0419591 -0.487544 0.108567 32 212 224
0.11785 -0.487034 0.0773592 32 212 224
-0.115256 -0.488797 0.219875 32 212 224
0.349758 -0.486285 -0.0255862 32 212 224
-0.0839796 -0.486596 -0.252032 32 212 224
-0.141055 -0.489547 0.201135 32 212 224
0.285672 -0.487433 0.219133 32 212 224
0.0589885 -0.486387 -0.262317 32 212 224
0.137547 -0.486989 0.040464 32 212 224
0.350212 -0.486236 -0.0480948 32 212 224
0.303927 -0.48632 0.0394392 32 212 224
-0.0527627 -0.48761 -0.0188068 32 212 224
0.211541 -0.487021 0.182949 32 212 224
0.17675 -0.486859 -0.0856391 32 212 224
-0.206292 -0.427835 -0.0492831 32 212 224
-0.19481 -0.472959 0.289736 32 212 224
0.193146 -0.486804 -0.00208183 32 212 224
0.378176 -0.486025 0.0392222 32 212 224
0.0122589 -0.48776 0.338508 32 212 224
0.371391 -0.486106 -0.0460539 32 212 224
0.247235 -0.487806 0.248921 32 212 224
0.30786 -0.486205 0.0850608 32 212 224
0.286455 -0.48652 -0.0713248 32 212 224
0.0383211 -0.487591 -0.242231 32 212 224
0.10196 -0.487167 0.138669 32 212 224
0.340945 -0.486275 -0.0910456 32 212 224
-0.0920046 -0.488956 0.302215 32 212 224
-0.0967863 -0.487582 -0.0397632 32 212 224
0.246894 -0.4864 0.0870517 32 212 224
0.311651 -0.486299 0.0308519 32 212 224
0.350005 -0.486231 -0.0898123 32 212 224
0.124982 -0.48712 -0.0419216 32 212 224
-0.205338 -0.444255 -0.123164 32 212 224
0.0517488 -0.487448 -0.0798632 32 212 224
-0.124585 -0.487767 -0.0431209 32 212 224
0.371337 -0.486104 -0.0406168 32 212 224
0.046117 -0.487269 0.153473 32 212 224
-0.206196 -0.428163 -0.00291548 32 212 224
0.254979 -0.487919 0.254209 32 212 224
0.166672 -0.486936 -0.00556271 32 212 224
-0.202483 -0.427817 0.204998 32 212 224
-0.135784 -0.48248 -0.234585 32 212 224
0.192161 -0.487634 0.222151 32 212 224
-0.157739 -0.487451 0.35555 32 212 224
-0.167767 -0.487984 -0.0539572 32 212 224
0.32138 -0.486468 -0.0331032 32 212 224
-0.124454 -0.487918 -0.214722 32 212 224
0.00222354 -0.487782 0.245215 32 212 224
-0.138874 -0.48809 -0.0187575 32 212 224
0.28468 -0.486887 0.176198 32 212 224
-0.156149 -0.487921 -0.173695 32 212 224
0.0564377 -0.487208 -0.0159621 32 212 224
0.175018 -0.486755 -0.197304 32 212 224
-0.14019 -0.487884 -0.170116 32 212 224
-0.0164747 -0.487521 0.153424 32 212 224
-0.133249 -0.480524 -0.248145 32 212 224
0.0491532 -0.487246 0.0820217 32 212 224
0.00474849 -0.48779 -0.242761 32 212 224
-0.00370413 -0.487352 -0.14466 32 212 224
0.429237 -0.485703 0.0137787 32 212 224
0.417851 -0.485734 -0.0661873 32 212 224
-0.11833 -0.488145 0.126297 32 212 224
0.143439 -0.487119 0.163486 32 212 224
0.413422 -0.485824 -0.0516644 32 212 224
0.3067 -0.486389 -0.148954 32 212 224
0.14308 -0.487948 0.282573 32 212 224
0.38481 -0.486024 -0.0327818 32 212 224
0.125768 -0.487055 0.0621643 32 212 224
-0.161568 -0.487656 0.392602 32 212 224
0.220345 -0.486555 0.0648237 32 212 224
0.141282 -0.487066 0.138726 32 212 224
0.0643793 -0.487367 -0.064208 32 212 224
-0.147992 -0.488734 0.097428 32 212 224
0.179574 -0.486887 -0.077874 32 212 224
-0.163501 -0.488375 0.0440188 32 212 224
-0.118652 -0.48824 0.149395 32 212 224
0.0831357 -0.487115 0.0300965 32 212 224
0.363248 -0.486105 -0.0950782 32 212 224
0.0731323 -0.487175 0.104216 32 212 224
0.0474797 -0.487829 0.327741 32 212 224
-0.114114 -0.487735 0.3862 32 212 224
0.0895196 -0.487787 0.292096 32 212 224
-0.197353 -0.427267 0.319281 32 212 224
0.286607 -0.486979 0.183188 32 212 224
0.0768164 -0.487209 -0.0289122 32 212 224
0.221593 -0.486462 -0.172515 32 212 224
0.255879 -0.486601 0.13655 32 212 224
0.119199 -0.4872 -0.0650365 32 212 224
0.367451 -0.486137 0.133449 32 212 224
-0.191419 -0.480126 0.356096 32 212 224
-0.161635 -0.489156 0.133407 32 212 224
-0.196627 -0.399659 0.259838 32 212 224
-0.196017 -0.422249 0.256121 32 212 224
0.353539 -0.486104 0.0677723 32 212 224
0.313662 -0.486463 -0.0648906 32 212 224
0.144017 -0.486993 0.0102078 32 212 224
0.325409 -0.486305 0.0211164 32 212 224
0.107173 -0.487333 -0.213542 32 212 224
-0.00724499 -0.487451 -0.0878823 32 212 224
0.01539 -0.487689 -0.233153 32 212 224
0.0902141 -0.487103 0.0436661 32 212 224
-0.195021 -0.384663 0.363499 32 212 224
0.181993 -0.486882 -0.0751834 32 212 224
-0.107405 -0.488118 -0.234188 32 212 224
0.155536 -0.486995 -0.21082 32 212 224
0.278435 -0.486428 -0.151099 32 212 224
0.0748661 -0.487211 0.145467 32 212 224
0.0997706 -0.487299 0.203423 32 212 224
0.0349972 -0.487436 0.191085 32 212 224
0.0885501 -0.48751 -0.203856 32 212 224
0.27334 -0.48419 -0.227719 32 212 224
0.245297 -0.48666 -0.0539995 32 212 224
-0.213736 -0.407745 0.122736 32 212 224
0.262022 -0.48791 0.251998 32 212 224
0.396679 -0.48585 -0.0814168 32 212 224
0.0206378 -0.487453 -0.0927599 32 212 224
0.217391 -0.486534 -0.103917 32 212 224
-0.0532838 -0.487546 0.138083 32 212 224
-0.103528 -0.47852 -0.264466 32 212 224
0.403149 -0.485929 -0.036867 32 212 224
0.201849 -0.486796 -0.0132943 32 212 224
0.304019 -0.486479 -0.0979734 32 212 224
0.400037 -0.485786 -0.086491 32 212 224
-0.140042 -0.488045 -0.0484603 32 212 224
0.136471 -0.487101 -0.0652561 32 212 224
0.401463 -0.485529 -0.114356 32 212 224
0.193139 -0.486628 -0.197154 32 212 224
-0.190187 -0.477326 0.381712 32 212 224
0.386378 -0.486007 -0.00448587 32 212 224
0.358728 -0.486012 0.0965663 32 212 224
-0.156265 -0.488612 0.0812379 32 212 224
-0.037898 -0.487615 0.0417592 32 212 224
-0.108953 -0.488449 0.204025 32 212 224
0.282689 -0.48742 0.217669 32 212 224
0.362797 -0.486157 -0.0513548 32 212 224
-0.0296074 -0.487654 0.192297 32 212 224
-0.0427097 -0.487495 -0.191779 32 212 224
0.00944992 -0.487456 -0.195156 32 212 224
0.0937089 -0.487247 -0.0583091 32 212 224
-0.195561 -0.485306 0.182257 32 212 224
-0.149476 -0.487058 0.290272 32 212 224
0.122094 -0.487119 -0.0370458 32 212 224
-0.155865 -0.488568 0.0762559 32 212 224
0.175206 -0.486739 -0.192216 32 212 224
0.342216 -0.486276 -0.0840725 32 212 224
0.0553782 -0.487437 -0.252526 32 212 224
0.296136 -0.486507 -0.0486716 32 212 224
0.322735 -0.486378 -0.14159 32 212 224
0.125189 -0.487237 -0.186006 32 212 224
0.292275 -0.487202 0.197972 32 212 224
0.100043 -0.485111 -0.259316 32 212 224
0.115715 -0.487126 -0.0338166 32 212 224
-0.186189 -0.483054 0.398623 32 212 224
0.274841 -0.487641 0.234386 32 212 224
0.162705 -0.487689 0.23808 32 212 224
0.144617 -0.487464 0.231614 32 212 224
0.209131 -0.486752 -0.070134 32 212 224
0.179429 -0.46417 -0.251541 32 212 224
0.238802 -0.486596 -0.0768778 32 212 224
-0.0347284 -0.487761 0.358447 32 212 224
0.0383407 -0.487821 0.266 32 212 224
-0.206329 -0.384894 0.0981644 32 212 224
0.0312343 -0.487662 -0.261161 32 212 224
-0.134378 -0.487511 0.372914 32 212 224
0.16708 -0.486787 -0.124376 32 212 224
0.231157 -0.470488 -0.241447 32 212 224
0.268424 -0.486466 -0.133032 32 212 224
0.0252108 -0.487338 -0.115418 32 212 224
-0.152956 -0.482667 -0.222672 32 212 224
0.18306 -0.486901 -0.0613077 32 212 224
0.153608 -0.486921 0.109328 32 212 224
0.0273739 -0.487338 0.0235789 32 212 224
0.140326 -0.486993 -0.114524 32 212 224
0.21002 -0.486708 -0.0796076 32 212 224
0.379504 -0.485971 -0.0876041 32 212 224
0.305374 -0.486309 0.0481079 32 212 224
-0.198778 -0.409659 0.316353 32 212 224
0.165448 -0.486774 -0.15257 32 212 224
0.130837 -0.487214 -0.211785 32 212 224
0.0382507 -0.487264 0.11655 32 212 224
0.363862 -0.486161 0.0111861 32 212 224
0.410683 -0.485769 0.059964 32 212 224
0.188595 -0.486734 0.0483728 32 212 224
-0.00454391 -0.487325 -0.12704 32 212 224
0.266905 -0.486419 0.116175 32 212 224
0.244404 -0.486435 0.0742793 32 212 224
0.0485398 -0.487769 0.270763 32 212 224
-0.11209 -0.487867 0.0301463 32 212 224
0.396765 -0.485727 -0.100118 32 212 224
-0.080407 -0.487713 0.0178263 32 212 224
-0.1293 -0.489416 0.247748 32 212 224
0.192048 -0.486699 -0.0974717 32 212 224
0.0833334 -0.487313 0.200925 32 212 224
0.00559099 -0.487931 0.266066 32 212 224
0.0854855 -0.487143 -0.00263498 32 212 224
0.214174 -0.486445 -0.139099 32 212 224
0.265064 -0.486365 0.0953213 32 212 224
0.222924 -0.469908 -0.242606 32 212 224
0.266084 -0.486494 -0.114406 32 212 224
0.11472 -0.487174 -0.106648 32 212 224
-0.0212775 -0.487383 -0.132229 32 212 224
-0.213212 -0.437591 0.14082 32 212 224
-0.174013 -0.487929 -0.0295115 32 212 224
0.0499729 -0.487235 0.137123 32 212 224
-0.104371 -0.487861 -0.213601 32 212 224
-0.0570189 -0.487547 -0.148106 32 212 224
0.00655466 -0.487428 0.023367 32 212 224
-0.158972 -0.489762 0.17462 32 212 224
0.168065 -0.487667 0.232485 32 212 224
-0.183345 -0.476514 -0.212115 32 212 224
0.421843 -0.485813 -0.0337087 32 212 224
0.2905 -0.486262 0.0809238 32 212 224
0.271118 -0.486827 0.169682 32 212 224
-0.193936 -0.48081 0.302318 32 212 224
-0.136516 -0.487996 -0.0617322 32 212 224
-0.0921617 -0.488592 0.324739 32 212 224
-0.202131 -0.414762 0.0597346 32 212 224
0.383511 -0.485865 0.0794853 32 212 224
0.161107 -0.487146 0.192949 32 212 224
0.214552 -0.486484 -0.181688 32 212 224
-0.0854887 -0.487551 -0.0425093 32 212 224
-0.0516885 -0.488207 0.327103 32 212 224
0.286119 -0.486358 0.0646279 32 212 224
0.0141332 -0.48731 -0.130545 32 212 224
0.00253166 -0.48744 -0.19568 32 212 224
0.265106 -0.486512 0.011871 32 212 224
-0.208211 -0.461678 -0.0766226 32 212 224
0.193527 -0.476984 -0.246031 32 212 224
0.140682 -0.487075 -0.185899 32 212 224
-0.193345 -0.470571 0.371459 32 212 224
0.0127141 -0.487381 -0.052205 32 212 224
0.180759 -0.487428 0.216902 32 212 224
-0.126448 -0.488367 0.117054 32 212 224
-0.129816 -0.487442 0.367379 32 212 224
0.357263 -0.485921 -0.159636 32 212 224
0.102822 -0.487234 0.193983 32 212 224
-0.163449 -0.488412 0.0495316 32 212 224
0.429996 -0.485738 -0.00488082 32 212 224
0.236714 -0.486393 -0.204597 32 212 224
0.338353 -0.486124 0.123731 32 212 224
0.342444 -0.486093 0.116956 32 212 224
0.233675 -0.486539 0.0398824 32 212 224
0.114917 -0.465984 -0.259752 32 212 224
0.0850287 -0.485716 -0.260005 32 212 224
-0.0094341 -0.478061 -0.274931 32 212 224
-0.184863 -0.478826 -0.202873 32 212 224
0.0531748 -0.487527 -0.186935 32 212 224
-0.131548 -0.487791 -0.168764 32 212 224
0.266832 -0.481753 -0.230949 32 212 224
-0.138258 -0.487111 -0.216865 32 212 224
0.0604479 -0.48836 0.356785 32 212 224
0.0709351 -0.487502 -0.179535 32 212 224
0.305412 -0.486498 -0.0638714 32 212 224
0.0718169 -0.487478 0.2251 32 212 224
0.038576 -0.487595 0.224347 32 212 224
-0.0459812 -0.488024 -0.240511 32 212 224
-0.07673 -0.487817 0.169409 32 212 224
-0.0820939 -0.487597 0.107757 32 212 224
-0.144308 -0.488046 -0.0525764 32 212 224
0.274759 -0.48643 -0.153262 32 212 224
0.0123309 -0.487549 0.207479 32 212 224
-0.0890827 -0.487523 -0.132912 32 212 224
0.252968 -0.487099 0.191026 32 212 224
-0.157959 -0.487518 0.377654 32 212 224
0.252466 -0.486446 -0.134688 32 212 224
0.130616 -0.487052 -0.125286 32 212 224
0.0535092 -0.487467 -0.239693 32 212 224
0.264984 -0.486583 -0.0413822 32 212 224
-0.202183 -0.469634 -0.17551 32 212 224
-0.200369 -0.405015 0.20673 32 212 224
0.378745 -0.485995 0.0599219 32 212 224
0.408123 -0.485808 0.0498349 32 212 224
-0.194229 -0.466814 0.385923 32 212 224
-0.0799386 -0.48804 0.212972 32 212 224
0.0507202 -0.487359 -0.0586563 32 212 224
-0.0580226 -0.487492 -0.108441 32 212 224
-0.158162 -0.488085 -0.141451 32 212 224
-0.0784007 -0.487696 0.0607374 32 212 224
0.218666 -0.487014 0.187587 32 212 224
0.10217 -0.487161 0.119115 32 212 224
0.0642293 -0.488123 0.338729 32 212 224
0.291045 -0.486518 -0.056651 32 212 224
0.275045 -0.486407 -0.174575 32 212 224
0.186254 -0.488056 0.286369 32 212 224
-0.0513734 -0.48761 -0.0160144 32 212 224
0.122057 -0.48715 0.147567 32 212 224
0.138944 -0.487099 -0.0489342 32 212 224
0.359999 -0.486325 0.147214 32 212 224
0.296259 -0.486442 -0.0191563 32 212 224
-0.188509 -0.482247 0.395684 32 212 224
-0.152096 -0.489689 0.177985 32 212 224
0.18341 -0.486741 0.102545 32 212 224
-0.056527 -0.48764 0.0366779 32 212 224
-0.0836366 -0.487538 -0.142202 32 212 224
-0.115089 -0.488303 0.292166 32 212 224
0.313123 -0.486378 -0.145532 32 212 224
0.259559 -0.486596 -0.0500625 32 212 224
0.188711 -0.486863 -0.0339417 32 212 224
-0.207767 -0.48152 0.18023 32 212 224
0.113922 -0.487234 -0.0739341 32 212 224
0.162101 -0.486315 -0.246657 32 212 224
-0.014204 -0.487508 0.122624 32 212 224
0.397582 -0.48593 0.000152091 32 212 224
-0.000691023 -0.487446 -0.0260904 32 212 224
0.14772 -0.487044 -0.200637 32 212 224
-0.0984387 -0.487642 -0.190208 32 212 224
0.21389 -0.486547 -0.229982 32 212 224
0.143222 -0.486996 -0.101768 32 212 224
-0.195128 -0.456707 0.346923 32 212 224
0.4061 -0.485771 -0.0799534 32 212 224
-0.127535 -0.488274 0.062664 32 212 224
0.377145 -0.486053 -0.0769276 32 212 224
-0.200145 -0.42926 0.347139 32 212 224
0.0643395 -0.487382 -0.0689981 32 212 224
0.0244325 -0.487454 -0.0834486 32 212 224
0.195866 -0.488313 0.301892 32 212 224
-0.0772517 -0.487813 0.16835 32 212 224
-0.126499 -0.486848 0.284865 32 212 224
-0.171 -0.487993 -0.071131 32 212 224
0.265146 -0.487352 0.204396 32 212 224
0.203992 -0.487061 0.188493 32 212 224
0.206635 -0.48651 -0.164355 32 212 224
0.0258072 -0.487336 0.0874859 32 212 224
-0.207933 -0.471401 0.0329355 32 212 224
0.216845 -0.487957 0.266287 32 212 224
0.0934169 -0.485682 -0.258927 32 212 224
0.168277 -0.486959 -0.0671592 32 212 224
0.160774 -0.48699 -0.0563697 32 212 224
0.0979483 -0.487086 0.0302423 32 212 224
0.264434 -0.487433 0.214801 32 212 224
0.030656 -0.487781 0.29406 32 212 224
0.224169 -0.486582 0.0373743 32 212 224
-0.0971161 -0.487785 0.0104905 32 212 224
0.225822 -0.486572 0.0385194 32 212 224
0.350625 -0.486228 -0.0888553 32 212 224
-0.145471 -0.488044 -0.0600381 32 212 224
0.0688449 -0.466351 -0.265689 32 212 224
-0.138329 -0.488618 0.104311 32 212 224
0.0852208 -0.487356 -0.114645 32 212 224
0.341086 -0.486287 -0.0796193 32 212 224
0.249957 -0.486391 0.080498 32 212 224
0.377857 -0.485959 -0.0936561 32 212 224
-0.0271504 -0.4877 0.22137 32 212 224
-0.175258 -0.488265 0.0536659 32 212 224
0.15877 -0.486865 -0.112228 32 212 224
0.2822 -0.486475 -0.127558 32 212 224
0.184034 -0.487772 0.249218 32 212 224
-0.0925234 -0.487517 -0.0729857 32 212 224
0.0148013 -0.487743 -0.244465 32 212 224
0.242985 -0.48646 -0.124879 32 212 224
-0.195114 -0.488109 0.0865612 32 212 224
-0.126821 -0.475791 -0.260866 32 212 224
0.344714 -0.486292 -0.0401801 32 212 224
-0.206421 -0.434005 0.000772081 32 212 224
0.116974 -0.486658 -0.252197 32 212 224
0.24454 -0.48668 -0.0374295 32 212 224
0.174339 -0.486693 -0.170872 32 212 224
-0.0304083 -0.487982 -0.251105 32 212 224
0.0298377 -0.487395 -0.0697076 32 212 224
0.271307 -0.486449 0.124758 32 212 224
0.307941 -0.486234 -0.195425 32 212 224
0.311737 -0.486474 -0.0875185 32 212 224
-0.0201813 -0.487471 -0.0876174 32 212 224
0.0166198 -0.487472 -0.192445 32 212 224
-0.142372 -0.487033 0.270105 32 212 224
-0.196087 -0.381987 0.340205 32 212 224
0.0584494 -0.4872 0.0404373 32 212 224
-0.173246 -0.48826 0.195252 32 212 224
0.183718 -0.486775 0.038767 32 212 224
-0.196203 -0.402942 0.253644 32 212 224
0.232899 -0.486491 -0.0973668 32 212 224
0.170961 -0.488223 0.305376 32 212 224
0.121198 -0.487073 0.0631156 32 212 224
-0.0478046 -0.478223 -0.275092 32 212 224
0.375025 -0.486091 -0.0522904 32 212 224
-0.196558 -0.48635 0.290593 32 212 224
-0.142969 -0.488051 -0.0608837 32 212 224
0.414377 -0.485871 -0.0361784 32 212 224
-0.0661784 -0.487549 -0.160519 32 212 224
0.422097 -0.485756 -0.0500886 32 212 224
0.376023 -0.486083 0.0107376 32 212 224
-0.0331654 -0.487651 0.186289 32 212 224
0.227481 -0.486445 -0.211692 32 212 224
-0.20575 -0.419496 0.00379379 32 212 224
-0.00329104 -0.487444 -0.0543716 32 212 224
0.0923448 -0.48727 -0.228945 32 212 224
0.102477 -0.487116 -0.000988306 32 212 224
-0.15473 -0.4894 0.148155 32 212 224
0.259507 -0.486564 -0.0614631 32 212 224
0.278625 -0.487003 0.183415 32 212 224
0.0264149 -0.487371 -0.15713 32 212 224
0.223055 -0.486978 0.181285 32 212 224
0.207132 -0.486638 0.0473348 32 212 224
0.21659 -0.486447 -0.141659 32 212 224
-0.126522 -0.487655 -0.138542 32 212 224
-0.0972843 -0.489022 0.291178 32 212 224
0.166265 -0.486765 -0.134857 32 212 224
0.294946 -0.486395 -0.168567 32 212 224
-0.187178 -0.487756 0.0101273 32 212 224
-0.0364203 -0.488176 0.297395 32 212 224
-0.146714 -0.484792 -0.219487 32 212 224
-0.119741 -0.488967 0.220226 32 212 224
0.057421 -0.48809 0.340353 32 212 224
0.267419 -0.486499 -0.110576 32 212 224
-0.0604351 -0.488382 0.316108 32 212 224
0.179639 -0.483539 -0.245865 32 212 224
0.361021 -0.486024 0.110491 32 212 224
-0.0260689 -0.488041 0.32062 32 212 224
-0.0382757 -0.487503 -0.0823081 32 212 224
-0.107773 -0.487552 -0.0754968 32 212 224
-0.19902 -0.38436 0.063255 32 212 224
0.279681 -0.486342 0.106033 32 212 224
0.180152 -0.486667 -0.128618 32 212 224
0.05965 -0.487181 0.015363 32 212 224
-0.210171 -0.430767 0.166239 32 212 224
-0.122402 -0.487697 -0.0650681 32 212 224
0.10851 -0.487965 0.297622 32 212 224
0.0101361 -0.470823 -0.273621 32 212 224
0.343716 -0.486226 0.038182 32 212 224
0.297448 -0.486508 -0.0500123 32 212 224
0.0704479 -0.487177 0.0929937 32 212 224
0.230005 -0.486485 0.0990717 32 212 224
-0.190072 -0.471242 -0.213393 32 212 224
-0.0803166 -0.487558 0.376664 32 212 224
0.327822 -0.486236 -0.180874 32 212 224
0.301886 -0.486507 -0.0537358 32 212 224
0.376341 -0.486086 -0.0153817 32 212 224
0.0121814 -0.487705 0.334126 32 212 224
-0.205279 -0.479697 0.223016 32 212 224
0.265373 -0.486412 0.0592288 32 212 224
-0.0459599 -0.488246 0.304162 32 212 224
0.0364314 -0.487556 -0.224965 32 212 224
0.0776802 -0.487216 0.157076 32 212 224
0.0444325 -0.487279 0.0627996 32 212 224
0.391926 -0.485968 0.101358 32 212 224
0.301237 -0.486402 -0.1431 32 212 224
0.40656 -0.485878 -0.0526352 32 212 224
0.131918 -0.487499 0.236318 32 212 224
-0.00729591 -0.487409 -0.169274 32 212 224
0.319971 -0.486322 0.016462 32 212 224
0.329088 -0.486688 0.167793 32 212 224
0.218065 -0.486467 -0.119737 32 212 224
0.247987 -0.486465 0.0538235 32 212 224
0.131978 -0.487032 0.114307 32 212 224
0.0778198 -0.487135 0.0455647 32 212 224
0.00798091 -0.487773 -0.242898 32 212 224
0.0302251 -0.487539 0.205659 32 212 224
0.0190546 -0.487358 -0.0110655 32 212 224
-0.140775 -0.487031 0.309676 32 212 224
0.315476 -0.486439 -0.0922614 32 212 224
0.286892 -0.486189 -0.210873 32 212 224
0.149728 -0.486893 0.072452 32 212 224
0.330013 -0.487022 0.187586 32 212 224
0.163357 -0.486817 -0.123917 32 212 224
-0.194967 -0.462726 0.274312 32 212 224
-0.0756642 -0.487585 -0.0300514 32 212 224
0.256139 -0.486402 0.100382 32 212 224
0.0176438 -0.487465 -0.184176 32 212 224
-0.079205 -0.488393 0.262434 32 212 224
-0.212935 -0.367098 0.135771 32 212 224
-0.0395554 -0.487626 0.049804 32 212 224
0.0262295 -0.480834 -0.270528 32 212 224
0.338534 -0.486309 -0.0609144 32 212 224
-0.202952 -0.435002 0.107199 32 212 224
-0.194768 -0.460333 0.292043 32 212 224
0.122205 -0.487014 0.0771391 32 212 224
0.258936 -0.486538 -0.0789248 32 212 224
-0.0718391 -0.487921 0.202165 32 212 224
-0.116452 -0.488072 0.115573 32 212 224
-0.103309 -0.489162 0.287546 32 212 224
0.047715 -0.487327 -0.147958 32 212 224
-0.0540316 -0.48508 -0.268871 32 212 224
-0.116385 -0.48759 -0.0776915 32 212 224
0.234697 -0.486703 -0.0534535 32 212 224
0.376743 -0.486034 0.0393195 32 212 224
-0.104796 -0.48777 -0.00318206 32 212 224
0.0151826 -0.487466 0.186702 32 212 224
0.255684 -0.486482 -0.116389 32 212 224
-0.208657 -0.430864 0.173364 32 212 224
-0.0591398 -0.487555 -0.0479671 32 212 224
-0.208741 -0.480023 0.16932 32 212 224
-0.198416 -0.390609 0.235371 32 212 224
0.235495 -0.486511 0.110203 32 212 224
0.0852363 -0.487319 -0.137207 32 212 224
0.015186 -0.487467 -0.203751 32 212 224
0.243716 -0.48647 -0.119529 32 212 224
-0.00544465 -0.487452 -0.0866184 32 212 224
-0.208137 -0.463304 0.00997501 32 212 224
0.245821 -0.486398 0.0837718 32 212 224
0.42888 -0.485747 -0.0343689 32 212 224
-0.212942 -0.324062 -0.262618 64 236 211
-0.145607 -0.487051 -0.269569 64 236 211
-0.00235643 -0.331284 -0.288719 64 236 211
-0.0844494 -0.487083 -0.101158 64 236 211
-0.220278 -0.342186 0.267041 64 236 211
-0.188728 -0.487203 -0.193813 64 236 211
0.29958 -0.446248 -0.278417 64 236 211
0.0638724 -0.487248 -0.129765 64 236 211
-0.158007 -0.487044 -0.136647 64 236 211
-0.153377 -0.464036 -0.2947 64 236 211
-0.100123 -0.4871 -0.0810787 64 236 211
-0.190706 -0.380205 -0.283756 64 236 211
-0.200679 -0.257232 -0.277681 64 236 211
-0.215461 -0.342111 -0.197677 64 236 211
0.0614713 -0.487441 0.113254 64 236 211
-0.189465 -0.290108 -0.286726 64 236 211
-0.220467 -0.434283 0.169556 64 236 211
-0.0488968 -0.335995 -0.291795 64 236 211
-0.0466086 -0.48708 -0.152181 64 236 211
-0.147595 -0.487101 -0.0801154 64 236 211
-0.220378 -0.385561 0.194522 64 236 211
-0.161289 -0.334127 -0.292367 64 236 211
0.195368 -0.462433 -0.283287 64 236 211
0.0646443 -0.369849 -0.284626 64 236 211
-0.219297 -0.415877 0.27787 64 236 211
-0.183703 -0.282468 -0.288209 64 236 211
-0.156498 -0.4608 -0.294488 64 236 211
0.090713 -0.456859 -0.287066 64 236 211
0.00778263 -0.487185 -0.141831 64 236 211
-0.187305 -0.487296 -0.0620299 64 236 211
-0.215207 -0.27776 -0.20948 64 236 211
-0.21843 -0.462163 -0.0844902 64 236 211
-0.0598878 -0.440816 -0.289121 64 236 211
-0.119148 -0.483775 -0.288986 64 236 211
-0.0211518 -0.487278 -0.0773565 64 236 211
0.0924146 -0.487181 -0.19957 64 236 211
-0.212298 -0.48268 -0.200548 64 236 211
-0.206019 -0.26983 -0.274341 64 236 211
-0.0578404 -0.487738 0.140293 64 236 211
-0.221119 -0.250066 0.22626 64 236 211
-0.213323 -0.480229 -0.2419 64 236 211
0.0804843 -0.487429 -0.0810883 64 236 211
-0.213231 -0.462695 -0.268009 64 236 211
-0.0427633 -0.487554 0.276844 64 236 211
0.139792 -0.482821 -0.285996 64 236 211
0.198572 -0.368675 -0.283698 64 236 211
-0.213802 -0.292528 -0.227747 64 236 211
-0.175375 -0.487674 0.185798 64 236 211
