ply
format ascii 1.0
comment Created by Open3D
element vertex 1156
property double x
property double y
property double z
property uchar red
property uchar green
property uchar blue
end_header
-0.15213 -0.360506 -0.12511 160 249 161
-0.154336 -0.290011 -0.122898 160 249 161
-0.155613 -0.297073 -0.0711753 160 249 161
-0.150365 -0.265757 0.170767 160 249 161
-0.15388 -0.303872 0.31524 160 249 161
-0.14836 -0.281447 -0.346234 160 249 161
-0.152201 -0.240286 -0.246655 160 249 161
-0.155059 -0.38642 0.307548 160 249 161
-0.151791 -0.286837 -0.240364 160 249 161
-0.155515 -0.290356 -0.05009 160 249 161
-0.153412 -0.306728 -0.208804 160 249 161
-0.147537 -0.267646 -0.356348 160 249 161
-0.151563 -0.216321 0.36636 160 249 161
-0.155513 -0.318964 0.335554 160 249 161
-0.149284 -0.259024 -0.307366 160 249 161
-0.153887 -0.402558 0.42842 160 249 161
-0.15148 -0.338709 0.11191 160 249 161
-0.150742 -0.371515 0.159836 160 249 161
-0.154386 -0.255517 -0.0131862 160 249 161
-0.158021 -0.486783 -0.227195 160 249 161
-0.154519 -0.365759 0.306837 160 249 161
-0.152768 -0.303075 0.301853 160 249 161
-0.151317 -0.361833 0.129724 160 249 161
-0.153813 -0.27778 -0.151094 160 249 161
-0.148836 -0.337779 -0.327673 160 249 161
-0.154338 -0.310434 -0.109116 160 249 161
-0.149336 -0.216918 -0.360636 160 249 161
-0.158932 -0.405096 0.371512 160 249 161
-0.151345 -0.282681 0.123992 160 249 161
0.123677 -0.491308 -0.186456 160 249 161
-0.151215 -0.4532 -0.330753 160 249 161
-0.152055 -0.393307 0.128405 160 249 161
-0.155461 -0.297417 -0.0358815 160 249 161
-0.154645 -0.23707 0.0290457 160 249 161
-0.150332 -0.254355 0.149795 160 249 161
-0.151621 -0.283617 0.110189 160 249 161
-0.145964 -0.488017 -0.0773926 160 249 161
-0.156836 -0.483292 -0.278373 160 249 161
-0.156139 -0.432421 0.201015 160 249 161
-0.154425 -0.423932 0.138908 160 249 161
-0.154344 -0.219351 0.295774 160 249 161
-0.155313 -0.423606 0.242176 160 249 161
-0.112633 -0.488291 -0.0273812 160 249 161
-0.147584 -0.235994 0.140614 160 249 161
-0.165453 -0.470543 0.285195 160 249 161
-0.155593 -0.408331 0.419079 160 249 161
-0.161532 -0.472007 0.0706368 160 249 161
-0.156057 -0.340207 0.361852 160 249 161
-0.152641 -0.291889 0.0905865 160 249 161
-0.153265 -0.424329 -0.0368693 160 249 161
-0.152524 -0.288859 0.334487 160 249 161
-0.150677 -0.303668 -0.293007 160 249 161
-0.152692 -0.237944 -0.234553 160 249 161
-0.158005 -0.450434 0.0562847 160 249 161
-0.146277 -0.410847 -0.35649 160 249 161
-0.156953 -0.354074 0.350469 160 249 161
-0.158825 -0.471654 0.0480803 160 249 161
-0.151169 -0.244044 0.263499 160 249 161
-0.150845 -0.365202 0.22142 160 249 161
-0.147552 -0.236238 0.156778 160 249 161
-0.149311 -0.231184 0.0979332 160 249 161
-0.152783 -0.355495 0.403089 160 249 161
-0.157541 -0.419924 0.320034 160 249 161
-0.155574 -0.231728 -0.0369915 160 249 161
-0.154386 -0.259763 0.0270223 160 249 161
-0.129809 -0.488508 -0.118472 160 249 161
-0.151296 -0.363357 0.43574 160 249 161
-0.151999 -0.364756 -0.133585 160 249 161
-0.152252 -0.323594 -0.2571 160 249 161
-0.147586 -0.289557 -0.376698 160 249 161
-0.162645 -0.439823 0.368761 160 249 161
-0.15791 -0.392835 0.361619 160 249 161
-0.150145 -0.311789 0.209163 160 249 161
-0.154596 -0.331586 -0.0495877 160 249 161
-0.153919 -0.284263 -0.179976 160 249 161
-0.153711 -0.266638 0.00936775 160 249 161
-0.153723 -0.268456 0.0763968 160 249 161
-0.154416 -0.284389 -0.0169442 160 249 161
-0.155928 -0.458371 -0.267311 160 249 161
-0.15822 -0.480682 0.0426325 160 249 161
-0.153244 -0.4179 -0.266835 160 249 161
-0.153829 -0.454637 -0.131911 160 249 161
-0.152086 -0.348065 0.0896581 160 249 161
-0.151185 -0.35244 0.256384 160 249 161
-0.15306 -0.235768 0.304528 160 249 161
-0.151762 -0.235591 -0.266075 160 249 161
-0.153865 -0.426687 0.0494844 160 249 161
-0.156179 -0.216249 -0.0380052 160 249 161
-0.154114 -0.474572 -0.0975792 160 249 161
-0.154645 -0.249083 0.0354798 160 249 161
-0.153304 -0.29225 0.0739559 160 249 161
-0.153222 -0.305986 0.0603689 160 249 161
-0.15291 -0.446151 -0.130407 160 249 161
-0.15585 -0.213839 -0.167786 160 249 161
-0.154133 -0.422533 0.035296 160 249 161
-0.149894 -0.306609 0.169625 160 249 161
-0.157007 -0.430465 0.260583 160 249 161
-0.153894 -0.308296 -0.193062 160 249 161
-0.146782 -0.356338 -0.353451 160 249 161
-0.156587 -0.36473 0.372236 160 249 161
-0.0973538 -0.489433 0.107273 160 249 161
-0.149845 -0.251719 0.218917 160 249 161
-0.154428 -0.217475 -0.202921 160 249 161
-0.153666 -0.397813 -0.208665 160 249 161
-0.163445 -0.474976 0.118674 160 249 161
-0.150792 -0.317669 0.134119 160 249 161
-0.149831 -0.282899 0.199511 160 249 161
-0.15157 -0.295618 0.362766 160 249 161
-0.153274 -0.36002 -0.210701 160 249 161
-0.152921 -0.27663 -0.211661 160 249 161
-0.152341 -0.388903 0.0807026 160 249 161
-0.157694 -0.404417 0.398764 160 249 161
0.293875 -0.490706 -0.37126 192 234 140
-0.051898 -0.226129 -0.416465 192 234 140
0.187697 -0.368579 -0.416902 192 234 140
0.469809 -0.312864 -0.368071 192 234 140
0.208616 -0.339458 -0.415705 192 234 140
0.386213 -0.485033 -0.4293 192 234 140
-0.00678182 -0.501256 -0.112632 192 234 140
0.328621 -0.365936 -0.417936 192 234 140
0.156989 -0.291733 -0.415364 192 234 140
0.10236 -0.225454 -0.413753 192 234 140
0.345614 -0.474813 -0.430286 192 234 140
0.138951 -0.467861 -0.414908 192 234 140
0.111499 -0.276448 -0.416017 192 234 140
0.21186 -0.40255 -0.417285 192 234 140
0.46604 -0.267627 -0.416767 192 234 140
0.128243 -0.429967 -0.415073 192 234 140
0.447318 -0.208831 -0.417764 192 234 140
0.312241 -0.453454 -0.422278 192 234 140
0.401773 -0.19138 -0.413394 192 234 140
0.338819 -0.371303 -0.418721 192 234 140
0.0756257 -0.482489 -0.424279 192 234 140
0.387898 -0.391335 -0.421117 192 234 140
0.0745249 -0.453927 -0.41685 192 234 140
0.0221878 -0.425741 -0.414902 192 234 140
0.227487 -0.295117 -0.412432 192 234 140
0.373465 -0.324199 -0.420628 192 234 140
0.239005 -0.39709 -0.416635 192 234 140
0.458107 -0.199638 -0.413863 192 234 140
0.394586 -0.438929 -0.423756 192 234 140
0.036659 -0.198771 -0.414497 192 234 140
0.0684469 -0.357178 -0.414405 192 234 140
0.0474054 -0.300256 -0.416766 192 234 140
0.191912 -0.439371 -0.417508 192 234 140
0.47449 -0.207782 -0.385294 192 234 140
0.351782 -0.481442 -0.426073 192 234 140
0.0108945 -0.331713 -0.414262 192 234 140
0.299446 -0.297922 -0.413734 192 234 140
0.305174 -0.373344 -0.416945 192 234 140
0.0418371 -0.214447 -0.41531 192 234 140
0.161253 -0.490121 -0.420531 192 234 140
0.152739 -0.206144 -0.414107 192 234 140
0.202404 -0.344522 -0.416021 192 234 140
0.283584 -0.208665 -0.408733 192 234 140
0.196788 -0.495384 -0.176008 192 234 140
0.41675 -0.276128 -0.423631 192 234 140
0.26635 -0.214066 -0.409091 192 234 140
0.361442 -0.275844 -0.419463 192 234 140
0.359258 -0.46695 -0.427031 192 234 140
0.11449 -0.420463 -0.415243 192 234 140
0.39078 -0.243232 -0.421309 192 234 140
0.0838578 -0.225599 -0.413715 192 234 140
0.121235 -0.345073 -0.416687 192 234 140
0.199824 -0.457868 -0.420795 192 234 140
0.108742 -0.302956 -0.416018 192 234 140
0.259531 -0.247926 -0.411577 192 234 140
0.21753 -0.227551 -0.411429 192 234 140
0.0883542 -0.290281 -0.415998 192 234 140
0.437132 -0.45173 -0.426319 192 234 140
0.398815 -0.244143 -0.421604 192 234 140
0.281543 -0.357552 -0.415415 192 234 140
0.445039 -0.188475 -0.412659 192 234 140
0.309828 -0.482726 -0.434646 192 234 140
0.155582 -0.364524 -0.417421 192 234 140
0.178935 -0.242558 -0.413923 192 234 140
0.341564 -0.39155 -0.419442 192 234 140
0.246146 -0.462844 -0.423456 192 234 140
0.296042 -0.376457 -0.416659 192 234 140
0.0836478 -0.365577 -0.414496 192 234 140
0.0873489 -0.491584 -0.394387 192 234 140
0.438466 -0.214892 -0.419141 192 234 140
0.0149584 -0.408716 -0.413888 192 234 140
0.28798 -0.321264 -0.414549 192 234 140
0.054505 -0.209345 -0.41429 192 234 140
0.404237 -0.269655 -0.423072 192 234 140
0.435331 -0.189213 -0.413047 192 234 140
0.448955 -0.295795 -0.423885 192 234 140
0.43444 -0.472247 -0.43191 192 234 140
0.455813 -0.360068 -0.418504 192 234 140
0.0394554 -0.497712 -0.224114 192 234 140
0.372311 -0.195645 -0.413244 192 234 140
0.0354535 -0.385636 -0.414427 192 234 140
0.134169 -0.461893 -0.416151 192 234 140
0.22981 -0.317848 -0.413804 192 234 140
-0.02924 -0.256208 -0.416871 192 234 140
0.0552184 -0.372919 -0.414262 192 234 140
0.47302 -0.456652 -0.362609 192 234 140
0.272089 -0.300251 -0.412633 192 234 140
0.0465351 -0.385851 -0.4145 192 234 140
0.468061 -0.411405 -0.365636 192 234 140
0.318633 -0.345979 -0.417047 192 234 140
0.0180804 -0.228364 -0.41631 192 234 140
0.328822 -0.403996 -0.418913 192 234 140
0.286739 -0.368061 -0.415906 192 234 140
0.473191 -0.204927 -0.401715 192 234 140
0.440572 -0.488465 -0.369213 192 234 140
0.273671 -0.418256 -0.417061 192 234 140
0.190461 -0.357673 -0.416642 192 234 140
0.0393935 -0.496897 -0.25805 192 234 140
0.326011 -0.20657 -0.411595 192 234 140
0.0403683 -0.243158 -0.417251 192 234 140
0.279759 -0.451418 -0.42103 192 234 140
0.137326 -0.394558 -0.416467 192 234 140
-0.000527715 -0.438818 -0.415258 192 234 140
0.444522 -0.392217 -0.422388 192 234 140
0.142463 -0.247205 -0.415188 192 234 140
0.0640272 -0.308052 -0.415999 192 234 140
0.470104 -0.226528 -0.410979 192 234 140
0.454588 -0.388592 -0.418944 192 234 140
0.355571 -0.354982 -0.418981 192 234 140
0.0677914 -0.341899 -0.414747 192 234 140
0.473381 -0.311872 -0.39527 192 234 140
0.202742 -0.492565 -0.31573 192 234 140
0.118216 -0.437621 -0.415798 192 234 140
0.230147 -0.217557 -0.40983 192 234 140
0.413123 -0.479869 -0.436342 192 234 140
0.215016 -0.39831 -0.417275 192 234 140
0.146937 -0.461953 -0.417046 192 234 140
0.273412 -0.345947 -0.414714 192 234 140
0.0590487 -0.493793 -0.357125 192 234 140
0.240627 -0.372756 -0.41554 192 234 140
0.0531331 -0.315346 -0.415502 192 234 140
0.379327 -0.280436 -0.421138 192 234 140
0.288659 -0.22954 -0.411964 192 234 140
0.433958 -0.186053 -0.412279 192 234 140
0.220026 -0.480415 -0.432551 192 234 140
0.350651 -0.471767 -0.429181 192 234 140
0.275032 -0.287618 -0.412111 192 234 140
0.281069 -0.418989 -0.417234 192 234 140
0.0372998 -0.214473 -0.415408 192 234 140
0.208192 -0.308048 -0.414312 192 234 140
0.118037 -0.341797 -0.416524 192 234 140
0.380304 -0.306366 -0.42083 192 234 140
0.36638 -0.30625 -0.419884 192 234 140
0.0184158 -0.399682 -0.413945 192 234 140
0.171468 -0.356561 -0.41697 192 234 140
0.0741766 -0.221237 -0.414025 192 234 140
0.0529658 -0.306265 -0.416227 192 234 140
0.260861 -0.297748 -0.412327 192 234 140
0.202792 -0.418499 -0.417277 192 234 140
0.276612 -0.386311 -0.416287 192 234 140
0.407476 -0.489066 -0.350957 192 234 140
0.078883 -0.471516 -0.425476 192 234 140
0.401225 -0.207693 -0.417352 192 234 140
0.189037 -0.378166 -0.417036 192 234 140
0.327945 -0.244301 -0.414876 192 234 140
0.386626 -0.349896 -0.420925 192 234 140
0.293034 -0.195855 -0.406984 192 234 140
0.201131 -0.493516 -0.27474 192 234 140
-0.00702071 -0.373065 -0.4135 192 234 140
0.356945 -0.347746 -0.418916 192 234 140
0.407921 -0.322 -0.422899 192 234 140
0.178003 -0.494488 -0.244393 192 234 140
0.154445 -0.426025 -0.415465 192 234 140
-0.0096264 -0.393446 -0.412906 192 234 140
0.265899 -0.329065 -0.413921 192 234 140
0.36005 -0.27273 -0.419159 192 234 140
0.378493 -0.359173 -0.420387 192 234 140
0.318603 -0.491939 -0.263417 192 234 140
0.228679 -0.390618 -0.416884 192 234 140
0.0953412 -0.481012 -0.423935 192 234 140
0.0674801 -0.202715 -0.41301 192 234 140
0.332468 -0.380731 -0.418666 192 234 140
0.227922 -0.383694 -0.416632 192 234 140
-0.011096 -0.201427 -0.415453 192 234 140
-0.00243443 -0.432902 -0.414683 192 234 140
0.351965 -0.39836 -0.419915 192 234 140
0.355298 -0.21691 -0.416227 192 234 140
0.0690181 -0.461842 -0.415146 192 234 140
0.00396069 -0.495352 -0.322788 192 234 140
0.172645 -0.470182 -0.415803 192 234 140
0.0319186 -0.426716 -0.415012 192 234 140
0.146228 -0.254074 -0.415237 192 234 140
0.214755 -0.212198 -0.410365 192 234 140
0.410137 -0.369984 -0.422268 192 234 140
0.423777 -0.482506 -0.434944 192 234 140
0.468758 -0.214012 -0.412079 192 234 140
0.266315 -0.491684 -0.321831 192 234 140
0.0173303 -0.379448 -0.414042 192 234 140
0.198913 -0.494665 -0.216701 192 234 140
0.313085 -0.244394 -0.413651 192 234 140
0.145156 -0.490573 -0.409702 192 234 140
0.169526 -0.408343 -0.416603 192 234 140
0.38323 -0.347001 -0.42074 192 234 140
0.145802 -0.231205 -0.41461 192 234 140
0.0724817 -0.458124 -0.416155 192 234 140
0.388476 -0.487078 -0.425677 192 234 140
0.243616 -0.445407 -0.419405 192 234 140
0.469684 -0.313979 -0.412177 192 234 140
0.457133 -0.278059 -0.421062 192 234 140
0.340304 -0.287264 -0.416804 192 234 140
0.331008 -0.419889 -0.419255 192 234 140
0.208338 -0.442893 -0.418479 192 234 140
0.170735 -0.32908 -0.415915 192 234 140
0.128465 -0.310645 -0.416339 192 234 140
0.283433 -0.342174 -0.414943 192 234 140
0.403533 -0.476794 -0.435485 192 234 140
0.220795 -0.402741 -0.417213 192 234 140
0.287919 -0.394645 -0.416765 192 234 140
0.347483 -0.326038 -0.418476 192 234 140
0.384123 -0.293985 -0.421295 192 234 140
0.278884 -0.491434 -0.330738 192 234 140
0.0490018 -0.420627 -0.415644 192 234 140
0.359521 -0.258797 -0.418713 192 234 140
0.223044 -0.486318 -0.433243 192 234 140
0.395573 -0.209435 -0.417421 192 234 140
0.188253 -0.400674 -0.417298 192 234 140
0.412379 -0.287365 -0.423188 192 234 140
0.364071 -0.23476 -0.418565 192 234 140
0.0404401 -0.203553 -0.414659 192 234 140
0.246106 -0.351275 -0.414549 192 234 140
0.0597181 -0.38757 -0.414655 192 234 140
0.0404617 -0.197311 -0.41411 192 234 140
0.473001 -0.319724 -0.392812 192 234 140
0.151125 -0.206995 -0.414135 192 234 140
0.365975 -0.336942 -0.419804 192 234 140
0.467829 -0.203085 -0.412038 192 234 140
0.46736 -0.406225 -0.341969 192 234 140
0.157419 -0.211939 -0.414068 192 234 140
0.31549 -0.214557 -0.411664 192 234 140
0.148971 -0.394611 -0.416537 192 234 140
0.424285 -0.199493 -0.415861 192 234 140
0.0260847 -0.31494 -0.415565 192 234 140
0.236096 -0.377731 -0.415945 192 234 140
0.162615 -0.485998 -0.431308 192 234 140
0.0945034 -0.29909 -0.415563 192 234 140
0.088115 -0.491419 -0.39772 192 234 140
0.46923 -0.228066 -0.411966 192 234 140
0.466105 -0.392657 -0.349896 192 234 140
0.129512 -0.397573 -0.416375 192 234 140
0.173888 -0.307073 -0.415132 192 234 140
-0.0207139 -0.193863 -0.415182 192 234 140
0.10636 -0.203113 -0.413475 192 234 140
0.362694 -0.390745 -0.42027 192 234 140
0.381051 -0.257033 -0.42098 192 234 140
0.465201 -0.219833 -0.414876 192 234 140
0.0681433 -0.364266 -0.414233 192 234 140
0.235831 -0.278361 -0.411261 192 234 140
0.285229 -0.491815 -0.302754 192 234 140
0.198131 -0.313412 -0.414946 192 234 140
0.417386 -0.301444 -0.423501 192 234 140
0.212088 -0.286713 -0.412601 192 234 140
0.0592511 -0.240187 -0.416607 192 234 140
0.149759 -0.335626 -0.41648 192 234 140
0.326395 -0.284821 -0.414984 192 234 140
0.087993 -0.425887 -0.415222 192 234 140
0.431586 -0.411823 -0.424268 192 234 140
0.186594 -0.487719 -0.432325 192 234 140
0.0270409 -0.286374 -0.417659 192 234 140
0.355342 -0.263003 -0.418354 192 234 140
0.19718 -0.277261 -0.413141 192 234 140
0.437402 -0.192918 -0.413956 192 234 140
0.454115 -0.191849 -0.412553 192 234 140
0.0892045 -0.401873 -0.415522 192 234 140
0.469306 -0.404107 -0.403617 192 234 140
0.227618 -0.435684 -0.417665 192 234 140
0.436302 -0.221231 -0.420099 192 234 140
0.43829 -0.307283 -0.425038 192 234 140
0.369627 -0.413728 -0.420823 192 234 140
0.399347 -0.190338 -0.413079 192 234 140
0.273624 -0.419026 -0.417075 192 234 140
0.0171622 -0.43466 -0.415187 192 234 140
0.207113 -0.264595 -0.412559 192 234 140
0.165578 -0.21322 -0.413924 192 234 140
0.267078 -0.343764 -0.414454 192 234 140
0.135061 -0.492153 -0.361335 192 234 140
0.291686 -0.220948 -0.410679 192 234 140
0.0162449 -0.404292 -0.413897 192 234 140
0.225148 -0.260194 -0.411608 192 234 140
0.263334 -0.228733 -0.411059 192 234 140
0.0920918 -0.328933 -0.415097 192 234 140
0.0579816 -0.297091 -0.416809 192 234 140
0.468571 -0.375238 -0.400165 192 234 140
0.29817 -0.346169 -0.415792 192 234 140
0.43283 -0.229772 -0.420975 192 234 140
0.209001 -0.307504 -0.414229 192 234 140
-0.0225214 -0.312991 -0.415112 192 234 140
0.0322816 -0.493701 -0.370205 192 234 140
0.0409125 -0.305582 -0.41639 192 234 140
0.274136 -0.487924 -0.431614 192 234 140
0.0832728 -0.359123 -0.414689 192 234 140
0.383972 -0.480741 -0.433336 192 234 140
0.407465 -0.317889 -0.422835 192 234 140
-0.00865174 -0.351576 -0.413904 192 234 140
0.0789556 -0.224533 -0.414005 192 234 140
0.27796 -0.345108 -0.414847 192 234 140
0.30634 -0.4095 -0.417927 192 234 140
0.445422 -0.427988 -0.423368 192 234 140
0.116859 -0.331902 -0.416226 192 234 140
0.332166 -0.270235 -0.415534 192 234 140
0.470335 -0.272818 -0.3705 192 234 140
0.365208 -0.489083 -0.369486 192 234 140
0.374272 -0.184725 -0.411002 192 234 140
0.401428 -0.397685 -0.421703 192 234 140
0.0305667 -0.231714 -0.416481 192 234 140
0.222136 -0.323592 -0.414396 192 234 140
0.0925899 -0.332583 -0.415059 192 234 140
0.375919 -0.18937 -0.412052 192 234 140
0.148342 -0.450026 -0.41748 192 234 140
0.0722828 -0.359467 -0.414448 192 234 140
0.310882 -0.49179 -0.282824 192 234 140
0.385073 -0.311831 -0.421075 192 234 140
0.128398 -0.30592 -0.41629 192 234 140
0.0699463 -0.321569 -0.415101 192 234 140
0.472682 -0.264209 -0.384557 192 234 140
0.00208425 -0.239517 -0.416706 192 234 140
0.410414 -0.467714 -0.431061 192 234 140
0.160809 -0.488388 -0.430595 192 234 140
0.124478 -0.444254 -0.416384 192 234 140
0.215782 -0.430571 -0.41705 192 234 140
0.140012 -0.216128 -0.414468 192 234 140
0.235278 -0.273078 -0.411188 192 234 140
0.473274 -0.203082 -0.374032 192 234 140
0.0856508 -0.398092 -0.415292 192 234 140
0.459587 -0.433222 -0.418183 192 234 140
0.467427 -0.175948 -0.404525 192 234 140
0.00468313 -0.282536 -0.417128 192 234 140
0.466915 -0.42294 -0.410672 192 234 140
0.133425 -0.475507 -0.428822 192 234 140
0.390633 -0.416055 -0.421801 192 234 140
0.306993 -0.458532 -0.423456 192 234 140
0.314759 -0.475734 -0.422156 192 234 140
0.120579 -0.381188 -0.416576 192 234 140
0.217825 -0.262739 -0.411974 192 234 140
0.299116 -0.322164 -0.415112 192 234 140
0.32511 -0.314525 -0.416287 192 234 140
0.245003 -0.41064 -0.416587 192 234 140
0.249107 -0.421373 -0.416784 192 234 140
0.370723 -0.332606 -0.420235 192 234 140
0.139025 -0.334277 -0.416582 192 234 140
0.348673 -0.43461 -0.421222 192 234 140
0.073968 -0.228919 -0.414685 192 234 140
0.274455 -0.307237 -0.413101 192 234 140
0.20918 -0.421791 -0.417309 192 234 140
0.459059 -0.238801 -0.418134 192 234 140
0.153356 -0.305962 -0.415897 192 234 140
0.354297 -0.221567 -0.417017 192 234 140
0.252362 -0.20127 -0.406943 192 234 140
0.293998 -0.386599 -0.416814 192 234 140
0.380054 -0.488874 -0.381788 192 234 140
0.291852 -0.483003 -0.434188 192 234 140
0.411065 -0.406216 -0.42236 192 234 140
0.0907284 -0.331679 -0.415112 192 234 140
0.471076 -0.320449 -0.377816 192 234 140
0.132631 -0.497203 -0.143361 192 234 140
0.0610553 -0.331233 -0.41482 192 234 140
0.388167 -0.366661 -0.421018 192 234 140
-0.0327068 -0.381508 -0.412437 192 234 140
0.18032 -0.329677 -0.415816 192 234 140
0.391117 -0.455179 -0.426035 192 234 140
0.274229 -0.432674 -0.417427 192 234 140
0.472115 -0.173478 -0.392738 192 234 140
0.470067 -0.267407 -0.367968 192 234 140
0.33121 -0.193476 -0.409806 192 234 140
0.105195 -0.248857 -0.414865 192 234 140
-0.00353323 -0.260552 -0.417263 192 234 140
0.346013 -0.385923 -0.419485 192 234 140
0.21151 -0.260198 -0.412329 192 234 140
0.0378543 -0.308068 -0.416178 192 234 140
0.119168 -0.276075 -0.416118 192 234 140
0.473797 -0.280176 -0.397027 192 234 140
0.469177 -0.350418 -0.403084 192 234 140
0.350142 -0.338967 -0.418704 192 234 140
0.466056 -0.386173 -0.314375 192 234 140
0.364753 -0.488993 -0.372631 192 234 140
0.352064 -0.490038 -0.347252 192 234 140
-0.0426264 -0.295846 -0.415749 192 234 140
0.246982 -0.470983 -0.414215 192 234 140
0.219028 -0.494089 -0.233386 192 234 140
0.153213 -0.209215 -0.414112 192 234 140
0.0266249 -0.391133 -0.414297 192 234 140
0.304374 -0.341226 -0.415963 192 234 140
0.288058 -0.295318 -0.412891 192 234 140
0.455475 -0.261865 -0.420666 192 234 140
0.415314 -0.407813 -0.422806 192 234 140
0.324063 -0.227231 -0.414504 192 234 140
0.209924 -0.368178 -0.416549 192 234 140
0.178921 -0.495501 -0.18766 192 234 140
0.446806 -0.390829 -0.421887 192 234 140
-0.000168445 -0.314873 -0.415357 192 234 140
0.473491 -0.216977 -0.389423 192 234 140
-0.0300633 -0.402867 -0.412485 192 234 140
0.256392 -0.463902 -0.423909 192 234 140
0.315349 -0.360417 -0.417074 192 234 140
0.299968 -0.463561 -0.424941 192 234 140
0.466569 -0.331757 -0.413692 192 234 140
0.243987 -0.222752 -0.40986 192 234 140
0.0913476 -0.199328 -0.412397 192 234 140
0.450609 -0.22027 -0.418855 192 234 140
0.407315 -0.219581 -0.419997 192 234 140
0.188194 -0.495408 -0.184371 192 234 140
0.336084 -0.262302 -0.415946 192 234 140
0.0214402 -0.413574 -0.414592 192 234 140
0.20143 -0.403099 -0.417303 192 234 140
0.229934 -0.433172 -0.417227 192 234 140
0.316514 -0.224526 -0.413261 192 234 140
0.16335 -0.489996 -0.422795 192 234 140
0.16934 -0.280414 -0.414583 192 234 140
0.141194 -0.449453 -0.417329 192 234 140
-0.00467901 -0.209053 -0.41571 192 234 140
0.371436 -0.479215 -0.431479 192 234 140
0.305549 -0.390455 -0.417533 192 234 140
0.333811 -0.310789 -0.416707 192 234 140
0.414088 -0.475567 -0.434754 192 234 140
0.465814 -0.380256 -0.353117 192 234 140
0.119685 -0.35298 -0.416688 192 234 140
0.226678 -0.213267 -0.409553 192 234 140
0.0501591 -0.399227 -0.415005 192 234 140
0.0967653 -0.278839 -0.415635 192 234 140
0.213789 -0.286758 -0.41251 192 234 140
0.373209 -0.244366 -0.419988 192 234 140
0.380457 -0.232079 -0.420147 192 234 140
0.258643 -0.359064 -0.41497 192 234 140
0.231545 -0.456413 -0.422172 192 234 140
0.0490871 -0.49619 -0.281536 192 234 140
0.437073 -0.249166 -0.422444 192 234 140
-0.0621432 -0.262461 -0.416073 192 234 140
0.290657 -0.489052 -0.42816 192 234 140
0.328263 -0.373432 -0.418121 192 234 140
0.281719 -0.241681 -0.41248 192 234 140
0.00823777 -0.387068 -0.41358 192 234 140
0.155113 -0.372664 -0.417272 192 234 140
0.414086 -0.443904 -0.424817 192 234 140
0.371395 -0.213709 -0.416742 192 234 140
0.181651 -0.272636 -0.413997 192 234 140
0.239563 -0.242239 -0.410992 192 234 140
0.470742 -0.471067 -0.41644 192 234 140
0.136402 -0.369835 -0.417115 192 234 140
0.389594 -0.24721 -0.42139 192 234 140
0.406339 -0.197544 -0.415105 192 234 140
0.366113 -0.461707 -0.425815 192 234 140
0.199629 -0.312009 -0.414894 192 234 140
0.465646 -0.348722 -0.343897 192 234 140
0.276007 -0.49268 -0.261035 192 234 140
0.0560904 -0.449131 -0.416934 192 234 140
0.0458557 -0.370137 -0.414088 192 234 140
0.40884 -0.468391 -0.431336 192 234 140
0.205898 -0.321627 -0.415107 192 234 140
0.468157 -0.374556 -0.40207 192 234 140
0.330768 -0.260145 -0.415229 192 234 140
0.067216 -0.342755 -0.41472 192 234 140
0.254792 -0.265226 -0.411069 192 234 140
0.112707 -0.359108 -0.416311 192 234 140
0.323439 -0.28853 -0.414931 192 234 140
0.223584 -0.493844 -0.243531 192 234 140
0.456744 -0.407723 -0.419256 192 234 140
-0.00569522 -0.295605 -0.416496 192 234 140
0.304507 -0.360267 -0.416498 192 234 140
0.359057 -0.374917 -0.419595 192 234 140
-0.00303703 -0.418246 -0.413837 192 234 140
0.16439 -0.299621 -0.415088 192 234 140
0.461625 -0.421612 -0.416099 192 234 140
0.203269 -0.448947 -0.41947 192 234 140
0.0922265 -0.492898 -0.362273 192 234 140
0.103445 -0.29473 -0.41596 192 234 140
0.311065 -0.376908 -0.417355 192 234 140
0.338472 -0.298223 -0.416692 192 234 140
0.270769 -0.426955 -0.417227 192 234 140
0.296961 -0.306641 -0.414085 192 234 140
0.163787 -0.242662 -0.414407 192 234 140
0.46598 -0.410996 -0.411761 192 234 140
0.0907273 -0.252498 -0.414944 192 234 140
0.0195549 -0.488567 -0.421853 192 234 140
0.344714 -0.458116 -0.424203 192 234 140
0.215607 -0.299077 -0.413236 192 234 140
0.288798 -0.247238 -0.412874 192 234 140
0.196386 -0.349534 -0.416273 192 234 140
-0.00983736 -0.494936 -0.343151 192 234 140
0.100888 -0.478828 -0.423418 192 234 140
0.469891 -0.368952 -0.394879 192 234 140
0.0671573 -0.200398 -0.412759 192 234 140
0.276418 -0.284177 -0.412093 192 234 140
0.327998 -0.358441 -0.417773 192 234 140
0.119605 -0.231955 -0.414597 192 234 140
0.213357 -0.484125 -0.433201 192 234 140
0.00455013 -0.30979 -0.415869 192 234 140
0.288931 -0.492713 -0.246095 192 234 140
-0.0113481 -0.345023 -0.413974 192 234 140
0.125694 -0.464477 -0.412894 192 234 140
0.0423416 -0.260068 -0.417877 192 234 140
0.359958 -0.191948 -0.411695 192 234 140
0.402211 -0.45317 -0.426079 192 234 140
0.461616 -0.293756 -0.418734 192 234 140
0.165902 -0.387233 -0.41695 192 234 140
0.44133 -0.193994 -0.414175 192 234 140
0.27806 -0.200746 -0.407415 192 234 140
0.383093 -0.24568 -0.420927 192 234 140
0.455271 -0.435001 -0.420669 192 234 140
0.289078 -0.408582 -0.417128 192 234 140
0.0657223 -0.300581 -0.416503 192 234 140
0.0785843 -0.42636 -0.415263 192 234 140
0.340037 -0.327999 -0.418043 192 234 140
0.469105 -0.345576 -0.373664 192 234 140
0.472855 -0.177863 -0.388275 192 234 140
0.442756 -0.395219 -0.422918 192 234 140
0.426323 -0.18156 -0.411395 192 234 140
0.462982 -0.239724 -0.417178 192 234 140
0.0653269 -0.202287 -0.413115 192 234 140
0.345092 -0.428295 -0.420503 192 234 140
0.0828729 -0.463856 -0.414028 192 234 140
0.191381 -0.403279 -0.417326 192 234 140
0.244161 -0.315017 -0.413242 192 234 140
0.466092 -0.279445 -0.416796 192 234 140
0.242263 -0.409175 -0.416548 192 234 140
0.473645 -0.305763 -0.398431 192 234 140
0.336273 -0.285805 -0.416186 192 234 140
0.425987 -0.274936 -0.424007 192 234 140
0.46959 -0.440996 -0.366686 192 234 140
-0.00643885 -0.496212 -0.295563 192 234 140
0.470127 -0.320383 -0.410114 192 234 140
0.00910591 -0.40822 -0.413665 192 234 140
0.167835 -0.198521 -0.412891 192 234 140
0.253108 -0.40766 -0.416655 192 234 140
-0.146398 -0.241434 -0.420684 224 210 119
-0.136074 -0.406772 -0.421554 224 210 119
-0.164133 -0.302963 -0.330977 224 210 119
0.0998116 -0.325236 -0.416865 224 210 119
-0.169253 -0.218698 -0.207131 224 210 119
0.0138354 -0.324651 -0.41691 224 210 119
-0.163683 -0.424281 -0.4055 224 210 119
0.11297 -0.219906 -0.412237 224 210 119
-0.144427 -0.412756 -0.420806 224 210 119
-0.000483669 -0.466809 -0.423255 224 210 119
-0.170269 -0.366775 -0.204029 224 210 119
-0.157706 -0.475202 0.0355799 224 210 119
-0.169494 -0.232536 -0.233773 224 210 119
-0.072541 -0.199915 -0.416219 224 210 119
0.0955342 -0.351487 -0.417236 224 210 119
-0.148599 -0.27641 0.16699 224 210 119
-0.175296 -0.441124 -0.335635 224 210 119
-0.171578 -0.401945 -0.362394 224 210 119
-0.1527 -0.376906 0.0654688 224 210 119
0.0176102 -0.402718 -0.420013 224 210 119
-0.167523 -0.466588 -0.198579 224 210 119
-0.0323399 -0.295896 -0.413736 224 210 119
-0.108888 -0.198543 -0.416974 224 210 119
-0.151984 -0.283439 0.155031 224 210 119
-0.165036 -0.241279 -0.352797 224 210 119
-0.1059 -0.306355 -0.306977 224 210 119
-0.166226 -0.362447 -0.386694 224 210 119
-0.168814 -0.364794 -0.219436 224 210 119
-0.145097 -0.19901 -0.401239 224 210 119
-0.160328 -0.214581 -0.15081 224 210 119
0.0157118 -0.484808 -0.423284 224 210 119
-0.144301 -0.238477 0.0932421 224 210 119
-0.167458 -0.286734 -0.283159 224 210 119
-0.0270206 -0.362868 -0.415843 224 210 119
-0.1637 -0.360853 -0.156889 224 210 119
-0.0966163 -0.204721 -0.383924 224 210 119
0.26369 -0.353949 -0.415801 224 210 119
-0.148588 -0.439498 -0.321419 224 210 119
-0.0701424 -0.291634 -0.358795 224 210 119
-0.0248756 -0.194591 -0.406819 224 210 119
0.202022 -0.39819 -0.42042 224 210 119
-0.164756 -0.224089 -0.347333 224 210 119
0.221212 -0.29912 -0.397536 224 210 119
-0.166102 -0.296673 -0.37451 224 210 119
-0.161069 -0.359367 -0.406467 224 210 119
0.065529 -0.194578 -0.400312 224 210 119
-0.176115 -0.457941 -0.308957 224 210 119
-0.162108 -0.379715 0.0816711 224 210 119
-0.0716963 -0.203542 -0.416356 224 210 119
-0.134967 -0.435622 -0.422308 224 210 119
-0.156889 -0.288793 -0.143923 224 210 119
-0.164747 -0.47127 0.0354274 224 210 119
-0.123612 -0.211971 -0.335967 224 210 119
-0.157782 -0.344244 -0.0483105 224 210 119
-0.161614 -0.221362 -0.328817 224 210 119
0.155683 -0.272957 -0.415546 224 210 119
-0.165479 -0.467283 -0.408139 224 210 119
-0.067339 -0.310142 -0.334509 224 210 119
-0.162562 -0.205249 -0.344555 224 210 119
-0.170462 -0.395133 -0.341399 224 210 119
-0.171383 -0.418578 -0.231988 224 210 119
-0.0969654 -0.347982 -0.421036 224 210 119
0.122352 -0.243734 -0.388252 224 210 119
0.228869 -0.404524 -0.421214 224 210 119
-0.154083 -0.260197 0.0351167 224 210 119
-0.0870246 -0.296653 -0.338446 224 210 119
-0.175054 -0.431096 -0.264124 224 210 119
-0.0896756 -0.241949 -0.371985 224 210 119
-0.166089 -0.229737 -0.264585 224 210 119
-0.152615 -0.441886 -0.308665 224 210 119
-0.0914196 -0.293052 -0.337358 224 210 119
-0.169583 -0.387932 -0.374919 224 210 119
-0.161 -0.213117 -0.165828 224 210 119
-0.128784 -0.34979 -0.310733 224 210 119
0.0340272 -0.304928 -0.369077 224 210 119
0.0874445 -0.235793 -0.412667 224 210 119
-0.16681 -0.359652 -0.111901 224 210 119
-0.166115 -0.234341 -0.360437 224 210 119
-0.0821307 -0.314929 -0.321385 224 210 119
0.218094 -0.234476 -0.413352 224 210 119
-0.0368512 -0.356458 -0.414708 224 210 119
-0.174611 -0.447312 -0.300022 224 210 119
-0.157635 -0.437933 -0.0148103 224 210 119
0.15253 -0.213707 -0.412073 224 210 119
-0.147412 -0.320851 0.166538 224 210 119
0.260517 -0.351145 -0.416217 224 210 119
0.0514028 -0.264195 -0.414256 224 210 119
0.206909 -0.231377 -0.412951 224 210 119
-0.158469 -0.416336 -0.092607 224 210 119
-0.139102 -0.239638 -0.273592 224 210 119
-0.146616 -0.362283 -0.419834 224 210 119
-0.17107 -0.335221 -0.267393 224 210 119
-0.161791 -0.348803 -0.128242 224 210 119
-0.112988 -0.29528 -0.316282 224 210 119
-0.17622 -0.453499 -0.316941 224 210 119
-0.124741 -0.296969 -0.302249 224 210 119
-0.133301 -0.275222 -0.421516 224 210 119
-0.00764652 -0.394844 -0.419494 224 210 119
0.0216188 -0.432256 -0.421801 224 210 119
0.152046 -0.2594 -0.414863 224 210 119
-0.163835 -0.400211 -0.17514 224 210 119
-0.160986 -0.280124 -0.0789455 224 210 119
0.0614717 -0.399954 -0.419545 224 210 119
-0.166489 -0.26434 -0.156371 224 210 119
-0.113157 -0.256113 -0.324567 224 210 119
-0.037778 -0.296346 -0.413485 224 210 119
-0.0773778 -0.326047 -0.338482 224 210 119
-0.150069 -0.262904 0.122029 224 210 119
-0.157336 -0.298583 -0.144888 224 210 119
0.177855 -0.265127 -0.415165 224 210 119
-0.157412 -0.202183 -0.393171 224 210 119
-0.167135 -0.292087 -0.168914 224 210 119
-0.158713 -0.340964 -0.0620252 224 210 119
-0.138719 -0.451042 -0.313212 224 210 119
-0.160668 -0.2584 -0.0613326 224 210 119
-0.172167 -0.403852 -0.310965 224 210 119
-0.0300366 -0.295778 -0.36901 224 210 119
-0.149091 -0.30561 0.129011 224 210 119
-0.175098 -0.458582 -0.290939 224 210 119
-0.0511166 -0.247399 -0.414959 224 210 119
0.0655432 -0.212033 -0.390344 224 210 119
-0.145341 -0.245765 0.158721 224 210 119
-0.0956625 -0.292968 -0.420952 224 210 119
-0.146544 -0.358213 -0.420027 224 210 119
-0.150587 -0.24128 0.0635988 224 210 119
-0.165423 -0.266702 -0.350694 224 210 119
0.223776 -0.31283 -0.3989 224 210 119
-0.159471 -0.418636 -0.411312 224 210 119
-0.0856317 -0.27168 -0.359084 224 210 119
0.146963 -0.201089 -0.41147 224 210 119
-0.156744 -0.208043 -0.29987 224 210 119
-0.162104 -0.215075 -0.278307 224 210 119
-0.169651 -0.243373 -0.24064 224 210 119
0.0309407 -0.299964 -0.416819 224 210 119
-0.166795 -0.336251 -0.35525 224 210 119
0.0771813 -0.296086 -0.384183 224 210 119
-0.157366 -0.290797 -0.102587 224 210 119
-0.0824769 -0.295467 -0.419334 224 210 119
0.144681 -0.459677 -0.425423 224 210 119
-0.0167106 -0.442719 -0.42143 224 210 119
-0.154618 -0.204172 -0.327951 224 210 119
0.00848993 -0.274714 -0.41392 224 210 119
0.0664847 -0.220919 -0.411743 224 210 119
0.131687 -0.39096 -0.419332 224 210 119
0.117313 -0.363489 -0.417918 224 210 119
-0.162616 -0.288815 -0.119093 224 210 119
0.0919034 -0.241159 -0.413018 224 210 119
-0.165331 -0.414744 -0.0987537 224 210 119
-0.162961 -0.360352 -0.400067 224 210 119
-0.122676 -0.26433 -0.30749 224 210 119
-0.0609302 -0.328717 -0.415815 224 210 119
-0.132274 -0.295171 -0.294362 224 210 119
-0.153711 -0.363802 0.0337638 224 210 119
-0.173292 -0.418302 -0.37241 224 210 119
0.178637 -0.19029 -0.41067 224 210 119
0.00811496 -0.38634 -0.419443 224 210 119
0.241254 -0.363374 -0.418693 224 210 119
-0.168303 -0.387027 -0.381373 224 210 119
-0.164531 -0.308743 -0.314923 224 210 119
-0.100127 -0.254968 -0.421946 224 210 119
-0.107875 -0.253302 -0.422115 224 210 119
0.194875 -0.187931 -0.410268 224 210 119
-0.153717 -0.272297 0.0576388 224 210 119
-0.164137 -0.274185 -0.387899 224 210 119
0.217575 -0.223702 -0.412763 224 210 119
-0.162677 -0.273038 -0.104686 224 210 119
-0.168897 -0.388305 -0.222995 224 210 119
-0.165187 -0.31049 -0.124442 224 210 119
-0.166851 -0.269361 -0.280804 224 210 119
0.011348 -0.441107 -0.421957 224 210 119
0.220165 -0.364895 -0.418705 224 210 119
-0.153487 -0.232959 -0.416861 224 210 119
-0.16245 -0.429229 0.0389083 224 210 119
-0.176147 -0.472978 -0.26672 224 210 119
-0.0997345 -0.362306 -0.420157 224 210 119
0.141502 -0.356799 -0.417696 224 210 119
-0.00559779 -0.469179 -0.423323 224 210 119
-0.160238 -0.203562 -0.371117 224 210 119
-0.147005 -0.203372 -0.294981 224 210 119
-0.161272 -0.43329 0.102776 224 210 119
-0.00466319 -0.353814 -0.41702 224 210 119
-0.0407618 -0.327932 -0.41433 224 210 119
-0.101666 -0.357556 -0.420914 224 210 119
-0.106963 -0.206981 -0.419593 224 210 119
0.00517704 -0.345737 -0.417222 224 210 119
-0.156642 -0.438163 0.0174672 224 210 119
-0.154148 -0.34584 -0.415904 224 210 119
-0.149532 -0.312207 0.110203 224 210 119
-0.0877726 -0.35982 -0.418487 224 210 119
0.0741292 -0.237642 -0.412669 224 210 119
0.0394296 -0.233959 -0.411643 224 210 119
-0.149676 -0.365294 -0.418302 224 210 119
-0.162 -0.242184 -0.331683 224 210 119
-0.173918 -0.426989 -0.327155 224 210 119
0.17208 -0.213454 -0.412292 224 210 119
-0.163223 -0.28802 -0.325945 224 210 119
-0.16263 -0.332302 -0.121599 224 210 119
-0.0677375 -0.348457 -0.416107 224 210 119
-0.0120373 -0.281413 -0.381734 224 210 119
-0.0246595 -0.262504 -0.383391 224 210 119
-0.159396 -0.212066 -0.171106 224 210 119
-0.111503 -0.319115 -0.28867 224 210 119
-0.168043 -0.392038 -0.385162 224 210 119
-0.168354 -0.483884 -0.359193 224 210 119
-0.166424 -0.471858 -0.174943 224 210 119
0.034947 -0.300639 -0.373992 224 210 119
0.037058 -0.459511 -0.423524 224 210 119
-0.167288 -0.309717 -0.183461 224 210 119
-0.161884 -0.318244 0.0525154 224 210 119
-0.176914 -0.472658 -0.308293 224 210 119
-0.155667 -0.212906 -0.154697 224 210 119
0.0378919 -0.246032 -0.412651 224 210 119
0.214805 -0.386059 -0.419825 224 210 119
-0.0917556 -0.488659 -0.401435 224 210 119
-0.1728 -0.432671 -0.383483 224 210 119
-0.0139536 -0.240845 -0.4109 224 210 119
0.12306 -0.285228 -0.416113 224 210 119
0.0690715 -0.200987 -0.39729 224 210 119
-0.166176 -0.243099 -0.27199 224 210 119
-0.037357 -0.202528 -0.412999 224 210 119
0.119203 -0.341738 -0.416787 224 210 119
-0.172079 -0.406434 -0.364954 224 210 119
0.0268134 -0.29185 -0.381496 224 210 119
-0.016056 -0.440386 -0.42135 224 210 119
0.100491 -0.232412 -0.387117 224 210 119
-0.147814 -0.31517 0.147997 224 210 119
-0.173895 -0.433127 -0.292623 224 210 119
-0.158891 -0.40378 -0.101682 224 210 119
-0.16867 -0.219172 -0.186724 224 210 119
-0.162198 -0.382067 -0.27716 224 210 119
-0.149648 -0.22162 -0.0668183 224 210 119
-0.0235107 -0.222232 -0.412014 224 210 119
-0.0324509 -0.299699 -0.364863 224 210 119
-0.170418 -0.343666 -0.24331 224 210 119
0.0496597 -0.243983 -0.412838 224 210 119
-0.164183 -0.432585 -0.405191 224 210 119
-0.0397323 -0.208694 -0.413558 224 210 119
0.187254 -0.233218 -0.412985 224 210 119
0.254976 -0.215256 -0.413016 224 210 119
-0.0737987 -0.316481 -0.418384 224 210 119
0.134533 -0.237924 -0.413286 224 210 119
0.240487 -0.350337 -0.417968 224 210 119
-0.164155 -0.329397 0.122959 224 210 119
-0.152007 -0.255702 0.0810358 224 210 119
-0.147158 -0.318593 0.184558 224 210 119
-0.16207 -0.266466 -0.397921 224 210 119
-0.0955601 -0.372072 -0.418879 224 210 119
-0.174171 -0.423034 -0.2769 224 210 119
-0.163837 -0.300208 -0.325209 224 210 119
-0.14639 -0.35778 -0.420111 224 210 119
0.234611 -0.23634 -0.413613 224 210 119
-0.164135 -0.266296 -0.385844 224 210 119
-0.0303345 -0.49035 -0.420292 224 210 119
-0.163539 -0.369509 -0.1571 224 210 119
-0.157123 -0.309237 -0.180699 224 210 119
-0.16048 -0.326963 -0.407883 224 210 119
-0.0773964 -0.47684 -0.419335 224 210 119
-0.177849 -0.470228 -0.331401 224 210 119
-0.0202605 -0.396987 -0.418604 224 210 119
-0.062025 -0.400987 -0.415739 224 210 119
-0.0828575 -0.443606 -0.418941 224 210 119
0.0386578 -0.197221 -0.40826 224 210 119
-0.176844 -0.476459 -0.304112 224 210 119
-0.155139 -0.420246 0.0347769 224 210 119
-0.0651089 -0.450243 -0.417487 224 210 119
-0.159859 -0.389762 0.0645793 224 210 119
-0.16634 -0.213564 -0.355671 224 210 119
-0.0604421 -0.227707 -0.416004 224 210 119
-0.168784 -0.346185 -0.30264 224 210 119
-0.147384 -0.241248 0.108947 224 210 119
-0.101401 -0.242828 -0.42174 224 210 119
0.225715 -0.317548 -0.416753 224 210 119
-0.113017 -0.28923 -0.422099 224 210 119
-0.119499 -0.453925 -0.422653 224 210 119
-0.160825 -0.350065 -0.248177 224 210 119
-0.163653 -0.216694 -0.339083 224 210 119
-0.172415 -0.409579 -0.317756 224 210 119
-0.17352 -0.396366 -0.265544 224 210 119
-0.16485 -0.427594 -0.0681615 224 210 119
0.232169 -0.331252 -0.416911 224 210 119
-0.178792 -0.479068 -0.363226 224 210 119
-0.170961 -0.395003 -0.359388 224 210 119
0.0688744 -0.351127 -0.417107 224 210 119
0.148506 -0.284778 -0.415938 224 210 119
-0.0581285 -0.253863 -0.41563 224 210 119
-0.167283 -0.44712 -0.401239 224 210 119
0.0213319 -0.455471 -0.422834 224 210 119
-0.0820651 -0.325687 -0.419462 224 210 119
-0.0553506 -0.41367 -0.415641 224 210 119
-0.171944 -0.372435 -0.283112 224 210 119
-0.100551 -0.340222 -0.325909 224 210 119
-0.131174 -0.21878 -0.312062 224 210 119
0.0809634 -0.422329 -0.420526 224 210 119
-0.0801452 -0.320645 -0.32992 224 210 119
-0.148127 -0.363589 -0.311428 224 210 119
-0.171906 -0.481842 -0.338315 224 210 119
0.113897 -0.204974 -0.411117 224 210 119
-0.161788 -0.365206 -0.403946 224 210 119
-0.126394 -0.39929 -0.356023 224 210 119
-0.115788 -0.475128 -0.422551 224 210 119
0.0839528 -0.382231 -0.418777 224 210 119
-0.121156 -0.484789 -0.422963 224 210 119
0.025465 -0.271144 -0.413902 224 210 119
-0.173332 -0.414406 -0.286594 224 210 119
-0.156488 -0.412173 -0.293863 224 210 119
-0.0926565 -0.295254 -0.420645 224 210 119
-0.16549 -0.254702 -0.359818 224 210 119
-0.167664 -0.215558 -0.194475 224 210 119
-0.017133 -0.299425 -0.368965 224 210 119
-0.171227 -0.344056 -0.274948 224 210 119
-0.135856 -0.284924 -0.284897 224 210 119
-0.154793 -0.273254 0.0307913 224 210 119
0.10219 -0.193948 -0.401858 224 210 119
-0.0262708 -0.249258 -0.411936 224 210 119
-0.165408 -0.353734 -0.390942 224 210 119
-0.148855 -0.272775 0.150909 224 210 119
-0.165599 -0.33762 -0.383854 224 210 119
-0.122362 -0.466206 -0.422918 224 210 119
-0.140781 -0.198514 -0.368046 224 210 119
0.0352699 -0.377803 -0.418318 224 210 119
-0.174168 -0.478002 -0.39478 224 210 119
-0.163186 -0.20816 -0.336082 224 210 119
-0.143207 -0.429878 -0.421746 224 210 119
0.0604954 -0.194647 -0.402561 224 210 119
0.00174633 -0.289991 -0.380771 224 210 119
-0.171744 -0.36229 -0.281797 224 210 119
0.108943 -0.294153 -0.385742 224 210 119
-0.0130073 -0.465441 -0.422795 224 210 119
-0.118294 -0.202129 -0.357047 224 210 119
0.152069 -0.230871 -0.412934 224 210 119
-0.145631 -0.203694 -0.283539 224 210 119
0.00771953 -0.245456 -0.411409 224 210 119
0.0585949 -0.201047 -0.396249 224 210 119
-0.146436 -0.474879 -0.422071 224 210 119
-0.120914 -0.237061 -0.322296 224 210 119
-0.161096 -0.364441 -0.124973 224 210 119
0.115566 -0.272909 -0.415617 224 210 119
-0.154105 -0.273381 -0.0740772 224 210 119
-0.165643 -0.216359 -0.169592 224 210 119
-0.0218577 -0.470267 -0.422732 224 210 119
-0.145138 -0.309615 -0.216895 224 210 119
-0.174241 -0.43197 -0.28152 224 210 119
-0.147319 -0.342817 -0.264769 224 210 119
-0.165671 -0.418217 -0.130414 224 210 119
-0.165145 -0.294393 -0.340955 224 210 119
-0.14373 -0.223885 -0.420313 224 210 119
-0.169863 -0.382832 -0.325884 224 210 119
-0.172157 -0.478939 -0.30014 224 210 119
-0.103573 -0.247283 -0.421986 224 210 119
-0.152935 -0.385938 0.0763607 224 210 119
0.0254362 -0.226056 -0.410076 224 210 119
0.0251282 -0.278278 -0.383006 224 210 119
-0.0386187 -0.298952 -0.413544 224 210 119
0.145754 -0.202091 -0.411482 224 210 119
0.0289605 -0.367126 -0.417959 224 210 119
0.0955848 -0.332624 -0.416824 224 210 119
0.0868445 -0.195036 -0.408346 224 210 119
-0.154144 -0.270057 0.0460451 224 210 119
0.0113594 -0.230407 -0.409999 224 210 119
-0.0984796 -0.323649 -0.308086 224 210 119
-0.157576 -0.304283 -0.170606 224 210 119
-0.173856 -0.435508 -0.296557 224 210 119
-0.0971465 -0.299231 -0.421441 224 210 119
0.0240794 -0.48359 -0.426389 224 210 119
-0.157442 -0.385321 -0.412422 224 210 119
-0.168742 -0.43074 -0.39445 224 210 119
-0.079515 -0.300174 -0.341959 224 210 119
-0.155376 -0.302146 0.100945 224 210 119
0.174449 -0.393674 -0.419706 224 210 119
-0.162436 -0.224548 -0.385948 224 210 119
-0.132198 -0.299535 -0.282731 224 210 119
-0.154103 -0.253071 0.0289915 224 210 119
-0.0271289 -0.438302 -0.420287 224 210 119
-0.148992 -0.380316 -0.418236 224 210 119
-0.0217689 -0.194665 -0.406907 224 210 119
0.0124638 -0.351946 -0.41762 224 210 119
0.122551 -0.190811 -0.404 224 210 119
-0.16373 -0.204834 -0.363234 224 210 119
0.028684 -0.19661 -0.406945 224 210 119
-0.0632567 -0.406722 -0.416087 224 210 119
-0.154315 -0.297967 0.155813 224 210 119
-0.169317 -0.478097 -0.276982 224 210 119
0.16032 -0.193478 -0.41069 224 210 119
0.0144219 -0.394544 -0.419743 224 210 119
-0.165329 -0.285476 -0.384399 224 210 119
-0.159818 -0.317796 -0.0809918 224 210 119
-0.169005 -0.486004 -0.406451 224 210 119
-0.147097 -0.3029 -0.22292 224 210 119
-0.125223 -0.480253 -0.422951 224 210 119
-0.165344 -0.353813 0.051646 224 210 119
0.142688 -0.207267 -0.411637 224 210 119
-0.168587 -0.361837 -0.214353 224 210 119
-0.161586 -0.320564 -0.182256 224 210 119
0.261025 -0.230564 -0.413138 224 210 119
0.17954 -0.396592 -0.419967 224 210 119
-0.0145795 -0.371913 -0.417697 224 210 119
0.0192985 -0.202039 -0.407791 224 210 119
-0.164552 -0.267407 -0.137546 224 210 119
-0.152352 -0.431281 -0.418235 224 210 119
0.0282021 -0.40905 -0.420151 224 210 119
0.0568848 -0.338716 -0.41692 224 210 119
-0.0917143 -0.22006 -0.419806 224 210 119
0.112098 -0.209488 -0.395304 224 210 119
-0.172844 -0.476572 -0.216633 224 210 119
-0.0420201 -0.346269 -0.414307 224 210 119
-0.17289 -0.472215 -0.22042 224 210 119
-0.148295 -0.251125 0.185282 224 210 119
0.0787653 -0.289936 -0.383759 224 210 119
-0.0878654 -0.26885 -0.419903 224 210 119
-0.13619 -0.299218 -0.27492 224 210 119
-0.0477364 -0.249113 -0.414454 224 210 119
0.0155148 -0.308212 -0.416672 224 210 119
-0.105321 -0.437543 -0.420747 224 210 119
-0.0199338 -0.336452 -0.415964 224 210 119
-0.164696 -0.262088 -0.291236 224 210 119
-0.0654267 -0.194454 -0.41152 224 210 119
0.196865 -0.317484 -0.416766 224 210 119
-0.166009 -0.355509 -0.386704 224 210 119
-0.0269074 -0.210128 -0.393967 224 210 119
0.199842 -0.270911 -0.41536 224 210 119
-0.0419719 -0.262896 -0.413085 224 210 119
-0.0420223 -0.372486 -0.414787 224 210 119
-0.148445 -0.251605 0.139549 224 210 119
-0.172141 -0.411523 -0.243681 224 210 119
-0.14996 -0.474347 0.0276276 224 210 119
0.139902 -0.371201 -0.418493 224 210 119
-0.165819 -0.220422 -0.146926 224 210 119
-0.0275805 -0.292886 -0.371988 224 210 119
-0.160515 -0.4297 -0.141569 224 210 119
-0.0794516 -0.291728 -0.348315 224 210 119
0.200366 -0.457785 -0.425914 224 210 119
-0.113304 -0.198405 -0.416175 224 210 119
-0.165603 -0.27581 -0.353408 224 210 119
-0.104114 -0.266982 -0.422051 224 210 119
-0.115094 -0.487554 -0.394747 224 210 119
0.210052 -0.211641 -0.396229 224 210 119
-0.0868834 -0.489062 -0.420253 224 210 119
-0.162667 -0.436028 -0.162498 224 210 119
-0.164264 -0.34913 -0.159319 224 210 119
-0.138991 -0.451468 -0.422583 224 210 119
-0.017635 -0.194866 -0.40694 224 210 119
-0.164337 -0.23961 -0.123532 224 210 119
-0.0201763 -0.415065 -0.419679 224 210 119
-0.16281 -0.326939 0.0261355 224 210 119
-0.122496 -0.461384 -0.422971 224 210 119
-0.173651 -0.432178 -0.300707 224 210 119
0.0268503 -0.376188 -0.418502 224 210 119
-0.137511 -0.224107 -0.288809 224 210 119
0.0012616 -0.319152 -0.357349 224 210 119
-0.167402 -0.355521 -0.333431 224 210 119
0.0192445 -0.445928 -0.422371 224 210 119
0.249204 -0.232809 -0.413336 224 210 119
-0.0714671 -0.229732 -0.384264 224 210 119
-0.150111 -0.270171 0.164071 224 210 119
-0.166902 -0.336607 -0.184474 224 210 119
0.192829 -0.420129 -0.421925 224 210 119
-0.149609 -0.260185 -0.418951 224 210 119
-0.167667 -0.367918 -0.37672 224 210 119
0.0765653 -0.323624 -0.41687 224 210 119
0.129849 -0.34686 -0.417076 224 210 119
-0.0516027 -0.273183 -0.414081 224 210 119
-0.0612882 -0.25699 -0.415925 224 210 119
0.0722997 -0.296051 -0.383269 224 210 119
-0.170312 -0.358709 -0.180951 224 210 119
-0.149739 -0.33006 0.105607 224 210 119
0.161872 -0.464231 -0.42648 224 210 119
-0.118849 -0.308505 -0.284802 224 210 119
-0.155714 -0.302849 0.0858825 224 210 119
-0.144968 -0.47626 0.00231245 224 210 119
-0.154984 -0.305726 -0.187399 224 210 119
-0.161808 -0.229008 -0.2911 224 210 119
-0.16513 -0.266702 -0.345363 224 210 119
0.120086 -0.301511 -0.387271 224 210 119
0.158917 -0.209434 -0.411985 224 210 119
-0.1568 -0.226883 -0.145049 224 210 119
-0.168564 -0.469216 -0.106079 224 210 119
-0.165853 -0.316072 -0.376451 224 210 119
-0.153901 -0.369587 -0.307001 224 210 119
-0.176088 -0.46975 -0.275989 224 210 119
-0.154897 -0.42251 0.0735152 224 210 119
-0.108693 -0.319651 -0.292791 224 210 119
-0.0526814 -0.453087 -0.417737 224 210 119
0.076676 -0.339119 -0.416851 224 210 119
-0.177103 -0.455626 -0.372318 224 210 119
0.046145 -0.359379 -0.417355 224 210 119
0.0700083 -0.218834 -0.386656 224 210 119
-0.160107 -0.406057 -0.141192 224 210 119
-0.0509976 -0.233314 -0.415211 224 210 119
0.241654 -0.243112 -0.414249 224 210 119
-0.168307 -0.477239 -0.210971 224 210 119
-0.128483 -0.419802 -0.422113 224 210 119
-0.027932 -0.425887 -0.419654 224 210 119
-0.159379 -0.402936 -0.127903 224 210 119
-0.0749583 -0.217333 -0.386403 224 210 119
-0.175246 -0.453408 -0.302361 224 210 119
0.115447 -0.314423 -0.416811 224 210 119
-0.164155 -0.322962 -0.0932541 224 210 119
-0.0525661 -0.267255 -0.414398 224 210 119
-0.167643 -0.483932 -0.35943 224 210 119
-0.0454556 -0.324276 -0.414222 224 210 119
-0.163905 -0.360713 0.0150741 224 210 119
0.206137 -0.407238 -0.421082 224 210 119
-0.173886 -0.430365 -0.311702 224 210 119
-0.0827496 -0.374906 -0.417198 224 210 119
0.111638 -0.237898 -0.388004 224 210 119
-0.0727989 -0.471641 -0.418803 224 210 119
-0.162711 -0.448932 -0.151578 224 210 119
-0.178071 -0.474203 -0.320434 224 210 119
-0.140011 -0.272582 -0.264681 224 210 119
-0.111138 -0.399476 -0.420981 224 210 119
-0.0415967 -0.488076 -0.395796 224 210 119
-0.139826 -0.464198 -0.422762 224 210 119
-0.0941606 -0.487723 -0.0598591 255 178 96
-0.0140206 -0.487921 0.269406 255 178 96
-0.159103 -0.435902 0.210647 255 178 96
-0.164458 -0.462972 0.0219111 255 178 96
-0.165269 -0.396134 0.038501 255 178 96
0.403993 -0.490444 -0.111137 255 178 96
0.0350782 -0.487814 0.320297 255 178 96
-0.161466 -0.390485 0.179236 255 178 96
0.202196 -0.487817 -0.127168 255 178 96
0.0301613 -0.487917 0.266011 255 178 96
-0.164821 -0.481894 -0.0344572 255 178 96
0.239085 -0.493836 0.205692 255 178 96
0.000122249 -0.48808 0.133352 255 178 96
0.0283517 -0.486184 0.354146 255 178 96
-0.107373 -0.48778 0.00791189 255 178 96
-0.15998 -0.435512 0.190321 255 178 96
-0.16383 -0.296743 0.25794 255 178 96
-0.0160813 -0.487917 -0.107882 255 178 96
0.231509 -0.487824 -0.0701756 255 178 96
-0.0970861 -0.487623 -0.230815 255 178 96
