ply
format ascii 1.0
comment Created by Open3D
element vertex 1201
property double x
property double y
property double z
property uchar red
property uchar green
property uchar blue
end_header
0.0680862 -0.481822 -0.179725 0 180 235
0.100391 -0.130201 0.387591 0 180 235
0.0967311 -0.471091 -0.184334 0 180 235
0.106974 -0.195752 0.131699 0 180 235
-0.106548 -0.480869 -0.053703 0 180 235
-0.223862 -0.47039 -0.0643122 0 180 235
0.0987843 -0.471493 0.287146 0 180 235
0.105354 -0.422796 0.0558642 0 180 235
0.0997981 -0.104319 0.38514 0 180 235
0.108351 -0.329295 0.054149 0 180 235
0.0977596 -0.310076 -0.189343 0 180 235
-0.309221 -0.440143 -0.207713 0 180 235
0.107578 -0.36526 0.0522265 0 180 235
0.105249 -0.175262 0.175162 0 180 235
0.113582 -0.185034 0.0805098 0 180 235
0.106106 -0.450439 0.108489 0 180 235
0.102729 -0.12833 0.22719 0 180 235
0.10313 -0.449362 -0.134069 0 180 235
0.100417 -0.183399 0.297944 0 180 235
0.114465 -0.392692 0.292562 0 180 235
0.108981 -0.286125 0.0598541 0 180 235
0.0942831 -0.324937 -0.154465 0 180 235
0.0946945 -0.414284 0.229151 0 180 235
0.103843 -0.420709 0.11167 0 180 235
0.105321 -0.429443 0.052697 0 180 235
0.104482 -0.462608 0.00455881 0 180 235
0.0824561 -0.416957 -0.0794729 0 180 235
0.105962 -0.316112 0.320524 0 180 235
-0.298621 -0.455842 -0.0210921 0 180 235
0.106433 -0.472803 0.0689507 0 180 235
0.102519 -0.139341 0.419941 0 180 235
0.0832853 -0.415512 -0.0826855 0 180 235
0.10958 -0.298067 0.0718034 0 180 235
0.103617 -0.380303 0.187397 0 180 235
0.108533 -0.259386 0.0459415 0 180 235
0.105763 -0.344429 0.0170079 0 180 235
-0.260792 -0.45459 -0.207892 0 180 235
0.102737 -0.351569 0.262234 0 180 235
0.109443 -0.257732 0.0925359 0 180 235
0.104747 -0.43783 0.0480634 0 180 235
0.110015 -0.238847 0.0543332 0 180 235
0.0974106 -0.414894 -0.028767 0 180 235
0.0492502 -0.476126 -0.118924 0 180 235
0.106546 -0.407128 0.0352403 0 180 235
0.102655 -0.124915 0.274273 0 180 235
0.107531 -0.289019 0.0335909 0 180 235
0.0956628 -0.438075 -0.10103 0 180 235
0.115382 -0.386432 0.0814457 0 180 235
0.0702524 -0.474008 -0.124763 0 180 235
-0.281833 -0.438571 -0.221806 0 180 235
0.0955456 -0.118896 0.301803 0 180 235
0.114804 -0.343832 0.0089594 0 180 235
0.0897696 -0.374768 0.156631 0 180 235
0.108215 -0.313897 0.117943 0 180 235
0.105427 -0.458577 0.0310448 0 180 235
0.0917723 -0.438326 -0.00891674 0 180 235
0.109399 -0.396706 0.00371353 0 180 235
0.10243 -0.316793 -0.0603652 0 180 235
0.106896 -0.419466 0.0869788 0 180 235
0.0938517 -0.172226 0.331683 0 180 235
-0.220909 -0.479395 0.111433 0 180 235
0.116481 -0.274745 0.029118 0 180 235
0.0894869 -0.375998 0.131629 0 180 235
0.103092 -0.221085 0.33769 0 180 235
0.103337 -0.390697 -0.0256454 0 180 235
0.093295 -0.4229 -0.172289 0 180 235
-0.151091 -0.487903 0.17958 0 180 235
0.106206 -0.354513 0.384174 0 180 235
0.102528 -0.153896 0.411427 0 180 235
0.0838827 -0.464691 -0.0135204 0 180 235
0.108843 -0.135242 0.166368 0 180 235
-0.251677 -0.466745 -0.0371395 0 180 235
0.103698 -0.158551 0.207607 0 180 235
0.0117389 -0.492749 0.115905 0 180 235
-0.304607 -0.391528 -0.282658 0 180 235
0.0759978 -0.410659 0.093357 0 180 235
0.10059 -0.112414 0.378997 0 180 235
-0.146142 -0.477819 -0.089242 0 180 235
0.112263 -0.469249 0.172908 0 180 235
0.10558 -0.352184 0.0178395 0 180 235
-0.0634831 -0.481298 -0.131559 0 180 235
0.100047 -0.439878 -0.111927 0 180 235
0.107116 -0.348761 0.127195 0 180 235
-0.311245 -0.414899 -0.23104 0 180 235
-0.0281782 -0.492341 0.0597162 0 180 235
-0.253079 -0.457733 -0.283421 0 180 235
-0.110097 -0.489527 0.0543581 0 180 235
0.0816756 -0.452108 -0.0693655 0 180 235
0.112664 -0.260173 0.20033 0 180 235
0.0855155 -0.447016 -0.0857484 0 180 235
0.0941745 -0.198997 0.340395 0 180 235
0.0945576 -0.343135 -0.158103 0 180 235
0.102949 -0.264847 0.204849 0 180 235
0.10312 -0.126747 0.247176 0 180 235
0.11355 -0.195447 0.11731 0 180 235
-0.31401 -0.381426 -0.28032 0 180 235
-0.129923 -0.490623 0.210316 0 180 235
0.106539 -0.473466 0.0485624 0 180 235
-0.263575 -0.47219 0.10601 0 180 235
0.113223 -0.327182 0.176312 0 180 235
-0.270438 -0.436139 -0.261774 0 180 235
0.0409268 -0.489374 0.29185 0 180 235
-0.23013 -0.460899 -0.247832 0 180 235
0.101624 -0.453752 -0.0203348 0 180 235
-0.266251 -0.438007 -0.345995 0 180 235
-0.150056 -0.483104 -0.0123438 0 180 235
0.11764 -0.2525 0.0679763 0 180 235
0.107545 -0.23712 0.121531 0 180 235
0.105737 -0.128024 0.20631 0 180 235
0.1162 -0.22231 0.108622 0 180 235
0.0984418 -0.290333 -0.12472 0 180 235
0.104749 -0.367597 0.011797 0 180 235
0.103277 -0.334177 0.207833 0 180 235
-0.187862 -0.476271 -0.0647912 0 180 235
0.0852455 -0.46336 -0.117299 0 180 235
0.106667 -0.383264 0.0912153 0 180 235
0.113169 -0.244545 0.0371648 0 180 235
0.109501 -0.26126 0.0945249 0 180 235
0.110716 -0.162006 0.110368 0 180 235
0.113873 -0.404899 0.273195 0 180 235
0.104105 -0.479384 0.129935 0 180 235
0.0938307 -0.34935 0.273554 0 180 235
0.0976267 -0.412955 -0.0264377 0 180 235
0.101929 -0.410565 0.219018 0 180 235
0.107986 -0.154383 0.175977 0 180 235
0.103896 -0.377237 0.00852613 0 180 235
0.109523 -0.198879 0.186993 0 180 235
-0.195856 -0.473458 -0.31481 0 180 235
0.0911234 -0.371644 -0.141667 0 180 235
0.107088 -0.246392 0.393571 0 180 235
0.0378953 -0.48187 -0.201115 0 180 235
0.103691 -0.321113 0.286734 0 180 235
-0.272261 -0.458453 -0.197607 0 180 235
-0.0796933 -0.480775 -0.141456 0 180 235
0.101759 -0.455162 -0.140534 0 180 235
0.103042 -0.297133 0.109806 0 180 235
0.0704908 -0.479094 -0.0112336 0 180 235
-0.225503 -0.472859 -0.0276465 0 180 235
0.095758 -0.462576 0.0348695 0 180 235
0.100131 -0.274342 0.11879 0 180 235
-0.198924 -0.482004 0.123441 0 180 235
-0.322774 -0.453937 0.0644776 0 180 235
0.0684556 -0.414604 0.0982351 0 180 235
0.0169772 -0.481387 -0.125955 0 180 235
0.107312 -0.301005 0.0401779 0 180 235
-0.00890644 -0.482482 -0.0529627 0 180 235
0.115293 -0.248307 0.0274024 0 180 235
0.105801 -0.425249 0.147027 0 180 235
-0.0411999 -0.493391 0.245074 0 180 235
0.0768715 -0.463138 -0.0357491 0 180 235
-0.0135206 -0.490227 0.0366974 0 180 235
0.115757 -0.305963 0.111563 0 180 235
0.100019 -0.428411 0.284541 0 180 235
0.106456 -0.47392 0.0624956 0 180 235
0.116343 -0.276469 0.02705 0 180 235
0.107337 -0.349157 0.122024 0 180 235
0.113902 -0.376394 0.126037 0 180 235
0.103249 -0.373441 0.310409 0 180 235
0.102974 -0.349468 0.270405 0 180 235
0.108541 -0.286146 0.0332342 0 180 235
0.114736 -0.467222 0.205672 0 180 235
0.101338 -0.120777 0.290314 0 180 235
-0.231544 -0.473373 0.000824148 0 180 235
0.102474 -0.197396 0.357815 0 180 235
-0.302454 -0.45938 0.063883 0 180 235
0.104626 -0.19925 0.179447 0 180 235
0.106025 -0.194604 0.424088 0 180 235
0.11236 -0.305224 0.235064 0 180 235
0.10779 -0.302714 0.0290895 0 180 235
-0.19679 -0.473487 -0.285661 0 180 235
0.11144 -0.148586 0.128637 0 180 235
0.0130083 -0.480573 -0.0878224 0 180 235
0.108384 -0.150237 0.143016 0 180 235
-0.303594 -0.397796 -0.263037 0 180 235
0.107686 -0.30763 0.0467245 0 180 235
0.110412 -0.262732 0.224751 0 180 235
0.10619 -0.290359 0.355748 0 180 235
0.108088 -0.13316 0.177095 0 180 235
0.110627 -0.260601 0.0372631 0 180 235
0.100158 -0.190705 0.29801 0 180 235
0.1064 -0.359026 0.126204 0 180 235
0.110032 -0.327147 -0.0028897 0 180 235
0.0888934 -0.453999 -0.00560102 0 180 235
-0.320038 -0.447389 -0.0586463 0 180 235
-0.0730759 -0.493175 0.220606 0 180 235
-0.219286 -0.464763 -0.237712 0 180 235
-0.288431 -0.448502 -0.204262 0 180 235
0.0616323 -0.481031 -0.0073976 0 180 235
0.104455 -0.133517 0.231879 0 180 235
0.105886 -0.366429 0.123392 0 180 235
0.0848425 -0.400482 -0.0966548 0 180 235
0.103408 -0.317055 0.245271 0 180 235
-0.26969 -0.464341 -0.166296 0 180 235
0.0948198 -0.455067 -0.132465 0 180 235
0.109217 -0.238699 0.0822217 0 180 235
0.0848973 -0.467937 -0.00780633 0 180 235
0.103455 -0.438502 0.178988 0 180 235
0.114915 -0.382639 0.0942196 0 180 235
0.101572 -0.460756 -0.0363061 0 180 235
0.107688 -0.15684 0.184005 0 180 235
0.101964 -0.159917 0.252611 0 180 235
-0.32439 -0.450837 -0.185104 0 180 235
0.109326 -0.469846 0.145059 0 180 235
0.0980591 -0.478638 0.263113 0 180 235
0.103045 -0.186492 0.19774 0 180 235
0.107027 -0.133734 0.180891 0 180 235
-0.253892 -0.461936 -0.0915039 0 180 235
-0.293071 -0.406011 -0.290604 0 180 235
0.099637 -0.447378 0.300882 0 180 235
0.104561 -0.3761 -0.0346425 0 180 235
0.10316 -0.284826 0.300392 0 180 235
-0.280728 -0.426934 -0.306411 0 180 235
0.104407 -0.369379 0.166175 0 180 235
-0.252858 -0.455132 -0.277217 0 180 235
0.114859 -0.400715 0.0852912 0 180 235
0.101465 -0.329192 -0.172033 0 180 235
0.113424 -0.270539 0.200646 0 180 235
0.0917042 -0.386704 -0.168749 0 180 235
0.111342 -0.407966 0.195057 0 180 235
0.106955 -0.29554 0.419885 0 180 235
0.105075 -0.246151 0.175094 0 180 235
0.107064 -0.365245 0.0467758 0 180 235
0.036083 -0.481185 -0.0350209 0 180 235
0.100622 -0.480562 0.128808 0 180 235
-0.196969 -0.470953 -0.216321 0 180 235
0.109838 -0.293382 0.0224797 0 180 235
-0.318322 -0.402439 -0.238849 0 180 235
0.114852 -0.332043 0.0100856 0 180 235
0.104577 -0.363459 0.0112609 0 180 235
0.102464 -0.359874 0.242862 0 180 235
0.0998993 -0.450731 0.231866 0 180 235
0.107949 -0.245373 0.115026 0 180 235
0.0427963 -0.482051 -0.178847 0 180 235
0.032976 -0.492466 0.191744 0 180 235
0.100373 -0.405707 0.258348 0 180 235
0.109166 -0.305543 0.0113777 0 180 235
-0.24042 -0.469585 -0.179731 0 180 235
0.101231 -0.457077 -0.0329745 0 180 235
0.106893 -0.372991 0.101758 0 180 235
-0.315242 -0.456185 0.0701116 0 180 235
0.101806 -0.436085 -0.0576475 0 180 235
0.104288 -0.390448 0.0196129 0 180 235
-0.222645 -0.46073 -0.220425 0 180 235
-0.250376 -0.467778 -0.0249178 0 180 235
0.113558 -0.319019 0.193888 0 180 235
-0.151029 -0.48827 0.189776 0 180 235
0.101992 -0.319248 -0.070577 0 180 235
0.00517097 -0.480716 -0.0827108 0 180 235
0.114721 -0.186637 0.0864599 0 180 235
0.0964142 -0.19035 0.323916 0 180 235
-0.0655642 -0.48584 -0.00469071 0 180 235
0.102226 -0.112435 0.356811 0 180 235
0.102839 -0.504661 -0.256217 0 180 235
0.0989019 -0.45841 0.252375 0 180 235
0.111402 -0.291066 0.0142366 0 180 235
0.113981 -0.192892 0.0730887 0 180 235
0.101969 -0.108831 0.350026 0 180 235
0.00321693 -0.48174 -0.214585 0 180 235
0.101891 -0.154078 0.300056 0 180 235
0.0973248 -0.413846 -0.0291619 0 180 235
-0.260586 -0.467557 -0.184172 0 180 235
0.101615 -0.430663 -0.101791 0 180 235
-0.285737 -0.450287 -0.202986 0 180 235
-0.206873 -0.474728 -0.156391 0 180 235
0.0505082 -0.423216 0.126888 0 180 235
0.101769 -0.290555 0.213479 0 180 235
0.100062 -0.116517 0.393598 0 180 235
0.107846 -0.296479 0.0477973 0 180 235
0.115999 -0.207091 0.0557279 0 180 235
0.108145 -0.223563 0.108228 0 180 235
0.118574 -0.437129 0.329364 0 180 235
0.0936116 -0.452126 -0.12373 0 180 235
0.0982839 -0.117038 0.309841 0 180 235
0.101151 -0.38229 0.264489 0 180 235
0.109539 -0.165196 0.160009 0 180 235
0.108063 -0.347778 0.10945 0 180 235
0.100623 -0.337507 -0.192214 0 180 235
0.0955817 -0.342487 -0.0879192 0 180 235
0.102706 -0.3988 0.326133 0 180 235
0.112746 -0.276367 0.0203415 0 180 235
0.105914 -0.163822 0.155613 0 180 235
0.108607 -0.41014 0.0190471 0 180 235
0.0860854 -0.400246 -0.113962 0 180 235
0.103061 -0.483103 0.16372 0 180 235
0.10293 -0.174125 0.209261 0 180 235
0.079992 -0.412793 0.0144781 0 180 235
0.109481 -0.328138 0.0719947 0 180 235
0.115303 -0.265752 0.0223646 0 180 235
0.106892 -0.415595 0.0990392 0 180 235
0.108016 -0.210071 0.106114 0 180 235
-0.273917 -0.43379 -0.239458 0 180 235
0.0633202 -0.486057 0.0534311 0 180 235
0.100551 -0.403322 0.152215 0 180 235
0.105135 -0.362795 -0.020758 0 180 235
0.111984 -0.264587 0.211103 0 180 235
0.108119 -0.27032 0.0426528 0 180 235
0.109843 -0.472777 0.148951 0 180 235
-0.217921 -0.477139 0.0171741 0 180 235
-0.137022 -0.477684 -0.214613 0 180 235
-0.305179 -0.38425 -0.314996 0 180 235
-0.171617 -0.473823 -0.214094 0 180 235
0.101233 -0.476719 0.0954413 0 180 235
0.106687 -0.389218 0.0843958 0 180 235
0.0468771 -0.481894 -0.169086 0 180 235
0.101165 -0.227616 0.246818 0 180 235
0.103288 -0.332167 0.25745 0 180 235
0.110171 -0.427236 0.180187 0 180 235
0.106054 -0.393642 0.136741 0 180 235
0.100783 -0.124703 0.255093 0 180 235
0.0750929 -0.42038 -0.0168759 0 180 235
0.0968802 -0.248463 0.343981 0 180 235
0.107098 -0.448306 0.109987 0 180 235
0.0998775 -0.327142 0.0439478 0 180 235
0.056793 -0.485871 0.042284 0 180 235
0.104387 -0.478024 0.134097 0 180 235
0.106743 -0.401601 0.120299 0 180 235
-0.291573 -0.41034 -0.26384 0 180 235
0.0897856 -0.381333 -0.141776 0 180 235
0.102814 -0.160884 0.22969 0 180 235
0.100941 -0.18781 0.344653 0 180 235
0.11218 -0.416493 0.043825 0 180 235
0.0914939 -0.445023 -0.0862777 0 180 235
0.0967447 -0.292223 -0.124735 0 180 235
0.0979584 -0.458554 -0.0596978 0 180 235
0.106244 -0.435172 0.130605 0 180 235
0.094063 -0.447033 -0.063904 0 180 235
0.109225 -0.385075 -0.00999851 0 180 235
-0.281194 -0.427702 -0.351694 0 180 235
-0.275615 -0.434565 -0.314653 0 180 235
-0.0361268 -0.482745 -0.0834765 0 180 235
0.113006 -0.274248 0.0214175 0 180 235
0.0958106 -0.405507 0.202446 0 180 235
0.104773 -0.30468 0.318362 0 180 235
0.10145 -0.364885 -0.0511185 0 180 235
0.100755 -0.276558 -0.0562458 0 180 235
-0.20743 -0.468281 -0.227194 0 180 235
0.116125 -0.464771 0.21815 0 180 235
-0.178697 -0.483006 0.0427811 0 180 235
-0.0326395 -0.482886 -0.20526 0 180 235
0.10852 -0.238045 0.104793 0 180 235
0.0978708 -0.341604 0.115897 0 180 235
-0.22094 -0.462314 -0.212627 0 180 235
-0.302814 -0.452091 -0.122529 0 180 235
0.0999038 -0.280798 -0.0919569 0 180 235
0.104099 -0.142562 0.43668 0 180 235
-0.260317 -0.451111 -0.358932 0 180 235
0.109371 -0.285486 0.066994 0 180 235
0.10239 -0.361788 0.230279 0 180 235
-0.280894 -0.459119 -0.150743 0 180 235
0.105717 -0.365531 0.141927 0 180 235
0.078984 -0.471513 -0.0147165 0 180 235
0.10212 -0.232014 0.226573 0 180 235
-0.302126 -0.39744 -0.332618 0 180 235
0.113106 -0.328776 0.246813 0 180 235
0.10883 -0.32533 0.0592709 0 180 235
0.107217 -0.181924 0.112059 0 180 235
0.102126 -0.504613 -0.24642 0 180 235
0.107485 -0.348413 0.0459758 0 180 235
0.10475 -0.419526 0.164976 0 180 235
0.0455338 -0.480602 -0.040158 0 180 235
0.101921 -0.303509 -0.0311919 0 180 235
0.114452 -0.466304 0.20538 0 180 235
0.0552682 -0.481815 -0.166204 0 180 235
0.106455 -0.389552 0.11554 0 180 235
0.105219 -0.134697 0.199098 0 180 235
-0.321081 -0.448116 -0.0380112 0 180 235
0.102113 -0.291709 0.186606 0 180 235
0.10593 -0.28466 0.345299 0 180 235
0.103485 -0.28195 0.307583 0 180 235
0.0886457 -0.450373 -0.105627 0 180 235
0.101863 -0.462497 0.166162 0 180 235
-0.264444 -0.45309 -0.20908 0 180 235
0.0626632 -0.417067 0.110438 0 180 235
0.111801 -0.418994 0.154018 0 180 235
0.103397 -0.347903 0.188037 0 180 235
0.106338 -0.476725 0.0767701 0 180 235
0.10733 -0.291708 0.281038 0 180 235
0.104664 -0.389931 0.0411592 0 180 235
0.108271 -0.291928 0.0314764 0 180 235
-0.258298 -0.445676 -0.348633 0 180 235
0.100334 -0.124162 0.261648 0 180 235
0.103079 -0.279891 0.198968 0 180 235
0.103071 -0.302184 0.0457788 0 180 235
0.104127 -0.455651 0.0896842 0 180 235
0.106448 -0.468741 0.0498088 0 180 235
-0.169575 -0.477862 -0.111724 0 180 235
0.103071 -0.348834 0.272267 0 180 235
0.104643 -0.412103 0.0450665 0 180 235
0.100148 -0.333535 0.118339 0 180 235
0.0973124 -0.469391 0.25515 0 180 235
-0.0366199 -0.483833 -0.0447055 0 180 235
0.104403 -0.316839 0.124099 0 180 235
-0.108003 -0.48664 0.0112483 0 180 235
-0.174611 -0.47641 -0.10185 0 180 235
0.0601864 -0.481509 -0.15188 0 180 235
0.101801 -0.429335 0.37738 0 180 235
0.0855502 -0.410185 -0.124613 0 180 235
0.115522 -0.202539 0.0747394 0 180 235
-0.318802 -0.447409 -0.0690597 0 180 235
0.107312 -0.291664 0.281262 0 180 235
0.102114 -0.452062 0.156213 0 180 235
0.105832 -0.383225 0.139319 0 180 235
0.100809 -0.208191 0.24586 0 180 235
0.102973 -0.30779 0.234475 0 180 235
0.10973 -0.348705 0.0822888 0 180 235
-0.156804 -0.477105 -0.257169 0 180 235
0.0906224 -0.379602 -0.148333 0 180 235
0.103522 -0.400537 0.0259092 0 180 235
0.109662 -0.28998 0.0251238 0 180 235
0.101879 -0.29364 0.212201 0 180 235
-0.052115 -0.480936 -0.170422 0 180 235
0.10938 -0.349339 0.066116 0 180 235
-0.0806582 -0.492283 0.0670765 0 180 235
0.100633 -0.411836 0.280077 0 180 235
-0.198285 -0.473255 -0.31407 0 180 235
0.100253 -0.428966 0.299798 0 180 235
0.105999 -0.151796 0.173794 0 180 235
0.0500074 -0.481431 -0.224262 0 180 235
0.106553 -0.28441 0.371995 0 180 235
0.0968374 -0.456473 0.268732 0 180 235
0.120015 -0.43919 0.339158 0 180 235
0.107595 -0.314099 0.125631 0 180 235
0.110887 -0.259017 0.217435 0 180 235
0.105483 -0.361581 0.150476 0 180 235
0.101672 -0.288684 0.212977 0 180 235
0.115513 -0.299661 0.124599 0 180 235
-0.283733 -0.424216 -0.24911 0 180 235
-0.217698 -0.462916 -0.217464 0 180 235
-0.219828 -0.473776 -0.0296486 0 180 235
0.100041 -0.110426 0.337266 0 180 235
0.116926 -0.232568 0.0861227 0 180 235
0.107543 -0.270126 0.425857 0 180 235
0.102091 -0.3023 0.205185 0 180 235
0.102316 -0.244603 0.218271 0 180 235
0.103306 -0.325316 0.227851 0 180 235
0.10959 -0.197261 0.184768 0 180 235
-0.0945537 -0.480336 -0.203096 0 180 235
-0.321744 -0.418077 -0.224258 0 180 235
0.10209 -0.291682 0.0908965 0 180 235
0.110186 -0.188219 0.169189 0 180 235
0.106297 -0.442334 0.113204 0 180 235
0.105765 -0.156326 0.179887 0 180 235
-0.132226 -0.477993 -0.212376 0 180 235
0.0997538 -0.411493 -0.0116121 0 180 235
0.104446 -0.364959 -0.0208858 0 180 235
0.106323 -0.459854 0.0863808 0 180 235
0.0786884 -0.41473 0.0167685 0 180 235
0.105591 -0.317898 0.334968 0 180 235
-0.302322 -0.455228 -0.163638 0 180 235
0.0961868 -0.460491 -0.0753091 0 180 235
0.108654 -0.478073 0.192426 0 180 235
0.100285 -0.312403 -0.170229 0 180 235
0.113711 -0.4305 0.261842 0 180 235
-0.306104 -0.427893 -0.220867 0 180 235
0.0265126 -0.492361 0.121931 0 180 235
0.0484845 -0.486455 -0.285619 0 180 235
-0.0107202 -0.481087 -0.269913 0 180 235
0.109691 -0.305956 0.0777496 0 180 235
0.0984843 -0.252575 0.435191 32 212 224
0.0937376 -0.472783 0.140342 32 212 224
0.0969884 -0.147289 -0.123945 32 212 224
0.0934723 -0.370838 0.223852 32 212 224
0.0922856 -0.426356 -0.253218 32 212 224
0.0956995 -0.196862 -0.156135 32 212 224
0.0945924 -0.388648 0.28462 32 212 224
0.094986 -0.415564 0.253223 32 212 224
0.0943868 -0.318936 -0.183817 32 212 224
0.0913668 -0.389474 -0.145176 32 212 224
0.0932595 -0.232175 0.0714405 32 212 224
0.0961053 -0.425739 0.470543 32 212 224
0.0938463 -0.377273 0.0680493 32 212 224
0.0946185 -0.405914 0.23401 32 212 224
0.101456 -0.49042 0.310701 32 212 224
0.0918103 -0.455246 -0.221488 32 212 224
0.0948647 -0.24932 -0.272895 32 212 224
0.0946086 -0.405544 0.231811 32 212 224
0.0953949 -0.480611 -0.0298792 32 212 224
0.0949265 -0.270483 -0.235355 32 212 224
0.0963229 -0.17179 -0.282687 32 212 224
0.0946442 -0.469834 -0.310069 32 212 224
0.0930602 -0.284755 0.0430097 32 212 224
0.0953076 -0.222388 -0.267615 32 212 224
0.092083 -0.423246 0.138542 32 212 224
0.0982838 -0.431304 0.457254 32 212 224
0.0921511 -0.345953 -0.03547 32 212 224
0.0955107 -0.296112 0.340956 32 212 224
0.0944738 -0.390364 0.250053 32 212 224
0.0992623 -0.422348 0.372566 32 212 224
0.0935501 -0.373182 0.0863323 32 212 224
0.0912399 -0.455005 -0.109561 32 212 224
0.0920616 -0.341494 -0.228723 32 212 224
0.0949939 -0.29799 -0.140598 32 212 224
0.0949653 -0.487439 -0.0967282 32 212 224
0.0899103 -0.441305 0.0304914 32 212 224
0.0943378 -0.231876 0.349267 32 212 224
0.10105 -0.48091 0.318763 32 212 224
0.101957 -0.490537 0.322903 32 212 224
0.0929331 -0.279696 0.0899823 32 212 224
0.0906891 -0.407706 -0.134595 32 212 224
0.0967014 -0.155389 0.311232 32 212 224
0.0986911 -0.41191 0.366603 32 212 224
0.0946309 -0.181344 0.316519 32 212 224
0.0907225 -0.407667 -0.127416 32 212 224
0.0954455 -0.164959 0.295113 32 212 224
0.0951172 -0.254745 -0.200202 32 212 224
0.098292 -0.13307 0.216524 32 212 224
0.0906176 -0.452053 -0.0764168 32 212 224
0.0983786 -0.399906 0.378149 32 212 224
0.102728 -0.484499 0.387203 32 212 224
0.0984071 -0.429414 0.331308 32 212 224
0.0951621 -0.390099 0.45438 32 212 224
0.0956563 -0.160427 0.177605 32 212 224
0.0910499 -0.451556 0.0775362 32 212 224
0.100026 -0.177256 0.406762 32 212 224
0.0930113 -0.449045 -0.261748 32 212 224
0.0913747 -0.418761 0.021723 32 212 224
0.0917067 -0.383098 -0.298353 32 212 224
0.093578 -0.199785 0.0235955 32 212 224
0.0934854 -0.471237 0.128596 32 212 224
0.0986035 -0.418033 0.355652 32 212 224
0.0953713 -0.16464 0.219021 32 212 224
0.0928629 -0.215358 -0.0503364 32 212 224
0.099238 -0.19919 0.401201 32 212 224
0.097444 -0.12985 0.0442837 32 212 224
0.0909188 -0.356834 -0.263154 32 212 224
0.0936658 -0.232903 0.339228 32 212 224
0.0986241 -0.206534 0.427555 32 212 224
0.0909212 -0.422802 -0.214212 32 212 224
0.0948638 -0.16372 -0.0653309 32 212 224
0.0926326 -0.369125 -0.0348189 32 212 224
0.0997305 -0.480607 0.39019 32 212 224
0.100209 -0.206889 0.414034 32 212 224
0.100278 -0.42393 0.401714 32 212 224
0.090743 -0.406685 -0.210059 32 212 224
0.0931179 -0.208325 -0.0739704 32 212 224
0.092372 -0.33385 -0.321906 32 212 224
0.0978043 -0.248142 0.440875 32 212 224
0.0936648 -0.403568 0.124613 32 212 224
0.0930674 -0.291339 0.0320632 32 212 224
0.0926996 -0.465678 -0.0363772 32 212 224
0.0934368 -0.190574 0.0933802 32 212 224
0.0964341 -0.418302 0.288638 32 212 224
0.0938808 -0.483205 -0.121233 32 212 224
0.0941108 -0.176198 -0.0145847 32 212 224
0.0931366 -0.39105 0.465897 32 212 224
0.093423 -0.227446 0.0603336 32 212 224
0.0945123 -0.273038 -0.13821 32 212 224
0.0925749 -0.247485 -0.0437554 32 212 224
0.099723 -0.21426 0.413151 32 212 224
0.0926278 -0.234865 0.100179 32 212 224
0.093729 -0.368753 0.249182 32 212 224
0.0941285 -0.270318 0.313642 32 212 224
0.0955492 -0.180573 0.33375 32 212 224
0.0967044 -0.381058 0.373448 32 212 224
0.0921426 -0.224551 0.122736 32 212 224
0.0953766 -0.327351 0.339899 32 212 224
0.094309 -0.430975 -0.32589 32 212 224
0.0945485 -0.328375 0.311024 32 212 224
0.0925031 -0.246209 -0.0678661 32 212 224
0.0924073 -0.319642 -0.0439081 32 212 224
0.0905852 -0.451781 -0.0476301 32 212 224
0.0943287 -0.264123 -0.133025 32 212 224
0.0914104 -0.365009 -0.192259 32 212 224
0.0921008 -0.241228 0.124331 32 212 224
0.0951545 -0.351219 0.407554 32 212 224
0.0919265 -0.377834 -0.119986 32 212 224
0.0933458 -0.22645 0.024405 32 212 224
0.0907647 -0.435776 -0.199379 32 212 224
0.0929524 -0.295864 0.025186 32 212 224
0.0949519 -0.352972 0.436267 32 212 224
0.0979571 -0.409629 0.451188 32 212 224
0.098163 -0.261455 0.430551 32 212 224
0.10254 -0.46961 0.402145 32 212 224
0.0948773 -0.27445 -0.258626 32 212 224
0.0928864 -0.286111 0.0914153 32 212 224
0.0962858 -0.203581 0.364639 32 212 224
0.0930067 -0.285351 0.242092 32 212 224
0.0914192 -0.458965 -0.190339 32 212 224
0.0998918 -0.165292 0.398176 32 212 224
0.0927132 -0.476639 0.109477 32 212 224
0.0926415 -0.263006 0.228315 32 212 224
0.0927243 -0.254655 0.230958 32 212 224
0.0996462 -0.464214 0.302169 32 212 224
0.0942118 -0.297551 -0.255576 32 212 224
0.0934707 -0.204412 0.200053 32 212 224
0.0962489 -0.154768 0.212092 32 212 224
0.0937213 -0.384254 0.108521 32 212 224
0.0945988 -0.255784 -0.282883 32 212 224
0.0927382 -0.317236 -0.306586 32 212 224
0.0953437 -0.29498 0.387531 32 212 224
0.0983733 -0.462705 0.473739 32 212 224
0.098786 -0.232475 0.432245 32 212 224
0.0982031 -0.153268 0.345375 32 212 224
0.0921904 -0.320013 -0.00906913 32 212 224
0.100747 -0.478309 0.314805 32 212 224
0.0940584 -0.34653 0.298507 32 212 224
0.0986479 -0.43979 0.313256 32 212 224
0.0937929 -0.193916 0.217298 32 212 224
0.094995 -0.480929 -0.296783 32 212 224
0.0937111 -0.396075 0.159694 32 212 224
0.0922272 -0.285083 0.194007 32 212 224
0.0973753 -0.140985 0.252652 32 212 224
0.0925911 -0.319486 -0.0635488 32 212 224
0.0971507 -0.147623 0.291847 32 212 224
0.0920632 -0.344171 0.192174 32 212 224
0.0927478 -0.319117 -0.26312 32 212 224
0.0986623 -0.489217 0.246527 32 212 224
0.0970359 -0.134215 0.0287935 32 212 224
0.0938273 -0.186633 0.00382103 32 212 224
0.101399 -0.454822 0.435176 32 212 224
0.0917921 -0.378522 -0.130554 32 212 224
0.0935007 -0.244706 -0.0975737 32 212 224
0.0965326 -0.182514 -0.210018 32 212 224
0.101085 -0.438315 0.414152 32 212 224
0.0931104 -0.360791 0.0484786 32 212 224
0.0963189 -0.13382 -0.0715249 32 212 224
0.0935181 -0.450967 -0.274893 32 212 224
0.0942222 -0.181001 0.172203 32 212 224
0.0976924 -0.228049 0.397127 32 212 224
0.0955238 -0.293189 -0.212018 32 212 224
0.0935817 -0.282164 0.277055 32 212 224
0.0916735 -0.46261 -0.193602 32 212 224
0.0933911 -0.37602 0.0236584 32 212 224
0.0925402 -0.208057 0.122098 32 212 224
0.0913069 -0.453224 -0.200753 32 212 224
0.0964685 -0.436122 0.471363 32 212 224
0.0955061 -0.383669 0.446599 32 212 224
0.096019 -0.193522 -0.170702 32 212 224
0.0942721 -0.314056 -0.121118 32 212 224
0.0997187 -0.196042 0.420602 32 212 224
0.0936691 -0.211314 -0.0985888 32 212 224
0.101547 -0.477871 0.451104 32 212 224
0.0931824 -0.211505 -0.0147705 32 212 224
0.0923353 -0.359948 -0.13275 32 212 224
0.0980698 -0.461194 0.475216 32 212 224
0.0910278 -0.437887 0.172223 32 212 224
0.0909197 -0.363336 -0.296237 32 212 224
0.0936487 -0.220498 -0.101925 32 212 224
0.0946662 -0.204795 -0.122842 32 212 224
0.093985 -0.294668 -0.268408 32 212 224
0.100895 -0.435141 0.41943 32 212 224
0.093005 -0.36812 0.0173391 32 212 224
0.0937732 -0.192824 0.041398 32 212 224
0.0934495 -0.226964 0.0588971 32 212 224
0.0931383 -0.285878 0.25524 32 212 224
0.0923186 -0.40294 -0.28052 32 212 224
0.0920053 -0.354923 -0.326599 32 212 224
0.0959818 -0.142633 -0.0682996 32 212 224
0.0919828 -0.267219 0.136293 32 212 224
0.0935428 -0.392759 0.0437574 32 212 224
0.0917203 -0.352847 -0.314266 32 212 224
0.0966729 -0.159907 -0.28238 32 212 224
0.0945278 -0.390034 0.266732 32 212 224
0.094498 -0.228546 0.349718 32 212 224
0.0926684 -0.337316 -0.0878777 32 212 224
0.0947948 -0.351977 0.319265 32 212 224
0.0954975 -0.334348 0.430669 32 212 224
0.0925578 -0.331079 -0.23681 32 212 224
0.099074 -0.475743 0.479647 32 212 224
0.0990316 -0.469612 0.278535 32 212 224
0.0974203 -0.158327 -0.180732 32 212 224
0.0937885 -0.408632 0.177464 32 212 224
0.0911027 -0.364596 -0.303254 32 212 224
0.0960155 -0.270028 0.394702 32 212 224
0.093531 -0.256001 0.0474325 32 212 224
0.0900596 -0.417178 -0.0953653 32 212 224
0.0920384 -0.253515 0.185559 32 212 224
0.0931614 -0.355396 0.229636 32 212 224
0.0931252 -0.407536 -0.308685 32 212 224
0.0930437 -0.293513 0.00397179 32 212 224
0.0977598 -0.230063 0.437325 32 212 224
0.0951689 -0.249547 -0.22193 32 212 224
0.0943696 -0.395196 0.463232 32 212 224
0.0936925 -0.237214 -0.105107 32 212 224
0.097783 -0.41735 0.32871 32 212 224
0.0913628 -0.403037 -0.0554999 32 212 224
0.0956051 -0.372094 0.325346 32 212 224
0.0973732 -0.152607 -0.164167 32 212 224
0.0949607 -0.350228 0.433242 32 212 224
0.0978117 -0.39687 0.439399 32 212 224
0.0956552 -0.393622 0.32193 32 212 224
0.0958344 -0.195236 -0.256257 32 212 224
0.092454 -0.437184 -0.253195 32 212 224
0.0916748 -0.440665 0.183101 32 212 224
0.102447 -0.467929 0.399843 32 212 224
0.0968311 -0.272767 0.45246 32 212 224
0.092802 -0.25634 -0.0236641 32 212 224
0.0909658 -0.45162 -0.113535 32 212 224
0.0963449 -0.152415 0.240697 32 212 224
0.101119 -0.48764 0.464329 32 212 224
0.0942289 -0.282036 -0.115434 32 212 224
0.100741 -0.487217 0.471164 32 212 224
0.100117 -0.458233 0.456865 32 212 224
0.0987354 -0.184563 0.419964 32 212 224
0.0942838 -0.48248 -0.265227 32 212 224
0.0949638 -0.246822 -0.267757 32 212 224
0.092936 -0.455497 -0.25871 32 212 224
0.0957509 -0.266461 0.388775 32 212 224
0.0942591 -0.378345 0.284579 32 212 224
0.0963286 -0.170083 -0.284893 32 212 224
0.0954063 -0.292678 -0.190495 32 212 224
0.0956577 -0.145846 -0.0351625 32 212 224
0.0934487 -0.219562 0.0397613 32 212 224
0.0909941 -0.353329 -0.272673 32 212 224
0.0952651 -0.163366 0.0596765 32 212 224
0.101984 -0.452187 0.392583 32 212 224
0.0931905 -0.287479 -0.0251976 32 212 224
0.0963572 -0.484074 0.045284 32 212 224
0.0959635 -0.158015 0.285568 32 212 224
0.0958045 -0.148489 0.135254 32 212 224
0.096646 -0.423385 0.289876 32 212 224
0.0961936 -0.199634 0.432961 32 212 224
0.0918634 -0.445416 -0.231145 32 212 224
0.0929907 -0.34071 -0.181918 32 212 224
0.0917102 -0.350393 -0.214379 32 212 224
0.09351 -0.266126 0.289112 32 212 224
0.0932769 -0.223893 0.0671856 32 212 224
0.100443 -0.422805 0.428077 32 212 224
0.0930526 -0.225635 0.225716 32 212 224
0.0930034 -0.412934 0.127692 32 212 224
0.101107 -0.459474 0.444788 32 212 224
0.0921241 -0.350594 -0.0616009 32 212 224
0.0995851 -0.177435 0.413428 32 212 224
0.0936745 -0.416341 0.19314 32 212 224
0.0979754 -0.20013 0.386898 32 212 224
0.0947018 -0.175543 0.204492 32 212 224
0.0934726 -0.217441 0.0428538 32 212 224
0.0966657 -0.142246 0.146575 32 212 224
0.0942645 -0.473316 0.254644 32 212 224
0.0927167 -0.294729 0.0849767 32 212 224
0.0933924 -0.310989 -0.0778296 32 212 224
0.0912905 -0.381406 -0.267827 32 212 224
0.0960766 -0.149845 0.0482023 32 212 224
0.100003 -0.460329 0.317473 32 212 224
0.0902457 -0.444671 0.0477483 32 212 224
0.0941777 -0.384039 0.240125 32 212 224
0.0947958 -0.28167 0.323462 32 212 224
0.0961028 -0.183112 -0.274051 32 212 224
0.0946443 -0.167218 -0.00422014 32 212 224
0.0923812 -0.211012 0.14664 32 212 224
0.0977898 -0.464768 0.258938 32 212 224
0.0969899 -0.170626 -0.179005 32 212 224
0.0991785 -0.217491 0.408669 32 212 224
0.0961831 -0.216184 0.43869 32 212 224
0.0932834 -0.453994 0.19347 32 212 224
0.0925142 -0.460201 -0.2471 32 212 224
0.097181 -0.405077 0.338774 32 212 224
0.09283 -0.260226 0.250434 32 212 224
0.0986391 -0.464448 0.274841 32 212 224
0.0972758 -0.164734 -0.20168 32 212 224
0.0936706 -0.185098 -0.0288863 32 212 224
0.0922612 -0.332894 -0.304798 32 212 224
0.0972531 -0.388298 0.367138 32 212 224
0.0934057 -0.236972 -0.0977069 32 212 224
0.096397 -0.30688 0.438884 32 212 224
0.0950542 -0.156854 0.136828 32 212 224
0.0948804 -0.232002 -0.143372 32 212 224
0.0913905 -0.351331 -0.237512 32 212 224
0.0971981 -0.129273 0.0723566 32 212 224
0.0987927 -0.401516 0.399118 32 212 224
0.0983058 -0.438774 0.45988 32 212 224
0.0897085 -0.434482 -0.134752 32 212 224
0.0968259 -0.13323 0.129267 32 212 224
0.0925908 -0.358095 -0.119835 32 212 224
0.0914562 -0.458256 -0.17955 32 212 224
0.0934834 -0.278059 0.277156 32 212 224
0.0940384 -0.443778 0.223091 32 212 224
0.0921239 -0.337019 -0.30386 32 212 224
0.0932074 -0.40438 -0.324071 32 212 224
0.0969903 -0.131619 0.0809486 32 212 224
0.0913304 -0.366924 -0.309808 32 212 224
0.0944941 -0.393567 0.245867 32 212 224
0.0967307 -0.454266 0.480776 32 212 224
0.0967279 -0.163577 -0.275111 32 212 224
0.0991657 -0.424818 0.366005 32 212 224
0.0904491 -0.442484 0.139742 32 212 224
0.0947363 -0.450422 -0.325326 32 212 224
0.102862 -0.485459 0.389636 32 212 224
0.0983907 -0.250136 0.437946 32 212 224
0.0951444 -0.238851 -0.255606 32 212 224
0.0934682 -0.423122 -0.29749 32 212 224
0.0951681 -0.286483 0.33477 32 212 224
0.0945157 -0.45723 -0.312926 32 212 224
0.093174 -0.258925 0.00367682 32 212 224
0.0946799 -0.487333 -0.10775 32 212 224
0.093005 -0.330726 0.225431 32 212 224
0.0935095 -0.251567 0.310486 32 212 224
0.0950107 -0.481598 0.153142 32 212 224
0.0915769 -0.376788 -0.307307 32 212 224
0.0923561 -0.330335 -0.305973 32 212 224
0.0959358 -0.210711 -0.197448 32 212 224
0.0958193 -0.213168 -0.219559 32 212 224
0.0943959 -0.281278 -0.124497 32 212 224
0.0968021 -0.40788 0.317857 32 212 224
0.0951049 -0.328976 0.385615 32 212 224
0.0936764 -0.265802 0.299311 32 212 224
0.0900066 -0.458 0.255418 32 212 224
0.0900365 -0.432581 -0.175296 32 212 224
0.0924528 -0.415985 0.0681048 32 212 224
0.0945206 -0.268328 0.365595 32 212 224
0.0953054 -0.164809 0.246881 32 212 224
0.0933038 -0.229275 0.322498 32 212 224
0.0914672 -0.45477 -0.130778 32 212 224
0.0936844 -0.196403 0.231649 32 212 224
0.0931195 -0.450775 -0.264334 32 212 224
0.0943957 -0.318154 -0.140947 32 212 224
0.0962131 -0.409699 0.296592 32 212 224
0.0958613 -0.208958 -0.211689 32 212 224
0.0925352 -0.370423 0.173422 32 212 224
0.0976045 -0.46938 0.248887 32 212 224
0.0953939 -0.291183 -0.19147 32 212 224
0.0942661 -0.186966 0.314342 32 212 224
0.102634 -0.490978 0.353149 32 212 224
0.0928831 -0.347154 -0.149873 32 212 224
0.0991448 -0.198225 0.399753 32 212 224
0.0961774 -0.16677 0.327 32 212 224
0.0956483 -0.487086 -0.0707519 32 212 224
0.0981512 -0.395149 0.396999 32 212 224
0.0933584 -0.223322 0.0624652 32 212 224
0.0935098 -0.281966 -0.0788926 32 212 224
0.0952548 -0.187307 -0.12449 32 212 224
0.0985058 -0.398559 0.401887 32 212 224
0.0947807 -0.346163 0.449681 32 212 224
0.0926383 -0.296756 0.0841285 32 212 224
0.102647 -0.468157 0.419329 32 212 224
0.0984484 -0.25809 0.433208 32 212 224
0.0946591 -0.265702 -0.153462 32 212 224
0.0957189 -0.160546 0.229895 32 212 224
0.0955908 -0.368565 0.435201 32 212 224
0.0945423 -0.482671 -0.331052 32 212 224
0.0995209 -0.47196 0.422006 32 212 224
0.0931853 -0.404512 0.0532486 32 212 224
0.0950851 -0.43058 0.246579 32 212 224
0.0951724 -0.313775 0.400627 32 212 224
0.0952408 -0.372539 0.315024 32 212 224
0.0934795 -0.41897 0.194817 32 212 224
0.0905931 -0.406671 -0.203937 32 212 224
0.0914128 -0.385302 -0.162849 32 212 224
0.0947457 -0.159661 0.120967 32 212 224
0.09356 -0.192419 -0.0116079 32 212 224
0.0963289 -0.306028 0.446242 32 212 224
0.0940054 -0.455049 0.344646 32 212 224
0.093572 -0.337392 -0.120329 32 212 224
0.0916607 -0.391183 -0.270487 32 212 224
0.0960906 -0.18741 -0.259372 32 212 224
0.0947078 -0.284243 -0.135129 32 212 224
0.0972956 -0.141961 0.255552 32 212 224
0.094779 -0.475917 0.174499 32 212 224
0.09522 -0.280347 -0.1916 32 212 224
0.0937864 -0.385063 0.0462351 32 212 224
0.093579 -0.487276 -0.329878 32 212 224
0.0938511 -0.192486 0.306498 32 212 224
0.0932039 -0.31742 -0.0802419 32 212 224
0.0904667 -0.446514 0.120872 32 212 224
0.0965792 -0.159116 -0.124798 32 212 224
0.0930871 -0.24465 0.252179 32 212 224
0.0936114 -0.404395 0.125965 32 212 224
0.0960413 -0.157099 0.204043 32 212 224
0.0927018 -0.399011 -0.309293 32 212 224
0.0913353 -0.428633 -0.224895 32 212 224
0.0947327 -0.459127 -0.326604 32 212 224
0.0943389 -0.482643 -0.266784 32 212 224
0.0970812 -0.131462 0.0184171 32 212 224
0.0911334 -0.325421 0.148866 32 212 224
0.0941118 -0.177358 0.154199 32 212 224
0.0955348 -0.220933 -0.247168 32 212 224
0.0902031 -0.444623 0.0742625 32 212 224
0.0942832 -0.254677 -0.131613 32 212 224
0.0955256 -0.3709 0.324525 32 212 224
0.0929084 -0.21521 -0.0448565 32 212 224
0.094279 -0.321172 -0.179059 32 212 224
0.0961337 -0.421913 0.273678 32 212 224
0.0947974 -0.453277 -0.328754 32 212 224
0.0965941 -0.19397 0.429902 32 212 224
0.0958455 -0.18759 -0.146628 32 212 224
0.0939372 -0.32818 -0.165704 32 212 224
0.0930474 -0.246517 0.250498 32 212 224
0.0914563 -0.404596 -0.239039 32 212 224
0.0957082 -0.368606 0.335306 32 212 224
0.0931559 -0.380981 0.471712 32 212 224
0.102321 -0.488881 0.441844 32 212 224
0.0920638 -0.305521 0.192053 32 212 224
0.0924434 -0.237566 0.108138 32 212 224
0.0917256 -0.425644 0.0938501 32 212 224
0.0947874 -0.449363 -0.331241 32 212 224
0.0974629 -0.153718 -0.176353 32 212 224
0.0943272 -0.30006 0.293892 32 212 224
0.0927908 -0.2585 -0.0286181 32 212 224
0.0934412 -0.188615 0.153256 32 212 224
0.0919551 -0.274146 0.142816 32 212 224
0.0935262 -0.239341 0.0613393 32 212 224
0.0948467 -0.479782 -0.292873 32 212 224
0.0945892 -0.269948 0.34341 32 212 224
0.0971272 -0.410434 0.457451 32 212 224
0.0932697 -0.331859 -0.101412 32 212 224
0.0937277 -0.277324 -0.2979 32 212 224
0.0932546 -0.237734 0.0110528 32 212 224
0.090848 -0.37053 -0.207145 32 212 224
0.0909924 -0.362424 -0.208867 32 212 224
0.091758 -0.339375 -0.279874 32 212 224
0.0935918 -0.204008 0.262786 32 212 224
0.0910686 -0.412211 -0.0264868 32 212 224
0.096091 -0.143759 0.126079 32 212 224
0.10145 -0.461371 0.375436 32 212 224
0.0994494 -0.410931 0.390522 32 212 224
0.0938556 -0.332663 -0.126443 32 212 224
0.0949466 -0.165758 -0.0773057 32 212 224
0.0917798 -0.239463 0.147289 32 212 224
0.0911869 -0.453053 -0.163246 32 212 224
0.0924967 -0.357781 0.115037 32 212 224
0.0922074 -0.382897 -0.322208 32 212 224
0.0897367 -0.437694 -0.125123 32 212 224
0.0966592 -0.285785 0.417133 32 212 224
0.096726 -0.180165 -0.196534 32 212 224
0.094143 -0.269382 -0.28048 32 212 224
0.0918909 -0.241855 0.134719 32 212 224
0.0996503 -0.484844 0.273322 32 212 224
0.0956001 -0.193508 -0.306493 32 212 224
0.0981655 -0.140729 0.303043 32 212 224
0.0950396 -0.270216 -0.193938 32 212 224
0.0974838 -0.420298 0.317674 32 212 224
0.0954865 -0.295148 0.340171 32 212 224
0.0959803 -0.371684 0.346737 32 212 224
0.0931823 -0.326322 0.2409 32 212 224
0.0945311 -0.296683 0.298709 32 212 224
0.0943409 -0.362589 0.294125 32 212 224
0.0968518 -0.151122 0.296851 32 212 224
0.0953617 -0.164146 0.251677 32 212 224
0.0931276 -0.234897 -0.00660132 32 212 224
0.0906899 -0.409732 -0.097304 32 212 224
0.0951456 -0.293417 -0.233034 32 212 224
0.0961725 -0.153919 0.246605 32 212 224
0.0932045 -0.344232 -0.136712 32 212 224
0.0951956 -0.377334 0.312663 32 212 224
0.0930936 -0.38086 0.170865 32 212 224
0.0919109 -0.4411 -0.237719 32 212 224
0.0932495 -0.26176 0.0166839 32 212 224
0.0919474 -0.410868 -0.254496 32 212 224
0.089586 -0.432713 -0.131646 32 212 224
0.100253 -0.423818 0.400958 32 212 224
0.0897012 -0.429171 -0.160367 32 212 224
0.0934662 -0.233557 0.0609596 32 212 224
0.0949202 -0.170273 0.256884 32 212 224
0.0934679 -0.384837 0.0326246 32 212 224
0.0931237 -0.45003 -0.264666 32 212 224
0.0984136 -0.167704 0.372917 32 212 224
0.0967852 -0.147641 0.236761 32 212 224
0.095346 -0.215132 -0.267496 32 212 224
0.0931481 -0.243693 0.259356 32 212 224
0.100572 -0.449681 0.349897 32 212 224
0.0927659 -0.425762 0.19394 32 212 224
0.0987834 -0.482945 0.257697 32 212 224
0.0925391 -0.230507 0.185198 32 212 224
0.0955644 -0.385693 0.322861 32 212 224
0.0985892 -0.475603 0.263798 32 212 224
0.0917415 -0.38806 -0.116932 32 212 224
0.0932349 -0.255286 0.00776387 32 212 224
0.0951573 -0.24498 -0.185537 32 212 224
0.096728 -0.160325 -0.279817 32 212 224
0.0933912 -0.467271 0.0175956 32 212 224
0.0908159 -0.453188 -0.0698949 32 212 224
0.10145 -0.476684 0.348009 32 212 224
0.0984324 -0.20707 0.395694 32 212 224
0.0960676 -0.149217 0.040744 32 212 224
0.0952106 -0.351962 0.416494 32 212 224
0.10013 -0.433183 0.380517 32 212 224
0.0971593 -0.408196 0.455985 32 212 224
0.0948408 -0.270915 -0.262731 32 212 224
0.0993848 -0.439507 0.332812 32 212 224
0.0933331 -0.41022 -0.315259 32 212 224
0.0796241 -0.488514 -0.129132 64 236 211
0.0797482 -0.488935 0.073847 64 236 211
-0.0861275 -0.489576 -0.364576 64 236 211
-0.172453 -0.489192 -0.172383 64 236 211
0.0892 -0.428035 0.238231 64 236 211
0.073362 -0.489142 -0.317484 64 236 211
0.088988 -0.271563 -0.126527 64 236 211
-0.0339925 -0.488839 -0.0798272 64 236 211
-0.264948 -0.489397 -0.21124 64 236 211
0.0229916 -0.488788 -0.176997 64 236 211
-0.0682706 -0.489073 -0.302656 64 236 211
-0.0186497 -0.488904 -0.284365 64 236 211
-0.00923718 -0.489151 -0.335723 64 236 211
-0.0059716 -0.488887 -0.0671849 64 236 211
0.09093 -0.431148 -0.35258 64 236 211
-0.165744 -0.489308 -0.20425 64 236 211
0.00621065 -0.488876 -0.270727 64 236 211
-0.00562277 -0.489615 0.265824 64 236 211
0.0431563 -0.489352 -0.360649 64 236 211
-0.0762276 -0.489812 0.11368 64 236 211
0.0884291 -0.461928 0.0217187 64 236 211
-0.0323036 -0.488856 -0.0740303 64 236 211
-0.0513649 -0.489276 -0.36491 64 236 211
-0.0239736 -0.489621 0.259219 64 236 211
-0.00922781 -0.488905 -0.0597969 64 236 211
-0.088197 -0.48932 0.00437361 64 236 211
-0.234341 -0.489781 -0.298775 64 236 211
0.00442029 -0.489081 -0.310457 64 236 211
0.088685 -0.400259 -0.238675 64 236 211
-0.0196319 -0.489117 0.00620773 64 236 211
-0.00595619 -0.489666 0.229544 64 236 211
0.0150911 -0.488941 -0.00626504 64 236 211
0.0845292 -0.372854 0.114166 64 236 211
-0.10287 -0.489124 -0.262545 64 236 211
-0.0883805 -0.489441 -0.328997 64 236 211
0.090219 -0.401761 -0.0344005 64 236 211
-0.035264 -0.48894 -0.0225308 64 236 211
-0.00522015 -0.48968 0.184159 64 236 211
-0.0292622 -0.489586 0.287912 64 236 211
0.0532851 -0.48864 -0.148546 64 236 211
-0.00155266 -0.489317 -0.365788 64 236 211
0.0901821 -0.403674 0.0122416 64 236 211
0.0874464 -0.363327 -0.210832 64 236 211
0.0857125 -0.301769 0.140277 64 236 211
-0.272935 -0.489425 -0.206936 64 236 211
0.0234432 -0.489418 -0.382345 64 236 211
0.088814 -0.431319 0.306884 64 236 211
0.0938958 -0.489551 -0.373983 64 236 211
0.0866975 -0.399448 0.0686368 64 236 211
0.0885457 -0.475524 -0.0392991 64 236 211
0.0683314 -0.488886 -0.267189 64 236 211
0.0770479 -0.488762 -0.224005 64 236 211
0.0115721 -0.488889 -0.0521173 64 236 211
0.0869971 -0.294293 -0.298293 64 236 211
0.0879453 -0.384223 0.0325226 64 236 211
-0.024172 -0.489035 -0.00396457 64 236 211
-0.145213 -0.489855 -0.309868 64 236 211
-0.0771832 -0.488844 -0.26105 64 236 211
-0.177577 -0.489291 -0.190811 64 236 211
-0.0703696 -0.489162 -0.310285 64 236 211
-0.288425 -0.488974 -0.113675 64 236 211
-0.0701214 -0.488654 -0.186766 64 236 211
0.0910592 -0.439666 0.021106 64 236 211
0.001585 -0.488762 -0.15518 64 236 211
-0.138103 -0.489721 0.218517 64 236 211
-0.0496271 -0.4888 -0.281696 64 236 211
0.085344 -0.365419 0.0704827 64 236 211
0.0539486 -0.488683 -0.178995 64 236 211
0.0845621 -0.362599 0.358825 64 236 211
0.0899578 -0.47214 0.33437 64 236 211
-0.113017 -0.489639 0.0542412 64 236 211
-0.188777 -0.489885 -0.30054 64 236 211
0.077549 -0.489365 0.207688 64 236 211
-0.0865712 -0.488744 -0.181045 64 236 211
0.0911097 -0.462951 -0.218572 64 236 211
-0.0567959 -0.488607 -0.230202 64 236 211
0.0915659 -0.427238 -0.0166248 64 236 211
0.0162166 -0.489021 -0.305734 64 236 211
-0.241604 -0.489217 -0.171677 64 236 211
0.0897911 -0.467358 -0.064365 64 236 211
0.0913478 -0.45217 -0.0494216 64 236 211
-0.0291494 -0.489345 0.041533 64 236 211
-0.282696 -0.489158 -0.151526 64 236 211
-0.0846102 -0.489479 -0.3412 64 236 211
-0.147437 -0.489747 0.213639 64 236 211
-0.160012 -0.489561 -0.257246 64 236 211
0.0814614 -0.488547 -0.0855038 64 236 211
-0.0275147 -0.48887 -0.0715445 64 236 211
-0.292797 -0.489035 -0.0409021 64 236 211
0.0883173 -0.269519 -0.187692 64 236 211
-0.0608619 -0.489018 -0.0354928 64 236 211
-0.0991258 -0.489537 -0.324926 64 236 211
-0.170659 -0.489349 -0.208547 64 236 211
0.0862687 -0.383988 0.304686 64 236 211
-0.261273 -0.489612 -0.27738 64 236 211
-0.0285301 -0.489251 -0.378544 64 236 211
-0.0946428 -0.489356 0.00614732 64 236 211
-0.149962 -0.490008 -0.3535 64 236 211
-0.0720183 -0.489812 0.132784 64 236 211
0.088026 -0.281706 -0.186578 64 236 211
-0.0113694 -0.489082 -0.321571 64 236 211
-0.171574 -0.489326 -0.0761859 64 236 211
-0.202575 -0.48927 -0.0563697 64 236 211
0.0875744 -0.280573 -0.25484 64 236 211
-0.0991539 -0.489408 -0.380489 64 236 211
-0.176545 -0.489256 -0.183638 64 236 211
-0.13826 -0.489452 -0.258518 64 236 211
0.0602189 -0.488648 -0.117893 64 236 211
0.0461836 -0.48879 -0.25172 64 236 211
-0.169781 -0.489386 -0.0334849 64 236 211
-0.0690136 -0.489456 -0.373289 64 236 211
-0.0212199 -0.489141 -0.342171 64 236 211
-0.26949 -0.489429 0.136096 64 236 211
0.0887794 -0.402512 -0.331119 64 236 211
-0.197618 -0.489264 -0.084235 64 236 211
-0.0413446 -0.48862 -0.167606 64 236 211
-0.0444854 -0.489274 -0.372848 64 236 211
0.0354089 -0.489654 0.251274 64 236 211
-0.0625453 -0.489765 0.161376 64 236 211
0.085917 -0.329755 -0.289438 64 236 211
0.0861286 -0.337629 0.25631 64 236 211
0.0890047 -0.412075 -0.304282 64 236 211
0.0892994 -0.408896 -0.216788 64 236 211
-0.00811624 -0.489207 0.0272331 64 236 211
0.0903545 -0.439431 0.0331682 64 236 211
-0.0638979 -0.489126 -0.314573 64 236 211
-0.258263 -0.489195 0.0208865 64 236 211
-0.0222037 -0.489697 0.184795 64 236 211
-0.110092 -0.489503 0.0231579 64 236 211
-0.0316127 -0.489368 0.0446417 64 236 211
-0.204324 -0.489544 0.193342 64 236 211
-0.171066 -0.489581 -0.255151 64 236 211
-0.159188 -0.489306 -0.0777399 64 236 211
-0.149507 -0.489479 -0.252686 64 236 211
-0.0917151 -0.488784 -0.171647 64 236 211
-0.127175 -0.489885 -0.348304 64 236 211
0.0162037 -0.48884 -0.118167 64 236 211
0.0884426 -0.328989 -0.062312 64 236 211
-0.087006 -0.489171 -0.0280357 64 236 211
0.0188135 -0.489003 -0.299803 64 236 211
0.0523812 -0.488692 -0.18344 64 236 211
-0.0436371 -0.489199 0.0143776 64 236 211
-0.156329 -0.48994 -0.354022 64 236 211
-0.0419997 -0.488616 -0.168438 64 236 211
-0.0175918 -0.489669 0.0977544 64 236 211
0.0867078 -0.449182 0.187145 64 236 211
0.0844343 -0.460053 0.137405 64 236 211
-0.0485767 -0.489727 0.108632 64 236 211
-0.00825508 -0.489112 -0.325923 64 236 211
-0.215009 -0.489569 0.152081 64 236 211
-0.255664 -0.489461 0.112342 64 236 211
0.0840262 -0.347884 0.3194 64 236 211
-0.0499591 -0.489143 -0.344032 64 236 211
-0.0297238 -0.489691 0.150633 64 236 211
-0.224788 -0.489171 -0.0281383 64 236 211
-0.0302067 -0.489689 0.155982 64 236 211
0.0890947 -0.429795 0.292214 64 236 211
0.0261454 -0.489381 -0.371975 64 236 211
-0.159378 -0.489317 -0.218076 64 236 211
0.092274 -0.481505 -0.319338 64 236 211
0.039798 -0.488786 -0.249956 64 236 211
-0.0307402 -0.489667 0.0940213 64 236 211
-0.00229306 -0.489606 0.275863 64 236 211
-0.263413 -0.489034 -0.131751 64 236 211
0.0909028 -0.43756 -0.329272 64 236 211
0.0457733 -0.488991 0.0243447 64 236 211
-0.0621299 -0.489766 0.158475 64 236 211
0.0873592 -0.349371 0.0316199 64 236 211
-0.199585 -0.48915 -0.12992 64 236 211
0.0877949 -0.391232 0.226242 64 236 211
-0.144559 -0.489843 -0.308587 64 236 211
-0.0064494 -0.4888 -0.249636 64 236 211
0.0869001 -0.315295 -0.233058 64 236 211
0.085244 -0.315588 0.300187 64 236 211
0.0884516 -0.274904 -0.167833 64 236 211
0.0872702 -0.457649 0.0480444 64 236 211
-0.217893 -0.489058 -0.134947 64 236 211
-0.183784 -0.489617 0.213807 64 236 211
0.0846751 -0.487772 0.146232 64 236 211
-0.236054 -0.489409 0.0599042 64 236 211
-0.175569 -0.489619 0.0476735 64 236 211
0.0136655 -0.489684 0.213136 64 236 211
-0.0360507 -0.488669 -0.21159 64 236 211
0.0901829 -0.428635 -0.315888 64 236 211
-0.191105 -0.489505 0.0175103 64 236 211
-0.047632 -0.488617 -0.221307 64 236 211
-0.00829515 -0.489198 0.0254188 64 236 211
-0.10007 -0.489247 -0.0190077 64 236 211
0.0108623 -0.48899 -0.291074 64 236 211
0.0879676 -0.378637 -0.229316 64 236 211
-0.0139975 -0.488848 -0.108959 64 236 211
0.0847737 -0.489226 0.170345 64 236 211
-0.0945226 -0.488819 -0.159373 64 236 211
-0.26073 -0.489222 -0.162346 64 236 211
-0.00399149 -0.489329 -0.374614 64 236 211
-0.221837 -0.489161 -0.164593 64 236 211
-0.104536 -0.488956 -0.227692 64 236 211
-0.205852 -0.489533 0.204199 64 236 211
0.0857173 -0.337272 -0.316535 64 236 211
-0.029425 -0.488872 -0.286057 64 236 211
0.0858022 -0.43817 0.12912 64 236 211
-0.238947 -0.489359 0.186736 64 236 211
0.0891141 -0.390511 -0.144178 64 236 211
-0.227631 -0.487772 -0.351513 64 236 211
-0.0185243 -0.48884 -0.106721 64 236 211
-0.0488052 -0.488997 -0.0132493 64 236 211
-0.0187582 -0.489337 0.04128 64 236 211
-0.17667 -0.489544 -0.247403 64 236 211
0.0893047 -0.441544 0.330051 64 236 211
-0.273472 -0.489313 0.182511 64 236 211
-0.133022 -0.489389 -0.256067 64 236 211
-0.141138 -0.489844 0.1613 64 236 211
0.0285663 -0.489011 -0.30512 64 236 211
0.0870061 -0.418055 0.0786557 64 236 211
-0.0245955 -0.488808 -0.266235 64 236 211
0.0257408 -0.489095 -0.323067 64 236 211
-0.104593 -0.489507 -0.309025 64 236 211
0.0120898 -0.488833 -0.123319 64 236 211
0.089268 -0.425886 -0.25236 64 236 211
0.0905588 -0.474364 -0.209751 64 236 211
0.0851778 -0.349516 0.0900103 64 236 211
-0.0908622 -0.488774 -0.175163 64 236 211
0.0895948 -0.425816 -0.232242 64 236 211
0.0868051 -0.393902 0.312485 64 236 211
-0.0417437 -0.488958 -0.305999 64 236 211
-0.134794 -0.489378 -0.0250759 64 236 211
0.037758 -0.488878 -0.0419463 64 236 211
0.0880759 -0.265131 -0.251354 64 236 211
-0.018043 -0.488788 -0.12879 64 236 211
0.0909765 -0.453533 -0.302493 64 236 211
-0.0558735 -0.48886 -0.292051 64 236 211
