ply
format ascii 1.0
comment Created by Open3D
element vertex 1201
property double x
property double y
property double z
property uchar red
property uchar green
property uchar blue
end_header
0.0329107 -0.474384 -0.146102 0 180 235
0.393519 -0.419735 -0.078979 0 180 235
0.431184 -0.379852 0.257902 0 180 235
-0.0773677 -0.408955 -0.251041 0 180 235
0.241853 -0.458553 -0.0738028 0 180 235
0.359798 -0.339983 0.0233183 0 180 235
0.23319 -0.466194 -0.125748 0 180 235
-0.116334 -0.493136 0.181118 0 180 235
0.0966916 -0.369099 -0.255548 0 180 235
-0.267196 -0.495166 0.0925688 0 180 235
0.365771 -0.313077 -0.17188 0 180 235
-0.0593829 -0.478094 -0.0768556 0 180 235
0.203244 -0.399439 -0.163283 0 180 235
-0.103586 -0.404674 -0.242392 0 180 235
-0.0806776 -0.396758 -0.227654 0 180 235
0.412228 -0.415765 0.227762 0 180 235
0.408665 -0.399044 -0.18338 0 180 235
0.408756 -0.240309 -0.0196361 0 180 235
0.319218 -0.397956 -0.112296 0 180 235
0.0154111 -0.377092 -0.249335 0 180 235
-0.102173 -0.495268 0.24498 0 180 235
0.194782 -0.355324 -0.230716 0 180 235
0.26785 -0.341258 -0.188608 0 180 235
-0.0417195 -0.417404 -0.216553 0 180 235
0.16681 -0.36094 -0.185405 0 180 235
-0.239128 -0.493959 0.199137 0 180 235
0.430277 -0.320703 0.166306 0 180 235
0.401115 -0.297862 -0.157847 0 180 235
-0.0365886 -0.466971 -0.189714 0 180 235
-0.0644691 -0.493194 0.174189 0 180 235
-0.00874864 -0.357767 -0.211337 0 180 235
0.43223 -0.110954 0.18016 0 180 235
0.112609 -0.463288 -0.17354 0 180 235
0.414362 -0.332462 0.140599 0 180 235
0.224267 -0.404725 -0.239071 0 180 235
0.406806 -0.39025 0.272389 0 180 235
0.399093 -0.439658 0.19887 0 180 235
0.400329 -0.397183 0.19552 0 180 235
0.248323 -0.46247 -0.0897561 0 180 235
0.416727 -0.25967 -0.0800691 0 180 235
0.0669714 -0.465196 -0.18262 0 180 235
0.149187 -0.480413 0.190609 0 180 235
0.129297 -0.466452 -0.157355 0 180 235
0.330726 -0.443463 -0.0934759 0 180 235
0.151441 -0.362936 -0.18638 0 180 235
0.238991 -0.447242 -0.141637 0 180 235
0.100745 -0.411673 -0.210774 0 180 235
0.303068 -0.344411 -0.0747409 0 180 235
0.431154 -0.347534 -0.0826286 0 180 235
0.399177 -0.410565 0.132753 0 180 235
0.431433 -0.118347 0.340919 0 180 235
0.429326 -0.407611 -0.100704 0 180 235
0.326573 -0.348518 -0.214452 0 180 235
-0.0699209 -0.476619 -0.169424 0 180 235
0.23632 -0.356749 -0.22136 0 180 235
0.423411 -0.42411 0.191328 0 180 235
0.414453 -0.454094 0.304817 0 180 235
0.22161 -0.459678 -0.0843642 0 180 235
0.348603 -0.463847 0.258658 0 180 235
0.112691 -0.39668 -0.216771 0 180 235
-0.0505161 -0.470269 -0.186115 0 180 235
0.0486389 -0.488558 0.17551 0 180 235
0.130031 -0.470422 -0.139368 0 180 235
0.227741 -0.460777 -0.133183 0 180 235
0.279399 -0.374344 -0.232058 0 180 235
0.343352 -0.412228 -0.0291576 0 180 235
0.433568 -0.317219 0.243718 0 180 235
0.229175 -0.38014 -0.240426 0 180 235
0.223771 -0.403401 -0.214284 0 180 235
0.168774 -0.462086 -0.105994 0 180 235
0.42992 -0.234076 0.227618 0 180 235
0.430543 -0.321975 -0.0597582 0 180 235
0.353984 -0.381804 -0.0790704 0 180 235
0.0232095 -0.466538 -0.106117 0 180 235
0.423273 -0.236229 -0.0243173 0 180 235
0.411115 -0.224982 -0.0332258 0 180 235
0.361201 -0.428496 0.0609293 0 180 235
0.264844 -0.410803 -0.232923 0 180 235
-0.111336 -0.493072 0.178113 0 180 235
0.267427 -0.459169 -0.223061 0 180 235
0.431732 -0.36894 -0.0112166 0 180 235
0.253003 -0.474285 -0.230267 0 180 235
0.435198 -0.207801 0.186826 0 180 235
-0.00443892 -0.343055 -0.230356 0 180 235
0.416906 -0.312509 0.305537 0 180 235
0.221398 -0.428195 -0.26681 0 180 235
0.17033 -0.360832 -0.247804 0 180 235
0.310522 -0.413581 -0.122655 0 180 235
0.396891 -0.43297 0.172206 0 180 235
0.222943 -0.467207 -0.107601 0 180 235
0.419385 -0.426405 0.314135 0 180 235
0.393975 -0.378387 0.134268 0 180 235
0.416358 -0.331391 0.286526 0 180 235
0.262806 -0.455026 -0.117339 0 180 235
0.403125 -0.247356 -0.0913103 0 180 235
0.0291884 -0.478525 0.0194812 0 180 235
0.209682 -0.46777 -0.127659 0 180 235
0.137701 -0.465767 -0.0353342 0 180 235
0.309265 -0.33881 -0.202999 0 180 235
0.261297 -0.411126 -0.157182 0 180 235
0.310298 -0.401171 -0.0846901 0 180 235
0.43558 -0.171619 0.180306 0 180 235
0.376177 -0.453907 0.227385 0 180 235
0.0314845 -0.465814 -0.10237 0 180 235
0.413197 -0.301172 -0.13118 0 180 235
0.276294 -0.390756 -0.121569 0 180 235
0.185269 -0.470019 -0.125564 0 180 235
0.0956871 -0.491124 0.285597 0 180 235
0.331361 -0.463787 0.234956 0 180 235
-0.0296718 -0.47258 -0.178529 0 180 235
-0.053728 -0.46665 -0.191774 0 180 235
0.136794 -0.370267 -0.227029 0 180 235
0.437227 -0.0725217 0.308471 0 180 235
0.429281 -0.15227 0.316995 0 180 235
0.385606 -0.352746 0.00568365 0 180 235
0.430818 -0.359771 -0.0909342 0 180 235
0.421328 -0.356771 0.240022 0 180 235
-0.0360413 -0.470869 -0.184259 0 180 235
0.162029 -0.471123 -0.122642 0 180 235
-0.278448 -0.495594 0.113021 0 180 235
0.310653 -0.336677 -0.204438 0 180 235
0.380099 -0.451582 0.219873 0 180 235
0.38227 -0.444878 0.188696 0 180 235
0.102293 -0.465915 -0.171739 0 180 235
-0.0422414 -0.4317 -0.20328 0 180 235
0.394655 -0.323374 0.224994 0 180 235
0.320277 -0.423597 -0.149564 0 180 235
0.0467842 -0.394623 -0.225886 0 180 235
0.436411 -0.138477 0.223396 0 180 235
0.408869 -0.233444 -0.0492251 0 180 235
0.0524927 -0.467259 -0.123501 0 180 235
0.377466 -0.4493 0.0647273 0 180 235
0.0566819 -0.489779 0.204667 0 180 235
0.430819 -0.297786 -0.0177206 0 180 235
0.413773 -0.289406 -0.119367 0 180 235
-0.112671 -0.488375 0.0128131 0 180 235
0.0837399 -0.366783 -0.255845 0 180 235
0.435534 -0.222304 0.21832 0 180 235
0.123494 -0.446009 -0.185476 0 180 235
0.433864 -0.232546 0.203802 0 180 235
0.105141 -0.470706 -0.13178 0 180 235
0.0162447 -0.364927 -0.255421 0 180 235
0.434915 -0.241864 0.164649 0 180 235
0.0651404 -0.466867 -0.178908 0 180 235
0.433175 -0.256997 0.128367 0 180 235
0.330618 -0.333863 -0.03047 0 180 235
0.426011 -0.412585 0.236545 0 180 235
0.163506 -0.341479 -0.247532 0 180 235
0.410587 -0.416588 -0.0380324 0 180 235
0.251592 -0.35314 -0.173934 0 180 235
-0.123529 -0.490541 0.03333 0 180 235
0.434138 -0.258931 0.144376 0 180 235
0.434043 -0.19206 0.21541 0 180 235
0.429981 -0.377355 0.0216591 0 180 235
0.0783294 -0.466635 -0.177087 0 180 235
0.308893 -0.356772 -0.15353 0 180 235
0.222155 -0.465456 -0.103518 0 180 235
0.299057 -0.411345 -0.19965 0 180 235
0.370155 -0.433625 0.118541 0 180 235
0.384348 -0.385753 0.0686814 0 180 235
0.097698 -0.465682 -0.174277 0 180 235
0.234157 -0.456421 -0.0447992 0 180 235
0.297148 -0.489216 0.026237 0 180 235
0.319934 -0.418917 -0.184936 0 180 235
0.0450049 -0.473408 -0.150766 0 180 235
0.222994 -0.459738 -0.0223948 0 180 235
0.000241837 -0.46853 -0.114829 0 180 235
0.0794324 -0.399746 -0.248489 0 180 235
0.0379996 -0.404966 -0.235351 0 180 235
0.428461 -0.213348 0.0633788 0 180 235
0.428389 -0.413502 -0.0384039 0 180 235
0.431994 -0.213466 0.114869 0 180 235
0.412378 -0.28359 -0.118664 0 180 235
0.0360969 -0.390582 -0.230531 0 180 235
0.175799 -0.466251 -0.141875 0 180 235
0.42046 -0.349192 0.246674 0 180 235
0.435065 -0.13575 0.237402 0 180 235
0.065344 -0.467265 -0.125255 0 180 235
0.320828 -0.333811 -0.201401 0 180 235
0.418408 -0.408193 0.252249 0 180 235
-0.0802665 -0.487365 0.0322345 0 180 235
-0.0607946 -0.455281 -0.191931 0 180 235
0.220637 -0.48473 -0.245121 0 180 235
0.432967 -0.254518 0.125049 0 180 235
0.252 -0.412357 -0.23679 0 180 235
0.357897 -0.448223 0.170779 0 180 235
0.411218 -0.223221 -0.0171421 0 180 235
0.422999 -0.415433 -0.0637449 0 180 235
0.428049 -0.217713 0.0462779 0 180 235
0.280895 -0.427361 -0.120348 0 180 235
-0.0631367 -0.466478 -0.193073 0 180 235
0.41738 -0.228465 0.0645976 0 180 235
-0.0118899 -0.475581 -0.155058 0 180 235
0.233708 -0.453486 -0.137622 0 180 235
0.400436 -0.354569 -0.191206 0 180 235
0.312182 -0.383296 -0.165586 0 180 235
0.40037 -0.325672 -0.178221 0 180 235
0.0970531 -0.4404 -0.195288 0 180 235
-0.0329471 -0.404597 -0.239032 0 180 235
0.434322 -0.093532 0.336308 0 180 235
0.193206 -0.462827 -0.022659 0 180 235
-0.178813 -0.489779 -0.0379649 0 180 235
0.440391 -0.139789 0.27116 0 180 235
0.359479 -0.34031 0.0222877 0 180 235
0.389844 -0.317313 -0.179962 0 180 235
0.407317 -0.397222 0.213407 0 180 235
0.130361 -0.407187 -0.209245 0 180 235
0.431611 -0.304081 0.109857 0 180 235
0.380422 -0.307428 -0.178895 0 180 235
0.363629 -0.358096 -0.208887 0 180 235
0.351236 -0.366378 -0.0269739 0 180 235
0.0359158 -0.378089 -0.259597 0 180 235
0.128801 -0.460909 -0.0837338 0 180 235
0.414432 -0.266928 0.0858748 0 180 235
0.0211734 -0.493405 0.224206 0 180 235
0.425084 -0.382357 -0.142288 0 180 235
0.243033 -0.388698 -0.142534 0 180 235
0.429015 -0.322627 -0.0814136 0 180 235
0.138446 -0.406147 -0.208203 0 180 235
-0.0186137 -0.475722 -0.0517168 0 180 235
0.305617 -0.486305 0.00891046 0 180 235
0.314624 -0.34269 -0.104278 0 180 235
0.378131 -0.425837 0.108374 0 180 235
0.162712 -0.471203 0.0530954 0 180 235
0.393602 -0.425256 0.142184 0 180 235
0.34553 -0.415668 -0.0529778 0 180 235
0.35272 -0.408578 -0.0769363 0 180 235
0.0378328 -0.402271 -0.254669 0 180 235
0.151802 -0.382522 -0.219346 0 180 235
0.104271 -0.474469 0.0374689 0 180 235
0.405322 -0.356828 0.203117 0 180 235
0.24985 -0.41282 -0.169155 0 180 235
-0.0478798 -0.495337 0.237175 0 180 235
-0.137327 -0.479412 -0.126045 0 180 235
0.419226 -0.20478 0.0671232 0 180 235
0.105459 -0.459092 -0.0985087 0 180 235
-0.00571299 -0.425135 -0.207476 0 180 235
0.321602 -0.480956 -0.00994011 0 180 235
0.14259 -0.4177 -0.201554 0 180 235
0.0682519 -0.340225 -0.236434 0 180 235
0.35532 -0.328074 -0.170569 0 180 235
0.25365 -0.408758 -0.205635 0 180 235
0.287977 -0.408122 -0.209302 0 180 235
-0.0273786 -0.401592 -0.226279 0 180 235
0.422234 -0.214379 -0.00581983 0 180 235
0.313618 -0.417797 -0.189555 0 180 235
0.0536429 -0.473137 -0.135935 0 180 235
0.168932 -0.460234 -0.101126 0 180 235
0.419669 -0.308101 0.277245 0 180 235
0.425878 -0.198806 0.305686 0 180 235
0.425824 -0.416013 0.0374291 0 180 235
-0.060544 -0.478653 -0.143282 0 180 235
0.423402 -0.292397 0.253907 0 180 235
-0.102356 -0.479236 -0.106046 0 180 235
0.412312 -0.328129 -0.153402 0 180 235
0.269339 -0.449233 -0.0340279 0 180 235
0.264654 -0.468279 0.197174 0 180 235
0.428193 -0.199923 0.0722433 0 180 235
0.222489 -0.429494 -0.167714 0 180 235
0.429962 -0.269658 -0.0180713 0 180 235
0.430212 -0.310311 -0.0481383 0 180 235
0.417593 -0.425693 0.249578 0 180 235
0.420101 -0.352882 0.167713 0 180 235
-0.0681576 -0.475159 -0.118501 0 180 235
0.283574 -0.343926 -0.148602 0 180 235
0.426666 -0.348978 0.197396 0 180 235
0.405188 -0.3815 0.289318 0 180 235
0.00462981 -0.465513 -0.188167 0 180 235
0.384056 -0.466032 0.326899 0 180 235
-0.00801901 -0.471652 -0.0936104 0 180 235
0.0961581 -0.469473 -0.165206 0 180 235
-0.119108 -0.482167 -0.0872937 0 180 235
0.204691 -0.415157 -0.248054 0 180 235
0.12603 -0.469923 -0.143141 0 180 235
0.0446835 -0.365734 -0.251804 0 180 235
0.23157 -0.405063 -0.161339 0 180 235
0.215763 -0.413279 -0.191678 0 180 235
0.430241 -0.344322 0.120649 0 180 235
0.328417 -0.385444 -0.131712 0 180 235
0.419947 -0.232475 0.096876 0 180 235
0.16323 -0.466965 -0.00606536 0 180 235
0.127815 -0.464498 -0.163976 0 180 235
0.407657 -7.4774e-05 0.0835445 32 212 224
-0.00614916 -0.496484 0.459218 32 212 224
0.413381 -0.231196 -0.0842899 32 212 224
0.405606 -0.0401028 0.123318 32 212 224
0.402695 -0.118981 0.109932 32 212 224
0.0360737 -0.49418 0.426903 32 212 224
0.401714 -0.277397 0.454841 32 212 224
0.410453 -0.292011 -0.000239724 32 212 224
0.406412 0.0296969 -0.000827094 32 212 224
0.403669 -0.296247 0.514935 32 212 224
-0.107904 -0.498468 0.429709 32 212 224
0.406582 -0.0251849 0.214532 32 212 224
0.399343 -0.309862 0.025701 32 212 224
0.287588 -0.486915 0.282658 32 212 224
0.363888 -0.475493 0.0806549 32 212 224
0.399809 -0.271949 0.0760819 32 212 224
0.306063 -0.486301 0.49177 32 212 224
0.39787 -0.412218 0.0829726 32 212 224
0.412248 -0.377127 -0.0937577 32 212 224
0.0335101 -0.495315 0.47545 32 212 224
0.401326 -0.369428 -0.0811044 32 212 224
0.399331 -0.223877 0.449599 32 212 224
0.399622 -0.176619 0.325403 32 212 224
0.403012 -0.095886 0.0983518 32 212 224
0.398891 -0.266715 0.189152 32 212 224
-0.0566809 -0.495983 0.348051 32 212 224
0.401772 -0.284745 -0.0474385 32 212 224
0.411847 -0.205744 -0.00824945 32 212 224
0.417646 -0.326713 0.2545 32 212 224
0.397584 -0.327849 0.242419 32 212 224
0.407045 -0.443644 0.397383 32 212 224
0.399988 -0.224474 0.23047 32 212 224
0.403912 -0.0669198 0.437927 32 212 224
0.395919 -0.337958 0.493194 32 212 224
0.295816 -0.486352 0.428598 32 212 224
0.197678 -0.489368 0.484903 32 212 224
0.372873 -0.45372 0.384761 32 212 224
0.402466 -0.256348 0.480223 32 212 224
0.403135 -0.268991 0.484 32 212 224
0.402573 -0.111052 0.254268 32 212 224
0.417692 -0.203451 0.162316 32 212 224
0.398718 -0.279583 0.158035 32 212 224
0.404876 -0.0619651 0.000986892 32 212 224
0.342392 -0.479568 0.106429 32 212 224
0.405755 -0.444319 0.44583 32 212 224
0.40144 -0.122122 0.38104 32 212 224
0.418975 -0.392958 0.392493 32 212 224
0.406257 -0.0363587 0.340715 32 212 224
0.402358 -0.146736 0.0512143 32 212 224
-0.000297222 -0.496344 0.460899 32 212 224
0.412026 -0.379964 -0.0802865 32 212 224
0.410676 -0.270876 -0.000327097 32 212 224
0.402371 -0.343703 0.38459 32 212 224
0.415662 -0.410727 0.292378 32 212 224
0.411221 -0.355725 -0.0522594 32 212 224
0.41317 -0.451717 -0.0985972 32 212 224
0.402208 -0.409396 0.3282 32 212 224
0.397608 -0.201717 0.413771 32 212 224
0.343848 -0.485422 0.470714 32 212 224
0.406237 -0.0357466 0.0172332 32 212 224
0.401008 -0.248914 0.459131 32 212 224
0.402911 -0.243992 0.481498 32 212 224
0.305231 -0.486104 0.406433 32 212 224
0.267481 -0.480919 0.0818719 32 212 224
0.408555 -0.449872 0.349212 32 212 224
0.403653 -0.0953196 0.44908 32 212 224
0.411064 -0.18031 0.00543805 32 212 224
0.414135 -0.444444 0.384989 32 212 224
0.400402 -0.306779 0.312829 32 212 224
0.400401 -0.349293 0.469673 32 212 224
0.411621 -0.384728 -0.0680857 32 212 224
0.402615 -0.411238 0.348201 32 212 224
0.410895 -0.148571 0.000240613 32 212 224
-0.152997 -0.500128 0.450396 32 212 224
0.399363 -0.14064 0.4368 32 212 224
0.396944 -0.372418 0.126084 32 212 224
0.401056 -0.203769 0.132474 32 212 224
0.401442 -0.276505 0.390305 32 212 224
0.400592 -0.202784 0.240628 32 212 224
0.412451 -0.449235 0.296422 32 212 224
0.41329 -0.40968 0.20693 32 212 224
0.413453 -0.141631 -0.0640807 32 212 224
0.41019 -0.153923 0.0171567 32 212 224
0.402368 -0.156231 0.0674959 32 212 224
0.119903 -0.490513 0.307558 32 212 224
0.412747 -0.207685 0.0838469 32 212 224
0.417035 -0.356456 0.231264 32 212 224
0.252279 -0.487304 0.356876 32 212 224
0.422109 -0.252955 0.289548 32 212 224
0.406573 -0.0214872 0.127125 32 212 224
0.295052 -0.486408 0.472222 32 212 224
0.404596 -0.0681327 0.174706 32 212 224
0.411442 -0.446778 -0.0440361 32 212 224
0.409504 -0.427404 0.0928619 32 212 224
0.414636 -0.241033 0.112475 32 212 224
-0.0224469 -0.495655 0.390807 32 212 224
0.401952 -0.319053 0.420654 32 212 224
0.350399 -0.485817 0.261565 32 212 224
0.401052 -0.362826 0.460715 32 212 224
0.398065 -0.173441 0.439093 32 212 224
0.404711 -0.0604767 0.129545 32 212 224
0.385294 -0.402106 0.49609 32 212 224
0.405319 -0.0494718 0.0276474 32 212 224
0.392477 -0.3743 0.500909 32 212 224
0.402711 -0.416984 -0.00675179 32 212 224
0.407745 -0.0011993 0.238015 32 212 224
0.413554 -0.434839 0.27833 32 212 224
0.39893 -0.390061 0.466172 32 212 224
-0.162403 -0.499694 0.424973 32 212 224
0.234032 -0.487711 0.408082 32 212 224
0.198017 -0.489222 0.472335 32 212 224
0.397638 -0.351857 0.112728 32 212 224
0.19231 -0.488947 0.285646 32 212 224
0.410368 -0.29105 0.00468947 32 212 224
0.403309 -0.0967873 0.00640083 32 212 224
0.401035 -0.388662 0.463705 32 212 224
0.401404 -0.225221 -0.00328039 32 212 224
0.41151 -0.366246 -0.0638905 32 212 224
0.414002 -0.437777 0.401296 32 212 224
0.409849 -0.430584 0.0802126 32 212 224
0.402422 -0.358541 0.359841 32 212 224
0.398282 -0.263388 0.235598 32 212 224
0.416714 -0.36205 0.231459 32 212 224
0.413339 -0.404885 0.201786 32 212 224
0.409741 -0.308068 0.0603027 32 212 224
0.407084 0.0203417 0.274309 32 212 224
0.397927 -0.31841 0.124264 32 212 224
0.40572 -0.239531 0.506346 32 212 224
0.411712 -0.306002 -0.070517 32 212 224
0.411669 -0.434196 0.186713 32 212 224
0.13607 -0.491328 0.484045 32 212 224
0.403114 -0.087103 0.0726821 32 212 224
0.401592 -0.332329 0.436366 32 212 224
0.415881 -0.286474 0.165008 32 212 224
0.251646 -0.487315 0.357594 32 212 224
0.409609 -0.131002 0.0359878 32 212 224
0.39857 -0.317263 0.267326 32 212 224
0.409346 -0.126624 0.041618 32 212 224
0.401415 -0.373443 -0.0867663 32 212 224
0.410097 -0.419175 0.0146512 32 212 224
0.401554 -0.407131 -0.0866401 32 212 224
0.415684 -0.375979 0.246096 32 212 224
0.410001 -0.39107 0.0176194 32 212 224
-0.0419768 -0.495289 0.339196 32 212 224
0.409873 -0.401848 0.0479669 32 212 224
0.0960705 -0.491503 0.425673 32 212 224
0.41239 -0.262597 0.0895868 32 212 224
0.414071 -0.406865 0.239096 32 212 224
0.141801 -0.490059 0.30854 32 212 224
0.387192 -0.379213 0.471483 32 212 224
0.404444 -0.0703917 0.142971 32 212 224
0.00102429 -0.49625 0.458605 32 212 224
0.41297 -0.422728 0.216626 32 212 224
0.407525 -0.453256 0.318296 32 212 224
0.405391 0.0596097 0.141608 32 212 224
0.330438 -0.486322 0.252688 32 212 224
0.407058 -0.000836849 -0.0268738 32 212 224
0.401591 -0.329234 0.42108 32 212 224
0.401058 -0.266551 0.400879 32 212 224
0.409962 -0.420847 0.0427379 32 212 224
0.402722 -0.313726 0.392187 32 212 224
0.40389 -0.0698249 0.0719867 32 212 224
0.4003 -0.144929 0.375713 32 212 224
0.398382 -0.246139 0.363937 32 212 224
0.401551 -0.189183 0.115481 32 212 224
0.403142 -0.0959535 0.0359951 32 212 224
0.409998 -0.370081 0.0125049 32 212 224
0.413084 -0.269319 0.101603 32 212 224
0.401153 -0.21289 0.0464959 32 212 224
0.405807 0.0459438 0.0420961 32 212 224
0.410993 -0.315378 0.100028 32 212 224
0.414502 -0.442888 0.410959 32 212 224
0.406895 0.0214968 0.00717396 32 212 224
0.402283 -0.414649 -0.0209632 32 212 224
0.403689 -0.0840157 0.181886 32 212 224
0.400801 -0.187359 0.256739 32 212 224
0.398193 -0.373905 0.0555779 32 212 224
0.0436191 -0.492484 0.178947 32 212 224
0.411661 -0.446011 -0.025991 32 212 224
0.413441 -0.429941 0.25648 32 212 224
0.414222 -0.183345 -0.0719798 32 212 224
0.404411 -0.0590915 0.0810039 32 212 224
0.406762 -0.023345 0.375625 32 212 224
0.410593 -0.272244 0.00285505 32 212 224
0.4007 -0.290964 -0.0149091 32 212 224
0.20923 -0.488946 0.177736 32 212 224
0.397789 -0.419973 0.122512 32 212 224
0.40169 -0.297013 0.36446 32 212 224
0.406883 -0.147948 0.500913 32 212 224
0.41338 -0.225427 -0.0783878 32 212 224
0.401422 -0.284863 0.374065 32 212 224
0.402263 -0.300672 0.473341 32 212 224
0.386776 -0.480229 0.226608 32 212 224
0.40152 -0.208704 0.013329 32 212 224
0.401791 -0.148106 0.175583 32 212 224
0.409812 -0.444985 0.0272748 32 212 224
0.416015 -0.21638 0.134899 32 212 224
0.420721 -0.305264 0.283253 32 212 224
0.152491 -0.489819 0.289461 32 212 224
0.411948 -0.152236 -0.0140625 32 212 224
0.412453 -0.339994 -0.0968171 32 212 224
0.413233 -0.150494 -0.052764 32 212 224
0.393731 -0.465475 0.374656 32 212 224
0.410519 -0.24829 0.0256964 32 212 224
0.400669 -0.38804 -0.088807 32 212 224
0.412106 -0.4036 -0.0901303 32 212 224
0.407901 0.000544548 0.0253747 32 212 224
0.399301 -0.281278 0.115422 32 212 224
0.411714 -0.353416 -0.0719574 32 212 224
0.410815 -0.400699 -0.0255321 32 212 224
0.399995 -0.214658 0.25805 32 212 224
0.406289 -0.0282674 -0.0593473 32 212 224
0.411477 -0.187462 0.000255918 32 212 224
0.410319 -0.396729 0.112703 32 212 224
0.403495 -0.0814024 0.0578259 32 212 224
0.398634 -0.244067 0.379979 32 212 224
0.415317 -0.227053 0.123061 32 212 224
0.401851 -0.284704 0.459403 32 212 224
-0.050454 -0.497259 0.434653 32 212 224
0.399625 -0.305446 0.297725 32 212 224
0.399262 -0.29357 0.0948849 32 212 224
0.172819 -0.490127 0.481125 32 212 224
0.404981 -0.0679949 -0.0666782 32 212 224
0.401301 -0.367774 0.296584 32 212 224
0.401387 -0.16178 0.208618 32 212 224
0.40717 -0.00804246 0.0886055 32 212 224
0.39862 -0.225534 0.43762 32 212 224
0.403513 -0.0882879 0.0149535 32 212 224
0.409437 -0.409469 0.085826 32 212 224
-0.118349 -0.497447 0.336892 32 212 224
-0.0508259 -0.494475 0.196166 32 212 224
0.0195766 -0.492758 0.20974 32 212 224
0.421836 -0.311464 0.325105 32 212 224
0.403553 -0.0766472 0.0719798 32 212 224
0.4129 -0.252324 -0.083082 32 212 224
0.299337 -0.486363 0.487771 32 212 224
0.316222 -0.486586 0.237416 32 212 224
0.402742 -0.374854 0.406158 32 212 224
0.383309 -0.411936 0.421803 32 212 224
0.404684 -0.0700747 0.282347 32 212 224
0.39748 -0.203526 0.444804 32 212 224
0.410924 -0.100886 -0.0249461 32 212 224
0.373867 -0.437235 0.458161 32 212 224
0.115113 -0.490573 0.23735 32 212 224
0.219835 -0.488719 0.190469 32 212 224
0.411399 -0.181242 0.00100055 32 212 224
0.40614 0.0222904 -0.0212151 32 212 224
0.404197 -0.0752428 -0.0231813 32 212 224
0.411451 -0.224189 -0.00357587 32 212 224
0.411771 -0.331081 -0.0745176 32 212 224
0.410559 -0.414079 0.120604 32 212 224
0.399295 -0.279143 0.119351 32 212 224
0.377752 -0.483631 0.29986 32 212 224
0.412781 -0.157729 -0.0355411 32 212 224
0.195995 -0.488641 0.409246 32 212 224
0.282611 -0.479873 0.0738022 32 212 224
0.40195 -0.12696 0.226468 32 212 224
0.413177 -0.440109 0.29163 32 212 224
0.41359 -0.377659 0.168362 32 212 224
0.413018 -0.225382 -0.0651631 32 212 224
0.300296 -0.486243 0.41834 32 212 224
0.410379 -0.238844 0.0564493 32 212 224
0.4191 -0.379281 0.326197 32 212 224
0.41777 -0.376827 0.273044 32 212 224
0.348601 -0.467061 0.0158124 32 212 224
0.402068 -0.285067 0.394402 32 212 224
0.410324 -0.332645 0.100317 32 212 224
0.410204 -0.280604 0.0381423 32 212 224
0.417737 -0.366739 0.260787 32 212 224
0.226024 -0.488502 0.199754 32 212 224
0.399062 -0.378786 -0.0127414 32 212 224
0.411036 -0.409113 -0.0328108 32 212 224
0.404382 -0.0589313 0.41881 32 212 224
0.410908 -0.335394 -0.0383044 32 212 224
0.398608 -0.287442 0.146338 32 212 224
0.411576 -0.373395 -0.0666766 32 212 224
0.402408 -0.344719 0.352881 32 212 224
0.409797 -0.282491 0.0559589 32 212 224
0.411355 -0.265532 -0.0318446 32 212 224
0.403963 -0.0824915 -0.0221582 32 212 224
0.408099 -0.446347 0.318674 32 212 224
0.400184 -0.321089 -0.0128143 32 212 224
0.401242 -0.310862 0.445604 32 212 224
0.411415 -0.359347 -0.0597957 32 212 224
0.403534 -0.296708 0.508151 32 212 224
0.410775 -0.412047 0.123281 32 212 224
-0.0909264 -0.498297 0.440518 32 212 224
0.404009 -0.064315 0.427001 32 212 224
0.404358 -0.285446 0.503557 32 212 224
0.410081 -0.111247 0.000340663 32 212 224
0.135959 -0.491382 0.488192 32 212 224
0.302368 -0.486638 0.278769 32 212 224
0.419851 -0.214147 0.239103 32 212 224
0.396164 -0.33639 0.481228 32 212 224
0.397372 -0.389901 0.100708 32 212 224
0.401993 -0.11478 0.358849 32 212 224
0.414517 -0.202298 0.10926 32 212 224
0.401893 -0.208362 -0.0153636 32 212 224
0.409491 -0.344634 0.0579764 32 212 224
0.233909 -0.487735 0.417183 32 212 224
0.413938 -0.419078 0.362951 32 212 224
-0.0601082 -0.495876 0.33562 32 212 224
0.402231 -0.110324 0.3514 32 212 224
0.407054 -0.0111967 0.123067 32 212 224
0.410377 -0.289647 0.00587533 32 212 224
0.407511 0.00519635 0.281804 32 212 224
0.411602 -0.367419 -0.0676968 32 212 224
0.403891 -0.0822084 -0.00485246 32 212 224
0.413895 -0.387733 0.189602 32 212 224
0.236199 -0.48791 0.305104 32 212 224
0.412284 -0.367204 -0.0909026 32 212 224
0.419928 -0.242351 0.239438 32 212 224
0.410579 -0.446629 0.0383194 32 212 224
0.412679 -0.260561 -0.0817102 32 212 224
0.41171 -0.1337 -0.0199191 32 212 224
0.204267 -0.488478 0.422776 32 212 224
0.410248 -0.438913 0.0504412 32 212 224
0.403542 -0.21531 -0.0688051 32 212 224
0.41378 -0.16306 -0.0619556 32 212 224
0.402747 -0.369371 0.402872 32 212 224
0.401425 -0.313699 -0.055298 32 212 224
-0.039643 -0.494053 0.241094 32 212 224
0.402062 -0.281119 0.426884 32 212 224
0.402069 -0.342935 -0.085559 32 212 224
0.383418 -0.433215 -0.0277625 32 212 224
0.401605 -0.266334 0.4459 32 212 224
0.405028 -0.0482181 0.400605 32 212 224
0.421437 -0.284757 0.302461 32 212 224
0.401812 -0.215032 -0.0165779 32 212 224
0.418695 -0.396907 0.377434 32 212 224
0.40405 -0.0711404 0.033144 32 212 224
0.410851 -0.259949 -0.00338736 32 212 224
0.412143 -0.240888 -0.0435161 32 212 224
0.403408 -0.0887088 0.0282138 32 212 224
0.399023 -0.364995 0.000529116 32 212 224
0.409937 -0.297318 0.0498125 32 212 224
0.399274 -0.329595 0.477354 32 212 224
0.416064 -0.408259 0.297628 32 212 224
0.311089 -0.485994 0.41952 32 212 224
0.401306 -0.25987 0.452033 32 212 224
0.415005 -0.387138 0.229983 32 212 224
0.401803 -0.349017 0.46249 32 212 224
0.416483 -0.418437 0.407989 32 212 224
0.396294 -0.3346 0.485695 32 212 224
0.3997 -0.233129 0.445498 32 212 224
0.411913 -0.201773 -0.00920097 32 212 224
0.401251 -0.329097 0.312962 32 212 224
0.403473 -0.431133 0.369499 32 212 224
0.401624 -0.267627 0.443926 32 212 224
0.40144 -0.206671 0.0301594 32 212 224
0.412841 -0.206957 0.0853003 32 212 224
0.396082 -0.328078 0.198055 32 212 224
0.411594 -0.448123 0.217163 32 212 224
0.421858 -0.296052 0.312943 32 212 224
0.0824541 -0.491424 0.321433 32 212 224
0.398228 -0.299034 0.142402 32 212 224
0.411036 -0.289628 -0.0281794 32 212 224
0.407436 0.00988508 0.216693 32 212 224
0.406393 -0.0251959 0.0487258 32 212 224
0.337166 -0.482665 0.140294 32 212 224
0.40437 -0.0683106 0.377679 32 212 224
0.403954 -0.183791 -0.0761865 32 212 224
0.0504624 -0.490181 0.131916 32 212 224
0.406436 -0.445593 0.265047 32 212 224
0.411406 -0.429297 -0.0325679 32 212 224
0.399357 -0.271598 0.332298 32 212 224
0.414861 -0.360947 0.187396 32 212 224
0.0394711 -0.492219 0.231698 32 212 224
0.396035 -0.355137 0.174591 32 212 224
0.401798 -0.116247 0.448811 32 212 224
0.401927 -0.313382 0.457229 32 212 224
0.401476 -0.327443 0.425193 32 212 224
0.39868 -0.471306 0.320668 32 212 224
0.415973 -0.19045 0.128457 32 212 224
0.411734 -0.434117 0.194513 32 212 224
0.137716 -0.485174 0.0783603 32 212 224
0.403119 -0.42026 0.0258452 32 212 224
0.402345 -0.391455 0.458276 32 212 224
0.400979 -0.13503 0.343177 32 212 224
0.406267 -0.0308075 0.137306 32 212 224
0.412485 -0.160911 -0.0256205 32 212 224
0.413023 -0.200702 -0.0368055 32 212 224
0.401376 -0.268634 0.40557 32 212 224
0.403109 -0.150523 -0.0452236 32 212 224
0.411386 -0.24595 0.0706987 32 212 224
0.403596 -0.298681 0.488398 32 212 224
0.403574 -0.0861823 0.140189 32 212 224
0.410809 -0.363906 -0.0368137 32 212 224
0.210626 -0.488651 0.250145 32 212 224
0.399077 -0.20954 0.319448 32 212 224
0.410099 -0.434212 0.06181 32 212 224
0.396796 -0.308939 0.243266 32 212 224
0.400883 -0.322437 -0.048097 32 212 224
0.400245 -0.146422 0.374311 32 212 224
0.410116 -0.434424 0.0591502 32 212 224
0.404095 -0.424366 0.0454616 32 212 224
0.345455 -0.486224 0.20835 32 212 224
0.416704 -0.343736 0.211641 32 212 224
0.406666 0.0267458 0.0441805 32 212 224
0.410542 -0.444799 0.0331505 32 212 224
0.401002 -0.308438 -0.0383035 32 212 224
0.413474 -0.166269 0.102042 32 212 224
0.0348459 -0.492417 0.209939 32 212 224
0.40193 -0.229339 -0.0326252 32 212 224
0.402726 -0.112878 0.0646882 32 212 224
0.399422 -0.375708 -0.0337184 32 212 224
0.37398 -0.442933 0.394156 32 212 224
0.401449 -0.104078 0.442235 32 212 224
0.403006 -0.379963 0.412928 32 212 224
0.417346 -0.409061 0.374866 32 212 224
0.414839 -0.185829 0.116463 32 212 224
0.412909 -0.194274 -0.0304042 32 212 224
0.401804 -0.184683 0.063372 32 212 224
0.37609 -0.44771 -0.00805302 32 212 224
0.421658 -0.196622 0.268735 32 212 224
0.401744 -0.272696 0.46255 32 212 224
0.412804 -0.149739 -0.0397508 32 212 224
0.401592 -0.316378 0.453128 32 212 224
0.413198 -0.413937 0.210012 32 212 224
0.410092 -0.403389 0.00125332 32 212 224
0.384983 -0.480574 0.241772 32 212 224
0.154383 -0.48978 0.290931 32 212 224
0.403556 -0.0857327 0.0216769 32 212 224
0.00307391 -0.496447 0.471177 32 212 224
0.403783 -0.0850648 -0.00339775 32 212 224
0.416838 -0.383682 0.326969 32 212 224
0.399678 -0.273224 0.0437316 32 212 224
0.411869 -0.346374 -0.078603 32 212 224
0.412656 -0.455968 0.431099 32 212 224
0.400435 -0.340621 -0.0462156 32 212 224
0.418701 -0.308412 0.257309 32 212 224
0.39451 -0.343869 0.488144 32 212 224
0.259605 -0.481001 0.0808475 32 212 224
0.397904 -0.289353 0.178775 32 212 224
0.402671 -0.119933 0.454067 32 212 224
0.397564 -0.221428 0.390822 32 212 224
-0.133121 -0.498263 0.38315 32 212 224
0.3999 -0.41855 0.234406 32 212 224
0.409808 -0.405936 0.105244 32 212 224
0.411061 -0.426931 -0.0198934 32 212 224
0.399047 -0.257182 0.355454 32 212 224
0.410792 -0.402136 -0.0224991 32 212 224
0.413198 -0.237667 -0.082539 32 212 224
0.413717 -0.416233 0.240968 32 212 224
0.413875 -0.160609 -0.0677475 32 212 224
0.410419 -0.399211 -0.0112747 32 212 224
0.400464 -0.228077 0.459287 32 212 224
0.3983 -0.243941 0.368613 32 212 224
0.0946583 -0.491666 0.429523 32 212 224
0.397185 -0.472071 0.2341 32 212 224
0.39981 -0.360355 0.264862 32 212 224
0.412269 -0.432304 -0.0653273 32 212 224
-0.0119408 -0.493641 0.187079 32 212 224
0.41137 -0.436835 0.168201 32 212 224
-0.0850966 -0.497281 0.394866 32 212 224
0.403258 -0.394486 0.444086 32 212 224
0.411783 -0.204531 -0.00616826 32 212 224
0.376952 -0.413422 0.449601 32 212 224
0.404416 -0.283915 -0.106511 32 212 224
0.418439 -0.396911 0.37074 32 212 224
0.405999 0.018087 0.380773 32 212 224
0.41374 -0.20234 0.0988105 32 212 224
0.405512 -0.465266 0.400781 32 212 224
0.401087 -0.252749 0.452003 32 212 224
0.402902 -0.100956 0.24071 32 212 224
0.403236 -0.278117 0.478825 32 212 224
0.39816 -0.293142 0.15697 32 212 224
0.0295766 -0.495594 0.480992 32 212 224
0.311852 -0.485995 0.364726 32 212 224
0.411097 -0.443128 -0.00848024 32 212 224
0.407157 -0.0135736 0.367667 32 212 224
0.0974525 -0.492501 0.462594 32 212 224
0.321439 -0.478355 0.0782635 32 212 224
0.40316 -0.191664 -0.0527977 32 212 224
0.0321071 -0.492432 0.295504 32 212 224
0.0785318 -0.492285 0.427799 32 212 224
0.401766 -0.389899 0.461123 32 212 224
0.405496 -0.0210966 0.432607 32 212 224
0.41416 -0.428355 0.294053 32 212 224
0.40723 0.0148145 0.244734 32 212 224
0.401993 -0.132206 0.174369 32 212 224
0.418417 -0.391868 0.351697 32 212 224
0.417722 -0.22928 0.167471 32 212 224
0.401824 -0.410954 0.307345 32 212 224
0.399278 -0.246719 0.393871 32 212 224
-0.0668864 -0.498323 0.472655 32 212 224
-0.0208621 -0.496852 0.456141 32 212 224
0.402454 -0.362609 0.426479 32 212 224
0.400625 -0.234077 0.0964834 32 212 224
-0.138413 -0.49908 0.42649 32 212 224
0.402436 -0.15189 -0.00204382 32 212 224
0.412161 -0.390926 -0.0902397 32 212 224
0.404911 -0.447774 0.341979 32 212 224
0.407634 0.000652104 0.286697 32 212 224
0.399375 -0.385234 -0.0405039 32 212 224
0.405288 -0.0515511 -0.0572576 32 212 224
0.400032 -0.139645 0.415296 32 212 224
0.410623 -0.269405 0.00278584 32 212 224
0.327312 -0.485723 0.346979 32 212 224
0.406041 -0.438008 0.157436 32 212 224
0.399876 -0.247548 0.16791 32 212 224
0.404279 -0.43588 0.183858 32 212 224
0.399683 -0.186226 0.30953 32 212 224
0.411693 -0.431498 0.18864 32 212 224
0.186911 -0.488847 0.370622 32 212 224
0.39738 -0.211446 0.424473 32 212 224
0.410896 -0.246114 0.00139054 32 212 224
0.411668 -0.423455 0.173125 32 212 224
0.413982 -0.191522 0.103838 32 212 224
0.4187 -0.383408 0.303502 32 212 224
0.416028 -0.420817 0.380362 32 212 224
0.411512 -0.263439 -0.0480173 32 212 224
0.0817464 -0.486002 -0.154431 64 236 211
0.0462499 -0.486083 -0.167679 64 236 211
-0.0451016 -0.486518 -0.316992 64 236 211
0.192947 -0.485485 -0.165645 64 236 211
-0.104228 -0.486372 -0.278126 64 236 211
0.0805299 -0.486062 -0.253831 64 236 211
-0.2909 -0.48629 0.0635616 64 236 211
-0.125303 -0.486806 -0.351974 64 236 211
0.0480402 -0.486067 -0.145045 64 236 211
0.239351 -0.48477 0.0618465 64 236 211
-0.282512 -0.48632 0.173544 64 236 211
0.0238527 -0.475448 0.310418 64 236 211
0.171712 -0.485592 -0.22771 64 236 211
-0.379224 -0.486117 0.0526738 64 236 211
-0.100563 -0.486202 -0.104236 64 236 211
-0.267289 -0.486327 -0.230841 64 236 211
0.0836203 -0.486381 -0.321498 64 236 211
-0.154903 -0.486195 -0.0187611 64 236 211
0.196389 -0.485223 -0.00334405 64 236 211
0.222035 -0.485347 -0.0856399 64 236 211
0.0551159 -0.486085 0.086669 64 236 211
-0.185889 -0.486127 -0.0766306 64 236 211
-0.0468252 -0.486151 -0.23284 64 236 211
0.059925 -0.48605 -0.118547 64 236 211
-0.0174819 -0.486354 -0.299991 64 236 211
0.0621061 -0.486081 -0.262222 64 236 211
-0.173557 -0.486167 -0.207429 64 236 211
-0.166848 -0.486184 -0.0202546 64 236 211
0.117562 -0.486337 -0.316886 64 236 211
-0.123004 -0.486152 -0.204167 64 236 211
-0.139363 -0.486189 0.193679 64 236 211
-0.199726 -0.486137 -0.154405 64 236 211
-0.371541 -0.486184 0.144105 64 236 211
0.000271205 -0.48613 -0.180693 64 236 211
0.153119 -0.485867 -0.260152 64 236 211
0.0646264 -0.486155 -0.281037 64 236 211
-0.183835 -0.486164 -0.0241214 64 236 211
-0.00246774 -0.486133 -0.0900244 64 236 211
-0.267283 -0.486428 0.1274 64 236 211
-0.124308 -0.486162 -0.150869 64 236 211
-0.0476412 -0.486156 -0.0840696 64 236 211
-0.111315 -0.486159 -0.214032 64 236 211
-0.323818 -0.486175 -0.15684 64 236 211
-0.0854856 -0.479809 0.283944 64 236 211
-0.0519381 -0.486147 -0.224237 64 236 211
-0.0380001 -0.486143 -0.0780487 64 236 211
-0.234956 -0.486114 -0.0735508 64 236 211
0.0127862 -0.486192 -0.285465 64 236 211
-0.0733146 -0.486163 -0.178122 64 236 211
0.225447 -0.485226 -0.0416276 64 236 211
-0.144928 -0.486335 0.109139 64 236 211
0.00576366 -0.486142 -0.0992591 64 236 211
-0.227106 -0.486248 0.222095 64 236 211
-0.0426782 -0.486149 -0.211221 64 236 211
-0.0395107 -0.486007 0.0831966 64 236 211
-0.136033 -0.486344 0.0679267 64 236 211
-0.30015 -0.486237 -0.194693 64 236 211
-0.151065 -0.486693 -0.325686 64 236 211
-0.0522834 -0.486393 -0.295291 64 236 211
-0.294509 -0.486405 0.141936 64 236 211
-0.0411718 -0.48634 -0.287329 64 236 211
-0.206648 -0.486594 -0.293452 64 236 211
-0.169841 -0.486297 -0.24518 64 236 211
-0.0763965 -0.486586 -0.322009 64 236 211
0.0308454 -0.486111 -0.102627 64 236 211
0.0656295 -0.485974 -0.0612334 64 236 211
0.273639 -0.48483 -0.114754 64 236 211
-0.173826 -0.48659 -0.297371 64 236 211
0.0522334 -0.485903 -0.00249462 64 236 211
0.189819 -0.485528 -0.236434 64 236 211
-0.119906 -0.486222 -0.246139 64 236 211
-0.00670994 -0.486123 -0.207077 64 236 211
-0.176366 -0.486683 -0.319356 64 236 211
0.171224 -0.485551 -0.0586607 64 236 211
-0.0498522 -0.486119 0.0160751 64 236 211
-0.123994 -0.484225 0.237452 64 236 211
0.0586309 -0.48604 -0.213216 64 236 211
-0.0293316 -0.486436 -0.311278 64 236 211
-0.0410038 -0.486691 -0.345792 64 236 211
0.132831 -0.485795 -0.146204 64 236 211
0.0231698 -0.48604 -0.241538 64 236 211
-0.150354 -0.48627 0.0272177 64 236 211
0.0639856 -0.486034 -0.213379 64 236 211
-0.0985921 -0.486151 -0.0517979 64 236 211
-0.0366829 -0.486529 -0.324025 64 236 211
0.122564 -0.485609 -0.00713393 64 236 211
-0.084004 -0.486156 -0.215958 64 236 211
0.166416 -0.485675 -0.133503 64 236 211
-0.0695662 -0.483193 0.198866 64 236 211
0.0757932 -0.486016 -0.126824 64 236 211
-0.157986 -0.486145 -0.194622 64 236 211
-0.0891831 -0.486273 -0.260365 64 236 211
-0.00748331 -0.486141 -0.196488 64 236 211
-0.0988213 -0.481194 0.266276 64 236 211
0.249066 -0.485135 -0.09874 64 236 211
-0.105491 -0.486456 -0.294498 64 236 211
0.110938 -0.485879 -0.129222 64 236 211
0.0362415 -0.486083 -0.0798003 64 236 211
-0.0537985 -0.486151 -0.169792 64 236 211
-0.190512 -0.486415 -0.261747 64 236 211
-0.00358223 -0.486311 -0.299326 64 236 211
-0.0725722 -0.486351 -0.280696 64 236 211
0.0756953 -0.4862 -0.288507 64 236 211
-0.135891 -0.480415 0.316051 64 236 211
0.202143 -0.485379 -0.170516 64 236 211
0.0820802 -0.486155 -0.278956 64 236 211
-0.116995 -0.474877 0.385549 64 236 211
-0.00587865 -0.48647 -0.325318 64 236 211
-0.187656 -0.486113 -0.0543534 64 236 211
0.245051 -0.479059 0.174333 64 236 211
-0.0632442 -0.486355 0.120983 64 236 211
0.0307421 -0.486478 -0.337553 64 236 211
-0.234004 -0.486282 -0.209437 64 236 211
0.244129 -0.484938 -0.213374 64 236 211
-0.221847 -0.486106 -0.0775893 64 236 211
-0.355393 -0.486142 0.0228061 64 236 211
0.0288798 -0.48516 0.120556 64 236 211
-0.00536674 -0.486153 -0.111112 64 236 211
-0.00628217 -0.486097 0.106295 64 236 211
0.0122628 -0.48615 -0.10863 64 236 211
-0.131479 -0.486148 -0.194254 64 236 211
-0.0196574 -0.486243 -0.280791 64 236 211
-0.136929 -0.486664 -0.32003 64 236 211
0.165937 -0.485656 -0.0986246 64 236 211
0.0383813 -0.48592 0.0370226 64 236 211
-0.124863 -0.486174 -0.141835 64 236 211
-0.2963 -0.486144 -0.0365579 64 236 211
0.129026 -0.48575 -0.06332 64 236 211
0.252744 -0.485011 -0.0223078 64 236 211
0.0282795 -0.486048 -0.226715 64 236 211
0.0960239 -0.485871 -0.0692025 64 236 211
-0.320866 -0.486215 0.0325424 64 236 211
0.272033 -0.484708 0.0249622 64 236 211
-0.262108 -0.486234 -0.160082 64 236 211
0.100059 -0.486034 -0.254289 64 236 211
0.252927 -0.485271 0.0489806 64 236 211
0.162756 -0.48519 0.0646368 64 236 211
-0.00822847 -0.486139 -0.19912 64 236 211
0.0994856 -0.485928 -0.146298 64 236 211
-0.0743502 -0.486181 -0.0920111 64 236 211
0.147226 -0.48488 0.0824961 64 236 211
0.184665 -0.485747 0.0532137 64 236 211
-0.0395024 -0.48614 -0.15723 64 236 211
0.243468 -0.479178 0.172638 64 236 211
-0.0276893 -0.486208 0.106022 64 236 211
-0.0131468 -0.47424 0.343 64 236 211
0.169594 -0.48544 -0.0241486 64 236 211
-0.0926056 -0.486161 -0.189422 64 236 211
-0.00029766 -0.486532 -0.33618 64 236 211
-0.0937921 -0.486178 -0.141123 64 236 211
0.245172 -0.484879 0.0212965 64 236 211
-0.127519 -0.48656 0.172405 64 236 211
-0.309474 -0.486175 0.201747 64 236 211
-0.0452576 -0.48623 -0.261959 64 236 211
0.114202 -0.48587 -0.184758 64 236 211
-0.111548 -0.486298 0.0587673 64 236 211
-0.273118 -0.486293 0.0553395 64 236 211
-0.00275396 -0.486094 -0.218788 64 236 211
0.0115472 -0.486139 -0.0960168 64 236 211
0.24478 -0.484942 -0.215766 64 236 211
-0.094726 -0.486586 -0.3187 64 236 211
-0.227209 -0.486507 0.109019 64 236 211
-0.0987142 -0.486161 -0.00641953 64 236 211
0.132573 -0.484996 0.0836315 64 236 211
-0.12386 -0.486194 -0.090765 64 236 211
-0.244708 -0.486496 0.14014 64 236 211
-0.324331 -0.486152 -0.11868 64 236 211
-0.0604935 -0.486572 -0.322654 64 236 211
0.12117 -0.485539 0.0287327 64 236 211
-0.187837 -0.486132 -0.0902816 64 236 211
-0.383446 -0.486152 0.0765303 64 236 211
0.100984 -0.485923 -0.128238 64 236 211
0.0792084 -0.486252 -0.297092 64 236 211
-0.0245996 -0.486043 0.0529409 64 236 211
-0.0376375 -0.48607 -0.0087328 64 236 211
0.227756 -0.485327 -0.106616 64 236 211
0.265117 -0.483844 0.0790719 64 236 211
-0.18645 -0.48655 -0.289338 64 236 211
0.126661 -0.485819 -0.165503 64 236 211
0.0437664 -0.486055 -0.0743603 64 236 211
0.174656 -0.485425 -0.0272092 64 236 211
-0.218103 -0.48648 0.153665 64 236 211
0.0507466 -0.486436 -0.33248 64 236 211
-0.142525 -0.486143 -0.194862 64 236 211
-0.0624816 -0.486535 -0.315947 64 236 211
-0.0826579 -0.486129 -0.0328684 64 236 211
0.128602 -0.485889 -0.239812 64 236 211
0.00494834 -0.486142 -0.275007 64 236 211
-0.249094 -0.48625 -0.177151 64 236 211
0.249902 -0.484856 -0.209176 64 236 211
-0.169037 -0.486277 0.0230367 64 236 211
0.0265036 -0.473294 0.33744 64 236 211
0.0123908 -0.4861 -0.198297 64 236 211
0.19089 -0.485555 -0.139712 64 236 211
-0.18934 -0.48638 0.0588409 64 236 211
-0.0111956 -0.486331 -0.298867 64 236 211
-0.024361 -0.486534 -0.329454 64 236 211
-0.0679872 -0.486254 -0.261825 64 236 211
0.183144 -0.485501 -0.223791 64 236 211
0.223089 -0.485161 -0.172165 64 236 211
-0.131012 -0.486656 -0.319823 64 236 211
0.0133095 -0.480985 0.206584 64 236 211
-0.17622 -0.486142 -0.0989546 64 236 211
0.0741115 -0.485965 -0.0717183 64 236 211
-0.0649352 -0.486126 -0.0443775 64 236 211
0.0175123 -0.486036 -0.251233 64 236 211
0.036731 -0.486075 -0.142087 64 236 211
-0.0464624 -0.486143 -0.148895 64 236 211
-0.226233 -0.486093 -0.0667408 64 236 211
-0.0162582 -0.486136 -0.212252 64 236 211
-0.167267 -0.486409 0.101906 64 236 211
-0.097499 -0.486324 -0.267814 64 236 211
0.255235 -0.48511 -0.0704375 64 236 211
-0.110665 -0.486139 -0.0323503 64 236 211
-0.0696301 -0.486526 -0.312037 64 236 211
0.208083 -0.485276 -0.194877 64 236 211
-0.0878103 -0.484685 0.191368 64 236 211
-0.168782 -0.486597 -0.299208 64 236 211
-0.326776 -0.486187 0.0192662 64 236 211
0.0587949 -0.485873 0.00152939 64 236 211
0.125715 -0.485852 -0.209333 64 236 211
0.121734 -0.486323 -0.308388 64 236 211
-0.0339244 -0.472927 0.369023 64 236 211
-0.20176 -0.486116 -0.0385383 64 236 211
-0.156205 -0.486151 -0.127917 64 236 211
0.128336 -0.47909 0.207359 64 236 211
0.154033 -0.485707 -0.169392 64 236 211
-0.165688 -0.486159 -0.118833 64 236 211
0.0256454 -0.486068 -0.0657303 64 236 211
0.132237 -0.485974 0.0525503 64 236 211
-0.236979 -0.486234 -0.164502 64 236 211
-0.114459 -0.486188 0.00167042 64 236 211
-0.149296 -0.486361 0.104714 64 236 211
-0.125476 -0.486587 -0.308501 64 236 211
-0.191572 -0.486301 0.0292723 64 236 211
-0.106179 -0.486164 -0.00884263 64 236 211
-0.262059 -0.486248 0.237751 64 236 211
0.0895255 -0.486358 -0.315302 64 236 211
-0.198951 -0.486138 0.259597 64 236 211
0.0257667 -0.486074 -0.0685962 64 236 211
-0.0551713 -0.486681 -0.344574 64 236 211
-0.0827584 -0.486635 -0.334171 64 236 211
-0.0687895 -0.485409 0.159127 64 236 211
-0.115243 -0.486198 0.00604998 64 236 211
0.0980824 -0.485931 -0.121907 64 236 211
-0.210767 -0.486329 0.0401663 64 236 211
-0.208726 -0.486526 0.12113 64 236 211
0.012118 -0.486502 -0.33527 64 236 211
-0.27573 -0.486409 0.103018 64 236 211
-0.196257 -0.486431 0.0837695 64 236 211
-0.2719 -0.486195 0.0113346 64 236 211
0.154622 -0.485698 -0.192203 64 236 211
0.0328943 -0.486049 -0.228594 64 236 211
-0.101229 -0.486198 -0.0986144 64 236 211
-0.257128 -0.486296 -0.214699 64 236 211
0.274733 -0.48476 0.00714879 64 236 211
-0.270782 -0.486179 -0.0948101 64 236 211
0.00876247 -0.485971 0.0978067 64 236 211
-0.0901495 -0.486184 -0.0797012 64 236 211
0.0978258 -0.472432 0.322197 64 236 211
-0.0952377 -0.48615 -0.0503554 64 236 211
-0.230581 -0.486151 -0.0961592 64 236 211
-0.00662731 -0.486155 -0.113285 64 236 211
-0.280373 -0.486136 -0.0283174 64 236 211
-0.33294 -0.486124 -0.111335 64 236 211
0.058224 -0.48581 0.0626761 64 236 211
-0.0216687 -0.486454 -0.317811 64 236 211
0.122944 -0.485677 -0.0337448 64 236 211
-0.127607 -0.486206 -0.112573 64 236 211
-0.229983 -0.486088 0.266703 64 236 211
-0.221508 -0.486524 -0.279194 64 236 211
0.00260808 -0.485987 -0.00970612 64 236 211
-0.0122329 -0.486326 -0.29753 64 236 211
0.13799 -0.4857 -0.0565427 64 236 211
0.0937595 -0.486064 -0.257328 64 236 211
-0.0425419 -0.48616 -0.242952 64 236 211
0.0645081 -0.486053 -0.241152 64 236 211
-0.381376 -0.486225 0.154275 64 236 211
-0.0594974 -0.486486 -0.307859 64 236 211
-0.174999 -0.486263 0.184284 64 236 211
0.0382293 -0.486081 -0.191534 64 236 211
-0.120667 -0.48638 -0.277914 64 236 211
0.14308 -0.486147 -0.296389 64 236 211
-0.147798 -0.486385 -0.269679 64 236 211
-0.00678504 -0.486128 -0.1492 64 236 211
0.0277394 -0.486439 -0.331741 64 236 211
-0.105174 -0.485444 0.192937 64 236 211
-0.160058 -0.486701 -0.32678 64 236 211
0.166643 -0.48531 0.0269095 64 236 211
-0.0253497 -0.486655 -0.348083 64 236 211
-0.16577 -0.486145 -0.172031 64 236 211
0.0510058 -0.486069 -0.190819 64 236 211
0.0103766 -0.486044 -0.238321 64 236 211
-0.170748 -0.486344 -0.252463 64 236 211
0.0599729 -0.48605 -0.124369 64 236 211
-0.247957 -0.486215 -0.143992 64 236 211
-0.0160014 -0.486153 -0.261178 64 236 211
-0.0762569 -0.486091 0.138087 64 236 211
0.0366384 -0.486047 -0.0655894 64 236 211
0.101386 -0.485913 -0.107206 64 236 211
-0.083673 -0.484411 0.191685 64 236 211
0.0234946 -0.486089 -0.1953 64 236 211
-0.25718 -0.486122 -0.0408502 64 236 211
-0.194308 -0.486153 -0.180725 64 236 211
-0.209283 -0.4863 -0.23034 64 236 211
0.0345284 -0.486079 -0.159175 64 236 211
-0.0491175 -0.486133 0.056506 64 236 211
0.104695 -0.486007 -0.248661 64 236 211
0.159164 -0.485697 -0.106205 64 236 211
0.0281905 -0.486075 -0.148558 64 236 211
0.0250189 -0.486211 -0.290273 64 236 211
-0.329805 -0.486209 0.035068 64 236 211
0.219323 -0.484978 0.0356005 64 236 211
0.268527 -0.484991 -0.066194 64 236 211
-0.192562 -0.486203 0.217011 64 236 211
-0.028714 -0.486061 0.0190504 64 236 211
0.219085 -0.485289 -0.232831 64 236 211
0.0192099 -0.486432 -0.328346 64 236 211
0.0601749 -0.485778 0.0747634 64 236 211
-0.143443 -0.486214 -0.00269549 64 236 211
-0.011271 -0.486155 -0.267835 64 236 211
-0.00748758 -0.478759 0.25901 64 236 211
0.282027 -0.484824 -0.0847749 64 236 211
-0.146235 -0.483851 0.269784 64 236 211
0.0543656 -0.48605 -0.203382 64 236 211
0.08346 -0.486057 -0.240724 64 236 211
-0.0672932 -0.486312 0.134659 64 236 211
-0.0879788 -0.486346 -0.274371 64 236 211
-0.111587 -0.486178 -0.070672 64 236 211
0.00109816 -0.486125 -0.158971 64 236 211
-0.156519 -0.486345 0.0603382 64 236 211
0.130371 -0.472138 0.316346 64 236 211
0.0578664 -0.486059 -0.250699 64 236 211
0.0524943 -0.486403 -0.32656 64 236 211
-0.0240682 -0.485968 0.0960427 64 236 211
-0.0694659 -0.486168 -0.184634 64 236 211
-0.181958 -0.486302 0.178274 64 236 211
0.128579 -0.485819 -0.194736 64 236 211
-0.257779 -0.4862 0.00654801 64 236 211
-0.341335 -0.486111 -0.0439094 64 236 211
0.193866 -0.485207 0.00908222 64 236 211
0.25624 -0.485102 -0.0524415 64 236 211
0.129201 -0.48581 -0.157793 64 236 211
-0.149478 -0.486343 -0.262026 64 236 211
-0.0748814 -0.485997 0.13476 64 236 211
-0.0907003 -0.486604 -0.325466 64 236 211
0.217757 -0.485304 -0.233966 64 236 211
0.24653 -0.484866 -0.171288 64 236 211
-0.00774057 -0.472825 0.358382 64 236 211
0.121188 -0.485663 -0.0280079 64 236 211
-0.15417 -0.486358 0.0678753 64 236 211
0.119231 -0.485909 -0.224927 64 236 211
-0.0215859 -0.486155 -0.188995 64 236 211
0.0170394 -0.486135 -0.10081 64 236 211
0.00503393 -0.485926 0.0865175 64 236 211
0.0136329 -0.485974 0.00585287 64 236 211
0.155782 -0.485728 -0.228589 64 236 211
0.212862 -0.485419 -0.102907 64 236 211
-0.157247 -0.486432 -0.272652 64 236 211
0.0726145 -0.48606 -0.24788 64 236 211
0.0579116 -0.486257 -0.299719 64 236 211
-0.241781 -0.486265 0.0404833 64 236 211
-0.00581731 -0.486329 0.103062 64 236 211
0.0328706 -0.485993 -0.0390786 64 236 211
-0.257248 -0.48641 0.0989392 64 236 211
-0.0552658 -0.486149 -0.161657 64 236 211
0.104218 -0.48599 -0.232927 64 236 211
-0.190188 -0.48648 0.132814 64 236 211
-0.161857 -0.486157 -0.103678 64 236 211
-0.0678037 -0.486164 -0.241711 64 236 211
-0.0971227 -0.486206 0.0184593 64 236 211
-0.318441 -0.486148 -0.0245663 64 236 211
0.0161105 -0.486086 -0.0675062 64 236 211
-0.0890979 -0.4862 -0.246034 64 236 211
-0.356942 -0.486243 0.107881 64 236 211
-0.0870287 -0.486201 -0.109279 64 236 211
-0.284071 -0.486184 0.00432369 64 236 211
-0.164367 -0.486283 -0.245127 64 236 211
-0.193833 -0.486636 -0.303874 64 236 211
0.157023 -0.485689 -0.180409 64 236 211
-0.192738 -0.486463 0.0954761 64 236 211
0.106247 -0.485908 -0.160729 64 236 211
-0.271322 -0.486249 0.0373473 64 236 211
-0.169438 -0.486146 -0.148066 64 236 211
-0.26627 -0.486284 -0.20823 64 236 211
0.062374 -0.486164 -0.28288 64 236 211
0.0446034 -0.486157 -0.281443 64 236 211
0.0742948 -0.486054 -0.239796 64 236 211
0.115154 -0.485853 -0.0862513 64 236 211
0.219861 -0.485189 -0.0247502 64 236 211
0.184044 -0.476261 0.250131 64 236 211
-0.00230877 -0.486083 -0.225654 64 236 211
-0.18493 -0.486329 0.0374634 64 236 211
0.0421093 -0.486052 -0.248985 64 236 211
0.0858195 -0.485969 -0.0986509 64 236 211
-0.121331 -0.480324 0.304245 64 236 211
0.0540864 -0.485859 0.0445629 64 236 211
-0.053942 -0.48508 0.160224 64 236 211
0.147067 -0.485792 -0.234959 64 236 211
-0.187615 -0.486206 0.212046 64 236 211
0.137707 -0.483356 0.118831 64 236 211
0.024784 -0.486515 -0.341799 64 236 211
0.0893219 -0.485699 0.0131873 64 236 211
0.041614 -0.486076 -0.130296 64 236 211
0.158089 -0.477745 0.227181 64 236 211
0.095485 -0.485888 -0.0745684 64 236 211
-0.190718 -0.482181 0.348664 64 236 211
