ply
format ascii 1.0
comment Created by Open3D
element vertex 1155
property double x
property double y
property double z
property uchar red
property uchar green
property uchar blue
end_header
0.0889087 -0.23505 -0.262289 192 234 140
0.059028 -0.470957 -0.26365 192 234 140
0.321981 -0.43564 -0.200673 192 234 140
-0.027301 -0.0876058 -0.259263 192 234 140
-0.0984785 -0.273966 -0.261361 192 234 140
-0.109224 -0.410438 -0.264067 192 234 140
-0.042704 -0.185425 -0.260647 192 234 140
0.237127 -0.0750232 -0.257196 192 234 140
-0.0245667 -0.371388 -0.265668 192 234 140
-0.0534556 -0.431331 -0.26458 192 234 140
0.0676235 -0.180179 -0.261692 192 234 140
0.296829 -0.398118 -0.235824 192 234 140
0.301273 -0.474395 -0.238738 192 234 140
-0.0223434 -0.489322 -0.265788 192 234 140
0.172408 -0.024182 -0.259707 192 234 140
-0.0597811 -0.0330218 -0.259402 192 234 140
-0.220048 -0.429074 -0.263293 192 234 140
-0.033822 -0.0682982 -0.258964 192 234 140
0.209282 -0.152844 -0.256419 192 234 140
0.324373 -0.430845 -0.120508 192 234 140
0.162011 -0.261051 -0.258845 192 234 140
-0.167906 5.24223e-05 -0.258711 192 234 140
-0.193622 -0.454354 -0.267935 192 234 140
0.235134 -0.122531 -0.256848 192 234 140
0.0378389 -0.147346 -0.26118 192 234 140
-0.0599515 -0.0269421 -0.259545 192 234 140
0.312612 -0.335416 -0.231199 192 234 140
0.150049 -0.189672 -0.260473 192 234 140
0.276407 -0.330627 -0.244903 192 234 140
0.298552 0.0400803 -0.254657 192 234 140
0.170967 -0.165499 -0.259038 192 234 140
0.205216 -0.0835285 -0.258084 192 234 140
0.315489 0.00796921 -0.109638 192 234 140
0.0980143 -0.464094 -0.262328 192 234 140
0.226289 -0.231057 -0.254741 192 234 140
0.294117 -0.300914 -0.241113 192 234 140
0.319221 0.0027936 -0.18944 192 234 140
0.325719 -0.256512 -0.193085 192 234 140
-0.159615 -0.471048 -0.270825 192 234 140
0.321398 -0.0611359 -0.120753 192 234 140
0.325903 -0.215913 -0.0907947 192 234 140
0.082451 -0.0714749 -0.261751 192 234 140
0.193092 -0.0289773 -0.258392 192 234 140
0.138236 -0.148299 -0.261074 192 234 140
-0.302285 -0.475522 -0.211024 192 234 140
0.229617 -0.288863 -0.252275 192 234 140
0.270495 -0.420601 -0.243166 192 234 140
0.328795 -0.364242 -0.102007 192 234 140
0.203601 -0.123974 -0.257638 192 234 140
-0.00204972 0.0289812 -0.256228 192 234 140
0.170889 -0.0384111 -0.25976 192 234 140
0.315544 0.0075903 -0.113046 192 234 140
-0.119972 -0.485183 -0.270263 192 234 140
0.00980668 -0.413723 -0.265153 192 234 140
0.267844 0.0380184 -0.254706 192 234 140
0.328876 -0.350988 -0.0976766 192 234 140
0.105396 -0.164179 -0.261497 192 234 140
-0.146516 -0.388536 -0.263849 192 234 140
-0.169921 -0.0500665 -0.259531 192 234 140
0.188693 -0.10348 -0.258704 192 234 140
-0.125956 -0.187803 -0.259205 192 234 140
0.325887 -0.276252 -0.0491669 192 234 140
0.161176 -0.411153 -0.257773 192 234 140
0.327676 -0.228619 -0.149345 192 234 140
-0.117548 -0.407374 -0.255535 224 210 119
-0.27802 -0.302654 -0.262402 224 210 119
-0.0866645 -0.17155 -0.255082 224 210 119
-0.122288 -0.313127 -0.256025 224 210 119
-0.0954671 -0.205126 -0.254848 224 210 119
-0.196408 -0.320659 -0.2679 224 210 119
-0.358134 -0.0143142 -0.260262 224 210 119
0.0585755 0.041458 -0.265561 224 210 119
-0.22333 -0.172197 -0.25511 224 210 119
-0.123838 -0.398777 -0.25561 224 210 119
-0.067889 -0.306193 -0.254896 224 210 119
-0.164486 -0.0865276 -0.256206 224 210 119
-0.176972 -0.364021 -0.257985 224 210 119
-0.261992 -0.18088 -0.253161 224 210 119
-0.0745009 -0.402754 -0.255493 224 210 119
-0.197732 -0.00295474 -0.251298 224 210 119
-0.362126 -0.282876 -0.248945 224 210 119
-0.0732273 -0.376372 -0.254925 224 210 119
-0.0536889 -0.0803696 -0.254925 224 210 119
-0.396699 -0.28607 -0.251835 224 210 119
0.0763017 -0.00400771 -0.263447 224 210 119
-0.0877067 -0.278093 -0.254015 224 210 119
-0.26762 -0.275977 -0.257294 224 210 119
-0.397749 -0.133854 -0.25722 224 210 119
-0.0572425 -0.387995 -0.255518 224 210 119
-0.111023 -0.0780839 -0.256829 224 210 119
-0.126228 -0.0636338 -0.25682 224 210 119
-0.30882 -0.0567287 -0.248044 224 210 119
-0.270863 -0.347657 -0.253568 224 210 119
-0.383338 -0.0424205 -0.253339 224 210 119
-0.0787285 -0.0504862 -0.256188 224 210 119
-0.413143 -0.0969227 -0.257541 224 210 119
-0.406337 -0.105216 -0.252813 224 210 119
-0.353985 0.0203231 -0.254157 224 210 119
-0.424811 -0.335325 -0.257404 224 210 119
-0.375883 -0.372699 -0.249536 224 210 119
-0.127267 -0.0093947 -0.250793 224 210 119
-0.181849 -0.134316 -0.256435 224 210 119
-0.257243 -0.241593 -0.254244 224 210 119
-0.425151 -0.0566738 -0.255808 224 210 119
-0.292652 -0.350455 -0.250807 224 210 119
-0.0628684 0.0455953 -0.259115 224 210 119
-0.401555 -0.0627574 -0.258656 224 210 119
-0.0421096 -0.0686454 -0.254605 224 210 119
-0.318204 -0.10616 -0.249874 224 210 119
-0.107017 -0.153005 -0.255474 224 210 119
-0.256573 -0.355212 -0.255444 224 210 119
-0.166549 -0.299805 -0.257658 224 210 119
-0.42099 -0.0450299 -0.255919 224 210 119
-0.394783 -0.181582 -0.251198 224 210 119
-0.290981 -0.352476 -0.250971 224 210 119
-0.113235 -0.393988 -0.255418 224 210 119
-0.368361 -0.0571199 -0.261904 224 210 119
-0.152751 -0.353607 -0.258024 224 210 119
-0.0557121 0.00230306 -0.258229 224 210 119
-0.336627 -0.418689 -0.251133 224 210 119
-0.307662 -0.295155 -0.25039 224 210 119
-0.100121 -0.226346 -0.254969 224 210 119
-0.37509 -0.113245 -0.262222 224 210 119
-0.454641 -0.292514 -0.258531 224 210 119
-0.234413 -0.419451 -0.254864 224 210 119
-0.295847 -0.364863 -0.251283 224 210 119
-0.355597 -0.135793 -0.250147 224 210 119
-0.336777 -0.330984 -0.249232 224 210 119
-0.311132 -0.0435694 -0.247635 224 210 119
-0.281081 -0.0328516 -0.24772 224 210 119
-0.0659544 -0.313346 -0.255004 224 210 119
0.00790877 -0.0877342 -0.261805 224 210 119
-0.419253 -0.167011 -0.252567 224 210 119
-0.154775 -0.324887 -0.257937 224 210 119
-0.0892679 -0.181432 -0.255136 224 210 119
-0.159283 0.0182388 -0.249505 224 210 119
-0.263081 -0.31581 -0.25409 224 210 119
-0.4165 -0.427814 -0.256082 224 210 119
-0.420382 -0.151247 -0.252825 224 210 119
-0.340407 -0.473247 -0.252174 224 210 119
-0.0925654 -0.268066 -0.254292 224 210 119
-0.433229 -0.477552 -0.261236 224 210 119
-0.389856 -0.368783 -0.251177 224 210 119
-0.325718 -0.31704 -0.261308 224 210 119
0.0118182 -0.453816 -0.256173 224 210 119
-0.0195668 -0.144345 -0.254906 224 210 119
-0.416535 -0.0285335 -0.25615 224 210 119
-0.162583 -0.281231 -0.257155 224 210 119
-0.0485454 -0.470548 -0.256839 224 210 119
-0.459646 -0.0551957 -0.254767 224 210 119
0.0580037 -0.155007 -0.259929 224 210 119
0.0660087 -0.124499 -0.259424 224 210 119
-0.443923 0.0174341 -0.257491 224 210 119
-0.289923 -0.326494 -0.264316 224 210 119
-0.148691 -0.346824 -0.257653 224 210 119
-0.221542 -0.0921284 -0.254243 224 210 119
-0.207567 -0.379612 -0.275841 224 210 119
-0.363121 -0.350341 -0.248284 224 210 119
-0.297506 -0.0785779 -0.265163 224 210 119
-0.326495 -0.20867 -0.249183 224 210 119
-0.305291 -0.17522 -0.259081 224 210 119
-0.0737466 -0.13023 -0.255406 224 210 119
-0.24774 -0.45332 -0.255102 224 210 119
-0.471177 -0.135581 -0.253639 224 210 119
-0.214557 0.0300597 -0.249996 224 210 119
0.00632754 -0.0565101 -0.256699 224 210 119
-0.25359 -0.0364136 -0.248573 224 210 119
-0.126105 -0.464199 -0.256354 224 210 119
-0.115286 -0.399265 -0.255455 224 210 119
-0.368588 -0.294179 -0.249202 224 210 119
-0.342974 0.0291458 -0.25274 224 210 119
-0.359902 -0.0645558 -0.263427 224 210 119
-0.0538416 -0.204194 -0.255476 224 210 119
-0.229352 -0.277064 -0.260617 224 210 119
-0.421419 -0.0783163 -0.255165 224 210 119
0.0438792 -0.0319665 -0.260432 224 210 119
-0.132253 -0.237301 -0.256671 224 210 119
-0.243812 -0.302254 -0.25489 224 210 119
-0.187552 -0.20481 -0.256602 224 210 119
-0.452175 -0.296618 -0.25845 224 210 119
-0.305974 -0.301866 -0.250464 224 210 119
0.0950247 -0.272604 -0.258777 224 210 119
0.0607314 -0.24979 -0.258733 224 210 119
-0.121032 -0.284857 -0.256004 224 210 119
-0.346085 -0.0523152 -0.249987 224 210 119
-0.277181 -0.190971 -0.264033 224 210 119
-0.438029 -0.0269189 -0.256048 224 210 119
-0.466027 -0.110064 -0.254239 224 210 119
-0.156431 -0.249896 -0.257113 224 210 119
-0.344225 -0.337422 -0.261322 224 210 119
-0.145766 -0.346725 -0.257365 224 210 119
0.100931 -0.191153 -0.259136 224 210 119
-0.0984209 -0.0751425 -0.254023 224 210 119
-0.0927214 -0.31778 -0.254295 224 210 119
-0.0794246 0.0188789 -0.258407 224 210 119
-0.115649 -0.135221 -0.255976 224 210 119
-0.188791 -0.221277 -0.256692 224 210 119
0.0347311 -0.305414 -0.258673 224 210 119
-0.351946 -0.202258 -0.249498 224 210 119
-0.25316 -0.234621 -0.254404 224 210 119
-0.161236 -0.0821772 -0.253424 224 210 119
-0.0489678 -0.00719463 -0.257854 224 210 119
-0.061312 -0.345848 -0.255158 224 210 119
-0.334315 -0.158684 -0.249625 224 210 119
-0.214398 -0.22309 -0.255624 224 210 119
-0.24717 -0.328199 -0.25523 224 210 119
-0.424974 -0.228755 -0.254043 224 210 119
-0.360912 -0.120898 -0.26191 224 210 119
-0.131621 -0.35458 -0.256254 224 210 119
-0.0463194 -0.429924 -0.25604 224 210 119
-0.153223 -0.388648 -0.257806 224 210 119
-0.428428 -0.459248 -0.259457 224 210 119
-0.189482 -0.216367 -0.256707 224 210 119
-0.218734 0.0166755 -0.245893 224 210 119
0.0644611 -0.0104028 -0.262899 224 210 119
-0.301225 -0.0718502 -0.248959 224 210 119
-0.281623 -0.39809 -0.263013 224 210 119
-0.424233 -0.436604 -0.257925 224 210 119
0.0649905 -0.166905 -0.259814 224 210 119
-0.174071 -0.200566 -0.271062 224 210 119
-0.369227 0.0249622 -0.254906 224 210 119
-0.314166 -0.250874 -0.250081 224 210 119
-0.175558 -0.160879 -0.256498 224 210 119
-0.259392 -0.0506818 -0.24939 224 210 119
-0.264175 -0.0193091 -0.247687 224 210 119
-0.320607 -0.31175 -0.261538 224 210 119
-0.312428 -0.305511 -0.250013 224 210 119
-0.0743979 -0.427366 -0.255561 224 210 119
-0.345103 -0.314443 -0.249011 224 210 119
0.146056 0.0066904 -0.264295 224 210 119
-0.220998 -0.34034 -0.268575 224 210 119
0.0156847 -0.20958 -0.258507 224 210 119
-0.286821 -0.331412 -0.251264 224 210 119
-0.269762 -0.14038 -0.251855 224 210 119
-0.130418 -0.409481 -0.2557 224 210 119
-0.380577 0.0357796 -0.256493 224 210 119
0.00557158 -0.382991 -0.256663 224 210 119
-0.174146 -0.295268 -0.257309 224 210 119
-0.405224 -0.114496 -0.252224 224 210 119
-0.163776 0.0210568 -0.253501 224 210 119
-0.370388 -0.478824 -0.253276 224 210 119
-0.181388 -0.198446 -0.271118 224 210 119
-0.00756732 -0.252244 -0.255971 224 210 119
-0.335545 0.0293171 -0.252637 224 210 119
-0.278971 -0.316253 -0.251979 224 210 119
-0.409955 -0.440948 -0.254974 224 210 119
-0.205606 -0.105541 -0.255805 224 210 119
-0.0061439 -0.0378468 -0.256138 224 210 119
-0.13058 -0.192759 -0.256726 224 210 119
-0.408244 -0.0877977 -0.258826 224 210 119
-0.456668 -0.385535 -0.261974 224 210 119
-0.318393 -0.390392 -0.265685 224 210 119
0.110996 -0.175475 -0.259552 224 210 119
-0.114078 -0.369378 -0.25495 224 210 119
0.0369848 -0.101027 -0.259289 224 210 119
0.0386697 0.0177284 -0.263089 224 210 119
-0.0717742 -0.456054 -0.255905 224 210 119
-0.209194 -0.0792326 -0.254821 224 210 119
0.0329184 -0.308432 -0.258665 224 210 119
-0.255134 -0.140425 -0.265199 224 210 119
-0.177879 -0.056311 -0.255179 224 210 119
-0.198148 0.0331028 -0.246862 224 210 119
-0.209979 -0.350513 -0.256564 224 210 119
-0.175542 -0.282364 -0.258681 224 210 119
0.0703349 0.0225897 -0.259169 224 210 119
-0.393984 -0.100107 -0.25209 224 210 119
-0.0852445 0.0476095 -0.257421 224 210 119
-0.199679 -0.152396 -0.256018 224 210 119
-0.286907 -0.0478772 -0.256543 224 210 119
-0.25192 -0.32702 -0.255191 224 210 119
-0.203391 -0.446808 -0.256024 224 210 119
-0.288504 -0.110388 -0.250433 224 210 119
-0.0224763 -0.398834 -0.256843 224 210 119
-0.242291 -0.192013 -0.267548 224 210 119
-0.214546 -0.38975 -0.255983 224 210 119
-0.307535 -0.310912 -0.250285 224 210 119
-0.209682 -0.117619 -0.255573 224 210 119
-0.178712 -0.359466 -0.257887 224 210 119
-0.132058 -0.054166 -0.256589 224 210 119
-0.340736 -0.201695 -0.255011 224 210 119
-0.438286 0.0426692 -0.258552 224 210 119
-0.323215 -0.365921 -0.249796 224 210 119
-0.232281 -0.302927 -0.255147 224 210 119
-0.124023 -0.330878 -0.255872 224 210 119
-0.270244 -0.41071 -0.253455 224 210 119
-0.237269 -0.0863278 -0.252578 224 210 119
-0.381214 -0.379318 -0.250119 224 210 119
-0.0651112 -0.194075 -0.255019 224 210 119
-0.347413 -0.165445 -0.254269 224 210 119
-0.0984128 -0.470565 -0.256421 224 210 119
-0.262805 -0.258177 -0.253784 224 210 119
-0.335495 -0.188873 -0.24945 224 210 119
-0.248104 -0.089664 -0.252064 224 210 119
-0.377191 -0.130262 -0.250814 224 210 119
-0.413482 -0.127611 -0.255295 224 210 119
-0.438477 0.0522715 -0.25782 224 210 119
-0.00647798 -0.0473929 -0.255769 224 210 119
-0.168221 -0.39797 -0.25785 224 210 119
-0.1844 -0.126616 -0.256318 224 210 119
-0.349866 -0.0580153 -0.262709 224 210 119
-0.0970783 -0.197629 -0.255057 224 210 119
-0.364727 -0.349015 -0.248221 224 210 119
-0.311571 -0.274859 -0.253257 224 210 119
-0.282564 -0.245822 -0.252483 224 210 119
0.0773525 -0.175776 -0.259688 224 210 119
-0.335537 -0.285948 -0.249006 224 210 119
-0.199132 0.020629 -0.24656 224 210 119
-0.394657 -0.305045 -0.253638 224 210 119
-0.377555 -0.461086 -0.252782 224 210 119
-0.0416453 -0.367329 -0.255793 224 210 119
-0.116083 -0.136986 -0.255983 224 210 119
-0.223326 -0.0545342 -0.252019 224 210 119
-0.14329 -0.415272 -0.256334 224 210 119
-0.314925 -0.112075 -0.24992 224 210 119
-0.251608 -0.0428604 -0.249047 224 210 119
-0.298723 -0.343275 -0.250359 224 210 119
-0.436845 -0.0024625 -0.256978 224 210 119
0.110344 -0.0724242 -0.259673 224 210 119
0.0662383 0.000143677 -0.255303 224 210 119
-0.465822 -0.0585936 -0.254691 224 210 119
-0.454671 -0.022915 -0.25564 224 210 119
-0.258656 -0.308878 -0.254328 224 210 119
0.0988653 -0.119944 -0.259573 224 210 119
-0.166964 -0.428162 -0.256946 224 210 119
-0.314231 -0.447924 -0.251323 224 210 119
-0.0632549 -0.120022 -0.254942 224 210 119
-0.251661 -0.362295 -0.255709 224 210 119
-0.31467 -0.291758 -0.249986 224 210 119
-0.278259 0.0214259 -0.249253 224 210 119
-0.0662772 -0.369176 -0.255103 224 210 119
-0.298499 -0.109185 -0.250071 224 210 119
-0.401653 -0.206841 -0.251528 224 210 119
-0.399884 -0.247041 -0.246943 224 210 119
-0.33632 -0.326332 -0.261072 224 210 119
0.129331 -0.0406906 -0.260079 224 210 119
-0.0372137 0.00188756 -0.25817 224 210 119
-0.402361 -0.0630364 -0.254227 224 210 119
-0.193748 -0.424297 -0.256541 224 210 119
-0.305917 -0.110687 -0.249945 224 210 119
-0.399825 -0.112877 -0.251791 224 210 119
0.109564 -0.215017 -0.258964 224 210 119
-0.2087 -0.268474 -0.256011 224 210 119
0.116691 0.0272287 -0.265407 224 210 119
-0.3842 -0.187865 -0.251187 224 210 119
-0.22583 -0.191326 -0.255103 224 210 119
-0.235133 -0.280527 -0.254995 224 210 119
-0.32116 -0.164415 -0.250227 224 210 119
-0.329516 0.00622992 -0.250364 224 210 119
-0.163336 0.0187898 -0.249218 224 210 119
-0.280911 0.043713 -0.249631 224 210 119
-0.419204 -0.474952 -0.257979 224 210 119
-0.186645 -0.0649321 -0.250305 224 210 119
-0.118651 -0.43148 -0.255742 224 210 119
-0.467429 -0.151416 -0.254809 224 210 119
-0.317322 -0.265251 -0.252777 224 210 119
-0.319905 -0.331408 -0.262367 224 210 119
-0.0238212 -0.0457923 -0.255535 224 210 119
-0.328363 -0.183294 -0.249773 224 210 119
-0.0630049 -0.0588137 -0.253946 224 210 119
-0.396462 -0.0928125 -0.252592 224 210 119
-0.17079 -0.223152 -0.257202 224 210 119
-0.328425 -0.378032 -0.250109 224 210 119
-0.311536 -0.367353 -0.250602 224 210 119
-0.439358 -0.301641 -0.257524 224 210 119
-0.131236 -0.0434885 -0.256325 224 210 119
-0.248231 -0.298093 -0.254782 224 210 119
-0.161389 -0.341462 -0.271609 224 210 119
-0.239018 -0.0847553 -0.260266 224 210 119
-0.374787 -0.404367 -0.250359 224 210 119
-0.222893 -0.293419 -0.255452 224 210 119
-0.135605 -0.178377 -0.256547 224 210 119
-0.219881 -0.305881 -0.255564 224 210 119
-0.458987 -0.243954 -0.257088 224 210 119
0.0866716 -0.111975 -0.259476 224 210 119
-0.373352 -0.437037 -0.251568 224 210 119
-0.136498 -0.0322594 -0.24941 224 210 119
-0.165219 -0.225934 -0.27031 224 210 119
-0.38096 -0.398427 -0.250504 224 210 119
-0.412996 -0.0914673 -0.25406 224 210 119
-0.270113 -0.391144 -0.253719 224 210 119
-0.303109 -0.364437 -0.25065 224 210 119
-0.070185 -0.208727 -0.254755 224 210 119
-0.365531 -0.0982609 -0.250827 224 210 119
-0.416042 -0.239521 -0.252992 224 210 119
-0.25135 -0.301999 -0.262984 224 210 119
-0.458071 -0.245176 -0.257033 224 210 119
-0.127283 0.0453489 -0.25659 224 210 119
-0.42602 -0.119127 -0.253748 224 210 119
-0.387831 -0.326576 -0.25065 224 210 119
0.0491798 -0.0751975 -0.259434 224 210 119
-0.369883 -0.313982 -0.24868 224 210 119
-0.362369 -0.144227 -0.250409 224 210 119
-0.421187 -0.0057171 -0.256607 224 210 119
-0.182522 -0.239948 -0.256989 224 210 119
0.0771752 -0.339341 -0.258753 224 210 119
-0.438583 -0.337682 -0.258993 224 210 119
-0.399504 -0.141917 -0.256051 224 210 119
-0.262248 0.0332287 -0.246729 224 210 119
0.0470124 0.0152854 -0.255656 224 210 119
-0.403873 0.0261313 -0.257844 224 210 119
-0.154057 -0.0867192 -0.254358 224 210 119
-0.158373 -0.349955 -0.258157 224 210 119
-0.329682 -0.296071 -0.249232 224 210 119
-0.0511048 0.0418978 -0.259033 224 210 119
-0.407083 -0.16937 -0.252379 224 210 119
-0.101615 -0.345561 -0.254447 224 210 119
-0.0799162 -0.0863687 -0.257297 224 210 119
-0.209725 -0.203261 -0.255722 224 210 119
-0.304156 -0.297628 -0.250612 224 210 119
0.0847668 -0.229858 -0.259072 224 210 119
-0.180609 -0.0661669 -0.255489 224 210 119
0.0758311 -0.306019 -0.258957 224 210 119
-0.347717 -0.260481 -0.248423 224 210 119
-0.116577 -0.451065 -0.25601 224 210 119
-0.304731 -0.395681 -0.250793 224 210 119
-0.0543507 -0.0165302 -0.253657 224 210 119
-0.303304 -0.258845 -0.250963 224 210 119
-0.272306 -0.0594358 -0.249477 224 210 119
-0.101949 -0.138959 -0.255322 224 210 119
-0.279552 -0.429053 -0.243599 224 210 119
-0.299369 -0.340955 -0.250344 224 210 119
-0.300748 -0.391311 -0.250955 224 210 119
-0.0259638 -0.391981 -0.256415 224 210 119
-0.376341 0.0347968 -0.256049 224 210 119
-0.265994 -0.33908 -0.266083 224 210 119
-0.17706 -0.407707 -0.257471 224 210 119
-0.109826 -0.303715 -0.255176 224 210 119
-0.204966 0.0450044 -0.250053 224 210 119
-0.258281 -0.141442 -0.252652 224 210 119
-0.401607 -0.257708 -0.246679 224 210 119
-0.224873 -0.333491 -0.255604 224 210 119
-0.189625 -0.118901 -0.256186 224 210 119
0.0023995 -0.0693151 -0.256547 224 210 119
-0.0457552 -0.388115 -0.255718 224 210 119
-0.430191 -0.15442 -0.253402 224 210 119
0.011807 -0.193961 -0.258405 224 210 119
-0.219404 -0.270263 -0.255331 224 210 119
-0.108036 -0.107129 -0.256054 224 210 119
-0.369711 -0.0252694 -0.252432 224 210 119
-0.0570982 -0.347689 -0.255433 224 210 119
-0.293445 -0.16207 -0.250654 224 210 119
-0.29557 -0.287931 -0.257756 224 210 119
-0.329973 -0.375203 -0.250032 224 210 119
-0.0606777 -0.0557046 -0.255519 224 210 119
-0.293023 -0.135806 -0.250383 224 210 119
-0.221305 0.00770405 -0.245704 224 210 119
-0.447473 -0.384273 -0.260618 224 210 119
-0.262966 -0.449167 -0.231319 224 210 119
-0.287407 -0.075935 -0.263387 224 210 119
-0.376535 -0.309582 -0.255976 224 210 119
-0.120866 -0.244284 -0.256145 224 210 119
-0.195041 -0.370769 -0.274513 224 210 119
-0.146857 -0.0326636 -0.25549 224 210 119
-0.0615126 -0.0350221 -0.256144 224 210 119
-0.469773 -0.00988958 -0.254781 224 210 119
-0.33382 0.044175 -0.252484 224 210 119
-0.260021 -0.149564 -0.264026 224 210 119
-0.155007 -0.401636 -0.257544 224 210 119
-0.152688 -0.47456 -0.256685 224 210 119
0.0796727 -0.153132 -0.259926 224 210 119
-0.0791272 -0.0768677 -0.256135 224 210 119
-0.0325261 -0.437525 -0.256784 224 210 119
-0.217662 -0.358542 -0.271313 224 210 119
-0.414362 -0.251378 -0.253004 224 210 119
-0.301365 -0.197999 -0.251032 224 210 119
-0.0429304 -0.0409188 -0.255157 224 210 119
-0.125409 -0.270609 -0.256335 224 210 119
-0.2079 0.0390736 -0.246399 224 210 119
-0.233619 -0.420144 -0.254878 224 210 119
-0.337805 -0.0367669 -0.260399 224 210 119
-0.174937 -0.0405902 -0.247112 224 210 119
-0.205251 -0.464491 -0.225647 224 210 119
-0.332074 -0.12034 -0.249855 224 210 119
-0.421564 -0.120781 -0.253567 224 210 119
-0.330857 -0.318049 -0.261027 224 210 119
-0.319335 -0.26222 -0.249774 224 210 119
-0.356112 -0.35699 -0.248581 224 210 119
-0.29205 -0.400037 -0.261325 224 210 119
-0.30342 -0.144584 -0.250301 224 210 119
-0.203117 -0.0126487 -0.25121 224 210 119
-0.0815934 -0.0408468 -0.256376 224 210 119
-0.142687 -0.0599515 -0.256425 224 210 119
-0.252988 -0.0413397 -0.248924 224 210 119
0.0229631 -0.351121 -0.25809 224 210 119
-0.044652 0.0100698 -0.256517 224 210 119
-0.299348 -0.460613 -0.252637 224 210 119
-0.208527 -0.129097 -0.265848 224 210 119
-0.231893 -0.0664705 -0.254899 224 210 119
-0.148619 -0.327757 -0.257737 224 210 119
-0.376043 -0.0259864 -0.252918 224 210 119
-0.408981 0.0320671 -0.258513 224 210 119
-0.309347 -0.272429 -0.250423 224 210 119
-0.143156 0.0455566 -0.252912 224 210 119
-0.276342 -0.319111 -0.252313 224 210 119
-0.0244514 -0.215921 -0.255842 224 210 119
-0.426085 -0.0367509 -0.25424 224 210 119
-0.188196 -0.37324 -0.257776 224 210 119
-0.331357 -0.40987 -0.25074 224 210 119
-0.368217 -0.140146 -0.250763 224 210 119
-0.316295 -0.278004 -0.25 224 210 119
-0.317961 -0.0782291 -0.249008 224 210 119
-0.30273 -0.0568481 -0.260733 224 210 119
-0.297184 -0.162876 -0.250495 224 210 119
-0.0336795 0.0402665 -0.256925 224 210 119
-0.134993 0.0204787 -0.255664 224 210 119
0.0667127 -0.293555 -0.25872 224 210 119
-0.292323 -0.29958 -0.251333 224 210 119
-0.311967 0.0108925 -0.249103 224 210 119
-0.14311 -0.191886 -0.257015 224 210 119
-0.301214 -0.137154 -0.250255 224 210 119
-0.398286 -0.383311 -0.252437 224 210 119
-0.295382 -0.133426 -0.250302 224 210 119
0.0332429 -0.350261 -0.258173 224 210 119
-0.445137 -0.470951 -0.26392 224 210 119
-0.34673 -0.130968 -0.249724 224 210 119
-0.287972 -0.371304 -0.251911 224 210 119
0.0170309 -0.439384 -0.256672 224 210 119
-0.458183 -0.109357 -0.25415 224 210 119
-0.30268 -0.0201078 -0.247701 224 210 119
-0.444785 -0.443987 -0.262299 224 210 119
-0.251947 -0.0161209 -0.249339 224 210 119
-0.120186 -0.175848 -0.256077 224 210 119
-0.46499 -0.208372 -0.256268 224 210 119
-0.288022 -0.445558 -0.23269 224 210 119
-0.395907 -0.0546568 -0.258784 224 210 119
-0.457522 0.0246931 -0.256157 224 210 119
0.0382803 0.0393083 -0.256453 224 210 119
-0.345312 -0.131093 -0.249631 224 210 119
-0.282486 -0.310367 -0.251704 224 210 119
-0.247748 -0.13452 -0.253264 224 210 119
0.065469 0.0242522 -0.265423 224 210 119
-0.374791 -0.268278 -0.250016 224 210 119
-0.218026 -0.363499 -0.256259 224 210 119
-0.123779 -0.0885485 -0.255002 224 210 119
-0.401816 -0.131519 -0.251146 224 210 119
-0.422892 -0.198321 -0.25309 224 210 119
-0.110806 -0.281515 -0.255322 224 210 119
-0.131803 -0.159352 -0.256264 224 210 119
-0.0164305 0.0336618 -0.258744 224 210 119
-0.288283 -0.089736 -0.266429 224 210 119
-0.151576 -0.429899 -0.256334 224 210 119
-0.369344 -0.261403 -0.249918 224 210 119
-0.243964 -0.403176 -0.254781 224 210 119
-0.144081 -0.282864 -0.257119 224 210 119
-0.0786068 -0.387043 -0.255189 224 210 119
-0.0627898 -0.114325 -0.254861 224 210 119
-0.205521 -0.358068 -0.256789 224 210 119
-0.0285095 -0.166858 -0.255196 224 210 119
0.0329988 -0.0579067 -0.258787 224 210 119
-0.0946454 -0.292997 -0.254261 224 210 119
-0.0473369 -0.124909 -0.25446 224 210 119
-0.150047 -0.294077 -0.259939 224 210 119
-0.102028 -0.168057 -0.255353 224 210 119
-0.225281 -0.285053 -0.255304 224 210 119
-0.22195 -0.229744 -0.255454 224 210 119
-0.177035 -0.152467 -0.256485 224 210 119
-0.0429549 0.0321191 -0.258901 224 210 119
-0.124381 -0.295532 -0.256202 224 210 119
-0.0809001 -0.267692 -0.253948 224 210 119
-0.0870807 -0.0490745 -0.256519 224 210 119
0.0272809 -0.376288 -0.257679 224 210 119
-0.382141 -0.103084 -0.262501 224 210 119
-0.28631 -0.080537 -0.249893 224 210 119
-0.0128211 -0.331133 -0.257181 224 210 119
-0.00354474 -0.292672 -0.256884 224 210 119
-0.374419 -0.083256 -0.251837 224 210 119
-0.33406 -0.0993354 -0.249669 224 210 119
-0.398963 -0.128259 -0.257938 224 210 119
-0.373601 -0.285226 -0.249672 224 210 119
-0.130362 -0.293302 -0.25672 224 210 119
0.0302464 -0.388689 -0.257185 224 210 119
-0.352266 -0.284186 -0.248596 224 210 119
0.0139425 -0.238904 -0.257966 224 210 119
-0.209905 -0.15623 -0.25575 224 210 119
-0.0677331 -0.28991 -0.25469 224 210 119
-0.212405 -0.0700086 -0.25406 224 210 119
0.305196 -0.417704 -0.207048 255 178 96
-0.331481 -0.487258 -0.0408066 255 178 96
-0.154828 -0.487429 -0.0909012 255 178 96
0.146816 -0.487465 0.0253869 255 178 96
0.0219213 -0.487203 0.0309052 255 178 96
-0.0621145 -0.487328 -0.00945273 255 178 96
0.0862706 -0.339731 -0.209714 255 178 96
-0.0267735 -0.486872 0.0735566 255 178 96
-0.27774 -0.486608 0.100897 255 178 96
-0.118413 -0.487049 0.0385302 255 178 96
-0.271209 -0.486969 0.0314896 255 178 96
-0.355187 -0.487338 -0.0797758 255 178 96
-0.0344066 -0.487433 -0.0824661 255 178 96
-3.01301e-05 -0.487373 -0.00864885 255 178 96
0.170716 -0.487441 0.0473509 255 178 96
0.252999 -0.357852 -0.151493 255 178 96
-0.34696 -0.487219 -0.015421 255 178 96
0.045544 -0.487584 -0.124553 255 178 96
-0.232483 -0.487265 -0.00881069 255 178 96
-0.33861 -0.435183 -0.21916 255 178 96
-0.141621 -0.487412 -0.0768466 255 178 96
0.306494 -0.470018 -0.162955 255 178 96
0.170885 -0.444178 -0.206498 255 178 96
0.268225 -0.487642 -0.116886 255 178 96
-0.318758 -0.394454 -0.223266 255 178 96
0.0506868 -0.486768 0.135928 255 178 96
0.127566 -0.478406 -0.158367 255 178 96
-0.268506 -0.487198 -0.00179781 255 178 96
0.320866 -0.477542 -0.00643353 255 178 96
-0.14153 -0.463782 -0.20444 255 178 96
-0.038489 -0.486941 0.0621788 255 178 96
-0.00299584 -0.4349 -0.209456 255 178 96
-0.114214 -0.4873 -0.011158 255 178 96
-0.0547203 -0.487442 -0.100365 255 178 96
0.303831 -0.487682 -0.0267408 255 178 96
0.0562297 -0.487091 0.0548353 255 178 96
0.0181633 -0.48729 0.0144729 255 178 96
0.0568902 -0.487515 -0.0619124 255 178 96
0.237328 -0.487622 -0.065195 255 178 96
-0.214844 -0.487459 -0.10852 255 178 96
-0.339081 -0.486814 0.0621604 255 178 96
0.0384808 -0.489237 0.111084 255 178 96
-0.0616508 -0.487072 0.0396966 255 178 96
-0.362634 -0.442458 -0.219751 255 178 96
0.195474 -0.487281 0.129899 255 178 96
-0.226199 -0.485437 -0.18363 255 178 96
-0.089464 -0.487217 0.0125202 255 178 96
-0.0447854 -0.489875 0.118098 255 178 96
-0.185581 -0.46519 -0.205275 255 178 96
-0.108095 -0.487057 0.0374158 255 178 96
-0.0984446 -0.486812 0.0797495 255 178 96
-0.154272 -0.451634 -0.208394 255 178 96
-0.323596 -0.486667 0.0811624 255 178 96
-0.0214704 -0.487161 0.0315437 255 178 96
-0.101281 -0.487092 0.0325737 255 178 96
-0.347219 -0.487243 -0.0403235 255 178 96
-0.163055 -0.487072 0.0313858 255 178 96
-0.11344 -0.487489 -0.16717 255 178 96
0.133368 -0.488294 0.00421545 255 178 96
-0.21117 -0.487429 -0.0616691 255 178 96
-0.0695329 -0.487397 -0.0817106 255 178 96
0.0348282 -0.487459 -0.0455456 255 178 96
-0.0425437 -0.48749 -0.146288 255 178 96
-0.274719 -0.486843 0.0522339 255 178 96
0.256417 -0.487585 0.0425846 255 178 96
-0.400419 -0.398428 -0.224136 255 178 96
0.307828 -0.457793 -0.160929 255 178 96
0.177957 -0.487509 0.0268034 255 178 96
0.316005 -0.487664 -0.000970781 255 178 96
-0.310867 -0.405069 -0.222765 255 178 96
-0.212885 -0.48668 0.105225 255 178 96
-0.155957 -0.48684 0.0679689 255 178 96
0.241689 -0.487606 -0.117079 255 178 96
-0.262693 -0.418095 -0.219678 255 178 96
-0.172667 -0.487454 -0.112852 255 178 96
-0.170255 -0.487007 0.0423041 255 178 96
0.280961 -0.487618 0.0394144 255 178 96
-0.216753 -0.443025 -0.212002 255 178 96
0.0267852 -0.486858 0.0870312 255 178 96
-0.245863 -0.445509 -0.212479 255 178 96
-0.224597 -0.487099 0.0167666 255 178 96
0.0977295 -0.486995 0.103879 255 178 96
-0.317274 -0.470734 -0.199267 255 178 96
0.200776 -0.487656 -0.0529024 255 178 96
0.100339 -0.487653 -0.134753 255 178 96
-0.283327 -0.487442 -0.0839659 255 178 96
0.0340339 -0.486999 0.0627077 255 178 96
-0.306889 -0.48718 -0.00603454 255 178 96
-0.378504 -0.487375 -0.0697619 255 178 96
-0.260283 -0.469137 -0.204369 255 178 96
-0.267439 -0.487428 -0.061794 255 178 96
-0.401734 -0.487646 -0.157156 255 178 96
-0.388563 -0.487408 -0.0712848 255 178 96
-0.0446976 -0.447953 -0.207404 255 178 96
-0.0958185 -0.487481 -0.149513 255 178 96
0.242752 -0.360982 -0.186483 255 178 96
-0.0230038 -0.489568 0.0504725 255 178 96
0.117 -0.48751 0.00392064 255 178 96
-0.0392317 -0.486866 0.0749759 255 178 96
0.279648 -0.487348 0.157382 255 178 96
-0.0660786 -0.488814 -0.123875 255 178 96
0.244888 -0.44508 -0.208841 255 178 96
0.290914 -0.487686 0.00280558 255 178 96
0.123852 -0.316047 -0.206122 255 178 96
0.311194 -0.487674 -0.0497625 255 178 96
0.269464 -0.487479 0.084568 255 178 96
0.124188 -0.487576 -0.0353925 255 178 96
0.218991 -0.485108 -0.0613462 255 178 96
-0.209889 -0.453364 -0.20875 255 178 96
-0.244414 -0.424095 -0.217455 255 178 96
-0.142467 -0.487299 -0.0283069 255 178 96
-0.196099 -0.487482 -0.175436 255 178 96
-0.211637 -0.428063 -0.215607 255 178 96
0.0689405 -0.482604 -0.199382 255 178 96
-0.166373 -0.392516 -0.209338 255 178 96
-0.236781 -0.486845 0.0568383 255 178 96
-0.0350832 -0.486947 0.0614565 255 178 96
-0.288791 -0.487473 -0.128121 255 178 96
-0.215159 -0.478747 0.124385 255 178 96
-0.156935 -0.48714 0.0210249 255 178 96
0.30135 -0.48263 -0.155471 255 178 96
-0.109585 -0.486877 0.0665889 255 178 96
-0.254108 -0.487461 -0.117764 255 178 96
-0.386694 -0.472804 -0.196279 255 178 96
0.113736 -0.487659 -0.153203 255 178 96
-0.310058 -0.487223 -0.0153743 255 178 96
0.0687963 -0.441912 -0.205315 255 178 96
-0.349591 -0.487239 -0.034013 255 178 96
0.127814 -0.487649 -0.111638 255 178 96
-0.2505 -0.487476 -0.15296 255 178 96
-0.324505 -0.487185 -0.00770281 255 178 96
-0.271299 -0.487514 -0.171735 255 178 96
0.313793 -0.439634 -0.0777616 255 178 96
0.254785 -0.487659 -0.0382919 255 178 96
0.242453 -0.487608 -0.123379 255 178 96
-0.329559 -0.380811 -0.223382 255 178 96
-0.165265 -0.487283 -0.0235044 255 178 96
-0.158882 -0.484297 -0.198664 255 178 96
0.255004 -0.483681 -0.197482 255 178 96
-0.0533742 -0.486813 0.0869658 255 178 96
0.0591247 -0.43268 -0.206867 255 178 96
-0.167305 -0.487477 -0.177871 255 178 96
-0.0219504 -0.486752 0.103989 255 178 96
-0.0342952 -0.486748 0.102662 255 178 96
-0.108472 -0.487489 -0.172049 255 178 96
-0.348131 -0.487362 -0.0863922 255 178 96
0.162699 -0.487298 0.0882353 255 178 96
0.245099 -0.487611 -0.119573 255 178 96
-0.112457 -0.486606 0.117368 255 178 96
-0.0511629 -0.487372 -0.0542788 255 178 96
0.155194 -0.487515 0.0151101 255 178 96
-0.271702 -0.487469 -0.140139 255 178 96
0.236923 -0.48752 0.0573906 255 178 96
-0.143187 -0.487304 -0.0340813 255 178 96
0.0364801 -0.371722 -0.204106 255 178 96
-0.0316736 -0.487504 -0.159363 255 178 96
0.107396 -0.487409 0.0260183 255 178 96
-0.309977 -0.486839 0.0505959 255 178 96
0.319221 -0.384852 -0.154435 255 178 96
0.247052 -0.386393 -0.206127 255 178 96
-0.285982 -0.486757 0.0658301 255 178 96
0.251186 -0.48763 -0.0862223 255 178 96
0.0158572 -0.447148 -0.206993 255 178 96
-0.0139611 -0.487033 0.051414 255 178 96
-0.280154 -0.486638 0.0947162 255 178 96
-0.384862 -0.487404 -0.0751078 255 178 96
0.29638 -0.487473 0.0974913 255 178 96
-0.386707 -0.487402 -0.0712682 255 178 96
-0.0922439 -0.486742 0.10198 255 178 96
-0.196123 -0.486787 0.0691919 255 178 96
-0.241637 -0.486927 0.0427942 255 178 96
0.2394 -0.487611 -0.144163 255 178 96
0.212178 -0.487608 0.0109525 255 178 96
0.0995813 -0.487654 -0.174847 255 178 96
-0.328798 -0.487297 -0.0530709 255 178 96
-0.0854749 -0.486961 0.054957 255 178 96
-0.369654 -0.419991 -0.225429 255 178 96
-0.0734603 -0.479386 -0.194511 255 178 96
-0.135251 -0.487195 0.0132361 255 178 96
0.002282 -0.368636 -0.205822 255 178 96
0.275576 -0.487588 0.0480804 255 178 96
-0.403615 -0.445678 -0.217959 255 178 96
-0.345659 -0.48747 -0.141547 255 178 96
-0.295684 -0.48744 -0.100165 255 178 96
-0.285841 -0.421011 -0.221272 255 178 96
-0.303566 -0.486797 0.0567291 255 178 96
0.320586 -0.481894 -0.02243 255 178 96
-0.381015 -0.487553 -0.15293 255 178 96
-0.337693 -0.462807 -0.210372 255 178 96
-0.0345084 -0.487087 0.0416202 255 178 96
-0.290194 -0.487261 -0.0169399 255 178 96
-0.247032 -0.470548 -0.203661 255 178 96
-0.070141 -0.487433 -0.0999664 255 178 96
0.221292 -0.434528 -0.206854 255 178 96
-0.343299 -0.487173 0.000278845 255 178 96
0.154621 -0.487237 0.0995627 255 178 96
-0.224119 -0.487015 0.0318805 255 178 96
-0.23837 -0.487375 -0.0343564 255 178 96
-0.349929 -0.487499 -0.155062 255 178 96
0.239466 -0.487398 0.107147 255 178 96
-0.310102 -0.424042 -0.221309 255 178 96
0.177607 -0.487324 0.0954864 255 178 96
0.0534858 -0.487596 -0.130265 255 178 96
-0.000705346 -0.48751 -0.0994065 255 178 96
-0.344241 -0.487187 -0.0034174 255 178 96
0.153927 -0.487203 0.111478 255 178 96
-0.3158 -0.425692 -0.221111 255 178 96
0.291273 -0.48739 0.133953 255 178 96
-0.298213 -0.487433 -0.0946561 255 178 96
0.264264 -0.481038 -0.199652 255 178 96
0.257076 -0.48764 0.0219916 255 178 96
-0.192871 -0.487477 -0.158883 255 178 96
0.0933843 -0.487202 0.0516736 255 178 96
-0.387837 -0.487614 -0.16904 255 178 96
-0.266532 -0.487451 -0.0690658 255 178 96
0.125152 -0.487011 0.165841 255 178 96
0.0287263 -0.487528 -0.0931218 255 178 96
-0.0644873 -0.486705 0.111729 255 178 96
-0.330381 -0.487442 -0.124701 255 178 96
0.0964094 -0.487654 -0.1872 255 178 96
0.270766 -0.487671 -0.0145431 255 178 96
0.0965258 -0.487528 -0.0221645 255 178 96
0.200381 -0.487324 0.116494 255 178 96
0.300196 -0.486301 0.0868563 255 178 96
0.281513 -0.487659 -0.125088 255 178 96
0.294553 -0.350749 -0.191849 255 178 96
0.0396719 -0.487393 0.00171052 255 178 96
0.199819 -0.487601 -0.0274991 255 178 96
-0.144047 -0.48691 0.0600676 255 178 96
-0.201555 -0.375764 -0.211142 255 178 96
-0.0537704 -0.48748 -0.133823 255 178 96
-0.268256 -0.477166 0.115485 255 178 96
0.245247 -0.487615 -0.139304 255 178 96
0.0483898 -0.487453 -0.0226895 255 178 96
-0.340671 -0.487329 -0.0717149 255 178 96
0.0571246 -0.487603 -0.129473 255 178 96
0.27107 -0.487673 0.006233 255 178 96
-0.308904 -0.458664 -0.210415 255 178 96
-0.205826 -0.487443 -0.0836523 255 178 96
-0.284812 -0.48727 -0.0166698 255 178 96
0.225702 -0.487386 0.104821 255 178 96
-0.128398 -0.486768 0.0813363 255 178 96
-0.113572 -0.394852 -0.210938 255 178 96
-0.257019 -0.4873 -0.0141892 255 178 96
-0.252695 -0.487468 -0.131714 255 178 96
0.059136 -0.487332 0.0197952 255 178 96
-0.0760901 -0.439225 -0.208328 255 178 96
-0.269527 -0.487458 -0.106974 255 178 96
-0.376082 -0.487425 -0.0978054 255 178 96
-0.100529 -0.392782 -0.210971 255 178 96
-0.175111 -0.487477 -0.180563 255 178 96
0.0222997 -0.489217 0.0413873 255 178 96
0.0571104 -0.487384 0.0106381 255 178 96
0.206835 -0.487278 0.165964 255 178 96
0.291745 -0.487669 -0.0831244 255 178 96
0.306157 -0.478386 -0.156222 255 178 96
-0.0672271 -0.487383 -0.0752334 255 178 96
0.0734583 -0.48764 -0.179382 255 178 96
-0.354686 -0.487337 -0.0793437 255 178 96
-0.306536 -0.48579 -0.176114 255 178 96
0.0515869 -0.487592 -0.132055 255 178 96
-0.24474 -0.4862 -0.179363 255 178 96
-0.262672 -0.487454 -0.0906806 255 178 96
0.269572 -0.487675 0.00042823 255 178 96
-0.303845 -0.487403 -0.0770216 255 178 96
-0.0695609 -0.48682 0.083885 255 178 96
-0.331813 -0.48697 0.035972 255 178 96
0.0344092 -0.439691 -0.20732 255 178 96
0.0958053 -0.331708 -0.211415 255 178 96
-0.184749 -0.486739 0.0852364 255 178 96
0.251272 -0.487356 0.13846 255 178 96
-0.00392016 -0.487448 -0.0711111 255 178 96
-0.32196 -0.487404 -0.0888327 255 178 96
-0.131643 -0.363626 -0.209523 255 178 96
-0.0397863 -0.47976 0.158785 255 178 96
-0.0263995 -0.48686 0.0758452 255 178 96
-0.346254 -0.472507 -0.19768 255 178 96
0.0886294 -0.487651 -0.195259 255 178 96
-0.291432 -0.474968 0.111408 255 178 96
-0.164388 -0.487459 -0.120965 255 178 96
-0.242965 -0.486728 0.0758175 255 178 96
-0.152485 -0.487057 0.0343975 255 178 96
-0.359259 -0.481674 -0.184756 255 178 96
-0.250562 -0.444398 -0.213189 255 178 96
0.140537 -0.487517 0.0103649 255 178 96
0.0896423 -0.391716 -0.2034 255 178 96
-0.228677 -0.486695 0.0954036 255 178 96
-0.160935 -0.487066 0.0326507 255 178 96
-0.0138755 -0.487496 -0.146277 255 178 96
0.30744 -0.484381 0.0561899 255 178 96
-0.25082 -0.487493 -0.167738 255 178 96
0.105061 -0.487503 0.000141293 255 178 96
-0.255266 -0.393945 -0.219483 255 178 96
0.318379 -0.485129 -0.0502744 255 178 96
-0.307629 -0.47389 -0.194611 255 178 96
0.264956 -0.41971 -0.209014 255 178 96
-0.28113 -0.482598 0.108444 255 178 96
0.206936 -0.487607 -0.08469 255 178 96
-0.275323 -0.487392 -0.0541368 255 178 96
0.0632169 -0.487484 -0.0277741 255 178 96
-0.322685 -0.487165 -0.00374083 255 178 96
-0.21228 -0.468653 0.142899 255 178 96
0.283457 -0.487675 -0.030029 255 178 96
0.0202508 -0.487226 0.0265044 255 178 96
0.25464 -0.487663 -0.0164633 255 178 96
-0.0693128 -0.464434 -0.200445 255 178 96
-0.124126 -0.487254 0.000297442 255 178 96
0.0124612 -0.486948 0.0659083 255 178 96
-0.27127 -0.48728 -0.0138059 255 178 96
0.0250743 -0.487532 -0.100121 255 178 96
0.272872 -0.487354 0.148447 255 178 96
0.167354 -0.487273 0.102118 255 178 96
0.253617 -0.487638 -0.154589 255 178 96
-0.15181 -0.487286 -0.0225075 255 178 96
0.217992 -0.487503 0.0544727 255 178 96
0.0794533 -0.486825 0.158519 255 178 96
0.268526 -0.487605 0.0398619 255 178 96
0.0414838 -0.487574 -0.135234 255 178 96
0.121624 -0.369622 -0.201065 255 178 96
0.0424962 -0.388923 -0.203727 255 178 96
-0.184201 -0.487086 0.0287865 255 178 96
-0.153636 -0.487358 -0.0554842 255 178 96
-0.290057 -0.487477 -0.133333 255 178 96
0.0788115 -0.487062 0.0697691 255 178 96
-0.291908 -0.487372 -0.0571559 255 178 96
-0.291269 -0.486739 0.0681341 255 178 96
0.307318 -0.477972 0.135019 255 178 96
-0.0136079 -0.440642 -0.209103 255 178 96
-0.0567607 -0.487205 0.0201252 255 178 96
-0.179064 -0.487467 -0.137387 255 178 96
-0.300186 -0.400134 -0.222466 255 178 96
-0.0236567 -0.441228 -0.20906 255 178 96
-0.111571 -0.384415 -0.210473 255 178 96
-0.12055 -0.418159 -0.210199 255 178 96
-0.317339 -0.48746 -0.13272 255 178 96
-0.0458877 -0.488859 -0.109605 255 178 96
-0.125698 -0.48728 -0.00750779 255 178 96
-0.324627 -0.487251 -0.0330849 255 178 96
-0.16713 -0.486869 0.0625173 255 178 96
-0.119903 -0.487019 0.0433866 255 178 96
-0.348491 -0.486968 0.0382541 255 178 96
0.151073 -0.487638 -0.106288 255 178 96
0.000626191 -0.487399 -0.0303674 255 178 96
0.134703 -0.487651 -0.118946 255 178 96
-0.151542 -0.487041 0.0373855 255 178 96
-0.0535076 -0.487193 0.0227572 255 178 96
-0.343575 -0.48748 -0.146546 255 178 96
-0.22836 -0.473634 0.131229 255 178 96
-0.370071 -0.481751 -0.185144 255 178 96
-0.31821 -0.390962 -0.223134 255 178 96
-0.247876 -0.487465 -0.124147 255 178 96
0.301678 -0.486718 -0.122637 255 178 96
-0.374141 -0.487516 -0.148315 255 178 96
-0.072642 -0.418275 -0.21096 255 178 96
-0.263038 -0.487351 -0.0309834 255 178 96
-0.172227 -0.487467 -0.137395 255 178 96
0.041597 -0.478473 -0.169928 255 178 96
0.107233 -0.487408 0.0263489 255 178 96
-0.0939855 -0.45196 -0.203712 255 178 96
-0.0170768 -0.487527 -0.178032 255 178 96
-0.315261 -0.487068 0.0128854 255 178 96
0.196097 -0.487509 0.0396277 255 178 96
0.152293 -0.488098 -0.0246367 255 178 96
-0.391765 -0.487427 -0.0758466 255 178 96
0.0312255 -0.487426 -0.0229273 255 178 96
-0.294443 -0.487431 -0.0867303 255 178 96
-0.139639 -0.486839 0.0701477 255 178 96
0.133374 -0.487668 -0.171932 255 178 96
-0.387167 -0.487609 -0.168069 255 178 96
-0.18544 -0.476425 0.131565 255 178 96
0.271979 -0.487617 0.0369077 255 178 96
0.318579 -0.403448 -0.175242 255 178 96
-0.198489 -0.486785 0.0692446 255 178 96
0.0499308 -0.487595 -0.164262 255 178 96
-0.224421 -0.487268 -0.0100121 255 178 96
-0.0306703 -0.489445 -0.0067763 255 178 96
0.306384 -0.352885 -0.198811 255 178 96
-0.126612 -0.486995 0.0468598 255 178 96
-0.0356427 -0.486781 0.0921266 255 178 96
-0.257858 -0.487411 -0.0495733 255 178 96
-0.335704 -0.487215 -0.0166629 255 178 96
0.0796082 -0.487639 -0.179192 255 178 96
-0.114511 -0.487494 -0.192849 255 178 96
0.253613 -0.487625 -0.132884 255 178 96
0.308448 -0.47436 -0.136705 255 178 96
-0.296317 -0.487332 -0.0464903 255 178 96
-0.162791 -0.487151 0.0165013 255 178 96
-0.149274 -0.486692 0.105773 255 178 96
0.157034 -0.487679 -0.193874 255 178 96
-0.155601 -0.487484 -0.186906 255 178 96
0.27158 -0.487663 -0.161537 255 178 96
-0.341871 -0.471251 -0.199418 255 178 96
-0.366837 -0.421967 -0.224679 255 178 96
-0.338968 -0.486902 0.0477232 255 178 96
-0.312705 -0.486757 0.0671872 255 178 96
0.227309 -0.487391 0.103487 255 178 96
-0.293217 -0.487435 -0.0907456 255 178 96
-0.0542424 -0.487243 0.0136669 255 178 96
-0.30964 -0.486771 0.0628359 255 178 96
-0.18415 -0.487318 -0.0325295 255 178 96
-0.145342 -0.487388 -0.0671796 255 178 96
-0.0827773 -0.487344 -0.0357826 255 178 96
-0.201105 -0.487478 -0.153804 255 178 96
-0.0634943 -0.487305 -0.00116017 255 178 96
-0.253978 -0.487039 0.0214857 255 178 96
-0.0360714 -0.367521 -0.208034 255 178 96
-0.00365256 -0.486984 0.0596762 255 178 96
-0.00201069 -0.487443 -0.0675564 255 178 96
-0.146886 -0.487114 0.0257776 255 178 96
-0.0950245 -0.486725 0.104945 255 178 96
0.231695 -0.487598 0.0261573 255 178 96
-0.257241 -0.473592 0.122545 255 178 96
-0.202153 -0.482437 0.121258 255 178 96
0.175142 -0.455081 -0.207163 255 178 96
0.0075785 -0.487406 -0.0297313 255 178 96
-0.30096 -0.47454 -0.19357 255 178 96
-0.170936 -0.487142 0.016968 255 178 96
0.0301127 -0.487594 -0.192322 255 178 96
0.15431 -0.48759 -0.0155533 255 178 96
-0.10778 -0.487015 0.0447039 255 178 96
-0.263069 -0.487069 0.016589 255 178 96
-0.0252079 -0.43144 -0.21012 255 178 96
0.0542451 -0.419948 -0.207328 255 178 96
-0.168872 -0.48728 -0.0213443 255 178 96
-0.0387296 -0.487498 -0.153728 255 178 96
-0.157365 -0.486961 0.0502796 255 178 96
-0.365169 -0.487387 -0.0943493 255 178 96
-0.140716 -0.421124 -0.209557 255 178 96
-0.0528204 -0.488449 -0.154076 255 178 96
-0.252723 -0.487101 0.0127446 255 178 96
-0.164107 -0.487008 0.0422356 255 178 96
0.255093 -0.487661 -0.0313377 255 178 96
0.280334 -0.487629 0.0354475 255 178 96
0.221622 -0.4876 -0.11449 255 178 96
-0.257798 -0.426881 -0.218384 255 178 96
0.304632 -0.463937 -0.20807 255 178 96
0.114241 -0.487501 0.00534523 255 178 96
-0.171961 -0.486722 0.0975848 255 178 96
0.328669 -0.330373 -0.190267 255 178 96
-0.00346033 -0.487424 -0.0556732 255 178 96
0.0373542 -0.487553 -0.106264 255 178 96
-0.128192 -0.487475 -0.145328 255 178 96
0.198548 -0.487615 -0.111223 255 178 96
-0.190784 -0.48747 -0.140229 255 178 96
-0.317508 -0.486904 0.0415534 255 178 96
0.13066 -0.32272 -0.201967 255 178 96
-0.175533 -0.487387 -0.0583791 255 178 96
-0.101592 -0.486945 0.0562951 255 178 96
-0.0298117 -0.489756 0.113429 255 178 96
-0.236619 -0.487431 -0.056451 255 178 96
-0.0143803 -0.486946 0.0638289 255 178 96
-0.403179 -0.487557 -0.120626 255 178 96
0.233134 -0.487316 0.156856 255 178 96
0.303952 -0.487634 -0.108863 255 178 96
0.192085 -0.487281 0.12465 255 178 96
0.268922 -0.482264 -0.197365 255 178 96
-0.114041 -0.487466 -0.132395 255 178 96
-0.136423 -0.487243 -0.000240609 255 178 96
0.0911915 -0.488768 0.0673614 255 178 96
-0.00484311 -0.487397 -0.0330638 255 178 96
-0.0829779 -0.487213 0.0139891 255 178 96
0.319546 -0.479108 0.00545198 255 178 96
-0.234764 -0.48734 -0.0236981 255 178 96
0.317301 -0.44875 -0.0462596 255 178 96
0.260291 -0.487665 -0.0187071 255 178 96
-0.0817277 -0.406116 -0.211322 255 178 96
-0.0525286 -0.486721 0.107626 255 178 96
0.258915 -0.487638 -0.090339 255 178 96
-0.266314 -0.487466 -0.129427 255 178 96
0.261565 -0.487635 -0.130708 255 178 96
-0.305483 -0.487423 -0.0909529 255 178 96
0.215387 -0.383905 -0.184578 255 178 96
-0.129592 -0.487242 0.00212094 255 178 96
-0.117523 -0.487437 -0.108361 255 178 96
0.187787 -0.487308 0.110065 255 178 96
-0.245672 -0.487151 0.00649592 255 178 96
-0.289048 -0.487153 0.00168094 255 178 96
-0.250056 -0.487097 0.0135017 255 178 96
0.00978331 -0.487149 0.037286 255 178 96
-0.233932 -0.4729 0.131044 255 178 96
0.00165163 -0.486742 0.113136 255 178 96
0.0248552 -0.486928 0.0720446 255 178 96
0.093633 -0.474105 -0.176334 255 178 96
-0.10466 -0.477159 -0.197719 255 178 96
-0.0452961 -0.487506 -0.170442 255 178 96
0.326551 -0.340718 -0.195489 255 178 96
0.278846 -0.487678 0.0068933 255 178 96
0.0355792 -0.472165 -0.201163 255 178 96
-0.293127 -0.412646 -0.222097 255 178 96
-0.35105 -0.487248 -0.0387385 255 178 96
0.159681 -0.487278 0.0921152 255 178 96
0.303969 -0.477467 -0.182478 255 178 96
0.313809 -0.4391 -0.190556 255 178 96
-0.257053 -0.486968 0.0319092 255 178 96
-0.155243 -0.487368 -0.0585533 255 178 96
0.30342 -0.487671 0.0245061 255 178 96
-0.213892 -0.473945 0.133971 255 178 96
-0.194019 -0.46036 -0.206773 255 178 96
0.0452298 -0.487139 0.0452507 255 178 96
-0.0439153 -0.431295 -0.210296 255 178 96
-0.217496 -0.487418 -0.0544105 255 178 96
-0.0842801 -0.490123 0.0997377 255 178 96
0.223764 -0.391076 -0.203816 255 178 96
-0.0717272 -0.478341 -0.19446 255 178 96
-0.207549 -0.487299 -0.0186669 255 178 96
-0.171366 -0.442416 -0.212295 255 178 96
-0.0442688 -0.486615 0.119543 255 178 96
0.238017 -0.487387 0.111632 255 178 96
-0.0776787 -0.487494 -0.163476 255 178 96
-0.320985 -0.487284 -0.0449778 255 178 96
0.231012 -0.487504 0.0604498 255 178 96
-0.155959 -0.452582 -0.208375 255 178 96
0.334085 -0.117816 0.0860436 255 139 72
0.322948 0.0191644 -0.0294313 255 139 72
0.333836 -0.323585 0.07149 255 139 72
0.325824 -0.474608 -0.180807 255 139 72
0.33425 -0.104564 0.0693008 255 139 72
0.299474 -0.307601 -0.0791901 255 139 72
0.323903 -0.100197 -0.207879 255 139 72
0.333617 -0.0992925 0.0401927 255 139 72
0.329433 0.00169734 -0.0420353 255 139 72
0.328942 -0.114486 -0.15949 255 139 72
0.338976 -0.307327 0.0157015 255 139 72
0.334921 -0.129986 0.00492745 255 139 72
0.328711 -0.34645 -0.202762 255 139 72
0.342227 -0.311252 0.02939 255 139 72
0.338023 -0.268071 0.00656523 255 139 72
0.335985 -0.243597 0.0922192 255 139 72
0.339593 -0.341485 0.0152669 255 139 72
0.336259 -0.225317 0.0976978 255 139 72
0.334616 -0.421394 0.0747084 255 139 72
0.331049 -0.0859759 -0.118297 255 139 72
0.192179 -0.400482 -0.109239 255 139 72
0.323009 -0.159627 -0.119721 255 139 72
0.336436 -0.296725 0.0669804 255 139 72
0.332839 0.0406457 0.132286 255 139 72
0.338033 -0.20565 -0.0401245 255 139 72
0.328164 0.0104812 -0.0779217 255 139 72
0.325121 0.0566183 -0.0369432 255 139 72
0.339568 -0.332956 -0.0729614 255 139 72
0.33279 -0.0795061 -0.00930274 255 139 72
0.333502 -0.120952 -0.0929963 255 139 72
0.33842 -0.247208 -0.0368994 255 139 72
0.335045 -0.169457 0.124188 255 139 72
0.325305 0.0363974 0.0245183 255 139 72
0.332925 -0.143071 0.106386 255 139 72
0.339914 -0.403647 -0.0179473 255 139 72
0.168282 -0.364365 -0.0162286 255 139 72
0.338871 -0.283527 0.0586341 255 139 72
0.34016 -0.423168 -0.0137034 255 139 72
0.237966 -0.346415 -0.0866307 255 139 72
0.346915 -0.138786 0.0155345 255 139 72
0.335121 -0.170764 0.120348 255 139 72
0.330774 -0.181463 -0.160977 255 139 72
0.328152 -0.4416 -0.180914 255 139 72
0.294402 -0.450521 0.0819649 255 139 72
0.338629 -0.441799 0.0315927 255 139 72
0.33552 -0.156668 0.00143383 255 139 72
0.292328 -0.358681 0.0179907 255 139 72
0.330662 -0.0293511 -0.00122402 255 139 72
0.307251 -0.374156 -0.153956 255 139 72
0.337547 -0.234922 -0.0209901 255 139 72
0.153296 -0.398207 -0.0120143 255 139 72
0.33268 0.019325 0.139003 255 139 72
0.330645 -0.106197 -0.133421 255 139 72
0.101351 -0.40602 -0.0561999 255 139 72
0.336787 -0.344813 -0.122139 255 139 72
0.175195 -0.46152 0.0812861 255 139 72
0.322694 0.000847682 -0.18733 255 139 72
0.25478 -0.369012 0.00894672 255 139 72
0.329852 0.0245907 0.0962953 255 139 72
0.33525 -0.423231 0.074041 255 139 72
0.324376 -0.00543181 -0.0607617 255 139 72
0.328774 0.0111166 -0.0353779 255 139 72
0.321077 -0.330262 -0.12741 255 139 72
0.323832 0.0501158 0.0105786 255 139 72
0.333187 -0.0761653 -0.052982 255 139 72
0.333719 -0.12257 -0.0904263 255 139 72
0.33601 -0.286365 0.0791269 255 139 72
