ply
format ascii 1.0
comment Created by Open3D
element vertex 1181
property double x
property double y
property double z
property uchar red
property uchar green
property uchar blue
end_header
-0.025232 -0.269465 -0.159803 224 210 119
-0.273606 -0.365731 -0.129914 224 210 119
-0.207919 -0.431769 -0.169879 224 210 119
-0.245502 -0.381745 -0.165328 224 210 119
-0.153066 -0.370093 -0.166308 224 210 119
-0.0383195 -0.465289 -0.171002 224 210 119
-0.234031 -0.464623 0.238917 224 210 119
-0.264005 -0.27503 0.0413062 224 210 119
-0.263363 -0.31348 -0.0375725 224 210 119
-0.269584 -0.441403 -0.0804862 224 210 119
-0.201261 -0.270731 -0.160687 224 210 119
-0.251036 -0.324744 0.217113 224 210 119
-0.250599 -0.320106 0.220635 224 210 119
-0.255774 -0.413784 0.227849 224 210 119
-0.24939 -0.479481 -0.17329 224 210 119
-0.245354 -0.431078 -0.0486934 224 210 119
-0.165749 -0.420736 -0.167925 224 210 119
-0.143082 -0.273433 -0.166124 224 210 119
-0.00661684 -0.366418 -0.164512 224 210 119
-0.241937 -0.300986 -0.153853 224 210 119
-0.261244 -0.339176 0.0505442 224 210 119
0.103652 -0.275494 -0.167577 224 210 119
-0.260602 -0.366646 -0.156353 224 210 119
-0.224761 -0.351108 -0.165221 224 210 119
-0.123299 -0.25827 -0.164995 224 210 119
-0.120201 -0.259461 -0.164765 224 210 119
-0.0914666 -0.278102 -0.162813 224 210 119
-0.26928 -0.356073 -0.0748063 224 210 119
-0.235419 -0.330941 -0.158036 224 210 119
-0.246506 -0.387671 0.0649404 224 210 119
-0.262156 -0.448098 0.0916464 224 210 119
-0.237542 -0.432902 0.11422 224 210 119
-0.0680129 -0.358606 -0.165041 224 210 119
-0.262775 -0.260775 -0.129868 224 210 119
-0.259825 -0.258335 -0.137758 224 210 119
-0.202574 -0.464215 -0.16965 224 210 119
-0.175723 -0.41612 -0.168272 224 210 119
-0.26316 -0.310496 -0.0346878 224 210 119
-0.273895 -0.480715 -0.122348 224 210 119
-0.0557349 -0.40291 -0.168498 224 210 119
-0.055392 -0.270248 -0.160709 224 210 119
-0.26425 -0.295115 -0.144227 224 210 119
-0.256882 -0.37879 -0.0252466 224 210 119
-0.264797 -0.389852 0.00830392 224 210 119
-0.138961 -0.478727 -0.17098 224 210 119
-0.263351 -0.298437 -0.145361 224 210 119
-0.0949818 -0.316998 -0.161619 224 210 119
-0.143682 -0.394615 -0.166402 224 210 119
-0.0947098 -0.326552 -0.161734 224 210 119
-0.253646 -0.290682 -0.118159 224 210 119
-0.0200009 -0.437529 -0.169502 224 210 119
-0.0823489 -0.411048 -0.168744 224 210 119
-0.266754 -0.27036 -0.136655 224 210 119
-0.267908 -0.385375 -0.0626035 224 210 119
-0.255234 -0.356479 0.189106 224 210 119
-0.258332 -0.377822 0.161373 224 210 119
-0.262018 -0.445561 0.117676 224 210 119
-0.261041 -0.325911 0.0928867 224 210 119
-0.264825 -0.392134 0.0210923 224 210 119
-0.0977052 -0.329519 -0.162034 224 210 119
-0.0871918 -0.317893 -0.161064 224 210 119
-0.271364 -0.47121 -0.137906 224 210 119
-0.263641 -0.354067 -0.0218852 224 210 119
-0.21942 -0.325272 -0.161446 224 210 119
-0.260869 -0.301538 0.0292173 224 210 119
-0.188778 -0.406023 -0.168544 224 210 119
-0.261466 -0.477151 -0.166642 224 210 119
-0.257539 -0.463473 0.218189 224 210 119
-0.00366175 -0.453637 -0.170565 224 210 119
-0.27371 -0.358742 -0.105137 224 210 119
-0.148485 -0.265054 -0.162686 224 210 119
-0.155987 -0.325535 -0.165111 224 210 119
-0.261204 -0.349739 0.0793289 224 210 119
-0.134776 -0.267448 -0.166304 224 210 119
-0.166888 -0.289388 -0.150102 224 210 119
-0.185071 -0.345768 -0.167023 224 210 119
-0.259473 -0.299034 -0.101872 224 210 119
-0.0125019 -0.36446 -0.164583 224 210 119
-0.258212 -0.37524 0.161207 224 210 119
-0.241773 -0.355104 -0.161603 224 210 119
0.0815137 -0.405666 -0.164702 224 210 119
-0.259365 -0.440246 0.174135 224 210 119
-0.273595 -0.305567 -0.117817 224 210 119
0.0262441 -0.454523 -0.169603 224 210 119
-0.25439 -0.267347 0.242738 224 210 119
-0.270911 -0.428984 -0.143379 224 210 119
0.0669247 -0.458455 -0.167404 224 210 119
-0.184636 -0.374068 -0.168183 224 210 119
-0.161904 -0.435716 -0.168463 224 210 119
-0.273089 -0.326431 -0.130301 224 210 119
-0.237218 -0.303809 -0.155138 224 210 119
-0.261222 -0.258371 0.0803065 224 210 119
-0.262377 -0.45739 -0.0182074 224 210 119
-0.0689763 -0.26517 -0.161384 224 210 119
-0.266428 -0.460352 -0.0624837 224 210 119
-0.262829 -0.354248 0.0128957 224 210 119
-0.144751 -0.420811 -0.167971 224 210 119
-0.131696 -0.452658 -0.169548 224 210 119
0.0567608 -0.295887 -0.163519 224 210 119
-0.0472307 -0.265057 -0.160356 224 210 119
-0.0812275 -0.291184 -0.161391 224 210 119
-0.263972 -0.253012 -0.0607015 224 210 119
0.0317833 -0.341119 -0.161043 224 210 119
-0.273523 -0.427197 -0.122367 224 210 119
-0.26213 -0.327713 -0.0138378 224 210 119
-0.229634 -0.303054 -0.156918 224 210 119
0.0597198 -0.364861 -0.162938 224 210 119
-0.260439 -0.467082 -0.165554 224 210 119
-0.173029 -0.317009 -0.16637 224 210 119
-0.264936 -0.273121 -0.139003 224 210 119
-0.270092 -0.441844 -0.0845835 224 210 119
-0.268026 -0.419944 -0.0608193 224 210 119
-0.213456 -0.444726 -0.170067 224 210 119
-0.262991 -0.32294 -0.0313617 224 210 119
-0.204484 -0.361664 -0.168661 224 210 119
-0.0061508 -0.390488 -0.165908 224 210 119
-0.262675 -0.429823 0.0913421 224 210 119
-0.264731 -0.295157 -0.099792 224 210 119
-0.25691 -0.474399 -0.170494 224 210 119
-0.261815 -0.334243 0.0134102 224 210 119
-0.0360156 -0.374477 -0.166307 224 210 119
-0.230845 -0.337597 -0.160622 224 210 119
-0.250536 -0.325819 0.223612 224 210 119
-0.263593 -0.433055 0.0199764 224 210 119
-0.263299 -0.349382 -0.0188446 224 210 119
-0.202719 -0.349931 -0.1679 224 210 119
-0.212723 -0.42654 -0.169956 224 210 119
-0.267369 -0.257913 -0.0864977 224 210 119
0.0524956 -0.407509 -0.165327 224 210 119
-0.24245 -0.368789 -0.125097 224 210 119
-0.171378 -0.301252 -0.144038 224 210 119
0.0250332 -0.377806 -0.163913 224 210 119
-0.0713372 -0.274654 -0.160784 224 210 119
-0.25542 -0.394906 0.212745 224 210 119
-0.151235 -0.353153 -0.165507 224 210 119
-0.155367 -0.359136 -0.165969 224 210 119
-0.257543 -0.394837 -0.160831 224 210 119
-0.258706 -0.369258 -0.157983 224 210 119
-0.26972 -0.401484 -0.0768994 224 210 119
-0.263236 -0.328932 -0.0332849 224 210 119
-0.0485945 -0.300472 -0.160521 224 210 119
-0.268561 -0.481564 -0.154899 224 210 119
-0.267 -0.406864 -0.0531633 224 210 119
-0.267221 -0.251719 -0.0863622 224 210 119
-0.26244 -0.296833 0.154123 224 210 119
-0.205837 -0.323733 -0.163339 224 210 119
-0.184457 -0.461427 -0.169337 224 210 119
-0.265266 -0.293569 -0.00585048 224 210 119
-0.265237 -0.270236 -0.138105 224 210 119
-0.235266 -0.433916 0.181074 224 210 119
-0.258684 -0.466098 0.183899 224 210 119
-0.00104092 -0.43369 -0.168717 224 210 119
-0.102347 -0.457801 -0.170472 224 210 119
-0.263642 -0.402214 0.068762 224 210 119
-0.19791 -0.475782 -0.170794 224 210 119
-0.0908608 -0.445041 -0.170204 224 210 119
-0.261673 -0.285101 -0.0163045 224 210 119
0.0841532 -0.273469 -0.164999 224 210 119
-0.27194 -0.269411 -0.0873908 224 210 119
-0.099297 -0.391902 -0.166841 224 210 119
0.0218091 -0.268441 -0.163047 224 210 119
-0.0625066 -0.366102 -0.165818 224 210 119
-0.260984 -0.350486 0.10236 224 210 119
-0.262567 -0.436467 0.0737299 224 210 119
-0.264051 -0.369929 -0.00558602 224 210 119
-0.2408 -0.262784 -0.147929 224 210 119
-0.237327 -0.43779 -0.171426 224 210 119
-0.10519 -0.315967 -0.162229 224 210 119
-0.155554 -0.355971 -0.165805 224 210 119
-0.255081 -0.290378 0.151559 224 210 119
0.0465591 -0.300775 -0.162811 224 210 119
-0.271089 -0.342432 -0.0921861 224 210 119
-0.259386 -0.268768 0.0922591 224 210 119
0.0840411 -0.283235 -0.164921 224 210 119
-0.272896 -0.267979 -0.0727302 224 210 119
-0.175441 -0.315811 -0.165976 224 210 119
-0.271815 -0.300723 -0.103298 224 210 119
-0.214566 -0.41991 -0.169919 224 210 119
-0.0260075 -0.275772 -0.15762 224 210 119
-0.0821033 -0.359053 -0.164523 224 210 119
-0.0922949 -0.279536 -0.159063 224 210 119
-0.259138 -0.375123 0.149916 224 210 119
-0.26935 -0.299784 -0.140498 224 210 119
-0.193992 -0.380432 -0.168715 224 210 119
-0.246584 -0.269635 -0.149818 224 210 119
-0.269369 -0.366853 -0.0746416 224 210 119
-0.257606 -0.366704 0.166153 224 210 119
-0.261315 -0.304213 0.053442 224 210 119
-0.272945 -0.438047 -0.127124 224 210 119
0.00164652 -0.268826 -0.160735 224 210 119
-0.272131 -0.285398 -0.110191 224 210 119
-0.23713 -0.467642 -0.172287 224 210 119
-0.237717 -0.323689 -0.156259 224 210 119
-0.26167 -0.304159 0.0670697 224 210 119
-0.133301 -0.296216 -0.155389 224 210 119
-0.27023 -0.366971 -0.14697 224 210 119
-0.196004 -0.340781 -0.167459 224 210 119
-0.236794 -0.293441 -0.154486 224 210 119
-0.150896 -0.325878 -0.164851 224 210 119
0.0106491 -0.270152 -0.161672 224 210 119
-0.272025 -0.296579 -0.105745 224 210 119
-0.0933245 -0.446491 -0.170239 224 210 119
-0.262551 -0.4729 -0.0210156 224 210 119
-0.0899705 -0.269233 -0.162643 224 210 119
-0.255003 -0.404164 -0.163672 224 210 119
-0.22183 -0.326708 -0.161103 224 210 119
-0.26735 -0.277466 -0.0784709 224 210 119
-0.2465 -0.367548 0.133945 224 210 119
0.00148107 -0.315454 -0.160688 224 210 119
-0.221366 -0.398651 -0.170037 224 210 119
0.0675121 -0.323398 -0.16227 224 210 119
-0.269332 -0.335081 -0.0821815 224 210 119
-0.267415 -0.255901 -0.0892946 224 210 119
-0.265042 -0.396319 0.00365721 224 210 119
0.00806263 -0.304007 -0.160671 224 210 119
-0.272179 -0.280557 -0.126779 224 210 119
-0.272868 -0.415022 -0.103426 224 210 119
-0.262645 -0.372286 0.0813685 224 210 119
0.118506 -0.276014 -0.166977 224 210 119
-0.211349 -0.441911 -0.16994 224 210 119
0.0275871 -0.267984 -0.162004 224 210 119
-0.0532598 -0.332006 -0.162389 224 210 119
-0.259619 -0.263147 0.0817464 224 210 119
-0.272287 -0.293281 -0.109384 224 210 119
-0.263827 -0.30236 -0.145625 224 210 119
-0.231116 -0.462515 -0.171549 224 210 119
-0.262364 -0.257925 -0.13504 224 210 119
-0.178104 -0.400314 -0.168113 224 210 119
-0.266755 -0.391549 -0.0537542 224 210 119
-0.262165 -0.299313 -0.020539 224 210 119
-0.195475 -0.282758 -0.162363 224 210 119
-0.25845 -0.320287 0.122441 224 210 119
-0.274769 -0.363075 -0.120095 224 210 119
-0.212169 -0.271774 -0.158634 224 210 119
-0.272903 -0.296706 -0.128954 224 210 119
-0.010493 -0.450788 -0.170317 224 210 119
-0.27096 -0.435291 -0.141649 224 210 119
-0.170468 -0.272345 -0.157386 224 210 119
-0.0319742 -0.323751 -0.161315 224 210 119
-0.0816023 -0.284241 -0.156394 224 210 119
-0.233058 -0.398305 0.254173 224 210 119
-0.266425 -0.357544 -0.0591225 224 210 119
-0.208602 -0.329949 -0.163771 224 210 119
-0.242717 -0.29419 -0.153116 224 210 119
-0.200155 -0.360154 -0.168307 224 210 119
-0.266769 -0.489307 -0.160194 224 210 119
-0.271499 -0.473933 -0.102869 224 210 119
-0.168694 -0.310869 -0.166022 224 210 119
-0.262757 -0.295281 0.177941 224 210 119
-0.256987 -0.440371 0.221568 224 210 119
-0.27096 -0.327503 -0.094667 224 210 119
-0.262489 -0.406878 0.110663 224 210 119
-0.0723467 -0.355477 -0.164597 224 210 119
-0.101619 -0.266087 -0.163815 224 210 119
-0.16444 -0.30563 -0.16599 224 210 119
-0.12625 -0.414014 -0.168018 224 210 119
-0.034811 -0.340097 -0.162662 224 210 119
-0.148517 -0.445766 -0.168977 224 210 119
-0.256477 -0.394353 0.198549 224 210 119
-0.00640715 -0.28026 -0.15621 224 210 119
-0.214234 -0.320722 -0.161835 224 210 119
-0.256124 -0.339141 0.179956 255 178 96
-0.25851 -0.405025 0.441818 255 178 96
-0.257276 -0.364793 0.246586 255 178 96
-0.232754 -0.482484 0.466458 255 178 96
-0.257321 -0.343293 0.408513 255 178 96
-0.257825 -0.366209 0.23848 255 178 96
-0.262192 -0.349211 0.0896542 255 178 96
-0.202999 -0.486509 -0.0298145 255 178 96
-0.259059 -0.389862 0.220195 255 178 96
-0.259318 -0.393713 0.427032 255 178 96
-0.259773 -0.405997 0.426864 255 178 96
-0.249373 -0.487354 0.359377 255 178 96
-0.141291 -0.487943 0.373052 255 178 96
-0.257829 -0.360662 0.223495 255 178 96
-0.252054 -0.302826 0.439823 255 178 96
-0.260182 -0.398057 0.0533469 255 178 96
-0.258225 -0.408979 0.289941 255 178 96
0.0965573 -0.487827 0.222182 255 178 96
-0.245968 -0.348902 0.459625 255 178 96
-0.258002 -0.39541 0.284468 255 178 96
-0.0621064 -0.488057 0.333142 255 178 96
-0.258643 -0.410859 0.0252263 255 178 96
-0.25416 -0.292977 0.27473 255 178 96
-0.249812 -0.487091 0.397059 255 178 96
-0.248663 -0.25384 0.402841 255 178 96
-0.258878 -0.464267 0.437341 255 178 96
-0.247339 -0.387975 0.46303 255 178 96
-0.260059 -0.356376 0.154543 255 178 96
-0.259263 -0.439811 0.2908 255 178 96
-0.212489 -0.382783 0.45456 255 178 96
-0.251477 -0.279251 0.419029 255 178 96
-0.246022 -0.487669 0.28711 255 178 96
-0.258452 -0.476258 0.131994 255 178 96
-0.25968 -0.485721 0.094611 255 178 96
-0.252535 -0.486428 -0.110148 255 178 96
-0.258535 -0.382245 0.234151 255 178 96
-0.261219 -0.415172 0.0985272 255 178 96
-0.25474 -0.301696 0.276881 255 178 96
0.0132639 -0.487993 0.34266 255 178 96
-0.252111 -0.283877 0.412616 255 178 96
-0.249467 -0.266656 0.317547 255 178 96
-0.258329 -0.371133 0.424655 255 178 96
-0.261709 -0.401305 0.159745 255 178 96
-0.239264 -0.486694 0.449 255 178 96
-0.197812 -0.455827 0.451979 255 178 96
-0.26384 -0.330734 0.0758807 255 178 96
-0.255308 -0.312083 0.297122 255 178 96
-0.259784 -0.47311 0.417309 255 178 96
-0.261949 -0.349821 0.0997155 255 178 96
-0.256967 -0.343084 0.381394 255 178 96
-0.153294 -0.486712 0.0135147 255 178 96
-0.258562 -0.35496 0.1864 255 178 96
-0.251524 -0.286459 0.43272 255 178 96
-0.252629 -0.487368 0.265548 255 178 96
-0.252931 -0.289899 0.419645 255 178 96
-0.245971 -0.487175 0.410751 255 178 96
-0.221309 -0.421241 0.461631 255 178 96
-0.258607 -0.461498 0.174722 255 178 96
-0.253494 -0.486176 -0.0980013 255 178 96
-0.257864 -0.382538 0.265613 255 178 96
-0.237734 -0.486692 0.0777041 255 178 96
-0.257674 -0.397066 0.306836 255 178 96
-0.248623 -0.48061 0.459344 255 178 96
-0.0728057 -0.487933 0.374087 255 178 96
-0.217343 -0.331183 0.455438 255 178 96
-0.244301 -0.429943 0.465205 255 178 96
-0.26044 -0.434987 0.414879 255 178 96
-0.259925 -0.42318 0.358521 255 178 96
0.114622 -0.487322 0.128331 255 178 96
-0.206195 -0.463313 0.457161 255 178 96
-0.260666 -0.41953 0.0847871 255 178 96
-0.25933 -0.401451 0.211934 255 178 96
-0.2496 -0.264395 0.419149 255 178 96
0.126373 -0.48752 0.197721 255 178 96
-0.259069 -0.41098 0.359041 255 178 96
-0.13169 -0.487974 0.25184 255 178 96
-0.228628 -0.487182 0.182335 255 178 96
-0.259101 -0.486433 0.294269 255 178 96
-0.0569075 -0.484882 -0.0727781 255 178 96
-0.256632 -0.336805 0.379394 255 178 96
-0.25418 -0.304011 0.321766 255 178 96
-0.256771 -0.349749 0.35381 255 178 96
-0.112714 -0.487947 0.235024 255 178 96
-0.259834 -0.405227 0.20039 255 178 96
-0.261284 -0.442962 0.190738 255 178 96
-0.25712 -0.351879 0.208092 255 178 96
-0.259449 -0.420512 0.064209 255 178 96
-0.253589 -0.48661 0.0640956 255 178 96
-0.256077 -0.336132 0.265037 255 178 96
-0.250025 -0.270776 0.289957 255 178 96
-0.227929 -0.437701 0.467403 255 178 96
-0.249842 -0.306143 0.448748 255 178 96
-0.258369 -0.373661 0.431206 255 178 96
-0.261778 -0.445739 0.109654 255 178 96
-0.250203 -0.335974 0.453866 255 178 96
-0.252203 -0.28436 0.421237 255 178 96
0.0657507 -0.487646 0.19966 255 178 96
-0.255034 -0.307256 0.283312 255 178 96
-0.259723 -0.376191 0.203896 255 178 96
-0.261122 -0.374338 0.171653 255 178 96
-0.246805 -0.314813 0.454309 255 178 96
-0.257839 -0.412607 0.0110296 255 178 96
-0.259097 -0.446581 0.285346 255 178 96
-0.153589 -0.487956 0.253425 255 178 96
0.194552 -0.48035 0.051845 255 178 96
-0.260952 -0.459824 0.399702 255 178 96
-0.258317 -0.410625 0.297335 255 178 96
0.0180139 -0.48807 0.310854 255 178 96
-0.259555 -0.395405 0.0274478 255 178 96
-0.256627 -0.34644 0.352974 255 178 96
-0.257501 -0.48604 0.0311337 255 178 96
-0.145408 -0.488048 0.291929 255 178 96
0.128647 -0.477435 0.105346 255 178 96
-0.256818 -0.350436 0.355656 255 178 96
-0.00604953 -0.475089 0.136811 255 178 96
-0.0505923 -0.487207 0.0204814 255 178 96
-0.131441 -0.487454 0.175342 255 178 96
-0.26059 -0.429982 0.365647 255 178 96
-0.166453 -0.487522 0.189159 255 178 96
-0.264015 -0.335802 0.0268492 255 178 96
0.0847816 -0.487832 0.220282 255 178 96
-0.255427 -0.323938 0.428126 255 178 96
-0.0523578 -0.488114 0.297131 255 178 96
-0.215049 -0.38159 0.457355 255 178 96
-0.255782 -0.485889 -0.0194272 255 178 96
-0.25864 -0.417199 0.036467 255 178 96
-0.257433 -0.388322 0.323417 255 178 96
-0.0770573 -0.488079 0.317361 255 178 96
-0.248977 -0.486528 0.0495266 255 178 96
-0.253203 -0.487012 0.171198 255 178 96
-0.260079 -0.462261 0.32087 255 178 96
-0.255232 -0.430528 -0.0141327 255 178 96
-0.146341 -0.488021 0.316036 255 178 96
-0.255535 -0.321297 0.425505 255 178 96
-0.255185 -0.317949 0.426486 255 178 96
-0.258511 -0.425592 0.281283 255 178 96
-0.260259 -0.405827 0.189852 255 178 96
-0.258143 -0.406007 0.29902 255 178 96
-0.254801 -0.309344 0.391709 255 178 96
-0.260984 -0.450167 0.414694 255 178 96
-0.252367 -0.444326 -0.0778166 255 178 96
-0.253035 -0.291722 0.411587 255 178 96
-0.256697 -0.355334 0.320008 255 178 96
-0.246777 -0.395958 0.463807 255 178 96
-0.257359 -0.36691 0.292388 255 178 96
-0.258666 -0.449938 0.0405622 255 178 96
-0.241325 -0.48736 0.413911 255 178 96
-0.260819 -0.439216 0.207513 255 178 96
-0.22602 -0.380039 0.464964 255 178 96
-0.257745 -0.375697 0.362483 255 178 96
-0.252351 -0.370264 0.455841 255 178 96
-0.254854 -0.305987 0.251858 255 178 96
-0.0994736 -0.48806 0.321124 255 178 96
-0.260145 -0.404517 0.191951 255 178 96
-0.210574 -0.487868 0.432806 255 178 96
-0.262213 -0.419557 0.11916 255 178 96
-0.257988 -0.400877 0.30045 255 178 96
-0.257603 -0.424696 0.0242454 255 178 96
-0.251185 -0.487078 0.388221 255 178 96
-0.250634 -0.414258 0.46134 255 178 96
-0.256776 -0.486896 0.308232 255 178 96
-0.259072 -0.40079 0.434779 255 178 96
-0.230934 -0.471038 0.468427 255 178 96
-0.261072 -0.434076 0.352178 255 178 96
0.10185 -0.485901 -0.0329942 255 178 96
-0.223914 -0.486367 0.46261 255 178 96
-0.257525 -0.371403 0.361396 255 178 96
-0.24415 -0.409397 0.465179 255 178 96
-0.260778 -0.377654 0.140771 255 178 96
0.190522 -0.484298 -0.028204 255 178 96
-0.134858 -0.487175 -0.0826643 255 178 96
-0.253356 -0.296982 0.427191 255 178 96
-0.0775418 -0.487287 -0.0304808 255 178 96
0.0355868 -0.487538 0.000683524 255 178 96
-0.255276 -0.319619 0.230659 255 178 96
-0.260148 -0.356078 0.152696 255 178 96
-0.261809 -0.41393 0.132164 255 178 96
-0.0667396 -0.488054 0.334588 255 178 96
-0.252537 -0.292327 0.362138 255 178 96
-0.251324 -0.485942 0.44797 255 178 96
-0.0207839 -0.486179 -0.0907753 255 178 96
0.00885668 -0.476459 0.0996875 255 178 96
-0.258353 -0.418445 0.251135 255 178 96
-0.249199 -0.267348 0.352505 255 178 96
-0.258599 -0.45256 0.27699 255 178 96
-0.258086 -0.404376 0.292076 255 178 96
-0.25884 -0.485854 0.214015 255 178 96
-0.2433 -0.474564 0.464773 255 178 96
-0.26063 -0.455741 0.425001 255 178 96
-0.257752 -0.434393 0.448596 255 178 96
-0.258556 -0.468712 0.240171 255 178 96
-0.255262 -0.326028 0.432018 255 178 96
-0.0287046 -0.488093 0.313385 255 178 96
-0.260058 -0.478309 0.332024 255 178 96
-0.166221 -0.486895 0.45009 255 178 96
0.145621 -0.481277 0.013762 255 178 96
-0.0190188 -0.487288 -0.039033 255 178 96
-0.255336 -0.486939 0.215008 255 178 96
-0.156535 -0.487776 0.437817 255 178 96
-0.259482 -0.408498 0.434101 255 178 96
-0.257534 -0.371593 0.358774 255 178 96
-0.203034 -0.486505 -0.122749 255 178 96
-0.256377 -0.483323 0.440293 255 178 96
-0.261989 -0.453423 0.386858 255 178 96
-0.261832 -0.347639 0.115419 255 178 96
-0.254982 -0.486732 0.0881093 255 178 96
-0.257921 -0.399271 0.331226 255 178 96
-0.261299 -0.378117 0.166785 255 178 96
-0.252151 -0.283958 0.411409 255 178 96
-0.104871 -0.487659 0.434441 255 178 96
-0.250578 -0.463745 0.46056 255 178 96
-0.25716 -0.374292 0.309483 255 178 96
-0.237482 -0.48767 0.360073 255 178 96
-0.260827 -0.458999 0.422093 255 178 96
0.149932 -0.487297 0.183126 255 178 96
-0.231146 -0.474701 0.468101 255 178 96
-0.258424 -0.461021 0.441662 255 178 96
-0.199542 -0.487888 0.350897 255 178 96
-0.255881 -0.336098 0.235542 255 178 96
-0.156536 -0.4878 0.437128 255 178 96
-0.238526 -0.487012 0.158204 255 178 96
-0.106839 -0.485597 -0.107013 255 178 96
-0.262101 -0.422228 0.14223 255 178 96
-0.263385 -0.331713 -0.00869907 255 178 96
-0.257098 -0.358404 0.296 255 178 96
-0.222144 -0.397718 0.463847 255 178 96
-0.246351 -0.258657 0.439697 255 178 96
-0.26049 -0.458201 0.0804355 255 178 96
-0.258973 -0.413856 0.336413 255 178 96
-0.197384 -0.447639 0.450964 255 178 96
-0.262333 -0.434321 0.150008 255 178 96
-0.259138 -0.382162 0.40204 255 178 96
-0.251747 -0.292786 0.435569 255 178 96
-0.210112 -0.440426 0.457446 255 178 96
-0.143664 -0.487456 0.446102 255 178 96
-0.256858 -0.325497 0.125141 255 178 96
-0.0260315 -0.487285 0.0583112 255 178 96
-0.258709 -0.398908 0.358974 255 178 96
-0.254888 -0.321218 0.432061 255 178 96
-0.243761 -0.481328 0.462089 255 178 96
-0.260803 -0.38448 0.113563 255 178 96
-0.2195 -0.345026 0.458637 255 178 96
0.0806641 -0.482962 -0.043994 255 178 96
-0.260535 -0.460499 0.34388 255 178 96
-0.0531553 -0.485844 -0.117564 255 178 96
-0.25589 -0.325842 0.290871 255 178 96
-0.233726 -0.483366 0.464698 255 178 96
-0.254167 -0.464943 0.454199 255 178 96
-0.258275 -0.369248 0.422836 255 178 96
-0.0384295 -0.487514 -0.0238212 255 178 96
-0.26014 -0.477984 0.0588447 255 178 96
-0.261471 -0.380324 0.0565997 255 178 96
-0.257977 -0.456646 0.222976 255 178 96
-0.259924 -0.473885 0.0450408 255 178 96
-0.247066 -0.295778 0.450843 255 178 96
-0.020505 -0.477154 0.0691132 255 178 96
-0.18615 -0.487717 0.44112 255 178 96
-0.0872297 -0.487844 0.210356 255 178 96
-0.236596 -0.487009 0.442338 255 178 96
-0.256714 -0.337819 0.369982 255 178 96
-0.220897 -0.393411 0.462639 255 178 96
-0.257241 -0.41575 0.00506795 255 178 96
-0.0161319 -0.488121 0.268225 255 178 96
-0.258423 -0.365898 0.412594 255 178 96
-0.234114 -0.486657 0.453714 255 178 96
-0.260179 -0.426321 0.367107 255 178 96
-0.258324 -0.371721 0.428656 255 178 96
-0.260438 -0.436704 0.31493 255 178 96
-0.261808 -0.358235 0.0916517 255 178 96
-0.258291 -0.413997 0.0251396 255 178 96
-0.224762 -0.41653 0.465667 255 178 96
-0.2579 -0.379299 0.263148 255 178 96
-0.259969 -0.441179 0.217958 255 178 96
-0.250146 -0.311934 0.449356 255 178 96
-0.00884675 -0.479352 0.0103896 255 178 96
-0.259006 -0.440863 0.440661 255 178 96
-0.249041 -0.39426 0.461984 255 178 96
-0.257561 -0.386018 0.440898 255 178 96
-0.257092 -0.342738 0.390181 255 178 96
-0.205702 -0.415786 0.453103 255 178 96
-0.23529 -0.436116 0.467578 255 178 96
-0.255574 -0.31896 0.331015 255 178 96
-0.173561 -0.487272 0.161729 255 178 96
-0.167253 -0.487321 0.167446 255 178 96
0.0750939 -0.48753 0.0335878 255 178 96
-0.190974 -0.486645 0.0436409 255 178 96
-0.25768 -0.361428 0.232032 255 178 96
-0.252562 -0.449401 -0.0747607 255 178 96
-0.256007 -0.321159 0.417073 255 178 96
-0.252354 -0.28994 0.339036 255 178 96
-0.259614 -0.356922 0.165355 255 178 96
-0.258058 -0.387065 0.437513 255 178 96
-0.258405 -0.330189 0.127018 255 178 96
-0.257438 -0.453354 0.0221381 255 178 96
-0.254959 -0.312639 0.236804 255 178 96
-0.193041 -0.474985 0.453101 255 178 96
-0.254917 -0.318137 0.194906 255 178 96
-0.0412492 -0.487468 0.148004 255 178 96
-0.261183 -0.410648 0.102544 255 178 96
-0.260257 -0.436377 0.0649815 255 178 96
-0.255088 -0.315067 0.215224 255 178 96
-0.211651 -0.486471 -0.0538267 255 178 96
-0.163838 -0.487444 0.449118 255 178 96
-0.260739 -0.35817 0.136484 255 178 96
-0.253411 -0.299202 0.376919 255 178 96
-0.164654 -0.488005 0.302397 255 178 96
-0.247238 -0.261514 0.438005 255 178 96
-0.243891 -0.486367 0.00355807 255 178 96
-0.252024 -0.487082 0.190906 255 178 96
-0.257028 -0.33841 0.408922 255 178 96
-0.259654 -0.405976 0.430033 255 178 96
-0.261386 -0.39521 0.127616 255 178 96
-0.242307 -0.326917 0.459411 255 178 96
-0.23918 -0.482087 0.463813 255 178 96
-0.258225 -0.40825 0.280749 255 178 96
-0.258044 -0.472637 0.201142 255 178 96
-0.221491 -0.397433 0.463056 255 178 96
-0.200789 -0.427455 0.45124 255 178 96
-0.15925 -0.486719 -0.0384957 255 178 96
-0.251264 -0.360029 0.456033 255 178 96
0.0996597 -0.478739 0.0624409 255 178 96
-0.221891 -0.43201 0.461612 255 178 96
-0.255164 -0.448585 -0.0248785 255 178 96
-0.258038 -0.389109 0.347777 255 178 96
-0.139859 -0.467154 0.43959 255 178 96
-0.258983 -0.378776 0.219863 255 178 96
-0.222615 -0.407948 0.463734 255 178 96
-0.23448 -0.487617 0.391511 255 178 96
-0.259893 -0.406692 0.418226 255 178 96
-0.24735 -0.486727 0.440405 255 178 96
-0.256302 -0.344113 0.319091 255 178 96
-0.251416 -0.278273 0.397552 255 178 96
-0.2612 -0.411455 0.157842 255 178 96
-0.257981 -0.395358 0.286332 255 178 96
-0.256096 -0.333504 0.146608 255 178 96
-0.263537 -0.334999 0.00125435 255 178 96
-0.244057 -0.487504 0.351669 255 178 96
-0.257732 -0.486381 0.167602 255 178 96
-0.262276 -0.420646 0.119044 255 178 96
-0.258184 -0.457552 0.259294 255 178 96
-0.260182 -0.426169 0.216425 255 178 96
-0.261542 -0.374791 0.0806162 255 178 96
-0.259023 -0.401869 0.219555 255 178 96
-0.253587 -0.486692 0.426018 255 178 96
-0.260242 -0.467722 0.333789 255 178 96
0.0369875 -0.48804 0.302244 255 178 96
-0.262001 -0.362915 0.0822305 255 178 96
-0.256732 -0.350559 0.271284 255 178 96
-0.255369 -0.315955 0.267346 255 178 96
-0.168904 -0.471695 0.446548 255 178 96
-0.228569 -0.470528 0.466439 255 178 96
-0.261306 -0.372591 -0.0183794 255 178 96
-0.249778 -0.370194 0.459216 255 178 96
-0.248069 -0.333527 0.455789 255 178 96
-0.166219 -0.487944 0.367067 255 178 96
-0.255939 -0.467815 0.448745 255 178 96
-0.259663 -0.400151 0.0348324 255 178 96
-0.230557 -0.376295 0.465283 255 178 96
0.0953912 -0.48742 0.0362679 255 178 96
-0.260327 -0.475426 0.352471 255 178 96
-0.212185 -0.484336 0.461189 255 178 96
-0.257149 -0.36964 0.309257 255 178 96
-0.247235 -0.280093 0.446683 255 178 96
-0.24569 -0.486331 -0.0677367 255 178 96
-0.245207 -0.48631 -0.124225 255 178 96
-0.128729 -0.488068 0.286123 255 178 96
0.166987 -0.482417 -0.000269882 255 178 96
-0.122349 -0.484788 -0.0901323 255 178 96
-0.259272 -0.411576 0.394558 255 178 96
-0.263372 -0.343478 0.0638815 255 178 96
-0.258701 -0.441368 0.260697 255 178 96
-0.255143 -0.487067 0.244012 255 178 96
-0.241741 -0.486421 0.0247578 255 178 96
-0.251167 -0.27573 0.401188 255 178 96
0.134133 -0.486562 -0.0367056 255 178 96
-0.259241 -0.40973 0.394035 255 178 96
-0.254179 -0.486403 -0.112623 255 178 96
-0.0153049 -0.488033 0.350103 255 178 96
-0.119557 -0.487953 0.238921 255 178 96
0.0591487 -0.487496 0.187783 255 178 96
-0.255143 -0.323432 0.209353 255 178 96
-0.260772 -0.376467 0.18111 255 178 96
-0.260494 -0.47267 0.384403 255 178 96
-0.25954 -0.485807 0.0755767 255 178 96
-0.184104 -0.48664 0.0353651 255 178 96
-0.25233 -0.290985 0.366827 255 178 96
-0.249293 -0.262102 0.393982 255 178 96
-0.218072 -0.48776 0.434123 255 178 96
-0.259664 -0.407058 0.409567 255 178 96
-0.258212 -0.375694 0.245546 255 178 96
-0.12307 -0.487221 0.11748 255 178 96
0.0441023 -0.487504 0.18417 255 178 96
-0.194247 -0.486615 -0.0626032 255 178 96
-0.252877 -0.472733 -0.0828075 255 178 96
-0.259651 -0.419552 0.0675887 255 178 96
0.161327 -0.487218 0.175681 255 178 96
-0.252986 -0.486196 -0.0688618 255 178 96
-0.227697 -0.440423 0.46708 255 178 96
-0.194856 -0.486688 0.0511962 255 178 96
-0.221558 -0.431267 0.461349 255 178 96
0.0188693 -0.48756 0.184999 255 178 96
-0.261163 -0.446559 0.402072 255 178 96
-0.138616 -0.473214 0.441055 255 178 96
0.11681 -0.487715 0.213235 255 178 96
-0.259097 -0.322892 0.107568 255 178 96
-0.261278 -0.416428 0.168075 255 178 96
-0.228649 -0.313678 0.459135 255 178 96
-0.204847 -0.475575 0.457765 255 178 96
0.116314 -0.487347 0.163456 255 178 96
-0.25715 -0.358799 0.364087 255 178 96
-0.261969 -0.358716 0.0858049 255 178 96
-0.0521745 -0.487934 0.377678 255 178 96
-0.257189 -0.379668 0.321674 255 178 96
-0.2556 -0.361765 0.445338 255 178 96
-0.222445 -0.403867 0.463908 255 178 96
-0.249136 -0.264847 0.363158 255 178 96
0.0711227 -0.485123 -0.089161 255 178 96
-0.0846973 -0.487876 0.424574 255 178 96
-0.244202 -0.48138 0.461723 255 178 96
-0.259645 -0.482359 0.302231 255 178 96
-0.257909 -0.389286 0.263424 255 178 96
0.165301 -0.48722 0.167814 255 178 96
-0.0610447 -0.487906 0.386025 255 178 96
-0.258516 -0.486268 0.243535 255 178 96
-0.259502 -0.413085 0.402165 255 178 96
-0.254998 -0.316409 0.348164 255 178 96
-0.259978 -0.462053 0.128784 255 178 96
-0.0951203 -0.48801 0.348728 255 178 96
-0.260081 -0.485609 0.0500251 255 178 96
0.0197021 -0.486588 -0.0326244 255 178 96
-0.259594 -0.426482 0.306966 255 178 96
-0.0075948 -0.488116 0.266825 255 178 96
0.241253 -0.485902 0.00326731 255 178 96
-0.258905 -0.428191 0.0543548 255 178 96
-0.256522 -0.344967 0.307839 255 178 96
-0.260171 -0.475887 0.379562 255 178 96
-0.259762 -0.423988 0.402169 255 178 96
-0.250035 -0.38214 0.460261 255 178 96
0.00618678 -0.487597 0.186468 255 178 96
-0.259662 -0.40679 0.208407 255 178 96
-0.24488 -0.328278 0.457682 255 178 96
-0.256658 -0.356169 0.437338 255 178 96
-0.241958 -0.462703 0.46623 255 178 96
-0.25554 -0.329865 0.229229 255 178 96
-0.215287 -0.379847 0.457603 255 178 96
-0.205888 -0.457795 0.456505 255 178 96
-0.25166 -0.487075 0.184437 255 178 96
-0.00963324 -0.47846 0.0362378 255 178 96
-0.258332 -0.429079 0.26084 255 178 96
-0.257925 -0.402348 0.31843 255 178 96
-0.121864 -0.488081 0.29131 255 178 96
0.0501002 -0.476726 0.103065 255 178 96
-0.249354 -0.355083 0.457495 255 178 96
-0.257387 -0.386786 0.287939 255 178 96
-0.181101 -0.487945 0.281678 255 178 96
-0.256143 -0.325637 0.395595 255 178 96
-0.253657 -0.300196 0.34807 255 178 96
-0.258274 -0.376846 0.244154 255 178 96
-0.25833 -0.485913 0.151424 255 178 96
-0.253461 -0.309749 0.435284 255 178 96
-0.248935 -0.263133 0.345467 255 178 96
-0.26284 -0.33851 0.0972481 255 178 96
-0.128997 -0.488035 0.332491 255 178 96
0.0942839 -0.486435 -0.0605147 255 178 96
-0.249538 -0.486367 -0.0805004 255 178 96
-0.258072 -0.392146 0.255545 255 178 96
-0.261145 -0.437285 0.371601 255 178 96
-0.257671 -0.460353 0.242005 255 178 96
-0.08145 -0.488012 0.244135 255 178 96
-0.23224 -0.486675 0.455711 255 178 96
-0.217598 -0.487837 0.374675 255 178 96
-0.252964 -0.295391 0.357105 255 178 96
-0.25841 -0.485885 0.186795 255 178 96
-0.249501 -0.281767 0.43976 255 178 96
-0.257604 -0.486243 0.116159 255 178 96
-0.250522 -0.272348 0.423064 255 178 96
-0.249063 -0.258003 0.413867 255 178 96
-0.25877 -0.412308 0.325175 255 178 96
-0.255818 -0.384963 0.449282 255 178 96
-0.260748 -0.467307 0.383561 255 178 96
0.155117 -0.480617 0.0309817 255 178 96
-0.259109 -0.401021 0.43451 255 178 96
-0.259454 -0.452545 0.294251 255 178 96
-0.258596 -0.408486 0.347215 255 178 96
-0.257197 -0.361501 0.435784 255 178 96
-0.187945 -0.487905 0.347416 255 178 96
-0.22357 -0.413085 0.464631 255 178 96
-0.255174 -0.321415 0.214816 255 178 96
-0.261909 -0.364979 -0.0172825 255 178 96
-0.258486 -0.408258 0.332942 255 178 96
-0.258163 -0.361847 0.398313 255 178 96
0.183114 -0.48715 0.140807 255 178 96
-0.258051 -0.486018 0.137551 255 178 96
-0.25884 -0.462324 0.269389 255 178 96
0.233519 -0.48401 0.00532814 255 178 96
-0.25743 -0.38919 0.321241 255 178 96
-0.249894 -0.48701 0.169302 255 178 96
-0.250644 -0.277141 0.431275 255 178 96
-0.254755 -0.308082 0.406979 255 178 96
-0.259862 -0.410918 0.0713913 255 178 96
-0.259997 -0.455641 0.0568117 255 178 96
-0.259854 -0.474029 0.279029 255 178 96
0.104046 -0.48734 0.14525 255 178 96
-0.260434 -0.394023 0.0511183 255 178 96
-0.255572 -0.487044 0.298515 255 178 96
-0.260678 -0.445602 0.418016 255 178 96
-0.258875 -0.483245 0.387203 255 178 96
-0.220324 -0.393214 0.462112 255 178 96
-0.168158 -0.480437 0.447892 255 178 96
-0.259528 -0.411645 0.0557375 255 178 96
-0.261265 -0.454293 0.408096 255 178 96
-0.253124 -0.486114 -0.0836504 255 178 96
0.0256916 -0.459061 0.0542699 255 139 72
0.13373 -0.423481 0.214475 255 139 72
-0.0658068 -0.441744 0.316564 255 139 72
0.122793 -0.423958 0.206328 255 139 72
0.0119787 -0.462547 0.0215216 255 139 72
0.245928 -0.483698 0.133196 255 139 72
-0.0392112 -0.444105 0.219183 255 139 72
-0.135412 -0.433293 0.293986 255 139 72
0.0960493 -0.459027 0.307606 255 139 72
0.230853 -0.482974 0.233791 255 139 72
0.244656 -0.482907 0.210371 255 139 72
-0.100896 -0.441913 0.308433 255 139 72
0.0950321 -0.452091 0.119743 255 139 72
-0.0277027 -0.446803 0.275754 255 139 72
-0.116038 -0.438912 0.253344 255 139 72
0.070715 -0.446062 0.1202 255 139 72
-0.101666 -0.348006 -0.122716 255 139 72
0.242648 -0.46137 0.187418 255 139 72
0.125428 -0.426606 0.270832 255 139 72
0.0885719 -0.435607 0.310497 255 139 72
0.0833182 -0.442263 0.122754 255 139 72
0.179167 -0.467868 0.124301 255 139 72
-0.121996 -0.4297 0.156711 255 139 72
0.234499 -0.442243 0.204338 255 139 72
0.0826103 -0.467534 0.312432 255 139 72
0.159372 -0.427559 0.267031 255 139 72
-0.139256 -0.425471 0.291355 255 139 72
0.253165 -0.485003 0.165714 255 139 72
0.095083 -0.429549 0.18381 255 139 72
0.0820516 -0.431922 0.180317 255 139 72
0.146285 -0.463007 0.167728 255 139 72
0.0153445 -0.448128 0.311108 255 139 72
-0.0130417 -0.431759 0.279278 255 139 72
-0.0131003 -0.417735 -0.0612971 255 139 72
0.0492488 -0.436626 0.182961 255 139 72
0.013646 -0.367078 -0.140583 255 139 72
-0.12477 -0.395147 -0.0812921 255 139 72
0.0386339 -0.452143 0.0835743 255 139 72
-0.08017 -0.455259 0.064257 255 139 72
-0.00787089 -0.443699 0.0603165 255 139 72
0.0500393 -0.458226 0.0803047 255 139 72
0.0486314 -0.450676 0.0974332 255 139 72
0.268023 -0.483862 0.120692 255 139 72
-0.0702473 -0.435767 -0.10201 255 139 72
0.129926 -0.426912 0.18303 255 139 72
-0.00895762 -0.435702 0.280645 255 139 72
0.249836 -0.48093 0.197855 255 139 72
-0.112475 -0.428384 -0.0625661 255 139 72
-0.0399135 -0.44197 0.32873 255 139 72
0.114297 -0.426054 0.272261 255 139 72
0.0911172 -0.465741 0.253505 255 139 72
0.103382 -0.442056 0.141345 255 139 72
0.0091942 -0.465632 -0.0502105 255 139 72
0.0265521 -0.437258 0.303169 255 139 72
0.118915 -0.428811 0.286394 255 139 72
0.157568 -0.423278 0.194976 255 139 72
-0.0792228 -0.439725 -0.064086 255 139 72
0.283558 -0.488403 0.1481 255 139 72
0.238539 -0.441622 0.193149 255 139 72
0.0403283 -0.439187 0.0152701 255 139 72
0.0213543 -0.450776 0.123765 255 139 72
-0.203401 -0.422478 0.22162 255 139 72
-0.0362697 -0.454241 0.0991023 255 139 72
0.0992703 -0.48269 0.0423809 255 139 72
0.0664639 -0.426841 0.225424 255 139 72
-0.0144569 -0.441897 -0.000154346 255 139 72
0.219023 -0.455433 0.155273 255 139 72
-0.0558937 -0.459744 0.12328 255 139 72
0.202299 -0.447189 0.154217 255 139 72
-0.0553729 -0.442086 -0.0946621 255 139 72
0.0361027 -0.478314 0.0385912 255 139 72
0.116813 -0.477062 0.308221 255 139 72
0.112753 -0.476834 0.182481 255 139 72
0.200991 -0.421509 0.206178 255 139 72
0.0207816 -0.468969 0.0256964 255 139 72
0.0199131 -0.366649 -0.140308 255 139 72
0.118255 -0.473742 0.307112 255 139 72
0.107801 -0.442906 0.1139 255 139 72
0.20109 -0.465351 0.138403 255 139 72
0.0644495 -0.441633 -0.119452 255 139 72
-0.0224425 -0.395033 -0.122154 255 139 72
-0.197487 -0.397346 0.0842796 255 139 72
0.224982 -0.476584 0.237534 255 139 72
-0.00862467 -0.442657 0.0397638 255 139 72
0.11628 -0.446185 0.100741 255 139 72
0.0942984 -0.446874 0.132275 255 139 72
-0.0892236 -0.406547 -0.0858724 255 139 72
0.197522 -0.478243 0.0597451 255 139 72
0.210688 -0.470811 0.249426 255 139 72
0.0525848 -0.431586 0.208432 255 139 72
0.193067 -0.432194 0.258593 255 139 72
-0.00185305 -0.433361 0.261678 255 139 72
0.0668619 -0.430292 0.267472 255 139 72
0.0812969 -0.478943 0.317363 255 139 72
-0.0461879 -0.443747 0.294439 255 139 72
0.0931281 -0.450944 0.261423 255 139 72
0.0233002 -0.439885 0.191588 255 139 72
-0.0385372 -0.447125 0.17573 255 139 72
0.108448 -0.481968 0.0258434 255 139 72
0.189527 -0.432053 0.260207 255 139 72
0.152792 -0.478899 0.0977099 255 139 72
0.0280046 -0.446996 0.0869746 255 139 72
0.129709 -0.459819 0.209939 255 139 72
-0.0280149 -0.445862 -0.103599 255 139 72
0.0649602 -0.474191 0.0590119 255 139 72
0.251122 -0.488153 0.139119 255 139 72
0.0107639 -0.460931 0.022998 255 139 72
0.233958 -0.449706 0.177532 255 139 72
-0.122629 -0.394923 -0.083343 255 139 72
0.206483 -0.482387 0.114926 255 139 72
-0.0482037 -0.42793 -0.0309402 255 139 72
0.273507 -0.499143 0.162505 255 139 72
0.0916736 -0.42937 0.186051 255 139 72
0.110343 -0.43569 0.16027 255 139 72
-0.209585 -0.387126 0.0676838 255 139 72
-0.0173738 -0.460559 -0.00966291 255 139 72
0.0638009 -0.471859 0.135403 255 139 72
-0.00500652 -0.466876 -0.0497667 255 139 72
0.0747826 -0.461082 0.272365 255 139 72
0.017876 -0.456218 0.047067 255 139 72
0.0717889 -0.475536 -0.0321659 255 139 72
-0.0535761 -0.44765 0.0621153 255 139 72
-0.0834756 -0.437444 -0.0434559 255 139 72
-0.0991139 -0.430499 -0.0863968 255 139 72
-0.0239446 -0.435975 -0.0324748 255 139 72
0.019534 -0.456102 -0.0805095 255 139 72
0.0985604 -0.428392 0.282006 255 139 72
0.14148 -0.423829 0.19504 255 139 72
-0.10688 -0.458404 0.108005 255 139 72
-0.110432 -0.338295 -0.112248 255 139 72
0.207104 -0.425387 0.225191 255 139 72
-0.00499911 -0.454155 -0.0713132 255 139 72
0.207935 -0.429996 0.17575 255 139 72
-0.0201298 -0.433607 -0.0186599 255 139 72
0.129466 -0.451456 0.292696 255 139 72
-0.0491641 -0.440807 0.332585 255 139 72
0.237719 -0.435518 0.198482 255 139 72
-0.0648292 -0.441992 0.0569331 255 139 72
0.173137 -0.453173 0.270625 255 139 72
0.0510919 -0.455214 0.0872792 255 139 72
0.16185 -0.423835 0.224767 255 139 72
-0.0107117 -0.408164 -0.112206 255 139 72
0.186675 -0.441075 0.264965 255 139 72
0.263676 -0.498761 0.162464 255 139 72
-0.0871861 -0.438345 0.19564 255 139 72
0.161355 -0.477453 0.0397007 255 139 72
0.23301 -0.475878 0.224824 255 139 72
0.0185794 -0.450315 0.143241 255 139 72
0.192264 -0.463741 0.136054 255 139 72
0.188797 -0.430992 0.259114 255 139 72
-0.0679105 -0.458467 0.117726 255 139 72
0.143614 -0.481375 0.297262 255 139 72
0.247095 -0.475103 0.195152 255 139 72
0.0489958 -0.43553 0.313164 255 139 72
-0.0115948 -0.381766 -0.133728 255 139 72
0.0299258 -0.436227 0.307458 255 139 72
0.231096 -0.442986 0.211337 255 139 72
0.104296 -0.437561 0.156865 255 139 72
0.210116 -0.444046 0.161007 255 139 72
-0.055968 -0.379502 -0.13227 255 139 72
0.222579 -0.42551 0.199669 255 139 72
0.0276164 -0.434116 0.272437 255 139 72
-0.0277696 -0.455294 0.11008 255 139 72
0.127159 -0.449754 0.294181 255 139 72
0.0650181 -0.448358 0.125564 255 139 72
-0.0580203 -0.443354 0.072386 255 139 72
0.0517246 -0.479584 -0.0138475 255 139 72
0.0596082 -0.44784 0.133428 255 139 72
0.238235 -0.455125 0.180486 255 139 72
-0.0344822 -0.454062 0.145141 255 139 72
-0.0744994 -0.439563 -0.00862077 255 139 72
0.241622 -0.459742 0.190071 255 139 72
0.0997648 -0.450916 0.122707 255 139 72
0.0429499 -0.481723 -0.0514286 255 139 72
-0.0683228 -0.435008 -0.0132701 255 139 72
0.147669 -0.479309 0.0937813 255 139 72
0.046553 -0.474859 0.0448631 255 139 72
-0.0918073 -0.453812 0.0625174 255 139 72
-0.00481106 -0.459553 0.102609 255 139 72
0.221013 -0.425984 0.204323 255 139 72
-0.0379419 -0.453039 0.148204 255 139 72
0.0608494 -0.481703 0.0107182 255 139 72
-0.0346248 -0.451032 0.162099 255 139 72
0.0480626 -0.470699 0.0542829 255 139 72
0.0302961 -0.440735 0.319695 255 139 72
0.035725 -0.467461 0.320474 255 139 72
0.162885 -0.446177 0.142446 255 139 72
0.0540232 -0.392084 -0.104211 255 139 72
-0.0146862 -0.436947 0.229011 255 139 72
-0.0610808 -0.449526 0.132029 255 139 72
0.185351 -0.427791 0.254399 255 139 72
0.0682303 -0.473855 0.129869 255 139 72
0.0054513 -0.436991 -0.000938624 255 139 72
0.0162514 -0.445873 0.167051 255 139 72
0.106976 -0.481393 0.148171 255 139 72
0.250014 -0.482712 0.198913 255 139 72
0.109294 -0.454768 0.244267 255 139 72
0.0478986 -0.430847 0.222378 255 139 72
0.0917374 -0.482497 0.0219734 255 139 72
0.0070997 -0.451689 0.258897 255 139 72
-0.0889755 -0.367173 -0.124359 255 139 72
-0.0191403 -0.446586 0.0777964 255 139 72
0.181183 -0.429064 0.259743 255 139 72
0.227289 -0.434292 0.217555 255 139 72
-0.0647699 -0.448964 0.330215 255 139 72
0.254919 -0.484641 0.19911 255 139 72
0.0605004 -0.460568 0.0855714 255 139 72
-0.0260793 -0.443823 0.324801 255 139 72
0.194361 -0.437102 0.261125 255 139 72
-0.195828 -0.400591 0.0973073 255 139 72
0.206321 -0.422996 0.183154 255 139 72
0.0104025 -0.451535 0.117632 255 139 72
0.0136743 -0.388795 -0.13367 255 139 72
-0.0371081 -0.420735 -0.0833754 255 139 72
0.0589969 -0.447823 0.132938 255 139 72
0.0266625 -0.458824 0.0557494 255 139 72
-0.0716967 -0.439142 0.319794 255 139 72
0.0129309 -0.447403 0.321827 255 139 72
-0.0558731 -0.446328 0.173819 255 139 72
0.119043 -0.46272 0.301059 255 139 72
0.267217 -0.480827 0.102441 255 139 72
0.114354 -0.424806 0.262201 255 139 72
0.153962 -0.480142 0.0485921 255 139 72
0.116791 -0.429626 0.176977 255 139 72
0.10631 -0.447253 0.133426 255 139 72
0.225686 -0.428297 0.202892 255 139 72
0.270811 -0.49098 0.183041 255 139 72
0.0168548 -0.448696 0.0647266 255 139 72
0.015048 -0.425573 -0.105834 255 139 72
0.0444002 -0.448133 0.102537 255 139 72
-0.110624 -0.429141 -0.0157638 255 139 72
0.169451 -0.424646 0.236969 255 139 72
0.0883688 -0.449579 0.127962 255 139 72
0.243517 -0.464944 0.198276 255 139 72
0.142155 -0.431007 0.281694 255 139 72
-0.0279457 -0.39871 -0.115235 255 139 72
0.0290301 -0.47154 -0.0508056 255 139 72
0.0331965 -0.456678 0.234197 255 139 72
0.0055544 -0.451409 0.0365121 255 139 72
0.109858 -0.438794 0.149938 255 139 72
-0.0264257 -0.354372 -0.144718 255 139 72
0.240785 -0.476477 0.154908 255 139 72
0.213231 -0.460248 0.148194 255 139 72
0.215473 -0.453465 0.240675 255 139 72
0.123192 -0.480354 0.0284238 255 139 72
0.0264383 -0.45921 0.162366 255 139 72
0.153813 -0.481197 0.0791011 255 139 72
0.0547032 -0.434077 0.304986 255 139 72
0.0742699 -0.487896 0.0554088 255 139 72
0.178701 -0.454614 0.139042 255 139 72
0.17517 -0.465986 0.124598 255 139 72
0.0106935 -0.458899 0.105207 255 139 72
0.0751711 -0.430762 0.189411 255 139 72
0.050328 -0.449404 0.135282 255 139 72
-0.0369451 -0.467559 0.329623 255 139 72
0.24508 -0.471372 0.200831 255 139 72
-0.102934 -0.437838 0.307827 255 139 72
0.215924 -0.47414 0.24515 255 139 72
0.176591 -0.426325 0.177659 255 139 72
-0.054591 -0.343713 -0.106546 255 139 72
-0.175412 -0.405979 0.0472126 255 139 72
-0.0983289 -0.437391 0.319559 255 139 72
0.00672151 -0.395353 -0.127731 255 139 72
0.0720314 -0.446427 0.134461 255 139 72
0.208974 -0.427274 0.230739 255 139 72
0.124141 -0.442647 0.142507 255 139 72
-0.0995012 -0.364721 -0.11831 255 139 72
0.143064 -0.462013 0.115323 255 139 72
0.0300502 -0.478363 0.00347307 255 139 72
0.00981737 -0.440309 0.205908 255 139 72
0.261713 -0.486562 0.198095 255 139 72
0.0786366 -0.449651 0.125818 255 139 72
0.049602 -0.457039 0.28328 255 139 72
0.218585 -0.425349 0.206443 255 139 72
0.104941 -0.439572 0.150273 255 139 72
0.182546 -0.435722 0.267542 255 139 72
0.145525 -0.431522 0.163849 255 139 72
0.0644457 -0.449068 0.120765 255 139 72
-0.00554498 -0.45007 0.129487 255 139 72
-0.0116542 -0.456463 0.132763 255 139 72
0.100998 -0.48101 0.0614178 255 139 72
-0.00472059 -0.375964 -0.136154 255 139 72
0.184891 -0.465888 0.267727 255 139 72
-0.103408 -0.457343 0.0888597 255 139 72
0.0699841 -0.478473 0.0546697 255 139 72
-0.0670388 -0.441141 0.0238674 255 139 72
0.0886682 -0.431367 0.300167 255 139 72
-0.0331603 -0.417446 -0.0955161 255 139 72
0.164462 -0.425296 0.182479 255 139 72
0.134281 -0.427886 0.178838 255 139 72
0.0499893 -0.433404 0.291796 255 139 72
0.0293418 -0.461544 0.319147 255 139 72
0.245261 -0.46756 0.187357 255 139 72
0.00270883 -0.459969 -0.00165853 255 139 72
-0.0966709 -0.419929 -0.036975 255 139 72
0.0481807 -0.480895 -0.062122 255 139 72
0.0302473 -0.452922 0.07075 255 139 72
0.0569303 -0.473866 0.0542646 255 139 72
-0.167466 -0.408343 -0.00602963 255 139 72
0.0205975 -0.473222 0.023594 255 139 72
0.0100249 -0.427386 -0.0490939 255 139 72
0.0368476 -0.468758 0.102647 255 139 72
-0.100682 -0.431513 -0.00124176 255 139 72
0.0204034 -0.457901 0.0486752 255 139 72
0.269412 -0.49726 0.166737 255 139 72
0.0244023 -0.438872 0.200885 255 139 72
0.0223239 -0.452101 0.131293 255 139 72
0.0803491 -0.46758 0.195956 255 139 72
-0.0336037 -0.438396 0.0145526 255 139 72
-0.00985715 -0.445585 0.0759459 255 139 72
0.22959 -0.444238 0.213561 255 139 72
0.0857511 -0.458083 0.10588 255 139 72
0.206917 -0.440194 0.163039 255 139 72
-0.0147832 -0.451238 0.171448 255 139 72
-0.0370809 -0.447015 0.192778 255 139 72
-0.000514865 -0.450559 -0.0800326 255 139 72
0.129879 -0.467995 0.297813 255 139 72
0.0540539 -0.435009 0.187325 255 139 72
0.0175619 -0.464411 -0.0591488 255 139 72
-0.0121581 -0.44175 0.0292841 255 139 72
0.115258 -0.436784 0.30281 255 139 72
-0.0696432 -0.411592 -0.0835903 255 139 72
0.113983 -0.424266 0.233921 255 139 72
0.0649621 -0.436864 0.313834 255 139 72
0.199657 -0.439887 0.257582 255 139 72
0.275084 -0.483768 0.116216 255 139 72
0.216197 -0.439225 0.241187 255 139 72
-0.0569949 -0.444411 0.166693 255 139 72
0.0963684 -0.458764 0.106435 255 139 72
0.185027 -0.430517 0.166772 255 139 72
0.0446878 -0.447859 0.126788 255 139 72
-0.00575757 -0.454073 -0.00614816 255 139 72
0.130548 -0.462014 0.205099 255 139 72
-0.0651742 -0.371456 -0.133545 255 139 72
0.0769966 -0.45972 0.27482 255 139 72
-0.074281 -0.436893 0.28477 255 139 72
0.0331961 -0.434609 0.220394 255 139 72
0.00431475 -0.443013 -0.0908973 255 139 72
0.163637 -0.434601 0.157308 255 139 72
0.240164 -0.48291 0.218117 255 139 72
0.232817 -0.491602 0.1352 255 139 72
0.228463 -0.429711 0.201764 255 139 72
0.0432914 -0.465158 0.148097 255 139 72
0.0191707 -0.453569 -0.0842214 255 139 72
-0.134884 -0.426628 0.147858 255 139 72
0.250161 -0.476502 0.183111 255 139 72
0.022529 -0.463221 -0.0910817 255 139 72
-0.00903912 -0.450676 0.0999454 255 139 72
0.088689 -0.469266 0.199583 255 139 72
0.242775 -0.47022 0.167974 255 139 72
-0.042901 -0.423052 -0.0650431 255 139 72
0.136333 -0.459848 0.194181 255 139 72
0.212369 -0.429807 0.234118 255 139 72
0.143222 -0.470578 0.152844 255 139 72
0.189393 -0.434585 0.159114 255 139 72
0.0784295 -0.482379 0.0263039 255 139 72
0.146669 -0.452347 0.13977 255 139 72
0.142097 -0.423192 0.203614 255 139 72
-0.116784 -0.435584 0.282792 255 139 72
0.0273434 -0.453568 0.065023 255 139 72
-0.151801 -0.429933 0.251324 255 139 72
-0.119375 -0.4289 0.111107 255 139 72
-0.0297195 -0.398073 -0.115224 255 139 72
0.243483 -0.465802 0.200523 255 139 72
0.201565 -0.420778 0.194425 255 139 72
0.194668 -0.473533 0.262913 255 139 72
0.0618758 -0.466338 0.00440616 255 139 72
-0.0843037 -0.359411 -0.126585 255 139 72
-0.0687892 -0.438536 0.0133027 255 139 72
-0.142935 -0.424563 0.137118 255 139 72
0.163716 -0.434544 0.276877 255 139 72
-0.00987814 -0.451399 0.159966 255 139 72
-0.02376 -0.457965 0.00269362 255 139 72
0.147854 -0.476566 0.29241 255 139 72
0.0357399 -0.45611 0.0708478 255 139 72
0.21612 -0.486133 0.125063 255 139 72
0.0475106 -0.444202 0.128032 255 139 72
0.0877271 -0.467588 0.219377 255 139 72
-0.0579737 -0.443426 0.280166 255 139 72
-0.0507708 -0.444178 0.208335 255 139 72
0.212468 -0.477975 0.249826 255 139 72
0.135962 -0.46206 0.197795 255 139 72
-0.0267341 -0.43386 -0.0446111 255 139 72
-0.0745623 -0.435831 -0.0978112 255 139 72
-0.0527298 -0.393762 -0.115556 255 139 72
-0.186294 -0.398043 0.0434162 255 139 72
0.0239785 -0.447757 0.309717 255 139 72
-0.151339 -0.419606 0.0444666 255 139 72
0.0110309 -0.455756 -0.100682 255 139 72
-0.0683364 -0.44241 0.162055 255 139 72
-0.0153307 -0.459359 0.0842255 255 139 72
0.184834 -0.430328 0.167123 255 139 72
0.0276104 -0.438394 -0.104833 255 139 72
-0.0651531 -0.443267 0.268348 255 139 72
0.0588393 -0.458914 0.276609 255 139 72
-0.146342 -0.426113 -0.0126324 255 139 72
0.112794 -0.46413 0.305257 255 139 72
0.202854 -0.451338 0.151943 255 139 72
0.0365742 -0.478116 0.04115 255 139 72
-0.0150797 -0.441088 0.0187176 255 139 72
0.274897 -0.492496 0.184088 255 139 72
0.169066 -0.437097 0.153548 255 139 72
0.186549 -0.471838 0.26819 255 139 72
0.154911 -0.46897 0.284472 255 139 72
-0.0806722 -0.459388 0.0995499 255 139 72
0.0750794 -0.451629 0.114217 255 139 72
0.213735 -0.475889 0.13738 255 139 72
-0.0080256 -0.436269 0.264278 255 139 72
