ply
format ascii 1.0
comment Created by Open3D
element vertex 1227
property double x
property double y
property double z
property uchar red
property uchar green
property uchar blue
end_header
0.217343 0.0756652 0.0320487 255 95 48
0.278505 0.0761117 0.0795133 255 95 48
0.226697 0.0739363 -0.188778 255 95 48
0.318229 0.0755111 -0.175582 255 95 48
0.338085 0.0750543 -0.0803564 255 95 48
0.310899 0.0755507 -0.0219365 255 95 48
0.0308902 0.0754577 -0.0430612 255 95 48
0.110041 0.0754369 -0.0427338 255 95 48
0.011725 0.0767036 0.0207473 255 95 48
-0.202592 0.0755261 -0.07148 255 95 48
-0.267422 0.0757985 -0.0138372 255 95 48
0.283488 0.0757563 0.0305666 255 95 48
-0.0886019 0.0761108 -0.0158509 255 95 48
0.269258 0.0755278 -0.126946 255 95 48
0.277553 0.0756474 0.0673324 255 95 48
-0.0219679 0.0685822 -0.197857 255 95 48
-0.154325 0.0758386 -0.0786415 255 95 48
0.332235 0.0675979 0.0989431 255 95 48
-0.0365963 0.075781 -0.0544217 255 95 48
0.339214 0.0697672 0.0760514 255 95 48
-0.108157 0.075965 -0.0498229 255 95 48
0.218444 0.0740256 -0.182238 255 95 48
0.32533 0.075398 0.0892569 255 95 48
0.150178 0.0756113 -0.0932809 255 95 48
-0.176271 0.0765632 -0.178908 255 95 48
-0.128525 0.0758486 -0.0509961 255 95 48
0.348273 0.0746804 -0.0899084 255 95 48
0.132304 0.0748713 -0.159903 255 95 48
-0.0377888 0.055562 -0.205762 255 95 48
0.0414887 0.0754065 -0.0388308 255 95 48
-0.228413 0.0754073 -0.037356 255 95 48
0.073979 0.0741124 -0.202131 255 95 48
0.305713 0.0755735 0.00741776 255 95 48
0.318751 0.0755391 -0.175846 255 95 48
-0.377687 0.0790624 -0.0419706 255 95 48
0.263214 0.0760876 -0.0646551 255 95 48
0.113252 0.0754706 -0.107107 255 95 48
-0.154411 0.0757082 -0.0204441 255 95 48
0.28876 -0.322631 -0.0505432 255 95 48
0.354839 0.0589905 -0.0220864 255 95 48
-0.0228232 0.0757149 -0.0542385 255 95 48
-0.240272 0.0758987 -0.13555 255 95 48
0.0312903 0.0766402 0.0233014 255 95 48
-0.131912 0.0681078 -0.197685 255 95 48
0.190447 0.0756625 0.0352097 255 95 48
0.0481917 0.0752491 -0.0760241 255 95 48
-0.190168 0.0718875 -0.196433 255 95 48
0.159201 0.0757982 0.042099 255 95 48
0.113213 0.0754649 -0.0499718 255 95 48
-0.322336 0.0774213 -0.0273171 255 95 48
-0.0292379 0.0757781 -0.0456001 255 95 48
0.191505 0.075834 -0.0752375 255 95 48
-0.0551423 0.0759488 -0.0378049 255 95 48
-0.0905183 0.0760638 -0.133283 255 95 48
-0.34728 0.075596 -0.0470878 255 95 48
0.337801 0.0735969 0.0369026 255 95 48
0.0359549 0.0759162 0.0145977 255 95 48
0.263841 0.0761287 -0.086028 255 95 48
0.151438 0.0757353 0.0217961 255 95 48
0.306476 0.0759861 -0.136928 255 95 48
0.0397935 0.0778527 0.0166729 255 95 48
0.33135 0.0754752 -0.129061 255 95 48
-0.20002 0.0759201 -0.131571 255 95 48
0.254159 0.0758977 -0.00748155 255 95 48
-0.157711 0.0758779 -0.103966 255 95 48
-0.19638 0.075821 -0.198698 255 95 48
0.285747 0.0761216 -0.119616 255 95 48
-0.173176 0.0755946 -0.046169 255 95 48
-0.0654519 0.0765079 0.00784236 255 95 48
-0.0694933 0.0768232 0.00852161 255 95 48
-0.217482 0.0757004 -0.0105678 255 95 48
-0.0308918 0.0756836 -0.122858 255 95 48
-0.0243471 0.0757997 -0.16885 255 95 48
0.141828 0.0755183 -0.0399307 255 95 48
-0.201209 0.0754465 -0.0298398 255 95 48
0.057859 0.0768699 0.0236787 255 95 48
0.224544 0.0760166 -0.107311 255 95 48
0.0957538 0.0754695 -0.0184158 255 95 48
0.368456 0.0226497 -0.149822 255 95 48
0.300171 0.075694 0.0707997 255 95 48
0.341288 0.0614203 0.084478 255 95 48
-0.33627 0.0757698 -0.0684634 255 95 48
-0.321513 0.0763277 -0.115283 255 95 48
0.320992 0.0757085 -0.141348 255 95 48
0.123337 0.0749969 -0.150303 255 95 48
-0.21749 0.0756831 -0.108823 255 95 48
-0.0633018 0.0760055 -0.158067 255 95 48
0.0426962 0.0753967 -0.0397377 255 95 48
0.327473 -0.30363 0.0614102 255 95 48
0.0449385 0.0753009 -0.066776 255 95 48
0.0700824 0.074533 -0.196573 255 95 48
-0.217994 0.0753704 -0.0458198 255 95 48
0.284509 0.076026 0.0781768 255 95 48
0.297659 -0.0654617 -0.0296191 255 95 48
-0.345997 0.0756042 -0.0518141 255 95 48
-0.104943 0.0762322 -0.000522844 255 95 48
0.294716 0.0760814 -0.120074 255 95 48
-0.0517217 0.0585742 -0.20399 255 95 48
-0.156835 0.075678 -0.0376181 255 95 48
0.320397 0.0757894 0.0889643 255 95 48
0.0916111 0.0756596 0.0192902 255 95 48
-0.174322 0.0755931 -0.0494376 255 95 48
-0.295314 0.0754797 -0.0566811 255 95 48
0.330078 0.0695939 0.0997184 255 95 48
0.0880875 0.0753603 -0.0664884 255 95 48
-0.0235959 0.0760218 -0.009188 255 95 48
-0.0128052 0.0682935 -0.19827 255 95 48
0.311801 0.0754394 0.0344564 255 95 48
-0.234733 0.0759042 -0.136505 255 95 48
0.0607916 0.0749107 -0.191713 255 95 48
-0.314708 0.076055 -0.0971187 255 95 48
-0.239438 0.0756251 -0.0132638 255 95 48
0.282602 -0.283944 -0.0718748 255 95 48
0.342847 -0.0465873 0.0703948 255 95 48
-0.00361382 0.0755459 -0.143052 255 95 48
0.281258 0.07599 -0.0478442 255 95 48
0.248533 0.0704263 0.0350784 255 95 48
-0.187779 0.0757236 -0.118082 255 95 48
0.231507 0.076052 -0.100623 255 95 48
0.326437 0.0674482 0.110573 255 95 48
0.187871 0.0756713 0.0509617 255 95 48
0.0482991 0.0753549 -0.0401399 255 95 48
0.215799 0.0756707 -0.00147667 255 95 48
0.0507017 0.075315 -0.0439531 255 95 48
0.252794 0.0756777 0.0434603 255 95 48
0.350312 0.0745535 -0.0857966 255 95 48
0.233579 0.0748163 -0.149122 255 95 48
0.0946004 0.0755739 0.00461831 255 95 48
0.124008 0.0755365 -0.0194396 255 95 48
0.189987 0.0743683 -0.173223 255 95 48
-0.14538 0.0760106 -0.132058 255 95 48
-0.105703 0.076143 -0.0998648 255 95 48
0.0946066 0.0753614 -0.0900318 255 95 48
-0.263303 0.0754118 -0.0585449 255 95 48
0.296772 0.0757456 0.0716279 255 95 48
0.246942 0.0759327 -0.0554422 255 95 48
0.0139885 0.0755669 -0.0436202 255 95 48
-0.00231909 0.0153128 -0.213404 255 95 48
0.304056 0.0755039 0.0483887 255 95 48
0.342999 0.0722929 0.00715923 255 95 48
0.0952194 0.0755365 -0.00358459 255 95 48
0.241983 0.0758456 -0.0444024 255 95 48
-0.0131712 0.076387 0.0158846 255 95 48
-0.331115 0.0757773 -0.0335484 255 95 48
-0.0605317 0.0763779 0.00615396 255 95 48
-0.0189011 0.0764236 0.0150906 255 95 48
0.250657 0.0758816 -0.00461258 255 95 48
0.0844527 0.0753596 -0.0462241 255 95 48
0.106947 0.0758551 0.0051749 255 95 48
-0.0953322 0.0761461 -0.150794 255 95 48
-0.00213546 0.0755773 -0.0756972 255 95 48
-0.0598508 0.0761244 -0.191845 255 95 48
-0.0833609 0.0761454 -0.0138106 255 95 48
0.313952 0.0758449 -0.124619 255 95 48
0.254004 0.0749585 -0.146211 255 95 48
-0.12126 0.0760726 -0.00448208 255 95 48
0.329294 0.0749724 0.0876146 255 95 48
-0.148095 0.0757551 -0.0558526 255 95 48
-0.166434 0.0763206 -0.163393 255 95 48
0.35836 0.0582092 -0.0996699 255 95 48
0.122933 0.075504 -0.0257403 255 95 48
0.30815 0.0758173 -0.0717969 255 95 48
-0.0289284 0.0771576 0.0133384 255 95 48
-0.265892 0.0757418 -0.0933579 255 95 48
0.246748 0.0767903 0.0701707 255 95 48
0.31071 0.0755949 -0.028062 255 95 48
0.0771872 0.0762505 0.0287667 255 95 48
-0.0129639 0.0758153 -0.18667 255 95 48
-0.122997 0.0760141 -0.071773 255 95 48
0.25718 0.0757573 0.0295191 255 95 48
0.1422 0.0755698 -0.0634141 255 95 48
0.336471 0.029574 0.134975 255 95 48
-0.14012 0.0759087 -0.0728681 255 95 48
0.308711 0.0763925 0.0973897 255 95 48
0.150188 0.0749574 -0.149303 255 95 48
0.322358 0.0670313 0.116398 255 95 48
-0.163329 0.0759631 -0.00633687 255 95 48
-0.116412 0.0759077 -0.0434795 255 95 48
0.328608 -0.236761 0.0265923 255 95 48
0.198843 0.0741224 -0.183224 255 95 48
0.044525 0.0752335 -0.100288 255 95 48
0.279626 0.0744789 -0.162336 255 95 48
0.197866 0.0740758 -0.190025 255 95 48
0.346602 0.0662949 0.055471 255 95 48
-0.185965 0.0764956 -0.172239 255 95 48
0.0442271 0.0765373 0.0249751 255 95 48
0.234969 0.0760593 -0.102376 255 95 48
0.111761 0.0774405 0.0261179 255 95 48
0.168333 0.0756975 -0.0584196 255 95 48
-0.327998 0.0757491 -0.0327411 255 95 48
-0.143158 0.0760266 -0.133012 255 95 48
0.0797092 0.0752189 -0.135017 255 95 48
-0.159596 0.0762144 -9.29385e-05 255 95 48
0.167013 0.0755869 -0.0211475 255 95 48
-0.0617442 0.0759133 -0.144161 255 95 48
0.315674 0.0756332 0.0799894 255 95 48
0.311866 0.0754757 0.0261053 255 95 48
0.018405 0.0749625 -0.200697 255 95 48
0.0565449 0.0755092 -0.00886875 255 95 48
0.160324 0.0753779 -0.131025 255 95 48
-0.147095 0.0757303 -0.0454216 255 95 48
0.34709 0.0741536 -0.16428 255 95 48
-0.145382 0.0763784 -0.17006 255 95 48
-0.174684 0.0756511 -0.0645234 255 95 48
0.11593 0.0738049 -0.205502 255 95 48
-0.200758 0.0762704 -0.00149865 255 95 48
-0.213058 0.0754908 -0.0765423 255 95 48
-0.353751 0.0783131 -0.044639 255 95 48
0.316676 0.0756334 -0.0805083 255 95 48
-0.245097 0.0754775 -0.0196154 255 95 48
-0.163144 0.076057 -0.00380934 255 95 48
0.19017 0.0757712 0.0488045 255 95 48
-0.167275 0.0756277 -0.0448915 255 95 48
0.182385 0.0757911 -0.0889645 255 95 48
-0.0138859 0.0805035 0.000166871 255 95 48
-0.216355 0.075584 -0.0145452 255 95 48
0.13484 0.0758756 0.037129 255 95 48
0.33239 0.0749036 -0.0142449 255 95 48
0.181984 0.0756584 0.0492544 255 95 48
-0.0696419 0.0759914 -0.0470816 255 95 48
0.0361414 0.0753944 -0.0519715 255 95 48
-0.1295 0.0354439 -0.210155 255 95 48
-0.246799 0.075408 -0.0430973 255 95 48
0.286182 0.0756072 0.0597561 255 95 48
0.198709 0.0761832 0.0492311 255 95 48
0.19573 0.0749196 -0.146462 255 95 48
0.0399545 0.0753651 -0.0537224 255 95 48
0.230216 -0.0184864 -0.0494488 255 95 48
0.0979877 0.075408 -0.0480281 255 95 48
0.283553 0.0756074 0.063592 255 95 48
0.289579 0.0747587 -0.160481 255 95 48
0.0643947 0.0752952 -0.130456 255 95 48
-0.00652832 0.0756302 -0.16747 255 95 48
0.108516 0.0760015 0.0330256 255 95 48
-0.165675 0.0759294 -0.137988 255 95 48
-0.362555 0.075655 -0.0447529 255 95 48
0.00558936 0.0763001 0.0182475 255 95 48
-0.0813371 0.0762447 0.00196469 255 95 48
-0.106423 0.0761112 -0.0850329 255 95 48
-0.189337 0.0754705 -0.0357645 255 95 48
0.285448 0.076121 -0.118167 255 95 48
0.11376 0.0755391 -0.0137872 255 95 48
0.20903 0.0756765 -0.0322337 255 95 48
-0.376298 0.0783308 -0.0430739 255 95 48
-0.0889369 0.0760699 -0.0368515 255 95 48
0.246036 0.076084 -0.0956191 255 95 48
0.324898 -0.17484 -0.00199947 255 95 48
-0.00246991 0.0756241 -0.0509632 255 95 48
0.178275 0.0772212 0.0275687 255 95 48
0.169544 0.0757391 0.025026 255 95 48
0.0485348 0.0749798 -0.193863 255 95 48
-0.297526 0.0757872 -0.0839196 255 95 48
-0.00910251 0.0756943 -0.0425488 255 95 48
0.314173 0.0763804 0.101147 255 95 48
-0.1262 0.0727863 -0.194689 255 95 48
-0.222853 0.0757454 -0.113203 255 95 48
0.0791849 0.0757652 0.025615 255 95 48
0.317517 -0.101631 -0.0138937 255 95 48
-0.272299 0.0754272 -0.0621349 255 95 48
0.328103 0.0753219 -0.0761005 255 95 48
-0.0297146 0.0759181 -0.0222327 255 95 48
-0.28866 0.0754537 -0.0655226 255 95 48
0.303485 0.076168 0.0869266 255 95 48
0.242865 0.0758081 -0.0202953 255 95 48
0.118159 0.075759 0.0319144 255 95 48
0.117853 0.0754808 -0.0491897 255 95 48
-0.0842512 0.0763338 -0.196274 255 95 48
0.0966126 0.0753915 -0.0393715 255 95 48
0.0904438 0.0756604 0.0196417 255 95 48
0.198427 0.075908 -0.102112 255 95 48
-0.0806245 0.0762026 -0.00604164 255 95 48
0.262919 0.0756815 -0.120234 255 95 48
0.168001 0.0756065 -0.0103237 255 95 48
-0.19274 0.0763985 -0.190792 255 95 48
-0.0542682 0.0758471 -0.0970533 255 95 48
0.132879 0.0756726 0.0128356 255 95 48
-0.336787 0.0755746 -0.0390547 255 95 48
0.0410397 0.0659156 -0.201753 255 95 48
0.342571 -0.15757 0.0500818 255 95 48
0.220541 0.0757488 0.0166968 255 95 48
-0.282293 0.0754445 -0.0589132 255 95 48
0.250362 -0.207493 -0.0866945 255 95 48
0.304268 0.0755849 -0.150183 255 95 48
-0.329046 0.0756729 -0.0338953 255 95 48
-0.0246952 0.0756781 -0.103325 255 95 48
0.346158 0.0746856 -0.0767782 255 95 48
0.311586 0.0758272 -0.0958395 255 95 48
-0.256863 0.0754084 -0.0649824 255 95 48
0.269683 0.0740078 -0.179512 255 95 48
0.2776 0.0171018 -0.0157423 255 95 48
0.00536198 0.0749871 -0.200546 255 95 48
-0.351852 0.0761935 -0.0404676 255 95 48
0.13511 0.0757564 0.031313 255 95 48
0.0226096 0.0755157 -0.0409039 255 95 48
0.0555456 0.0754117 -0.0210821 255 95 48
0.278607 0.0761139 -0.0919458 255 95 48
0.153599 0.0733082 0.00777737 255 95 48
-0.209166 0.0767874 -0.196741 255 95 48
-0.118214 0.0759238 -0.0242209 255 95 48
-0.0370398 0.0734306 -0.194856 255 95 48
0.281657 0.027164 -0.00841919 255 95 48
-0.0447431 0.0769669 0.0122827 255 95 48
-0.15212 0.0758515 -0.0101136 255 95 48
-0.158039 0.0756721 -0.0399366 255 95 48
0.252589 0.0758251 0.0178182 255 95 48
0.265963 0.0756957 0.0681298 255 95 48
-0.0834889 0.0761191 -0.0214166 255 95 48
0.339457 -0.206806 0.0441406 255 95 48
0.253195 0.0756146 -0.122905 255 95 48
0.252348 0.0756636 0.0526588 255 95 48
-0.177895 0.0757732 -0.0105767 255 95 48
0.0999745 0.0755599 -0.00132478 255 95 48
-0.266505 0.0754156 -0.0534396 255 95 48
-0.175101 0.0762008 0.000611484 255 95 48
0.301036 0.0760489 -0.113207 255 95 48
0.25737 0.0738328 -0.186078 255 95 48
0.00316471 0.0756333 -0.0409168 255 95 48
0.250127 0.0758101 0.0700289 255 95 48
0.35152 0.0648903 -0.0162662 255 95 48
-0.23518 0.0760255 -0.0066797 255 95 48
0.221402 0.0756605 0.0338859 255 95 48
0.275132 0.075251 -0.138505 255 95 48
-0.0461638 -0.449737 0.0217426 255 46 23
-0.0558947 -0.407897 0.372806 255 46 23
0.0972641 -0.406655 0.354435 255 46 23
0.119079 -0.456683 0.11598 255 46 23
0.172521 -0.404462 0.172833 255 46 23
-0.131857 -0.398051 0.409124 255 46 23
-0.294457 -0.492819 -0.0500411 255 46 23
-0.125218 -0.477296 0.134926 255 46 23
0.219883 -0.402649 0.0866839 255 46 23
0.0434927 -0.468784 0.0769963 255 46 23
-0.154795 -0.463009 0.217438 255 46 23
0.218067 -0.394897 0.0267644 255 46 23
-0.185978 -0.462132 0.0958305 255 46 23
0.202439 -0.398864 0.0730462 255 46 23
-0.267347 -0.447713 0.0650108 255 46 23
-0.0119065 -0.47453 0.111309 255 46 23
-0.103718 -0.431087 0.326812 255 46 23
-0.387995 -0.491221 -0.0873701 255 46 23
-0.286285 -0.413418 -0.0245242 255 46 23
0.0356419 -0.395119 0.405808 255 46 23
0.152543 -0.420251 -0.198982 255 46 23
-0.147347 -0.431241 -0.091836 255 46 23
0.164133 -0.386741 0.0274248 255 46 23
-0.0974049 -0.38316 0.426927 255 46 23
-0.403363 -0.489172 -0.101211 255 46 23
0.149091 -0.42542 0.0564932 255 46 23
-0.243797 -0.458141 0.114297 255 46 23
-0.272236 -0.446989 0.0840597 255 46 23
0.238417 -0.435938 0.0183775 255 46 23
-0.0202371 -0.391521 0.402811 255 46 23
0.177372 -0.456079 0.00740966 255 46 23
-0.158023 -0.460764 0.0778961 255 46 23
0.0184031 -0.393484 0.410687 255 46 23
-0.0361507 -0.391808 0.393581 255 46 23
0.111435 -0.445952 0.173392 255 46 23
-0.263193 -0.453458 0.068775 255 46 23
-0.0968899 -0.417261 0.352471 255 46 23
-0.0820981 -0.38591 0.415562 255 46 23
-0.271433 -0.411779 0.0142385 255 46 23
0.281496 -0.425953 -0.0540942 255 46 23
0.143637 -0.40948 0.272293 255 46 23
0.103001 -0.444766 0.029237 255 46 23
-0.101288 -0.471937 -0.088098 255 46 23
0.0547285 -0.472957 0.152329 255 46 23
0.0516105 -0.400972 0.382939 255 46 23
-0.239088 -0.437622 0.0421469 255 46 23
-0.152846 -0.464354 0.215349 255 46 23
-0.27386 -0.410424 0.0122265 255 46 23
0.143025 -0.423694 0.0820493 255 46 23
0.124336 -0.415784 0.262194 255 46 23
-0.104448 -0.415253 0.358515 255 46 23
0.00885101 -0.394654 0.399152 255 46 23
0.0823184 -0.467547 0.166267 255 46 23
0.181694 -0.403411 0.161928 255 46 23
0.0296559 -0.441863 0.298209 255 46 23
0.108934 -0.416438 0.284228 255 46 23
-0.213292 -0.472967 0.0793096 255 46 23
0.201417 -0.387576 -0.0879823 255 46 23
-0.0211899 -0.393237 0.394888 255 46 23
-0.311721 -0.422238 -0.0481886 255 46 23
-0.12879 -0.476968 0.111681 255 46 23
-0.282451 -0.429971 0.068194 255 46 23
0.221699 -0.362848 -0.0642467 255 46 23
0.11865 -0.461035 0.0851713 255 46 23
-0.164788 -0.422708 0.324255 255 46 23
0.154849 -0.409307 0.247873 255 46 23
-0.00188897 -0.458548 0.236797 255 46 23
-0.245875 -0.460303 0.101029 255 46 23
-0.201823 -0.446159 0.214722 255 46 23
0.0239664 -0.391906 0.430159 255 46 23
-0.138441 -0.407839 0.389382 255 46 23
-0.198058 -0.442916 0.0385886 255 46 23
-0.188171 -0.465759 0.0952637 255 46 23
-0.279707 -0.410941 -0.000668473 255 46 23
-0.0237334 -0.4642 0.0646625 255 46 23
0.239683 -0.426966 0.0933509 255 46 23
-0.110723 -0.392927 0.408772 255 46 23
0.13728 -0.409244 0.310353 255 46 23
-0.166002 -0.463883 0.202925 255 46 23
-0.133045 -0.434887 0.316544 255 46 23
0.161928 -0.425019 -0.0192646 255 46 23
-0.115947 -0.467823 0.10546 255 46 23
0.167677 -0.407405 0.101697 255 46 23
-0.10303 -0.476014 0.136826 255 46 23
-0.129415 -0.455826 -0.00688946 255 46 23
-0.020736 -0.470348 0.0182755 255 46 23
0.012851 -0.390504 0.432115 255 46 23
-0.355304 -0.451206 -0.0849761 255 46 23
0.12836 -0.442111 0.0372496 255 46 23
-0.109821 -0.461398 0.0423577 255 46 23
-0.159946 -0.460329 0.0762413 255 46 23
0.200344 -0.390908 -0.0301358 255 46 23
-0.236271 -0.43608 -0.0774837 255 46 23
0.000886669 -0.419696 0.358951 255 46 23
0.0307133 -0.427933 0.331507 255 46 23
0.332183 -0.410913 -0.115136 255 46 23
-0.158453 -0.428908 0.310234 255 46 23
-0.222471 -0.408881 -0.112039 255 46 23
0.167432 -0.4389 -0.140171 255 46 23
-0.220624 -0.415666 -0.0835837 255 46 23
0.034417 -0.468234 0.194142 255 46 23
0.242948 -0.381645 -0.0885934 255 46 23
0.0769682 -0.424716 0.299126 255 46 23
-0.213055 -0.426085 -0.0360569 255 46 23
0.205203 -0.394265 -0.0035347 255 46 23
-0.360596 -0.468063 -0.177863 255 46 23
-0.270989 -0.412039 0.0166081 255 46 23
-0.190911 -0.471521 -0.148015 255 46 23
0.186284 -0.416104 -0.0557628 255 46 23
-0.299407 -0.453314 -0.207514 255 46 23
0.0190424 -0.45516 0.251113 255 46 23
0.00385576 -0.475374 0.12537 255 46 23
-0.0131889 -0.407578 0.375153 255 46 23
-0.336343 -0.427139 -0.0479649 255 46 23
-0.152176 -0.454407 0.245486 255 46 23
-0.132517 -0.470517 0.196144 255 46 23
0.249691 -0.429971 -0.0954314 255 46 23
0.15063 -0.407804 -0.00172436 255 46 23
-0.173621 -0.478977 0.110465 255 46 23
-0.268109 -0.414475 0.0226725 255 46 23
0.235396 -0.40554 0.0231036 255 46 23
0.184393 -0.45221 0.0659666 255 46 23
0.14845 -0.407061 0.0224598 255 46 23
-0.127827 -0.404844 0.397389 255 46 23
0.229809 -0.393554 -0.0267683 255 46 23
-0.310625 -0.42029 -0.0265221 255 46 23
0.191536 -0.399595 0.0505495 255 46 23
0.209498 -0.378781 -0.0909551 255 46 23
0.204836 -0.391098 -0.0204986 255 46 23
-0.316978 -0.424247 0.0917061 255 46 23
-0.325257 -0.465548 -0.180347 255 46 23
0.16508 -0.409261 0.136075 255 46 23
-0.047864 -0.423288 -0.216152 255 46 23
0.196804 -0.391898 -0.0458912 255 46 23
0.290045 -0.42296 -0.0559273 255 46 23
-0.0492666 -0.475887 0.125374 255 46 23
0.245262 -0.415832 -0.061948 255 46 23
0.0652148 -0.461434 0.0508593 255 46 23
-0.0912638 -0.392349 0.400422 255 46 23
0.00539272 -0.473321 -0.0285227 255 46 23
-0.262686 -0.415545 -0.00929409 255 46 23
-0.0443838 -0.462877 0.062449 255 46 23
0.243578 -0.41052 -0.0680662 255 46 23
-0.00468101 -0.40888 0.373551 255 46 23
-0.0836738 -0.475098 0.151326 255 46 23
0.149377 -0.418783 0.175553 255 46 23
-0.274233 -0.442127 0.0667305 255 46 23
-0.254851 -0.435944 0.0557922 255 46 23
0.158617 -0.411208 0.00769478 255 46 23
-0.0249916 -0.461565 -0.124875 255 46 23
0.124531 -0.455856 0.0362717 255 46 23
-0.33532 -0.427075 -0.0293286 255 46 23
-0.101802 -0.475257 0.109774 255 46 23
-0.150277 -0.464795 0.216056 255 46 23
-0.140612 -0.476379 0.158283 255 46 23
0.0104984 -0.391118 0.423461 255 46 23
-0.273837 -0.411101 0.0120534 255 46 23
-0.139821 -0.455384 0.252825 255 46 23
-0.150393 -0.403709 0.399249 255 46 23
0.0358118 -0.431944 0.318278 255 46 23
0.310467 -0.419061 0.00319396 255 46 23
-0.115098 -0.464026 0.224981 255 46 23
0.236911 -0.386435 -0.0936572 255 46 23
0.143526 -0.424322 0.0442503 255 46 23
-0.0116419 -0.467596 0.193103 255 46 23
0.00483656 -0.393401 0.405416 255 46 23
0.0800611 -0.451303 -0.133178 255 46 23
0.136465 -0.410579 0.264273 255 46 23
0.106704 -0.466441 0.109891 255 46 23
-0.0786665 -0.417234 -0.228253 255 46 23
0.157061 -0.411011 0.0643635 255 46 23
0.0703257 -0.455165 0.230584 255 46 23
-0.289998 -0.436629 0.0816165 255 46 23
0.212985 -0.385566 -0.0680053 255 46 23
-0.305826 -0.423243 0.0775002 255 46 23
-0.177838 -0.478792 0.0934276 255 46 23
-0.248283 -0.418786 -0.0424303 255 46 23
-0.0457125 -0.381316 0.428852 255 46 23
0.0536748 -0.475546 0.111583 255 46 23
0.0309406 -0.46448 0.0603008 255 46 23
-0.250362 -0.450629 0.127653 255 46 23
0.00873024 -0.463136 0.0581151 255 46 23
-0.315288 -0.425556 0.0929994 255 46 23
-0.30143 -0.415875 -0.116213 255 46 23
-0.144376 -0.443898 -0.0583143 255 46 23
-0.276186 -0.411695 0.00187199 255 46 23
0.241297 -0.407348 -0.0636773 255 46 23
-0.300337 -0.417624 0.00701797 255 46 23
-0.299367 -0.421378 -0.0903436 255 46 23
-0.079711 -0.466656 0.0889152 255 46 23
0.0762156 -0.458618 0.046458 255 46 23
0.276201 -0.426154 -0.0667358 255 46 23
0.129831 -0.447941 0.0846503 255 46 23
-0.0230167 -0.392204 -0.24225 255 46 23
-0.256178 -0.434733 0.0555349 255 46 23
-0.423514 -0.48502 -0.121624 255 46 23
0.204913 -0.439784 0.0896638 255 46 23
-0.162476 -0.473324 0.171168 255 46 23
0.00654979 -0.389782 0.431246 255 46 23
-0.170954 -0.474683 0.0945192 255 46 23
-0.0715616 -0.438102 0.310485 255 46 23
-0.0154461 -0.449892 -0.0661116 255 46 23
-0.180587 -0.445147 0.0154634 255 46 23
-0.144025 -0.473875 -0.0985959 255 46 23
-0.141068 -0.461759 0.230942 255 46 23
-0.234292 -0.450588 0.0691101 255 46 23
0.251409 -0.434676 -0.00864031 255 46 23
0.113835 -0.445331 0.168035 255 46 23
0.227849 -0.412799 0.10821 255 46 23
0.0749088 -0.433453 -0.187334 255 46 23
-0.403173 -0.47374 -0.164003 255 46 23
0.174961 -0.424557 -0.0538758 255 46 23
0.252087 -0.426745 0.0897268 255 46 23
0.0338021 -0.471374 0.0948379 255 46 23
-0.233235 -0.456815 0.0741284 255 46 23
-0.0215175 -0.433164 -0.0141341 255 46 23
-0.00025848 -0.468649 0.0837708 255 46 23
-0.216822 -0.429831 0.00577466 255 46 23
-0.172116 -0.420352 0.331405 255 46 23
-0.0943663 -0.407472 0.372804 255 46 23
-0.172281 -0.478753 0.0945378 255 46 23
0.157508 -0.431994 0.0642869 255 46 23
-0.317049 -0.459894 -0.193677 255 46 23
-0.0787861 -0.462664 0.231956 255 46 23
-0.119888 -0.477023 0.133539 255 46 23
0.0274849 -0.468095 0.19557 255 46 23
-0.28012 -0.478748 -0.139323 255 46 23
0.212988 -0.422049 0.118469 255 46 23
-0.143622 -0.44006 -0.0855955 255 46 23
-0.0243414 -0.387546 0.416792 255 46 23
0.125351 -0.445091 -0.135302 255 46 23
-0.00252078 -0.392077 0.408922 255 46 23
-0.0765817 -0.475777 0.139853 255 46 23
-0.102931 -0.391375 0.407235 255 46 23
-0.220619 -0.469402 0.0746381 255 46 23
-0.406695 -0.485636 -0.119061 255 46 23
-0.296167 -0.419755 -0.0585203 255 46 23
0.258206 -0.430881 -0.0779262 255 46 23
0.0402111 -0.39572 0.40079 255 46 23
-0.164783 -0.452184 0.0172351 255 46 23
0.0378783 -0.444382 -0.173107 255 46 23
-0.0897693 -0.461235 0.0280213 255 46 23
-0.407507 -0.494926 -0.0928519 255 46 23
0.233614 -0.43465 0.0471761 255 46 23
-0.111158 -0.439499 -0.00431023 255 46 23
0.0126837 -0.390452 0.432367 255 46 23
0.322125 -0.417086 -0.0136929 255 46 23
0.157814 -0.413655 0.000136033 255 46 23
-0.336094 -0.42909 0.0368878 255 46 23
-0.12266 -0.457816 0.248259 255 46 23
-0.0191075 -0.450467 0.267623 255 46 23
0.066747 -0.440934 0.0303699 255 46 23
-0.260393 -0.423393 -0.0953982 255 46 23
-0.206083 -0.464895 0.154793 255 46 23
-0.106531 -0.4771 0.123667 255 46 23
0.212534 -0.444688 0.0209562 255 46 23
0.113164 -0.427374 -0.192355 255 46 23
-0.183065 -0.446268 0.0244682 255 46 23
0.175866 -0.404144 0.0690952 255 46 23
-0.138478 -0.410601 0.38032 255 46 23
0.123605 -0.425301 0.222038 255 46 23
-0.00891342 -0.416849 0.363194 255 46 23
-0.263709 -0.441377 0.0624301 255 46 23
-0.044729 -0.469126 -0.0772669 255 46 23
-0.257258 -0.430157 0.048952 255 46 23
-0.339061 -0.430637 0.0302673 255 46 23
0.148818 -0.409446 0.276994 255 46 23
0.127036 -0.433371 0.167967 255 46 23
0.107933 -0.430702 0.244487 255 46 23
-0.26318 -0.385728 -0.14125 255 46 23
0.072917 -0.427063 0.296983 255 46 23
0.153202 -0.413655 0.029021 255 46 23
0.0396845 -0.430655 0.318361 255 46 23
0.177245 -0.392498 -0.0395469 255 46 23
0.0214366 -0.395143 0.401014 255 46 23
0.0258358 -0.426776 -0.0456798 255 46 23
-0.266196 -0.44315 0.129546 255 46 23
-0.160415 -0.428851 -0.0928849 255 46 23
0.250568 -0.429279 0.0462887 255 46 23
0.170092 -0.404576 0.0470576 255 46 23
0.165643 -0.408554 0.116793 255 46 23
0.162584 -0.396637 -0.0161251 255 46 23
-0.0218978 -0.405994 0.37651 255 46 23
-0.0405678 -0.467287 0.196002 255 46 23
-0.188864 -0.480048 -0.0721869 255 46 23
-0.0506637 -0.447916 -0.178523 255 46 23
0.210187 -0.444158 0.0581998 255 46 23
-0.273803 -0.386498 -0.155798 255 46 23
-0.266363 -0.413536 0.00359032 255 46 23
0.155545 -0.409326 0.251307 255 46 23
0.171599 -0.453067 0.0508558 255 46 23
-0.0780951 -0.474833 0.152896 255 46 23
-0.065892 -0.41047 0.36756 255 46 23
0.0819304 -0.468311 0.0231936 255 46 23
-0.216012 -0.451957 0.0645611 255 46 23
-0.155613 -0.479228 0.106878 255 46 23
-0.104133 -0.382315 0.433534 255 46 23
-0.229249 -0.456989 0.144977 255 46 23
-0.171411 -0.478384 0.124192 255 46 23
0.293716 -0.421615 0.0303934 255 46 23
0.224694 -0.36247 -0.0495536 255 46 23
0.275636 -0.429236 -0.0135852 255 46 23
-0.298855 -0.421662 -0.0890411 255 46 23
0.287261 -0.423914 -0.055516 255 46 23
-0.30697 -0.422839 0.0758502 255 46 23
0.0351875 -0.413862 0.360453 255 46 23
-0.314324 -0.421276 0.0342773 255 46 23
-0.271168 -0.382709 -0.147385 255 46 23
0.210675 -0.445262 0.0318655 255 46 23
0.229437 -0.371595 -0.0870372 255 46 23
-0.274676 -0.417192 -0.105094 255 46 23
0.00193468 -0.423988 -0.084998 255 46 23
-0.253844 -0.389811 -0.140231 255 46 23
0.174991 -0.407732 0.235769 255 46 23
-0.362191 -0.486031 -0.1001 255 46 23
-0.341216 -0.429918 -0.0125819 255 46 23
-0.111552 -0.385429 0.424355 255 46 23
-0.118439 -0.476948 0.130218 255 46 23
0.217051 -0.414142 -0.195926 255 46 23
-0.305686 -0.41906 0.0589076 255 46 23
0.251212 -0.430502 -0.0909287 255 46 23
-0.380578 -0.4465 -0.119865 255 46 23
0.161916 -0.409123 0.0232487 255 46 23
-0.190065 -0.458337 0.0799438 255 46 23
0.23823 -0.408223 0.00191527 255 46 23
-0.223127 -0.423222 -0.0419196 255 46 23
-0.297754 -0.420727 -0.0775152 255 46 23
0.238668 -0.421508 0.0586715 255 46 23
0.244318 -0.434262 0.0210071 255 46 23
-0.30732 -0.432086 0.0953748 255 46 23
-0.115119 -0.383652 0.433888 255 46 23
0.14667 -0.459603 -0.00845176 255 46 23
-0.0821515 -0.379406 0.441304 255 46 23
0.187889 -0.374461 -0.0651781 255 46 23
-0.178969 -0.452065 0.0445276 255 46 23
-0.129967 -0.459898 0.238154 255 46 23
-0.0892416 -0.474545 0.158736 255 46 23
-0.27663 -0.413708 -0.104118 255 46 23
-0.322605 -0.424098 0.0872762 255 46 23
0.171038 -0.402644 0.0319076 255 46 23
0.112171 -0.45536 0.0480101 255 46 23
-0.209515 -0.407455 -0.110119 255 46 23
-0.299041 -0.417307 -0.105622 255 46 23
0.113307 -0.453168 0.0434427 255 46 23
-0.271791 -0.44461 0.0660824 255 46 23
-0.08981 -0.476828 0.125628 255 46 23
-0.0333495 -0.389588 0.404007 255 46 23
0.0612611 -0.418159 -0.082781 255 46 23
-0.26927 -0.422817 0.0509363 255 46 23
-0.034619 -0.382767 0.43029 255 46 23
-0.266412 -0.467155 -0.00638414 255 46 23
-0.221013 -0.458241 0.0858439 255 46 23
-0.16854 -0.437653 0.274226 255 46 23
0.200319 -0.38932 -0.0628687 255 46 23
-0.0590859 -0.385131 0.416732 255 46 23
0.097167 -0.4684 0.102137 255 46 23
-0.212275 -0.461477 0.0882468 255 46 23
-0.13063 -0.401358 0.4045 255 46 23
-0.110149 -0.383574 0.430254 255 46 23
0.153562 -0.414009 0.0188385 255 46 23
-0.20852 -0.475088 0.105426 255 46 23
-0.333627 -0.426709 -0.05172 255 46 23
-0.300336 -0.421041 -0.0937443 255 46 23
-0.00224612 -0.393891 0.399112 255 46 23
-0.286074 -0.418441 -0.0617637 255 46 23
-0.230074 -0.46877 0.0773163 255 46 23
-0.113076 -0.383313 0.434746 255 46 23
-0.00785992 -0.430377 -0.0382621 255 46 23
-0.360024 -0.463381 -0.189551 255 46 23
0.0278736 -0.474824 0.136709 255 46 23
-0.32399 -0.42407 0.0862858 255 46 23
0.154162 -0.415866 0.0107344 255 46 23
-0.0313215 -0.407668 0.373425 255 46 23
-0.348877 -0.43523 0.0034345 255 46 23
0.123419 -0.446109 0.0387345 255 46 23
-0.168677 -0.444407 -0.00901932 255 46 23
-0.033334 -0.390929 0.398191 255 46 23
0.0598762 -0.39845 0.391571 255 46 23
-0.24693 -0.452356 0.0672501 255 46 23
0.21812 -0.417316 0.154122 255 46 23
-0.290395 -0.415301 -0.0348214 255 46 23
0.134967 -0.450421 -0.0949995 255 46 23
-0.319825 -0.441988 -0.0753301 255 46 23
0.269536 -0.428765 -0.0641446 255 46 23
-0.281656 -0.414597 0.0274598 255 46 23
-0.163238 -0.473212 0.171351 255 46 23
-0.219314 -0.461642 0.0810477 255 46 23
-0.334148 -0.42721 0.0153718 255 46 23
-0.116052 -0.443337 0.295963 255 46 23
-0.148926 -0.475358 0.164913 255 46 23
-0.271173 -0.393132 -0.151213 255 46 23
-0.117648 -0.385164 0.427433 255 46 23
-0.0215684 -0.460551 0.0544709 255 46 23
0.231586 -0.371203 -0.0857033 255 46 23
-0.00575703 -0.393658 0.399709 255 46 23
0.228204 -0.390445 -0.050172 255 46 23
0.0477553 -0.475726 0.117617 255 46 23
0.184628 -0.400019 0.0407732 255 46 23
-0.237562 -0.459481 0.0693583 255 46 23
-0.246475 -0.440511 -0.05283 255 46 23
-0.0311136 -0.474169 0.148891 255 46 23
-0.128215 -0.445865 0.287677 255 46 23
-0.290763 -0.451283 -0.211143 255 46 23
-0.230778 -0.463347 0.118188 255 46 23
0.146105 -0.423206 0.0107548 255 46 23
0.170133 -0.410551 0.267722 255 46 23
0.00615839 -0.412051 -0.22638 255 46 23
0.129533 -0.43089 0.173072 255 46 23
-0.280573 -0.439801 0.0739715 255 46 23
0.187335 -0.435965 -0.13834 255 46 23
-0.330207 -0.399823 -0.146737 255 46 23
-0.132761 -0.414754 0.367032 255 46 23
-0.192374 -0.454824 0.0663426 255 46 23
0.119706 -0.43903 0.0248975 255 46 23
-0.147791 -0.426448 0.32913 255 46 23
-0.314893 -0.423756 0.0855891 255 46 23
-0.247502 -0.457124 0.111285 255 46 23
-0.129109 -0.446816 0.284472 255 46 23
0.0839462 -0.445473 0.235383 255 46 23
-0.101821 -0.442126 0.301362 255 46 23
-0.369254 -0.473462 -0.163455 255 46 23
-0.105712 -0.382648 0.432535 255 46 23
-0.168203 -0.430121 -0.0870427 255 46 23
-0.059733 -0.476241 0.122839 255 46 23
-0.242536 -0.461006 0.0663508 255 46 23
-0.41728 -0.468226 -0.177389 255 46 23
-0.232104 -0.455825 -0.186667 255 46 23
0.101853 -0.46036 0.163391 255 46 23
0.192906 -0.39836 0.0352569 255 46 23
-0.138749 -0.387313 0.426167 255 46 23
-0.222157 -0.42324 -0.0429221 255 46 23
0.184234 -0.369024 -0.0497529 255 46 23
-0.228305 -0.469428 0.0764565 255 46 23
0.270347 -0.42375 0.0797642 255 46 23
0.117565 -0.443047 0.158156 255 46 23
0.0542447 -0.474626 0.132556 255 46 23
-0.252612 -0.391949 -0.140705 255 46 23
-0.0397182 -0.459995 0.233139 255 46 23
-0.24394 -0.42012 0.0142709 255 46 23
-0.0619362 -0.47264 0.168348 255 46 23
-0.170126 -0.47267 0.0960997 255 46 23
-0.283232 -0.414426 -0.0134288 255 46 23
-0.275977 -0.414674 -0.0276526 255 46 23
0.22415 -0.361735 -0.0557245 255 46 23
-0.103707 -0.460152 0.0170816 255 46 23
0.076423 -0.442863 0.252346 255 46 23
-0.252301 -0.415195 -0.0823421 255 46 23
-0.276318 -0.410625 0.00636927 255 46 23
0.10919 -0.440262 0.208648 255 46 23
-0.161841 -0.435053 -0.0830374 255 46 23
-0.14532 -0.47208 0.186706 255 46 23
-0.126037 -0.392533 0.415113 255 46 23
0.123935 -0.415865 -0.00529236 255 46 23
0.0246473 -0.393235 0.41849 255 46 23
-0.201144 -0.467155 0.0891549 255 46 23
-0.0828892 -0.462064 0.0431826 255 46 23
-0.29627 -0.418366 -0.0952269 255 46 23
-0.216234 -0.454243 0.0721787 255 46 23
-0.0427726 -0.461632 0.226091 255 46 23
0.139614 -0.43075 0.0614131 255 46 23
0.231566 -0.383933 -0.0884399 255 46 23
0.193277 -0.412119 0.208504 255 46 23
0.146222 -0.418576 0.059062 255 46 23
0.163823 -0.409816 0.128682 255 46 23
0.186067 -0.399289 0.0359983 255 46 23
0.217777 -0.406886 0.121972 255 46 23
-0.145568 -0.465618 0.214553 255 46 23
-0.00699191 -0.388114 0.429312 255 46 23
0.0391955 -0.394907 0.423476 255 46 23
-0.0977964 -0.429742 0.329784 255 46 23
0.0464265 -0.399741 0.386899 255 46 23
0.0551412 -0.475603 0.115388 255 46 23
-0.243555 -0.422048 -0.0123565 255 46 23
-0.00557966 -0.416343 -0.22133 255 46 23
0.174712 -0.408864 -0.0374772 255 46 23
-0.166275 -0.478968 0.124175 255 46 23
0.246541 -0.42865 -0.0588953 255 46 23
-0.273016 -0.445126 -0.00925438 255 46 23
-0.238714 -0.465322 -0.0010433 255 46 23
0.183649 -0.398869 -0.074419 255 46 23
-0.0659367 -0.45112 0.270598 255 46 23
-0.279482 -0.416331 -0.0879126 255 46 23
-0.0807261 -0.379987 0.433525 255 46 23
-0.188569 -0.43585 -0.00807552 255 46 23
0.0669998 -0.474959 0.113956 255 46 23
0.234795 -0.39049 -0.0892055 255 46 23
0.0415231 -0.412253 0.360442 255 46 23
-0.0762903 -0.461867 0.042117 255 46 23
-0.240397 -0.426069 0.0308938 255 46 23
-0.264074 -0.416597 0.0344201 255 46 23
0.209179 -0.411745 0.164076 255 46 23
0.230835 -0.439584 -0.00924781 255 46 23
-0.0934082 -0.384833 0.420306 255 46 23
0.245267 -0.411475 -0.0820317 255 46 23
0.15029 -0.409472 0.282908 255 46 23
-0.150494 -0.444011 -0.198817 255 46 23
-0.194859 -0.428855 -0.0351307 255 46 23
-0.329752 -0.426231 0.0719417 255 46 23
-0.203349 -0.473666 0.12117 255 46 23
-0.180332 -0.473629 0.153305 255 46 23
0.111746 -0.461119 0.0722533 255 46 23
0.18513 -0.404157 0.173599 255 46 23
0.00415176 -0.392347 0.410239 255 46 23
-0.17429 -0.461406 0.086435 255 46 23
0.169859 -0.40695 0.219571 255 46 23
-0.180697 -0.463711 0.189437 255 46 23
-0.172421 -0.445239 0.00255405 255 46 23
-0.134815 -0.460838 0.0587673 255 46 23
0.024768 -0.471447 0.171437 255 46 23
-0.292584 -0.418137 -0.0410267 255 46 23
-0.220293 -0.46047 0.0814183 255 46 23
-0.16404 -0.420705 0.333029 255 46 23
-0.251116 -0.220872 -0.241963 255 0 0
0.34205 -0.250991 0.00957915 255 0 0
0.134659 0.044208 -0.247241 255 0 0
-0.35536 -0.0748013 -0.24521 255 0 0
0.34449 -0.0927769 -0.154246 255 0 0
0.332948 -0.107995 -0.225934 255 0 0
0.344327 -0.263196 -0.0832564 255 0 0
0.342591 -0.0428082 0.0540001 255 0 0
-0.150734 -0.0779454 -0.247271 255 0 0
0.342287 -0.243481 0.014291 255 0 0
0.183264 -0.289316 -0.239177 255 0 0
-0.100302 -0.285469 -0.240565 255 0 0
0.152507 0.0569826 -0.247117 255 0 0
-0.271227 0.0505436 -0.24786 255 0 0
0.342001 -0.236115 0.00972631 255 0 0
-0.156242 0.0392637 -0.25053 255 0 0
0.307358 -0.228675 -0.22893 255 0 0
0.0696136 0.067773 -0.251188 255 0 0
0.344592 0.0586068 -0.0825919 255 0 0
-0.242666 -0.123253 -0.242821 255 0 0
0.340372 -0.0983999 0.0827349 255 0 0
0.341828 0.0164855 -0.186073 255 0 0
0.328487 -0.365799 -0.216634 255 0 0
0.343792 -0.0679809 -0.0803709 255 0 0
0.0372718 -0.222474 -0.242811 255 0 0
0.341967 -0.241693 -0.0626119 255 0 0
0.322109 0.0522498 -0.23825 255 0 0
-0.1167 -0.152428 -0.243539 255 0 0
0.112321 -0.143039 -0.246344 255 0 0
-0.265197 -0.126604 -0.242616 255 0 0
-0.255852 -0.16945 -0.241514 255 0 0
-0.32511 -0.108863 -0.243141 255 0 0
-0.105609 -0.283283 -0.240465 255 0 0
0.340652 -0.202548 -0.170639 255 0 0
0.110431 -0.0984766 -0.247093 255 0 0
0.0649898 -0.0824432 -0.249032 255 0 0
0.326965 -0.0830373 -0.238852 255 0 0
-0.0480032 -0.0103563 -0.251874 255 0 0
-0.111313 0.0677822 -0.248631 255 0 0
0.197615 -0.196277 -0.242173 255 0 0
0.342709 -0.0165199 -0.194258 255 0 0
-0.286777 -0.140001 -0.242067 255 0 0
0.294715 -0.398814 -0.225275 255 0 0
0.0917297 0.0551204 -0.25075 255 0 0
0.170028 0.0533105 -0.245404 255 0 0
0.335651 -0.383209 -0.205576 255 0 0
0.344324 0.0616125 -0.0961415 255 0 0
0.342651 -0.266472 0.0283382 255 0 0
0.3078 0.0112472 -0.242549 255 0 0
0.345463 -0.363599 0.0376201 255 0 0
0.333053 0.0445264 -0.215676 255 0 0
0.344187 -0.215118 -0.126069 255 0 0
-0.166411 -0.291853 -0.238058 255 0 0
0.342586 -0.268994 -0.162876 255 0 0
-0.273179 0.0634747 -0.247321 255 0 0
0.256284 -0.0918303 -0.242605 255 0 0
0.343718 -0.0756061 -0.123866 255 0 0
0.130391 0.050064 -0.247894 255 0 0
0.342702 -0.275677 0.0322584 255 0 0
0.0970203 -0.128536 -0.24673 255 0 0
-0.298013 0.0326747 -0.247024 255 0 0
-0.230523 -0.10837 -0.243642 255 0 0
-0.208094 -0.063398 -0.247057 255 0 0
-0.221968 0.0611906 -0.248324 255 0 0
0.34584 -0.38411 -0.156178 255 0 0
0.330982 -0.395116 -0.21268 255 0 0
0.342054 -0.111102 -0.0761431 255 0 0
0.340326 -0.140786 -0.0361369 255 0 0
0.345403 0.0343666 -0.122353 255 0 0
-0.0527163 -0.109966 -0.246239 255 0 0
0.326287 -0.0664563 -0.241631 255 0 0
0.342626 -0.00852809 0.0951975 255 0 0
0.345425 -0.0165215 0.0106926 255 0 0
0.341469 -0.10435 -0.0419814 255 0 0
-0.306308 -0.158164 -0.241947 255 0 0
0.342748 -0.286223 0.0269333 255 0 0
-0.193622 -0.207385 -0.241152 255 0 0
0.34474 0.00384697 0.0382206 255 0 0
0.20566 -0.229769 -0.240942 255 0 0
0.340984 -0.144172 -0.184836 255 0 0
-0.361063 -0.0686036 -0.245436 255 0 0
0.0481428 -0.0508275 -0.250639 255 0 0
-0.111138 -0.0698133 -0.247998 255 0 0
0.216475 -0.222392 -0.240605 255 0 0
-0.198576 0.052316 -0.249364 255 0 0
-0.131026 -0.3207 -0.239687 255 0 0
-0.169625 0.0137748 -0.250764 255 0 0
0.194172 -0.175106 -0.242943 255 0 0
0.336329 -0.00936724 -0.220213 255 0 0
-0.098207 0.0613474 -0.249613 255 0 0
0.343299 -0.0689195 -0.0508462 255 0 0
0.342719 -0.182518 -0.109907 255 0 0
0.34057 -0.192454 -0.0141712 255 0 0
0.341489 -0.0992506 -0.198417 255 0 0
-0.342499 0.0416234 -0.246118 255 0 0
0.340084 0.0672614 -0.138479 255 0 0
0.345662 -0.423352 -0.010425 255 0 0
0.34491 -0.252692 -0.0919471 255 0 0
0.341572 -0.101545 -0.0197148 255 0 0
0.275459 -0.364922 -0.227278 255 0 0
-0.30866 -0.146154 -0.242084 255 0 0
-0.108879 -0.0999173 -0.245959 255 0 0
0.34111 -0.152594 0.0296546 255 0 0
0.340545 -0.122697 0.0608275 255 0 0
-0.197063 0.0459679 -0.249605 255 0 0
0.0899862 0.00828799 -0.250064 255 0 0
-0.20605 -0.0921045 -0.245279 255 0 0
0.346146 0.0405115 -0.0219909 255 0 0
0.0583721 0.00026146 -0.251959 255 0 0
0.340788 -0.252899 -0.013676 255 0 0
0.343751 -0.0577289 -0.00778978 255 0 0
0.345979 0.056185 -0.0257783 255 0 0
0.34314 0.0275665 -0.152784 255 0 0
0.340682 -0.200363 -0.172747 255 0 0
0.272945 -0.00407869 -0.242605 255 0 0
0.2081 0.052811 -0.242772 255 0 0
0.333748 -0.201643 -0.209 255 0 0
0.321773 -0.194996 -0.225779 255 0 0
0.342854 -0.281822 0.0367784 255 0 0
0.0821917 0.059478 -0.251387 255 0 0
0.186653 -0.401437 -0.234901 255 0 0
0.341382 -0.114976 0.00264182 255 0 0
-0.165709 -0.0818556 -0.246914 255 0 0
0.328515 -0.00410486 -0.236994 255 0 0
0.344671 -0.412985 0.0163647 255 0 0
0.335631 -0.424052 -0.201136 255 0 0
0.3456 0.0473125 -0.0847484 255 0 0
-0.202967 0.0680943 -0.247518 255 0 0
0.148708 -0.225156 -0.242795 255 0 0
0.343536 -0.00132634 0.062058 255 0 0
0.239261 -0.186184 -0.239431 255 0 0
-0.183463 0.0394682 -0.249953 255 0 0
0.340691 -0.133655 -0.0414382 255 0 0
-0.341601 0.0519298 -0.246329 255 0 0
-0.287859 -0.237767 -0.241779 255 0 0
0.340921 -0.248264 -0.0127808 255 0 0
0.182964 -0.268947 -0.240743 255 0 0
0.297267 -0.285739 -0.226472 255 0 0
-0.353875 -0.100469 -0.243771 255 0 0
0.343918 -0.0519605 -0.0167855 255 0 0
0.157529 -0.191509 -0.243424 255 0 0
0.340895 -0.229881 -0.0380074 255 0 0
0.00533386 -0.270662 -0.242029 255 0 0
0.327785 -0.329075 -0.218271 255 0 0
0.18806 0.0599908 -0.244199 255 0 0
0.119696 -0.318744 -0.239112 255 0 0
0.0118237 0.0648723 -0.250542 255 0 0
0.323792 0.0481279 -0.237985 255 0 0
0.147717 -0.00859685 -0.246369 255 0 0
0.340571 -0.278041 -0.0109863 255 0 0
0.341329 -0.157298 0.0061438 255 0 0
0.341205 -0.10419 0.0545676 255 0 0
0.345623 -0.0351803 -0.0868115 255 0 0
0.0994246 -0.140861 -0.246342 255 0 0
0.335053 -0.103392 -0.222666 255 0 0
0.272577 -0.11048 -0.240926 255 0 0
-0.323396 -0.0659835 -0.245614 255 0 0
0.345071 -0.31615 -0.0542085 255 0 0
-0.300952 0.019897 -0.247632 255 0 0
-0.333347 0.0541162 -0.246546 255 0 0
0.342548 -0.23251 -0.07325 255 0 0
0.342036 -0.34281 -0.192556 255 0 0
-0.355941 -0.121566 -0.242962 255 0 0
0.344058 0.0604237 -0.112899 255 0 0
-0.175733 -0.242355 -0.240175 255 0 0
0.239958 0.0201483 -0.24302 255 0 0
0.154144 0.0230652 -0.24575 255 0 0
0.0363679 -0.287094 -0.241479 255 0 0
-0.147038 -0.301147 -0.238737 255 0 0
0.159843 -0.0406144 -0.246328 255 0 0
0.343792 -0.0503147 0.0182259 255 0 0
-0.0278767 -0.0220869 -0.251362 255 0 0
0.134978 0.0607597 -0.248365 255 0 0
-0.271619 -0.00516715 -0.248146 255 0 0
0.270181 0.0215072 -0.242535 255 0 0
0.175225 0.0599812 -0.245329 255 0 0
0.328636 0.0468122 -0.228238 255 0 0
-0.346702 -0.0778521 -0.245101 255 0 0
0.341124 -0.18014 -0.0537631 255 0 0
0.345442 -0.362188 -0.156827 255 0 0
0.344931 -0.0462478 -0.090154 255 0 0
0.343873 -0.436415 -0.187501 255 0 0
0.343498 -0.201737 -0.114035 255 0 0
-0.220068 -0.139089 -0.242555 255 0 0
-0.259405 -0.241361 -0.241695 255 0 0
0.34591 -0.318314 -0.06955 255 0 0
0.346405 -0.338802 -0.140517 255 0 0
0.316018 0.0645533 -0.234032 255 0 0
0.273535 -0.35029 -0.227111 255 0 0
0.341351 -0.229198 -0.170242 255 0 0
0.319408 0.0578444 -0.236683 255 0 0
0.342754 -0.102407 -0.0987935 255 0 0
0.177877 -0.109034 -0.245332 255 0 0
0.34626 0.0363037 -0.0102593 255 0 0
-0.270904 0.0164564 -0.248176 255 0 0
-0.081537 -0.0812105 -0.247519 255 0 0
0.343225 -0.0560722 -0.169793 255 0 0
0.309969 -0.432376 -0.220111 255 0 0
0.346579 -0.448877 -0.149374 255 0 0
-0.289889 -0.221788 -0.242149 255 0 0
0.340924 -0.0947903 0.069029 255 0 0
0.341202 -0.12265 0.0277062 255 0 0
0.343841 -0.0960425 -0.130292 255 0 0
0.345852 -0.371597 -0.140266 255 0 0
0.341739 -0.108285 0.0176802 255 0 0
-0.212965 -0.0389224 -0.248147 255 0 0
-0.29837 0.0509803 -0.247227 255 0 0
0.33425 -0.149608 -0.214565 255 0 0
0.345552 0.0458255 -0.072661 255 0 0
-0.0170351 -0.304245 -0.241751 255 0 0
0.340746 -0.110673 -0.0326976 255 0 0
0.281486 -0.172777 -0.235651 255 0 0
0.341617 -0.137117 -0.0636171 255 0 0
0.342527 -0.0402829 0.0578783 255 0 0
0.339377 0.011179 -0.204685 255 0 0
0.282484 -0.295982 -0.2269 255 0 0
0.345217 -0.320192 -0.0522286 255 0 0
0.0283851 0.0294154 -0.251935 255 0 0
0.3117 -0.237428 -0.226525 255 0 0
0.343661 -0.0472491 -0.175008 255 0 0
0.285202 -0.32578 -0.226654 255 0 0
0.0461198 0.0131425 -0.252151 255 0 0
0.179522 -0.155315 -0.243799 255 0 0
0.336738 -0.191748 -0.200716 255 0 0
0.340669 -0.39909 -0.194422 255 0 0
-0.277757 -0.167736 -0.24159 255 0 0
0.0953421 -0.158145 -0.245421 255 0 0
0.320192 -0.0452654 -0.244536 255 0 0
0.345718 0.0111786 -0.133084 255 0 0
-0.214204 -0.0256639 -0.248712 255 0 0
-0.0320579 -0.215365 -0.241939 255 0 0
0.160978 -0.0482213 -0.246242 255 0 0
0.332859 0.0682301 -0.205529 255 0 0
-0.169296 0.0527125 -0.249711 255 0 0
0.148712 -0.0108377 -0.246403 255 0 0
0.336352 -0.104659 -0.218655 255 0 0
0.239674 0.0653986 -0.23928 255 0 0
0.341167 -0.0869248 0.0656941 255 0 0
0.343942 -0.0522992 0.013072 255 0 0
-0.135039 0.0647758 -0.248899 255 0 0
0.021207 -0.206443 -0.243066 255 0 0
0.319781 -0.142469 -0.235691 255 0 0
0.340531 0.0488045 -0.165161 255 0 0
-0.148557 -0.171221 -0.242555 255 0 0
0.26343 0.0258468 -0.242593 255 0 0
0.136768 -0.374466 -0.238152 255 0 0
0.0271553 -0.00628328 -0.2521 255 0 0
0.340778 -0.131085 -0.0421146 255 0 0
0.22094 -0.092682 -0.244092 255 0 0
-0.0318531 -0.0268018 -0.250999 255 0 0
0.33363 -0.125074 -0.221145 255 0 0
-0.256301 -0.00018764 -0.248356 255 0 0
-0.272918 -0.241453 -0.241568 255 0 0
-0.26001 0.0497415 -0.248111 255 0 0
0.333914 -0.293219 -0.211062 255 0 0
0.343937 -0.0253719 -0.151191 255 0 0
0.345743 0.0376409 0.0181549 255 0 0
0.315473 -0.0579171 -0.243723 255 0 0
-0.120181 -0.169207 -0.242754 255 0 0
0.322862 -0.0976037 -0.240582 255 0 0
0.340391 -0.171271 -0.0332694 255 0 0
-0.325709 0.0516598 -0.246611 255 0 0
0.345436 -0.0385925 -0.090414 255 0 0
0.344595 0.0587793 -0.0990597 255 0 0
0.340974 -0.0627077 0.0820719 255 0 0
-0.222811 -0.269905 -0.23979 255 0 0
0.340582 -0.0728982 0.0889912 255 0 0
0.0138553 0.016156 -0.252242 255 0 0
0.16078 0.0041452 -0.245559 255 0 0
0.340648 -0.206329 -0.168795 255 0 0
0.34131 -0.0455862 0.0848408 255 0 0
-0.310704 0.0656755 -0.246454 255 0 0
-0.055584 -0.0509591 -0.249288 255 0 0
0.301551 0.0380949 -0.240956 255 0 0
0.347823 -0.35777 -0.100615 255 0 0
0.346784 -0.304042 -0.0966703 255 0 0
0.344713 -0.0471059 -0.119153 255 0 0
-0.211082 -0.279953 -0.238939 255 0 0
0.304768 0.0534099 -0.238498 255 0 0
0.17665 -0.0209071 -0.245674 255 0 0
-0.0645276 -0.153838 -0.243723 255 0 0
0.330921 -0.0679137 -0.234777 255 0 0
-0.220075 -0.0143646 -0.248917 255 0 0
-0.0742899 -0.0282977 -0.250449 255 0 0
0.341139 -0.20538 -0.0644206 255 0 0
-0.225988 -0.034136 -0.248047 255 0 0
0.342373 -0.0923955 -0.0602857 255 0 0
-0.356255 -0.0142226 -0.247352 255 0 0
0.192397 -0.0159223 -0.244822 255 0 0
0.341639 -0.227033 0.00238946 255 0 0
0.346548 0.0263255 -0.0962391 255 0 0
-0.289051 -0.175337 -0.24168 255 0 0
-0.341874 -0.220662 -0.242978 255 0 0
0.346045 0.0487546 -0.0225436 255 0 0
0.0165319 0.0369035 -0.251977 255 0 0
0.0892004 0.0315841 -0.249973 255 0 0
-0.0901769 -0.215645 -0.240561 255 0 0
0.177941 -0.142438 -0.244069 255 0 0
-0.215841 -0.0496497 -0.247567 255 0 0
0.101375 0.0630196 -0.250215 255 0 0
0.334309 -0.423749 -0.20332 255 0 0
0.343938 -0.348536 -0.0135732 255 0 0
0.223964 0.018386 -0.243493 255 0 0
0.315968 0.0612603 -0.235779 255 0 0
-0.126183 0.0511693 -0.250614 255 0 0
0.103029 0.0480606 -0.249519 255 0 0
0.321134 -0.17422 -0.229146 255 0 0
0.0715179 -0.242603 -0.242635 255 0 0
0.343387 -0.0664991 -0.00346287 255 0 0
-0.128764 0.0675488 -0.248539 255 0 0
0.220246 0.0416559 -0.242871 255 0 0
0.307922 -0.103616 -0.240761 255 0 0
-0.205726 0.00751369 -0.249862 255 0 0
0.343556 -0.175001 -0.146832 255 0 0
0.189958 0.0570551 -0.24388 255 0 0
0.0953454 0.0141935 -0.249597 255 0 0
0.342471 -0.108544 -0.098176 255 0 0
0.333307 -0.0774494 -0.229064 255 0 0
0.144341 0.0254451 -0.246305 255 0 0
0.346148 -0.360904 -0.0546022 255 0 0
0.342264 -0.0851913 -0.0212451 255 0 0
-0.0471787 -0.0023278 -0.252135 255 0 0
-0.356876 -0.0355781 -0.246702 255 0 0
0.341766 0.0313601 -0.160169 255 0 0
0.341085 -0.158733 -0.0529352 255 0 0
0.311686 -0.224216 -0.228199 255 0 0
0.342401 -0.0231943 0.0790225 255 0 0
0.342238 -0.0336547 0.0728161 255 0 0
-0.295384 0.0601109 -0.247247 255 0 0
0.342619 -0.273967 0.0272028 255 0 0
0.320092 0.0641402 -0.233426 255 0 0
0.345067 -0.027313 -0.00614591 255 0 0
0.183601 -0.0336644 -0.245514 255 0 0
-0.0736614 -0.211124 -0.240791 255 0 0
-0.102772 -0.00981356 -0.251543 255 0 0
0.345283 -0.292103 -0.143183 255 0 0
0.340338 -0.176003 -0.0220505 255 0 0
0.327097 -0.0889048 -0.237599 255 0 0
0.343996 -0.220994 -0.107306 255 0 0
0.341856 0.0354924 -0.158588 255 0 0
0.044334 -0.272861 -0.241746 255 0 0
0.321945 -0.0735637 -0.243785 255 0 0
-0.225947 0.0632024 -0.247973 255 0 0
-0.0422005 -0.258915 -0.242244 255 0 0
-0.30249 -0.0143587 -0.247677 255 0 0
0.120898 -0.252789 -0.242575 255 0 0
0.330596 0.0534411 -0.221101 255 0 0
0.34238 -0.0389693 0.0636875 255 0 0
0.231511 0.0603982 -0.240437 255 0 0
0.334116 0.0111485 -0.221515 255 0 0
0.0181746 -0.123535 -0.246878 255 0 0
0.345962 0.0496579 0.00914742 255 0 0
-0.0865801 0.0287448 -0.251959 255 0 0
0.343948 -0.0651287 -0.13457 255 0 0
0.243843 -0.300316 -0.230618 255 0 0
0.327825 -0.16652 -0.223404 255 0 0
0.25921 -0.0405976 -0.243158 255 0 0
0.0909116 -0.0932396 -0.248474 255 0 0
0.343759 0.0593782 -0.119718 255 0 0
0.341177 -0.14088 -0.0038938 255 0 0
-0.184306 -0.0745739 -0.246961 255 0 0
-0.190047 0.0656876 -0.248016 255 0 0
-0.317382 -0.0287355 -0.246983 255 0 0
-0.344546 -0.0886197 -0.244367 255 0 0
-0.055145 0.0421605 -0.251965 255 0 0
0.313603 -0.178176 -0.233971 255 0 0
0.345396 0.0404805 0.0587998 255 0 0
0.340992 -0.212374 -0.0554689 255 0 0
0.345994 0.0502988 0.0134446 255 0 0
0.342906 -0.113435 -0.123195 255 0 0
-0.111219 0.0666671 -0.248805 255 0 0
-0.242365 -0.122188 -0.242862 255 0 0
0.342002 -0.0841383 0.0420859 255 0 0
0.0934903 -0.232913 -0.242626 255 0 0
0.3368 -0.413525 -0.200651 255 0 0
0.347082 -0.432741 -0.164488 255 0 0
0.221805 -0.358438 -0.231854 255 0 0
0.270439 0.0582694 -0.23889 255 0 0
0.193878 -0.159982 -0.243393 255 0 0
-0.241654 -0.0439837 -0.247122 255 0 0
0.156666 -0.198906 -0.243123 255 0 0
-0.275209 0.0572521 -0.247829 255 0 0
0.0239148 -0.136134 -0.246145 255 0 0
0.0172189 -0.173996 -0.243817 255 0 0
0.00908139 -0.0513371 -0.250456 255 0 0
0.150957 0.0522646 -0.246887 255 0 0
-0.326363 0.0612024 -0.246534 255 0 0
-0.168894 -0.152 -0.243015 255 0 0
0.325476 -0.132053 -0.232114 255 0 0
0.345613 -0.361023 0.0465087 255 0 0
0.0787318 0.00115088 -0.251108 255 0 0
0.342446 -0.089614 -0.000548687 255 0 0
0.346066 -0.00119149 -0.0340592 255 0 0
