ply
format ascii 1.0
comment Created by Open3D
element vertex 1148
property double x
property double y
property double z
property uchar red
property uchar green
property uchar blue
end_header
0.331865 -0.437173 0.10203 128 254 179
0.314809 -0.487604 0.116956 128 254 179
0.326571 -0.145535 0.129261 128 254 179
0.288005 -0.486494 0.00382782 128 254 179
0.0507563 -0.491423 0.152282 128 254 179
0.327352 -0.233685 0.120332 128 254 179
0.327926 -0.218135 0.117962 128 254 179
0.323998 -0.438094 -0.00977516 128 254 179
0.318808 -0.427495 0.187006 128 254 179
0.334194 -0.0952684 -0.124432 128 254 179
0.0772393 -0.491241 0.114253 128 254 179
0.335334 -0.163333 -0.187281 128 254 179
0.327016 -0.38316 -0.13747 128 254 179
-0.106399 -0.484476 -0.0384694 128 254 179
0.323644 -0.344624 -0.00734896 128 254 179
0.302605 -0.48507 0.0877197 128 254 179
0.309061 -0.4888 0.118387 128 254 179
0.326663 -0.170903 0.126991 128 254 179
0.0350603 -0.471517 -0.135062 128 254 179
-0.148624 -0.465989 -0.118825 128 254 179
0.335319 -0.207757 -0.193658 128 254 179
0.331484 -0.277531 -0.0921891 128 254 179
0.335121 -0.0569974 0.064141 128 254 179
0.327147 -0.364776 -0.112699 128 254 179
0.308303 -0.482147 -0.00985369 128 254 179
0.264199 -0.486751 0.0425014 128 254 179
0.340089 -0.412339 0.123179 128 254 179
0.330294 -0.214787 0.027869 128 254 179
0.106533 -0.474492 -0.134626 128 254 179
0.333029 -0.278795 -0.17116 128 254 179
0.316761 -0.484017 0.186452 128 254 179
0.315882 -0.478449 0.0756303 128 254 179
0.251052 -0.486653 0.0453692 128 254 179
0.328938 -0.281391 -0.0393841 128 254 179
0.293539 -0.46976 -0.185239 128 254 179
0.219708 -0.486396 0.0461548 128 254 179
0.332566 -0.452496 0.101637 128 254 179
0.317155 -0.476978 -0.0238901 128 254 179
0.329433 -0.167629 0.0831012 128 254 179
0.109331 -0.491829 0.158828 128 254 179
0.174781 -0.492042 0.144186 128 254 179
0.0554002 -0.487601 0.0618633 128 254 179
0.325223 -0.469344 -0.0360491 128 254 179
0.322912 -0.472228 -0.0340471 128 254 179
0.307528 -0.286275 0.18656 128 254 179
0.119425 -0.491981 0.157267 128 254 179
0.316834 -0.488721 0.127467 128 254 179
0.247536 -0.487772 0.0837682 128 254 179
-0.156401 -0.486874 0.137425 128 254 179
0.334063 -0.411421 0.111584 128 254 179
0.311264 -0.434406 -0.145188 128 254 179
0.288177 -0.486756 0.0555045 128 254 179
-0.160496 -0.487161 0.0751234 128 254 179
0.32519 -0.468581 -0.0525914 128 254 179
0.333906 -0.121332 -0.132918 128 254 179
0.331873 -0.0433068 0.0879405 128 254 179
0.324132 -0.34737 0.07989 128 254 179
0.339017 -0.344 0.140622 128 254 179
-0.103521 -0.488722 0.117402 128 254 179
0.326733 -0.3493 -0.0680053 128 254 179
-0.108859 -0.479501 -0.0525832 128 254 179
0.289228 -0.477782 -0.13703 128 254 179
0.334187 -0.196921 -0.126292 128 254 179
0.222344 -0.486885 0.0733807 128 254 179
0.335069 -0.0946978 0.0211675 128 254 179
0.186974 -0.491939 0.143966 128 254 179
0.049424 -0.490834 0.114297 128 254 179
0.335364 -0.0571991 0.0554393 128 254 179
0.334364 -0.0603769 0.0737204 128 254 179
0.322837 -0.487419 0.14375 128 254 179
-0.0794935 -0.482808 -0.0377228 128 254 179
0.335314 -0.0561298 -0.0759997 128 254 179
-0.450967 -0.452531 -0.237122 160 249 161
-0.436432 -0.385216 -0.253948 160 249 161
-0.357206 -0.485122 -0.15739 160 249 161
-0.176521 -0.334853 -0.226423 160 249 161
-0.227983 -0.487684 -0.189784 160 249 161
-0.443049 -0.26902 -0.257798 160 249 161
0.17068 -0.460352 -0.139402 160 249 161
-0.187589 -0.486762 -0.040456 160 249 161
-0.270007 -0.473504 0.098316 160 249 161
-0.358781 -0.480764 0.00580067 160 249 161
-0.345623 -0.485462 -0.146007 160 249 161
-0.057635 -0.124746 -0.241304 160 249 161
-0.333908 -0.343554 -0.218378 160 249 161
-0.417923 -0.360531 -0.252434 160 249 161
-0.419795 -0.210972 -0.264684 160 249 161
-0.144327 -0.449878 -0.187201 160 249 161
-0.403931 -0.403404 -0.212138 160 249 161
0.0919329 -0.428824 -0.173574 160 249 161
0.0219353 -0.490293 -0.0206337 160 249 161
-0.21183 -0.424629 -0.179118 160 249 161
0.156329 -0.486576 -0.0736841 160 249 161
-0.44685 -0.410507 -0.263997 160 249 161
-0.279507 -0.174267 -0.248059 160 249 161
-0.296514 -0.436832 -0.155986 160 249 161
-0.149436 -0.490399 -0.0914566 160 249 161
-0.422182 -0.289088 -0.259429 160 249 161
-0.459232 -0.483223 -0.221423 160 249 161
0.266436 -0.477575 -0.0975843 160 249 161
-0.0381739 -0.490181 -0.07289 160 249 161
-0.381895 -0.432959 -0.196934 160 249 161
-0.365896 -0.178238 -0.258863 160 249 161
-0.402706 -0.183165 -0.264555 160 249 161
-0.427611 -0.230977 -0.26451 160 249 161
-0.402777 -0.295325 -0.256015 160 249 161
0.208725 -0.4517 -0.143697 160 249 161
-0.111422 -0.46616 -0.170415 160 249 161
-0.246124 -0.437321 -0.210697 160 249 161
-0.346775 -0.484905 -0.105516 160 249 161
-0.450824 -0.480286 -0.242306 160 249 161
-0.385475 -0.483785 -0.198139 160 249 161
-0.378959 -0.342182 -0.224476 160 249 161
-0.237674 -0.401641 -0.221664 160 249 161
-0.350835 -0.41914 -0.233903 160 249 161
-0.106785 -0.487486 -0.139148 160 249 161
-0.290243 -0.143837 -0.250108 160 249 161
-0.32229 -0.312695 -0.239132 160 249 161
-0.383804 -0.400579 -0.239007 160 249 161
-0.143213 -0.487399 -0.020513 160 249 161
-0.117854 -0.490564 -0.0515592 160 249 161
-0.449606 -0.485986 -0.181387 160 249 161
-0.422053 -0.337048 -0.255062 160 249 161
-0.413202 -0.471087 -0.245167 160 249 161
-0.443416 -0.448392 -0.264449 160 249 161
-0.362994 -0.484579 -0.0177874 160 249 161
0.0860428 -0.4663 -0.142938 160 249 161
-0.452571 -0.369546 -0.251487 160 249 161
-0.347866 -0.342206 -0.238267 160 249 161
-0.430197 -0.379819 -0.253142 160 249 161
-0.0220978 -0.489255 -0.0890264 160 249 161
-0.0507849 -0.488787 0.103527 160 249 161
-0.149068 -0.438462 -0.101766 160 249 161
-0.182666 -0.103963 -0.239864 160 249 161
-0.212814 -0.416367 -0.210378 160 249 161
-0.177939 -0.490076 -0.150271 160 249 161
-0.401106 -0.486441 -0.0862676 160 249 161
-0.080196 -0.490826 -0.0518083 160 249 161
0.208071 -0.486855 -0.0613806 160 249 161
0.14941 -0.458204 -0.144116 160 249 161
-0.37118 -0.486954 -0.11267 160 249 161
-0.18074 -0.486748 -0.0492283 160 249 161
0.309852 -0.481233 -0.0836451 160 249 161
-0.368176 -0.289295 -0.251192 160 249 161
-0.394572 -0.191732 -0.265274 160 249 161
-0.450202 -0.403072 -0.261065 160 249 161
-0.136617 -0.487503 0.00167403 160 249 161
-0.429132 -0.392485 -0.253272 160 249 161
-0.442988 -0.46852 -0.256569 160 249 161
0.0915726 -0.489924 -0.0420437 160 249 161
-0.219175 -0.428921 -0.20784 160 249 161
-0.429873 -0.486452 -0.139686 160 249 161
-0.425093 -0.223584 -0.261557 160 249 161
-0.292291 -0.27095 -0.239974 160 249 161
-0.251737 -0.486004 -0.00688898 160 249 161
-0.386066 -0.263408 -0.256629 160 249 161
-0.43897 -0.482546 -0.172491 160 249 161
-0.159295 -0.478195 -0.174399 160 249 161
-0.140403 -0.209361 -0.232361 160 249 161
0.0110328 -0.490366 -0.0222497 160 249 161
-0.209516 -0.485534 0.0581547 160 249 161
-0.292751 -0.482752 -0.223565 160 249 161
0.0856987 -0.449614 -0.158082 160 249 161
-0.262487 -0.482919 0.0558003 160 249 161
-0.408928 -0.178391 -0.263463 160 249 161
-0.296797 -0.485336 -0.0354429 160 249 161
-0.262708 -0.48498 -0.213706 160 249 161
-0.234108 -0.431078 -0.210234 160 249 161
0.066215 -0.490075 -0.0189434 160 249 161
-0.000468552 -0.436472 -0.178985 160 249 161
-0.0322811 -0.489616 0.0494979 160 249 161
-0.28341 -0.433719 -0.00061552 160 249 161
-0.395608 -0.488396 -0.133905 160 249 161
0.00532472 -0.490525 0.0368976 160 249 161
0.0139114 -0.488852 0.0998231 160 249 161
-0.460146 -0.456343 -0.255664 160 249 161
0.0754085 -0.490045 -0.0309214 160 249 161
-0.241902 -0.389379 -0.226027 160 249 161
-0.449305 -0.308044 -0.249198 160 249 161
-0.360938 -0.267956 -0.253626 160 249 161
-0.181072 -0.489806 -0.120716 160 249 161
-0.315967 -0.48557 -0.116531 160 249 161
-0.0905914 -0.275201 -0.233483 160 249 161
-0.317845 -0.478391 0.0430189 160 249 161
0.12931 -0.490278 0.0282792 160 249 161
-0.436741 -0.485613 -0.150394 160 249 161
-0.351606 -0.485511 -0.189824 160 249 161
-0.439174 -0.482642 -0.172424 160 249 161
-0.392538 -0.469433 -0.244648 160 249 161
-0.39915 -0.250043 -0.259462 160 249 161
0.158642 -0.488422 -0.0321758 160 249 161
-0.439541 -0.484026 -0.161643 160 249 161
-0.00560339 -0.479589 -0.138171 160 249 161
-0.230289 -0.48634 0.00554502 160 249 161
-0.276254 -0.483079 0.0380152 160 249 161
0.185182 -0.490039 0.0235184 160 249 161
-0.405565 -0.481664 -0.0744418 160 249 161
-0.458203 -0.47222 -0.246881 160 249 161
-0.245461 -0.375774 -0.201499 160 249 161
-0.284198 -0.389603 -0.2259 160 249 161
-0.137289 -0.130443 -0.239079 160 249 161
-0.297057 -0.344327 -0.229614 160 249 161
-0.340802 -0.483483 0.00658605 160 249 161
0.0232035 -0.490427 0.0307724 160 249 161
0.103472 -0.489768 0.113556 160 249 161
-0.446489 -0.462254 -0.260465 160 249 161
0.165507 -0.489334 -0.00325196 160 249 161
0.0450253 -0.490312 0.0426945 160 249 161
-0.334955 -0.48521 -0.10953 160 249 161
-0.143146 -0.487273 0.0842663 160 249 161
-0.229911 -0.486296 -0.115153 160 249 161
-0.151868 -0.313541 -0.225901 160 249 161
-0.267535 -0.480577 0.0670869 160 249 161
-0.208665 -0.461785 -0.197552 160 249 161
-0.171378 -0.486409 0.0780505 160 249 161
0.127476 -0.490084 0.0962188 160 249 161
-0.117189 -0.487582 0.0880097 160 249 161
-0.42737 -0.301976 -0.259122 160 249 161
-0.195071 -0.489499 -0.134688 160 249 161
-0.179275 -0.441414 -0.072804 160 249 161
-0.373563 -0.162076 -0.260194 160 249 161
-0.133213 -0.490366 -0.0610711 160 249 161
0.0542196 -0.489961 0.128764 160 249 161
-0.451262 -0.39224 -0.247525 160 249 161
-0.241786 -0.189555 -0.241751 160 249 161
-0.332153 -0.407481 -0.230033 160 249 161
-0.179753 -0.48724 0.0107336 160 249 161
-0.343915 -0.361519 -0.212357 160 249 161
-0.336172 -0.376497 -0.207502 160 249 161
0.0454434 -0.489681 0.124165 160 249 161
-0.312184 -0.300618 -0.239075 160 249 161
-0.15092 -0.48742 0.0609326 160 249 161
-0.112291 -0.276152 -0.229752 160 249 161
-0.227496 -0.486832 -0.0262399 160 249 161
-0.448378 -0.292635 -0.257459 160 249 161
-0.337523 -0.477832 0.0352871 160 249 161
-0.0956064 -0.294343 -0.23443 160 249 161
-0.340213 -0.474307 -0.00378135 160 249 161
-0.0867312 -0.443521 -0.183563 160 249 161
-0.387622 -0.100652 -0.261536 160 249 161
-0.268171 -0.34113 -0.226761 160 249 161
-0.153792 -0.427021 -0.199167 160 249 161
-0.373752 -0.487955 -0.0521611 160 249 161
-0.203335 -0.148022 -0.238854 160 249 161
-0.272965 -0.398984 -0.200033 160 249 161
-0.397314 -0.384956 -0.242729 160 249 161
-0.0257374 -0.376677 -0.195954 160 249 161
-0.452941 -0.385148 -0.256481 160 249 161
-0.347277 -0.485222 -0.127966 160 249 161
-0.369099 -0.474499 -0.2395 160 249 161
-0.309195 -0.441017 -0.14803 160 249 161
-0.0558552 -0.49003 0.025641 160 249 161
-0.330892 -0.485782 -0.155521 160 249 161
-0.275807 -0.484322 0.0213207 160 249 161
-0.426989 -0.42135 -0.218603 160 249 161
-0.320886 -0.339209 -0.235146 160 249 161
-0.107854 -0.437651 -0.0537654 160 249 161
-0.121028 -0.445083 -0.0425232 160 249 161
-0.381309 -0.313291 -0.239384 160 249 161
-0.127999 -0.490101 -0.126177 160 249 161
-0.411472 -0.210923 -0.263885 160 249 161
-0.00366853 -0.48919 0.0805143 160 249 161
-0.289806 -0.434156 -0.221161 160 249 161
-0.283632 -0.155251 -0.249096 160 249 161
-0.328337 -0.342103 -0.217985 160 249 161
-0.274818 -0.485148 -0.000550734 160 249 161
-0.323417 -0.480725 -0.232028 160 249 161
-0.410052 -0.488253 -0.167124 160 249 161
-0.236734 -0.40031 -0.22174 160 249 161
-0.146347 -0.490439 -0.0907346 160 249 161
-0.0925976 -0.490696 -0.0188507 160 249 161
-0.439406 -0.483745 -0.163306 160 249 161
-0.157391 -0.107271 -0.240199 160 249 161
-0.226071 -0.0868917 -0.243461 160 249 161
-0.14758 -0.487279 -0.0209057 160 249 161
-0.0878018 -0.488013 0.0829452 160 249 161
-0.00249814 -0.489676 0.0787521 160 249 161
-0.448664 -0.294123 -0.256691 160 249 161
-0.420201 -0.479174 -0.15359 160 249 161
-0.262158 -0.485601 -0.000243727 160 249 161
-0.288083 -0.443998 0.0526724 160 249 161
-0.206283 -0.243239 -0.230675 160 249 161
-0.112533 -0.487589 0.109842 160 249 161
-0.0466045 -0.490907 0.00687629 160 249 161
-0.410681 -0.440582 -0.202854 160 249 161
-0.0682229 -0.488831 -0.112473 160 249 161
0.3106 -0.47132 -0.105968 160 249 161
-0.306308 -0.484686 -0.0210235 160 249 161
-0.251739 -0.42091 -0.191375 160 249 161
-0.0861024 -0.487737 0.115238 160 249 161
-0.446873 -0.426095 -0.235723 160 249 161
0.12042 -0.489954 0.104063 160 249 161
-0.364399 -0.295005 -0.249682 160 249 161
-0.23712 -0.117822 -0.244514 160 249 161
-0.28851 -0.485039 -0.0124913 160 249 161
-0.456985 -0.445217 -0.263006 160 249 161
0.0548967 -0.48565 -0.101829 160 249 161
-0.422027 -0.381811 -0.250869 160 249 161
-0.112568 -0.199675 -0.234282 160 249 161
-0.451272 -0.46963 -0.231289 160 249 161
-0.174007 -0.440033 -0.0362674 160 249 161
-0.445042 -0.442196 -0.265466 160 249 161
-0.0982853 -0.487405 0.144707 160 249 161
-0.413447 -0.192449 -0.26455 160 249 161
-0.386328 -0.230005 -0.259272 160 249 161
-0.416214 -0.258265 -0.26021 160 249 161
-0.154001 -0.485185 0.13463 160 249 161
0.335154 -0.479991 -0.0835707 160 249 161
-0.104165 -0.352593 -0.217116 160 249 161
-0.451302 -0.365468 -0.254701 160 249 161
-0.360752 -0.222527 -0.26222 160 249 161
0.0728119 -0.476583 -0.130209 160 249 161
-0.153226 -0.183896 -0.234716 160 249 161
-0.344475 -0.487831 -0.0177295 160 249 161
-0.37662 -0.484687 -0.155949 160 249 161
-0.133748 -0.488702 -0.0442911 160 249 161
-0.168834 -0.410146 -0.206046 160 249 161
-0.297169 -0.358104 -0.210569 160 249 161
-0.000343144 -0.489916 -0.0613203 160 249 161
-0.388932 -0.420336 -0.200919 160 249 161
-0.330971 -0.486021 -0.185174 160 249 161
-0.150743 -0.488362 -0.0609555 160 249 161
-0.387325 -0.488619 -0.139125 160 249 161
-0.153005 -0.490308 -0.0920922 160 249 161
-0.187102 -0.489073 -0.11577 160 249 161
0.0629709 -0.486573 -0.0873252 160 249 161
-0.415545 -0.180787 -0.264353 160 249 161
-0.226624 -0.488968 -0.196073 160 249 161
-0.0750198 -0.484731 -0.143197 160 249 161
-0.264068 -0.486387 -0.133916 160 249 161
-0.429487 -0.48625 -0.140645 160 249 161
-0.455044 -0.475776 -0.247296 160 249 161
-0.180651 -0.154722 -0.236942 160 249 161
-0.0975761 -0.48222 -0.153407 160 249 161
-0.212981 -0.482031 0.107637 160 249 161
-0.0682031 -0.467778 -0.163269 160 249 161
-0.0311617 -0.488882 0.101689 160 249 161
-0.167982 -0.48698 0.0608212 160 249 161
-0.178783 -0.48689 -0.0770941 160 249 161
-0.058337 -0.488241 0.128929 160 249 161
-0.166765 -0.442888 -0.106095 160 249 161
-0.127169 -0.489059 -0.0370339 160 249 161
-0.432464 -0.314806 -0.243828 160 249 161
-0.0850677 -0.490853 -0.0416931 160 249 161
-0.184037 -0.130027 -0.238486 160 249 161
-0.182728 -0.225558 -0.230831 160 249 161
-0.0516251 -0.48834 0.134115 160 249 161
0.00108819 -0.489773 -0.0729501 160 249 161
-0.132701 -0.476548 -0.165398 160 249 161
-0.177051 -0.487219 -0.0091194 160 249 161
-0.259434 -0.335654 -0.213884 160 249 161
-0.149868 -0.440194 0.0151401 160 249 161
-0.459771 -0.464615 -0.248886 160 249 161
-0.379781 -0.434314 -0.246489 160 249 161
-0.0621426 -0.486912 -0.125588 160 249 161
0.134358 -0.488148 -0.0508129 160 249 161
-0.0849943 -0.490836 -0.0303074 160 249 161
-0.192642 -0.137366 -0.238484 160 249 161
-0.161969 -0.487388 0.0207392 160 249 161
-0.357208 -0.285008 -0.249567 160 249 161
-0.126253 -0.446384 -0.022101 160 249 161
-0.0470824 -0.489433 0.0361938 160 249 161
-0.119439 -0.357835 -0.213952 160 249 161
0.102695 -0.490123 0.0598477 160 249 161
-0.201294 -0.487094 -0.0183132 160 249 161
-0.26254 -0.324132 -0.216816 160 249 161
-0.341411 -0.405564 -0.231493 160 249 161
-0.416998 -0.486983 -0.10785 160 249 161
-0.319573 -0.470675 0.0524264 160 249 161
-0.142292 -0.486864 0.102572 160 249 161
-0.409089 -0.201052 -0.263939 160 249 161
-0.0455232 -0.362836 -0.205532 160 249 161
0.0428386 -0.490272 0.0467931 160 249 161
-0.234566 -0.388271 -0.223215 160 249 161
-0.383057 -0.178966 -0.265277 160 249 161
-0.330468 -0.298309 -0.238151 160 249 161
-0.204649 -0.489344 -0.153752 160 249 161
-0.0287567 -0.490523 -0.0402365 160 249 161
-0.353161 -0.473791 -0.0390453 160 249 161
-0.0555429 -0.48825 0.133833 160 249 161
-0.322233 -0.369087 -0.231245 160 249 161
-0.142494 -0.336065 -0.228986 160 249 161
-0.310558 -0.486458 -0.190168 160 249 161
-0.260918 -0.474197 0.10426 160 249 161
-0.406359 -0.484403 -0.0729953 160 249 161
-0.386764 -0.476712 -0.105059 160 249 161
-0.252658 -0.0861345 -0.246362 160 249 161
-0.311838 -0.467038 0.0353066 160 249 161
-0.257935 -0.478263 0.0879948 160 249 161
-0.27143 -0.40259 -0.199105 160 249 161
-0.397998 -0.139429 -0.263369 160 249 161
-0.402148 -0.213511 -0.264811 160 249 161
-0.160758 -0.48583 0.110024 160 249 161
0.253536 -0.47688 -0.100744 160 249 161
-0.423662 -0.320503 -0.25673 160 249 161
-0.428388 -0.488094 -0.213558 160 249 161
-0.143618 -0.480091 -0.164883 160 249 161
-0.338845 -0.15702 -0.255315 160 249 161
-0.198777 -0.480363 -0.191107 160 249 161
-0.354424 -0.324777 -0.23009 160 249 161
-0.181894 -0.117364 -0.239247 160 249 161
0.0476042 -0.408688 -0.192358 160 249 161
-0.418162 -0.331467 -0.234133 160 249 161
0.0772067 -0.490129 0.0301921 160 249 161
-0.346237 -0.340282 -0.238844 160 249 161
-0.390223 -0.479008 -0.0763911 160 249 161
0.12159 -0.482255 -0.108501 160 249 161
0.0504009 -0.48999 0.075695 160 249 161
0.169353 -0.447118 -0.151468 160 249 161
-0.145145 -0.48966 -0.057951 160 249 161
-0.390026 -0.163534 -0.265108 160 249 161
-0.405212 -0.158844 -0.264174 160 249 161
-0.20836 -0.486875 -0.000284778 160 249 161
-0.141196 -0.490258 -0.0675615 160 249 161
-0.294794 -0.485397 -0.078337 160 249 161
-0.44663 -0.379259 -0.257259 160 249 161
-0.191839 -0.340485 -0.230158 160 249 161
-0.049533 -0.487328 -0.116833 160 249 161
-0.325141 -0.475438 -0.235548 160 249 161
-0.333783 -0.36747 -0.233403 160 249 161
-0.188356 -0.487136 -0.00539734 160 249 161
-0.366578 -0.488919 -0.0802472 160 249 161
-0.268282 -0.42945 -0.165325 160 249 161
-0.305646 -0.338334 -0.233022 160 249 161
-0.43704 -0.460074 -0.259735 160 249 161
-0.0143738 -0.490569 0.0596941 160 249 161
-0.0275796 -0.490879 0.000857735 160 249 161
-0.440208 -0.459503 -0.260803 160 249 161
-0.28108 -0.392601 -0.202617 160 249 161
0.0554124 -0.49011 0.0634448 160 249 161
-0.183227 -0.489653 -0.114821 160 249 161
-0.0317412 -0.490847 0.0266679 160 249 161
-0.45269 -0.47152 -0.252714 160 249 161
-0.359707 -0.477585 -0.00364272 160 249 161
-0.44642 -0.278908 -0.256862 160 249 161
0.00491208 -0.427051 -0.184917 160 249 161
-0.0205734 -0.490805 0.0246362 160 249 161
0.0118212 -0.490617 -0.00158003 160 249 161
-0.23871 -0.235714 -0.236539 160 249 161
0.0374306 -0.490372 0.0367085 160 249 161
-0.180496 -0.489886 -0.15653 160 249 161
-0.427489 -0.463686 -0.255458 160 249 161
-0.181346 -0.420134 -0.204538 160 249 161
-0.137911 -0.437828 -0.192145 160 249 161
-0.443395 -0.486653 -0.164162 160 249 161
-0.451892 -0.346994 -0.252437 160 249 161
0.267546 -0.483564 -0.0821904 160 249 161
-0.0798699 -0.488216 0.0889706 160 249 161
-0.439531 -0.343651 -0.237846 160 249 161
-0.177553 -0.487054 0.0408833 160 249 161
-0.453525 -0.485974 -0.197594 160 249 161
-0.311703 -0.232226 -0.248036 160 249 161
-0.380481 -0.277769 -0.254676 160 249 161
-0.120066 -0.224211 -0.231404 160 249 161
-0.307531 -0.365354 -0.209604 160 249 161
0.0351589 -0.490169 0.0617483 160 249 161
-0.312084 -0.480284 0.0342097 160 249 161
0.0905935 -0.489724 0.11624 160 249 161
-0.110552 -0.183639 -0.235705 160 249 161
-0.115504 -0.359337 -0.212336 160 249 161
-0.205002 -0.486651 -0.0537659 160 249 161
-0.442158 -0.287813 -0.261797 160 249 161
-0.320616 -0.485506 -0.210941 160 249 161
-0.439864 -0.392333 -0.257322 160 249 161
0.0807649 -0.41186 -0.186604 160 249 161
-0.457598 -0.484514 -0.213165 160 249 161
-0.434792 -0.482718 -0.154122 160 249 161
-0.41636 -0.488229 -0.181449 160 249 161
-0.0171831 -0.488821 0.0976661 160 249 161
-0.0752686 -0.49056 0.00317061 160 249 161
-0.107057 -0.49065 -0.0964734 160 249 161
-0.0225996 -0.490408 -0.0436259 160 249 161
-0.338479 -0.483618 -0.222189 160 249 161
0.278758 -0.488242 -0.0482544 160 249 161
-0.114112 -0.488192 -0.000831483 160 249 161
0.126469 -0.490169 0.0790691 160 249 161
-0.436188 -0.485983 -0.1809 160 249 161
-0.170248 -0.489978 -0.109703 160 249 161
-0.0547657 -0.490767 -0.0406261 160 249 161
-0.195658 -0.487263 -0.121332 160 249 161
-0.456678 -0.433508 -0.262584 160 249 161
-0.411101 -0.28057 -0.258437 160 249 161
-0.453089 -0.397053 -0.252948 160 249 161
0.0274797 -0.457748 -0.157924 160 249 161
-0.317725 -0.38875 -0.22994 160 249 161
-0.438468 -0.266375 -0.262717 160 249 161
-0.174967 -0.469132 -0.186103 160 249 161
-0.403348 -0.489004 -0.167191 160 249 161
-0.284149 -0.220722 -0.245501 160 249 161
-0.0723638 -0.392414 -0.197641 160 249 161
-0.258983 -0.486499 -0.20327 160 249 161
-0.338966 -0.364458 -0.210423 160 249 161
-0.185091 -0.45184 -0.19449 160 249 161
0.0850132 -0.444926 -0.161761 160 249 161
-0.208729 -0.486682 -0.131349 160 249 161
-0.218963 -0.446313 -0.202965 160 249 161
-0.425525 -0.308386 -0.258215 160 249 161
-0.327927 -0.480774 0.0248457 160 249 161
0.0768523 -0.449578 -0.15911 160 249 161
0.100691 -0.489929 0.0895903 160 249 161
0.159365 -0.47635 -0.117148 160 249 161
-0.0753521 -0.258647 -0.235022 160 249 161
-0.406804 -0.180671 -0.264207 160 249 161
-0.287328 -0.342598 -0.22867 160 249 161
-0.301068 -0.485939 -0.122653 160 249 161
-0.34674 -0.486567 -0.0355301 160 249 161
-0.0607923 -0.42488 -0.193037 160 249 161
-0.129547 -0.487665 0.0198146 160 249 161
-0.396529 -0.461912 -0.169176 160 249 161
-0.308939 -0.276304 -0.240592 160 249 161
-0.429028 -0.274721 -0.256786 160 249 161
-0.450871 -0.370779 -0.255771 160 249 161
-0.376546 -0.309425 -0.250247 160 249 161
0.0918005 -0.489086 -0.0518832 160 249 161
-0.230041 -0.205413 -0.238902 160 249 161
-0.342629 -0.410567 -0.231112 160 249 161
-0.259744 -0.482404 0.0644654 160 249 161
-0.412224 -0.407383 -0.215115 160 249 161
-0.184652 -0.4681 -0.189705 160 249 161
-0.119589 -0.488149 -0.138442 160 249 161
0.11157 -0.490054 0.0819804 160 249 161
-0.320222 -0.353366 -0.212154 160 249 161
-0.347365 -0.484515 -0.0781072 160 249 161
-0.453431 -0.482406 -0.236727 160 249 161
0.250456 -0.487332 -0.0576641 160 249 161
-0.456913 -0.484104 -0.213848 160 249 161
-0.230875 -0.398702 -0.220317 160 249 161
-0.0682168 -0.405264 -0.194378 160 249 161
-0.401838 -0.154189 -0.263911 160 249 161
0.23928 -0.486745 -0.0618788 160 249 161
-0.0337274 -0.488665 0.113122 160 249 161
-0.0968492 -0.42106 -0.193579 160 249 161
-0.230427 -0.485889 -0.205814 160 249 161
-0.167778 -0.487147 -0.0180365 160 249 161
-0.224867 -0.463507 -0.204911 160 249 161
-0.273037 -0.439968 -0.0787397 160 249 161
0.0933276 -0.487663 -0.0664205 160 249 161
-0.339129 -0.401021 -0.201729 160 249 161
-0.278711 -0.366778 -0.227178 160 249 161
-0.0613778 -0.490101 -0.0943917 160 249 161
-0.0109634 -0.487818 -0.0976046 160 249 161
-0.391872 -0.379411 -0.211999 160 249 161
0.0670751 -0.487182 -0.0785284 160 249 161
-0.371331 -0.476719 -0.0565734 160 249 161
0.0227566 -0.403105 -0.197513 160 249 161
-0.130952 -0.485862 0.145283 160 249 161
-0.423729 -0.482076 -0.126079 160 249 161
-0.445736 -0.358329 -0.239221 160 249 161
-0.207917 -0.193411 -0.236553 160 249 161
-0.152017 -0.340752 -0.224833 160 249 161
-0.0179614 -0.490141 -0.0554227 160 249 161
-0.0491525 -0.486035 -0.127426 160 249 161
-0.214517 -0.487483 -0.192366 160 249 161
-0.453894 -0.460569 -0.259995 160 249 161
-0.0523352 -0.488797 0.0992766 160 249 161
0.0476078 -0.485636 -0.102743 160 249 161
-0.041508 -0.49085 0.0221107 160 249 161
-0.417361 -0.478495 -0.155108 160 249 161
-0.329547 -0.476134 0.0471923 160 249 161
-0.195773 -0.486198 0.0511958 160 249 161
-0.241757 -0.19752 -0.241197 160 249 161
0.106464 -0.424523 -0.175416 160 249 161
-0.215619 -0.48668 -0.0505383 160 249 161
-0.335172 -0.484969 -0.0932338 160 249 161
-0.376107 -0.395704 -0.23825 160 249 161
-0.394729 -0.437914 -0.251432 160 249 161
-0.286198 -0.159873 -0.249274 160 249 161
-0.107851 -0.487134 0.139824 160 249 161
-0.393295 -0.24687 -0.258897 160 249 161
-0.193599 -0.438066 -0.0523324 160 249 161
-0.334134 -0.485606 -0.136571 160 249 161
-0.122144 -0.445984 -0.026849 160 249 161
-0.405929 -0.357176 -0.249835 160 249 161
-0.374774 -0.192238 -0.264547 160 249 161
-0.243041 -0.486581 -0.0543359 160 249 161
-0.393447 -0.45518 -0.251977 160 249 161
0.13237 -0.490197 0.00669881 160 249 161
-0.456579 -0.456734 -0.244452 160 249 161
-0.459543 -0.449576 -0.257848 160 249 161
-0.457187 -0.453283 -0.246695 160 249 161
0.114478 -0.490139 0.0675906 160 249 161
0.212988 -0.488521 -0.00871773 160 249 161
-0.333912 -0.485376 -0.210628 160 249 161
-0.209834 -0.489685 -0.170843 160 249 161
0.231166 -0.387204 -0.24062 192 234 140
-0.116569 -0.136305 -0.260725 192 234 140
0.15955 -0.364368 -0.254514 192 234 140
-0.0800387 -0.0716723 -0.25894 192 234 140
0.172895 -0.0478293 -0.251871 192 234 140
0.103089 -0.0211744 -0.258134 192 234 140
0.329246 -0.379517 -0.217719 192 234 140
0.243339 -0.33358 -0.240265 192 234 140
-0.125069 -0.359615 -0.257372 192 234 140
0.301573 -0.191913 -0.247035 192 234 140
0.318636 -0.0119385 -0.250342 192 234 140
0.117425 -0.208034 -0.259342 192 234 140
0.32292 -0.287018 -0.23667 192 234 140
0.3393 -0.19003 0.0410024 192 234 140
0.120744 -0.167966 -0.258556 192 234 140
0.323963 -0.108753 -0.244944 192 234 140
0.192948 -0.196577 -0.251599 192 234 140
0.344575 -0.446245 -0.02166 192 234 140
0.0901718 -0.287186 -0.26124 192 234 140
-0.112543 -0.214891 -0.25966 192 234 140
0.0370332 -0.224734 -0.26026 192 234 140
0.338016 -0.102205 -0.0634886 192 234 140
-0.175299 -0.254515 -0.259534 192 234 140
-0.0163947 -0.0909498 -0.25767 192 234 140
0.340187 -0.450917 -0.0938273 192 234 140
0.0441489 -0.368006 -0.259764 192 234 140
0.187031 -0.36219 -0.249167 192 234 140
0.279761 -0.292537 -0.243917 192 234 140
0.340201 -0.217448 0.0507179 192 234 140
0.342715 -0.373899 0.0798377 192 234 140
0.221794 -0.0101324 -0.247456 192 234 140
0.0523142 -0.158434 -0.259166 192 234 140
0.244143 -0.11684 -0.246516 192 234 140
0.338384 -0.347257 -0.0805762 192 234 140
0.311804 -0.384762 -0.237163 192 234 140
0.33676 -0.261139 -0.133916 192 234 140
0.320132 -0.307904 -0.237044 192 234 140
0.130569 -0.198827 -0.258156 192 234 140
-0.0541274 -0.151986 -0.259349 192 234 140
0.050697 -0.341497 -0.260322 192 234 140
0.177041 -0.390302 -0.250484 192 234 140
-0.0392015 -0.389283 -0.257211 192 234 140
0.0298454 -0.389911 -0.257052 192 234 140
0.134751 -0.34883 -0.258985 192 234 140
-0.036472 -0.290385 -0.258809 192 234 140
0.335622 -0.339138 -0.158195 192 234 140
0.100829 -0.420319 -0.254881 192 234 140
-0.0634967 -0.431793 -0.253728 192 234 140
0.177798 -0.344588 -0.250891 192 234 140
-0.0165693 -0.0299626 -0.256723 192 234 140
0.315964 -0.0105605 -0.251072 192 234 140
0.317689 -0.419149 -0.228372 192 234 140
0.339403 -0.34828 -0.0521876 192 234 140
0.32962 -0.484754 -0.203512 192 234 140
0.274592 -0.475824 -0.245023 192 234 140
0.301744 0.00893605 -0.251452 192 234 140
0.295942 -0.325208 -0.241882 192 234 140
-0.0135517 -0.3435 -0.258882 192 234 140
0.19434 -0.346057 -0.247671 192 234 140
-0.0522723 -0.415873 -0.252602 192 234 140
0.0450891 -0.0191089 -0.25897 192 234 140
0.167643 -0.193891 -0.254393 192 234 140
0.277745 -0.325748 -0.242846 192 234 140
0.198464 -0.305432 -0.24875 192 234 140
0.336492 -0.107946 -0.129855 192 234 140
0.329116 0.0130891 -0.23243 192 234 140
-0.100261 -0.110372 -0.26005 192 234 140
0.164455 -0.380626 -0.25329 192 234 140
0.33621 -0.129672 -0.181845 192 234 140
0.336655 -0.258189 -0.155477 192 234 140
0.340312 -0.290296 0.036235 192 234 140
0.306738 -0.468986 -0.237691 192 234 140
-0.155034 -0.0927678 -0.261765 192 234 140
-0.0446308 -0.193164 -0.258927 192 234 140
0.335723 -0.36181 -0.157175 192 234 140
0.277497 -0.493819 -0.201652 192 234 140
0.341076 -0.353582 -0.00558624 192 234 140
0.338995 -0.264187 0.0150791 192 234 140
0.336432 -0.253329 -0.114715 192 234 140
-0.164715 -0.443618 -0.225984 192 234 140
0.0847261 -0.199214 -0.260316 192 234 140
0.338585 -0.427664 -0.121334 192 234 140
0.336412 -0.480382 -0.194382 192 234 140
0.179494 -1.2517e-06 -0.251358 192 234 140
0.169313 -0.0147453 -0.252407 192 234 140
0.091563 -0.382026 -0.259799 192 234 140
-0.0659966 -0.117255 -0.25913 192 234 140
0.269882 -0.478282 -0.245664 192 234 140
0.080917 -0.462129 -0.250515 192 234 140
0.290092 -0.399179 -0.241704 192 234 140
0.0648063 -0.134219 -0.259016 192 234 140
-0.150896 -0.297411 -0.259302 192 234 140
0.318489 -0.489721 -0.197157 192 234 140
-0.0432814 -0.30836 -0.258718 192 234 140
0.0827684 -0.394025 -0.25824 192 234 140
0.342314 -0.348223 0.0583561 192 234 140
-0.117496 -0.0354054 -0.259983 192 234 140
-0.0973903 -0.126892 -0.260222 192 234 140
0.326054 -0.366679 -0.228954 192 234 140
0.334062 0.0339851 -0.204716 192 234 140
0.32577 -0.449597 -0.214754 192 234 140
0.105561 -0.20085 -0.259522 192 234 140
0.189043 -0.211619 -0.252059 192 234 140
0.228303 -0.0543931 -0.24607 192 234 140
-0.0382386 -0.405679 -0.255822 192 234 140
-0.165703 -0.319177 -0.257377 192 234 140
-0.0991957 -0.0665132 -0.259531 192 234 140
0.28013 -0.073131 -0.249051 192 234 140
0.23509 -0.429986 -0.241691 192 234 140
-0.0862514 -0.443696 -0.248137 192 234 140
-0.167048 -0.468813 -0.21036 192 234 140
0.269719 -0.416746 -0.241152 192 234 140
0.308522 -0.353078 -0.238856 192 234 140
-0.0294446 -0.204223 -0.258969 192 234 140
0.277391 -0.220715 -0.247335 192 234 140
0.0188489 -0.396094 -0.256145 192 234 140
0.23118 -0.380989 -0.24067 192 234 140
0.285172 -0.0383933 -0.248767 192 234 140
0.337061 -0.278632 -0.0500977 192 234 140
0.336318 -0.178346 -0.180243 192 234 140
0.20712 -0.411524 -0.244777 192 234 140
0.342924 -0.406025 -0.0217998 192 234 140
0.289328 -0.276524 -0.244626 192 234 140
0.336373 -0.127551 -0.12969 192 234 140
0.315056 -0.485021 -0.22167 192 234 140
0.132126 -0.228908 -0.258179 192 234 140
0.136304 -0.0939474 -0.255537 192 234 140
0.0249263 -0.373323 -0.258524 192 234 140
0.326504 -0.0121213 -0.241205 192 234 140
0.179236 -0.223147 -0.253313 192 234 140
-0.0340634 -0.300649 -0.258828 192 234 140
0.33928 -0.448045 -0.106864 192 234 140
-0.13463 -0.264757 -0.259593 192 234 140
0.298634 -0.0799587 -0.250035 192 234 140
0.339261 -0.160302 0.0218606 192 234 140
0.275904 -0.232512 -0.246754 192 234 140
0.222084 -0.230001 -0.247425 192 234 140
-0.0454973 -0.30038 -0.258703 192 234 140
-0.101136 -0.0428206 -0.259488 192 234 140
0.334067 -0.147437 -0.21363 192 234 140
0.308552 -0.451864 -0.234568 192 234 140
0.259783 -0.255175 -0.244194 192 234 140
0.0817133 -0.0468146 -0.259252 192 234 140
0.325822 -0.0831716 -0.242851 192 234 140
0.157538 -0.166608 -0.255195 192 234 140
-0.0301132 -0.358836 -0.258523 192 234 140
-0.148368 -0.341042 -0.256963 192 234 140
-0.179301 -0.379126 -0.248385 192 234 140
0.337362 -0.226892 -0.0167858 192 234 140
0.0832427 -0.424677 -0.254243 192 234 140
0.337928 -0.0881106 -0.0828391 192 234 140
0.236142 -0.332682 -0.241119 192 234 140
0.333631 -0.346226 -0.182194 192 234 140
0.236564 -0.183505 -0.246311 192 234 140
0.0318298 -0.409983 -0.254932 192 234 140
0.321745 -0.484929 -0.216942 192 234 140
0.338796 -0.238936 0.0135561 192 234 140
0.16801 -0.0683504 -0.252376 192 234 140
0.0656729 -0.0137723 -0.259679 192 234 140
0.33173 -0.399454 -0.188688 192 234 140
0.33587 -0.208648 -0.154272 192 234 140
0.330559 -0.362392 -0.207559 192 234 140
0.00428275 -0.320447 -0.258956 192 234 140
0.169903 -0.307578 -0.253048 192 234 140
0.300804 -0.334973 -0.240661 192 234 140
0.331113 -0.458129 -0.20389 192 234 140
0.340354 -0.135838 0.0209221 192 234 140
0.337226 -0.21136 -0.0161785 192 234 140
0.338249 0.0120046 -0.116683 192 234 140
0.339486 -0.298404 0.00923306 192 234 140
0.0122558 -0.446474 -0.252226 192 234 140
0.303781 -0.425308 -0.23527 192 234 140
-0.166098 -0.190869 -0.260342 192 234 140
0.330951 -0.0545937 -0.225955 192 234 140
-0.162085 -0.187064 -0.260581 192 234 140
0.0829213 -0.116305 -0.258792 192 234 140
0.288698 -0.0349066 -0.249109 192 234 140
0.333923 -0.438442 -0.164483 192 234 140
0.0810274 -0.133129 -0.258678 192 234 140
0.337911 -0.34746 -0.0970647 192 234 140
0.0669814 -0.288351 -0.261129 192 234 140
0.261968 -0.439223 -0.242098 192 234 140
0.246388 -0.374305 -0.239258 192 234 140
0.228814 -0.307849 -0.243405 192 234 140
0.331469 -0.450704 -0.183362 192 234 140
0.318149 -0.41679 -0.228455 192 234 140
0.160825 -0.0996015 -0.253203 192 234 140
0.238057 0.00402284 -0.245759 192 234 140
0.277775 -0.24877 -0.246234 192 234 140
-0.142405 -0.325355 -0.258025 192 234 140
0.328346 0.00824433 -0.235725 192 234 140
0.0485324 -0.112622 -0.258751 192 234 140
-0.0656113 -0.27029 -0.258739 192 234 140
-0.0388907 -0.361287 -0.258677 192 234 140
0.262612 -0.339739 -0.241013 192 234 140
0.302178 -0.0814365 -0.250096 192 234 140
0.299213 -0.436109 -0.236614 192 234 140
0.341984 -0.374698 0.0388696 192 234 140
0.226475 -0.441187 -0.245629 192 234 140
0.338095 0.0090677 -0.118893 192 234 140
-0.0833532 -0.330436 -0.259177 192 234 140
0.309835 -0.280412 -0.241045 192 234 140
0.102721 -0.36188 -0.260657 192 234 140
0.230454 -0.473349 -0.244902 192 234 140
0.285542 -0.124166 -0.249561 192 234 140
0.336516 -0.217207 -0.0529837 192 234 140
0.339924 -0.445397 -0.100794 192 234 140
0.340343 -0.0423876 -0.0218011 192 234 140
0.28524 -0.406237 -0.241531 192 234 140
0.32966 -0.249031 -0.22418 192 234 140
0.335094 0.0293326 -0.193828 192 234 140
-0.19524 -0.383654 -0.246456 192 234 140
0.246678 -0.389207 -0.239578 192 234 140
0.336159 -0.165604 -0.0775487 192 234 140
0.328711 -0.470919 -0.220056 192 234 140
0.0161684 -0.446149 -0.252111 192 234 140
0.293591 -0.43457 -0.238519 192 234 140
0.335331 0.0239866 -0.190259 192 234 140
0.329043 -0.303191 -0.229476 192 234 140
0.299133 -0.114143 -0.250036 192 234 140
0.0151022 -0.358664 -0.259371 192 234 140
0.0946306 -0.352827 -0.261274 192 234 140
0.336561 -0.305846 -0.137586 192 234 140
0.150497 -0.210495 -0.25641 192 234 140
0.335159 -0.00982175 -0.187399 192 234 140
0.188801 -0.052185 -0.250052 192 234 140
0.312809 -0.351042 -0.237814 192 234 140
0.228344 -0.0352944 -0.24655 192 234 140
0.313521 -0.483617 -0.226335 192 234 140
0.296318 -0.371558 -0.241304 192 234 140
-0.189617 -0.446738 -0.218328 192 234 140
0.107099 -0.165841 -0.259221 192 234 140
0.301206 -0.255203 -0.24421 192 234 140
0.334757 -0.41936 -0.164338 192 234 140
0.285512 -0.374687 -0.242238 192 234 140
0.288893 -0.48341 -0.236728 192 234 140
0.275231 -0.140428 -0.248979 192 234 140
0.071588 -0.12005 -0.25891 192 234 140
0.324289 -0.48403 -0.215956 192 234 140
0.257091 -0.422325 -0.240698 192 234 140
-0.0696742 -0.102161 -0.259041 192 234 140
0.337523 -0.228384 -0.010849 192 234 140
0.332248 -0.286915 -0.216647 192 234 140
0.332556 0.00763342 -0.214917 192 234 140
0.256486 -0.300301 -0.241559 192 234 140
0.205834 -0.327609 -0.246348 192 234 140
0.127842 -0.222968 -0.258557 192 234 140
-0.00742045 -0.196792 -0.259004 192 234 140
0.217278 -0.0550826 -0.247206 192 234 140
0.257652 -0.240043 -0.244778 192 234 140
0.333099 -0.143799 -0.219169 192 234 140
-0.189514 -0.397088 -0.245143 192 234 140
0.116804 -0.367782 -0.259764 192 234 140
-0.103266 -0.205269 -0.259536 192 234 140
0.288811 -0.232841 -0.247279 192 234 140
0.30708 0.016766 -0.252201 192 234 140
0.0240975 -0.213991 -0.259743 192 234 140
-0.158317 -0.462687 -0.213222 192 234 140
0.238336 -0.357043 -0.240318 192 234 140
0.328735 -0.127585 -0.236767 192 234 140
0.163676 -0.454312 -0.250689 192 234 140
0.34515 -0.422148 0.0286147 192 234 140
-0.0843642 -0.372221 -0.258609 192 234 140
0.00616455 -0.280345 -0.259347 192 234 140
-0.148375 -0.279857 -0.259541 192 234 140
0.125184 -0.325485 -0.259604 192 234 140
0.288205 -0.492283 -0.212688 192 234 140
0.0588211 -0.104514 -0.258882 192 234 140
0.206367 -0.259289 -0.249473 192 234 140
0.321743 -0.385782 -0.230909 192 234 140
0.183829 -0.323979 -0.250285 192 234 140
-0.0690041 -0.107053 -0.259081 192 234 140
0.0838967 -0.355041 -0.261369 192 234 140
0.320726 -0.379079 -0.232702 192 234 140
0.108981 -0.240459 -0.259933 192 234 140
0.233456 -0.0421458 -0.245979 192 234 140
0.109717 -0.158057 -0.258833 192 234 140
0.200747 -0.013313 -0.249351 192 234 140
0.18911 -0.0802845 -0.250017 192 234 140
0.339656 -0.229322 0.0347832 192 234 140
0.339566 -0.00980277 -0.0445162 192 234 140
0.09575 -0.376558 -0.260232 192 234 140
0.275999 -0.183425 -0.248334 192 234 140
0.242126 -0.381027 -0.239322 192 234 140
0.0737032 -0.426478 -0.253793 192 234 140
0.343029 -0.406368 -0.011358 192 234 140
-0.0867325 -0.484092 -0.187905 192 234 140
0.257106 0.0153585 -0.246046 192 234 140
0.170186 -0.241813 -0.254527 192 234 140
0.0755248 -0.416416 -0.255169 192 234 140
0.338287 -0.0652841 -0.0930208 192 234 140
-0.15037 -0.44621 -0.228829 192 234 140
0.160297 -0.238303 -0.25566 192 234 140
0.233331 -0.152146 -0.247164 192 234 140
0.338933 -0.288357 -0.00192581 192 234 140
0.169472 -0.0723168 -0.252233 192 234 140
0.341697 -0.391899 -0.0629924 192 234 140
0.0856956 -0.24877 -0.261288 192 234 140
0.280239 -0.394558 -0.241981 192 234 140
0.308037 -0.449076 -0.234359 192 234 140
-0.0609669 -0.440079 -0.253585 192 234 140
0.222869 -0.37061 -0.242045 192 234 140
0.149159 -0.327378 -0.256266 192 234 140
0.324684 -0.331267 -0.233094 192 234 140
-0.042344 -0.347143 -0.258772 192 234 140
-0.10766 -0.0850541 -0.260022 192 234 140
0.16443 -0.13313 -0.253717 192 234 140
0.260337 0.0221219 -0.246256 192 234 140
0.184155 -0.148762 -0.252499 192 234 140
0.318148 -0.138782 -0.246589 192 234 140
0.10421 -0.111112 -0.258206 192 234 140
0.32746 -0.0874684 -0.240858 192 234 140
0.333962 -0.136027 -0.214754 192 234 140
0.34717 -0.427232 0.0858171 192 234 140
0.145502 -0.488353 -0.155399 192 234 140
0.0774576 -0.48682 -0.199402 192 234 140
0.33157 -0.285235 -0.222475 192 234 140
0.338199 -0.214415 0.0116688 192 234 140
-0.18776 -0.422985 -0.240703 192 234 140
0.336596 -0.212395 -0.0465242 192 234 140
0.336064 -0.107377 -0.155479 192 234 140
-0.172679 -0.443412 -0.223417 192 234 140
0.137264 -0.233689 -0.257666 192 234 140
-0.00972195 -0.339216 -0.258963 192 234 140
-0.0566945 -0.0350165 -0.25797 192 234 140
0.327896 -0.465379 -0.219361 192 234 140
0.0983153 -0.170243 -0.259365 192 234 140
0.301367 -0.338156 -0.240444 192 234 140
0.0614053 -0.244373 -0.261169 192 234 140
0.292615 0.00689841 -0.249885 192 234 140
0.249049 -0.45599 -0.246021 192 234 140
0.170259 -0.397335 -0.251337 192 234 140
-0.0859431 -0.477575 -0.198507 192 234 140
0.341833 -0.348212 0.0280536 192 234 140
0.0239025 -0.0234614 -0.257784 192 234 140
0.237977 -0.264267 -0.243863 192 234 140
0.000729488 -0.169528 -0.258267 192 234 140
0.336298 -0.258013 -0.18078 192 234 140
0.256214 -0.494594 -0.216093 192 234 140
0.328694 -0.271248 -0.232052 192 234 140
0.337493 -0.228677 -0.0120084 192 234 140
0.166885 -0.205338 -0.254526 192 234 140
0.186065 -0.389397 -0.248742 192 234 140
-0.00991923 -0.115457 -0.257787 192 234 140
0.195086 -0.492049 -0.227903 192 234 140
0.254424 -0.423151 -0.240677 192 234 140
0.311058 -0.070605 -0.24974 192 234 140
0.20969 -0.0235214 -0.248393 192 234 140
0.143887 -0.333963 -0.257152 192 234 140
-0.135259 -0.0330788 -0.260556 192 234 140
0.32224 -0.480015 -0.226521 192 234 140
0.244819 -0.34906 -0.239813 192 234 140
-0.0767933 -0.338085 -0.25922 192 234 140
0.165904 -0.103401 -0.252626 192 234 140
0.0444301 -0.326905 -0.259828 192 234 140
-0.0815793 -0.316233 -0.258947 192 234 140
0.2857 0.0249835 -0.248902 192 234 140
-0.0860103 -0.195866 -0.259314 192 234 140
0.347391 -0.426368 0.0973007 192 234 140
0.343153 -0.359142 0.0917324 192 234 140
-0.0367625 -0.374003 -0.258393 192 234 140
-0.0253075 -0.298068 -0.258917 192 234 140
0.193962 -0.167096 -0.251555 192 234 140
0.211735 -0.191353 -0.249391 192 234 140
0.330806 -0.357086 -0.210211 192 234 140
0.31618 -0.421349 -0.229208 192 234 140
0.30252 -0.486375 -0.224111 192 234 140
0.0925068 -0.00642753 -0.258767 192 234 140
0.329485 -0.411884 -0.199406 192 234 140
0.268824 -0.226656 -0.246397 192 234 140
0.28694 -0.124433 -0.249633 192 234 140
0.259032 -0.424002 -0.240792 192 234 140
0.0586523 -0.137315 -0.259032 192 234 140
0.227542 -0.485439 -0.23412 192 234 140
-0.0613991 -0.105549 -0.258852 192 234 140
0.216904 -0.0490732 -0.247369 192 234 140
0.200445 -0.136455 -0.250748 192 234 140
0.119484 -0.153143 -0.257914 192 234 140
0.159602 -0.249316 -0.255614 192 234 140
0.160995 0.00644872 -0.252904 192 234 140
0.344553 -0.422447 0.00840227 192 234 140
0.334629 0.0179533 -0.196559 192 234 140
-0.041251 -0.178142 -0.259001 192 234 140
0.2134 -0.388933 -0.243432 192 234 140
0.191427 -0.127955 -0.251443 192 234 140
0.338522 0.00607778 -0.0972913 192 234 140
-0.132424 -0.372478 -0.255812 192 234 140
-0.0990804 -0.358654 -0.258604 192 234 140
-0.0434124 -0.258342 -0.258928 192 234 140
0.175095 -0.491076 -0.179856 192 234 140
0.223604 -0.263527 -0.246382 192 234 140
-0.134057 -0.359658 -0.256934 192 234 140
0.269307 -0.314753 -0.242601 192 234 140
0.287911 -0.113433 -0.249585 192 234 140
0.332775 -0.432121 -0.174994 192 234 140
0.331549 -0.159728 -0.225095 192 234 140
0.0605864 -0.310784 -0.260619 192 234 140
0.058007 -0.0117163 -0.25973 192 234 140
0.341662 -0.334556 0.0349431 192 234 140
0.225904 -0.109852 -0.247457 192 234 140
0.281296 -0.369632 -0.242318 192 234 140
0.172013 -0.00578001 -0.252094 192 234 140
-0.0686034 -0.329511 -0.258985 192 234 140
0.328635 -0.485924 -0.203393 192 234 140
-0.0245662 -0.353533 -0.258632 192 234 140
0.335937 -0.189446 -0.191108 192 234 140
0.316878 -0.373973 -0.235836 192 234 140
0.328525 -0.271098 -0.23227 192 234 140
0.043037 -0.0987262 -0.258596 192 234 140
-0.108116 -0.115258 -0.260341 192 234 140
0.0147738 -0.360393 -0.259309 192 234 140
0.183977 -0.151579 -0.252509 192 234 140
0.326561 -0.0269152 -0.240792 192 234 140
0.195007 -0.358389 -0.247652 192 234 140
0.336521 -0.0164503 -0.151541 192 234 140
0.204592 -0.139028 -0.250303 192 234 140
0.199468 -0.0508033 -0.248962 192 234 140
-0.016472 -0.338315 -0.258891 192 234 140
-0.15307 -0.164004 -0.261427 192 234 140
0.337978 -0.454418 -0.121979 192 234 140
0.342254 -0.305692 0.073225 192 234 140
-0.0616981 -0.457082 -0.244287 192 234 140
0.243145 -0.274532 -0.242523 192 234 140
0.233318 -0.0264533 -0.246178 192 234 140
0.00900097 -0.382946 -0.257351 192 234 140
0.0323191 -0.0555826 -0.258072 192 234 140
0.0267855 -0.440343 -0.252287 192 234 140
0.167801 -0.443017 -0.250443 192 234 140
0.278075 -0.240843 -0.246563 192 234 140
-0.129327 -0.0792068 -0.260725 192 234 140
-0.0819386 -0.0350131 -0.258718 192 234 140
0.335766 -0.197401 -0.12378 192 234 140
-0.0742254 -0.253003 -0.258949 192 234 140
0.336789 -0.133355 -0.0817193 192 234 140
0.31956 0.014838 -0.24907 192 234 140
0.0275753 -0.0211399 -0.257943 192 234 140
-0.0477479 -0.028776 -0.257607 192 234 140
0.205238 -0.478887 -0.240851 192 234 140
0.255157 -0.38722 -0.240249 192 234 140
-0.100811 -0.153552 -0.260506 192 234 140
0.10144 -0.439529 -0.253903 192 234 140
0.0722804 -0.264395 -0.261433 192 234 140
0.336183 -0.123592 -0.173864 192 234 140
0.108637 -0.338851 -0.260609 192 234 140
0.314842 -0.338435 -0.237572 192 234 140
-0.0276882 -0.374716 -0.258113 192 234 140
0.173983 -0.488913 -0.120749 192 234 140
0.335893 -0.221841 -0.106611 192 234 140
0.0898572 -0.341926 -0.261319 192 234 140
0.195196 -0.00296556 -0.24997 192 234 140
0.325024 -0.452099 -0.218592 192 234 140
-0.136062 -0.192635 -0.259946 192 234 140
0.10659 -0.394387 -0.257979 192 234 140
-0.0567608 -0.22566 -0.259032 192 234 140
0.185026 -0.329938 -0.249779 192 234 140
0.34622 -0.425416 0.055858 192 234 140
-0.0879915 -0.395885 -0.255484 192 234 140
0.259506 0.0100191 -0.24625 192 234 140
0.184934 -0.360208 -0.249556 192 234 140
0.268489 -0.270896 -0.244355 192 234 140
0.176762 -0.23629 -0.253709 192 234 140
-0.113549 -0.320003 -0.259059 192 234 140
0.339403 -0.385374 -0.114724 192 234 140
0.29734 -0.115336 -0.250074 192 234 140
0.341619 -0.387883 -0.045085 192 234 140
0.293191 -0.481403 -0.241224 192 234 140
0.334184 -0.0766123 -0.207699 192 234 140
0.328355 -0.407646 -0.20922 192 234 140
0.232559 -0.293033 -0.2434 192 234 140
0.132717 -0.409092 -0.254531 192 234 140
0.276666 -0.0780045 -0.248803 192 234 140
0.163273 -0.0176428 -0.252991 192 234 140
0.237364 -0.00667616 -0.245888 192 234 140
0.316688 -0.316057 -0.237793 192 234 140
-0.0210071 -0.476169 -0.222179 192 234 140
0.2969 -0.460307 -0.240113 192 234 140
0.339064 -0.269451 0.0156966 192 234 140
-0.0574418 -0.42062 -0.252572 192 234 140
0.190509 -0.234652 -0.251981 192 234 140
0.0562515 -0.0663758 -0.258843 192 234 140
0.33889 -0.079394 -0.0562813 192 234 140
-0.0350847 -0.382071 -0.25776 192 234 140
0.237041 -0.131248 -0.246705 192 234 140
0.281764 -0.227347 -0.247473 192 234 140
0.337705 -0.468652 -0.174227 192 234 140
0.318908 -0.100502 -0.247738 192 234 140
0.33786 -0.0914063 -0.0816274 192 234 140
0.0100967 -0.477483 -0.232125 192 234 140
0.212073 -0.306641 -0.246325 192 234 140
-0.161486 -0.280137 -0.25953 192 234 140
0.212467 -0.444344 -0.248857 192 234 140
0.232509 -0.399753 -0.240388 192 234 140
0.339288 -0.352089 -0.0619463 192 234 140
0.332944 -0.475401 -0.210401 192 234 140
0.251529 -0.354451 -0.239878 192 234 140
0.0258795 -0.46158 -0.249702 192 234 140
0.338479 -0.291492 -0.0182615 192 234 140
-0.00788152 -0.326895 -0.258867 192 234 140
0.296484 -0.232781 -0.246167 192 234 140
-0.0245281 -0.279237 -0.258941 192 234 140
0.331735 -0.348034 -0.199143 192 234 140
0.068537 -0.347747 -0.261017 192 234 140
-0.0181814 -0.34083 -0.258882 192 234 140
0.16995 -0.276507 -0.254225 192 234 140
0.154637 -0.371839 -0.255608 192 234 140
0.260885 -0.111144 -0.247788 192 234 140
0.329256 -0.434715 -0.19293 192 234 140
-0.128835 -0.253986 -0.259667 192 234 140
0.346903 -0.431018 0.0635667 192 234 140
-0.0924717 -0.0280034 -0.258987 192 234 140
0.33572 -0.0567845 -0.175548 192 234 140
0.104945 -0.350608 -0.260896 192 234 140
-0.141603 -0.125856 -0.252193 224 210 119
0.0852547 0.0168011 -0.256415 224 210 119
-0.201983 -0.0191114 -0.246077 224 210 119
-0.320383 -0.373851 -0.247544 224 210 119
-0.0675128 -0.331843 -0.251828 224 210 119
-0.0306587 -0.327266 -0.252374 224 210 119
-0.167515 -0.360639 -0.252202 224 210 119
-0.0645793 -0.365877 -0.250862 224 210 119
-0.415897 -0.317344 -0.246075 224 210 119
-0.345587 -0.0265505 -0.247615 224 210 119
-0.364131 -0.36795 -0.25331 224 210 119
-0.144865 -0.000574112 -0.246832 224 210 119
-0.32122 -0.00696609 -0.247719 224 210 119
-0.15628 -0.118494 -0.251621 224 210 119
-0.330023 -0.152862 -0.246689 224 210 119
-0.295075 -0.335194 -0.249255 224 210 119
-0.314353 -0.151007 -0.245874 224 210 119
0.087878 0.0599827 -0.253997 224 210 119
-0.450114 -0.342996 -0.245945 224 210 119
-0.375278 0.00824138 -0.249593 224 210 119
-0.443641 -0.19065 -0.246704 224 210 119
-0.277406 -0.181445 -0.250379 224 210 119
-0.109706 -0.41633 -0.105719 224 210 119
-0.441812 -0.185247 -0.246653 224 210 119
-0.0690972 -0.31677 -0.225126 224 210 119
-0.432738 -0.228154 -0.245497 224 210 119
0.0846558 -0.264954 -0.252667 224 210 119
0.000448983 -0.178245 -0.25311 224 210 119
-0.164477 -0.0630339 -0.249104 224 210 119
-0.0567629 -0.203292 -0.251551 224 210 119
-0.236553 -0.363778 -0.250996 224 210 119
-0.235783 -0.137568 -0.251652 224 210 119
-0.16515 -0.155151 -0.253687 224 210 119
-0.384198 -0.122521 -0.245856 224 210 119
-0.300507 -0.397853 -0.24414 224 210 119
0.0850072 0.0613357 -0.25312 224 210 119
-0.00139059 -0.0728401 -0.251062 224 210 119
0.0103069 -0.0687262 -0.250817 224 210 119
-0.445439 -0.401301 -0.247109 224 210 119
-0.184432 -0.230677 -0.254414 224 210 119
-0.211704 -0.318819 -0.252707 224 210 119
-0.127974 -0.129963 -0.236724 224 210 119
-0.240732 -0.188851 -0.255386 224 210 119
-0.289155 -0.136511 -0.245285 224 210 119
-0.0445358 -0.313605 -0.252544 224 210 119
-0.195174 -0.0651521 -0.247739 224 210 119
-0.116833 -0.279036 -0.252631 224 210 119
-0.0001687 -0.229006 -0.253256 224 210 119
-0.272206 -0.176308 -0.250815 224 210 119
-0.375581 -0.078986 -0.247606 224 210 119
-0.326033 -0.1592 -0.246566 224 210 119
-0.445083 -0.336549 -0.246583 224 210 119
