ply
format ascii 1.0
comment Created by Open3D
element vertex 1222
property double x
property double y
property double z
property uchar red
property uchar green
property uchar blue
end_header
-0.314748 -0.223032 0.0350478 255 95 48
-0.322093 -0.428991 0.0285694 255 95 48
0.12745 -0.201469 0.0371761 255 95 48
-0.122316 -0.131562 0.0392465 255 95 48
0.102939 -0.14612 0.0363473 255 95 48
-0.196554 -0.349513 0.0301166 255 95 48
-0.181156 -0.297778 0.0310809 255 95 48
-0.352736 -0.268968 0.0348382 255 95 48
-0.0771258 -0.181893 0.041113 255 95 48
-0.0489476 -0.152241 0.0384714 255 95 48
-0.302072 -0.385508 0.0300595 255 95 48
0.158856 -0.348732 0.0330367 255 95 48
-0.158796 -0.394985 0.0324175 255 95 48
0.0030179 -0.253597 0.0349726 255 95 48
-0.158247 -0.386396 0.0322466 255 95 48
-0.00190651 -0.171992 0.0377229 255 95 48
-0.352897 -0.472269 0.0303502 255 95 48
-0.241764 -0.137578 0.0384662 255 95 48
-0.303678 -0.288615 0.0326646 255 95 48
-0.0242797 -0.215737 0.0352287 255 95 48
0.14143 -0.238245 0.0349403 255 95 48
0.214354 -0.151491 0.0319714 255 95 48
0.209622 -0.111211 0.0340201 255 95 48
0.107566 -0.373438 0.0333483 255 95 48
0.198157 -0.118467 0.0340578 255 95 48
-0.116409 -0.438055 0.0342769 255 95 48
0.181345 -0.189447 0.034557 255 95 48
-0.117805 -0.4491 0.0343671 255 95 48
-0.3325 -0.353729 0.0298375 255 95 48
-0.0322307 -0.305777 0.0328446 255 95 48
0.170871 -0.0929474 0.0338678 255 95 48
-0.268774 -0.426991 0.0275106 255 95 48
-0.342824 -0.453215 0.0277864 255 95 48
-0.352839 -0.453544 0.0271746 255 95 48
-0.109838 -0.288541 0.0473116 255 95 48
-0.146123 -0.377919 0.0328388 255 95 48
-0.105509 -0.439882 0.0339275 255 95 48
0.0551996 -0.258906 0.0356826 255 95 48
0.211142 -0.0941738 0.0265578 255 95 48
-0.169312 -0.274172 0.0319297 255 95 48
-0.237372 -0.280181 0.0341683 255 95 48
-0.201499 -0.45059 0.0306493 255 95 48
-0.0188348 -0.147831 0.0375013 255 95 48
0.20861 -0.105215 0.0341024 255 95 48
0.0180498 -0.11631 0.0355882 255 95 48
0.115891 -0.415844 0.0314789 255 95 48
-0.0495556 -0.130521 0.0389505 255 95 48
-0.242754 -0.343263 0.0313432 255 95 48
-0.153046 -0.407755 0.0332843 255 95 48
0.0854537 -0.384904 0.0333664 255 95 48
-0.027373 -0.437622 0.0311425 255 95 48
-0.225235 -0.256319 0.0431028 255 95 48
-0.120763 -0.420448 0.0342705 255 95 48
-0.192076 -0.136178 0.0409477 255 95 48
-0.238185 -0.358082 0.0306427 255 95 48
-0.139414 -0.147288 0.0411965 255 95 48
-0.225013 -0.301827 0.0331391 255 95 48
-0.0918384 -0.444471 0.0334505 255 95 48
-0.256305 -0.335458 0.043119 255 95 48
-0.112808 -0.180546 0.0390508 255 95 48
0.225567 -0.0947806 0.0128731 255 95 48
-0.312161 -0.254837 0.0339821 255 95 48
-0.303818 -0.34419 0.0312501 255 95 48
-0.257263 -0.174264 0.0348701 255 95 48
-0.0351211 -0.343716 0.0330223 255 95 48
-0.224637 -0.304473 0.0330193 255 95 48
-0.172843 -0.289088 0.0312013 255 95 48
-0.105524 -0.222933 0.0344911 255 95 48
-0.0553933 -0.437178 0.0327741 255 95 48
-0.141489 -0.388846 0.0333539 255 95 48
-0.251734 -0.355937 0.0309183 255 95 48
-0.329203 -0.180636 0.0362688 255 95 48
-0.144213 -0.340417 0.0318581 255 95 48
-0.0956765 -0.116799 0.0423225 255 95 48
0.0479604 -0.282864 0.0349084 255 95 48
0.207808 -0.15741 0.0324463 255 95 48
-0.0959058 -0.169731 0.0391618 255 95 48
-0.207818 -0.368009 0.0298944 255 95 48
-0.175656 -0.354172 0.0305935 255 95 48
-0.220487 -0.339511 0.0428428 255 95 48
-0.0137014 -0.19535 0.0369816 255 95 48
-0.12003 -0.38655 0.0335681 255 95 48
-0.296896 -0.368735 0.028372 255 95 48
-0.219959 -0.142007 0.0400455 255 95 48
-0.116718 -0.177798 0.0392337 255 95 48
-0.187715 -0.15981 0.0416527 255 95 48
-0.127136 -0.44511 0.0343284 255 95 48
-0.265727 -0.166117 0.0385207 255 95 48
-0.244427 -0.375556 0.0295747 255 95 48
-0.271384 -0.408082 0.0278141 255 95 48
-0.0709081 -0.161167 0.039359 255 95 48
0.142209 -0.102116 0.0354039 255 95 48
-0.118427 -0.127863 0.0425086 255 95 48
-0.0695911 -0.337591 0.0331116 255 95 48
-0.191744 -0.254582 0.0341372 255 95 48
-0.201988 -0.164496 0.041751 255 95 48
0.17489 -0.0964017 0.0326927 255 95 48
0.0543289 -0.287259 0.0349802 255 95 48
0.160573 -0.187917 0.0363376 255 95 48
0.000970646 -0.315056 0.0333863 255 95 48
0.0817957 -0.183391 0.0376157 255 95 48
-0.302625 -0.229933 0.0351662 255 95 48
-0.241418 -0.301843 0.0331071 255 95 48
-0.0424982 -0.217605 0.0352554 255 95 48
-0.312693 -0.432674 0.0282032 255 95 48
-0.30208 -0.408596 0.0289874 255 95 48
-0.315113 -0.395252 0.0297592 255 95 48
-0.0135751 -0.253162 0.0343746 255 95 48
-0.339772 -0.446222 0.0275565 255 95 48
-0.149664 -0.302666 0.0460786 255 95 48
-0.222219 -0.261925 0.0435855 255 95 48
0.12154 -0.155729 0.036668 255 95 48
-0.274443 -0.221703 0.0366951 255 95 48
0.181743 -0.22138 0.0345213 255 95 48
-0.264209 -0.256708 0.0361902 255 95 48
-0.101139 -0.147993 0.0372608 255 95 48
-0.222936 -0.169508 0.0407333 255 95 48
0.0125935 -0.381133 0.033141 255 95 48
-0.206725 -0.136229 0.0401223 255 95 48
-0.364296 -0.450354 0.0265188 255 95 48
-0.041857 -0.147013 0.0382745 255 95 48
0.127147 -0.417599 0.0315924 255 95 48
0.119643 -0.415441 0.0315688 255 95 48
-0.259243 -0.187903 0.0382612 255 95 48
0.0219487 -0.155479 0.0366725 255 95 48
-0.184441 -0.173152 0.0373399 255 95 48
0.0212214 -0.340927 0.0346601 255 95 48
-0.111735 -0.464299 0.0342081 255 95 48
0.110674 -0.118851 0.0360463 255 95 48
-0.0817437 -0.231816 0.0334539 255 95 48
-0.22661 -0.303074 0.0330895 255 95 48
0.0866555 -0.186049 0.0379285 255 95 48
-0.252099 -0.390096 0.0286344 255 95 48
-0.236538 -0.204871 0.0390005 255 95 48
0.0900073 -0.101816 0.0351654 255 95 48
0.192951 -0.193963 0.0333306 255 95 48
0.120944 -0.338217 0.032915 255 95 48
0.114149 -0.13546 0.0361324 255 95 48
-0.281558 -0.439639 0.0275018 255 95 48
0.176429 -0.166125 0.0356989 255 95 48
-0.288956 -0.182269 0.0370512 255 95 48
0.106645 -0.2588 0.0352081 255 95 48
-0.187037 -0.298618 0.031294 255 95 48
-0.270339 -0.311664 0.0419853 255 95 48
-0.110258 -0.140943 0.040959 255 95 48
-0.221689 -0.264274 0.043734 255 95 48
-0.0679298 -0.311155 0.0325143 255 95 48
-0.270426 -0.154214 0.0385778 255 95 48
-0.207131 -0.207569 0.0391829 255 95 48
-0.244321 -0.298787 0.0431332 255 95 48
0.132001 -0.361782 0.0329662 255 95 48
0.140924 -0.378002 0.0336346 255 95 48
-0.284073 -0.351521 0.0317156 255 95 48
-0.334712 -0.153433 0.0373138 255 95 48
0.0925649 -0.341115 0.0341566 255 95 48
-0.324489 -0.183127 0.0362023 255 95 48
-0.355425 -0.45691 0.0273507 255 95 48
-0.344717 -0.265162 0.032775 255 95 48
0.149439 -0.349477 0.0328808 255 95 48
-0.0234324 -0.236826 0.0344957 255 95 48
0.157395 -0.217908 0.0357329 255 95 48
-0.13025 -0.311805 0.0318249 255 95 48
-0.356012 -0.314161 0.0307749 255 95 48
-0.190515 -0.291543 0.0316925 255 95 48
-0.350638 -0.414266 0.0281235 255 95 48
-0.104463 -0.251654 0.0462086 255 95 48
-0.278358 -0.27508 0.034665 255 95 48
-0.0341402 -0.401344 0.032708 255 95 48
-0.312296 -0.421786 0.0286123 255 95 48
-0.267845 -0.346366 0.03152 255 95 48
-0.0651953 -0.433155 0.0329844 255 95 48
0.0195937 -0.121968 0.0357491 255 95 48
-0.0695794 -0.264397 0.0319277 255 95 48
-0.131699 -0.242393 0.0327613 255 95 48
0.117636 -0.429752 0.030525 255 95 48
-0.187321 -0.143915 0.0425108 255 95 48
-0.154695 -0.161025 0.0368002 255 95 48
-0.0658458 -0.264114 0.0321402 255 95 48
-0.218642 -0.428521 0.0295267 255 95 48
-0.318 -0.156214 0.0379991 255 95 48
0.0243905 -0.226652 0.0357315 255 95 48
-0.324426 -0.455082 0.0285518 255 95 48
-0.191802 -0.162419 0.0415418 255 95 48
-0.220597 -0.342506 0.0313169 255 95 48
-0.0645612 -0.476832 0.0315454 255 95 48
-0.3406 -0.465352 0.0306413 255 95 48
0.0695137 -0.243951 0.0366194 255 95 48
-0.207801 -0.139346 0.0377862 255 95 48
-0.112138 -0.160256 0.0398517 255 95 48
-0.346214 -0.178895 0.0368326 255 95 48
-0.0269101 -0.391136 0.0327222 255 95 48
0.109936 -0.458494 0.0298477 255 95 48
-0.272242 -0.301568 0.0335107 255 95 48
0.0889431 -0.100743 0.0351804 255 95 48
-0.160864 -0.337321 0.0311932 255 95 48
0.141471 -0.274626 0.0334052 255 95 48
-0.0959344 -0.297292 0.0477799 255 95 48
-0.315962 -0.386676 0.0299673 255 95 48
-0.134376 -0.156803 0.0405694 255 95 48
0.0679359 -0.445813 0.0280142 255 95 48
-0.114447 -0.232926 0.0331955 255 95 48
-0.218641 -0.36577 0.0303944 255 95 48
-0.242303 -0.231095 0.0405043 255 95 48
-0.252503 -0.147466 0.0389266 255 95 48
-0.299258 -0.379298 0.0303468 255 95 48
0.158153 -0.274714 0.0330925 255 95 48
-0.0865421 -0.437026 0.0333088 255 95 48
0.125713 -0.108536 0.0307005 255 95 48
0.0778054 -0.196193 0.0392765 255 95 48
-0.0426986 -0.276446 0.0328436 255 95 48
-0.305268 -0.353639 0.0361614 255 95 48
-0.222635 -0.308259 0.0328298 255 95 48
-0.171735 -0.349594 0.0306837 255 95 48
-0.167306 -0.262009 0.0326169 255 95 48
-0.243617 -0.19888 0.0387229 255 95 48
-0.345158 -0.146297 0.0368026 255 95 48
-0.149891 -0.337975 0.0317078 255 95 48
-0.286816 -0.387039 0.0297161 255 95 48
-0.127651 -0.473017 0.0336564 255 95 48
0.187289 -0.209175 0.0348127 255 95 48
0.215409 -0.170376 0.0319676 255 95 48
-0.228545 -0.353656 0.0307891 255 95 48
-0.157553 -0.247132 0.0332379 255 95 48
-0.15702 -0.233487 0.0345281 255 95 48
-0.25862 -0.179403 0.0385131 255 95 48
-0.315842 -0.462735 0.0297038 255 95 48
-0.185712 -0.435965 0.0315097 255 95 48
-0.261501 -0.187879 0.0381975 255 95 48
-0.0560129 -0.232783 0.0338936 255 95 48
-0.154886 -0.267371 0.0320139 255 95 48
-0.194835 -0.139316 0.0379499 255 95 48
0.168685 -0.213442 0.0355697 255 95 48
-0.000463705 -0.201907 0.0363083 255 95 48
-0.172715 -0.354967 0.0307477 255 95 48
-0.361419 -0.454141 0.0266419 255 95 48
0.134308 -0.173704 0.0372739 255 95 48
0.0361318 -0.255782 0.0355049 255 95 48
0.131268 -0.371054 0.0332926 255 95 48
-0.248785 -0.254844 0.0360868 255 95 48
0.0757777 -0.304721 0.0348479 255 95 48
-0.00473576 -0.435063 0.0304652 255 95 48
0.126307 -0.0998488 0.0332392 255 95 48
-0.104782 -0.435433 0.0338582 255 95 48
-0.175092 -0.438378 0.0324212 255 95 48
0.123928 -0.0979119 0.0348176 255 95 48
0.0960818 -0.378463 0.0334059 255 95 48
-0.334973 -0.327371 0.0302189 255 95 48
-0.357212 -0.326662 0.0302875 255 95 48
-0.311713 -0.390401 0.0108675 255 95 48
-0.275021 -0.18051 0.0376617 255 95 48
-0.301687 -0.356495 0.0338541 255 95 48
-0.277497 -0.467818 0.0279612 255 95 48
-0.227395 -0.282439 0.0339719 255 95 48
-0.112842 -0.259728 0.0463277 255 95 48
0.0803841 -0.309315 0.0346505 255 95 48
-0.272426 -0.281267 0.0345873 255 95 48
0.029684 -0.11884 0.0353519 255 95 48
0.0942487 -0.105092 0.0351629 255 95 48
0.202976 -0.146513 0.0329435 255 95 48
-0.134743 -0.299366 0.0317785 255 95 48
0.115318 -0.375919 0.0333518 255 95 48
-0.116814 -0.261141 0.0314356 255 95 48
-0.295861 -0.243122 0.0350653 255 95 48
0.101084 -0.0983301 0.0350364 255 95 48
0.10117 -0.406077 0.0320957 255 95 48
0.0447537 -0.316013 0.0350018 255 95 48
0.208911 -0.181719 0.03234 255 95 48
0.152113 -0.342398 0.0329277 255 95 48
0.0376323 -0.251925 0.0356063 255 95 48
-0.280338 -0.351258 0.0316377 255 95 48
-0.181171 -0.26099 0.0333152 255 95 48
-0.0694347 -0.119861 0.0408002 255 95 48
-0.314272 -0.226194 0.0373445 255 95 48
-0.114878 -0.284222 0.0471223 255 95 48
-0.246633 -0.370846 0.029923 255 95 48
0.0430038 -0.265647 0.0352124 255 95 48
0.0318998 -0.321862 0.0347153 255 95 48
0.0733173 -0.178187 0.0378951 255 95 48
-0.321208 -0.428518 0.0286228 255 95 48
0.11798 -0.273563 0.034149 255 95 48
0.125858 -0.210661 0.0370058 255 95 48
-0.234841 -0.180924 0.0398148 255 95 48
-0.156267 -0.410198 0.0331617 255 95 48
-0.0376626 -0.111422 0.0404514 255 95 48
0.173214 -0.102795 0.029906 255 95 48
-0.272627 -0.327963 0.0324958 255 95 48
0.124972 -0.448404 0.0299784 255 95 48
-0.117534 -0.130523 0.0394292 255 95 48
-0.337106 -0.157506 0.0367939 255 95 48
-0.0903051 -0.228936 0.0336481 255 95 48
-0.322685 -0.365382 0.0262954 255 95 48
0.0151847 -0.251824 0.0353181 255 95 48
-0.0689362 -0.160692 0.0388951 255 95 48
-0.0168368 -0.428147 0.0313667 255 95 48
-0.0485269 -0.465069 0.0307443 255 95 48
-0.211157 -0.325859 0.0316429 255 95 48
0.0536496 -0.264224 0.0354274 255 95 48
-0.168424 -0.333777 0.0308011 255 95 48
-0.296909 -0.407906 0.0289761 255 95 48
-0.325219 -0.437219 0.0282239 255 95 48
0.0726777 -0.349211 0.0348419 255 95 48
-0.168488 -0.200676 0.0410636 255 95 48
-0.340222 -0.430967 0.0279729 255 95 48
-0.0128176 -0.154204 0.0375371 255 95 48
0.0863184 -0.0984486 0.0349537 255 95 48
-0.253497 -0.454307 0.0271784 255 95 48
-0.0552462 -0.19691 0.0429197 255 95 48
-0.326976 -0.31104 0.0371142 255 95 48
0.0535575 -0.245767 0.0360629 255 95 48
0.0835372 -0.0996581 0.0349744 255 95 48
-0.251284 -0.333728 0.0318702 255 95 48
0.12185 -0.179009 0.0371536 255 95 48
-0.308273 -0.353719 0.0353806 255 95 48
-0.32977 -0.28401 0.0322155 255 95 48
0.04597 -0.340387 0.0352005 255 95 48
-0.175487 -0.16098 0.0411626 255 95 48
0.0958046 -0.424587 0.030486 255 95 48
-0.257986 -0.140021 0.0369896 255 95 48
-0.254191 -0.142159 0.03852 255 95 48
-0.303953 -0.405916 0.0291259 255 95 48
-0.247388 -0.285914 0.0339549 255 95 48
-0.0795167 -0.135781 0.037778 255 95 48
-0.0602825 -0.150026 0.0387434 255 95 48
-0.296683 -0.467172 0.0292133 255 95 48
-0.222316 -0.195274 0.0402596 255 95 48
-0.307235 -0.215441 0.0355579 255 95 48
0.0867104 -0.308991 0.0344374 255 95 48
-0.325935 -0.141204 0.0377407 255 95 48
-0.236929 -0.267435 0.0428898 255 95 48
-0.277539 -0.414644 0.027853 255 95 48
-0.33083 -0.397094 0.0292721 255 95 48
-0.359468 -0.287315 0.031941 255 95 48
0.114477 -0.10351 0.0350862 255 95 48
-0.241545 -0.273578 0.0345896 255 95 48
0.183671 -0.177404 0.034777 255 95 48
-0.276263 -0.308901 0.0333259 255 95 48
-0.228326 -0.22341 0.0389276 255 95 48
0.0678742 -0.0998958 0.0348508 255 95 48
0.148356 -0.0944631 0.0336824 255 95 48
0.180624 -0.0973796 0.0347589 255 95 48
0.18388 -0.0925273 0.0332344 255 95 48
-0.278738 -0.321152 0.0322342 255 46 23
-0.214059 -0.423703 0.0328357 255 46 23
-0.15406 -0.454514 0.0329331 255 46 23
-0.138603 -0.348159 0.0390953 255 46 23
-0.0163825 -0.20662 0.0410618 255 46 23
-0.276932 -0.31323 0.0327201 255 46 23
-0.0606612 -0.297283 0.0419427 255 46 23
-0.0770769 -0.207238 0.0341582 255 46 23
-0.167548 -0.476969 0.0301954 255 46 23
0.025398 -0.268379 0.0390855 255 46 23
-0.121658 -0.152927 0.0308782 255 46 23
-0.0130049 -0.315938 0.0427922 255 46 23
-0.141294 -0.38711 0.0225606 255 46 23
0.0721226 -0.452879 0.0275092 255 46 23
-0.152679 -0.247491 0.0349624 255 46 23
-0.104345 -0.185956 0.0317962 255 46 23
-0.207293 -0.302934 0.0363287 255 46 23
-0.136342 -0.32144 0.0252865 255 46 23
-0.142095 -0.379499 0.0383049 255 46 23
-0.0522953 -0.460353 0.0368612 255 46 23
0.0445868 -0.277567 0.0368636 255 46 23
0.0066292 -0.376018 0.0359814 255 46 23
-0.209384 -0.307745 0.0364014 255 46 23
-0.0555673 -0.482177 0.0362773 255 46 23
-0.0132636 -0.25734 0.043276 255 46 23
-0.00293983 -0.397769 0.0347697 255 46 23
-0.0621865 -0.418981 0.0394835 255 46 23
0.0237733 -0.296317 0.0393155 255 46 23
-0.0570766 -0.422142 0.0391383 255 46 23
-0.222605 -0.225176 0.0338564 255 46 23
-0.04544 -0.262495 0.0430392 255 46 23
-0.268875 -0.325287 0.032658 255 46 23
-0.117309 -0.181309 0.032091 255 46 23
-0.129392 -0.412878 0.0374991 255 46 23
-0.0688589 -0.327709 0.0405844 255 46 23
0.0152711 -0.262545 0.0403288 255 46 23
-0.134669 -0.478539 0.0340148 255 46 23
-0.0743443 -0.242239 0.0366324 255 46 23
-0.261338 -0.239315 0.0338518 255 46 23
-0.160544 -0.325986 0.0379797 255 46 23
-0.292573 -0.449957 0.0283229 255 46 23
-0.0699694 -0.239998 0.0370091 255 46 23
-0.128863 -0.398719 0.0381023 255 46 23
-0.0500821 -0.289068 0.0430174 255 46 23
-0.264397 -0.227177 0.0330886 255 46 23
0.0247115 -0.315093 0.0386107 255 46 23
0.0584747 -0.333705 0.0325818 255 46 23
-0.11067 -0.48475 0.035005 255 46 23
-0.127579 -0.371508 0.0227865 255 46 23
-0.0455343 -0.48628 0.032522 255 46 23
-0.0477781 -0.195806 0.0358859 255 46 23
-0.0427456 -0.466504 0.0352125 255 46 23
-0.100079 -0.481289 0.0365352 255 46 23
-0.24925 -0.428105 0.0303493 255 46 23
0.0707005 -0.199528 0.0336075 255 46 23
0.0476447 -0.265571 0.0361309 255 46 23
-0.134111 -0.265197 0.035769 255 46 23
-0.137932 -0.147292 0.0319882 255 46 23
-0.0347978 -0.166381 0.0331772 255 46 23
-0.0463076 -0.183156 0.0343258 255 46 23
0.0872405 -0.301589 0.0296241 255 46 23
-0.0721795 -0.365181 0.0399801 255 46 23
-0.070034 -0.431187 0.039621 255 46 23
-0.116593 -0.458996 0.0365223 255 46 23
-0.186322 -0.37314 0.0361479 255 46 23
-0.0290895 -0.237928 0.0428677 255 46 23
-0.118084 -0.287858 0.0224725 255 46 23
-0.181437 -0.413896 -0.0006008 255 46 23
0.038746 -0.274121 0.0374387 255 46 23
-0.0582475 -0.170021 0.0324771 255 46 23
0.0217878 -0.351578 0.037315 255 46 23
0.0322888 -0.281427 0.0385398 255 46 23
-0.161928 -0.487233 0.0289274 255 46 23
0.0493389 -0.362765 0.0346017 255 46 23
-0.0546585 -0.405782 0.0395572 255 46 23
-0.139905 -0.254947 0.0352011 255 46 23
-0.198609 -0.381981 0.0349962 255 46 23
-0.115785 -0.146251 0.0306463 255 46 23
-0.0957516 -0.440411 0.0387441 255 46 23
-0.21487 -0.47555 0.0281188 255 46 23
-0.088588 -0.165387 0.0311 255 46 23
-0.0285492 -0.397956 0.0376169 255 46 23
-0.240897 -0.274472 0.0351005 255 46 23
-0.0455121 -0.226215 0.0395966 255 46 23
-0.192382 -0.466206 0.0300156 255 46 23
-0.206418 -0.324047 0.0364815 255 46 23
0.0450768 -0.464015 0.0280013 255 46 23
-0.161121 -0.420133 -0.0073702 255 46 23
-0.169469 -0.414601 0.0355973 255 46 23
0.00743302 -0.1962 0.0281958 255 46 23
-0.168508 -0.396603 0.0366626 255 46 23
-0.0187194 -0.267453 0.0437882 255 46 23
-0.26463 -0.244962 0.0341264 255 46 23
-0.0903994 -0.418364 0.0401359 255 46 23
-0.144603 -0.483213 0.0320076 255 46 23
-0.136502 -0.247234 0.0347251 255 46 23
0.0320764 -0.436924 0.0300914 255 46 23
-0.0390477 -0.468747 0.0343238 255 46 23
-0.252947 -0.358111 0.0321614 255 46 23
-0.0735784 -0.473211 0.0386439 255 46 23
-0.0607866 -0.377166 0.0400748 255 46 23
-0.183846 -0.152619 0.0329296 255 46 23
-0.199014 -0.241398 0.03461 255 46 23
-0.234796 -0.257095 0.034697 255 46 23
-0.194622 -0.295684 0.0365322 255 46 23
-0.271472 -0.360162 0.031329 255 46 23
-0.149847 -0.193748 0.0332921 255 46 23
-0.158819 -0.18975 0.0334856 255 46 23
-0.0832927 -0.278532 0.0385588 255 46 23
0.0366711 -0.389346 0.034492 255 46 23
-0.124537 -0.247092 0.0346653 255 46 23
-0.111891 -0.254102 0.0356243 255 46 23
-0.0859022 -0.248745 0.0360391 255 46 23
-0.269816 -0.330097 0.0324015 255 46 23
-0.0680645 -0.423441 0.0395616 255 46 23
-0.149418 -0.344216 0.0384067 255 46 23
-0.275918 -0.457368 0.0280791 255 46 23
0.0407644 -0.324805 0.0359909 255 46 23
-0.167387 -0.298664 0.0221114 255 46 23
-0.0825336 -0.338486 0.0394871 255 46 23
-0.0762907 -0.148338 0.0307697 255 46 23
-0.160006 -0.350895 0.0379201 255 46 23
-0.279264 -0.415207 0.0296817 255 46 23
0.0466035 -0.141982 0.0298118 255 46 23
0.0769954 -0.233828 0.0213563 255 46 23
-0.0804998 -0.165982 0.0312845 255 46 23
-0.212626 -0.167837 0.0326239 255 46 23
0.0764158 -0.29033 0.0329632 255 46 23
-0.289103 -0.15917 0.0313156 255 46 23
-0.269943 -0.392853 0.0309172 255 46 23
-0.0483398 -0.447993 0.0370499 255 46 23
-0.0807498 -0.264617 0.0378376 255 46 23
-0.17384 -0.185811 0.0338879 255 46 23
-0.12011 -0.149944 0.0307788 255 46 23
-0.192703 -0.136635 0.032505 255 46 23
-0.215664 -0.425583 0.0326311 255 46 23
-0.11442 -0.283674 0.0363889 255 46 23
-0.0440452 -0.411271 0.0384737 255 46 23
-0.114028 -0.353116 0.0401038 255 46 23
-0.175284 -0.248937 0.0352868 255 46 23
0.00106255 -0.23176 0.0239805 255 46 23
-0.0208894 -0.31602 0.0431111 255 46 23
0.0372299 -0.310312 0.0373341 255 46 23
-0.133754 -0.328344 0.0384864 255 46 23
-0.100815 -0.323731 0.039294 255 46 23
-0.242764 -0.354094 0.0327809 255 46 23
-0.0213103 -0.416978 0.0349289 255 46 23
-0.141757 -0.19336 0.0332279 255 46 23
-0.127153 -0.134169 0.0309257 255 46 23
-0.0609749 -0.242633 0.038824 255 46 23
-0.0701452 -0.189959 0.0334965 255 46 23
-0.174268 -0.372515 0.0367805 255 46 23
-0.270117 -0.271195 0.0347876 255 46 23
-0.0922157 -0.148312 0.0304659 255 46 23
-0.00887208 -0.486976 0.0274737 255 46 23
-0.0763392 -0.282127 0.0396772 255 46 23
0.00687499 -0.396333 0.0342441 255 46 23
0.0285545 -0.414625 0.0324208 255 46 23
-0.188116 -0.13961 0.0326608 255 46 23
-0.181624 -0.365707 0.0366247 255 46 23
-0.0608052 -0.350732 0.0400775 255 46 23
-0.0945101 -0.393858 0.0402259 255 46 23
-0.0801952 -0.261468 0.0376208 255 46 23
0.0712068 -0.468078 0.0274096 255 46 23
-0.094911 -0.450701 0.0384278 255 46 23
-0.257923 -0.279294 0.0348787 255 46 23
-0.119476 -0.35513 0.0400758 255 46 23
-0.247732 -0.428632 0.0303955 255 46 23
-0.100832 -0.226585 0.034671 255 46 23
-0.173425 -0.24187 0.0351028 255 46 23
-0.118537 -0.27936 0.0241757 255 46 23
0.0558695 -0.384714 0.0339031 255 46 23
-0.0513893 -0.193026 0.035022 255 46 23
-0.245289 -0.376193 0.0321903 255 46 23
-0.255024 -0.32506 0.0333635 255 46 23
-0.108272 -0.181008 0.0316235 255 46 23
0.045529 -0.369606 0.0348258 255 46 23
-0.0500633 -0.277489 0.0430638 255 46 23
-0.0383913 -0.464547 0.0344796 255 46 23
0.0709564 -0.303004 0.0325016 255 46 23
-0.255108 -0.184965 0.0321837 255 46 23
-0.0827204 -0.209473 0.0340652 255 46 23
0.0178127 -0.350295 0.0377394 255 46 23
-0.177783 -0.197395 0.0340852 255 46 23
-0.0827525 -0.409426 0.0406348 255 46 23
-0.216507 -0.402231 0.0335157 255 46 23
-0.07589 -0.382669 0.0400872 255 46 23
0.0388769 -0.468426 0.0279041 255 46 23
-0.146659 -0.164114 0.0327221 255 46 23
-0.173906 -0.210872 0.0342504 255 46 23
-0.262668 -0.151574 0.0316906 255 46 23
-0.0654976 -0.306499 0.041402 255 46 23
-0.086347 -0.337955 0.0396149 255 46 23
-0.153899 -0.318653 0.0381481 255 46 23
-0.06277 -0.302561 0.0416382 255 46 23
0.0835303 -0.246548 0.0310728 255 46 23
0.024739 -0.445579 0.0297841 255 46 23
-0.148041 -0.488396 0.0302578 255 46 23
-0.0668826 -0.338778 0.0401967 255 46 23
-0.295966 -0.32974 0.0308018 255 46 23
-0.030045 -0.274169 0.0440364 255 46 23
-0.116125 -0.341767 0.0396721 255 46 23
-0.0551137 -0.259702 0.0415661 255 46 23
0.0284627 -0.380284 0.0351199 255 46 23
-0.0496536 -0.433043 0.0379334 255 46 23
0.0169452 -0.213675 0.0401847 255 46 23
-0.0487374 -0.403641 0.0390386 255 46 23
-0.14 -0.337539 0.0386552 255 46 23
-0.184621 -0.365891 0.0364937 255 46 23
-0.0166911 -0.421321 0.0339132 255 46 23
-0.116382 -0.182699 0.0321209 255 46 23
-0.124911 -0.368308 0.0395865 255 46 23
-0.155366 -0.453954 0.032854 255 46 23
-0.0957739 -0.316474 0.0395222 255 46 23
-0.165809 -0.131805 0.0325592 255 46 23
0.0225525 -0.364965 0.036122 255 46 23
0.0201833 -0.392953 0.0342075 255 46 23
-0.0423628 -0.484749 0.0323385 255 46 23
-0.0705009 -0.400703 0.0400563 255 46 23
-0.109703 -0.212756 0.0301158 255 46 23
-0.156121 -0.16184 0.0327366 255 46 23
-0.207328 -0.263827 0.0351167 255 46 23
-0.0677625 -0.245208 0.0378191 255 46 23
-0.128835 -0.474266 0.0348305 255 46 23
0.0325147 -0.45777 0.0284991 255 46 23
-0.0383463 -0.482883 0.0320674 255 46 23
-0.0670496 -0.471937 0.0384515 255 46 23
0.0415858 -0.171692 0.0381905 255 46 23
-0.00863496 -0.398214 0.0351941 255 46 23
-0.0491903 -0.387571 0.0395542 255 46 23
-0.0770904 -0.198981 0.0336926 255 46 23
-0.0424804 -0.222229 0.0396406 255 46 23
-0.0211638 -0.339536 0.0412095 255 46 23
-0.21024 -0.469813 0.028723 255 46 23
-0.130942 -0.176852 0.0327421 255 46 23
-0.0059323 -0.319605 0.0420346 255 46 23
-0.190654 -0.186875 0.0336569 255 46 23
-0.161248 -0.433163 0.0341459 255 46 23
-0.0129381 -0.404556 0.0350687 255 46 23
-0.260553 -0.41727 0.030543 255 46 23
-0.269689 -0.389749 0.0310286 255 46 23
0.0233446 -0.304859 0.0392861 255 46 23
-0.0508987 -0.187519 0.0344411 255 46 23
-0.289688 -0.443196 0.0284001 255 46 23
-0.198096 -0.28815 0.0362574 255 46 23
-0.0791289 -0.260978 0.0377497 255 46 23
-0.27233 -0.15167 0.0316978 255 46 23
0.040839 -0.341886 0.0354187 255 46 23
-0.302383 -0.161005 0.0306821 255 46 23
-0.146715 -0.279261 0.0212316 255 46 23
-0.20231 -0.240191 0.034497 255 46 23
-0.153396 -0.245301 0.0348661 255 46 23
0.00228099 -0.362476 0.038054 255 46 23
0.070974 -0.216961 0.0347081 255 46 23
-0.0788611 -0.248488 0.0366354 255 46 23
-0.0483325 -0.371498 0.0400425 255 46 23
-0.12809 -0.322445 0.0216478 255 46 23
-0.120722 -0.329753 0.0385503 255 46 23
0.047367 -0.223487 0.0203523 255 46 23
-0.156499 -0.265843 0.0359037 255 46 23
-0.0411044 -0.406346 0.038426 255 46 23
-0.10418 -0.487447 0.0345071 255 46 23
-0.165614 -0.459267 0.0316685 255 46 23
0.0878579 -0.268059 0.0285991 255 46 23
-0.281588 -0.204767 0.0314708 255 46 23
-0.0506338 -0.341087 0.0407197 255 46 23
-0.244534 -0.153681 0.0318922 255 46 23
-0.0450384 -0.392716 0.0389941 255 46 23
-0.148721 -0.236504 0.0258087 255 46 23
-0.208109 -0.19756 0.0335135 255 46 23
-0.0218874 -0.134804 0.0343978 255 46 23
-0.212527 -0.159778 0.0325727 255 46 23
-0.26976 -0.399786 0.0307112 255 46 23
-0.111103 -0.415404 0.0387636 255 46 23
-0.160552 -0.356729 0.0378972 255 46 23
0.00683168 -0.443738 0.0311593 255 46 23
0.0308007 -0.278676 0.0386958 255 46 23
-0.125808 -0.383599 0.0390282 255 46 23
-0.287237 -0.369143 0.0308032 255 46 23
-0.193592 -0.426864 0.033653 255 46 23
-0.106017 -0.426172 0.0388604 255 46 23
-0.111842 -0.136388 0.0305515 255 46 23
-0.0619469 -0.274518 0.0417668 255 46 23
-0.0154019 -0.238115 0.0430821 255 46 23
0.0127668 -0.441041 0.0310081 255 46 23
-0.0286624 -0.438124 0.0339385 255 46 23
-0.124636 -0.482523 0.0345857 255 46 23
0.0315665 -0.202971 0.0392266 255 46 23
-0.113351 -0.154468 0.0306597 255 46 23
-0.0569565 -0.137963 0.0317641 255 46 23
0.0282485 -0.412296 0.0326635 255 46 23
0.0659623 -0.238063 0.0346506 255 46 23
-0.142055 -0.198718 0.0332363 255 46 23
0.0638903 -0.36008 0.0332081 255 46 23
-0.126548 -0.472776 0.0351217 255 46 23
-0.132027 -0.192128 0.0331575 255 46 23
-0.00865322 -0.358838 0.039045 255 46 23
-0.0831389 -0.487799 0.0356772 255 46 23
0.0338662 -0.130242 0.033748 255 46 23
-0.0112124 -0.289946 0.0434211 255 46 23
-0.200078 -0.427135 0.0334468 255 46 23
-0.0255479 -0.232931 0.0426396 255 46 23
-0.114819 -0.144255 0.0306267 255 46 23
-0.0542114 -0.134067 0.0321138 255 46 23
-0.0211197 -0.353119 0.0401616 255 46 23
-0.264346 -0.311342 0.0335924 255 46 23
0.0770065 -0.27358 0.0332797 255 46 23
-0.0815619 -0.39174 0.040587 255 46 23
-0.0507369 -0.408661 0.0391266 255 46 23
-0.0585037 -0.43575 0.0385777 255 46 23
-0.131456 -0.272776 0.036038 255 46 23
0.0660015 -0.394923 0.0316803 255 46 23
-0.197375 -0.29477 0.0364372 255 46 23
-0.0543483 -0.385233 0.0399001 255 46 23
-0.0153302 -0.202964 0.040718 255 46 23
-0.10376 -0.179307 0.0314983 255 46 23
-0.289757 -0.410396 0.0297303 255 46 23
-0.0322273 -0.226031 0.0412336 255 46 23
-0.0421296 -0.392847 0.0387684 255 46 23
-0.0721866 -0.409591 0.0400107 255 46 23
-0.19553 -0.160189 0.0328149 255 46 23
0.0149591 -0.128909 0.0342083 255 46 23
-0.138765 -0.146364 0.032035 255 46 23
-0.110702 -0.330662 0.0390759 255 46 23
-0.164908 -0.29511 0.0227124 255 46 23
-0.0366257 -0.384232 0.0385745 255 46 23
-0.0423267 -0.299497 0.0434072 255 46 23
-0.134312 -0.386739 0.021942 255 46 23
-0.162872 -0.320906 0.0378576 255 46 23
-0.0332153 -0.422332 0.0363685 255 46 23
-0.103466 -0.256544 0.0361854 255 46 23
0.061541 -0.404954 0.0311364 255 46 23
-0.0609921 -0.156925 0.0312991 255 46 23
-0.139832 -0.200186 0.033224 255 46 23
-0.0524659 -0.405026 0.0393523 255 46 23
-0.131056 -0.369005 0.0234335 255 46 23
-0.143296 -0.459433 0.0338194 255 46 23
-0.0800942 -0.365757 0.0399594 255 46 23
0.0608447 -0.189452 0.0368667 255 46 23
-0.119982 -0.4027 0.0385829 255 46 23
0.0593092 -0.170178 0.0352851 255 46 23
-0.13027 -0.387408 0.0385177 255 46 23
-0.136975 -0.308067 0.0377095 255 46 23
-0.165278 -0.427937 0.0345107 255 46 23
-0.225673 -0.457799 0.0289046 255 46 23
-0.253534 -0.198919 0.0323157 255 46 23
0.00425524 -0.375669 0.0362597 255 46 23
-0.232992 -0.201496 0.0330034 255 46 23
-0.134054 -0.302072 0.0196967 255 46 23
-0.0115981 -0.17599 0.0361307 255 46 23
-0.0889202 -0.159266 0.030873 255 46 23
-0.0354857 -0.319129 0.0425256 255 46 23
-0.20177 -0.24749 0.0347953 255 46 23
-0.135039 -0.43653 0.0356413 255 46 23
-0.0718031 -0.346371 0.0397722 255 46 23
-0.184563 -0.196047 0.0339811 255 46 23
-0.0269361 -0.482324 0.030802 255 46 23
-0.00387774 -0.483486 0.0278686 255 46 23
-0.0542516 -0.418629 0.0390099 255 46 23
0.043242 -0.137574 0.0298335 255 46 23
-0.0582522 -0.479242 0.037106 255 46 23
-0.196007 -0.340408 0.036493 255 46 23
0.0523947 -0.330791 0.0339413 255 46 23
-0.138687 -0.214372 0.0335911 255 46 23
-0.135692 -0.456745 0.0345725 255 46 23
-0.0654896 -0.431541 0.0393416 255 46 23
-0.173105 -0.168452 0.0332536 255 46 23
-0.161558 -0.249849 0.0351929 255 46 23
-0.0451126 -0.481919 0.0339386 255 46 23
-0.121727 -0.485563 0.0340311 255 46 23
-0.0339013 -0.328863 0.041935 255 46 23
-0.140233 -0.433862 0.0353711 255 46 23
-0.137975 -0.144516 0.0319231 255 46 23
-0.163523 -0.400166 0.0366404 255 46 23
-0.0922993 -0.254411 0.036251 255 46 23
-0.185617 -0.172239 0.0334602 255 46 23
-0.0672025 -0.41767 0.0396113 255 46 23
-0.0530386 -0.411493 0.0392517 255 46 23
-0.064757 -0.370723 0.0400935 255 46 23
0.031228 -0.220088 0.038953 255 46 23
-0.182049 -0.347874 0.0368246 255 46 23
-0.160658 -0.155966 0.0326597 255 46 23
-0.0197085 -0.438739 0.0328928 255 46 23
0.0297842 -0.264482 0.0386948 255 46 23
-0.152689 -0.142248 0.0326111 255 46 23
-0.0751387 -0.358576 0.0398675 255 46 23
0.0523801 -0.154033 0.0336934 255 46 23
-0.0914286 -0.353737 0.0176281 255 46 23
-0.0478329 -0.300995 0.0430102 255 46 23
-0.207559 -0.466864 0.0291398 255 46 23
-0.165831 -0.4789 0.0302833 255 46 23
-0.0314702 -0.171114 0.0337894 255 46 23
-0.195679 -0.179743 0.0333422 255 46 23
-0.0696625 -0.256241 0.0386017 255 46 23
-0.0123764 -0.150837 0.0339403 255 46 23
0.00611739 -0.197974 0.0400697 255 46 23
-0.0786175 -0.304094 0.0398747 255 46 23
0.0151434 -0.290208 0.0401917 255 46 23
0.0255065 -0.248754 0.0392185 255 46 23
0.0521582 -0.335328 0.0337446 255 46 23
-0.0912233 -0.196209 0.0328528 255 46 23
-0.170126 -0.468372 0.0306822 255 46 23
-0.00158054 -0.370625 0.0374124 255 46 23
-0.112395 -0.43528 0.0379301 255 46 23
-0.138137 -0.436732 0.0353821 255 46 23
-0.174048 -0.29396 0.0370134 255 46 23
-0.284608 -0.224771 0.0323808 255 46 23
-0.144163 -0.45895 0.0337669 255 46 23
-0.0424536 -0.387369 0.0389666 255 46 23
-0.0657354 -0.136829 0.0314309 255 46 23
-0.110763 -0.248903 0.0354187 255 46 23
-0.128619 -0.412259 0.0375951 255 46 23
-0.104635 -0.27735 0.0366903 255 46 23
-0.278488 -0.172833 0.0314873 255 46 23
-0.118454 -0.234503 0.0343073 255 46 23
-0.222305 -0.149495 0.0321353 255 46 23
-0.019424 -0.206373 0.0407825 255 46 23
-0.0549981 -0.432101 0.0384611 255 46 23
-0.120835 -0.275489 0.0360468 255 46 23
-0.121053 -0.468445 0.0358155 255 46 23
0.00375082 -0.29161 0.0419596 255 46 23
0.0547151 -0.420015 0.0298726 255 46 23
-0.245962 -0.383357 0.0319486 255 46 23
0.00434105 -0.345348 0.0397447 255 46 23
-0.0370568 -0.367213 0.0397163 255 46 23
0.0398013 -0.479466 0.0273343 255 46 23
-0.0166829 -0.379164 0.0378911 255 46 23
-0.0559273 -0.41277 0.0394699 255 46 23
-0.014481 -0.127516 0.0348743 255 46 23
-0.0386013 -0.198064 0.0373252 255 46 23
-0.118933 -0.444413 0.0368158 255 46 23
0.0803933 -0.269818 0.0185835 255 46 23
-0.0416275 -0.400781 0.0385157 255 46 23
-0.0143423 -0.315975 0.0428875 255 46 23
0.0369236 -0.273367 0.0377216 255 46 23
-0.243375 -0.198268 0.0326096 255 46 23
-0.0790558 -0.17211 0.0317785 255 46 23
-0.186114 -0.47813 0.0289841 255 46 23
0.0378961 -0.482547 0.0268138 255 46 23
0.00115332 -0.371573 0.037015 255 46 23
-0.0793274 -0.273334 0.0387396 255 46 23
-0.0597964 -0.240139 0.0388087 255 46 23
-0.0433057 -0.423721 0.0377792 255 46 23
-0.283268 -0.258123 0.0340916 255 46 23
-0.0395009 -0.394334 0.0384634 255 46 23
-0.041333 -0.172357 0.033311 255 46 23
-0.199358 -0.215358 0.0340393 255 46 23
-0.102338 -0.283529 0.0368634 255 46 23
-0.287554 -0.250593 0.0335475 255 46 23
-0.0349777 -0.296003 0.0437723 255 46 23
-0.0347392 -0.343644 0.0411257 255 46 23
0.031194 -0.294477 0.038528 255 46 23
-0.0669121 -0.208384 0.034793 255 46 23
-0.24907 -0.441185 0.0293809 255 46 23
-0.0629054 -0.41079 0.0396728 255 46 23
-0.091262 -0.128593 0.0311052 255 46 23
-0.0707841 -0.352268 0.0398273 255 46 23
-0.0531771 -0.395535 0.0396567 255 46 23
-0.0230551 -0.271234 0.0440017 255 46 23
-0.0176901 -0.478684 0.0304237 255 46 23
-0.0310094 -0.291579 0.0439324 255 46 23
-0.0819563 -0.472336 0.0386799 255 46 23
-0.239865 -0.3119 0.0345384 255 46 23
-0.262661 -0.15933 0.0318627 255 46 23
-0.00763507 -0.328206 0.0417795 255 46 23
-0.0687153 -0.381839 0.0400991 255 46 23
0.0248863 -0.157286 0.036404 255 46 23
-0.0189994 -0.416822 0.0346019 255 46 23
0.0579604 -0.258209 0.035399 255 46 23
-0.201792 -0.265343 0.0353189 255 46 23
-0.158322 -0.437823 0.033852 255 46 23
-0.174834 -0.485593 0.0279353 255 46 23
0.0659458 -0.384255 0.0325421 255 46 23
-0.0717174 -0.257217 0.038388 255 46 23
-0.0866738 -0.439668 0.0395404 255 46 23
-0.145516 -0.267076 0.0358062 255 46 23
-0.289571 -0.452882 0.0282364 255 46 23
-0.0536644 -0.480363 0.0363408 255 46 23
-0.069914 -0.485292 0.0366074 255 46 23
-0.0536966 -0.24454 0.0404045 255 46 23
-0.104142 -0.160117 0.030739 255 46 23
-0.212833 -0.476959 0.0281132 255 46 23
-0.099281 -0.359735 0.020958 255 46 23
0.0261613 -0.291423 0.0391751 255 46 23
-0.0728736 -0.247069 0.0372878 255 46 23
-0.0722772 -0.294861 0.0187158 255 46 23
-0.253836 -0.35846 0.0321244 255 46 23
0.080241 -0.330848 0.0286593 255 46 23
0.0133498 -0.18677 0.0284626 255 46 23
-0.212368 -0.47419 0.0283482 255 46 23
0.0121965 -0.221172 0.0406654 255 46 23
0.00823057 -0.126433 0.0344179 255 46 23
-0.0798952 -0.287854 0.0393451 255 46 23
-0.228165 -0.482689 0.0261284 255 46 23
-0.0163206 -0.386032 0.0373488 255 46 23
-0.011118 -0.128606 0.0348392 255 46 23
-0.0500408 -0.280347 0.043053 255 46 23
-0.126124 -0.287877 0.0365048 255 46 23
-0.101347 -0.127361 0.0309277 255 46 23
-0.0500456 -0.218814 0.0384237 255 46 23
0.0303992 -0.167904 0.0374771 255 46 23
0.0309377 -0.311163 0.0380962 255 46 23
-0.170431 -0.489124 0.0276339 255 46 23
-0.11204 -0.315325 0.0378748 255 46 23
-0.108038 -0.457695 0.0373921 255 46 23
0.0277563 -0.409072 0.0329867 255 46 23
0.0316493 -0.284187 0.0386349 255 46 23
-0.100003 -0.411723 0.0397377 255 46 23
0.00045073 -0.337748 0.040519 255 46 23
0.0214849 -0.404566 0.0333787 255 46 23
-0.188171 -0.389926 0.019692 255 46 23
-0.111521 -0.372265 0.0400835 255 46 23
0.0584823 -0.487598 -0.1093 255 0 0
0.232311 -0.406194 -0.0671048 255 0 0
0.221046 -0.365786 -0.177132 255 0 0
0.22602 -0.103482 -0.160542 255 0 0
0.227378 -0.400611 -0.0488151 255 0 0
-0.0164609 -0.492971 -0.168999 255 0 0
0.0929532 -0.475126 -0.039183 255 0 0
0.22653 -0.139605 -0.144065 255 0 0
0.200582 -0.485714 -0.283163 255 0 0
0.234952 -0.254429 0.0114769 255 0 0
0.216772 -0.380274 -0.192592 255 0 0
0.225741 -0.368763 -0.0540598 255 0 0
0.223997 -0.350338 -0.0851524 255 0 0
0.207806 -0.460781 -0.0015013 255 0 0
0.232014 -0.159872 -0.040231 255 0 0
0.228421 -0.272356 -0.0673759 255 0 0
0.221387 -0.217431 -0.182522 255 0 0
0.223745 -0.146234 -0.213833 255 0 0
0.121339 -0.497299 -0.161429 255 0 0
0.22512 -0.0929993 -0.0812945 255 0 0
0.223302 -0.160171 -0.201446 255 0 0
0.224453 -0.359776 -0.0617307 255 0 0
0.230019 -0.400384 -0.0158603 255 0 0
-0.0163394 -0.492136 -0.155741 255 0 0
-0.0272713 -0.493619 -0.17989 255 0 0
0.226054 -0.136365 -0.161289 255 0 0
0.230877 -0.173615 -0.0598541 255 0 0
0.225819 -0.111057 -0.117622 255 0 0
0.228869 -0.409765 -0.0360718 255 0 0
0.228822 -0.103981 -0.0468084 255 0 0
0.22832 -0.434579 -0.0409991 255 0 0
0.229852 -0.353687 -0.0929279 255 0 0
0.0261365 -0.49122 -0.139271 255 0 0
0.232669 -0.156251 -0.264714 255 0 0
0.225461 -0.385649 -0.253801 255 0 0
0.226991 -0.308321 -0.288953 255 0 0
0.22939 -0.262232 -0.0625629 255 0 0
0.225516 -0.188956 -0.152005 255 0 0
0.231021 -0.215128 -0.0748072 255 0 0
0.234433 -0.261725 0.0108318 255 0 0
0.232387 -0.0994961 -0.0130386 255 0 0
0.122881 -0.488748 -0.0820651 255 0 0
0.191754 -0.444723 -0.00471855 255 0 0
0.226693 -0.110529 -0.0904738 255 0 0
0.224788 -0.453696 -0.249911 255 0 0
0.235072 -0.239865 0.00911483 255 0 0
0.21942 -0.274438 -0.207547 255 0 0
0.226455 -0.386327 -0.0425035 255 0 0
0.238778 -0.434774 -0.109903 255 0 0
0.228642 -0.37889 -0.0257061 255 0 0
0.119147 -0.473525 -0.0417982 255 0 0
0.225998 -0.171139 -0.152554 255 0 0
0.183182 -0.488903 -0.141844 255 0 0
0.227626 -0.322143 -0.0444151 255 0 0
0.233055 -0.162292 -0.0286032 255 0 0
0.231673 -0.312963 0.000126995 255 0 0
0.224484 -0.339954 -0.250603 255 0 0
0.227464 -0.291312 -0.0656232 255 0 0
0.224834 -0.319899 -0.0816417 255 0 0
0.220515 -0.467856 -0.219641 255 0 0
0.221378 -0.28484 -0.142251 255 0 0
0.231074 -0.149189 -0.0674904 255 0 0
0.221833 -0.409564 -0.276572 255 0 0
0.224302 -0.314463 -0.0964417 255 0 0
0.231076 -0.220474 -0.0349311 255 0 0
0.226704 -0.289676 -0.0734397 255 0 0
0.228332 -0.0878492 -0.0351967 255 0 0
0.183476 -0.487382 -0.104887 255 0 0
0.21501 -0.411205 -0.285217 255 0 0
0.129563 -0.433237 -0.0166303 255 0 0
0.120027 -0.494419 -0.142341 255 0 0
0.230768 -0.230127 -0.0381277 255 0 0
0.203289 -0.476893 -0.263462 255 0 0
0.252586 -0.461379 -0.0882623 255 0 0
0.231252 -0.105668 -0.0280919 255 0 0
0.217148 -0.436737 -0.236483 255 0 0
0.12234 -0.500698 -0.211957 255 0 0
0.220573 -0.270551 -0.221934 255 0 0
0.226126 -0.368816 -0.256481 255 0 0
0.236676 -0.166627 0.0139142 255 0 0
0.234976 -0.408426 0.0603287 255 0 0
0.122491 -0.494044 -0.246953 255 0 0
0.180222 -0.489451 -0.139059 255 0 0
0.229523 -0.108252 -0.0448044 255 0 0
0.229008 -0.13382 -0.090827 255 0 0
0.229602 -0.145852 -0.256141 255 0 0
0.230089 -0.166437 -0.0870162 255 0 0
0.22992 -0.268525 -0.047843 255 0 0
0.216135 -0.407473 -0.286878 255 0 0
0.228792 -0.379755 -0.0374303 255 0 0
0.252403 -0.469127 -0.0786123 255 0 0
0.230444 -0.136908 -0.250972 255 0 0
0.230309 -0.239069 -0.0704327 255 0 0
0.223911 -0.150275 -0.199981 255 0 0
0.224321 -0.131047 -0.22331 255 0 0
0.232902 -0.306031 -0.260327 255 0 0
0.232062 -0.107961 -0.0226564 255 0 0
0.231672 -0.313583 0.000229787 255 0 0
0.233799 -0.410563 -0.090478 255 0 0
0.229387 -0.145224 -0.0905029 255 0 0
0.226618 -0.135123 -0.149429 255 0 0
0.226453 -0.347679 -0.269119 255 0 0
0.180243 -0.431509 -0.28431 255 0 0
0.230602 -0.11408 -0.0411542 255 0 0
0.212981 -0.423806 -0.284329 255 0 0
0.189017 -0.432474 -0.213669 255 0 0
0.248053 -0.457892 -0.110648 255 0 0
0.226138 -0.305524 -0.264776 255 0 0
0.233264 -0.436093 0.0604283 255 0 0
0.227402 -0.238815 -0.105455 255 0 0
0.23273 -0.313748 0.032426 255 0 0
0.220888 -0.477524 -0.065838 255 0 0
0.227534 -0.352027 -0.0475644 255 0 0
0.223873 -0.142992 -0.210061 255 0 0
0.0697739 -0.488003 -0.100842 255 0 0
0.233914 -0.256347 0.00293207 255 0 0
0.215531 -0.476955 -0.120476 255 0 0
0.218104 -0.307176 -0.166163 255 0 0
0.222068 -0.303549 -0.134278 255 0 0
0.225403 -0.353848 -0.281348 255 0 0
0.221296 -0.195126 -0.239538 255 0 0
0.225802 -0.278724 -0.102335 255 0 0
0.220263 -0.262154 -0.220679 255 0 0
0.221033 -0.188262 -0.247121 255 0 0
0.229015 -0.195408 -0.288338 255 0 0
0.232701 -0.330187 0.0226658 255 0 0
0.063015 -0.488553 -0.118401 255 0 0
0.22284 -0.159449 -0.226708 255 0 0
0.220739 -0.423334 -0.239129 255 0 0
0.225773 -0.1141 -0.13199 255 0 0
0.217756 -0.310137 -0.182872 255 0 0
0.234357 -0.269465 -0.261681 255 0 0
0.225909 -0.123823 -0.123017 255 0 0
0.231908 -0.332556 0.00541932 255 0 0
0.232436 -0.103358 -0.0155717 255 0 0
0.102108 -0.499406 -0.182093 255 0 0
0.229425 -0.127796 -0.0738635 255 0 0
0.224144 -0.341773 -0.0867071 255 0 0
0.232296 -0.082078 0.00537534 255 0 0
0.0684432 -0.481007 -0.057099 255 0 0
0.231651 -0.403571 -0.089604 255 0 0
0.221769 -0.384178 -0.288491 255 0 0
0.221721 -0.177017 -0.214062 255 0 0
0.231268 -0.272869 -0.020845 255 0 0
0.220944 -0.220188 -0.188714 255 0 0
0.223084 -0.179601 -0.191572 255 0 0
0.230596 -0.441386 -0.091281 255 0 0
0.219437 -0.281491 -0.154514 255 0 0
0.226281 -0.387871 -0.0779378 255 0 0
0.0588963 -0.48762 -0.109014 255 0 0
0.216913 -0.444735 -0.215533 255 0 0
0.246929 -0.45085 -0.0980553 255 0 0
0.231512 -0.262229 -0.0192792 255 0 0
0.226223 -0.127575 -0.128544 255 0 0
0.231167 -0.133863 -0.0501458 255 0 0
0.227306 -0.326951 -0.0609147 255 0 0
0.230684 -0.237871 -0.0339659 255 0 0
0.175437 -0.481238 -0.290613 255 0 0
0.231132 -0.20912 -0.0370949 255 0 0
0.224329 -0.374651 -0.269687 255 0 0
0.2332 -0.256303 -0.271473 255 0 0
0.225017 -0.131669 -0.228603 255 0 0
0.225819 -0.289386 -0.092293 255 0 0
0.220549 -0.212791 -0.206304 255 0 0
0.105846 -0.492435 -0.124644 255 0 0
0.22532 -0.140247 -0.184547 255 0 0
0.222104 -0.23005 -0.242159 255 0 0
0.225652 -0.101673 -0.150872 255 0 0
0.227331 -0.4024 -0.206962 255 0 0
0.230343 -0.157517 -0.0816638 255 0 0
0.220973 -0.202672 -0.228498 255 0 0
0.233734 -0.435363 0.0626154 255 0 0
0.234339 -0.0877492 0.0240405 255 0 0
0.221357 -0.367158 -0.161073 255 0 0
0.235778 -0.144226 0.00579942 255 0 0
0.245081 -0.453179 -0.0749807 255 0 0
-0.000422865 -0.495259 -0.183643 255 0 0
0.229044 -0.306475 -0.0416493 255 0 0
0.234499 -0.089808 0.0216695 255 0 0
0.23336 -0.203153 -0.0161955 255 0 0
0.224142 -0.138869 -0.219715 255 0 0
0.199958 -0.461423 -0.156286 255 0 0
0.225965 -0.193736 -0.269805 255 0 0
0.225591 -0.377504 -0.104507 255 0 0
0.225535 -0.108723 -0.1235 255 0 0
0.141469 -0.420031 -0.0143076 255 0 0
0.139675 -0.433339 -0.0153851 255 0 0
0.228685 -0.267932 -0.0670434 255 0 0
0.171179 -0.483552 -0.177577 255 0 0
0.228742 -0.19443 -0.111163 255 0 0
0.226256 -0.160309 -0.134659 255 0 0
0.232914 -0.213261 -0.0201075 255 0 0
0.235754 -0.208482 0.00794481 255 0 0
0.0549795 -0.487976 -0.120032 255 0 0
0.21683 -0.422947 -0.263077 255 0 0
0.224489 -0.173831 -0.169271 255 0 0
0.219552 -0.317214 -0.19154 255 0 0
0.0802211 -0.476372 -0.040275 255 0 0
-0.0413308 -0.491789 -0.140885 255 0 0
0.22074 -0.231064 -0.223527 255 0 0
0.0721595 -0.479099 -0.0495482 255 0 0
0.225584 -0.296701 -0.0893257 255 0 0
0.220948 -0.309198 -0.21661 255 0 0
0.222281 -0.307165 -0.131596 255 0 0
0.231663 -0.108526 -0.0269185 255 0 0
0.232797 -0.167478 -0.0302958 255 0 0
0.217613 -0.319191 -0.174879 255 0 0
0.227986 -0.216331 -0.114196 255 0 0
-0.0269399 -0.488573 -0.114772 255 0 0
0.214569 -0.413889 -0.28487 255 0 0
0.226308 -0.274219 -0.094725 255 0 0
0.228117 -0.2248 -0.0941843 255 0 0
0.232345 -0.137514 -0.0355348 255 0 0
0.219311 -0.260899 -0.164222 255 0 0
0.227779 -0.203987 -0.278705 255 0 0
0.233822 -0.0967542 0.000455398 255 0 0
0.230782 -0.183625 -0.287164 255 0 0
0.22557 -0.102617 -0.137319 255 0 0
0.226017 -0.117897 -0.116509 255 0 0
0.200432 -0.474403 -0.283385 255 0 0
0.196996 -0.498464 -0.280921 255 0 0
0.153344 -0.465315 -0.0225382 255 0 0
0.224792 -0.453667 -0.253095 255 0 0
0.224867 -0.163202 -0.169376 255 0 0
0.226866 -0.357289 -0.0496732 255 0 0
0.221684 -0.234835 -0.154784 255 0 0
0.229296 -0.200955 -0.29632 255 0 0
0.229942 -0.248933 -0.0673996 255 0 0
0.0878427 -0.491793 -0.133215 255 0 0
0.22428 -0.126959 -0.209912 255 0 0
0.219302 -0.337415 -0.151335 255 0 0
0.225943 -0.218414 -0.12985 255 0 0
0.2278 -0.334823 -0.0499881 255 0 0
0.22384 -0.376665 -0.218496 255 0 0
0.2162 -0.487868 -0.270415 255 0 0
0.231667 -0.283468 -0.275004 255 0 0
0.218243 -0.33454 -0.181075 255 0 0
0.23719 -0.161297 0.017896 255 0 0
0.227487 -0.235906 -0.105553 255 0 0
0.222028 -0.289873 -0.137921 255 0 0
0.22113 -0.200341 -0.247048 255 0 0
0.235812 -0.44185 -0.0637938 255 0 0
0.231424 -0.442201 -0.0422155 255 0 0
0.227302 -0.21402 -0.120602 255 0 0
0.227041 -0.247638 -0.272334 255 0 0
0.220952 -0.319459 -0.209382 255 0 0
0.22162 -0.189465 -0.206483 255 0 0
0.222239 -0.267439 -0.142465 255 0 0
0.233296 -0.363983 0.00875296 255 0 0
0.231293 -0.332062 -0.00824495 255 0 0
0.127604 -0.498657 -0.176825 255 0 0
0.226414 -0.333156 -0.286134 255 0 0
0.218247 -0.335511 -0.179679 255 0 0
0.231124 -0.251154 -0.023488 255 0 0
0.226673 -0.135635 -0.147197 255 0 0
0.23007 -0.175811 -0.276455 255 0 0
0.245878 -0.475267 -0.0939423 255 0 0
0.229156 -0.142723 -0.0946489 255 0 0
0.23395 -0.267017 0.00983745 255 0 0
0.222 -0.422484 -0.233209 255 0 0
0.0184771 -0.486984 -0.118481 255 0 0
0.223155 -0.349893 -0.237552 255 0 0
0.234528 -0.253685 0.00663887 255 0 0
0.231632 -0.250161 -0.289349 255 0 0
0.230045 -0.251604 -0.0520171 255 0 0
0.18964 -0.402209 -0.00154453 255 0 0
0.223894 -0.323829 -0.110066 255 0 0
0.230418 -0.237261 -0.0569966 255 0 0
0.228554 -0.0890741 -0.0346227 255 0 0
0.224361 -0.129761 -0.225254 255 0 0
0.219195 -0.33475 -0.151712 255 0 0
0.230634 -0.228243 -0.0447169 255 0 0
0.232095 -0.143252 -0.262812 255 0 0
0.224003 -0.253603 -0.135082 255 0 0
0.223322 -0.169302 -0.19545 255 0 0
0.221437 -0.323509 -0.227605 255 0 0
0.234779 -0.385435 0.0203661 255 0 0
0.233682 -0.187042 -0.0157252 255 0 0
0.223527 -0.165355 -0.194531 255 0 0
0.234427 -0.377405 0.0253798 255 0 0
0.232443 -0.202629 -0.0258492 255 0 0
0.226835 -0.166571 -0.122303 255 0 0
0.221386 -0.183955 -0.21763 255 0 0
0.226198 -0.394823 -0.20896 255 0 0
0.210465 -0.444331 -0.242292 255 0 0
0.230836 -0.441022 0.0228468 255 0 0
0.218983 -0.336312 -0.156125 255 0 0
0.221666 -0.33486 -0.229495 255 0 0
0.225586 -0.0997273 -0.0904815 255 0 0
0.220899 -0.299844 -0.217679 255 0 0
0.214447 -0.455465 -0.235107 255 0 0
0.230938 -0.202246 -0.0612057 255 0 0
0.211822 -0.483373 -0.120603 255 0 0
0.22611 -0.152361 -0.249013 255 0 0
0.223702 -0.365115 -0.0661747 255 0 0
0.231561 -0.452039 -0.154647 255 0 0
0.235447 -0.230491 0.0120108 255 0 0
0.180943 -0.403317 -0.00452528 255 0 0
0.220314 -0.389712 -0.282896 255 0 0
0.232572 -0.184956 -0.0291123 255 0 0
0.136327 -0.480589 -0.0582202 255 0 0
0.219538 -0.265096 -0.159794 255 0 0
0.224557 -0.461917 -0.11938 255 0 0
0.231099 -0.215031 -0.0724803 255 0 0
0.225632 -0.134441 -0.182996 255 0 0
0.225279 -0.142137 -0.181354 255 0 0
0.228217 -0.104814 -0.0561851 255 0 0
0.225367 -0.163828 -0.255833 255 0 0
0.232475 -0.160302 -0.271686 255 0 0
0.232013 -0.176219 -0.274571 255 0 0
0.234146 -0.17665 -0.0111418 255 0 0
0.221342 -0.343005 -0.199712 255 0 0
0.22409 -0.203258 -0.152794 255 0 0
0.225824 -0.108931 -0.172825 255 0 0
0.149236 -0.494875 -0.154436 255 0 0
0.0964793 -0.482248 -0.0610283 255 0 0
0.222196 -0.167657 -0.221735 255 0 0
0.231519 -0.449203 -0.0866397 255 0 0
0.223773 -0.468623 -0.216938 255 0 0
0.196239 -0.434347 -0.276735 255 0 0
0.220464 -0.325737 -0.194379 255 0 0
0.222446 -0.365942 -0.1928 255 0 0
0.234141 -0.155651 -0.0134079 255 0 0
0.227669 -0.324692 -0.293087 255 0 0
0.224111 -0.165368 -0.179469 255 0 0
0.185475 -0.405684 -0.276373 255 0 0
0.056429 -0.499057 -0.194445 255 0 0
0.227927 -0.144594 -0.107994 255 0 0
0.228014 -0.11631 -0.0753556 255 0 0
0.227547 -0.284247 -0.278832 255 0 0
0.230932 -0.162185 -0.0576709 255 0 0
0.221525 -0.190868 -0.238472 255 0 0
0.228905 -0.303527 -0.0462647 255 0 0
0.0555335 -0.495733 -0.15957 255 0 0
0.147784 -0.493567 -0.1995 255 0 0
0.230778 -0.153927 -0.0748278 255 0 0
0.232121 -0.386325 -0.102801 255 0 0
0.233168 -0.475488 -0.0720246 255 0 0
0.223371 -0.226187 -0.256775 255 0 0
0.224653 -0.330012 -0.0702617 255 0 0
0.231145 -0.128684 -0.0469329 255 0 0
0.230635 -0.331876 -0.0143681 255 0 0
0.223823 -0.330039 -0.10965 255 0 0
0.206022 -0.44573 -0.273887 255 0 0
0.229177 -0.290199 -0.0488161 255 0 0
0.206738 -0.464999 -0.282583 255 0 0
0.225598 -0.350228 -0.294238 255 0 0
0.0685912 -0.500006 -0.224673 255 0 0
0.220333 -0.216911 -0.215328 255 0 0
0.226074 -0.104097 -0.156871 255 0 0
0.232337 -0.138268 -0.264331 255 0 0
0.229406 -0.258646 -0.0652398 255 0 0
0.23523 -0.241734 0.0113548 255 0 0
0.222885 -0.326217 -0.240217 255 0 0
0.225925 -0.391298 -0.265599 255 0 0
0.231234 -0.397046 -0.123599 255 0 0
0.231866 -0.475525 -0.0699969 255 0 0
0.228647 -0.10573 -0.0499682 255 0 0
0.227674 -0.194604 -0.122062 255 0 0
0.22263 -0.165924 -0.242151 255 0 0
0.217902 -0.306928 -0.169394 255 0 0
0.219782 -0.477133 -0.0583314 255 0 0
0.22576 -0.129653 -0.175683 255 0 0
0.224978 -0.231918 -0.132407 255 0 0
0.233943 -0.236482 -0.00528305 255 0 0
0.22595 -0.297399 -0.0817633 255 0 0
0.234499 -0.0964465 0.00715297 255 0 0
0.201659 -0.481617 -0.0745284 255 0 0
0.22283 -0.192782 -0.179172 255 0 0
