ply
format ascii 1.0
comment Created by Open3D
element vertex 1188
property double x
property double y
property double z
property uchar red
property uchar green
property uchar blue
end_header
-0.125478 -0.257443 0.310701 64 236 211
-0.130508 -0.386771 0.230392 64 236 211
-0.167079 -0.214586 0.371005 64 236 211
-0.125073 -0.371527 0.307159 64 236 211
-0.160125 -0.288147 0.293515 64 236 211
-0.135397 -0.275623 0.203368 64 236 211
-0.16078 -0.286645 0.346121 64 236 211
-0.138806 -0.361509 0.247271 64 236 211
-0.147862 -0.164446 0.216227 64 236 211
-0.126648 -0.347024 0.2787 64 236 211
-0.129157 -0.202276 0.266715 64 236 211
-0.148339 -0.334248 0.271255 64 236 211
-0.132944 -0.358953 0.315714 64 236 211
-0.128523 -0.38072 0.187587 64 236 211
-0.119489 -0.305173 0.367931 64 236 211
-0.155853 -0.323926 0.392599 96 250 196
-0.283907 -0.380633 0.221676 96 250 196
-0.219445 -0.332699 0.236204 96 250 196
-0.278968 -0.288195 0.212794 96 250 196
-0.216854 -0.404402 0.228651 96 250 196
-0.163036 -0.378405 0.272863 96 250 196
-0.2251 -0.335235 0.301093 96 250 196
-0.173813 -0.359541 0.215654 96 250 196
-0.260203 -0.350097 0.210903 96 250 196
-0.320917 -0.296021 0.215318 96 250 196
-0.292303 -0.386724 0.223271 96 250 196
-0.230333 -0.359665 0.2676 96 250 196
-0.15623 -0.290376 0.306397 96 250 196
-0.160717 -0.250405 0.355212 96 250 196
-0.154802 -0.283137 0.230879 96 250 196
-0.157777 -0.276715 0.36271 96 250 196
-0.163067 -0.208061 0.210929 96 250 196
-0.163507 -0.408229 0.235046 96 250 196
-0.190976 -0.372106 0.213975 96 250 196
-0.160796 -0.357895 0.33957 96 250 196
-0.239858 -0.220828 0.203941 96 250 196
-0.151148 -0.388437 0.220952 96 250 196
-0.1512 -0.414502 0.242139 96 250 196
-0.158751 -0.181557 0.383596 96 250 196
-0.151446 -0.336839 0.255266 96 250 196
-0.15555 -0.407304 0.246016 96 250 196
-0.14909 -0.385143 0.222153 96 250 196
-0.213413 -0.36799 0.210139 96 250 196
-0.158565 -0.31251 0.219095 96 250 196
-0.156913 -0.405266 0.245856 96 250 196
-0.198806 -0.399501 0.218094 96 250 196
-0.156135 -0.346537 0.323608 96 250 196
-0.150912 -0.337727 0.234115 96 250 196
-0.185043 -0.296954 0.28612 96 250 196
-0.162609 -0.193693 0.211527 96 250 196
-0.190555 -0.248256 0.204877 96 250 196
-0.162121 -0.346179 0.315442 96 250 196
-0.155743 -0.268105 0.231878 96 250 196
-0.298096 -0.259421 0.219057 96 250 196
-0.280423 -0.354751 0.227336 96 250 196
-0.16174 -0.336618 0.214603 96 250 196
-0.161245 -0.399001 0.246303 96 250 196
-0.15735 -0.314048 0.384533 96 250 196
-0.158303 -0.370104 0.310168 96 250 196
-0.218726 -0.412175 0.222721 96 250 196
-0.16112 -0.381294 0.218643 96 250 196
-0.219068 -0.398879 0.228312 96 250 196
-0.208662 -0.336037 0.208991 96 250 196
-0.202388 -0.406362 0.220372 96 250 196
-0.183696 -0.408866 0.230793 96 250 196
-0.171281 -0.189758 0.200475 96 250 196
-0.214891 -0.342036 0.208261 96 250 196
-0.28296 -0.188211 0.204581 96 250 196
-0.299714 -0.362649 0.223207 96 250 196
-0.155965 -0.310456 0.222842 96 250 196
-0.315566 -0.38814 0.221649 96 250 196
-0.328963 -0.310239 0.222853 96 250 196
-0.219059 -0.378778 0.231217 96 250 196
-0.154856 -0.228718 0.229641 96 250 196
-0.159317 -0.18729 0.350926 96 250 196
-0.217565 -0.370498 0.210099 96 250 196
-0.1683 -0.221015 0.205375 96 250 196
-0.246545 -0.367382 0.228301 96 250 196
-0.176999 -0.313211 0.208788 96 250 196
-0.311645 -0.279949 0.224458 96 250 196
-0.348983 -0.351531 0.224152 96 250 196
-0.148665 -0.38359 0.222819 96 250 196
-0.245711 -0.320413 0.283108 96 250 196
-0.337782 -0.377467 0.219694 96 250 196
-0.322827 -0.233584 0.225925 96 250 196
-0.217291 -0.213113 0.204615 96 250 196
-0.149783 -0.344823 0.240974 96 250 196
-0.161928 -0.335541 0.327245 96 250 196
-0.35701 -0.306445 0.2267 96 250 196
-0.198425 -0.413502 0.227117 96 250 196
-0.143014 -0.407047 0.242257 96 250 196
-0.154189 -0.228769 0.231782 96 250 196
-0.224443 -0.409986 0.223903 96 250 196
-0.155251 -0.26581 0.373011 96 250 196
-0.315976 -0.299018 0.219343 96 250 196
-0.228307 -0.361947 0.266814 96 250 196
-0.335087 -0.384717 0.220367 96 250 196
-0.169277 -0.378499 0.218232 96 250 196
-0.234161 -0.35143 0.206674 96 250 196
-0.155014 -0.359386 0.299731 96 250 196
-0.216488 -0.35177 0.235511 96 250 196
-0.173764 -0.423346 0.225094 96 250 196
-0.158266 -0.338119 0.369205 96 250 196
-0.160182 -0.237773 0.339165 96 250 196
-0.185872 -0.327884 0.256419 96 250 196
-0.157219 -0.329216 0.343898 96 250 196
-0.165442 -0.317681 0.294256 96 250 196
-0.161707 -0.334768 0.338035 96 250 196
-0.175713 -0.304548 0.279646 96 250 196
-0.159522 -0.201271 0.329335 96 250 196
-0.347809 -0.275698 0.228127 96 250 196
-0.175235 -0.417717 0.227414 96 250 196
-0.203748 -0.376467 0.33531 96 250 196
-0.25515 -0.276701 0.202603 96 250 196
-0.146005 -0.389859 0.226034 96 250 196
-0.239421 -0.24837 0.204671 96 250 196
-0.266499 -0.386394 0.217623 96 250 196
-0.248438 -0.364033 0.210016 96 250 196
-0.271428 -0.363042 0.215207 96 250 196
-0.292745 -0.339482 0.217652 96 250 196
-0.148174 -0.417869 0.240898 96 250 196
-0.195133 -0.243458 0.205232 96 250 196
-0.236726 -0.192359 0.202905 96 250 196
-0.228758 -0.319561 0.205396 96 250 196
-0.182655 -0.421043 0.223235 96 250 196
-0.15646 -0.367712 0.307797 96 250 196
-0.3455 -0.306384 0.22583 96 250 196
-0.224627 -0.27764 0.206403 96 250 196
-0.158713 -0.256573 0.313635 96 250 196
-0.174059 -0.281118 0.306048 96 250 196
-0.153557 -0.255116 0.382937 96 250 196
-0.187593 -0.387508 0.217401 96 250 196
-0.156637 -0.326047 0.333962 96 250 196
-0.170821 -0.332337 0.280502 96 250 196
-0.155102 -0.416401 0.235833 96 250 196
-0.164399 -0.162396 0.209051 96 250 196
-0.154053 -0.352738 0.289619 96 250 196
-0.156346 -0.234264 0.276092 96 250 196
-0.160703 -0.231068 0.329239 96 250 196
-0.174119 -0.392197 0.24546 96 250 196
-0.250327 -0.380138 0.225076 96 250 196
-0.153821 -0.399861 0.222013 96 250 196
-0.219879 -0.244471 0.205639 96 250 196
-0.185334 -0.394786 0.237298 96 250 196
-0.155787 -0.290738 0.284552 96 250 196
-0.158078 -0.204696 0.308105 96 250 196
-0.316726 -0.342873 0.222456 96 250 196
-0.147626 -0.367189 0.22871 96 250 196
-0.158154 -0.260451 0.380411 96 250 196
-0.160017 -0.235589 0.306585 96 250 196
-0.153429 -0.400816 0.265629 96 250 196
-0.214885 -0.243773 0.206215 96 250 196
-0.1453 -0.383448 0.236662 96 250 196
-0.265774 -0.264388 0.204304 96 250 196
-0.1652 -0.299424 0.208623 96 250 196
-0.340327 -0.178166 0.231125 96 250 196
-0.300195 -0.225569 0.217903 96 250 196
-0.239866 -0.394272 0.226517 96 250 196
-0.16193 -0.335233 0.327409 96 250 196
-0.16364 -0.355549 0.296955 96 250 196
-0.157013 -0.376581 0.310325 96 250 196
-0.157716 -0.322116 0.366579 96 250 196
-0.202155 -0.380114 0.301967 96 250 196
-0.36177 -0.29646 0.226642 96 250 196
-0.160166 -0.205817 0.370587 96 250 196
-0.159588 -0.360111 0.340029 96 250 196
-0.257235 -0.379571 0.224155 96 250 196
-0.164553 -0.356992 0.216373 96 250 196
-0.157644 -0.286284 0.372071 96 250 196
-0.155855 -0.290893 0.28964 96 250 196
-0.17095 -0.386632 0.219041 96 250 196
-0.156855 -0.349239 0.361205 96 250 196
-0.15728 -0.332042 0.345887 96 250 196
-0.188027 -0.385862 0.2422 96 250 196
-0.157037 -0.359621 0.345788 96 250 196
-0.156964 -0.318453 0.340866 96 250 196
-0.161215 -0.386651 0.26569 96 250 196
-0.294787 -0.305149 0.216546 96 250 196
-0.153453 -0.315893 0.251799 96 250 196
-0.217667 -0.20968 0.204446 96 250 196
-0.156537 -0.271806 0.225716 96 250 196
-0.152591 -0.358448 0.221985 96 250 196
-0.156843 -0.275965 0.286182 96 250 196
-0.156751 -0.332256 0.337179 96 250 196
-0.154355 -0.294654 0.22958 96 250 196
-0.159646 -0.222461 0.399559 96 250 196
-0.360612 -0.206446 0.230149 96 250 196
-0.173253 -0.416211 0.228605 96 250 196
-0.173396 -0.210951 0.199893 96 250 196
-0.160535 -0.212612 0.375817 96 250 196
-0.308882 -0.307491 0.219175 96 250 196
-0.168489 -0.180527 0.203926 96 250 196
-0.31605 -0.302898 0.215516 96 250 196
-0.155146 -0.311425 0.307576 96 250 196
-0.178829 -0.394252 0.240729 96 250 196
-0.160578 -0.233595 0.33985 96 250 196
-0.204425 -0.379132 0.213669 96 250 196
-0.157524 -0.329634 0.355655 96 250 196
-0.156154 -0.34945 0.323587 96 250 196
-0.157313 -0.284091 0.343815 96 250 196
-0.298194 -0.292225 0.217538 96 250 196
-0.155455 -0.346372 0.311237 96 250 196
-0.202954 -0.385913 0.234121 96 250 196
-0.164385 -0.320454 0.296685 96 250 196
-0.166272 -0.379093 0.218333 96 250 196
-0.200228 -0.392379 0.232165 96 250 196
-0.16007 -0.395844 0.25325 96 250 196
-0.144452 -0.421341 0.240469 96 250 196
-0.153231 -0.401373 0.264867 96 250 196
-0.193576 -0.387387 0.237216 96 250 196
-0.164501 -0.153313 0.207625 96 250 196
-0.156445 -0.242681 0.272505 96 250 196
-0.315342 -0.342984 0.222286 96 250 196
-0.149445 -0.375031 0.223372 96 250 196
-0.148484 -0.400445 0.222913 96 250 196
-0.145632 -0.423066 0.237404 96 250 196
-0.187445 -0.389693 0.335267 96 250 196
-0.174523 -0.340611 0.213071 96 250 196
-0.14421 -0.389424 0.240867 96 250 196
-0.159873 -0.193728 0.355731 96 250 196
-0.165086 -0.288857 0.303031 96 250 196
-0.15473 -0.275248 0.240713 96 250 196
-0.154961 -0.304266 0.291745 96 250 196
-0.159783 -0.249145 0.305248 96 250 196
-0.185488 -0.388803 0.217881 96 250 196
-0.326612 -0.357102 0.223841 96 250 196
-0.210819 -0.395869 0.230036 96 250 196
-0.18578 -0.350458 0.257675 96 250 196
-0.289612 -0.199739 0.20914 96 250 196
-0.157299 -0.330098 0.380181 96 250 196
-0.162492 -0.284134 0.347725 96 250 196
-0.314769 -0.221314 0.224361 96 250 196
-0.160094 -0.355419 0.324453 96 250 196
-0.160029 -0.24465 0.302228 96 250 196
-0.321319 -0.361227 0.223179 96 250 196
-0.19389 -0.161744 0.19817 96 250 196
-0.157721 -0.30425 0.373894 96 250 196
-0.274179 -0.384262 0.219152 96 250 196
-0.236177 -0.380596 0.213358 96 250 196
-0.154324 -0.309503 0.259201 96 250 196
-0.155026 -0.327621 0.223691 96 250 196
-0.148952 -0.361911 0.233688 96 250 196
-0.158461 -0.254276 0.379758 96 250 196
-0.155258 -0.235915 0.373385 96 250 196
-0.167237 -0.211284 0.20666 96 250 196
-0.172718 -0.228647 0.200937 96 250 196
-0.16596 -0.417632 0.229614 96 250 196
-0.151141 -0.334346 0.234713 96 250 196
-0.154988 -0.384194 0.297735 96 250 196
-0.340628 -0.183407 0.231069 96 250 196
-0.176526 -0.411258 0.23106 96 250 196
-0.29167 -0.298638 0.243057 96 250 196
-0.155682 -0.293125 0.288205 96 250 196
-0.31094 -0.37709 0.221692 96 250 196
-0.156252 -0.28608 0.296308 96 250 196
-0.158222 -0.184504 0.340622 96 250 196
-0.244102 -0.343212 0.20597 96 250 196
-0.18445 -0.195592 0.19943 96 250 196
-0.157938 -0.273156 0.341878 96 250 196
-0.162067 -0.296731 0.212251 96 250 196
-0.160805 -0.228329 0.353621 96 250 196
-0.164961 -0.305079 0.29724 96 250 196
-0.323788 -0.386663 0.221438 96 250 196
-0.159004 -0.243885 0.219221 96 250 196
-0.161071 -0.19359 0.213606 96 250 196
-0.273084 -0.370051 0.216793 96 250 196
-0.179094 -0.421394 0.224148 96 250 196
-0.188027 -0.205554 0.200809 96 250 196
-0.243827 -0.39838 0.225696 96 250 196
-0.148993 -0.359641 0.227432 96 250 196
-0.176283 -0.346766 0.270072 96 250 196
-0.364612 -0.274476 0.228301 96 250 196
-0.222152 -0.319357 0.246197 96 250 196
-0.27866 -0.320793 0.212963 96 250 196
-0.155842 -0.364005 0.218328 96 250 196
-0.175224 -0.309367 0.321677 96 250 196
-0.168074 -0.161482 0.201629 96 250 196
-0.216901 -0.373432 0.233335 96 250 196
-0.161848 -0.310719 0.356853 96 250 196
-0.160431 -0.210686 0.333294 96 250 196
-0.31069 -0.366715 0.220883 96 250 196
-0.158447 -0.301017 0.219015 96 250 196
-0.243695 -0.342883 0.205781 96 250 196
-0.167342 -0.163154 0.203373 96 250 196
-0.224149 -0.387292 0.214988 96 250 196
-0.143296 -0.411644 0.231478 96 250 196
-0.326233 -0.388363 0.220608 96 250 196
-0.156281 -0.283544 0.25806 96 250 196
-0.30426 -0.310954 0.213402 96 250 196
-0.300897 -0.393052 0.220862 96 250 196
-0.163389 -0.325943 0.344331 96 250 196
-0.159514 -0.192175 0.393969 96 250 196
-0.192353 -0.41462 0.226633 96 250 196
-0.329674 -0.259488 0.224946 96 250 196
-0.170955 -0.217887 0.201335 96 250 196
-0.165037 -0.391874 0.251491 96 250 196
-0.15583 -0.290761 0.266002 96 250 196
-0.267211 -0.260138 0.204333 96 250 196
-0.320846 -0.38126 0.221742 96 250 196
-0.329306 -0.280167 0.215823 96 250 196
-0.152918 -0.410871 0.245013 96 250 196
-0.196184 -0.404472 0.219147 96 250 196
-0.349414 -0.236165 0.229902 96 250 196
-0.203503 -0.300049 0.208861 96 250 196
-0.22858 -0.361695 0.267362 96 250 196
-0.28796 -0.374052 0.222323 96 250 196
-0.159711 -0.363432 0.32103 96 250 196
-0.257412 -0.318462 0.206757 96 250 196
-0.297706 -0.360374 0.22387 96 250 196
-0.177489 -0.375043 0.259961 96 250 196
-0.188132 -0.301276 0.304524 96 250 196
-0.203922 -0.406006 0.23022 96 250 196
-0.26299 -0.40134 0.21806 96 250 196
-0.158084 -0.26977 0.220234 96 250 196
-0.149323 -0.398143 0.222244 96 250 196
-0.196594 -0.417441 0.224327 96 250 196
-0.152807 -0.304871 0.233149 96 250 196
-0.285479 -0.392123 0.220098 96 250 196
-0.166873 -0.418172 0.225385 96 250 196
-0.156719 -0.369628 0.310417 96 250 196
-0.178797 -0.411867 0.2304 96 250 196
-0.152524 -0.327204 0.255767 96 250 196
-0.160834 -0.228898 0.336692 96 250 196
-0.335778 -0.382345 0.220438 96 250 196
-0.156325 -0.282969 0.258277 96 250 196
-0.147621 -0.40502 0.270429 96 250 196
-0.179013 -0.396712 0.238331 96 250 196
-0.167667 -0.187589 0.205617 96 250 196
-0.162287 -0.425058 0.226343 96 250 196
-0.272539 -0.312391 0.211268 96 250 196
-0.155604 -0.369286 0.300293 96 250 196
-0.242356 -0.336477 0.204422 96 250 196
-0.143751 -0.39658 0.236252 96 250 196
-0.302275 -0.299345 0.2332 96 250 196
-0.271113 -0.391601 0.223235 96 250 196
-0.195785 -0.417314 0.224527 96 250 196
-0.207222 -0.335969 0.209221 96 250 196
-0.284165 -0.329701 0.234494 96 250 196
-0.200966 -0.40641 0.230385 96 250 196
-0.158755 -0.251416 0.219378 96 250 196
-0.170636 -0.395089 0.244396 96 250 196
-0.148927 -0.384331 0.26837 96 250 196
-0.363801 -0.228119 0.229397 96 250 196
-0.282861 -0.274957 0.214016 96 250 196
-0.16139 -0.391242 0.258056 96 250 196
-0.259212 -0.375577 0.224785 96 250 196
-0.16247 -0.355662 0.337587 96 250 196
-0.157794 -0.258884 0.273001 96 250 196
-0.155694 -0.387189 0.300999 96 250 196
-0.15905 -0.255214 0.33156 96 250 196
-0.214824 -0.364486 0.20942 96 250 196
-0.171065 -0.384202 0.256054 96 250 196
-0.227272 -0.335329 0.233864 96 250 196
-0.161592 -0.337499 0.352276 96 250 196
-0.153347 -0.393456 0.282485 96 250 196
-0.339304 -0.340146 0.224529 96 250 196
-0.182434 -0.359908 0.213656 96 250 196
-0.1566 -0.32632 0.386365 96 250 196
-0.155462 -0.420776 0.232526 96 250 196
-0.354486 -0.338905 0.223963 96 250 196
-0.186818 -0.302937 0.208266 96 250 196
-0.160143 -0.202332 0.357179 96 250 196
-0.150926 -0.399617 0.279028 96 250 196
-0.144294 -0.421174 0.240798 96 250 196
-0.356037 -0.19758 0.230968 96 250 196
-0.153731 -0.295538 0.231922 96 250 196
-0.154227 -0.391467 0.293638 96 250 196
-0.22055 -0.312959 0.206994 96 250 196
-0.172428 -0.242114 0.201738 96 250 196
-0.17263 -0.270171 0.328007 96 250 196
-0.19541 -0.39095 0.217181 96 250 196
-0.14768 -0.369523 0.252079 96 250 196
-0.162655 -0.402452 0.240422 96 250 196
-0.198321 -0.384352 0.236966 96 250 196
-0.161123 -0.29445 0.330028 96 250 196
-0.229955 -0.324537 0.204884 96 250 196
-0.169026 -0.383367 0.218771 96 250 196
-0.160237 -0.203356 0.350742 96 250 196
-0.165813 -0.402039 0.221909 96 250 196
-0.2524 -0.396189 0.224636 96 250 196
-0.163472 -0.27754 0.327821 96 250 196
-0.15525 -0.33198 0.311308 96 250 196
-0.148883 -0.359379 0.240307 96 250 196
-0.236698 -0.351842 0.230114 96 250 196
-0.282929 -0.391735 0.219965 96 250 196
-0.21653 -0.302843 0.20771 96 250 196
-0.178393 -0.17498 0.197666 96 250 196
-0.151199 -0.353162 0.26124 96 250 196
-0.161948 -0.338046 0.326987 96 250 196
-0.32093 -0.194298 0.226331 96 250 196
-0.160001 -0.24039 0.338838 96 250 196
-0.275032 -0.29608 0.253522 96 250 196
-0.203763 -0.380822 0.284193 96 250 196
-0.185816 -0.413276 0.228467 96 250 196
-0.156831 -0.26939 0.224649 96 250 196
-0.234584 -0.333676 0.203983 96 250 196
-0.150064 -0.372993 0.26746 96 250 196
-0.24846 -0.344002 0.229909 96 250 196
-0.248166 -0.396953 0.216856 96 250 196
-0.158574 -0.269637 0.219129 96 250 196
-0.212006 -0.316365 0.208228 96 250 196
-0.238455 -0.380217 0.226658 96 250 196
-0.157397 -0.295141 0.361175 96 250 196
-0.346284 -0.248289 0.229121 96 250 196
-0.259025 -0.254452 0.203172 96 250 196
-0.165529 -0.42343 0.226586 96 250 196
-0.165107 -0.407649 0.234688 96 250 196
-0.185881 -0.391427 0.239704 96 250 196
-0.148505 -0.409521 0.259236 96 250 196
-0.160814 -0.27198 0.214762 96 250 196
-0.159761 -0.195723 0.339996 96 250 196
-0.162621 -0.281637 0.346988 96 250 196
-0.155678 -0.301646 0.307454 96 250 196
-0.161877 -0.331773 0.352949 96 250 196
-0.155555 -0.282794 0.227676 96 250 196
-0.148303 -0.427546 0.228971 96 250 196
-0.255822 -0.210317 0.203299 96 250 196
-0.227044 -0.40834 0.22004 96 250 196
-0.163167 -0.27679 0.34128 96 250 196
-0.221897 -0.396985 0.228036 96 250 196
-0.211357 -0.345392 0.209005 96 250 196
-0.155041 -0.215559 0.276419 96 250 196
-0.229746 -0.387556 0.227142 96 250 196
-0.182203 -0.416094 0.226385 96 250 196
-0.194483 -0.342504 0.210832 96 250 196
-0.154763 -0.332416 0.30613 96 250 196
-0.303966 -0.368443 0.221428 96 250 196
-0.326076 -0.266839 0.195094 96 250 196
-0.1865 -0.209235 0.200886 96 250 196
-0.1539 -0.322304 0.289306 96 250 196
-0.230974 -0.399446 0.218148 96 250 196
-0.157083 -0.329063 0.341504 96 250 196
-0.274703 -0.335063 0.219203 96 250 196
-0.17962 -0.404689 0.221569 96 250 196
-0.330821 -0.280517 0.223762 96 250 196
-0.254622 -0.347363 0.20928 96 250 196
-0.297027 -0.360847 0.22065 96 250 196
-0.227795 -0.399163 0.218141 96 250 196
-0.157984 -0.219418 0.219908 96 250 196
-0.196811 -0.366918 0.212739 96 250 196
-0.170926 -0.411339 0.231453 96 250 196
-0.148929 -0.358069 0.229015 96 250 196
-0.196399 -0.362682 0.212232 96 250 196
-0.162122 -0.382399 0.268481 96 250 196
-0.157866 -0.375456 0.32085 96 250 196
-0.16183 -0.291595 0.212622 96 250 196
-0.193229 -0.364645 0.2483 96 250 196
-0.16499 -0.138694 0.203713 96 250 196
-0.15434 -0.308602 0.244763 96 250 196
-0.253738 -0.340775 0.208244 96 250 196
-0.227768 -0.409868 0.222466 96 250 196
-0.193869 -0.396979 0.218388 96 250 196
-0.150362 -0.361147 0.259207 96 250 196
-0.203148 -0.379216 0.289405 96 250 196
-0.157621 -0.287964 0.371468 96 250 196
-0.143953 -0.422157 0.239471 96 250 196
-0.157812 -0.270963 0.385703 96 250 196
-0.198032 -0.38196 0.238921 96 250 196
-0.227532 -0.377116 0.21227 96 250 196
-0.184897 -0.379713 0.25007 96 250 196
-0.235076 -0.392266 0.226297 96 250 196
-0.175214 -0.290802 0.206268 96 250 196
-0.319217 -0.373367 0.219512 96 250 196
-0.17363 -0.252713 0.20297 96 250 196
-0.200192 -0.325522 0.209819 96 250 196
-0.152119 -0.345195 0.225099 96 250 196
-0.27232 -0.278403 0.210328 96 250 196
-0.159331 -0.189094 0.215359 96 250 196
-0.162585 -0.320511 0.348539 96 250 196
-0.282037 -0.221392 0.206078 96 250 196
-0.160848 -0.22618 0.364907 96 250 196
-0.154235 -0.363055 0.28681 96 250 196
-0.218371 -0.364359 0.20875 96 250 196
-0.148815 -0.381258 0.266061 96 250 196
-0.152798 -0.304933 0.233226 96 250 196
-0.154413 -0.295451 0.229154 96 250 196
-0.152242 -0.378128 0.28256 96 250 196
-0.210148 -0.171983 0.200994 96 250 196
-0.154904 -0.295892 0.243146 96 250 196
-0.209795 -0.38956 0.230404 96 250 196
-0.179673 -0.394567 0.219658 96 250 196
-0.185199 -0.383107 0.246907 96 250 196
-0.151923 -0.424437 0.231756 96 250 196
-0.153687 -0.386764 0.291893 96 250 196
-0.215715 -0.379876 0.21273 96 250 196
-0.173442 -0.41179 0.230965 96 250 196
-0.158187 -0.280835 0.219779 96 250 196
-0.175273 -0.346213 0.214092 96 250 196
-0.153134 -0.327659 0.268404 96 250 196
-0.308035 -0.353269 0.223393 96 250 196
-0.161715 -0.341572 0.328275 96 250 196
-0.159897 -0.198331 0.337517 96 250 196
-0.235902 -0.343397 0.273318 96 250 196
-0.164054 -0.37341 0.278967 96 250 196
-0.307905 -0.378219 0.220159 96 250 196
-0.352481 -0.240009 0.229871 96 250 196
-0.167778 -0.226577 0.205609 96 250 196
-0.146065 -0.412468 0.256402 96 250 196
-0.209441 -0.415252 0.222412 96 250 196
-0.161775 -0.321396 0.214189 96 250 196
-0.159186 -0.176166 0.216065 96 250 196
-0.15655 -0.32771 0.330957 96 250 196
-0.153436 -0.3366 0.284658 96 250 196
-0.160043 -0.355732 0.324253 96 250 196
-0.159972 -0.354055 0.328571 96 250 196
-0.153967 -0.231401 0.262305 96 250 196
-0.160005 -0.201551 0.383764 96 250 196
-0.269661 -0.397577 0.220625 96 250 196
-0.242001 -0.293301 0.203598 96 250 196
-0.146776 -0.398562 0.26381 96 250 196
-0.154462 -0.363816 0.289389 96 250 196
-0.15828 -0.315693 0.378328 96 250 196
-0.207735 -0.339636 0.209289 96 250 196
-0.157434 -0.268951 0.280697 96 250 196
-0.160619 -0.30921 0.326239 96 250 196
-0.159709 -0.246779 0.315541 96 250 196
-0.152973 -0.322168 0.227725 96 250 196
-0.1462 -0.387074 0.226064 96 250 196
-0.231612 -0.32381 0.260323 96 250 196
-0.352728 -0.30766 0.226421 96 250 196
-0.274104 -0.345263 0.213019 96 250 196
-0.207651 -0.400412 0.23007 96 250 196
-0.150079 -0.38763 0.275782 96 250 196
-0.159112 -0.253713 0.343624 96 250 196
-0.207637 -0.338684 0.209267 96 250 196
-0.183489 -0.418247 0.224535 96 250 196
-0.204499 -0.402879 0.219376 96 250 196
-0.118802 -0.171882 0.389458 128 254 179
-0.126 -0.280685 0.475386 128 254 179
-0.138755 -0.219417 0.485155 128 254 179
-0.121425 -0.243957 0.452692 128 254 179
-0.118438 -0.27027 0.444 128 254 179
-0.147756 -0.313037 0.479868 128 254 179
-0.116271 -0.431894 0.212022 128 254 179
-0.120295 -0.336786 0.435852 128 254 179
-0.114814 -0.248262 0.328075 128 254 179
-0.126173 -0.25896 0.470969 128 254 179
-0.120517 -0.210454 0.44523 128 254 179
-0.120288 -0.311587 0.450998 128 254 179
-0.123957 -0.172911 0.460597 128 254 179
-0.106499 -0.367321 0.327323 128 254 179
-0.135479 -0.310044 0.477918 128 254 179
-0.121012 -0.168152 0.350117 128 254 179
-0.123619 -0.306261 0.469766 128 254 179
-0.118826 -0.290666 0.454871 128 254 179
-0.143219 -0.156938 0.484557 128 254 179
-0.146598 -0.171736 0.486234 128 254 179
-0.108484 -0.328245 0.381594 128 254 179
-0.123711 -0.292099 0.470733 128 254 179
-0.144108 -0.258725 0.487479 128 254 179
-0.12737 -0.102836 0.470302 128 254 179
-0.128618 -0.366699 0.372379 128 254 179
-0.116872 -0.28107 0.435438 128 254 179
-0.125979 -0.109508 0.439464 128 254 179
-0.120844 -0.229938 0.448616 128 254 179
-0.115874 -0.199097 0.424654 128 254 179
-0.115485 -0.405242 0.282459 128 254 179
-0.140417 -0.323924 0.462822 128 254 179
-0.126005 -0.135031 0.469617 128 254 179
-0.115879 -0.289199 0.403129 128 254 179
-0.124404 -0.225828 0.463009 128 254 179
-0.108196 -0.347312 0.379922 128 254 179
-0.115877 -0.270124 0.378749 128 254 179
-0.114453 -0.261078 0.32707 128 254 179
-0.12572 -0.128425 0.449723 128 254 179
-0.126823 -0.103971 0.444381 128 254 179
-0.136063 -0.328661 0.445431 128 254 179
-0.121895 -0.151624 0.304942 128 254 179
-0.121703 -0.111486 0.343427 128 254 179
-0.118078 -0.332143 0.235497 128 254 179
-0.122546 -0.344975 0.425781 128 254 179
-0.114797 -0.278804 0.337273 128 254 179
-0.114501 -0.306553 0.321767 128 254 179
-0.112071 -0.39595 0.269116 128 254 179
-0.123946 -0.255081 0.463116 128 254 179
-0.120603 -0.251766 0.451707 128 254 179
-0.121788 -0.126368 0.369365 128 254 179
-0.115395 -0.300698 0.300413 128 254 179
-0.111933 -0.389777 0.25906 128 254 179
-0.117242 -0.253958 0.402524 128 254 179
-0.121186 -0.149243 0.387886 128 254 179
-0.119561 -0.164216 0.435466 128 254 179
-0.116414 -0.18234 0.402932 128 254 179
-0.114877 -0.293268 0.313082 128 254 179
-0.114834 -0.261521 0.36336 128 254 179
-0.123853 -0.169509 0.460669 128 254 179
-0.118397 -0.156285 0.422998 128 254 179
-0.115811 -0.286842 0.271578 128 254 179
-0.121115 -0.151688 0.384821 128 254 179
-0.149664 -0.240021 0.488963 128 254 179
-0.128976 -0.431713 0.215031 128 254 179
-0.116824 -0.284508 0.401203 128 254 179
-0.13631 -0.329364 0.442905 128 254 179
-0.13403 -0.329166 0.452552 128 254 179
-0.121707 -0.126184 0.380108 128 254 179
-0.152469 -0.310926 0.481823 128 254 179
-0.11703 -0.362021 0.228805 128 254 179
-0.120824 -0.405873 0.294351 128 254 179
-0.117768 -0.3165 0.246374 128 254 179
-0.114358 -0.308703 0.315196 128 254 179
-0.114601 -0.393889 0.309417 128 254 179
-0.125783 -0.132918 0.47474 128 254 179
-0.12144 -0.107376 0.312956 128 254 179
-0.121119 -0.427416 0.234859 128 254 179
-0.132327 -0.199882 0.482538 128 254 179
-0.117546 -0.200203 0.348898 128 254 179
-0.120851 -0.152382 0.390117 128 254 179
-0.129378 -0.170768 0.479412 128 254 179
-0.115892 -0.35645 0.240282 128 254 179
-0.14711 -0.132572 0.480976 128 254 179
-0.114591 -0.300937 0.356758 128 254 179
-0.147783 -0.129466 0.480351 128 254 179
-0.142216 -0.195024 0.485454 128 254 179
-0.108008 -0.350434 0.371948 128 254 179
-0.11962 -0.425295 0.23816 128 254 179
-0.117756 -0.349536 0.228499 128 254 179
-0.11089 -0.340965 0.335262 128 254 179
-0.124871 -0.151872 0.468503 128 254 179
-0.112634 -0.370558 0.259396 128 254 179
-0.124778 -0.346079 0.42622 128 254 179
-0.121681 -0.143077 0.370077 128 254 179
-0.121701 -0.118173 0.382926 128 254 179
-0.10992 -0.3837 0.284788 128 254 179
-0.12288 -0.122316 0.426557 128 254 179
-0.138045 -0.196441 0.484222 128 254 179
-0.115783 -0.302654 0.293849 128 254 179
-0.1212 -0.0956511 0.37408 128 254 179
-0.13323 -0.335076 0.44251 128 254 179
-0.1267 -0.115734 0.471838 128 254 179
-0.110288 -0.379383 0.329168 128 254 179
-0.121978 -0.150296 0.298265 128 254 179
-0.12149 -0.144602 0.376513 128 254 179
-0.120504 -0.0832543 0.363402 128 254 179
-0.120573 -0.092248 0.315886 128 254 179
-0.12289 -0.432598 0.212074 128 254 179
-0.121717 -0.115037 0.352763 128 254 179
-0.107871 -0.328122 0.396491 128 254 179
-0.121822 -0.110799 0.390207 128 254 179
-0.135475 -0.117339 0.475794 128 254 179
-0.125089 -0.171459 0.466347 128 254 179
-0.117816 -0.309156 0.24346 128 254 179
-0.109075 -0.381003 0.315423 128 254 179
-0.10873 -0.375464 0.29487 128 254 179
-0.115792 -0.259937 0.383565 128 254 179
-0.119319 -0.174423 0.379348 128 254 179
-0.121223 -0.155723 0.438404 128 254 179
-0.148405 -0.314771 0.478723 128 254 179
-0.124722 -0.344345 0.430604 128 254 179
-0.146365 -0.257693 0.488624 128 254 179
-0.147005 -0.174867 0.486414 128 254 179
-0.115679 -0.219911 0.383706 128 254 179
-0.121501 -0.107451 0.36622 128 254 179
-0.125695 -0.319165 0.469168 128 254 179
-0.118509 -0.426462 0.226011 128 254 179
-0.108101 -0.3422 0.356649 128 254 179
-0.117545 -0.41203 0.271462 128 254 179
-0.130324 -0.256464 0.480504 128 254 179
-0.112592 -0.401117 0.260881 128 254 179
-0.121276 -0.163064 0.35456 128 254 179
-0.112137 -0.343876 0.303868 128 254 179
-0.134351 -0.153031 0.481469 128 254 179
-0.131523 -0.350704 0.408489 128 254 179
-0.117561 -0.193665 0.372718 128 254 179
-0.109988 -0.373504 0.289896 128 254 179
-0.115542 -0.229026 0.27015 128 254 179
-0.145147 -0.304119 0.483464 128 254 179
-0.124341 -0.084676 0.273096 128 254 179
-0.112472 -0.39122 0.251286 128 254 179
-0.122171 -0.186835 0.450459 128 254 179
-0.116115 -0.213871 0.3198 128 254 179
-0.113349 -0.404124 0.221581 128 254 179
-0.108731 -0.339708 0.400153 128 254 179
-0.115397 -0.233709 0.357947 128 254 179
-0.121118 -0.145064 0.40056 128 254 179
-0.114433 -0.308569 0.333256 128 254 179
-0.114075 -0.32096 0.332125 128 254 179
-0.114528 -0.393012 0.226554 128 254 179
-0.122061 -0.126748 0.35008 128 254 179
-0.1458 -0.158201 0.485534 128 254 179
-0.126201 -0.352505 0.412237 128 254 179
-0.116097 -0.214178 0.316937 128 254 179
-0.111135 -0.336501 0.343065 128 254 179
-0.122437 -0.244561 0.45693 128 254 179
-0.124028 -0.122277 0.434373 128 254 179
-0.115585 -0.255833 0.383386 128 254 179
-0.128863 -0.209291 0.476577 128 254 179
-0.116506 -0.215972 0.412386 128 254 179
-0.117906 -0.270504 0.419912 128 254 179
-0.114422 -0.244718 0.284113 128 254 179
-0.118843 -0.151617 0.414135 128 254 179
-0.112407 -0.358502 0.273115 128 254 179
-0.107855 -0.376695 0.305233 128 254 179
-0.137576 -0.243549 0.484257 128 254 179
-0.121041 -0.0956718 0.302448 128 254 179
-0.107048 -0.371249 0.32672 128 254 179
-0.117305 -0.311064 0.253289 128 254 179
-0.123303 -0.272777 0.46367 128 254 179
-0.122739 -0.117546 0.416544 128 254 179
-0.127176 -0.105933 0.451145 128 254 179
-0.137323 -0.289515 0.48251 128 254 179
-0.117395 -0.292883 0.249115 128 254 179
-0.129601 -0.211533 0.479537 128 254 179
-0.120344 -0.169579 0.329598 128 254 179
-0.128572 -0.227091 0.476623 128 254 179
-0.143027 -0.319996 0.461725 128 254 179
-0.122145 -0.230844 0.453535 128 254 179
-0.125412 -0.138041 0.462049 128 254 179
-0.124097 -0.331461 0.451906 128 254 179
-0.14978 -0.313944 0.465861 128 254 179
-0.115102 -0.25393 0.377253 128 254 179
-0.130757 -0.357165 0.392429 128 254 179
-0.115012 -0.244164 0.275261 128 254 179
-0.123527 -0.0925413 0.279671 128 254 179
-0.121897 -0.14885 0.33667 128 254 179
-0.121325 -0.151998 0.372624 128 254 179
-0.113961 -0.339069 0.419633 128 254 179
-0.114052 -0.230695 0.291525 128 254 179
-0.112758 -0.304666 0.402206 128 254 179
-0.115434 -0.245378 0.386235 128 254 179
-0.117384 -0.248385 0.409812 128 254 179
-0.121979 -0.128114 0.361575 128 254 179
-0.115926 -0.211074 0.361244 128 254 179
-0.121856 -0.414901 0.275494 128 254 179
-0.128566 -0.196796 0.475273 128 254 179
-0.121343 -0.0948756 0.359927 128 254 179
-0.106958 -0.360361 0.325765 128 254 179
-0.116189 -0.288934 0.382659 128 254 179
-0.114098 -0.313796 0.349334 128 254 179
-0.114444 -0.262444 0.326051 128 254 179
-0.126638 -0.434569 0.21842 128 254 179
-0.109143 -0.326755 0.414838 128 254 179
-0.124446 -0.35745 0.398818 128 254 179
-0.121562 -0.106143 0.32371 128 254 179
-0.107307 -0.374084 0.311085 128 254 179
-0.1179 -0.196732 0.313773 128 254 179
-0.122257 -0.156869 0.446019 128 254 179
-0.115143 -0.296432 0.306367 128 254 179
-0.113154 -0.418181 0.214529 128 254 179
-0.121038 -0.152768 0.435847 128 254 179
-0.11698 -0.290179 0.450514 128 254 179
-0.114025 -0.246029 0.300598 128 254 179
-0.121204 -0.100581 0.320093 128 254 179
-0.110663 -0.312769 0.410469 128 254 179
-0.138901 -0.325808 0.468039 128 254 179
-0.115983 -0.343992 0.415173 128 254 179
-0.12055 -0.161768 0.38337 128 254 179
-0.11865 -0.184778 0.29772 128 254 179
-0.113828 -0.320088 0.312168 128 254 179
-0.130159 -0.34541 0.423771 128 254 179
-0.12438 -0.300987 0.472906 128 254 179
-0.120204 -0.20885 0.442642 128 254 179
-0.145074 -0.319875 0.47404 128 254 179
-0.114138 -0.329586 0.430092 128 254 179
-0.121123 -0.33154 0.444076 128 254 179
-0.12497 -0.278244 0.471861 128 254 179
-0.108675 -0.32676 0.382996 128 254 179
-0.115892 -0.200675 0.42196 128 254 179
-0.122191 -0.128833 0.305496 128 254 179
-0.114811 -0.293765 0.355131 128 254 179
-0.122175 -0.124044 0.394126 128 254 179
-0.116489 -0.226185 0.414774 128 254 179
-0.114698 -0.300156 0.313704 128 254 179
-0.116637 -0.297245 0.262901 128 254 179
-0.144344 -0.318911 0.475069 128 254 179
-0.114706 -0.290501 0.328895 128 254 179
-0.114908 -0.283482 0.315017 128 254 179
-0.122456 -0.056271 0.285799 128 254 179
-0.123641 -0.184369 0.456904 128 254 179
-0.113851 -0.409746 0.236599 128 254 179
-0.121303 -0.100056 0.379382 128 254 179
-0.121547 -0.144753 0.373627 128 254 179
-0.116832 -0.224787 0.429603 128 254 179
-0.127509 -0.180607 0.473127 128 254 179
-0.126528 -0.276809 0.477323 128 254 179
-0.148065 -0.297367 0.486246 128 254 179
-0.128141 -0.194912 0.473885 128 254 179
-0.122539 -0.204906 0.453723 128 254 179
-0.117947 -0.270009 0.437238 128 254 179
-0.113956 -0.327197 0.431739 128 254 179
-0.122507 -0.114913 0.413152 128 254 179
-0.140151 -0.136869 0.480723 128 254 179
-0.12156 -0.134482 0.423525 128 254 179
-0.114688 -0.26771 0.35179 128 254 179
-0.114226 -0.35941 0.25433 128 254 179
-0.127015 -0.10429 0.467203 128 254 179
-0.123949 -0.12396 0.434832 128 254 179
-0.151377 -0.287942 0.489568 128 254 179
-0.146668 -0.133682 0.481162 128 254 179
-0.11542 -0.271526 0.273456 128 254 179
-0.114741 -0.24945 0.358437 128 254 179
-0.12498 -0.335921 0.44712 128 254 179
-0.134589 -0.337044 0.433308 128 254 179
-0.128253 -0.231559 0.475694 128 254 179
-0.125793 -0.258314 0.468091 128 254 179
-0.11573 -0.411177 0.258565 128 254 179
-0.153961 -0.314532 0.475638 128 254 179
-0.109369 -0.360248 0.361248 128 254 179
-0.116708 -0.206769 0.354133 128 254 179
-0.114152 -0.298208 0.427882 128 254 179
-0.15463 -0.313046 0.480085 128 254 179
-0.13961 -0.19537 0.484649 128 254 179
-0.116451 -0.418437 0.243212 128 254 179
-0.127815 -0.249003 0.477979 128 254 179
-0.126333 -0.127054 0.47172 128 254 179
-0.121989 -0.1276 0.397769 128 254 179
-0.122515 -0.14443 0.438849 128 254 179
-0.121832 -0.117889 0.38655 128 254 179
-0.132946 -0.335831 0.4418 128 254 179
-0.121848 -0.1521 0.288323 128 254 179
-0.121278 -0.278036 0.459234 128 254 179
-0.111833 -0.38063 0.264757 128 254 179
-0.114603 -0.275489 0.311323 128 254 179
-0.107067 -0.354797 0.340995 128 254 179
-0.120245 -0.193907 0.442957 128 254 179
-0.123136 -0.308056 0.467137 128 254 179
-0.119982 -0.181194 0.281408 128 254 179
-0.115304 -0.243066 0.382611 128 254 179
-0.120091 -0.173119 0.36516 128 254 179
-0.114985 -0.24669 0.368999 128 254 179
-0.13676 -0.32431 0.452256 128 254 179
-0.115127 -0.305197 0.300913 128 254 179
-0.113363 -0.304419 0.395077 128 254 179
-0.151021 -0.307691 0.483677 128 254 179
-0.123386 -0.217862 0.457014 128 254 179
-0.123961 -0.103191 0.427323 128 254 179
-0.152205 -0.315791 0.474031 128 254 179
-0.109603 -0.361698 0.359837 128 254 179
-0.121386 -0.157798 0.363123 128 254 179
-0.11558 -0.220159 0.379122 128 254 179
-0.122356 -0.382964 0.344199 128 254 179
-0.116272 -0.209066 0.409875 128 254 179
-0.121982 -0.129226 0.386453 128 254 179
-0.113898 -0.323411 0.333163 128 254 179
-0.12836 -0.208125 0.474708 128 254 179
-0.128878 -0.167224 0.478919 128 254 179
-0.117712 -0.189746 0.433006 128 254 179
-0.118838 -0.172341 0.436646 128 254 179
-0.120747 -0.300259 0.458073 128 254 179
-0.107233 -0.340979 0.387849 128 254 179
-0.11493 -0.277389 0.359822 128 254 179
-0.115743 -0.217133 0.353858 128 254 179
-0.122003 -0.124925 0.358349 128 254 179
-0.114852 -0.277273 0.357865 128 254 179
-0.11466 -0.230498 0.280833 128 254 179
-0.121906 -0.116619 0.336077 128 254 179
-0.116036 -0.411164 0.262967 128 254 179
-0.114214 -0.411541 0.2265 128 254 179
-0.125476 -0.100917 0.434764 128 254 179
-0.117592 -0.19675 0.365599 128 254 179
-0.110687 -0.325931 0.371874 128 254 179
-0.129425 -0.34016 0.44204 128 254 179
-0.122158 -0.128448 0.325225 128 254 179
-0.114752 -0.256204 0.364436 128 254 179
-0.122561 -0.347807 0.419676 128 254 179
-0.121793 -0.219869 0.451218 128 254 179
-0.115464 -0.237304 0.354784 128 254 179
-0.115096 -0.290475 0.308958 128 254 179
-0.139568 -0.15703 0.483405 128 254 179
-0.116246 -0.29896 0.269963 128 254 179
-0.115425 -0.241573 0.385479 128 254 179
-0.123256 -0.374408 0.360991 128 254 179
-0.122061 -0.116506 0.398556 128 254 179
-0.12201 -0.262064 0.459205 128 254 179
-0.119276 -0.183534 0.439017 128 254 179
-0.125675 -0.16357 0.469755 128 254 179
-0.121992 -0.125791 0.361126 128 254 179
-0.120546 -0.239841 0.448217 128 254 179
-0.118771 -0.421141 0.247559 128 254 179
-0.113498 -0.326831 0.30212 128 254 179
-0.114713 -0.237706 0.279219 128 254 179
-0.120373 -0.199072 0.443448 128 254 179
-0.114827 -0.324063 0.435325 128 254 179
-0.114954 -0.241799 0.327428 128 254 179
-0.125399 -0.13758 0.459846 128 254 179
-0.113835 -0.309029 0.37551 128 254 179
-0.121578 -0.107374 0.321482 128 254 179
-0.121521 -0.107266 0.380089 128 254 179
-0.130383 -0.286741 0.478812 128 254 179
-0.127722 -0.172578 0.475248 128 254 179
-0.136979 -0.32159 0.472486 128 254 179
-0.111087 -0.364264 0.292668 128 254 179
-0.118149 -0.175014 0.393498 128 254 179
-0.129655 -0.332944 0.456874 128 254 179
-0.122602 -0.432173 0.21796 128 254 179
-0.117111 -0.284022 0.252688 128 254 179
-0.122823 -0.108195 0.413771 128 254 179
-0.124557 -0.241188 0.46423 128 254 179
-0.108507 -0.33615 0.363636 128 254 179
-0.114951 -0.264016 0.280404 128 254 179
-0.11486 -0.374044 0.236965 128 254 179
-0.119687 -0.177029 0.330594 128 254 179
-0.127469 -0.24763 0.47529 128 254 179
-0.146694 -0.153957 0.48484 128 254 179
-0.114883 -0.280755 0.317843 128 254 179
-0.120488 -0.0868266 0.33579 128 254 179
-0.117519 -0.203037 0.329221 128 254 179
-0.114508 -0.306944 0.322541 128 254 179
-0.122509 -0.332819 0.445706 128 254 179
-0.127881 -0.185683 0.473592 128 254 179
-0.115479 -0.424378 0.220843 128 254 179
-0.141236 -0.292382 0.484321 128 254 179
-0.115817 -0.334279 0.428835 128 254 179
-0.115507 -0.414187 0.249571 128 254 179
-0.126309 -0.161733 0.473887 128 254 179
-0.126395 -0.124156 0.473156 128 254 179
-0.115809 -0.234523 0.394777 128 254 179
-0.120463 -0.0872323 0.382462 128 254 179
-0.121156 -0.165557 0.352796 128 254 179
-0.122249 -0.0985153 0.28946 128 254 179
-0.114746 -0.340101 0.26919 128 254 179
-0.12155 -0.322281 0.451354 128 254 179
-0.106464 -0.366554 0.32509 128 254 179
-0.145939 -0.316219 0.460726 128 254 179
-0.150828 -0.30685 0.484017 128 254 179
-0.122171 -0.143578 0.316854 128 254 179
-0.116357 -0.259405 0.389576 128 254 179
-0.119348 -0.433253 0.206872 128 254 179
-0.114402 -0.227831 0.319062 128 254 179
-0.125776 -0.105521 0.437531 128 254 179
-0.123224 -0.226139 0.456931 128 254 179
-0.116831 -0.208599 0.324304 128 254 179
-0.108621 -0.335976 0.363196 128 254 179
-0.115426 -0.417334 0.228311 128 254 179
-0.115025 -0.27121 0.36318 128 254 179
-0.133289 -0.328958 0.458832 128 254 179
-0.114956 -0.272737 0.283261 128 254 179
-0.123749 -0.242253 0.461695 128 254 179
-0.112149 -0.342824 0.303541 128 254 179
-0.121052 -0.09822 0.322199 128 254 179
-0.12955 -0.194915 0.47893 128 254 179
-0.116516 -0.218822 0.427407 128 254 179
-0.128431 -0.229352 0.476259 128 254 179
-0.11854 -0.261604 0.436743 128 254 179
-0.117136 -0.241889 0.424205 128 254 179
-0.120257 -0.182126 0.277078 128 254 179
-0.118223 -0.196389 0.286025 128 254 179
-0.121807 -0.154973 0.330043 128 254 179
-0.107969 -0.34414 0.355089 128 254 179
-0.113699 -0.404212 0.264524 128 254 179
-0.120164 -0.393877 0.321955 128 254 179
-0.147019 -0.315529 0.462064 128 254 179
-0.12683 -0.260671 0.475605 128 254 179
-0.125509 -0.260539 0.467621 128 254 179
-0.124838 -0.363177 0.384874 128 254 179
-0.12142 -0.161222 0.349938 128 254 179
-0.116361 -0.305391 0.268665 128 254 179
-0.113529 -0.400132 0.234734 128 254 179
-0.122384 -0.292065 0.463954 128 254 179
-0.118827 -0.189814 0.327164 128 254 179
-0.119605 -0.176037 0.370835 128 254 179
-0.115716 -0.218428 0.351901 128 254 179
-0.143308 -0.195206 0.485814 128 254 179
-0.12092 -0.0958266 0.32676 128 254 179
-0.11442 -0.31754 0.438239 128 254 179
-0.11981 -0.164164 0.436577 128 254 179
-0.113822 -0.298863 0.422948 128 254 179
-0.117619 -0.275234 0.413613 128 254 179
-0.111744 -0.393943 0.270067 128 254 179
-0.122386 -0.333327 0.444831 128 254 179
-0.138274 -0.157461 0.482988 128 254 179
-0.118241 -0.414926 0.265591 128 254 179
-0.110183 -0.390103 0.295511 128 254 179
-0.107245 -0.34011 0.389721 128 254 179
-0.111719 -0.375953 0.270487 128 254 179
-0.131345 -0.216883 0.482026 128 254 179
-0.139807 -0.164638 0.483727 128 254 179
-0.11158 -0.357499 0.372425 128 254 179
-0.122286 -0.138177 0.321327 128 254 179
-0.114515 -0.302385 0.366041 128 254 179
-0.121853 -0.133837 0.361975 128 254 179
-0.119624 -0.330926 0.439764 128 254 179
-0.117817 -0.198078 0.432618 128 254 179
-0.119153 -0.183272 0.365122 128 254 179
-0.121947 -0.118465 0.285868 128 254 179
-0.114613 -0.300557 0.438246 128 254 179
-0.151258 -0.252887 0.490319 128 254 179
-0.11236 -0.326157 0.429565 128 254 179
-0.114122 -0.394962 0.230363 128 254 179
-0.127067 -0.119261 0.461613 128 254 179
-0.114206 -0.31899 0.339607 128 254 179
-0.137998 -0.223645 0.484799 128 254 179
-0.128737 -0.200678 0.47578 128 254 179
-0.116131 -0.20484 0.410815 128 254 179
-0.143067 -0.13457 0.480794 128 254 179
-0.119406 -0.213002 0.439352 128 254 179
-0.123265 -0.212156 0.456501 128 254 179
-0.121938 -0.11815 0.295593 128 254 179
-0.115642 -0.29094 0.435512 128 254 179
-0.116413 -0.218973 0.426334 128 254 179
-0.11592 -0.300876 0.288755 128 254 179
-0.12592 -0.18253 0.468472 128 254 179
-0.124455 -0.428021 0.20452 128 254 179
-0.116478 -0.419932 0.233233 128 254 179
-0.116355 -0.228683 0.424311 128 254 179
-0.116902 -0.303777 0.260737 128 254 179
-0.115428 -0.36495 0.368992 128 254 179
-0.111021 -0.356353 0.305931 128 254 179
-0.113485 -0.303109 0.397692 128 254 179
-0.117526 -0.199818 0.354679 128 254 179
-0.115395 -0.184966 0.426389 128 254 179
-0.118229 -0.430608 0.218211 128 254 179
-0.138562 -0.132267 0.479619 128 254 179
-0.124386 -0.332912 0.450421 128 254 179
-0.12325 -0.217879 0.456535 128 254 179
-0.122245 -0.140409 0.302953 128 254 179
-0.1154 -0.228509 0.360688 128 254 179
-0.124819 -0.321906 0.464695 128 254 179
-0.132159 -0.329932 0.459373 128 254 179
-0.110924 -0.319304 0.383094 128 254 179
-0.120557 -0.170988 0.44401 128 254 179
-0.12207 -0.129807 0.421583 128 254 179
-0.116419 -0.212642 0.413712 128 254 179
-0.124247 -0.27345 0.466158 128 254 179
-0.121018 -0.0886356 0.349308 128 254 179
-0.112747 -0.329229 0.339248 128 254 179
-0.117268 -0.294362 0.451287 128 254 179
-0.118964 -0.29719 0.454287 128 254 179
-0.118818 -0.156443 0.407295 128 254 179
-0.129721 -0.189821 0.480002 128 254 179
-0.131436 -0.269516 0.480321 128 254 179
-0.114214 -0.415292 0.222907 128 254 179
-0.115315 -0.223818 0.281923 128 254 179
-0.127037 -0.346802 0.425079 128 254 179
-0.125264 -0.356799 0.401921 128 254 179
-0.118502 -0.417621 0.257839 128 254 179
-0.108959 -0.373751 0.293777 128 254 179
-0.122143 -0.12532 0.389621 128 254 179
-0.114295 -0.412069 0.23779 128 254 179
-0.115054 -0.321828 0.437049 128 254 179
-0.120252 -0.176561 0.346054 128 254 179
-0.114776 -0.28074 0.336513 128 254 179
-0.10784 -0.328414 0.397188 128 254 179
-0.115346 -0.238533 0.356154 128 254 179
-0.116271 -0.404359 0.288904 128 254 179
-0.123451 -0.0934294 0.280008 128 254 179
-0.120598 -0.171124 0.354899 128 254 179
-0.114669 -0.250355 0.322147 128 254 179
-0.111193 -0.380962 0.276421 128 254 179
-0.121807 -0.136356 0.389136 128 254 179
-0.186976 -0.369801 0.191117 160 249 161
-0.214104 -0.30449 0.193928 160 249 161
-0.35395 -0.129953 0.17929 160 249 161
-0.292996 -0.302936 0.190817 160 249 161
-0.253578 -0.388161 0.19442 160 249 161
-0.327281 -0.244916 0.185398 160 249 161
-0.258644 -0.189685 0.198461 160 249 161
-0.270312 -0.37865 0.19407 160 249 161
-0.285912 -0.123528 0.190808 160 249 161
-0.340193 -0.0847215 0.188965 160 249 161
-0.346372 -0.367446 0.186855 160 249 161
-0.336797 -0.236456 0.192133 160 249 161
-0.301744 -0.083315 0.191047 160 249 161
-0.319985 -0.306002 0.185577 160 249 161
-0.281429 -0.371671 0.193623 160 249 161
-0.217485 -0.0761611 0.194032 160 249 161
-0.296157 -0.288875 0.190388 160 249 161
-0.323466 -0.088786 0.189533 160 249 161
-0.267476 -0.287963 0.195823 160 249 161
-0.334941 -0.23022 0.195353 160 249 161
-0.241943 -0.316113 0.194132 160 249 161
-0.332405 -0.37833 0.183817 160 249 161
-0.341193 -0.0707909 0.185238 160 249 161
-0.324688 -0.203363 0.187178 160 249 161
-0.278202 -0.172606 0.194858 160 249 161
-0.354294 -0.12116 0.182242 160 249 161
-0.334848 -0.335565 0.214954 160 249 161
-0.345213 -0.364019 0.195092 160 249 161
-0.19794 -0.329516 0.191877 160 249 161
-0.32444 -0.37637 0.185612 160 249 161
-0.245831 -0.342558 0.193618 160 249 161
-0.298099 -0.389356 0.189783 160 249 161
-0.347158 -0.350243 0.180547 160 249 161
-0.299461 -0.0504535 0.191552 160 249 161
-0.32843 -0.318125 0.183846 160 249 161
-0.353436 -0.318529 0.182943 160 249 161
-0.279582 -0.0988103 0.190002 160 249 161
-0.344918 -0.292497 0.193528 160 249 161
-0.312579 -0.131907 0.189441 160 249 161
-0.350002 -0.290341 0.176465 160 249 161
-0.24616 -0.185721 0.199122 160 249 161
-0.325799 -0.26199 0.209759 160 249 161
-0.229992 -0.321904 0.193712 160 249 161
-0.321131 -0.237242 0.186388 160 249 161
-0.34044 -0.270466 0.186329 160 249 161
-0.257246 -0.286377 0.196314 160 249 161
-0.342395 -0.29488 0.204691 160 249 161
-0.188304 -0.227877 0.19673 160 249 161
-0.321697 -0.164598 0.188362 160 249 161
-0.253247 -0.364409 0.193118 160 249 161
-0.196641 -0.382083 0.189485 160 249 161
-0.296829 -0.0793769 0.190881 160 249 161
-0.215373 -0.0809281 0.194489 160 249 161
-0.18796 -0.180401 0.197627 160 249 161
-0.274709 -0.322364 0.194674 160 249 161
-0.35333 -0.220418 0.180032 160 249 161
-0.185258 -0.378629 0.190769 160 249 161
-0.208805 -0.0995479 0.195611 160 249 161
-0.326934 -0.0716534 0.189266 160 249 161
-0.29066 -0.292582 0.191413 160 249 161
-0.265669 -0.243336 0.197701 160 249 161
-0.270137 -0.27852 0.195643 160 249 161
-0.350298 -0.304526 0.177196 160 249 161
-0.350084 -0.177587 0.178423 160 249 161
-0.282633 -0.362338 0.193384 160 249 161
-0.199796 -0.383591 0.189717 160 249 161
-0.340596 -0.309898 0.17987 160 249 161
-0.346229 -0.347081 0.180336 160 249 161
-0.342117 -0.169939 0.182542 160 249 161
-0.253689 -0.159034 0.197297 160 249 161
-0.346376 -0.1584 0.181079 160 249 161
-0.316811 -0.315806 0.186874 160 249 161
-0.278649 -0.334605 0.194079 160 249 161
-0.214103 -0.105983 0.195788 160 249 161
-0.356186 -0.172024 0.180029 160 249 161
-0.187423 -0.346303 0.192271 160 249 161
-0.279489 -0.112629 0.190757 160 249 161
-0.283333 -0.176135 0.194252 160 249 161
-0.324909 -0.127059 0.188784 160 249 161
-0.277832 -0.355957 0.193825 160 249 161
-0.356914 -0.147652 0.177885 160 249 161
-0.259562 -0.334379 0.194517 160 249 161
-0.356496 -0.188435 0.175858 160 249 161
-0.19116 -0.15235 0.197269 160 249 161
-0.263428 -0.373265 0.193467 160 249 161
-0.335403 -0.241985 0.182632 160 249 161
-0.276903 -0.158448 0.194195 160 249 161
-0.300043 -0.365387 0.191835 160 249 161
-0.34631 -0.166122 0.180737 160 249 161
-0.293372 -0.123567 0.189729 160 249 161
-0.316369 -0.278979 0.185881 160 249 161
-0.355323 -0.304144 0.179779 160 249 161
-0.237761 -0.290451 0.195401 160 249 161
-0.259027 -0.358614 0.193519 160 249 161
-0.296168 -0.280975 0.190535 160 249 161
-0.256837 -0.335126 0.194414 160 249 161
-0.319068 -0.319385 0.18656 160 249 161
-0.309072 -0.284799 0.187876 160 249 161
-0.283219 -0.364179 0.193322 160 249 161
-0.259389 -0.361501 0.193202 160 249 161
-0.20607 -0.364146 0.190664 160 249 161
-0.349384 -0.348466 0.187879 160 249 161
-0.281557 -0.147802 0.19292 160 249 161
-0.309208 -0.060876 0.190943 160 249 161
-0.174432 -0.378367 0.193452 160 249 161
-0.191686 -0.0565274 0.195144 160 249 161
-0.350598 -0.127518 0.186908 160 249 161
-0.198195 -0.342625 0.190897 160 249 161
-0.223897 -0.276872 0.195699 160 249 161
-0.279425 -0.245734 0.195778 160 249 161
-0.346182 -0.368285 0.185625 160 249 161
-0.343179 -0.247527 0.185586 160 249 161
-0.258492 -0.246748 0.198017 160 249 161
-0.260915 -0.347361 0.194066 160 249 161
-0.267056 -0.360327 0.193496 160 249 161
-0.351383 -0.263611 0.175423 160 249 161
-0.356454 -0.186047 0.17591 160 249 161
-0.323041 -0.265312 0.185121 160 249 161
-0.328294 -0.247072 0.185222 160 249 161
-0.341802 -0.103834 0.184791 160 249 161
-0.345127 -0.35934 0.198241 160 249 161
-0.332823 -0.383528 0.185572 160 249 161
-0.308567 -0.224186 0.188765 160 249 161
-0.345999 -0.212473 0.178899 160 249 161
-0.357963 -0.237394 0.176256 160 249 161
-0.344319 -0.336662 0.19951 160 249 161
-0.214766 -0.0588412 0.193204 160 249 161
-0.20672 -0.15098 0.198254 160 249 161
-0.340584 -0.222868 0.188685 160 249 161
-0.252315 -0.356185 0.193384 160 249 161
-0.221958 -0.0693855 0.19318 160 249 161
-0.312346 -0.297325 0.187188 160 249 161
-0.348302 -0.342919 0.192061 160 249 161
-0.205262 -0.164519 0.198468 160 249 161
-0.334517 -0.279894 0.19874 160 249 161
-0.327902 -0.210905 0.186248 160 249 161
-0.299766 -0.291374 0.189686 160 249 161
-0.334617 -0.307904 0.181897 160 249 161
-0.278829 -0.279774 0.194281 160 249 161
-0.228996 -0.214908 0.199446 160 249 161
-0.178304 -0.390146 0.191783 160 249 161
-0.196122 -0.26196 0.195039 160 249 161
-0.335026 -0.340706 0.182241 160 249 161
-0.315389 -0.348275 0.18867 160 249 161
-0.282651 -0.31931 0.1931 160 249 161
-0.307642 -0.142185 0.189264 160 249 161
-0.171732 -0.123439 0.195284 160 249 161
-0.338711 -0.264882 0.187666 160 249 161
-0.3225 -0.101149 0.189289 160 249 161
