ply
format ascii 1.0
comment Created by Open3D
element vertex 1170
property double x
property double y
property double z
property uchar red
property uchar green
property uchar blue
end_header
-0.436022 -0.240046 -0.131514 224 210 119
-0.340265 -0.275261 -0.127824 224 210 119
-0.416102 -0.386505 -0.143609 224 210 119
-0.0309227 -0.44454 -0.142187 224 210 119
-0.191379 -0.221935 -0.148188 224 210 119
0.0310823 -0.348739 -0.144765 224 210 119
-0.39273 -0.357681 -0.139003 224 210 119
-0.297731 -0.165386 -0.126398 224 210 119
-0.23747 -0.197992 -0.137675 224 210 119
-0.157082 -0.186187 -0.145933 224 210 119
-0.0013442 -0.165676 -0.145855 224 210 119
0.0204319 -0.352155 -0.145085 224 210 119
-0.127517 -0.229549 -0.148126 224 210 119
-0.282399 -0.257935 -0.135861 224 210 119
-0.208217 -0.400543 -0.151074 224 210 119
-0.330879 -0.193847 -0.120154 224 210 119
-0.0159611 -0.343386 -0.146151 224 210 119
-0.412067 -0.171452 -0.120563 224 210 119
-0.402903 -0.310483 -0.1337 224 210 119
-0.293781 -0.225913 -0.12854 224 210 119
-0.388633 -0.122171 -0.100742 224 210 119
-0.37094 -0.407827 -0.143636 224 210 119
-0.259106 -0.197497 -0.0971582 224 210 119
-0.42531 -0.180918 -0.120343 224 210 119
0.0673064 -0.163582 -0.145775 224 210 119
-0.420289 -0.406116 -0.144732 224 210 119
-0.33742 -0.12989 -0.120116 224 210 119
-0.112074 -0.177528 -0.146003 224 210 119
-0.362391 -0.124662 -0.114803 224 210 119
-0.318585 -0.343282 -0.142671 224 210 119
-0.126128 -0.150786 -0.145654 224 210 119
-0.0714258 -0.135354 -0.144127 224 210 119
-0.4593 -0.243889 -0.129356 224 210 119
-0.438055 -0.30276 -0.1388 224 210 119
-0.473917 -0.378527 -0.146357 224 210 119
0.0121333 -0.192538 -0.147598 224 210 119
-0.274547 -0.288483 -0.142421 224 210 119
-0.33361 -0.397025 -0.146166 224 210 119
-0.165357 -0.125348 -0.147571 224 210 119
-0.2584 -0.212148 -0.134127 224 210 119
-0.482322 -0.35361 -0.139334 224 210 119
-0.378621 -0.218504 -0.121546 224 210 119
-0.271902 -0.244839 -0.136122 224 210 119
-0.254382 -0.230879 -0.0941128 224 210 119
-0.328668 -0.4364 -0.148722 224 210 119
0.0586139 -0.428118 -0.139053 224 210 119
-0.328267 -0.350506 -0.141731 224 210 119
-0.337012 -0.134618 -0.123156 224 210 119
-0.00809206 -0.123397 -0.143958 224 210 119
-0.241591 -0.136146 -0.138225 224 210 119
-0.412521 -0.259937 -0.131558 224 210 119
-0.306688 -0.202869 -0.0728834 224 210 119
-0.155923 -0.230633 -0.148724 224 210 119
-0.253574 -0.17494 -0.132931 224 210 119
-0.237004 -0.427456 -0.149989 224 210 119
-0.255727 -0.440293 -0.149588 224 210 119
0.10208 -0.386354 -0.140144 224 210 119
-0.326361 -0.158503 -0.122722 224 210 119
-0.183544 -0.327672 -0.150917 224 210 119
0.0232216 -0.418584 -0.141334 224 210 119
0.0337677 -0.428143 -0.140229 224 210 119
-0.325773 -0.137607 -0.125205 224 210 119
-0.342397 -0.153299 -0.121224 224 210 119
-0.186971 -0.451433 -0.149518 224 210 119
-0.0389559 -0.168405 -0.145059 224 210 119
-0.351299 -0.308969 -0.131203 224 210 119
-0.41719 -0.298307 -0.134688 224 210 119
-0.344796 -0.155879 -0.120469 224 210 119
-0.261605 -0.18789 -0.0986728 224 210 119
-0.126576 -0.123584 -0.147306 224 210 119
-0.0488478 -0.131237 -0.14432 224 210 119
-0.429211 -0.219104 -0.127341 224 210 119
-0.467556 -0.362204 -0.146331 224 210 119
-0.31413 -0.13847 -0.127658 224 210 119
-0.227532 -0.324266 -0.151264 224 210 119
-0.216529 -0.163968 -0.116188 224 210 119
-0.40792 -0.146888 -0.115004 224 210 119
-0.19422 -0.347493 -0.0668579 224 210 119
0.183097 -0.140727 -0.144098 224 210 119
-0.310795 -0.239226 -0.126805 224 210 119
-0.212803 -0.138944 -0.139571 224 210 119
-0.105451 -0.126718 -0.146789 224 210 119
0.0553879 -0.434424 -0.139096 224 210 119
-0.0442127 -0.12089 -0.140917 224 210 119
-0.291464 -0.312745 -0.142465 224 210 119
-0.286933 -0.389302 -0.151336 224 210 119
-0.438896 -0.365856 -0.144161 224 210 119
-0.216509 -0.158878 -0.118004 224 210 119
-0.403102 -0.153554 -0.118716 224 210 119
-0.408086 -0.212098 -0.125207 224 210 119
-0.460777 -0.277078 -0.137258 224 210 119
-0.237451 -0.330307 -0.151623 224 210 119
-0.300922 -0.17231 -0.125621 224 210 119
-0.4275 -0.276004 -0.134682 224 210 119
-0.475639 -0.352402 -0.143746 224 210 119
-0.403819 -0.131832 -0.107002 224 210 119
-0.282268 -0.416329 -0.151256 224 210 119
-0.0473205 -0.207446 -0.145981 224 210 119
0.0446123 -0.383419 -0.143004 224 210 119
-0.0642739 -0.223572 -0.14612 224 210 119
0.146382 -0.137875 -0.144148 224 210 119
-0.184068 -0.284741 -0.0986205 224 210 119
0.0729348 -0.211286 -0.149549 224 210 119
-0.283126 -0.138255 -0.133684 224 210 119
0.0780985 -0.405563 -0.139961 224 210 119
-0.239956 -0.12491 -0.138024 224 210 119
0.0440656 -0.42511 -0.139868 224 210 119
-0.315231 -0.197277 -0.0673401 224 210 119
-0.217472 -0.138243 -0.138917 224 210 119
-0.238839 -0.197373 -0.100923 224 210 119
-0.293566 -0.148505 -0.130221 224 210 119
-0.159045 -0.333538 -0.0835146 224 210 119
0.104555 -0.296637 -0.149131 224 210 119
-0.114664 -0.364364 -0.149138 224 210 119
-0.461488 -0.361852 -0.146043 224 210 119
0.0311848 -0.199681 -0.149117 224 210 119
-0.404625 -0.135964 -0.110255 224 210 119
-0.0840583 -0.229765 -0.147128 224 210 119
0.0522201 -0.298942 -0.149626 224 210 119
-0.0998718 -0.405591 -0.147796 224 210 119
-0.451986 -0.248293 -0.132903 224 210 119
-0.261221 -0.409399 -0.150765 224 210 119
-0.401582 -0.15569 -0.119333 224 210 119
-0.173922 -0.129442 -0.145669 224 210 119
-0.204187 -0.178786 -0.142688 224 210 119
-0.440601 -0.315292 -0.140301 224 210 119
-0.380944 -0.386183 -0.141201 224 210 119
-0.181077 -0.328094 -0.0833412 224 210 119
-0.283954 -0.324175 -0.146313 224 210 119
-0.341982 -0.401773 -0.145266 224 210 119
-0.324421 -0.189179 -0.121158 224 210 119
-0.0147854 -0.120297 -0.142532 224 210 119
0.011132 -0.228034 -0.149298 224 210 119
-0.375006 -0.15448 -0.120365 224 210 119
-0.173381 -0.206396 -0.147394 224 210 119
-0.279958 -0.327346 -0.147692 224 210 119
-0.255482 -0.225787 -0.09431 224 210 119
-0.132128 -0.337489 -0.150683 224 210 119
-0.29643 -0.337487 -0.145862 224 210 119
-0.400467 -0.331213 -0.136444 224 210 119
-0.230822 -0.378785 -0.151966 224 210 119
-0.124962 -0.149029 -0.139851 224 210 119
-0.1078 -0.450714 -0.146943 224 210 119
-0.125707 -0.169243 -0.145696 224 210 119
-0.459381 -0.326843 -0.143591 224 210 119
0.0621126 -0.330212 -0.14528 224 210 119
-0.0573891 -0.42408 -0.144578 224 210 119
-0.280218 -0.165021 -0.129163 224 210 119
0.0765036 -0.419203 -0.138718 224 210 119
-0.32673 -0.311756 -0.134597 224 210 119
-0.0717587 -0.2957 -0.147327 224 210 119
-0.398979 -0.334471 -0.136761 224 210 119
0.0323445 -0.129383 -0.144721 224 210 119
-0.444537 -0.328739 -0.142128 224 210 119
-0.415045 -0.165793 -0.11892 224 210 119
-0.233033 -0.261967 -0.148751 224 210 119
-0.169054 -0.330463 -0.0837182 224 210 119
-0.338891 -0.230424 -0.121305 224 210 119
0.0692316 -0.376886 -0.141961 224 210 119
0.00752116 -0.325546 -0.147254 224 210 119
-0.112067 -0.173388 -0.145966 224 210 119
-0.397331 -0.36563 -0.140203 224 210 119
-0.321879 -0.192963 -0.121345 224 210 119
-0.135501 -0.202185 -0.146954 224 210 119
-0.271336 -0.390631 -0.151736 224 210 119
-0.2069 -0.254858 -0.149511 224 210 119
0.0530903 -0.246756 -0.151148 224 210 119
-0.122222 -0.200172 -0.113333 224 210 119
-0.394172 -0.130106 -0.111454 224 210 119
0.0642525 -0.361796 -0.142888 224 210 119
-0.237881 -0.31838 -0.151204 224 210 119
-0.271055 -0.134075 -0.119371 224 210 119
-0.383762 -0.151079 -0.11977 224 210 119
-0.315132 -0.319165 -0.138738 224 210 119
-0.383756 -0.299075 -0.129495 224 210 119
0.120977 -0.356621 -0.141822 224 210 119
-0.238199 -0.210527 -0.0998374 224 210 119
-0.169056 -0.329166 -0.0845789 224 210 119
-0.445884 -0.213276 -0.122104 224 210 119
-0.0789145 -0.360847 -0.147483 224 210 119
-0.368954 -0.252854 -0.123866 224 210 119
-0.411174 -0.192871 -0.123252 224 210 119
0.0544823 -0.262761 -0.151009 224 210 119
-0.31426 -0.179599 -0.0793783 224 210 119
0.0330244 -0.12773 -0.144302 224 210 119
-0.0303654 -0.176711 -0.14536 224 210 119
-0.242084 -0.336263 -0.0582965 224 210 119
-0.407266 -0.382024 -0.142585 224 210 119
-0.405958 -0.398219 -0.143145 224 210 119
-0.366507 -0.151305 -0.12019 224 210 119
-0.447151 -0.343929 -0.143584 224 210 119
0.0527121 -0.206004 -0.149327 224 210 119
-0.224279 -0.123008 -0.140222 224 210 119
-0.0761721 -0.11975 -0.146153 224 210 119
0.0102477 -0.242494 -0.150062 224 210 119
0.0790355 -0.289757 -0.150041 224 210 119
-0.407427 -0.243361 -0.129297 224 210 119
-0.118156 -0.408144 -0.148541 224 210 119
-0.173738 -0.139048 -0.145098 224 210 119
-0.344332 -0.277842 -0.12752 224 210 119
-0.229371 -0.175017 -0.137249 224 210 119
-0.238781 -0.246369 -0.145008 224 210 119
-0.27371 -0.383169 -0.151752 224 210 119
-0.293265 -0.392833 -0.151219 224 210 119
-0.0221497 -0.375723 -0.144583 224 210 119
-0.367868 -0.29817 -0.128145 224 210 119
-0.165113 -0.232423 -0.148853 224 210 119
-0.354368 -0.125319 -0.116494 224 210 119
-0.325462 -0.191542 -0.12096 224 210 119
-0.297826 -0.218265 -0.126223 224 210 119
-0.336885 -0.410109 -0.146931 224 210 119
-0.126338 -0.256988 -0.149306 224 210 119
-0.385244 -0.147562 -0.119379 224 210 119
-0.0610619 -0.337338 -0.146623 224 210 119
-0.0501206 -0.381719 -0.144681 224 210 119
-0.0429277 -0.319219 -0.146262 224 210 119
-0.46997 -0.326978 -0.14328 224 210 119
-0.248796 -0.136804 -0.137381 224 210 119
-0.427053 -0.200643 -0.124156 224 210 119
-0.290048 -0.19329 -0.126567 224 210 119
-0.395749 -0.298808 -0.131 224 210 119
-0.319342 -0.169467 -0.123096 224 210 119
-0.153046 -0.185681 -0.145952 224 210 119
0.0179237 -0.354648 -0.145153 224 210 119
-0.297778 -0.227599 -0.0718746 224 210 119
-0.361292 -0.185455 -0.118641 224 210 119
-0.356165 -0.421214 -0.1456 224 210 119
-0.215604 -0.347785 -0.0585215 224 210 119
-0.325487 -0.394342 -0.147382 224 210 119
-0.410578 -0.295927 -0.133318 224 210 119
-0.270148 -0.186977 -0.130215 224 210 119
0.0721581 -0.230032 -0.150729 224 210 119
-0.208058 -0.152417 -0.140267 224 210 119
-0.263667 -0.244242 -0.137827 224 210 119
-0.339729 -0.21316 -0.119377 224 210 119
-0.440156 -0.249581 -0.13355 224 210 119
0.0683483 -0.292884 -0.149889 224 210 119
-0.185329 -0.148985 -0.131596 224 210 119
-0.0106749 -0.453304 -0.140863 224 210 119
-0.324989 -0.399266 -0.147927 224 210 119
-0.306215 -0.374167 -0.148501 224 210 119
0.0984669 -0.257929 -0.150267 224 210 119
-0.22008 -0.325214 -0.0769686 224 210 119
0.021364 -0.368427 -0.144641 224 210 119
-0.0917831 -0.452454 -0.145973 224 210 119
-0.262369 -0.355052 -0.152015 224 210 119
-0.26767 -0.399054 -0.15129 224 210 119
-0.381652 -0.262856 -0.126472 224 210 119
-0.442996 -0.265956 -0.135275 224 210 119
0.0614389 -0.185681 -0.147219 224 210 119
-0.274546 -0.179748 -0.129585 224 210 119
0.113184 -0.18654 -0.147737 224 210 119
-0.336886 -0.130119 -0.120441 224 210 119
-0.277298 -0.267711 -0.0739023 224 210 119
-0.4118 -0.165554 -0.119458 224 210 119
0.128118 -0.241163 -0.149836 224 210 119
-0.0160118 -0.133162 -0.144677 224 210 119
-0.344891 -0.252624 -0.123464 224 210 119
-0.00593557 -0.200406 -0.147566 224 210 119
-0.255048 -0.40618 -0.150599 224 210 119
-0.453991 -0.342146 -0.144465 224 210 119
0.123315 -0.170517 -0.146416 224 210 119
0.137822 -0.164445 -0.146034 224 210 119
-0.151347 -0.167589 -0.123762 224 210 119
0.00152273 -0.151135 -0.145635 224 210 119
0.113621 -0.268806 -0.150045 224 210 119
-0.0759903 -0.129596 -0.144261 224 210 119
-0.209356 -0.329722 -0.151147 224 210 119
-0.291935 -0.127426 -0.118596 224 210 119
-0.168457 -0.35344 -0.151622 224 210 119
-0.304802 -0.436877 -0.149755 224 210 119
-0.0503002 -0.1425 -0.144328 224 210 119
-0.10925 -0.310729 -0.149175 224 210 119
-0.382954 -0.377181 -0.140277 224 210 119
-0.307236 -0.335731 -0.143513 224 210 119
0.166092 -0.145545 -0.144722 224 210 119
-0.144069 -0.368248 -0.150853 224 210 119
-0.138384 -0.150433 -0.146005 224 210 119
-0.00101479 -0.40737 -0.143371 224 210 119
-0.226052 -0.18936 -0.139539 224 210 119
0.0308836 -0.12569 -0.143746 224 210 119
-0.270005 -0.219596 -0.132742 224 210 119
-0.334438 -0.344679 -0.139829 224 210 119
-0.275523 -0.433164 -0.150313 224 210 119
-0.331885 -0.122983 -0.11329 224 210 119
-0.258238 -0.173837 -0.103525 224 210 119
-0.35452 -0.41903 -0.145701 224 210 119
-0.359763 -0.372849 -0.13923 224 210 119
-0.427024 -0.285547 -0.135219 224 210 119
-0.00300095 -0.121823 -0.143413 224 210 119
-0.263967 -0.286939 -0.144845 224 210 119
-0.391459 -0.243704 -0.126026 224 210 119
-0.351479 -0.327437 -0.134801 224 210 119
-0.0444879 -0.290734 -0.148028 224 210 119
-0.168628 -0.220866 -0.148583 224 210 119
-0.440647 -0.207159 -0.122066 224 210 119
-0.270086 -0.146368 -0.11443 224 210 119
-0.266121 -0.281933 -0.143926 224 210 119
-0.031288 -0.441732 -0.142222 224 210 119
0.138798 -0.320623 -0.145778 224 210 119
-0.322299 -0.16787 -0.122788 224 210 119
-0.347013 -0.3523 -0.13837 224 210 119
-0.18574 -0.452189 -0.1494 224 210 119
0.15127 -0.18286 -0.148385 224 210 119
-0.0427736 -0.20568 -0.146023 224 210 119
0.11098 -0.181395 -0.147155 224 210 119
-0.393862 -0.376741 -0.141019 224 210 119
-0.351441 -0.395696 -0.143845 224 210 119
0.00597425 -0.357751 -0.145614 224 210 119
-0.180817 -0.117201 -0.144946 224 210 119
-0.281192 -0.226681 -0.131596 224 210 119
-0.113962 -0.36094 -0.149148 224 210 119
-0.162708 -0.219663 -0.148491 224 210 119
-0.118098 -0.441943 -0.147595 224 210 119
-0.314764 -0.40865 -0.150184 224 210 119
-0.0451597 -0.299911 -0.147558 224 210 119
-0.20551 -0.17029 -0.141704 224 210 119
-0.0621822 -0.394209 -0.145587 224 210 119
-0.251933 -0.131465 -0.124307 224 210 119
-0.325545 -0.374928 -0.145455 224 210 119
-0.294923 -0.330734 -0.145094 224 210 119
0.00707482 -0.271074 -0.150712 224 210 119
0.0100166 -0.130225 -0.144642 224 210 119
-0.206504 -0.130922 -0.142367 224 210 119
0.10482 -0.215643 -0.149627 224 210 119
-0.404457 -0.314203 -0.134419 224 210 119
0.0943265 -0.242042 -0.150375 224 210 119
-0.0677813 -0.421901 -0.146062 224 210 119
-0.263502 -0.135097 -0.1367 224 210 119
-0.388082 -0.220297 -0.123121 224 210 119
-0.409338 -0.158748 -0.118599 224 210 119
0.145271 -0.14405 -0.144699 224 210 119
-0.324965 -0.269985 -0.129549 224 210 119
-0.350577 -0.33451 -0.13591 224 210 119
-0.0312887 -0.265093 -0.149142 224 210 119
-0.224199 -0.12452 -0.142287 224 210 119
-0.403838 -0.199152 -0.122979 224 210 119
0.14251 -0.162035 -0.145901 224 210 119
-0.324657 -0.185077 -0.0646027 224 210 119
-0.282668 -0.131929 -0.133414 224 210 119
0.0906331 -0.254813 -0.150388 224 210 119
-0.279532 -0.216804 -0.0866392 224 210 119
-0.310128 -0.124934 -0.11897 224 210 119
-0.391448 -0.361439 -0.139353 224 210 119
-0.275557 -0.365813 -0.151701 224 210 119
-0.324803 -0.256158 -0.126907 224 210 119
-0.248629 -0.217759 -0.137193 224 210 119
-0.35351 -0.218405 -0.119476 224 210 119
-0.430763 -0.358517 -0.142717 224 210 119
-0.115195 -0.122893 -0.147141 224 210 119
-0.0459401 -0.21306 -0.146276 224 210 119
-0.0479217 -0.321858 -0.146126 224 210 119
0.0371149 -0.257776 -0.151396 224 210 119
-0.238731 -0.240884 -0.143952 224 210 119
-0.341875 -0.132954 -0.121643 224 210 119
-0.29097 -0.137578 -0.132305 224 210 119
-0.16045 -0.180504 -0.116245 224 210 119
-0.348211 -0.344525 -0.137357 224 210 119
-0.377092 -0.260968 -0.125668 224 210 119
-0.374258 -0.230426 -0.121864 224 210 119
-0.0794553 -0.363856 -0.147493 224 210 119
-0.350151 -0.146179 -0.0832139 224 210 119
-0.399117 -0.284347 -0.130018 224 210 119
-0.0905243 -0.143594 -0.144911 224 210 119
-0.368999 -0.397929 -0.142689 224 210 119
-0.0841583 -0.152901 -0.144891 224 210 119
-0.175877 -0.318469 -0.150496 224 210 119
-0.405203 -0.134235 -0.108259 224 210 119
-0.183627 -0.254013 -0.149482 224 210 119
-0.0460332 -0.229806 -0.147347 224 210 119
-0.212667 -0.15922 -0.139535 224 210 119
0.012117 -0.37851 -0.144608 224 210 119
-0.423929 -0.248653 -0.131906 224 210 119
-0.0174201 -0.132613 -0.144647 224 210 119
-0.0952363 -0.160087 -0.145469 224 210 119
-0.347088 -0.405216 -0.145178 224 210 119
-0.173579 -0.221238 -0.148544 224 210 119
-0.0445174 -0.122914 -0.143872 224 210 119
0.0158427 -0.405915 -0.14285 224 210 119
-0.188124 -0.120682 -0.141435 224 210 119
0.0687125 -0.184078 -0.147033 224 210 119
-0.0666167 -0.288183 -0.147417 224 210 119
-0.285243 -0.198251 -0.127396 224 210 119
-0.41821 -0.196782 -0.124319 224 210 119
-0.314641 -0.23364 -0.125101 224 210 119
-0.246301 -0.310487 -0.150266 224 210 119
-0.477344 -0.31296 -0.136773 224 210 119
-0.323452 -0.166306 -0.122703 224 210 119
-0.385114 -0.393352 -0.142265 224 210 119
-0.162854 -0.28556 -0.149222 224 210 119
-0.409167 -0.410835 -0.143737 224 210 119
-0.410631 -0.236402 -0.128763 224 210 119
0.0302311 -0.418306 -0.140997 224 210 119
-0.169825 -0.156027 -0.145595 224 210 119
0.150559 -0.177401 -0.147738 224 210 119
-0.338587 -0.308403 -0.132489 224 210 119
-0.144596 -0.321082 -0.0933529 224 210 119
-0.325431 -0.149352 -0.124106 224 210 119
-0.197248 -0.190918 -0.14404 224 210 119
-0.439278 -0.281407 -0.137044 224 210 119
-0.407291 -0.259106 -0.130442 224 210 119
-0.422208 -0.353531 -0.141292 224 210 119
-0.38825 -0.128418 -0.112011 224 210 119
0.0894783 -0.41911 -0.138663 224 210 119
0.166898 -0.169244 -0.146872 224 210 119
-0.453214 -0.238919 -0.129635 224 210 119
-0.211331 -0.141106 -0.139712 224 210 119
-0.13285 -0.444793 -0.147927 224 210 119
0.118385 -0.229843 -0.149927 224 210 119
-0.376953 -0.2408 -0.123193 224 210 119
-0.298072 -0.130906 -0.129972 224 210 119
-0.282854 -0.393891 -0.151334 224 210 119
-0.350826 -0.248704 -0.122692 224 210 119
-0.126627 -0.11465 -0.150237 224 210 119
-0.140925 -0.339748 -0.150911 224 210 119
-0.128682 -0.359886 -0.150246 224 210 119
-0.254025 -0.246192 -0.141128 224 210 119
0.104481 -0.141938 -0.144528 224 210 119
-0.467802 -0.372084 -0.146743 224 210 119
-0.22795 -0.177766 -0.10794 224 210 119
-0.349642 -0.313095 -0.132188 224 210 119
-0.339718 -0.405962 -0.146008 224 210 119
-0.258706 -0.185824 -0.132417 224 210 119
-0.344885 -0.355179 -0.139058 224 210 119
-0.302716 -0.130648 -0.128416 224 210 119
-0.00910915 -0.398815 -0.143646 224 210 119
-0.140481 -0.298463 -0.101311 224 210 119
0.0443951 -0.167517 -0.14636 224 210 119
-0.351787 -0.140963 -0.121658 224 210 119
-0.00319746 -0.382978 -0.144796 224 210 119
-0.321953 -0.308105 -0.134563 224 210 119
-0.2341 -0.162218 -0.1358 224 210 119
-0.0852623 -0.198593 -0.146249 224 210 119
-0.412952 -0.298428 -0.134001 224 210 119
-0.302091 -0.364492 -0.148063 224 210 119
-0.368265 -0.374187 -0.139407 224 210 119
-0.371044 -0.406061 -0.143503 224 210 119
-0.110345 -0.182963 -0.146227 224 210 119
-0.433667 -0.329637 -0.140864 224 210 119
-0.402678 -0.290746 -0.13131 224 210 119
-0.141744 -0.351388 -0.151229 224 210 119
-0.25693 -0.183964 -0.100836 224 210 119
0.0803152 -0.141816 -0.144752 224 210 119
0.160073 -0.247055 -0.150387 224 210 119
-0.384187 -0.125605 -0.110126 224 210 119
-0.109657 -0.197088 -0.116512 224 210 119
-0.127523 -0.269199 -0.109999 224 210 119
-0.282936 -0.191691 -0.127835 224 210 119
0.00694808 -0.39122 -0.143922 224 210 119
-0.224824 -0.3201 -0.151043 224 210 119
-0.222285 -0.29894 -0.149918 224 210 119
0.0328057 -0.330272 -0.145866 224 210 119
-0.481677 -0.348961 -0.139292 224 210 119
-0.145862 -0.147058 -0.146201 224 210 119
-0.197106 -0.300288 -0.150053 224 210 119
-0.400864 -0.161241 -0.120205 224 210 119
-0.0903771 -0.142318 -0.144908 224 210 119
-0.0900486 -0.327473 -0.148341 224 210 119
-0.234212 -0.189948 -0.137589 224 210 119
0.0373239 -0.454985 -0.138854 224 210 119
-0.334399 -0.168821 -0.121136 224 210 119
-0.37188 -0.122779 -0.108874 224 210 119
-0.223018 -0.372048 -0.151886 224 210 119
0.109564 -0.267978 -0.150125 224 210 119
-0.408032 -0.413675 -0.143786 224 210 119
-0.302165 -0.141308 -0.129683 224 210 119
-0.141085 -0.348563 -0.151197 224 210 119
-0.279929 -0.136984 -0.134427 224 210 119
0.0629498 -0.166455 -0.145993 224 210 119
0.0854257 -0.438467 -0.138117 224 210 119
-0.319829 -0.198869 -0.12154 224 210 119
-0.0630645 -0.239673 -0.146955 224 210 119
-0.45317 -0.372279 -0.146025 224 210 119
-0.285834 -0.174851 -0.127906 224 210 119
-0.301261 -0.38518 -0.150216 224 210 119
-0.146649 -0.187737 -0.146121 224 210 119
-0.0521528 -0.343569 -0.145906 224 210 119
0.0128384 -0.211165 -0.148772 224 210 119
0.024652 -0.134238 -0.145263 224 210 119
-0.227497 -0.182635 -0.106182 224 210 119
-0.271645 -0.319897 -0.148125 224 210 119
-0.181342 -0.430282 -0.150417 224 210 119
-0.395274 -0.23077 -0.125488 224 210 119
-0.1657 -0.239778 -0.148913 224 210 119
-0.415738 -0.479992 0.0169322 255 178 96
-0.277895 -0.487494 -0.0668371 255 178 96
-0.192789 -0.480312 0.321607 255 178 96
-0.0796197 -0.487842 0.357072 255 178 96
-0.162313 -0.488147 0.267705 255 178 96
-0.068092 -0.396187 0.365881 255 178 96
-0.161187 -0.488041 0.0866894 255 178 96
-0.112185 -0.466054 0.366407 255 178 96
-0.369919 -0.472738 0.170304 255 178 96
-0.255838 -0.478271 0.274884 255 178 96
-0.125016 -0.380406 0.343513 255 178 96
-0.0992118 -0.487756 0.215519 255 178 96
-0.20486 -0.48727 -0.075205 255 178 96
-0.291192 -0.417136 0.258787 255 178 96
-0.156829 -0.4699 0.343461 255 178 96
-0.106205 -0.488051 0.308947 255 178 96
-0.20349 -0.434224 0.310364 255 178 96
-0.363265 -0.478913 0.146821 255 178 96
-0.240993 -0.488108 0.159642 255 178 96
0.137079 -0.484712 -0.071923 255 178 96
-0.0295457 -0.488153 0.245621 255 178 96
-0.226525 -0.48792 0.018093 255 178 96
-0.377806 -0.448811 0.168971 255 178 96
-0.342477 -0.485162 0.136117 255 178 96
-0.386311 -0.444698 0.151361 255 178 96
-0.0425446 -0.487887 0.00964613 255 178 96
-0.111709 -0.488052 0.315113 255 178 96
-0.396824 -0.487773 -0.0237387 255 178 96
-0.0486482 -0.488018 0.037148 255 178 96
-0.265835 -0.414566 0.272055 255 178 96
-0.373645 -0.473675 0.161392 255 178 96
-0.0315879 -0.488082 0.336328 255 178 96
-0.0119856 -0.487965 0.164568 255 178 96
-0.0593473 -0.458423 0.372314 255 178 96
-0.0410371 -0.488083 0.334807 255 178 96
-0.296952 -0.481259 0.229544 255 178 96
-0.334426 -0.474173 0.213173 255 178 96
-0.384526 -0.487573 -0.0566579 255 178 96
-0.312867 -0.478689 0.223468 255 178 96
-0.294695 -0.47627 0.250713 255 178 96
-0.350291 -0.418502 0.200904 255 178 96
-0.38455 -0.461911 0.155446 255 178 96
-0.402932 -0.481161 0.0674428 255 178 96
-0.177506 -0.487901 0.0277945 255 178 96
-0.0154758 -0.44309 0.36712 255 178 96
-0.193231 -0.398638 0.292543 255 178 96
-0.278975 -0.483472 0.233928 255 178 96
-0.350346 -0.488188 0.0967852 255 178 96
-0.158811 -0.488194 0.293393 255 178 96
-0.117246 -0.412801 0.356375 255 178 96
-0.30042 -0.473699 0.25168 255 178 96
-0.158754 -0.486975 0.330402 255 178 96
-0.353178 -0.483844 0.122385 255 178 96
-0.3521 -0.470598 0.199391 255 178 96
-0.124593 -0.487975 0.290226 255 178 96
-0.272165 -0.476776 0.267821 255 178 96
-0.0184401 -0.488009 0.0279902 255 178 96
-0.327521 -0.488009 -0.0073086 255 178 96
-0.21193 -0.487956 0.170484 255 178 96
-0.404495 -0.487761 -0.019645 255 178 96
-0.21966 -0.480295 0.2996 255 178 96
-0.114066 -0.487541 -0.046049 255 178 96
-0.409383 -0.487464 -0.0554761 255 178 96
-0.205091 -0.480166 0.313985 255 178 96
-0.10799 -0.379344 0.353902 255 178 96
0.0243315 -0.483663 -0.114569 255 178 96
-0.133482 -0.469573 0.356647 255 178 96
-0.286635 -0.465924 0.269398 255 178 96
-0.40779 -0.48282 0.0411451 255 178 96
-0.15182 -0.391016 0.319891 255 178 96
-0.216441 -0.488298 0.232632 255 178 96
-0.0814275 -0.477206 0.368466 255 178 96
-0.293011 -0.488398 0.167389 255 178 96
-0.284846 -0.450167 0.269423 255 178 96
0.0263284 -0.487912 0.0138697 255 178 96
-0.186026 -0.477311 0.325757 255 178 96
-0.414065 -0.487383 -0.0637915 255 178 96
-0.231669 -0.480251 0.28848 255 178 96
-0.108439 -0.487756 0.218933 255 178 96
-0.0958147 -0.488033 0.325628 255 178 96
-0.308958 -0.47704 0.235388 255 178 96
-0.360032 -0.477242 0.164918 255 178 96
0.123613 -0.483562 -0.095337 255 178 96
-0.315318 -0.457518 0.249415 255 178 96
-0.357002 -0.47722 0.170113 255 178 96
-0.411637 -0.451383 0.0869839 255 178 96
-0.268606 -0.422892 0.274952 255 178 96
-0.17335 -0.488265 0.280707 255 178 96
-0.357215 -0.466367 0.200222 255 178 96
0.0252048 -0.486939 0.368533 255 178 96
-0.152118 -0.379142 0.303423 255 178 96
-0.317261 -0.482052 0.200933 255 178 96
-0.162127 -0.488144 0.267003 255 178 96
-0.125103 -0.487998 0.297098 255 178 96
-0.134625 -0.374201 0.33523 255 178 96
-0.165929 -0.487017 -0.0932315 255 178 96
-0.304557 -0.475174 0.244587 255 178 96
-0.154907 -0.395534 0.323745 255 178 96
-0.306063 -0.488447 0.155341 255 178 96
-0.0869819 -0.488094 0.287802 255 178 96
-0.372613 -0.461392 0.180088 255 178 96
-0.120453 -0.487824 0.247609 255 178 96
-0.313892 -0.487838 -0.0283018 255 178 96
-0.400617 -0.48795 0.00636451 255 178 96
-0.290056 -0.483258 0.223541 255 178 96
-0.419435 -0.471449 0.0283964 255 178 96
-0.0719862 -0.488132 0.323585 255 178 96
-0.24287 -0.486405 0.234638 255 178 96
-0.0434137 -0.485969 0.366755 255 178 96
-0.0356271 -0.488019 0.219198 255 178 96
-0.226668 -0.407381 0.282453 255 178 96
-0.088686 -0.487702 0.156404 255 178 96
-0.100948 -0.484932 0.359983 255 178 96
-0.148342 -0.487954 0.0423186 255 178 96
-0.049632 -0.487848 0.357804 255 178 96
-0.0391346 -0.478071 0.371584 255 178 96
-0.318599 -0.477655 0.221385 255 178 96
-0.343166 -0.462325 0.221247 255 178 96
-0.25345 -0.418543 0.279483 255 178 96
-0.364057 -0.487359 -0.0785803 255 178 96
-0.198224 -0.48491 0.295923 255 178 96
-0.21027 -0.479131 0.313733 255 178 96
-0.176081 -0.44662 0.329726 255 178 96
-0.227026 -0.488338 0.224975 255 178 96
-0.190958 -0.460063 0.324769 255 178 96
-0.0825166 -0.488175 0.314481 255 178 96
-0.269265 -0.39464 0.256805 255 178 96
-0.194615 -0.485701 0.294811 255 178 96
-0.291069 -0.416406 0.258657 255 178 96
-0.080882 -0.479494 0.367044 255 178 96
-0.271159 -0.486078 0.21373 255 178 96
-0.188258 -0.468142 0.326212 255 178 96
-0.138396 -0.477353 0.351695 255 178 96
-0.21217 -0.376376 0.267594 255 178 96
-0.39518 -0.487576 -0.053231 255 178 96
-0.159961 -0.488122 0.265072 255 178 96
-0.392964 -0.487637 -0.045295 255 178 96
-0.402036 -0.487659 0.0302756 255 178 96
-0.16858 -0.488301 0.307895 255 178 96
-0.181747 -0.487816 0.169993 255 178 96
0.0225067 -0.487674 -0.0214414 255 178 96
-0.410617 -0.487652 -0.0299449 255 178 96
-0.0767719 -0.487797 0.14305 255 178 96
0.00919081 -0.488053 0.0360603 255 178 96
-0.395449 -0.483863 0.0676625 255 178 96
-0.277922 -0.487753 -0.0348126 255 178 96
-0.0954263 -0.406055 0.364399 255 178 96
-0.403679 -0.487935 0.0169259 255 178 96
0.0245865 -0.488363 0.319392 255 178 96
-0.180946 -0.45514 0.329832 255 178 96
-0.102688 -0.487906 0.341901 255 178 96
-0.305328 -0.486012 0.185893 255 178 96
-0.248543 -0.475673 0.291178 255 178 96
-0.187442 -0.488275 0.268053 255 178 96
-0.147599 -0.400809 0.333054 255 178 96
-0.307355 -0.485503 0.187687 255 178 96
-0.195771 -0.488176 0.233261 255 178 96
0.0404024 -0.488351 0.231104 255 178 96
-0.10395 -0.412121 0.362219 255 178 96
-0.288538 -0.488433 0.100944 255 178 96
-0.301094 -0.48715 -0.10659 255 178 96
0.00497361 -0.423994 0.361102 255 178 96
-0.147769 -0.487919 0.0285553 255 178 96
-0.0725336 -0.426407 0.370173 255 178 96
0.0117672 -0.488144 0.149082 255 178 96
-0.206166 -0.466433 0.317007 255 178 96
0.0507664 -0.4882 0.176978 255 178 96
-0.158601 -0.481618 0.338616 255 178 96
-0.258484 -0.4882 0.165075 255 178 96
-0.238306 -0.455423 0.298618 255 178 96
-0.16302 -0.488267 0.306292 255 178 96
-0.344286 -0.481141 0.166113 255 178 96
-0.244581 -0.40522 0.274776 255 178 96
-0.323184 -0.482145 0.191935 255 178 96
-0.176317 -0.479061 0.330344 255 178 96
-0.147424 -0.487716 0.172343 255 178 96
-0.129321 -0.487696 -0.0184204 255 178 96
-0.333534 -0.477055 0.206267 255 178 96
-0.326813 -0.469861 0.231143 255 178 96
0.0540042 -0.488242 0.191642 255 178 96
-0.141428 -0.48798 0.115272 255 178 96
-0.289062 -0.46911 0.267196 255 178 96
-0.179459 -0.485622 0.31611 255 178 96
-0.309348 -0.401957 0.240088 255 178 96
-0.119629 -0.48803 0.324307 255 178 96
-0.373183 -0.487332 -0.0783934 255 178 96
-0.254185 -0.484769 0.241505 255 178 96
-0.117212 -0.487702 -0.017981 255 178 96
-0.324533 -0.480399 0.200419 255 178 96
-0.258724 -0.488197 0.180981 255 178 96
-0.0202578 -0.488177 0.241129 255 178 96
-0.41036 -0.473818 0.0744762 255 178 96
-0.24239 -0.48811 0.0484551 255 178 96
-0.163838 -0.486828 -0.0985884 255 178 96
-0.220137 -0.461874 0.309296 255 178 96
-0.0362824 -0.487848 0.174663 255 178 96
-0.110081 -0.488027 0.0817974 255 178 96
-0.20836 -0.481277 0.306743 255 178 96
-0.277808 -0.437475 0.27197 255 178 96
-0.190042 -0.488131 0.230805 255 178 96
-0.329627 -0.487701 -0.0503065 255 178 96
-0.101968 -0.487686 0.164872 255 178 96
-0.158339 -0.487979 0.0538348 255 178 96
-0.341637 -0.481084 0.17176 255 178 96
-0.338535 -0.4881 0.00189731 255 178 96
-0.102761 -0.488072 0.308331 255 178 96
-0.332206 -0.480227 0.191759 255 178 96
-0.411649 -0.482351 0.0278808 255 178 96
0.0477212 -0.488211 0.138438 255 178 96
-0.20081 -0.481727 0.313148 255 178 96
-0.100613 -0.419194 0.364706 255 178 96
-0.206996 -0.479743 0.314007 255 178 96
-0.224691 -0.487599 0.2434 255 178 96
-0.279616 -0.47953 0.251977 255 178 96
-0.379554 -0.488055 0.00787292 255 178 96
-0.0274264 -0.488087 0.0978151 255 178 96
-0.216388 -0.487781 -0.00811621 255 178 96
-0.278421 -0.434884 0.271118 255 178 96
-0.0900178 -0.488045 0.0761453 255 178 96
-0.404056 -0.487171 -0.0981006 255 178 96
-0.393532 -0.470591 0.12665 255 178 96
0.0910396 -0.48606 -0.106105 255 178 96
-0.284676 -0.488366 0.138851 255 178 96
-0.145441 -0.460452 0.350119 255 178 96
-0.139972 -0.487987 0.0604877 255 178 96
-0.124157 -0.458246 0.361468 255 178 96
-0.211588 -0.488018 0.181718 255 178 96
0.12721 -0.487064 -0.0400063 255 178 96
-0.136882 -0.487656 -0.0253703 255 178 96
-0.219615 -0.481029 0.294745 255 178 96
-0.278635 -0.487375 -0.0802675 255 178 96
-0.271718 -0.488297 0.134852 255 178 96
0.027076 -0.483894 -0.115219 255 178 96
-0.0616701 -0.487918 0.344381 255 178 96
-0.181856 -0.488213 0.262262 255 178 96
0.175133 -0.48395 -0.0428281 255 178 96
-0.280914 -0.459772 0.273506 255 178 96
-0.382332 -0.463584 0.159021 255 178 96
-0.218896 -0.481546 0.292721 255 178 96
-0.169975 -0.366519 0.283366 255 178 96
-0.175907 -0.443661 0.328568 255 178 96
-0.128259 -0.487002 0.352765 255 178 96
-0.0716468 -0.487727 0.166047 255 178 96
-0.201616 -0.363045 0.265009 255 178 96
-0.308986 -0.477279 0.23467 255 178 96
-0.00244788 -0.487935 0.353887 255 178 96
-0.141749 -0.488121 0.324878 255 178 96
-0.285417 -0.4847 0.214064 255 178 96
-0.0746107 -0.481597 0.365878 255 178 96
-0.293799 -0.488459 0.09829 255 178 96
-0.326372 -0.418234 0.230141 255 178 96
-0.341393 -0.462421 0.223324 255 178 96
-0.294073 -0.477581 0.246996 255 178 96
-0.235171 -0.488261 0.206949 255 178 96
-0.389725 -0.487606 -0.0512803 255 178 96
-0.0233898 -0.487973 0.190716 255 178 96
-0.130678 -0.4879 0.349897 255 178 96
-0.0143902 -0.488025 0.194279 255 178 96
-0.412107 -0.482554 0.0246672 255 178 96
-0.173952 -0.425722 0.32218 255 178 96
-0.319557 -0.425802 0.238697 255 178 96
-0.324614 -0.487738 -0.0440179 255 178 96
-0.155989 -0.488236 0.318505 255 178 96
-0.376944 -0.475688 0.146184 255 178 96
0.146243 -0.487855 0.0343804 255 178 96
-0.408889 -0.478042 0.0652544 255 178 96
-0.169654 -0.487537 0.313274 255 178 96
-0.00731957 -0.487281 -0.0520611 255 178 96
-0.0851274 -0.488145 0.299223 255 178 96
-0.270261 -0.481649 0.250778 255 178 96
-0.412359 -0.477271 0.0539985 255 178 96
-0.120904 -0.37204 0.343958 255 178 96
-0.268982 -0.48724 -0.0909288 255 178 96
-0.38857 -0.487538 -0.0594624 255 178 96
-0.241337 -0.423035 0.286635 255 178 96
-0.350957 -0.48767 -0.0529987 255 178 96
-0.337093 -0.483175 0.163357 255 178 96
-0.308393 -0.460771 0.255097 255 178 96
-0.170309 -0.488285 0.293283 255 178 96
-0.295919 -0.487987 -0.00457552 255 178 96
-0.422275 -0.470918 -0.0177635 255 178 96
-0.152594 -0.488001 0.11076 255 178 96
-0.327617 -0.472342 0.226194 255 178 96
-0.244301 -0.488172 0.185902 255 178 96
-0.146057 -0.488105 0.299128 255 178 96
-0.184827 -0.400426 0.298963 255 178 96
-0.162397 -0.448604 0.338922 255 178 96
-0.279911 -0.488357 0.121746 255 178 96
-0.212209 -0.488177 0.212265 255 178 96
-0.163995 -0.487442 -0.0548721 255 178 96
-0.119673 -0.437334 0.360329 255 178 96
-0.295904 -0.487189 -0.100631 255 178 96
-0.363542 -0.467642 0.190274 255 178 96
-0.378469 -0.488052 0.00673297 255 178 96
-0.301409 -0.483637 0.208432 255 178 96
-0.13898 -0.487969 0.258677 255 178 96
-0.0200729 -0.488052 0.127013 255 178 96
-0.400912 -0.4756 0.0962891 255 178 96
-0.167809 -0.488021 0.228233 255 178 96
-0.350168 -0.487243 -0.100679 255 178 96
-0.0174028 -0.487989 0.187417 255 178 96
-0.337279 -0.480175 0.18512 255 178 96
-0.123781 -0.487884 0.127938 255 178 96
-0.270121 -0.487794 -0.0271472 255 178 96
-0.241991 -0.487062 -0.100063 255 178 96
-0.1899 -0.433565 0.316206 255 178 96
-0.0808933 -0.487391 -0.0628415 255 178 96
-0.155847 -0.388841 0.309495 255 178 96
-0.240756 -0.488193 0.191801 255 178 96
0.0364699 -0.488242 0.119853 255 178 96
-0.420672 -0.454112 0.0533078 255 178 96
0.0896308 -0.488099 0.167854 255 178 96
-0.264022 -0.421237 0.276816 255 178 96
-0.12869 -0.401345 0.346472 255 178 96
-0.0457243 -0.487956 0.215368 255 178 96
-0.306946 -0.484315 0.197876 255 178 96
-0.339773 -0.485955 0.134767 255 178 96
-0.041937 -0.487778 -0.0100699 255 178 96
-0.155521 -0.488081 0.262322 255 178 96
-0.386968 -0.487383 -0.0741987 255 178 96
0.0925447 -0.487784 0.0235307 255 178 96
-0.110376 -0.412363 0.359524 255 178 96
-0.385457 -0.487679 0.0583297 255 178 96
-0.420106 -0.484931 -0.0403748 255 178 96
-0.205203 -0.488107 0.205924 255 178 96
-0.313678 -0.466105 0.248688 255 178 96
0.00977537 -0.488152 0.199752 255 178 96
-0.0765826 -0.487824 0.222672 255 178 96
0.0386496 -0.488226 0.103668 255 178 96
-0.142523 -0.487753 0.206106 255 178 96
-0.0735569 -0.487635 -0.0308362 255 178 96
-0.0814323 -0.487839 0.230561 255 178 96
-0.270051 -0.487338 -0.0813447 255 178 96
-0.0964037 -0.465311 0.370911 255 178 96
-0.400124 -0.481353 0.0712809 255 178 96
-0.36797 -0.48838 0.0403985 255 178 96
-0.27175 -0.488301 0.12758 255 178 96
-0.394115 -0.469742 0.126848 255 178 96
-0.219498 -0.488103 0.115323 255 178 96
0.139352 -0.486117 -0.0954463 255 178 96
0.00160848 -0.487805 -0.008958 255 178 96
-0.371037 -0.485836 0.0803239 255 178 96
-0.362297 -0.477734 0.157297 255 178 96
-0.157899 -0.487981 0.116465 255 178 96
-0.125836 -0.487764 0.22639 255 178 96
-0.0619208 -0.483391 0.366079 255 178 96
-0.0976274 -0.487496 -0.0523735 255 178 96
-0.390828 -0.478432 0.107124 255 178 96
-0.0679168 -0.486962 -0.0796041 255 178 96
-0.229185 -0.488158 0.193876 255 178 96
-0.354997 -0.488331 0.0307588 255 178 96
-0.00104962 -0.488353 0.271817 255 178 96
0.00160441 -0.487068 -0.0632615 255 178 96
-0.259954 -0.485274 0.233613 255 178 96
-0.170434 -0.487672 -0.0218383 255 178 96
-0.194597 -0.48788 0.154558 255 178 96
-0.418531 -0.476195 0.0134367 255 178 96
-0.0838231 -0.488134 0.293893 255 178 96
-0.398491 -0.487334 -0.0814789 255 178 96
-0.158721 -0.487731 0.165959 255 178 96
-0.210742 -0.488075 0.113194 255 178 96
-0.359446 -0.42581 0.191023 255 178 96
0.0167753 -0.487902 0.0100791 255 178 96
0.0438452 -0.486107 -0.0990954 255 178 96
-0.0316537 -0.488331 0.2917 255 178 96
0.0231509 -0.488252 0.112604 255 178 96
-0.358444 -0.476099 0.175232 255 178 96
-0.371066 -0.477271 0.145819 255 178 96
0.145309 -0.48215 -0.0584838 255 178 96
-0.31469 -0.418901 0.240719 255 178 96
-0.394839 -0.47982 0.0905602 255 178 96
-0.341183 -0.482585 0.159785 255 178 96
-0.386472 -0.488183 0.0298747 255 178 96
-0.182647 -0.332903 0.261141 255 178 96
-0.112321 -0.48801 0.0620962 255 178 96
0.0590101 -0.488206 0.18309 255 178 96
0.0175245 -0.48805 0.342407 255 178 96
-0.188977 -0.488041 0.21072 255 178 96
-0.00923216 -0.488341 0.318101 255 178 96
-0.363782 -0.47393 0.176723 255 178 96
-0.302698 -0.488454 0.13128 255 178 96
-0.375573 -0.488162 0.018754 255 178 96
-0.276802 -0.47722 0.262381 255 178 96
-0.238704 -0.487091 0.232071 255 178 96
-0.201081 -0.439115 0.313307 255 178 96
-0.398583 -0.482958 0.0667985 255 178 96
-0.0237249 -0.487937 0.181604 255 178 96
-0.0380694 -0.488056 0.0530609 255 178 96
-0.298486 -0.488476 0.0903465 255 178 96
-0.119329 -0.487728 0.208229 255 178 96
-0.241129 -0.486825 0.232137 255 178 96
-0.218188 -0.479328 0.306485 255 178 96
-0.0892717 -0.47209 0.370037 255 178 96
-0.0527961 -0.487894 0.209532 255 178 96
-0.361366 -0.465104 0.195908 255 178 96
-0.401217 -0.483328 0.0600426 255 178 96
-0.000502132 -0.488352 0.27102 255 178 96
-0.120724 -0.447433 0.36149 255 178 96
-0.294881 -0.48808 0.0110879 255 178 96
-0.419827 -0.469051 0.0307624 255 178 96
-0.283599 -0.454814 0.270982 255 178 96
-0.121769 -0.487687 0.16468 255 178 96
0.117845 -0.487746 0.0199355 255 178 96
0.0121372 -0.487633 -0.0300674 255 178 96
-0.38371 -0.488152 0.0235473 255 178 96
-0.177874 -0.488259 0.274777 255 178 96
-0.287556 -0.488073 0.0131982 255 178 96
0.0261667 -0.488147 0.0686252 255 178 96
-0.143053 -0.487787 0.00130898 255 178 96
0.103595 -0.487056 -0.0596227 255 178 96
-0.241699 -0.48809 0.0456245 255 178 96
-0.235776 -0.488208 0.0825001 255 178 96
-0.0243309 -0.413331 0.364171 255 178 96
-0.290798 -0.486768 0.193685 255 178 96
-0.387826 -0.48802 0.0097862 255 178 96
-0.127579 -0.487994 0.336688 255 178 96
-0.0910725 -0.487908 0.340649 255 178 96
-0.291756 -0.467361 0.265801 255 178 96
-0.201122 -0.488177 0.226657 255 178 96
-0.373523 -0.486756 0.0708871 255 178 96
-0.352292 -0.488572 0.0857586 255 178 96
-0.19619 -0.488119 0.220753 255 178 96
-0.370572 -0.487398 -0.0722316 255 178 96
-0.403905 -0.487843 -0.00807614 255 178 96
-0.262065 -0.476571 0.276978 255 178 96
-0.233655 -0.486669 0.242533 255 178 96
-0.0552816 -0.445613 0.370975 255 178 96
-0.400021 -0.487764 -0.0236913 255 178 96
0.0469725 -0.488234 0.122006 255 178 96
-0.226002 -0.481207 0.286642 255 178 96
0.063657 -0.487571 -0.0161472 255 178 96
-0.386752 -0.488258 0.0395234 255 178 96
-0.103071 -0.443552 0.367385 255 178 96
-0.406526 -0.487371 -0.0725937 255 178 96
-0.426551 -0.459277 -0.0877404 255 178 96
-0.411655 -0.487382 -0.0664959 255 178 96
0.0958197 -0.487815 0.0288972 255 178 96
-0.00339618 -0.488372 0.281872 255 178 96
-0.0980491 -0.48772 0.193594 255 178 96
-0.168873 -0.48792 0.0335812 255 178 96
-0.0728167 -0.457647 0.373172 255 178 96
-0.19418 -0.355307 0.264966 255 178 96
-0.143744 -0.486539 0.343613 255 178 96
-0.12914 -0.487947 0.271298 255 178 96
-0.37533 -0.488219 0.0260532 255 178 96
-0.251076 -0.483043 0.255881 255 178 96
-0.0655434 -0.405146 0.366699 255 178 96
-0.36744 -0.487243 -0.0963281 255 178 96
-0.294085 -0.487423 -0.0802092 255 178 96
-0.278618 -0.484444 0.225724 255 178 96
-0.174539 -0.488298 0.28674 255 178 96
-0.357878 -0.487969 -0.0142932 255 178 96
-0.229909 -0.488177 0.196628 255 178 96
0.101356 -0.488043 0.0717593 255 178 96
-0.301428 -0.487879 -0.0208224 255 178 96
-0.195131 -0.487007 0.283842 255 178 96
-0.235767 -0.488142 0.122903 255 178 96
-0.267403 -0.484883 0.23241 255 178 96
-0.129394 -0.487827 0.240961 255 178 96
-0.267179 -0.483638 0.243395 255 178 96
-0.0455289 -0.45221 0.371225 255 178 96
-0.153851 -0.46373 0.345665 255 178 96
-0.194832 -0.487908 0.173267 255 178 96
-0.0253309 -0.487912 0.355302 255 178 96
-0.26852 -0.47752 0.26744 255 178 96
-0.175964 -0.458507 0.33404 255 178 96
-0.401951 -0.487611 -0.0442268 255 178 96
-0.178071 -0.487178 -0.0841074 255 178 96
-0.383573 -0.487973 0.000769071 255 178 96
-0.0984954 -0.488098 0.307894 255 178 96
-0.245746 -0.48824 0.0810971 255 178 96
-0.385132 -0.45239 0.155239 255 178 96
-0.169508 -0.45672 0.33729 255 178 96
-0.236495 -0.486996 -0.103464 255 178 96
-0.268633 -0.488335 0.0761507 255 178 96
-0.276434 -0.487977 -0.00123259 255 178 96
-0.101995 -0.45453 0.368757 255 178 96
0.0932755 -0.48811 0.0961842 255 178 96
0.0895411 -0.48806 0.0694037 255 178 96
-0.215082 -0.397542 0.280559 255 178 96
-0.268668 -0.44369 0.278975 255 178 96
-0.0914791 -0.478746 0.365649 255 178 96
-0.305585 -0.464601 0.255921 255 178 96
-0.2419 -0.488298 0.207658 255 178 96
-0.161197 -0.427129 0.332853 255 178 96
-0.21114 -0.443236 0.309386 255 178 96
-0.141359 -0.488079 0.301464 255 178 96
-0.366849 -0.488241 0.0214986 255 178 96
-0.089901 -0.487738 0.195335 255 178 96
-0.107817 -0.487985 0.329593 255 178 96
-0.355259 -0.477731 0.16945 255 178 96
-0.283112 -0.487623 0.191532 255 178 96
-0.174462 -0.488272 0.280147 255 178 96
-0.34874 -0.487479 -0.0729826 255 178 96
-0.391457 -0.48766 -0.0426363 255 178 96
-0.364314 -0.488119 0.00554563 255 178 96
-0.0262393 -0.488067 0.338233 255 178 96
-0.00764059 -0.487993 0.165604 255 178 96
-0.420546 -0.46854 0.0200858 255 178 96
-0.177549 -0.487989 0.116489 255 178 96
-0.212372 -0.488089 0.193649 255 178 96
-0.208372 -0.423117 0.30195 255 178 96
-0.106389 -0.487945 0.335882 255 178 96
0.151444 -0.485771 -0.080345 255 178 96
-0.233051 -0.488172 0.22329 255 178 96
-0.118614 -0.480902 0.358828 255 178 96
-0.336797 -0.48842 0.0459736 255 178 96
-0.108554 -0.419859 0.361816 255 178 96
-0.037615 -0.488177 0.261088 255 178 96
-0.164019 -0.44845 0.338064 255 178 96
-0.109479 -0.380103 0.353226 255 178 96
-0.0298435 -0.48779 0.366416 255 178 96
0.327963 -0.373787 -0.119901 255 139 72
0.22045 -0.354039 -0.14859 255 139 72
0.299118 -0.39591 -0.0917695 255 139 72
0.244051 -0.321053 -0.144001 255 139 72
0.128822 -0.380013 -0.164777 255 139 72
0.332687 -0.394272 -0.0671532 255 139 72
0.259314 -0.466919 0.0476813 255 139 72
0.138716 -0.478545 0.0627463 255 139 72
0.109886 -0.485458 0.0413144 255 139 72
0.335852 -0.418448 -0.048937 255 139 72
0.30676 -0.35099 -0.123995 255 139 72
0.048233 -0.463032 -0.0739197 255 139 72
0.0463711 -0.292003 -0.165803 255 139 72
0.332401 -0.384649 -0.123202 255 139 72
0.306291 -0.431839 0.121316 255 139 72
0.0298161 -0.459941 0.128448 255 139 72
0.291752 -0.315037 -0.133455 255 139 72
-0.0118747 -0.45599 0.167757 255 139 72
0.365958 -0.378702 0.193485 255 139 72
-0.0308807 -0.411953 -0.175828 255 139 72
0.342346 -0.436293 -0.119151 255 139 72
0.241158 -0.473819 0.0163607 255 139 72
0.254635 -0.448043 0.14405 255 139 72
0.108908 -0.390218 -0.159715 255 139 72
0.0403967 -0.271962 -0.164882 255 139 72
-0.199523 -0.39129 -0.110584 255 139 72
0.215707 -0.32905 -0.147215 255 139 72
0.0725085 -0.286511 -0.163494 255 139 72
0.0694893 -0.277928 -0.154102 255 139 72
0.289153 -0.219143 -0.144557 255 139 72
0.343375 -0.411779 0.16816 255 139 72
-0.0824581 -0.487647 0.0135271 255 139 72
0.244232 -0.409556 -0.146979 255 139 72
0.173951 -0.469601 0.196421 255 139 72
0.320183 -0.407473 0.0905157 255 139 72
0.324904 -0.419914 0.145098 255 139 72
0.266029 -0.444003 -0.100904 255 139 72
0.339002 -0.404307 0.02645 255 139 72
0.120702 -0.471548 0.0976917 255 139 72
0.177953 -0.326276 -0.155549 255 139 72
0.233449 -0.308927 -0.144183 255 139 72
0.341634 -0.433145 0.0180573 255 139 72
0.312388 -0.399618 -0.0738925 255 139 72
0.0297645 -0.47095 0.0554226 255 139 72
0.149412 -0.343203 -0.144268 255 139 72
-0.0467985 -0.465038 0.117599 255 139 72
0.103872 -0.426743 -0.157845 255 139 72
0.285135 -0.442607 0.034183 255 139 72
0.252825 -0.470168 0.0414669 255 139 72
0.134062 -0.47026 0.135258 255 139 72
0.364986 -0.372885 0.204796 255 139 72
0.247532 -0.397658 -0.141467 255 139 72
0.341882 -0.3878 0.119147 255 139 72
0.342718 -0.45693 -0.112645 255 139 72
0.333037 -0.417234 -0.0747849 255 139 72
0.120492 -0.47033 0.0617794 255 139 72
0.283181 -0.385152 -0.116533 255 139 72
-0.0955207 -0.442309 0.191236 255 139 72
0.312178 -0.413101 -0.0440376 255 139 72
0.0293136 -0.448842 -0.144751 255 139 72
0.233338 -0.458302 0.177306 255 139 72
0.115162 -0.486608 -0.0213046 255 139 72
0.230382 -0.47673 0.00596397 255 139 72
0.325411 -0.408815 0.140701 255 139 72
0.316157 -0.325402 -0.127408 255 139 72
0.154923 -0.47416 0.0687635 255 139 72
0.0450101 -0.298054 -0.158047 255 139 72
0.337444 -0.388418 0.156716 255 139 72
0.265328 -0.36644 -0.13665 255 139 72
0.190439 -0.483575 -0.0326765 255 139 72
0.184114 -0.248836 -0.153882 255 139 72
0.21852 -0.439572 -0.144844 255 139 72
0.104617 -0.480959 0.049497 255 139 72
0.232882 -0.372187 -0.146475 255 139 72
0.0753741 -0.428774 -0.153116 255 139 72
0.0425109 -0.481566 -0.0620635 255 139 72
0.106548 -0.421177 -0.162685 255 139 72
0.378568 -0.410558 0.235863 255 139 72
0.254668 -0.256495 -0.147442 255 139 72
0.352666 -0.381062 0.148171 255 139 72
0.316314 -0.29427 -0.136482 255 139 72
0.339134 -0.391714 0.1075 255 139 72
0.329647 -0.398081 0.140944 255 139 72
0.358347 -0.394026 0.193788 255 139 72
0.294949 -0.279846 -0.139714 255 139 72
0.310143 -0.260168 -0.139959 255 139 72
0.1406 -0.29697 -0.159264 255 139 72
0.106806 -0.364456 -0.149139 255 139 72
0.288138 -0.380637 -0.116943 255 139 72
0.273865 -0.455749 0.0850249 255 139 72
0.210356 -0.274146 -0.148763 255 139 72
0.27959 -0.235971 -0.144868 255 139 72
0.315056 -0.415571 0.00119844 255 139 72
0.0132194 -0.489599 -0.0212074 255 139 72
0.240408 -0.259881 -0.148781 255 139 72
-0.000123084 -0.482613 -0.11515 255 139 72
0.289184 -0.444793 0.0836068 255 139 72
0.255379 -0.386061 -0.136439 255 139 72
0.36813 -0.38459 0.203084 255 139 72
0.262519 -0.464825 0.0119803 255 139 72
0.290777 -0.438386 0.124685 255 139 72
0.0331724 -0.483985 -0.123905 255 139 72
0.350395 -0.428106 0.1165 255 139 72
0.36324 -0.368673 0.187588 255 139 72
0.33032 -0.408615 -0.0964076 255 139 72
0.049999 -0.385098 -0.13279 255 139 72
0.335046 -0.426966 -0.0648049 255 139 72
0.339371 -0.447911 -0.109988 255 139 72
0.346221 -0.399051 0.100739 255 139 72
0.27922 -0.389705 -0.114953 255 139 72
0.0571336 -0.453024 -0.133364 255 139 72
0.270433 -0.448203 0.0966147 255 139 72
0.0676161 -0.414487 -0.166009 255 139 72
0.273726 -0.410933 -0.116728 255 139 72
0.280587 -0.431388 -0.0854538 255 139 72
0.0593244 -0.306467 -0.154482 255 139 72
0.204441 -0.283408 -0.14748 255 139 72
-0.0716748 -0.481447 -0.0759643 255 139 72
0.246886 -0.468274 -0.0520079 255 139 72
0.257142 -0.327481 -0.140894 255 139 72
0.0963824 -0.445513 -0.150089 255 139 72
0.00245355 -0.460225 0.145268 255 139 72
0.335647 -0.407291 -0.117581 255 139 72
0.33773 -0.411594 -0.00970864 255 139 72
0.287943 -0.447965 0.196097 255 139 72
0.254147 -0.438493 -0.136612 255 139 72
0.0742724 -0.254192 -0.160737 255 139 72
0.270909 -0.453641 -0.0102593 255 139 72
0.298835 -0.434179 0.0934734 255 139 72
0.0876824 -0.436173 -0.103388 255 139 72
0.126394 -0.478779 0.0573713 255 139 72
0.350812 -0.391021 0.125548 255 139 72
0.357562 -0.389357 0.156157 255 139 72
0.366387 -0.390404 0.191317 255 139 72
0.184847 -0.194819 -0.156288 255 139 72
0.224605 -0.347985 -0.147573 255 139 72
0.299343 -0.375413 -0.115669 255 139 72
0.290091 -0.344908 -0.131332 255 139 72
0.158579 -0.256427 -0.154672 255 139 72
0.336557 -0.376974 -0.126368 255 139 72
0.350253 -0.399593 0.118172 255 139 72
0.140196 -0.367061 -0.144974 255 139 72
0.369597 -0.390072 0.20272 255 139 72
0.2937 -0.428517 -0.0453004 255 139 72
0.375832 -0.404688 0.23012 255 139 72
0.353494 -0.420565 0.130063 255 139 72
0.047044 -0.470289 0.101115 255 139 72
0.198364 -0.382454 -0.152877 255 139 72
0.340254 -0.410477 0.0310601 255 139 72
-0.0220279 -0.440673 -0.158696 255 139 72
0.0411568 -0.477824 -0.0848017 255 139 72
0.110834 -0.485877 0.0312904 255 139 72
0.251217 -0.345741 -0.145416 255 139 72
0.354195 -0.398473 0.13539 255 139 72
0.0303705 -0.486538 -0.115137 255 139 72
0.283666 -0.426777 -0.0889252 255 139 72
-0.147211 -0.433387 -0.126793 255 139 72
0.327912 -0.401505 0.091118 255 139 72
0.371347 -0.400437 0.228258 255 139 72
0.174779 -0.415275 -0.160523 255 139 72
0.246975 -0.404137 -0.143633 255 139 72
0.233313 -0.423809 -0.148812 255 139 72
0.237536 -0.337048 -0.147836 255 139 72
0.233173 -0.361476 -0.148688 255 139 72
0.299439 -0.233586 -0.142677 255 139 72
0.329103 -0.388195 -0.0783148 255 139 72
0.337977 -0.411683 -0.00361998 255 139 72
0.0515775 -0.466129 -0.00877012 255 139 72
0.193917 -0.189738 -0.154911 255 139 72
0.255738 -0.450492 0.15668 255 139 72
0.166251 -0.211313 -0.157433 255 139 72
0.0544577 -0.48328 -0.0459966 255 139 72
0.316476 -0.294839 -0.136288 255 139 72
0.370912 -0.396224 0.222089 255 139 72
