ply
format ascii 1.0
comment Created by Open3D
element vertex 1185
property double x
property double y
property double z
property uchar red
property uchar green
property uchar blue
end_header
-0.312176 -0.46319 0.24072 255 178 96
-0.234857 -0.0972493 0.228939 255 178 96
-0.108967 -0.14093 0.234472 255 178 96
-0.144299 -0.304402 0.236022 255 178 96
-0.191101 -0.487798 -0.00118038 255 178 96
-0.120843 -0.432362 0.231136 255 178 96
-0.160927 -0.462903 0.229202 255 178 96
-0.312109 -0.488499 0.125965 255 178 96
-0.188385 -0.343712 0.231133 255 178 96
-0.302564 -0.48031 0.243315 255 178 96
-0.30044 -0.189402 0.23172 255 178 96
-0.17229 -0.114545 0.2332 255 178 96
-0.148061 -0.135793 0.234634 255 178 96
-0.271873 -0.141681 0.231751 255 178 96
-0.208256 -0.487762 0.0176288 255 178 96
-0.205197 -0.21257 0.23425 255 178 96
-0.122082 -0.485904 -0.166417 255 178 96
-0.239635 -0.174864 0.231988 255 178 96
-0.27755 -0.476708 0.24243 255 178 96
-0.330447 -0.488827 0.171134 255 178 96
-0.150898 -0.46506 0.229389 255 178 96
-0.269528 -0.418523 0.23832 255 178 96
-0.307352 -0.283597 0.236295 255 178 96
-0.149015 -0.229581 0.238654 255 178 96
-0.208472 -0.28255 0.234059 255 178 96
-0.279654 -0.452894 0.242266 255 178 96
-0.185354 -0.487423 -0.125216 255 178 96
-0.284667 -0.139534 0.233135 255 178 96
-0.0936536 -0.48647 -0.0506801 255 178 96
-0.285072 -0.488807 0.202727 255 178 96
-0.127967 -0.468667 0.231218 255 178 96
-0.111222 -0.224157 0.238233 255 178 96
-0.279244 -0.450188 0.242026 255 178 96
-0.330137 -0.488925 0.219435 255 178 96
-0.121764 -0.472798 0.232254 255 178 96
-0.0903238 -0.282077 0.235124 255 178 96
-0.180642 -0.19317 0.235682 255 178 96
-0.174417 -0.345329 0.231195 255 178 96
-0.21797 -0.487133 -0.1333 255 178 96
-0.256649 -0.488681 0.192431 255 178 96
-0.231498 -0.487706 0.0253714 255 178 96
-0.211209 -0.119543 0.230406 255 178 96
-0.2269 -0.488689 0.21305 255 178 96
-0.304933 -0.488577 0.140548 255 178 96
-0.298376 -0.226587 0.234188 255 178 96
-0.323596 -0.488874 0.197518 255 178 96
-0.15041 -0.299054 0.236152 255 178 96
-0.307651 -0.488571 0.139782 255 178 96
-0.166196 -0.189678 0.236667 255 178 96
-0.179729 -0.134537 0.233321 255 178 96
-0.265305 -0.280443 0.235085 255 178 96
-0.230222 -0.344605 0.23247 255 178 96
-0.223496 -0.488653 0.20825 255 178 96
-0.243946 -0.402744 0.233978 255 178 96
-0.266543 -0.134528 0.230793 255 178 96
-0.198697 -0.488478 0.189684 255 178 96
-0.307413 -0.216376 0.23113 255 178 96
-0.265635 -0.318285 0.236217 255 178 96
-0.178126 -0.290209 0.235417 255 178 96
-0.182087 -0.304684 0.234459 255 178 96
-0.29874 -0.388837 0.239599 255 178 96
-0.131176 -0.368593 0.231303 255 178 96
-0.097913 -0.28682 0.235575 255 178 96
-0.210062 -0.256926 0.23406 255 178 96
-0.319942 -0.488511 0.119242 255 178 96
-0.150361 -0.297296 0.236223 255 178 96
-0.311535 -0.488945 0.227871 255 178 96
-0.284712 -0.458944 0.242791 255 178 96
-0.283489 -0.260041 0.23346 255 178 96
-0.323865 -0.422136 0.229473 255 178 96
-0.249344 -0.480454 0.239108 255 178 96
-0.229291 -0.142083 0.231112 255 178 96
-0.0833763 -0.48558 -0.0799046 255 178 96
-0.280426 -0.176436 0.232048 255 178 96
-0.170337 -0.291714 0.235465 255 178 96
-0.319224 -0.39108 0.231998 255 178 96
-0.0806246 -0.307398 0.233617 255 178 96
-0.111494 -0.488371 0.175496 255 178 96
-0.312561 -0.383074 0.237365 255 178 96
-0.310226 -0.27081 0.234226 255 178 96
-0.318455 -0.429136 0.233898 255 178 96
-0.204115 -0.46455 0.232426 255 178 96
-0.199363 -0.136008 0.231493 255 178 96
-0.150646 -0.463563 0.229288 255 178 96
-0.148841 -0.336846 0.233863 255 178 96
-0.145617 -0.266118 0.237131 255 178 96
-0.0913007 -0.487517 0.0620776 255 178 96
-0.259421 -0.424169 0.237416 255 178 96
-0.30287 -0.434784 0.243085 255 178 96
-0.240423 -0.488062 0.093296 255 178 96
-0.25212 -0.157272 0.231347 255 178 96
-0.0756319 -0.420387 0.232166 255 178 96
-0.266835 -0.488086 0.0760881 255 178 96
-0.253937 -0.487892 0.0581906 255 178 96
-0.231486 -0.30524 0.233218 255 178 96
-0.23658 -0.236915 0.233156 255 178 96
-0.164643 -0.457316 0.228723 255 178 96
-0.147106 -0.227021 0.238692 255 178 96
-0.338387 -0.488846 0.203422 255 178 96
-0.21999 -0.418169 0.231478 255 178 96
-0.317619 -0.487737 0.00645399 255 178 96
-0.311851 -0.358997 0.236993 255 178 96
-0.205293 -0.260547 0.234498 255 178 96
-0.299671 -0.186507 0.23179 255 178 96
-0.248001 -0.487919 0.0666416 255 178 96
-0.345025 -0.488744 0.169459 255 178 96
-0.265189 -0.484197 0.241439 255 178 96
-0.263285 -0.342753 0.236073 255 178 96
-0.287783 -0.17867 0.232339 255 178 96
-0.297001 -0.484488 0.24322 255 178 96
-0.117272 -0.0821436 0.231564 255 178 96
-0.155208 -0.480477 0.229601 255 178 96
-0.276471 -0.488632 0.152188 255 178 96
-0.148138 -0.157899 0.235604 255 178 96
-0.241204 -0.416536 0.234602 255 178 96
-0.262135 -0.28252 0.234854 255 178 96
-0.260042 -0.46949 0.240431 255 178 96
-0.07518 -0.29151 0.233491 255 178 96
-0.182568 -0.185923 0.23531 255 178 96
-0.206745 -0.129387 0.230984 255 178 96
-0.241695 -0.334087 0.234304 255 178 96
-0.288512 -0.488106 0.0730961 255 178 96
-0.160098 -0.478883 0.229326 255 178 96
-0.297197 -0.298856 0.23544 255 178 96
-0.323734 -0.488858 0.234053 255 178 96
-0.237483 -0.11525 0.229762 255 178 96
-0.150968 -0.48743 0.016182 255 178 96
-0.26661 -0.312232 0.235872 255 178 96
-0.23954 -0.488469 0.172799 255 178 96
-0.24414 -0.487146 -0.103852 255 178 96
-0.225106 -0.146463 0.2314 255 178 96
-0.3088 -0.457493 0.242484 255 178 96
-0.181604 -0.171525 0.234857 255 178 96
-0.261917 -0.302576 0.235589 255 178 96
-0.32743 -0.472457 0.229671 255 178 96
-0.253263 -0.213562 0.232466 255 178 96
-0.173914 -0.135231 0.234052 255 178 96
-0.160404 -0.367652 0.229389 255 178 96
-0.239733 -0.134006 0.230573 255 178 96
-0.204815 -0.322061 0.232505 255 178 96
-0.308423 -0.249173 0.233479 255 178 96
-0.0988575 -0.435561 0.231284 255 178 96
-0.259792 -0.488123 0.0849717 255 178 96
-0.232805 -0.488514 0.184937 255 178 96
-0.261019 -0.0991741 0.229211 255 178 96
-0.306003 -0.361998 0.238534 255 178 96
-0.281738 -0.151689 0.232641 255 178 96
-0.105894 -0.485193 -0.108709 255 178 96
-0.176054 -0.488626 0.203855 255 178 96
-0.301068 -0.481049 0.243395 255 178 96
-0.330269 -0.455844 0.225246 255 178 96
-0.108612 -0.215321 0.237721 255 178 96
-0.239245 -0.348632 0.233907 255 178 96
-0.266469 -0.487705 0.0307833 255 178 96
-0.0401794 -0.487109 0.0379486 255 178 96
-0.174109 -0.482726 0.00038895 255 178 96
-0.275938 -0.48877 0.195648 255 178 96
-0.244343 -0.310731 0.234827 255 178 96
-0.335553 -0.488819 0.223044 255 178 96
-0.281228 -0.487368 -0.02426 255 178 96
-0.191342 -0.483503 0.229281 255 178 96
-0.299642 -0.48888 0.2094 255 178 96
-0.265265 -0.108407 0.230233 255 178 96
-0.318968 -0.458393 0.234821 255 178 96
-0.14199 -0.24538 0.23813 255 178 96
-0.218367 -0.207909 0.233386 255 178 96
-0.273515 -0.265131 0.234705 255 178 96
-0.142463 -0.486767 -0.0447742 255 178 96
-0.194071 -0.103405 0.230769 255 178 96
-0.133879 -0.487255 0.233536 255 178 96
-0.249767 -0.488457 0.150825 255 178 96
-0.145137 -0.32086 0.235141 255 178 96
-0.0654403 -0.485922 0.0267953 255 178 96
-0.295669 -0.487936 0.0499728 255 178 96
-0.171473 -0.487986 0.050137 255 178 96
-0.293029 -0.488485 0.126113 255 178 96
-0.314749 -0.405387 0.236198 255 178 96
-0.216525 -0.32215 0.232458 255 178 96
-0.183256 -0.485782 0.228192 255 178 96
-0.156131 -0.276641 0.237004 255 178 96
-0.310387 -0.411012 0.239872 255 178 96
-0.218836 -0.109047 0.229995 255 178 96
-0.313441 -0.421227 0.238058 255 178 96
-0.277967 -0.335975 0.23625 255 178 96
-0.119841 -0.486127 -0.133386 255 178 96
-0.305479 -0.446722 0.243224 255 178 96
-0.267227 -0.237991 0.23359 255 178 96
-0.211067 -0.290802 0.23396 255 178 96
-0.29849 -0.488885 0.215088 255 178 96
-0.098657 -0.193373 0.236187 255 178 96
-0.1588 -0.135018 0.23461 255 178 96
-0.309012 -0.437317 0.241763 255 178 96
-0.291293 -0.434185 0.242237 255 178 96
-0.280678 -0.488093 0.0722436 255 178 96
-0.339933 -0.488831 0.188119 255 178 96
-0.0810127 -0.237514 0.234797 255 178 96
-0.262087 -0.214696 0.232812 255 178 96
-0.0996704 -0.166971 0.235376 255 178 96
-0.156048 -0.488125 0.0732018 255 178 96
-0.2044 -0.126175 0.231003 255 178 96
-0.0717378 -0.486988 -0.00440359 255 178 96
-0.291765 -0.361611 0.237524 255 178 96
-0.168763 -0.404017 0.226626 255 178 96
-0.301543 -0.488193 0.0856709 255 178 96
-0.115425 -0.470019 0.232173 255 178 96
-0.156366 -0.48881 0.223367 255 178 96
-0.248442 -0.487733 0.0411812 255 178 96
-0.279547 -0.488453 0.119452 255 178 96
-0.229259 -0.464562 0.23531 255 178 96
-0.168155 -0.148721 0.234934 255 178 96
-0.258641 -0.487417 -0.024165 255 178 96
-0.296287 -0.487841 0.0356834 255 178 96
-0.323614 -0.488902 0.205708 255 178 96
-0.160378 -0.487883 -0.038396 255 178 96
-0.277906 -0.488698 0.170431 255 178 96
-0.238456 -0.34234 0.233856 255 178 96
-0.220288 -0.465478 0.23408 255 178 96
-0.140839 -0.486348 0.232353 255 178 96
-0.181687 -0.488187 0.108482 255 178 96
-0.242734 -0.488155 0.106053 255 178 96
-0.0774648 -0.119774 0.231741 255 178 96
-0.216671 -0.250195 0.23369 255 178 96
-0.100715 -0.0694809 0.230654 255 178 96
-0.206588 -0.45746 0.23192 255 178 96
-0.256212 -0.239271 0.232942 255 178 96
-0.279537 -0.283601 0.234893 255 178 96
-0.29777 -0.170504 0.230628 255 178 96
-0.2216 -0.350121 0.231317 255 178 96
-0.200835 -0.330754 0.231894 255 178 96
-0.313996 -0.394414 0.236506 255 178 96
-0.224499 -0.488452 0.180375 255 178 96
-0.188707 -0.230623 0.235973 255 178 96
-0.204114 -0.124866 0.230964 255 178 96
-0.132299 -0.385083 0.230489 255 178 96
-0.248535 -0.0878614 0.227871 255 178 96
-0.144595 -0.349439 0.232714 255 178 96
-0.252219 -0.410101 0.235514 255 178 96
-0.307324 -0.488928 0.227341 255 178 96
-0.152394 -0.11169 0.233672 255 178 96
-0.209419 -0.37075 0.2298 255 178 96
-0.331566 -0.488584 0.120051 255 178 96
-0.326946 -0.438877 0.228441 255 178 96
-0.17178 -0.25748 0.237265 255 178 96
-0.249479 -0.165794 0.231511 255 178 96
-0.104984 -0.488296 0.150696 255 178 96
-0.169582 -0.480442 0.229267 255 178 96
-0.229012 -0.307533 0.232962 255 178 96
-0.139813 -0.488076 0.0142606 255 178 96
-0.325899 -0.487923 0.0214691 255 178 96
-0.257687 -0.487562 0.00577649 255 178 96
-0.15413 -0.488072 0.0333156 255 178 96
-0.268842 -0.142503 0.231246 255 178 96
-0.0999822 -0.165936 0.235348 255 178 96
-0.31209 -0.362389 0.236938 255 178 96
-0.314558 -0.330557 0.23407 255 178 96
-0.247999 -0.357173 0.234942 255 178 96
-0.290453 -0.415861 0.240258 255 178 96
-0.229836 -0.45946 0.234945 255 178 96
-0.289672 -0.487343 -0.0268406 255 178 96
-0.116805 -0.215875 0.238533 255 178 96
-0.242516 -0.186302 0.232124 255 178 96
-0.24708 -0.0868766 0.227754 255 178 96
-0.221345 -0.480134 0.233345 255 178 96
-0.188372 -0.470052 0.230726 255 178 96
-0.123941 -0.484498 -0.0922257 255 178 96
-0.17554 -0.34004 0.231786 255 178 96
-0.144181 -0.199796 0.237817 255 178 96
-0.119707 -0.475197 0.232803 255 178 96
-0.26068 -0.0975116 0.229133 255 178 96
-0.256269 -0.389814 0.235028 255 178 96
-0.236567 -0.48552 0.234487 255 178 96
-0.289563 -0.280172 0.233984 255 178 96
-0.28855 -0.487876 0.0438561 255 178 96
-0.0899593 -0.488397 0.227783 255 178 96
-0.303255 -0.376903 0.239334 255 178 96
-0.179093 -0.22141 0.236778 255 178 96
-0.179068 -0.487936 0.0409651 255 178 96
-0.313702 -0.373592 0.236109 255 178 96
-0.0961769 -0.266036 0.235976 255 178 96
-0.120486 -0.486848 -0.0131829 255 178 96
-0.140627 -0.488773 0.225571 255 178 96
-0.288713 -0.369625 0.23743 255 178 96
-0.120265 -0.488354 0.0981067 255 178 96
-0.313718 -0.488332 0.240107 255 178 96
-0.202842 -0.488223 0.141684 255 178 96
-0.314779 -0.401058 0.236059 255 178 96
-0.14352 -0.16751 0.236249 255 178 96
-0.272556 -0.225254 0.233368 255 178 96
-0.297736 -0.29381 0.235302 255 178 96
-0.297343 -0.349247 0.237413 255 178 96
-0.133844 -0.471384 0.230924 255 178 96
-0.127603 -0.487837 0.00819718 255 178 96
-0.129447 -0.280985 0.236864 255 178 96
-0.323917 -0.427708 0.230236 255 178 96
-0.197403 -0.368589 0.229407 255 178 96
-0.0922202 -0.322394 0.233584 255 178 96
-0.246602 -0.40906 0.234842 255 178 96
-0.290812 -0.440081 0.242672 255 178 96
-0.0660843 -0.486147 -0.0364857 255 178 96
-0.311216 -0.469154 0.241707 255 178 96
-0.263861 -0.450552 0.239767 255 178 96
-0.307606 -0.488818 0.189045 255 178 96
-0.314193 -0.396061 0.236384 255 178 96
-0.106268 -0.2361 0.237653 255 178 96
-0.179934 -0.132007 0.233136 255 178 96
-0.285546 -0.336631 0.235696 255 178 96
-0.101855 -0.488543 0.231721 255 178 96
-0.133975 -0.483927 0.00107205 255 178 96
-0.266643 -0.488571 0.149493 255 178 96
-0.139117 -0.48789 0.0788398 255 178 96
-0.296486 -0.488842 0.242353 255 178 96
-0.257555 -0.10411 0.229117 255 178 96
-0.165866 -0.378132 0.227958 255 178 96
-0.304304 -0.199023 0.230787 255 178 96
-0.258113 -0.229985 0.232813 255 178 96
-0.251615 -0.0822736 0.227503 255 178 96
-0.31087 -0.425114 0.24018 255 178 96
-0.248289 -0.189971 0.232183 255 178 96
-0.319503 -0.402149 0.232302 255 178 96
-0.138119 -0.243998 0.238301 255 178 96
-0.294482 -0.488892 0.238723 255 178 96
-0.226992 -0.315475 0.232797 255 178 96
-0.135786 -0.488601 0.189214 255 178 96
-0.190338 -0.486932 0.225904 255 178 96
-0.27352 -0.193582 0.232413 255 178 96
-0.108853 -0.0761158 0.231088 255 178 96
-0.0419529 -0.221011 0.123607 255 139 72
-0.126681 -0.147412 0.231609 255 139 72
-0.0413149 -0.404009 0.104052 255 139 72
-0.0365833 -0.170735 -0.138726 255 139 72
-0.12227 -0.457777 0.229145 255 139 72
-0.0375191 -0.160923 -0.11223 255 139 72
-0.039047 -0.213862 -0.054342 255 139 72
-0.0407674 -0.343986 -0.0715191 255 139 72
-0.0414414 -0.0996755 0.117819 255 139 72
-0.0408064 -0.252468 0.0459133 255 139 72
-0.0378363 -0.384487 0.194764 255 139 72
-0.0814233 -0.0640673 0.220854 255 139 72
-0.041726 -0.37285 -0.0473494 255 139 72
-0.0505679 -0.0779511 0.211237 255 139 72
-0.0388947 -0.462165 0.215121 255 139 72
-0.0401523 -0.095125 0.203665 255 139 72
-0.0387711 -0.0682929 0.199795 255 139 72
-0.0400044 -0.463795 0.062475 255 139 72
-0.0419621 -0.231153 0.0523862 255 139 72
-0.0434698 -0.292545 0.217953 255 139 72
-0.0444016 -0.12268 0.090836 255 139 72
-0.183471 -0.0957574 0.232115 255 139 72
-0.253487 -0.421696 0.224639 255 139 72
-0.0401032 -0.282813 0.163484 255 139 72
-0.226166 -0.115938 0.214731 255 139 72
-0.0410305 -0.396545 -0.0530202 255 139 72
-0.0414374 -0.346525 -0.0205176 255 139 72
-0.0393151 -0.0759567 0.0233869 255 139 72
-0.0363241 -0.141771 -0.22767 255 139 72
-0.0408238 -0.290409 0.122528 255 139 72
-0.0386942 -0.157065 -0.081545 255 139 72
-0.0416425 -0.397979 -0.133667 255 139 72
-0.0404 -0.41928 0.038239 255 139 72
-0.0479352 -0.365014 0.219302 255 139 72
-0.0400755 -0.30754 0.0279176 255 139 72
-0.0404221 -0.360329 0.149722 255 139 72
-0.102491 -0.366095 0.225261 255 139 72
-0.202967 -0.0809621 0.229025 255 139 72
-0.043381 -0.230084 0.0885324 255 139 72
-0.041337 -0.358065 -0.0553845 255 139 72
-0.0377482 -0.452235 -0.0136359 255 139 72
-0.0415384 -0.40157 -0.128058 255 139 72
-0.0365181 -0.425255 0.193991 255 139 72
-0.246775 -0.0766557 0.224092 255 139 72
-0.041185 -0.0791156 0.0643913 255 139 72
-0.0403594 -0.41997 -0.0304782 255 139 72
-0.186588 -0.353922 0.225504 255 139 72
-0.0394093 -0.171848 0.186114 255 139 72
-0.0819813 -0.352634 0.225341 255 139 72
-0.0399509 -0.242529 0.156608 255 139 72
-0.0394148 -0.432335 -0.0349145 255 139 72
-0.0372494 -0.134478 -0.123732 255 139 72
-0.0368245 -0.128348 -0.146878 255 139 72
-0.0449371 -0.148446 0.0707939 255 139 72
-0.0419047 -0.3528 0.0665839 255 139 72
-0.0395695 -0.138518 0.16062 255 139 72
-0.0409169 -0.448828 0.0936385 255 139 72
-0.0363517 -0.159263 -0.1746 255 139 72
-0.0382512 -0.0946162 -0.0735179 255 139 72
-0.0408049 -0.396409 0.0263414 255 139 72
-0.0405057 -0.298043 -0.0145989 255 139 72
-0.0372372 -0.420574 0.178723 255 139 72
-0.040727 -0.219489 0.0266529 255 139 72
-0.043628 -0.226153 0.0831654 255 139 72
-0.16702 -0.108534 0.233314 255 139 72
-0.0376486 -0.0580486 0.164276 255 139 72
-0.0423864 -0.385219 0.0626919 255 139 72
-0.0396116 -0.333108 0.206216 255 139 72
-0.0376307 -0.152847 -0.110682 255 139 72
-0.0377259 -0.436275 0.165861 255 139 72
-0.0416524 -0.342107 0.116183 255 139 72
-0.0381103 -0.398138 0.177399 255 139 72
-0.0402614 -0.397068 0.139926 255 139 72
-0.204896 -0.099562 0.231654 255 139 72
-0.038227 -0.450059 0.0171607 255 139 72
-0.036917 -0.391364 0.211597 255 139 72
-0.0376888 -0.0725154 0.174503 255 139 72
-0.0672227 -0.307819 0.22473 255 139 72
-0.0409954 -0.457259 -0.132485 255 139 72
-0.0448427 -0.13562 0.0737655 255 139 72
-0.192602 -0.239441 0.229331 255 139 72
-0.0411757 -0.0820422 0.0972148 255 139 72
-0.0363263 -0.156424 -0.138253 255 139 72
-0.0402221 -0.212231 -0.021281 255 139 72
-0.129532 -0.134637 0.231927 255 139 72
-0.237471 -0.325064 0.225249 255 139 72
-0.25482 -0.366858 0.223067 255 139 72
-0.0956212 -0.361843 0.225465 255 139 72
-0.0365948 -0.134215 -0.223855 255 139 72
-0.0431204 -0.190783 0.110919 255 139 72
-0.0905608 -0.101084 0.224118 255 139 72
-0.0418937 -0.140567 -0.0109042 255 139 72
-0.0412023 -0.184528 -0.021805 255 139 72
-0.0410376 -0.125305 0.134023 255 139 72
-0.0420562 -0.363882 0.0627635 255 139 72
-0.0401518 -0.451251 0.137431 255 139 72
-0.0370009 -0.183396 -0.12921 255 139 72
-0.0363452 -0.436148 0.188218 255 139 72
-0.0406543 -0.138492 -0.0326025 255 139 72
-0.0429015 -0.161519 0.11765 255 139 72
-0.0409953 -0.456667 -0.112323 255 139 72
-0.0381395 -0.223906 -0.165046 255 139 72
-0.0386723 -0.0725968 0.193229 255 139 72
-0.0409211 -0.286891 0.114738 255 139 72
-0.0369315 -0.123391 -0.145479 255 139 72
-0.0383395 -0.236174 -0.196472 255 139 72
-0.0410644 -0.326324 -0.0328452 255 139 72
-0.040029 -0.297387 -0.095072 255 139 72
-0.219639 -0.14244 0.232402 255 139 72
-0.0415601 -0.275965 0.0708229 255 139 72
-0.040854 -0.408728 -0.0333193 255 139 72
-0.04208 -0.153463 -0.0108953 255 139 72
-0.0403993 -0.172162 -0.0428487 255 139 72
-0.0390743 -0.256417 -0.180011 255 139 72
-0.0405118 -0.230691 0.0263265 255 139 72
-0.129206 -0.122123 0.231532 255 139 72
-0.0395739 -0.319094 0.201778 255 139 72
-0.0402059 -0.298422 -0.089371 255 139 72
-0.040078 -0.423943 -0.0593256 255 139 72
-0.0433585 -0.133774 0.112445 255 139 72
-0.0405758 -0.248171 0.0414837 255 139 72
-0.039132 -0.210598 0.166356 255 139 72
-0.0394216 -0.276429 0.182234 255 139 72
-0.0395878 -0.428052 -0.0233825 255 139 72
-0.041972 -0.388702 0.0769013 255 139 72
-0.234513 -0.361998 0.224277 255 139 72
-0.140969 -0.455434 0.228889 255 139 72
-0.203989 -0.238418 0.229425 255 139 72
-0.0412982 -0.360285 -0.0590592 255 139 72
-0.045012 -0.136396 0.0829123 255 139 72
-0.0408989 -0.28046 0.214051 255 139 72
-0.0408426 -0.199665 0.209093 255 139 72
-0.245389 -0.288024 0.225713 255 139 72
-0.0398056 -0.0657042 0.0975821 255 139 72
-0.0412269 -0.368179 0.0135085 255 139 72
-0.0420969 -0.265398 0.0661001 255 139 72
-0.180015 -0.0670189 0.222915 255 139 72
-0.0426792 -0.245202 0.214383 255 139 72
-0.0383983 -0.0822236 0.151336 255 139 72
-0.0409833 -0.34337 0.00159877 255 139 72
-0.0417806 -0.192115 -0.00110166 255 139 72
-0.037011 -0.185279 -0.131506 255 139 72
-0.0378636 -0.378069 0.198116 255 139 72
-0.225863 -0.398579 0.223939 255 139 72
-0.0410522 -0.15832 0.138016 255 139 72
-0.103761 -0.180707 0.227747 255 139 72
-0.039476 -0.332924 0.198907 255 139 72
-0.0401967 -0.191249 -0.0404462 255 139 72
-0.0397913 -0.425821 -0.0238576 255 139 72
-0.0426534 -0.163615 0.119923 255 139 72
-0.0404359 -0.0761032 0.0515771 255 139 72
-0.042066 -0.234062 0.110522 255 139 72
-0.0387803 -0.0626087 0.200361 255 139 72
-0.0443696 -0.139238 0.0993974 255 139 72
-0.0405614 -0.279132 -0.0819262 255 139 72
-0.0416594 -0.083505 0.0784323 255 139 72
-0.0408998 -0.168158 0.140976 255 139 72
-0.0394594 -0.258882 -0.18188 255 139 72
-0.039838 -0.362621 0.159597 255 139 72
-0.0375192 -0.197798 -0.0947254 255 139 72
-0.241926 -0.398757 0.223801 255 139 72
-0.0408816 -0.216916 0.0187496 255 139 72
-0.0817523 -0.126228 0.223132 255 139 72
-0.0390266 -0.242862 -0.111959 255 139 72
-0.0415829 -0.258337 0.113915 255 139 72
-0.0361869 -0.1611 -0.20157 255 139 72
-0.0376437 -0.188683 -0.166777 255 139 72
-0.0401858 -0.268769 0.0447197 255 139 72
-0.214257 -0.161007 0.233272 255 139 72
-0.0380471 -0.0903396 -0.0828808 255 139 72
-0.265087 -0.380988 0.222699 255 139 72
-0.0418822 -0.35156 -0.153137 255 139 72
-0.0614084 -0.110131 0.216575 255 139 72
-0.26093 -0.379157 0.222756 255 139 72
-0.221573 -0.148513 0.216929 255 139 72
-0.0417953 -0.329027 0.0698379 255 139 72
-0.0417496 -0.402727 0.0814108 255 139 72
-0.170447 -0.383722 0.224797 255 139 72
-0.0395036 -0.237684 0.163461 255 139 72
-0.0378424 -0.10319 -0.127485 255 139 72
-0.233831 -0.219474 0.229834 255 139 72
-0.0415263 -0.375708 -0.00255582 255 139 72
-0.0404631 -0.285554 -0.025214 255 139 72
-0.0394893 -0.233924 -0.0259884 255 139 72
-0.0390508 -0.341797 0.200673 255 139 72
-0.0910371 -0.390136 0.223301 255 139 72
-0.0400004 -0.291617 -0.126022 255 139 72
-0.0414867 -0.38443 -0.00478579 255 139 72
-0.0423089 -0.152857 0.00419044 255 139 72
-0.243138 -0.428158 0.225061 255 139 72
-0.171905 -0.10487 0.233006 255 139 72
-0.0404429 -0.29596 0.150463 255 139 72
-0.0414036 -0.117383 0.0184672 255 139 72
-0.248889 -0.150899 0.230442 255 139 72
-0.0400492 -0.0971696 -0.0253811 255 139 72
-0.0390559 -0.0977154 0.191772 255 139 72
-0.197495 -0.40949 0.22428 255 139 72
-0.040176 -0.321796 0.0306216 255 139 72
-0.0426751 -0.219199 0.0580243 255 139 72
-0.0397004 -0.25072 0.192814 255 139 72
-0.0390834 -0.459201 0.147556 255 139 72
-0.0394249 -0.31148 0.189054 255 139 72
-0.0434047 -0.212454 0.0644765 255 139 72
-0.039074 -0.217008 -0.05572 255 139 72
-0.214566 -0.406495 0.223929 255 139 72
-0.0572455 -0.30028 0.222044 255 139 72
-0.0403748 -0.269306 -0.201065 255 139 72
-0.0383284 -0.0950873 0.176312 255 139 72
-0.0425234 -0.1846 0.0408732 255 139 72
-0.188758 -0.262814 0.227952 255 139 72
-0.0434079 -0.159507 0.0526971 255 139 72
-0.039674 -0.26921 0.194531 255 139 72
-0.0380105 -0.221307 -0.146298 255 139 72
-0.0395515 -0.425404 0.146567 255 139 72
-0.0377959 -0.12788 -0.108014 255 139 72
-0.0397443 -0.302728 -0.104471 255 139 72
-0.039546 -0.431193 -0.0575531 255 139 72
-0.201692 -0.240257 0.229313 255 139 72
-0.0408011 -0.300735 0.114846 255 139 72
-0.0409701 -0.175128 -0.029249 255 139 72
-0.0414767 -0.176284 0.133682 255 139 72
-0.123833 -0.200147 0.230206 255 139 72
-0.0492319 -0.361895 0.219745 255 139 72
-0.0444164 -0.157288 0.0641492 255 139 72
-0.04459 -0.277557 0.218005 255 139 72
-0.039826 -0.285346 0.16909 255 139 72
-0.0414504 -0.393485 -0.0214488 255 139 72
-0.0376428 -0.171495 -0.10415 255 139 72
-0.0401329 -0.278036 -0.155449 255 139 72
-0.0399177 -0.346346 0.213573 255 139 72
-0.0403805 -0.180714 -0.0404504 255 139 72
-0.0902572 -0.0991855 0.223854 255 139 72
-0.037641 -0.453191 -0.0315015 255 139 72
-0.0405979 -0.317028 0.152076 255 139 72
-0.148827 -0.409609 0.224609 255 139 72
-0.0373468 -0.132963 -0.121781 255 139 72
-0.0413624 -0.363392 -0.0571594 255 139 72
-0.0420835 -0.395434 0.0768024 255 139 72
-0.0419347 -0.264868 0.0977337 255 139 72
-0.117225 -0.27958 0.227252 255 139 72
-0.0399138 -0.430344 0.140337 255 139 72
-0.0402915 -0.430072 -0.0851209 255 139 72
-0.0368568 -0.171824 -0.123881 255 139 72
-0.142877 -0.0821828 0.230614 255 139 72
-0.229148 -0.287538 0.226518 255 139 72
-0.103704 -0.424362 0.224443 255 139 72
-0.0379608 -0.393921 0.18677 255 139 72
-0.0401921 -0.259869 -0.082246 255 139 72
-0.0375622 -0.203187 -0.104213 255 139 72
-0.0374132 -0.426439 0.173201 255 139 72
-0.040694 -0.285458 0.142949 255 139 72
-0.198242 -0.190692 0.232358 255 139 72
-0.168257 -0.410919 0.224593 255 139 72
-0.0398397 -0.0685004 0.10446 255 139 72
-0.0445235 -0.284533 0.218651 255 139 72
-0.202963 -0.450998 0.228932 255 139 72
-0.0539936 -0.0684617 0.212779 255 139 72
-0.0403206 -0.24267 0.204552 255 139 72
-0.0395676 -0.0897332 0.0228449 255 139 72
-0.0419917 -0.322319 -0.180702 255 139 72
-0.211179 -0.146037 0.233146 255 139 72
-0.0412214 -0.399024 -0.0355612 255 139 72
-0.0405944 -0.325571 0.138677 255 139 72
-0.0422881 -0.379576 0.0622412 255 139 72
-0.0406891 -0.274528 -0.0408536 255 139 72
-0.193287 -0.2867 0.227056 255 139 72
-0.0400918 -0.370575 -0.100549 255 139 72
-0.198627 -0.274935 0.22746 255 139 72
-0.0401434 -0.328154 0.170698 255 139 72
-0.0368254 -0.130146 -0.216874 255 139 72
-0.213167 -0.409536 0.223912 255 139 72
-0.0380541 -0.456654 0.0264168 255 139 72
-0.0407901 -0.280725 -0.0461181 255 139 72
-0.0396417 -0.258865 -0.196517 255 139 72
-0.0414731 -0.30181 0.0693589 255 139 72
-0.0418637 -0.41215 0.123432 255 139 72
-0.220887 -0.169704 0.232965 255 139 72
-0.045047 -0.17405 0.076414 255 139 72
-0.0393349 -0.269627 0.0300499 255 139 72
-0.0384727 -0.451692 -0.0456208 255 139 72
-0.0371918 -0.458006 -0.0149185 255 139 72
-0.037553 -0.188184 -0.162535 255 139 72
-0.0738515 -0.248304 0.223861 255 139 72
-0.0408168 -0.235106 0.146352 255 139 72
-0.0399296 -0.241702 0.00096716 255 139 72
-0.0418823 -0.126173 0.00938869 255 139 72
-0.0416311 -0.274964 0.124315 255 139 72
-0.0400906 -0.443035 0.138451 255 139 72
-0.040187 -0.150882 -0.0494922 255 139 72
-0.042886 -0.246894 0.0855981 255 139 72
-0.150733 -0.43673 0.226781 255 139 72
-0.0372468 -0.437276 0.173141 255 139 72
-0.0630397 -0.426031 0.219818 255 139 72
-0.036712 -0.143207 -0.164522 255 139 72
-0.148803 -0.368573 0.225046 255 139 72
-0.040257 -0.132305 -0.0373225 255 139 72
-0.0399905 -0.313953 0.175682 255 139 72
-0.0383595 -0.444541 -0.0367021 255 139 72
-0.0410501 -0.21049 0.0324008 255 139 72
-0.0407778 -0.224942 0.014978 255 139 72
-0.0410311 -0.457936 -0.127617 255 139 72
-0.0413151 -0.394708 -0.0399917 255 139 72
-0.0407283 -0.411303 -0.0317004 255 139 72
-0.0414669 -0.143563 -0.0206048 255 139 72
-0.0613673 -0.428845 0.21975 255 139 72
-0.0414417 -0.281893 0.125934 255 139 72
-0.0421498 -0.101951 0.0525464 255 139 72
-0.0409688 -0.319344 0.00789777 255 139 72
-0.0390845 -0.433566 -0.0249941 255 139 72
-0.0411805 -0.344343 -0.0572127 255 139 72
-0.220736 -0.0884551 0.229242 255 139 72
-0.0408183 -0.313593 0.0492125 255 139 72
-0.233347 -0.293469 0.226111 255 139 72
-0.0442563 -0.132427 0.0643614 255 139 72
-0.0425297 -0.11692 0.0469197 255 139 72
-0.0415431 -0.354976 0.086765 255 139 72
-0.0400586 -0.271738 0.205712 255 139 72
-0.0402933 -0.415886 -0.086494 255 139 72
-0.0420024 -0.214358 0.0486096 255 139 72
-0.0372455 -0.191584 -0.137766 255 139 72
-0.0395237 -0.320074 0.19298 255 139 72
-0.124675 -0.408154 0.2248 255 139 72
-0.0402763 -0.433876 0.0408043 255 139 72
-0.0413846 -0.100301 0.118992 255 139 72
-0.136244 -0.459235 0.229335 255 139 72
-0.0644024 -0.338203 0.224109 255 139 72
-0.0405897 -0.276331 -0.0744292 255 139 72
-0.0400744 -0.118186 0.150618 255 139 72
-0.0391599 -0.230797 -0.0404705 255 139 72
-0.0397703 -0.267786 0.166586 255 139 72
-0.0406133 -0.430203 0.129754 255 139 72
-0.0372332 -0.464115 -0.0327009 255 139 72
-0.0372328 -0.423491 0.176986 255 139 72
-0.0941222 -0.43076 0.224532 255 139 72
-0.0411723 -0.4163 0.0961652 255 139 72
-0.0411638 -0.0738978 0.0706125 255 139 72
-0.0405726 -0.276566 0.00699256 255 139 72
-0.0407017 -0.150467 -0.0394506 255 139 72
-0.0405977 -0.293839 -0.00509558 255 139 72
-0.0394582 -0.244579 -0.031162 255 139 72
-0.0362419 -0.444483 0.188545 255 139 72
-0.0364471 -0.425923 0.194957 255 139 72
-0.038222 -0.426086 0.160671 255 139 72
-0.0395036 -0.118016 0.175317 255 139 72
-0.0373241 -0.0631308 0.155081 255 139 72
-0.0392811 -0.0787635 0.201305 255 139 72
-0.0414397 -0.431363 0.103261 255 139 72
-0.0433903 -0.145376 0.0515203 255 139 72
-0.0417125 -0.343909 0.106059 255 139 72
-0.0379045 -0.121323 -0.110693 255 139 72
-0.0414052 -0.253988 0.213053 255 139 72
-0.0378399 -0.196604 -0.189259 255 139 72
-0.0390686 -0.370602 0.171484 255 139 72
-0.0794636 -0.233196 0.224432 255 139 72
-0.0409884 -0.344545 0.0118542 255 139 72
-0.128431 -0.249275 0.228199 255 139 72
-0.0408029 -0.133746 0.137367 255 139 72
-0.0416307 -0.397329 0.0481685 255 139 72
-0.0419721 -0.129017 0.0134751 255 139 72
-0.0479755 -0.188171 0.217208 255 139 72
-0.0388877 -0.229117 -0.0799621 255 139 72
-0.0398237 -0.377744 0.156137 255 139 72
-0.0409465 -0.261286 0.0506996 255 139 72
-0.0399692 -0.282003 0.166735 255 139 72
-0.038886 -0.351654 0.184636 255 139 72
-0.0392141 -0.0551289 0.201643 255 139 72
-0.0425441 -0.180029 0.0385181 255 139 72
-0.0374417 -0.459882 -0.0339358 255 139 72
-0.0389384 -0.164542 -0.0732639 255 139 72
-0.0396816 -0.243492 -0.00669078 255 139 72
-0.0390151 -0.233549 -0.0854769 255 139 72
-0.0379855 -0.217065 -0.18334 255 139 72
-0.0408098 -0.10059 -0.00962311 255 139 72
-0.0397728 -0.141226 -0.0521579 255 139 72
-0.14959 -0.441554 0.227294 255 139 72
-0.0364115 -0.166124 -0.155128 255 139 72
-0.0380169 -0.217426 -0.141754 255 139 72
-0.0409954 -0.341281 0.010816 255 139 72
-0.0407713 -0.368579 0.0233218 255 139 72
-0.0410392 -0.373438 0.129683 255 139 72
-0.0411496 -0.335441 -0.0216443 255 139 72
-0.05419 -0.166344 0.21758 255 139 72
-0.0398356 -0.266701 0.0180934 255 139 72
-0.0444821 -0.134146 0.0675716 255 139 72
-0.039086 -0.174985 0.18222 255 139 72
-0.041105 -0.430448 0.0579422 255 139 72
-0.0414491 -0.438028 0.111717 255 139 72
-0.0372878 -0.108945 -0.204717 255 139 72
-0.0391298 -0.285395 0.193749 255 139 72
-0.134892 -0.407529 0.22476 255 139 72
-0.0395833 -0.218608 -0.0364168 255 139 72
-0.0379263 -0.0937582 -0.0960329 255 139 72
-0.045164 -0.14865 0.0799539 255 139 72
-0.194426 -0.250618 0.228576 255 139 72
-0.146457 -0.301777 0.226767 255 139 72
-0.0419282 -0.146228 0.125355 255 139 72
-0.0405584 -0.228187 0.0264794 255 139 72
-0.0509384 -0.215919 0.218968 255 139 72
-0.0387385 -0.187189 -0.0692559 255 139 72
-0.0417644 -0.378277 -0.0427024 255 139 72
-0.186324 -0.153246 0.234335 255 139 72
-0.0389898 -0.0938451 0.191913 255 139 72
-0.0439202 -0.110602 0.0721677 255 139 72
-0.0401868 -0.34475 -0.104711 255 139 72
-0.0678957 -0.0654499 0.218066 255 139 72
-0.0412918 -0.321477 0.1124 255 139 72
-0.0406091 -0.409402 0.133581 255 139 72
-0.0417845 -0.125977 0.0184459 255 139 72
-0.041154 -0.184937 0.212165 255 139 72
-0.0373552 -0.40193 0.214344 255 139 72
-0.203719 -0.411467 0.224154 255 139 72
-0.0415948 -0.268058 0.114501 255 139 72
-0.0423022 -0.152069 -0.00413871 255 139 72
-0.0415672 -0.367403 0.0474884 255 139 72
-0.0404445 -0.255282 0.209099 255 139 72
-0.0403897 -0.28642 0.154536 255 139 72
-0.0395263 -0.321569 0.19301 255 139 72
-0.13297 -0.120838 0.231902 255 139 72
-0.0418242 -0.0929751 0.0573056 255 139 72
-0.0366908 -0.129711 -0.223394 255 139 72
-0.0394848 -0.145483 0.164238 255 139 72
-0.0414698 -0.402423 0.109614 255 139 72
-0.038116 -0.214938 -0.0878561 255 139 72
-0.247896 -0.415274 0.224093 255 139 72
-0.0399492 -0.245448 -0.0788845 255 139 72
-0.0408566 -0.0878948 0.114102 255 139 72
-0.0405477 -0.309843 0.147714 255 139 72
-0.0447344 -0.145073 0.068823 255 139 72
-0.0413316 -0.426487 0.0687974 255 139 72
-0.0392459 -0.280651 0.185068 255 139 72
-0.231096 -0.12231 0.23073 255 139 72
-0.0863171 -0.100461 0.222865 255 139 72
-0.0374439 -0.445905 0.168612 255 139 72
-0.0377596 -0.459318 0.025406 255 139 72
-0.0408646 -0.443598 0.058816 255 139 72
-0.0368588 -0.141136 -0.15809 255 139 72
-0.0404514 -0.326578 0.160318 255 139 72
-0.0382551 -0.062953 0.125926 255 139 72
-0.03687 -0.12259 -0.137564 255 139 72
-0.0388163 -0.446422 0.023778 255 139 72
-0.0371324 -0.392885 0.204987 255 139 72
-0.04088 -0.287586 -0.056984 255 139 72
-0.0411372 -0.439929 0.0644454 255 139 72
-0.0667299 -0.308152 0.2246 255 139 72
-0.0765111 -0.246044 0.224059 255 139 72
-0.0409573 -0.44703 0.0879182 255 139 72
-0.0401947 -0.46084 0.0635272 255 139 72
-0.0407564 -0.180414 0.203394 255 139 72
-0.0406876 -0.221287 0.0318339 255 139 72
-0.0408479 -0.342106 -0.068047 255 139 72
-0.040473 -0.287285 -0.0234473 255 139 72
-0.0396634 -0.428957 0.011236 255 139 72
-0.0509767 -0.137743 0.214458 255 139 72
-0.0382432 -0.0970371 -0.0745865 255 139 72
-0.0395755 -0.262064 0.172036 255 139 72
-0.0393394 -0.43524 -0.0519381 255 139 72
-0.0408278 -0.256775 0.212422 255 139 72
-0.0377254 -0.110962 -0.157711 255 139 72
-0.0396432 -0.273032 -0.124118 255 139 72
-0.0385076 -0.353211 0.19851 255 139 72
-0.187158 -0.16866 0.233739 255 139 72
-0.155878 -0.371855 0.22509 255 139 72
-0.0393774 -0.207629 0.163315 255 139 72
-0.13904 -0.441426 0.227316 255 139 72
-0.103812 -0.170867 0.227785 255 139 72
-0.0410217 -0.206152 -0.00776076 255 139 72
-0.169459 -0.322594 0.226568 255 139 72
-0.135321 -0.0774798 0.229656 255 139 72
-0.0426734 -0.226305 0.101992 255 139 72
-0.0454619 -0.0940399 0.209649 255 139 72
-0.0384784 -0.245733 -0.144284 255 139 72
-0.0375151 -0.0776938 0.170143 255 139 72
-0.0385218 -0.355109 0.206074 255 139 72
-0.0402932 -0.339299 -0.0844185 255 139 72
-0.0399235 -0.263744 0.200414 255 139 72
-0.0401866 -0.259704 -0.0356132 255 139 72
-0.0414717 -0.371262 0.00581771 255 139 72
-0.0492627 -0.106011 0.212366 255 139 72
-0.0373399 -0.109028 -0.202295 255 139 72
-0.0387879 -0.446763 -0.0488413 255 139 72
-0.0367304 -0.43218 0.180486 255 139 72
-0.0413882 -0.396862 -0.117978 255 139 72
-0.203876 -0.0697386 0.223638 255 139 72
-0.13537 -0.38663 0.224795 255 139 72
-0.117718 -0.1966 0.230044 255 139 72
-0.0414264 -0.0810879 0.0765695 255 139 72
-0.112974 -0.426267 0.224695 255 139 72
-0.0435345 -0.106501 0.0789007 255 139 72
-0.157581 -0.235231 0.229251 255 139 72
-0.0745392 -0.0837387 0.219163 255 139 72
-0.0382256 -0.374308 0.192271 255 139 72
-0.0814435 -0.107064 0.22243 255 139 72
-0.176294 -0.147414 0.234633 255 139 72
-0.0428788 -0.248237 0.0753422 255 139 72
-0.037638 -0.0647314 0.172207 255 139 72
-0.155904 -0.0669714 0.223974 255 139 72
-0.168748 -0.120272 0.234006 255 139 72
-0.0401933 -0.311498 0.025164 255 139 72
-0.105992 -0.0634078 0.223079 255 139 72
-0.0398927 -0.343762 0.168451 255 139 72
-0.0396065 -0.211141 0.193288 255 139 72
-0.0398497 -0.124943 0.157167 255 139 72
-0.0451111 -0.15202 0.0846435 255 139 72
-0.0408867 -0.22073 0.00742066 255 139 72
-0.0380106 -0.0573906 0.17524 255 139 72
-0.243188 -0.345391 0.224344 255 139 72
-0.0413195 -0.421798 0.0624066 255 139 72
-0.0409329 -0.428807 -0.106996 255 139 72
-0.0410793 -0.300442 0.0594743 255 139 72
-0.0402291 -0.289729 0.155944 255 139 72
-0.0415079 -0.219934 0.134176 255 139 72
-0.0412111 -0.352298 -0.122765 255 139 72
-0.204374 -0.0416629 0.234448 255 95 48
-0.0632399 -0.257892 0.213373 255 95 48
-0.169997 -0.0467552 0.229742 255 95 48
-0.138241 -0.360889 0.237752 255 95 48
-0.192141 -0.0939736 0.24057 255 95 48
-0.136511 -0.188248 0.242418 255 95 48
-0.216916 -0.0869979 0.239229 255 95 48
-0.0760565 -0.177721 0.250485 255 95 48
-0.195642 -0.107252 0.240611 255 95 48
-0.260561 -0.345212 0.244327 255 95 48
-0.0422587 -0.126158 0.245512 255 95 48
-0.0906444 -0.0433647 0.232685 255 95 48
-0.117081 -0.325177 0.243173 255 95 48
-0.210245 -0.315829 0.240531 255 95 48
-0.0820487 -0.149475 0.249336 255 95 48
-0.265158 -0.198587 0.243501 255 95 48
-0.0370743 -0.10268 0.221531 255 95 48
-0.13123 -0.365241 0.239033 255 95 48
-0.137987 -0.207547 0.242417 255 95 48
-0.0708361 -0.293646 0.234498 255 95 48
-0.299217 -0.318456 0.242835 255 95 48
-0.0376089 -0.0794057 0.137941 255 95 48
-0.0581362 -0.217958 0.21761 255 95 48
-0.11256 -0.235861 0.244721 255 95 48
-0.302685 -0.439589 0.240098 255 95 48
-0.133627 -0.315309 0.233985 255 95 48
-0.235996 -0.318288 0.242878 255 95 48
-0.121476 -0.259042 0.242747 255 95 48
-0.275263 -0.0681571 0.235276 255 95 48
-0.188973 -0.163372 0.240741 255 95 48
-0.127435 -0.275028 0.241503 255 95 48
-0.271803 -0.268011 0.243639 255 95 48
-0.162695 -0.106186 0.241944 255 95 48
-0.234255 -0.0521437 0.228843 255 95 48
-0.13309 -0.204319 0.242904 255 95 48
-0.238622 -0.177041 0.242172 255 95 48
-0.19227 -0.43321 0.234492 255 95 48
-0.265347 -0.308186 0.215669 255 95 48
-0.292402 -0.223642 0.242073 255 95 48
-0.234903 -0.319412 0.218717 255 95 48
-0.251089 -0.0790131 0.236843 255 95 48
-0.121218 -0.396692 0.239794 255 95 48
-0.207349 -0.379196 0.213317 255 95 48
-0.136633 -0.371458 0.238032 255 95 48
-0.138769 -0.227349 0.233487 255 95 48
-0.0385829 -0.125729 0.0775581 255 95 48
-0.211685 -0.308062 0.241043 255 95 48
-0.106715 -0.168322 0.24686 255 95 48
-0.0929893 -0.088419 0.246229 255 95 48
-0.178502 -0.320299 0.236614 255 95 48
-0.102147 -0.0700908 0.244294 255 95 48
-0.275184 -0.363513 0.245284 255 95 48
-0.0406543 -0.109354 0.240508 255 95 48
-0.166611 -0.130166 0.240807 255 95 48
-0.114023 -0.0498234 0.239942 255 95 48
-0.272023 -0.359495 0.201355 255 95 48
-0.0869337 -0.095065 0.247184 255 95 48
-0.0384724 -0.0675626 0.124205 255 95 48
-0.132935 -0.160349 0.232138 255 95 48
-0.0936539 -0.191764 0.248476 255 95 48
-0.0328135 -0.0271821 0.216753 255 95 48
-0.108677 -0.180403 0.236767 255 95 48
-0.043423 -0.153122 0.161975 255 95 48
-0.245399 -0.108969 0.240579 255 95 48
-0.101148 -0.108144 0.246654 255 95 48
-0.0893165 -0.266985 0.246621 255 95 48
-0.254934 -0.227848 0.244048 255 95 48
-0.264136 -0.251162 0.243804 255 95 48
-0.0949144 -0.155266 0.248137 255 95 48
-0.168563 -0.437475 0.231249 255 95 48
-0.0566351 -0.0302869 0.243933 255 95 48
-0.0879566 -0.35362 0.244377 255 95 48
-0.279132 -0.165443 0.24116 255 95 48
-0.218148 -0.0876842 0.23928 255 95 48
-0.208104 -0.41863 0.238186 255 95 48
-0.170063 -0.115393 0.240688 255 95 48
-0.245047 -0.0779204 0.236783 255 95 48
-0.145789 -0.112873 0.243084 255 95 48
-0.279043 -0.0669836 0.234503 255 95 48
-0.160438 -0.161439 0.241819 255 95 48
-0.219005 -0.208681 0.242543 255 95 48
-0.253418 -0.109109 0.222804 255 95 48
-0.0384512 -0.129056 0.175996 255 95 48
-0.0748122 -0.0267005 0.245407 255 95 48
-0.0909858 -0.0602199 0.246103 255 95 48
-0.191019 -0.11551 0.240117 255 95 48
-0.168581 -0.112634 0.240966 255 95 48
-0.128658 -0.169795 0.243294 255 95 48
-0.0846653 -0.226154 0.249001 255 95 48
-0.175717 -0.304367 0.238001 255 95 48
-0.0762532 -0.373742 0.244006 255 95 48
-0.234909 -0.0839737 0.23814 255 95 48
-0.251476 -0.0641999 0.226819 255 95 48
-0.155785 -0.12951 0.227569 255 95 48
-0.0295052 -0.0708945 0.109609 255 95 48
-0.242393 -0.378227 0.242984 255 95 48
-0.268869 -0.0800679 0.236437 255 95 48
-0.0757046 -0.051224 0.247804 255 95 48
-0.239473 -0.391367 0.190892 255 95 48
-0.239681 -0.0476576 0.234025 255 95 48
-0.209137 -0.150827 0.240206 255 95 48
-0.0662703 -0.274475 0.207741 255 95 48
-0.11947 -0.297539 0.243979 255 95 48
-0.254241 -0.156512 0.242433 255 95 48
-0.0516763 -0.197315 0.160564 255 95 48
-0.0877898 -0.236863 0.248295 255 95 48
-0.139099 -0.276496 0.240778 255 95 48
-0.108289 -0.267628 0.244821 255 95 48
-0.222925 -0.205955 0.242476 255 95 48
-0.151583 -0.447565 0.231546 255 95 48
-0.114199 -0.32308 0.243569 255 95 48
-0.129515 -0.309461 0.240821 255 95 48
-0.0830937 -0.245642 0.248169 255 95 48
-0.0812854 -0.0461808 0.246799 255 95 48
-0.0766001 -0.0675864 0.232583 255 95 48
-0.195588 -0.14847 0.239999 255 95 48
-0.256518 -0.175407 0.243266 255 95 48
-0.17973 -0.0403306 0.232182 255 95 48
-0.0928865 -0.297104 0.244813 255 95 48
-0.229793 -0.0417659 0.232782 255 95 48
-0.214783 -0.28946 0.241779 255 95 48
-0.262126 -0.0637499 0.235332 255 95 48
-0.0874869 -0.142029 0.248642 255 95 48
-0.0518915 -0.172476 0.244633 255 95 48
-0.29299 -0.40417 0.245188 255 95 48
-0.0759653 -0.469298 0.246667 255 95 48
-0.227247 -0.337785 0.242375 255 95 48
-0.253992 -0.0831275 0.237676 255 95 48
-0.276818 -0.0613401 0.233918 255 95 48
-0.178797 -0.254036 0.241064 255 95 48
-0.268881 -0.0660493 0.235403 255 95 48
-0.195847 -0.0800658 0.22473 255 95 48
-0.0872265 -0.199075 0.249576 255 95 48
-0.0498432 -0.176938 0.205803 255 95 48
-0.160912 -0.255569 0.240954 255 95 48
-0.197029 -0.323863 0.237296 255 95 48
-0.242181 -0.294559 0.243211 255 95 48
-0.0800213 -0.32625 0.244767 255 95 48
-0.125664 -0.409836 0.238942 255 95 48
-0.128928 -0.378637 0.238828 255 95 48
-0.188924 -0.197858 0.241955 255 95 48
-0.128243 -0.0374718 0.233713 255 95 48
-0.29204 -0.226491 0.242132 255 95 48
-0.164449 -0.285321 0.239572 255 95 48
-0.245901 -0.212614 0.221396 255 95 48
-0.0916868 -0.252 0.246969 255 95 48
-0.289508 -0.134933 0.238718 255 95 48
-0.270687 -0.09581 0.238835 255 95 48
-0.26137 -0.433075 0.244454 255 95 48
-0.0737358 -0.390137 0.243167 255 95 48
-0.268656 -0.0526749 0.231463 255 95 48
-0.242498 -0.351353 0.243078 255 95 48
-0.18158 -0.327155 0.236135 255 95 48
-0.227713 -0.0824724 0.238087 255 95 48
-0.222755 -0.195064 0.242067 255 95 48
-0.0457257 -0.141287 0.00152244 255 95 48
-0.0772714 -0.347404 0.243518 255 95 48
-0.151587 -0.346839 0.236394 255 95 48
-0.0402762 -0.137603 0.148375 255 95 48
-0.162892 -0.183587 0.241859 255 95 48
-0.0373145 -0.126494 0.211085 255 95 48
-0.172609 -0.0898807 0.224698 255 95 48
-0.292042 -0.343441 0.244461 255 95 48
-0.190429 -0.184655 0.241562 255 95 48
-0.0439258 -0.147053 0.0235045 255 95 48
-0.151656 -0.100161 0.242866 255 95 48
-0.237451 -0.0430673 0.232935 255 95 48
-0.209372 -0.42396 0.238401 255 95 48
-0.0720624 -0.108557 0.236569 255 95 48
-0.0405749 -0.15111 0.0879656 255 95 48
-0.0881337 -0.0420856 0.244708 255 95 48
-0.230848 -0.21585 0.243108 255 95 48
-0.104657 -0.0392783 0.234314 255 95 48
-0.0420747 -0.163875 0.0808061 255 95 48
-0.260565 -0.313145 0.244015 255 95 48
-0.240921 -0.197393 0.221116 255 95 48
-0.0890815 -0.069054 0.246242 255 95 48
-0.26017 -0.141399 0.221182 255 95 48
-0.267898 -0.240469 0.243958 255 95 48
-0.0292701 -0.0316664 0.180225 255 95 48
-0.202848 -0.121434 0.240117 255 95 48
-0.220385 -0.0601322 0.233588 255 95 48
-0.274134 -0.0911198 0.225741 255 95 48
-0.0810371 -0.213687 0.249743 255 95 48
-0.135699 -0.363963 0.238292 255 95 48
-0.0686927 -0.0309913 0.243522 255 95 48
-0.207401 -0.102463 0.240286 255 95 48
-0.231221 -0.0803379 0.224326 255 95 48
-0.266431 -0.180756 0.219388 255 95 48
-0.235193 -0.0975607 0.223369 255 95 48
-0.0378972 -0.0675421 0.0607867 255 95 48
-0.146339 -0.152563 0.229818 255 95 48
-0.0746913 -0.273467 0.247891 255 95 48
-0.245118 -0.0825035 0.237772 255 95 48
-0.0671782 -0.222234 0.248421 255 95 48
-0.225852 -0.269696 0.223473 255 95 48
-0.255131 -0.407472 0.244276 255 95 48
-0.0827636 -0.257978 0.247864 255 95 48
-0.185805 -0.153318 0.240485 255 95 48
-0.188289 -0.367768 0.234485 255 95 48
-0.190118 -0.0710487 0.237688 255 95 48
-0.205076 -0.321836 0.239404 255 95 48
-0.049868 -0.117751 0.247975 255 95 48
-0.215535 -0.248761 0.242564 255 95 48
-0.092166 -0.126938 0.247518 255 95 48
-0.0632074 -0.0690378 0.248534 255 95 48
-0.289099 -0.105385 0.236282 255 95 48
-0.187587 -0.131055 0.222943 255 95 48
-0.108409 -0.056843 0.228253 255 95 48
-0.288314 -0.161871 0.240345 255 95 48
-0.100402 -0.250541 0.245732 255 95 48
-0.159815 -0.366551 0.235136 255 95 48
-0.225667 -0.418177 0.241238 255 95 48
-0.147161 -0.047424 0.235465 255 95 48
-0.0545741 -0.0462359 0.248774 255 95 48
-0.226343 -0.418068 0.241317 255 95 48
-0.174537 -0.130895 0.240067 255 95 48
-0.28052 -0.176579 0.241545 255 95 48
-0.0857478 -0.172089 0.24954 255 95 48
-0.240506 -0.371903 0.242888 255 95 48
-0.0543334 -0.124938 0.249137 255 95 48
-0.22943 -0.397525 0.241794 255 95 48
-0.253404 -0.336051 0.243802 255 95 48
-0.0964619 -0.162658 0.248087 255 95 48
-0.268203 -0.110218 0.240296 255 95 48
-0.218785 -0.109702 0.240637 255 95 48
-0.228974 -0.0549011 0.233764 255 95 48
-0.132844 -0.0375374 0.233585 255 95 48
-0.223098 -0.061998 0.225858 255 95 48
-0.129898 -0.441306 0.237885 255 95 48
-0.204497 -0.0640165 0.226048 255 95 48
-0.168196 -0.167959 0.241728 255 95 48
-0.157789 -0.304946 0.238515 255 95 48
-0.06839 -0.247793 0.247671 255 95 48
-0.125752 -0.407719 0.238946 255 95 48
-0.0724258 -0.129497 0.249144 255 95 48
-0.198619 -0.334451 0.23721 255 95 48
-0.296535 -0.409875 0.245073 255 95 48
-0.241498 -0.324428 0.243176 255 95 48
-0.0740585 -0.0758169 0.233552 255 95 48
-0.0551735 -0.0735669 0.248488 255 95 48
-0.0331855 -0.0518868 0.0859852 255 95 48
-0.17691 -0.0719879 0.238536 255 95 48
-0.108166 -0.0818236 0.244278 255 95 48
-0.196337 -0.316117 0.237516 255 95 48
-0.113764 -0.0681977 0.242165 255 95 48
-0.23262 -0.305432 0.242734 255 95 48
-0.179575 -0.194169 0.242171 255 95 48
-0.242147 -0.145636 0.241121 255 95 48
-0.118743 -0.0410423 0.238039 255 95 48
-0.165118 -0.362622 0.235207 255 95 48
-0.116245 -0.363412 0.240843 255 95 48
-0.162617 -0.0573775 0.226582 255 95 48
-0.223242 -0.0727698 0.236441 255 95 48
-0.249662 -0.437152 0.243292 255 95 48
-0.0941324 -0.257025 0.246356 255 95 48
-0.105867 -0.0958281 0.231717 255 95 48
-0.26637 -0.0503989 0.23296 255 95 48
-0.229781 -0.281173 0.242977 255 95 48
-0.225964 -0.379715 0.203371 255 95 48
-0.28292 -0.132563 0.239664 255 95 48
-0.166589 -0.229678 0.241835 255 95 48
-0.036765 -0.127912 0.196215 255 95 48
-0.0959453 -0.252359 0.246234 255 95 48
-0.25892 -0.0506982 0.23143 255 95 48
-0.243725 -0.387452 0.243099 255 95 48
-0.0381855 -0.0607737 0.193591 255 95 48
-0.115647 -0.0966421 0.244827 255 95 48
-0.211563 -0.145558 0.240064 255 95 48
-0.204306 -0.0974524 0.240189 255 95 48
-0.267658 -0.410511 0.244967 255 95 48
-0.133187 -0.314948 0.239835 255 95 48
-0.260891 -0.0911561 0.23891 255 95 48
-0.172519 -0.0641134 0.22608 255 95 48
-0.26926 -0.244055 0.24392 255 95 48
-0.173833 -0.361145 0.235012 255 95 48
-0.0612714 -0.155007 0.249913 255 95 48
-0.0700315 -0.169802 0.250563 255 95 48
-0.183491 -0.19553 0.242094 255 95 48
-0.228007 -0.167438 0.241052 255 95 48
-0.0373054 -0.124057 0.212494 255 95 48
-0.0967653 -0.193519 0.247996 255 95 48
-0.161508 -0.0387461 0.235125 255 95 48
-0.170734 -0.140464 0.2408 255 95 48
-0.171181 -0.13156 0.240382 255 95 48
-0.186576 -0.0385848 0.233304 255 95 48
-0.266644 -0.293706 0.243497 255 95 48
-0.211454 -0.0719524 0.236724 255 95 48
-0.102365 -0.155178 0.247075 255 95 48
-0.0306721 -0.0333852 0.207859 255 95 48
-0.148604 -0.274454 0.240664 255 95 48
-0.122521 -0.280748 0.242864 255 95 48
-0.10051 -0.0730115 0.244621 255 95 48
-0.265043 -0.32812 0.214068 255 95 48
-0.170944 -0.227744 0.242005 255 95 48
-0.207489 -0.244786 0.242227 255 95 48
-0.205069 -0.251952 0.242006 255 95 48
-0.253585 -0.454271 0.243277 255 95 48
-0.196528 -0.222838 0.242049 255 95 48
-0.257154 -0.146253 0.242115 255 95 48
-0.078191 -0.344832 0.244041 255 95 48
-0.301689 -0.392479 0.244851 255 95 48
-0.236016 -0.067771 0.234381 255 95 48
-0.0658181 -0.0471667 0.248333 255 95 48
-0.116199 -0.379609 0.240521 255 95 48
-0.142655 -0.263286 0.241101 255 95 48
-0.0398189 -0.141346 0.105958 255 95 48
-0.199708 -0.15771 0.240379 255 95 48
-0.0792102 -0.154861 0.249724 255 95 48
-0.112159 -0.348366 0.242567 255 95 48
-0.0602083 -0.181542 0.245237 255 95 48
-0.0792424 -0.335236 0.244579 255 95 48
-0.154539 -0.18672 0.241773 255 95 48
-0.13974 -0.0941696 0.243067 255 95 48
-0.0877319 -0.176801 0.249342 255 95 48
-0.217934 -0.0989706 0.240125 255 95 48
-0.196828 -0.412259 0.235907 255 95 48
-0.291863 -0.182455 0.241152 255 95 48
-0.07326 -0.0408062 0.247554 255 95 48
-0.0620605 -0.175124 0.250103 255 95 48
-0.162054 -0.372766 0.234767 255 95 48
-0.119598 -0.0521857 0.239151 255 95 48
-0.255253 -0.235858 0.243993 255 95 48
-0.198274 -0.239076 0.226333 255 95 48
-0.248191 -0.352247 0.243435 255 95 48
-0.257017 -0.0471109 0.232884 255 95 48
-0.25502 -0.208765 0.244135 255 95 48
-0.097343 -0.0555301 0.244864 255 95 48
-0.138692 -0.434611 0.236802 255 95 48
-0.153296 -0.36813 0.224692 255 95 48
-0.0880948 -0.469026 0.243168 255 95 48
-0.108083 -0.302375 0.24458 255 95 48
-0.140319 -0.0558958 0.236907 255 95 48
-0.0721862 -0.295533 0.245745 255 95 48
-0.080814 -0.0650861 0.247207 255 95 48
-0.251102 -0.132369 0.241599 255 95 48
-0.2338 -0.200775 0.24293 255 95 48
-0.0469643 -0.165382 0.209847 255 95 48
-0.127422 -0.0659513 0.239524 255 95 48
-0.291019 -0.146694 0.239113 255 95 48
-0.267999 -0.0731979 0.226872 255 95 48
-0.113627 -0.291305 0.244505 255 95 48
-0.271094 -0.247237 0.243885 255 95 48
-0.260397 -0.178361 0.243139 255 95 48
-0.0746561 -0.315821 0.232139 255 95 48
-0.130135 -0.0667539 0.239154 255 95 48
-0.228327 -0.263582 0.243472 255 95 48
