ply
format ascii 1.0
comment Created by Open3D
element vertex 1215
property double x
property double y
property double z
property uchar red
property uchar green
property uchar blue
end_header
-0.164218 0.0753096 -0.0527852 31 142 243
-0.279677 0.0753211 0.0631144 31 142 243
-0.351775 0.0750811 0.0314179 31 142 243
-0.32137 0.0754898 -0.044921 31 142 243
0.0379954 0.0749853 0.00378584 31 142 243
-0.353441 0.0751643 0.0127981 31 142 243
-0.210455 0.0752662 0.00638618 31 142 243
0.129106 0.0750626 0.0494224 31 142 243
-0.262743 0.0755686 -0.0760378 31 142 243
-0.350253 0.0755798 0.0941946 31 142 243
-0.241644 0.0761327 0.142258 31 142 243
-0.307266 0.0754836 -0.0706897 31 142 243
0.136138 0.0751886 -0.240428 31 142 243
0.0553995 0.0761583 0.317926 31 142 243
0.127458 0.0750135 -0.115012 31 142 243
0.127119 0.0755175 0.380327 31 142 243
-0.33985 0.0770106 0.294839 31 142 243
0.0836349 0.0749534 -0.199604 31 142 243
-0.293804 0.0755405 -0.0739864 31 142 243
0.0903212 0.0748716 -0.12071 31 142 243
0.102697 0.0756652 0.279141 31 142 243
0.127247 0.0750155 -0.0594218 31 142 243
0.049414 0.0749655 0.00306206 31 142 243
0.104821 0.0749195 -0.113726 31 142 243
0.139004 0.0752483 0.0888946 31 142 243
-0.339752 0.0753613 -0.0134523 31 142 243
0.216927 0.0755409 0.0116036 31 142 243
-0.0667116 0.0752455 0.0581942 31 142 243
-0.211368 0.0755858 -0.108147 31 142 243
0.117505 0.0751379 -0.252527 31 142 243
0.216512 0.0754033 0.102186 31 142 243
-0.199989 0.0754968 -0.0988324 31 142 243
-0.258879 0.0752666 0.00276481 31 142 243
0.210506 0.0754113 0.105451 31 142 243
-0.124706 0.0763925 0.222322 31 142 243
0.121274 0.0749861 -0.0401901 31 142 243
0.173636 0.0753573 0.0844237 31 142 243
0.205627 0.0756466 -0.233019 31 142 243
0.266077 0.0755964 0.0529998 31 142 243
-0.201471 0.0755185 0.0819165 31 142 243
-0.375815 0.076405 0.210547 31 142 243
-0.154941 0.0759322 0.123923 31 142 243
-0.214296 0.0752194 0.0156974 31 142 243
0.234024 0.0755587 0.245169 31 142 243
-0.012088 0.0751775 -0.175652 31 142 243
0.0844669 0.0749156 -0.0555403 31 142 243
-0.361336 0.0755533 0.0928611 31 142 243
-0.339434 0.076684 0.240604 31 142 243
0.131583 0.0750298 -0.0252368 31 142 243
0.105828 0.0749776 -0.165774 31 142 243
-0.313719 0.075494 -0.0653626 31 142 243
-0.390662 0.0764604 0.234801 31 142 243
-0.28994 0.0766696 0.240308 31 142 243
0.0220914 0.075084 -0.173299 31 142 243
0.227317 0.0755609 0.178519 31 142 243
-0.339805 0.0762602 0.167785 31 142 243
-0.369812 0.0753123 0.0713735 31 142 243
0.177303 0.0753186 -0.190383 31 142 243
-0.056249 0.0753189 -0.17526 31 142 243
0.190488 0.0753477 -0.0204627 31 142 243
-0.0646203 0.075684 0.115842 31 142 243
0.00574874 0.0751319 -0.184144 31 142 243
-0.21698 0.0754656 0.0765275 31 142 243
0.190208 0.0755089 0.296419 31 142 243
-0.0479428 0.0757704 0.128376 31 142 243
-0.0619778 0.075129 -0.0561728 31 142 243
-0.224851 0.0759667 0.126428 31 142 243
0.239326 0.0757573 -0.152349 31 142 243
-0.306554 0.075187 0.0495095 31 142 243
0.159458 0.0751953 -0.178468 31 142 243
-0.0165867 0.0752129 -0.212618 31 142 243
0.19958 0.0754339 -0.164424 31 142 243
0.206526 0.0755532 -0.191956 31 142 243
-0.347832 0.0753615 -0.0138859 31 142 243
-0.141065 0.0753044 -0.0875568 31 142 243
-0.334216 0.0754143 -0.0191601 31 142 243
0.0126653 0.0766775 0.36621 31 142 243
-0.0287582 0.0751178 0.0459676 31 142 243
0.0211918 0.0750556 -0.0323856 31 142 243
-0.24954 0.0756103 -0.0903819 31 142 243
0.249147 0.0758252 -0.0923921 31 142 243
0.00169015 0.0750842 -0.0181226 31 142 243
-0.119834 0.0752097 0.025303 31 142 243
0.0655473 0.0749436 -0.129621 31 142 243
0.193008 0.0753189 0.0429882 31 142 243
0.201118 0.0755635 0.250321 31 142 243
-0.381095 0.0750037 0.0357691 31 142 243
-0.289448 0.0770801 0.307602 31 142 243
-0.294755 0.0759215 0.12411 31 142 243
-0.226357 0.0754676 -0.0718108 31 142 243
-0.170777 0.0753419 -0.0747596 31 142 243
0.028175 0.0758982 0.186076 31 142 243
0.0982492 0.0750477 -0.231104 31 142 243
0.248715 0.0778084 0.0752499 0 180 235
0.295082 -0.0622485 0.334079 0 180 235
-0.115507 0.0691918 -0.0792633 0 180 235
-0.332782 0.0718141 0.269859 0 180 235
-0.388026 0.0703189 0.246561 0 180 235
0.234813 0.0771005 0.225936 0 180 235
-0.0602327 0.0754435 0.306712 0 180 235
0.235226 0.0712818 0.359088 0 180 235
0.103438 0.0787567 0.327618 0 180 235
0.15978 0.0726513 0.0712801 0 180 235
-0.0429449 0.0750059 0.415292 0 180 235
0.0246054 0.0747719 0.2707 0 180 235
-0.0179639 0.0744494 0.216922 0 180 235
-0.273128 0.0730504 0.238576 0 180 235
-0.00714229 0.0743261 0.219929 0 180 235
-0.197777 0.0736008 0.125171 0 180 235
-0.354377 0.0713634 0.270452 0 180 235
-0.0141243 0.0734878 0.0219998 0 180 235
-0.023912 0.0788567 0.371682 0 180 235
-0.217516 0.075598 0.369182 0 180 235
0.280582 0.0663351 0.303032 0 180 235
0.0438018 0.0743846 0.245038 0 180 235
-0.133452 0.0746687 0.181322 0 180 235
0.293478 0.041509 0.243143 0 180 235
-0.318968 0.0710898 0.181865 0 180 235
-0.109775 0.0733548 0.0466818 0 180 235
0.284283 0.0643207 0.294807 0 180 235
-0.369078 0.0715282 0.308661 0 180 235
-0.377985 0.0733292 0.39131 0 180 235
-0.23153 0.0716905 0.0301947 0 180 235
0.295476 0.0386695 0.410542 0 180 235
0.284209 0.0668889 0.118335 0 180 235
0.0934862 0.074977 0.234128 0 180 235
-0.15324 0.0693118 -0.0798823 0 180 235
0.19321 0.0722185 -0.000119215 0 180 235
0.292778 0.0432696 0.34593 0 180 235
-0.312566 0.0724566 0.280263 0 180 235
-0.21907 0.070357 -0.000545366 0 180 235
0.269258 0.0609418 0.418218 0 180 235
0.294486 -0.069184 0.34945 0 180 235
0.256024 0.0781003 0.133564 0 180 235
-0.319357 0.0714797 0.213285 0 180 235
-0.115908 0.0771026 0.366315 0 180 235
0.0121827 0.0737622 0.117001 0 180 235
0.17494 0.0740716 0.136733 0 180 235
-0.116666 0.0728963 0.0346054 0 180 235
-0.265146 0.0735205 0.25315 0 180 235
-0.273075 0.074609 0.302255 0 180 235
-0.392045 0.072741 0.39171 0 180 235
-0.240541 0.0703229 -0.0208246 0 180 235
-0.0599558 0.0752076 0.298853 0 180 235
0.290726 -0.216647 0.322751 0 180 235
-0.294642 0.0713581 0.0263814 0 180 235
-0.270239 0.0748914 0.306635 0 180 235
0.0408574 0.0731422 0.0572087 0 180 235
-0.399015 0.0700613 0.251078 0 180 235
0.0298932 0.0733911 0.0870697 0 180 235
-0.327709 0.0705361 0.164014 0 180 235
0.0218953 0.0746727 0.45103 0 180 235
-0.159348 0.0721197 0.0339051 0 180 235
0.293339 0.0394208 0.36666 0 180 235
0.297606 0.0309667 0.406598 0 180 235
-0.298771 0.0741428 0.438021 0 180 235
-0.180209 0.0760046 0.417039 0 180 235
-0.351266 0.0742496 0.394451 0 180 235
0.0566348 0.074631 0.454596 0 180 235
-0.150386 0.0763191 0.364659 0 180 235
-0.105378 0.0753579 0.298364 0 180 235
0.29313 -0.0847364 0.367602 0 180 235
-0.371586 0.0701433 0.228445 0 180 235
-0.0851749 0.0741855 0.0915364 0 180 235
0.0744945 0.0745449 0.207976 0 180 235
0.268484 -0.307977 0.328397 0 180 235
-0.202258 0.0726584 0.0653504 0 180 235
-0.365741 0.0717139 0.327586 0 180 235
0.0200422 0.0744047 0.202209 0 180 235
-0.0072229 0.0734131 0.0139205 0 180 235
0.2962 -0.170863 0.27049 0 180 235
-0.109037 0.0771752 0.362652 0 180 235
0.0541421 0.0706042 -0.0664134 0 180 235
0.299749 -0.0234946 0.0612546 0 180 235
0.292515 0.0447108 0.346835 0 180 235
-0.205207 0.069987 -0.0134542 0 180 235
0.153593 0.0756079 0.211441 0 180 235
-0.220916 0.0750591 0.406306 0 180 235
-0.233047 0.0707673 0.0113669 0 180 235
0.293241 0.0485179 0.272295 0 180 235
0.287677 0.0473492 0.391541 0 180 235
0.0441264 0.072617 -0.0101168 0 180 235
0.115508 0.0727125 0.0455331 0 180 235
-0.180579 0.0738474 0.127827 0 180 235
-0.28562 0.0721773 0.206013 0 180 235
0.185418 0.0720319 -0.0104376 0 180 235
-0.122822 0.077092 0.375841 0 180 235
-0.341204 0.072836 0.34699 0 180 235
0.265446 0.0778822 0.0279285 0 180 235
0.296562 -0.0236959 0.220116 0 180 235
-0.216347 0.0753279 0.297858 0 180 235
-0.100058 0.0744742 0.249014 0 180 235
-0.0319386 0.0745801 0.2007 0 180 235
-0.330104 0.070385 0.149394 0 180 235
0.281919 -0.290164 0.342973 0 180 235
-0.20633 0.0753846 0.435362 0 180 235
-0.346902 0.0701266 0.0914004 0 180 235
-0.0526439 0.0745934 0.192214 0 180 235
-0.101125 0.0751207 0.283365 0 180 235
0.167434 0.0723352 0.0438261 0 180 235
0.0618015 0.0769021 0.298909 0 180 235
-0.433139 0.0714302 0.322794 0 180 235
0.259686 0.077317 0.125386 0 180 235
0.111619 0.0746485 0.19655 0 180 235
0.271219 -0.327741 0.294591 0 180 235
0.295033 -0.0500652 0.380335 0 180 235
-0.196352 0.0725651 0.0611635 0 180 235
-0.214183 0.0734675 0.154063 0 180 235
0.269864 0.0756819 0.133651 0 180 235
-0.0363454 0.0746343 0.188436 0 180 235
-0.139207 0.0728418 0.448085 0 180 235
0.139852 0.0744715 0.412861 0 180 235
-0.165989 0.0761299 0.397437 0 180 235
0.194648 0.0724497 0.389314 0 180 235
-0.183469 0.0738854 0.142046 0 180 235
0.29712 -0.0501131 0.264832 0 180 235
-0.169824 0.0693668 -0.0798811 0 180 235
-0.267642 0.0713432 0.026922 0 180 235
-0.121708 0.0766235 0.353751 0 180 235
0.294272 -0.0723985 0.353237 0 180 235
-0.426367 0.0721624 0.399163 0 180 235
-0.0590146 0.0738016 0.427687 0 180 235
-0.21548 0.074086 0.450279 0 180 235
-0.142318 0.0761629 0.348817 0 180 235
-0.215109 0.0706011 0.0103712 0 180 235
0.2947 0.0348457 0.203213 0 180 235
0.267126 -0.334153 0.329824 0 180 235
-0.182197 0.0694147 -0.0783789 0 180 235
-0.262124 0.070438 -0.00583656 0 180 235
-0.18759 0.0698805 -0.00811608 0 180 235
-0.422191 0.0702154 0.266459 0 180 235
0.042972 0.0740304 0.427115 0 180 235
0.27574 -0.317694 0.209927 0 180 235
0.0668698 0.0729132 0.0470449 0 180 235
0.204941 0.0755709 0.179387 0 180 235
0.0753478 0.0742768 0.188347 0 180 235
0.17506 0.0720846 -0.0161977 0 180 235
-0.157338 0.0712259 0.0129688 0 180 235
-0.163483 0.0694448 -0.0648756 0 180 235
-0.326157 0.0711688 0.0588274 0 180 235
-0.274585 0.0719508 0.0680314 0 180 235
-0.0349036 0.0690423 -0.0762043 0 180 235
0.188475 0.0768215 0.241823 0 180 235
-0.230759 0.0722365 0.0516985 0 180 235
-0.0451873 0.0761292 0.319335 0 180 235
-0.411171 0.0716066 0.352074 0 180 235
-0.120141 0.0766592 0.412516 0 180 235
-0.350257 0.0706687 0.228255 0 180 235
0.163851 0.0754241 0.386606 0 180 235
-0.333971 0.0724389 0.326314 0 180 235
0.0806328 0.0741086 0.174464 0 180 235
0.215291 0.0737633 -0.00155239 0 180 235
-0.301356 0.0714839 0.105586 0 180 235
0.260915 0.0638066 0.398898 0 180 235
-0.210244 0.0742151 0.232072 0 180 235
0.0417362 0.0744463 0.216087 0 180 235
-0.284262 0.0748862 0.379648 0 180 235
-0.348206 0.0709206 0.236129 0 180 235
-0.0918412 0.075937 0.324854 0 180 235
0.235296 0.0772991 0.174887 0 180 235
-0.396913 0.0715304 0.332856 0 180 235
0.290966 -0.108273 0.388483 0 180 235
-0.209843 0.075401 0.426081 0 180 235
-0.0777471 0.0745661 0.169771 0 180 235
-0.377321 0.0715006 0.312787 0 180 235
0.151932 0.0769403 0.261344 0 180 235
-0.318923 0.0713904 0.0571762 0 180 235
-0.0162484 0.0736149 0.0800388 0 180 235
-0.412662 0.0715393 0.329537 0 180 235
-0.165798 0.0762829 0.412701 0 180 235
0.0383719 0.0754149 0.457336 0 180 235
-0.173305 0.0759952 0.384826 0 180 235
0.0724536 0.0738349 0.138193 0 180 235
0.250212 0.0758492 0.286518 0 180 235
0.291623 0.0600172 0.19028 0 180 235
0.0301786 0.078822 0.358818 0 180 235
0.0220502 0.0743136 0.159878 0 180 235
0.299786 -0.0615438 0.133741 0 180 235
-0.26196 0.0742185 0.437128 0 180 235
0.151922 0.0780186 0.354407 0 180 235
0.294565 0.0361106 0.380598 0 180 235
-0.226801 0.0752484 0.291211 0 180 235
-0.140741 0.0740193 0.440324 0 180 235
0.276349 0.073687 0.145113 0 180 235
-0.406844 0.070898 0.278732 0 180 235
-0.212654 0.072199 0.0502763 0 180 235
-0.315518 0.0747994 0.413108 0 180 235
0.113496 0.0738151 0.426376 0 180 235
-0.070831 0.0724925 0.439403 0 180 235
-0.249929 0.0727715 0.180813 0 180 235
-0.0791792 0.0756543 0.316088 0 180 235
0.297874 -0.103522 0.246434 0 180 235
0.297127 -0.0653099 0.26927 0 180 235
-0.154506 0.074211 0.124048 0 180 235
-0.202371 0.075364 0.294823 0 180 235
-0.0778855 0.0763801 0.330951 0 180 235
0.297063 -0.0512524 0.28361 0 180 235
-0.340876 0.0726685 0.342212 0 180 235
-0.342826 0.0740665 0.379991 0 180 235
-0.104001 0.0745501 0.138136 0 180 235
0.238261 0.0646097 0.426098 0 180 235
-0.411037 0.0717609 0.367253 0 180 235
-0.036018 0.0741521 0.255075 0 180 235
0.0742356 0.0742317 0.184885 0 180 235
-0.319748 0.0708151 0.154116 0 180 235
-0.143787 0.0747055 0.164572 0 180 235
-0.366422 0.0692671 0.153106 0 180 235
-0.234116 0.0744318 0.253352 0 180 235
0.189175 0.0725311 0.0726028 0 180 235
-0.228048 0.0701701 -0.028576 0 180 235
-0.0301159 0.0770745 0.330695 0 180 235
-0.0347316 0.0690938 -0.0738237 0 180 235
0.259132 0.0628688 0.413928 0 180 235
0.296011 -0.182742 0.265894 0 180 235
-0.325352 0.0708022 0.0958778 0 180 235
-0.104723 0.0735123 0.0495377 0 180 235
-0.130294 0.0727508 0.446486 0 180 235
-0.0441936 0.0785661 0.379023 0 180 235
-0.361897 0.0743794 0.406608 0 180 235
0.220518 0.0762608 0.118996 0 180 235
0.29678 0.022374 0.388104 0 180 235
0.208162 0.0727777 0.373187 0 180 235
-0.375925 0.0713835 0.289047 0 180 235
0.132267 0.0786951 0.344056 0 180 235
0.0824226 0.0723668 -0.0184854 0 180 235
0.287351 0.0488451 0.373334 0 180 235
-0.434467 0.0714001 0.304976 0 180 235
-0.359098 0.0697048 0.108058 0 180 235
-0.388414 0.0712303 0.276361 0 180 235
-0.286072 0.0748113 0.367879 0 180 235
0.243771 0.0776503 0.0880489 0 180 235
0.292627 -0.0902323 0.373351 0 180 235
-0.211103 0.0756175 0.332392 0 180 235
0.167766 0.0745942 0.157835 0 180 235
-0.400828 0.0713947 0.295603 0 180 235
-0.232666 0.0699799 -0.0388389 0 180 235
0.270933 -0.323429 0.289374 0 180 235
0.224664 0.0767037 0.292664 0 180 235
-0.0518422 0.0752341 0.414838 0 180 235
0.285684 0.0534815 0.354468 0 180 235
0.04479 0.0730699 0.435303 0 180 235
-0.253218 0.0738524 0.25395 0 180 235
-0.0545236 0.0738016 0.442623 0 180 235
0.0657412 0.072888 0.03646 0 180 235
-0.343519 0.0732565 0.358999 0 180 235
-0.073511 0.0752403 0.299185 0 180 235
-0.0281385 0.0773958 0.392209 0 180 235
-0.218831 0.0752252 0.277656 0 180 235
-0.386595 0.0711613 0.270734 0 180 235
0.300932 -0.157495 0.169253 0 180 235
-0.134492 0.0711733 0.00711661 0 180 235
-0.0327234 0.0741171 0.254467 0 180 235
0.0941426 0.0740543 0.425332 0 180 235
0.113798 0.0789958 0.338393 0 180 235
0.249351 0.0769003 0.0292007 0 180 235
-0.00219371 0.0753131 0.41376 0 180 235
0.103986 0.0723065 -0.020073 0 180 235
0.283035 0.0539875 0.404025 0 180 235
0.284406 0.0617833 0.314702 0 180 235
-0.0145964 0.075509 0.298582 0 180 235
0.128981 0.0721459 -0.0262377 0 180 235
0.12541 0.0772646 0.277409 0 180 235
0.187478 0.0721893 0.0613198 0 180 235
0.292975 0.0509439 0.277208 0 180 235
-0.333793 0.0707432 0.202021 0 180 235
0.0294869 0.0778813 0.378082 0 180 235
0.175918 0.0700907 0.435233 0 180 235
-0.377843 0.0713362 0.281388 0 180 235
-0.205785 0.0756713 0.366611 0 180 235
0.275055 -0.363558 0.263461 0 180 235
0.29698 -0.0125906 0.363072 0 180 235
0.255663 0.0642137 0.403568 0 180 235
-0.123791 0.0749887 0.270834 0 180 235
-0.137743 0.0699206 -0.0168388 0 180 235
0.228003 0.0758963 0.30483 0 180 235
0.180109 0.0721515 -0.0130617 0 180 235
0.111525 0.0734609 0.11106 0 180 235
-0.0453607 0.0739603 0.1143 0 180 235
-0.0334101 0.0736617 0.0451448 0 180 235
-0.280366 0.0712227 0.0213698 0 180 235
0.25026 0.0772432 0.243799 0 180 235
0.292305 -0.120684 0.344968 0 180 235
0.209885 0.0775905 0.285334 0 180 235
-0.149933 0.0730001 0.0581622 0 180 235
-0.0509405 0.0740965 0.127809 0 180 235
-0.262085 0.0725285 0.190499 0 180 235
0.00784941 0.0762094 0.306075 0 180 235
0.213185 0.0763816 0.321203 0 180 235
0.28269 0.0658062 0.293195 0 180 235
0.109766 0.0733582 0.431991 0 180 235
0.21791 0.0734193 -0.0199083 0 180 235
0.257141 0.0658358 0.384275 0 180 235
0.296744 -0.0485473 0.296089 0 180 235
-0.180731 0.0759983 0.417426 0 180 235
0.145197 0.0788989 0.335995 0 180 235
0.1524 0.0742364 0.152878 0 180 235
0.296173 0.0261015 0.181471 0 180 235
-0.192524 0.0753103 0.281034 0 180 235
0.0860055 0.0726485 -0.00951252 0 180 235
0.290825 -0.227867 0.311483 0 180 235
-0.0332751 0.0787548 0.370484 0 180 235
-0.215692 0.0720657 0.0435632 0 180 235
0.200771 0.0781599 0.290698 0 180 235
0.219239 0.0765464 0.197419 0 180 235
0.263975 0.0745993 0.295922 0 180 235
-0.178761 0.0741717 0.192165 0 180 235
-0.0985193 0.0752537 0.423221 0 180 235
-0.0998478 0.074586 0.254882 0 180 235
0.0951523 0.0736843 0.123528 0 180 235
0.0314378 0.0764445 0.302117 0 180 235
-0.13854 0.0763742 0.356894 0 180 235
-0.116633 0.0735659 0.0578878 0 180 235
-0.26149 0.0724377 0.113641 0 180 235
0.272056 0.0754444 0.0639627 0 180 235
-0.411278 0.0714668 0.307329 0 180 235
0.292782 0.0517701 0.187077 0 180 235
0.301688 -0.0388382 0.0800718 0 180 235
-0.251826 0.072965 0.210769 0 180 235
-0.0132107 0.0777397 0.335264 0 180 235
0.243398 0.0758739 0.285265 0 180 235
0.294859 0.0319363 0.267079 0 180 235
-0.0347706 0.077589 0.339948 0 180 235
0.273734 -0.344999 0.271011 0 180 235
0.265387 0.0779825 0.213677 0 180 235
0.103033 0.078408 0.316282 0 180 235
-0.123029 0.0770872 0.397588 0 180 235
-0.322062 0.0708193 0.0980443 0 180 235
0.0922594 0.0719239 -0.0349179 0 180 235
0.197006 0.0713323 -0.033166 0 180 235
-0.0872334 0.074597 0.258204 0 180 235
-0.148782 0.0765256 0.401428 0 180 235
0.0611209 0.074423 0.45376 0 180 235
0.191475 0.0721011 -0.00141999 0 180 235
-0.31719 0.0714506 0.0553343 0 180 235
-0.162923 0.0762251 0.377001 0 180 235
0.276632 0.0648635 0.337687 0 180 235
0.200464 0.0752384 0.179685 0 180 235
-0.381369 0.06951 0.222619 0 180 235
0.00713386 0.074014 0.252253 0 180 235
-0.318516 0.0711503 0.0316808 0 180 235
-0.377687 0.0713978 0.29291 0 180 235
-0.369195 0.0694834 0.208757 0 180 235
0.284501 0.0665603 0.032999 0 180 235
0.297119 -0.047821 0.259193 0 180 235
-0.372524 0.0693629 0.208676 0 180 235
0.0394685 0.0744306 0.223885 0 180 235
0.0216321 0.0748955 0.418554 0 180 235
-0.232217 0.0739307 0.237766 0 180 235
-0.392943 0.0707009 0.260063 0 180 235
-0.326037 0.0746245 0.425931 0 180 235
-0.314048 0.0725959 0.295815 0 180 235
-0.256916 0.0727552 0.159386 0 180 235
0.118469 0.0771094 0.277535 0 180 235
-0.275227 0.0722185 0.149185 0 180 235
-0.432443 0.0718397 0.357588 0 180 235
0.296643 0.0152942 0.0992566 0 180 235
-0.260387 0.0722623 0.0742104 0 180 235
-0.245339 0.0729507 0.169984 0 180 235
-0.312948 0.0743198 0.377766 0 180 235
-0.0780022 0.0688654 -0.0744646 0 180 235
-0.261313 0.0703693 -0.0103989 0 180 235
-0.205616 0.0735465 0.138096 0 180 235
-0.364772 0.0743675 0.410309 0 180 235
-0.367394 0.0712889 0.271169 0 180 235
0.277773 0.0707893 0.282908 0 180 235
0.230203 0.0748326 0.00083667 0 180 235
0.0235123 0.0727014 -0.00873124 0 180 235
-0.0682566 0.0705433 -0.0217715 0 180 235
0.162995 0.0777412 0.355541 0 180 235
-0.0676639 0.0740342 0.0780034 0 180 235
0.251047 0.0631489 0.424025 0 180 235
0.295464 -0.07012 0.314545 0 180 235
-0.0653594 0.0681686 -0.0985472 0 180 235
0.0689281 0.0738182 0.129477 0 180 235
-0.237096 0.0737719 0.235596 0 180 235
-0.0897797 0.0730969 0.436052 0 180 235
-0.170791 0.069176 -0.0840809 0 180 235
-0.184965 0.0760251 0.424387 0 180 235
0.0980784 0.0733184 0.090218 0 180 235
0.10237 0.0767889 0.388082 0 180 235
-0.346491 0.0707098 0.226378 0 180 235
0.0373189 0.0753641 0.413789 0 180 235
0.283515 -0.260538 0.134405 0 180 235
-0.14898 0.0766362 0.408045 0 180 235
0.0519766 0.0786766 0.335844 0 180 235
0.133448 0.0726933 0.436962 0 180 235
0.285969 -0.272195 0.392927 0 180 235
0.275765 0.0624389 0.374685 0 180 235
-0.273627 0.073461 0.262455 0 180 235
-0.0184849 0.0734322 0.00696241 0 180 235
-0.0200187 0.070044 -0.0508148 0 180 235
0.193288 0.0677054 0.441948 0 180 235
-0.313273 0.0722047 0.249688 0 180 235
-0.10626 0.0698978 -0.0255486 0 180 235
0.180306 0.0756723 0.367925 0 180 235
0.157261 0.0712566 -0.0336282 0 180 235
0.0506187 0.0754956 0.277894 0 180 235
0.249837 0.0710307 0.338493 0 180 235
-0.209228 0.075732 0.356095 0 180 235
-0.0882264 0.0736649 0.432845 0 180 235
-0.0304036 0.0760277 0.313678 0 180 235
0.183541 0.073774 0.124576 0 180 235
-0.265463 0.0724457 0.182434 0 180 235
-0.159844 0.0694269 -0.065763 0 180 235
-0.0940125 0.0745954 0.168088 0 180 235
0.270019 -0.33122 0.301262 0 180 235
-0.012005 0.0747929 0.281811 0 180 235
-0.364278 0.0695053 0.126569 0 180 235
0.293984 0.0366708 0.370468 0 180 235
0.274119 -0.352092 0.269463 0 180 235
-0.108393 0.0774848 0.398064 0 180 235
-0.336529 0.0740622 0.372756 0 180 235
-0.0154441 0.0745517 0.420778 0 180 235
0.300857 -0.163001 0.162292 0 180 235
-0.338774 0.0746064 0.430136 0 180 235
0.139808 0.0728442 0.0751433 0 180 235
0.26203 0.0782111 0.238583 0 180 235
0.239137 0.0773134 0.121516 0 180 235
0.294028 0.041762 0.279635 0 180 235
0.100437 0.0745805 0.198412 0 180 235
-0.329194 0.0718683 0.26395 0 180 235
0.293423 -0.0835579 0.355031 0 180 235
-0.171334 0.0737198 0.447562 0 180 235
0.206321 0.0767079 0.245939 0 180 235
-0.427933 0.0717889 0.357282 0 180 235
0.296623 -0.00375068 0.320467 0 180 235
0.0580118 0.0774235 0.308249 0 180 235
0.00897798 0.0742788 0.154255 0 180 235
-0.130118 0.0759273 0.324725 0 180 235
0.293097 -0.0853542 0.366872 0 180 235
0.0121456 0.0719327 -0.0308864 0 180 235
0.0782454 0.077186 0.297126 0 180 235
-0.198502 0.0753199 0.283748 0 180 235
-0.224413 0.0731982 0.124825 0 180 235
0.292645 0.0501361 0.306482 0 180 235
-0.0845096 0.0702922 -0.0206046 0 180 235
0.299103 0.00244982 0.404402 0 180 235
-0.065955 0.0722144 0.000703765 0 180 235
-0.334928 0.0712948 0.229263 0 180 235
0.254212 0.0745566 0.298408 0 180 235
-0.270032 0.0725609 0.213265 0 180 235
0.247841 0.074702 0.298116 0 180 235
-0.215038 0.0707907 0.0142284 0 180 235
-0.0107295 0.0693088 -0.0736679 0 180 235
-0.351262 0.0698159 0.185949 0 180 235
0.201109 0.076834 0.238679 0 180 235
-0.355563 0.0693887 0.168701 0 180 235
-0.0143854 0.0691732 -0.0776637 0 180 235
-0.00519014 0.072866 -0.00742492 0 180 235
-0.178598 0.0759566 0.383714 0 180 235
0.148612 0.0766567 0.377097 0 180 235
0.000903088 0.078494 0.371989 0 180 235
-0.367668 0.0716852 0.32515 0 180 235
0.186739 0.0719403 0.0371523 0 180 235
0.232792 0.0673318 0.40087 0 180 235
-0.0729039 0.0748316 0.279246 0 180 235
-0.141175 0.0680757 -0.105423 0 180 235
-0.17996 0.0758041 0.405455 0 180 235
-0.251593 0.0720784 0.0482445 0 180 235
0.215132 0.0762269 0.321072 0 180 235
-0.18877 0.0750503 0.259338 0 180 235
-0.304557 0.0730109 0.296653 0 180 235
0.29437 0.0388299 0.167981 0 180 235
0.276837 0.074442 0.0291598 0 180 235
0.230227 0.0766561 0.235133 0 180 235
0.0287199 0.074316 0.185538 0 180 235
0.0812285 0.0766613 0.287523 0 180 235
-0.402456 0.071469 0.31623 0 180 235
-0.308088 0.0734434 0.315151 0 180 235
0.013483 0.0727999 -0.00661319 0 180 235
0.292773 0.0575821 0.205055 0 180 235
0.27665 -0.28019 0.227969 0 180 235
0.302319 -0.0408121 0.0926243 0 180 235
0.254094 0.077856 0.231893 0 180 235
0.296227 -0.0435889 0.33371 0 180 235
0.302455 -0.0668812 0.099338 0 180 235
-0.228212 0.072564 0.0648883 0 180 235
0.188846 0.0783696 0.317213 0 180 235
0.256012 0.0754705 -0.0208756 0 180 235
-0.352801 0.0745745 0.422752 0 180 235
0.286108 -0.271849 0.319478 0 180 235
0.248407 0.0778862 0.208277 0 180 235
-0.0100565 0.0745915 0.276521 0 180 235
0.26712 -0.312381 0.253825 0 180 235
0.0287057 0.0774699 0.318276 0 180 235
0.28118 0.0698156 0.268577 0 180 235
0.00951617 0.0748354 0.418963 0 180 235
-0.186839 0.0749623 0.254051 0 180 235
-0.10473 0.0741036 0.0803462 0 180 235
0.224346 0.0745349 0.0197801 0 180 235
-0.434674 0.0716601 0.300306 0 180 235
-0.0657468 0.078233 0.376157 0 180 235
-0.0207373 0.0785757 0.352916 0 180 235
-0.319303 0.071251 0.0367008 0 180 235
0.293993 0.0407025 0.154313 0 180 235
-0.364959 0.0694962 0.126797 0 180 235
-0.395413 0.071849 0.371198 0 180 235
0.0191079 0.0748828 0.418641 0 180 235
-0.425932 0.0713797 0.314997 0 180 235
-0.118917 0.0767998 0.358077 0 180 235
-0.108908 0.074682 0.42965 0 180 235
-0.333849 0.0703625 0.110452 0 180 235
0.300107 -0.038811 0.125844 0 180 235
-0.00922886 0.0737906 0.11391 0 180 235
0.14815 0.0738831 0.140385 0 180 235
0.304906 -0.0604417 0.241493 32 212 224
0.293671 -0.427443 0.224644 32 212 224
0.297928 -0.265291 0.420461 32 212 224
0.301578 -0.139945 0.388704 32 212 224
0.30403 -0.0899752 0.371471 32 212 224
0.289787 -0.077887 -0.0662524 32 212 224
0.291617 -0.249212 0.23835 32 212 224
0.293899 -0.409575 0.336124 32 212 224
0.289413 -0.147116 0.142264 32 212 224
0.290758 -0.407676 0.279811 32 212 224
0.294789 -0.34266 0.434909 32 212 224
0.291229 0.0318918 0.0118294 32 212 224
0.290225 -0.0347345 0.0580454 32 212 224
0.290896 -0.0503284 0.0243606 32 212 224
0.295977 -0.232927 0.347468 32 212 224
0.291541 -0.317597 0.12142 32 212 224
0.340181 -0.234928 0.26276 32 212 224
0.290472 -0.0769403 0.0459392 32 212 224
0.29283 -0.411013 0.440276 32 212 224
0.288109 0.0227345 -0.0762078 32 212 224
0.295732 -0.356701 0.255344 32 212 224
0.289428 -0.168769 0.150376 32 212 224
0.292794 -0.423406 0.175053 32 212 224
0.289047 -0.230663 0.129659 32 212 224
0.293208 -0.0137094 0.0814856 32 212 224
0.296479 -0.280294 0.402494 32 212 224
0.294062 -0.208158 0.258669 32 212 224
0.289424 -0.181568 0.151271 32 212 224
0.294323 -0.360529 0.16646 32 212 224
0.292973 -0.420231 0.442884 32 212 224
0.295246 -0.357114 0.198935 32 212 224
0.315121 -0.379891 0.303009 32 212 224
0.290663 -0.244624 0.0368124 32 212 224
0.296278 -0.305976 0.453615 32 212 224
0.295333 -0.265675 0.353335 32 212 224
0.288046 -0.204195 -0.181203 32 212 224
0.292472 -0.16682 -0.0257122 32 212 224
0.292402 -0.233205 -0.071849 32 212 224
0.309296 -0.0399062 0.261303 32 212 224
0.313436 -0.160953 0.316662 32 212 224
0.289754 -0.256177 0.0847098 32 212 224
0.294671 -0.417412 0.271043 32 212 224
0.300058 -0.136828 0.366178 32 212 224
0.288761 0.00702 -0.0549586 32 212 224
0.334795 -0.204201 0.288965 32 212 224
0.296548 0.0663489 0.0544182 32 212 224
0.292837 -0.259208 0.29176 32 212 224
0.286602 -0.0131183 -0.140947 32 212 224
0.286954 -0.0108424 -0.131729 32 212 224
0.294555 -0.198679 0.461749 32 212 224
0.318016 -0.180818 0.299785 32 212 224
0.298058 -0.096918 0.417574 32 212 224
0.285759 0.0596452 -0.130227 32 212 224
0.306056 -0.0335548 0.229146 32 212 224
0.298673 -0.240279 0.448294 32 212 224
0.289766 -0.0644781 -0.0631383 32 212 224
0.287174 -0.0152945 -0.12659 32 212 224
0.290734 -0.0730259 -0.0436005 32 212 224
0.290897 -0.121801 -0.0760942 32 212 224
0.341436 -0.182312 0.24486 32 212 224
0.308626 0.00136626 0.341749 32 212 224
0.290837 -0.253343 -0.121694 32 212 224
0.291902 -0.103105 -0.0265373 32 212 224
0.292445 -0.162574 -0.0490899 32 212 224
0.295801 -0.297163 0.402381 32 212 224
0.290504 0.0261381 -0.0117055 32 212 224
0.288687 0.00139427 -0.059167 32 212 224
0.289577 -0.279326 0.0831454 32 212 224
0.336036 -0.309685 0.31587 32 212 224
0.29103 -0.0569041 0.013413 32 212 224
0.294105 -0.29824 0.237503 32 212 224
0.304936 0.0542562 0.180365 32 212 224
0.309181 0.0429839 0.235058 32 212 224
0.29055 0.0160001 0.00295657 32 212 224
0.290328 -0.0273789 -0.0373066 32 212 224
0.319046 -0.340898 0.424366 32 212 224
0.291325 -0.25492 0.258516 32 212 224
0.295548 -0.36865 0.211675 32 212 224
0.289436 -0.190839 -0.128202 32 212 224
0.291273 -0.0148249 0.0623455 32 212 224
0.291353 -0.0883417 -0.0391932 32 212 224
0.291693 -0.176371 0.00157944 32 212 224
0.294591 -0.329023 0.204827 32 212 224
0.294275 -0.344901 -0.0768301 32 212 224
0.29995 -0.00152492 0.141854 32 212 224
0.342128 -0.179943 0.249976 32 212 224
0.293324 0.0164703 0.0519491 32 212 224
0.295686 -0.192853 0.309512 32 212 224
0.293952 -0.231148 0.303465 32 212 224
0.298443 -0.252831 0.412902 32 212 224
0.293422 -0.42648 0.213221 32 212 224
0.289356 -0.156106 0.16264 32 212 224
0.290732 -0.00623704 -0.017004 32 212 224
0.285979 0.0521525 -0.131755 32 212 224
0.300246 -0.156937 0.379401 32 212 224
0.292765 -0.251209 -0.0589524 32 212 224
0.289198 -0.260293 0.120099 32 212 224
0.293007 -0.277093 -0.0634346 32 212 224
0.307455 0.0132543 0.229548 32 212 224
0.291665 -0.0977271 -0.0153196 32 212 224
0.289139 -0.227841 0.136966 32 212 224
0.291763 -0.0937089 -0.0248372 32 212 224
0.295781 -0.355491 0.227744 32 212 224
0.291266 -0.132156 -0.00074145 32 212 224
0.298221 -0.0116314 0.132317 32 212 224
0.296703 -0.385682 -0.11037 32 212 224
0.289881 -0.281698 0.141042 32 212 224
0.304938 -0.0483348 0.38932 32 212 224
0.292082 -0.373927 0.0886689 32 212 224
0.334478 -0.317249 0.332201 32 212 224
0.295403 -0.370535 0.209229 32 212 224
0.34215 -0.201404 0.262453 32 212 224
0.292674 -0.369766 0.0321685 32 212 224
0.289298 -0.153444 0.177112 32 212 224
0.297105 -0.224535 0.367963 32 212 224
0.310541 0.0065208 0.308484 32 212 224
0.321842 -0.363809 0.31383 32 212 224
0.29993 -0.199757 0.429505 32 212 224
0.301278 -0.0403405 0.193386 32 212 224
0.293556 -0.418655 0.206315 32 212 224
0.305765 -0.0694758 0.358613 32 212 224
0.296953 0.0377746 0.0846578 32 212 224
0.292161 -0.134943 -0.0263083 32 212 224
0.293253 -0.305129 0.302439 32 212 224
0.303841 -0.0354144 0.209053 32 212 224
0.324145 -0.372122 0.391227 32 212 224
0.292774 -0.226646 0.266947 32 212 224
0.292228 -0.17386 -0.0601221 32 212 224
0.302786 -0.0273233 0.193583 32 212 224
0.29072 -0.183079 -0.0981629 32 212 224
0.289944 -0.179411 -0.114197 32 212 224
0.29956 -0.0843373 0.422144 32 212 224
0.285974 0.0484484 -0.142089 32 212 224
0.315962 -0.326218 0.393503 32 212 224
0.305663 -0.213715 0.403096 32 212 224
0.336417 -0.267898 0.262183 32 212 224
0.292826 -0.320671 0.152054 32 212 224
0.303258 -0.02964 0.360823 32 212 224
0.287895 -0.0186453 -0.101369 32 212 224
0.289715 0.036175 -0.0258939 32 212 224
0.287457 0.0622976 -0.0706606 32 212 224
0.289472 -0.0322334 -0.0561352 32 212 224
0.29913 -0.210946 0.394596 32 212 224
0.299293 -0.12846 0.260527 32 212 224
0.3008 -0.0126569 0.160609 32 212 224
0.302298 -0.0351679 0.37638 32 212 224
0.292402 -0.348278 0.0374914 32 212 224
0.302914 -0.0422656 0.354848 32 212 224
0.291894 -0.0996399 -0.0287702 32 212 224
0.290031 -0.0629666 0.106642 32 212 224
0.291353 -0.417833 0.0683621 32 212 224
0.289292 -0.0998153 -0.108654 32 212 224
0.305448 -0.0703347 0.26697 32 212 224
0.298998 -0.178299 0.372339 32 212 224
0.301135 -0.15221 0.44215 32 212 224
0.293501 -0.31495 0.300904 32 212 224
0.293087 -0.290859 0.308428 32 212 224
0.292527 -0.146815 -0.0450498 32 212 224
0.299895 0.0670209 0.104306 32 212 224
0.30989 -0.0212641 0.310555 32 212 224
0.296571 0.0341773 0.0826647 32 212 224
0.311761 0.00247442 0.273922 32 212 224
0.305639 -0.0117623 0.380102 32 212 224
0.302261 -0.138649 0.432235 32 212 224
0.307551 -0.00729375 0.236732 32 212 224
0.29012 -0.0284332 -0.0413829 32 212 224
0.292359 -0.26019 -0.0770172 32 212 224
0.29879 -0.204694 0.385266 32 212 224
0.303924 -0.0828803 0.262328 32 212 224
0.29201 -0.18147 -0.009094 32 212 224
0.339191 -0.111834 0.211242 32 212 224
0.287966 -0.0114886 -0.0983996 32 212 224
0.303544 -0.0852316 0.39816 32 212 224
0.31021 -0.000298798 0.315 32 212 224
0.289359 -0.161835 0.125342 32 212 224
0.310166 -0.011013 0.32829 32 212 224
0.302458 -0.0382703 0.411352 32 212 224
0.290201 -0.0217021 -0.0368741 32 212 224
0.301809 -0.0900748 0.247945 32 212 224
0.288208 -0.116048 -0.160517 32 212 224
0.29637 -0.010809 0.11398 32 212 224
0.291721 -0.401952 0.070621 32 212 224
0.300395 -0.19944 0.409452 32 212 224
0.308517 -0.0123616 0.352721 32 212 224
0.285738 -0.023324 -0.186628 32 212 224
0.337475 -0.242904 0.255061 32 212 224
0.306105 0.0367811 0.198011 32 212 224
0.301781 -0.0207832 0.179417 32 212 224
0.289083 0.0681088 -0.0180316 32 212 224
0.290265 0.0312947 -0.000285629 32 212 224
0.29036 0.00132275 0.0107239 32 212 224
0.293434 -0.343547 0.147854 32 212 224
0.291369 -0.0575907 -0.0168137 32 212 224
0.29177 -0.328097 0.029509 32 212 224
0.309208 0.00200423 0.342329 32 212 224
0.295614 -0.22071 0.33429 32 212 224
0.294273 -0.340201 -0.0370691 32 212 224
0.287917 0.0286464 -0.0823477 32 212 224
0.309481 -0.0185729 0.255483 32 212 224
0.294544 -0.431762 0.31856 32 212 224
0.305693 -0.02633 0.220625 32 212 224
0.286142 0.0392752 -0.164813 32 212 224
0.291031 -0.283227 -0.144543 32 212 224
0.291178 -0.208735 0.0142443 32 212 224
0.293962 -0.339051 0.17409 32 212 224
0.296072 -0.174548 0.258159 32 212 224
0.342075 -0.176065 0.25108 32 212 224
0.288593 0.0380988 -0.0484658 32 212 224
0.294844 -0.246598 0.33159 32 212 224
0.316991 -0.23109 0.331664 32 212 224
0.289948 -0.23868 0.163879 32 212 224
0.289406 -0.189485 0.151453 32 212 224
0.286151 0.0422178 -0.164548 32 212 224
0.29326 -0.297514 -0.0817191 32 212 224
0.291928 -0.236116 0.223231 32 212 224
0.307672 0.0605042 0.218638 32 212 224
0.289123 -0.114989 0.118217 32 212 224
0.294763 -0.398137 -0.0467732 32 212 224
0.292725 -0.226703 0.262048 32 212 224
0.289907 -0.0229144 -0.0425116 32 212 224
0.291858 -0.112659 -0.0436883 32 212 224
0.28862 -0.115926 -0.150207 32 212 224
0.290541 -0.0255445 0.0213456 32 212 224
0.288676 -0.148995 -0.147897 32 212 224
0.295254 -0.39691 -0.0720161 32 212 224
0.287555 -0.141421 -0.186095 32 212 224
0.286162 0.00504871 -0.184015 32 212 224
0.291986 -0.383869 0.355252 32 212 224
0.307504 0.0481431 0.219346 32 212 224
0.289351 -0.208929 0.153266 32 212 224
0.333086 -0.321927 0.291687 32 212 224
0.294558 -0.315504 0.372582 32 212 224
0.288599 -0.234976 -0.186414 32 212 224
0.322478 -0.245318 0.329832 32 212 224
0.292583 -0.20062 -0.048424 32 212 224
0.293606 -0.316475 0.354592 32 212 224
0.293198 -0.0871878 0.1687 32 212 224
0.287734 -0.0758185 -0.145866 32 212 224
0.286122 -0.029515 -0.158421 32 212 224
0.295203 -0.347235 -0.156542 32 212 224
0.301685 0.0598727 0.121275 32 212 224
0.291692 -0.136968 -0.0120391 32 212 224
0.287843 -0.0734651 -0.140639 32 212 224
0.337262 -0.297678 0.310766 32 212 224
0.291532 -0.26955 -0.119831 32 212 224
0.288682 -0.0253121 -0.075619 32 212 224
0.326832 -0.224468 0.310662 32 212 224
0.287634 -0.123682 -0.178986 32 212 224
0.298341 -0.255829 0.414668 32 212 224
0.293931 0.00081113 0.0787199 32 212 224
0.307148 -0.136217 0.336025 32 212 224
0.29254 -0.420501 0.368026 32 212 224
0.335742 -0.20366 0.286679 32 212 224
0.292193 -0.351429 0.351754 32 212 224
0.30909 -0.0452296 0.269264 32 212 224
0.294477 -0.153148 0.219566 32 212 224
0.291381 -0.0644041 -0.024954 32 212 224
0.289206 -0.0308138 -0.0625749 32 212 224
0.298918 -0.0923262 0.227099 32 212 224
0.289102 -0.0132024 -0.0547504 32 212 224
0.290318 -0.227922 0.0547865 32 212 224
0.2944 -0.341761 -0.0567296 32 212 224
0.292312 -0.365484 0.077379 32 212 224
0.28865 -0.0020974 -0.0635083 32 212 224
0.292073 -0.19468 -0.0729579 32 212 224
0.291685 -0.305641 0.151412 32 212 224
0.294547 -0.0923207 0.19088 32 212 224
0.296341 -0.135604 0.434587 32 212 224
0.296287 -0.359916 -0.165698 32 212 224
0.286011 0.0186274 -0.169059 32 212 224
0.296717 -0.257226 0.47248 32 212 224
0.293343 -0.353026 0.319931 32 212 224
0.287911 -0.0963771 -0.156992 32 212 224
0.310068 -0.00848553 0.25888 32 212 224
0.301226 -0.0677931 0.222557 32 212 224
0.290672 0.0172444 -0.0132682 32 212 224
0.306172 -0.0650398 0.35271 32 212 224
0.290303 0.0171601 0.00905374 32 212 224
0.296424 -0.284105 0.46916 32 212 224
0.292224 -0.415787 0.0271252 32 212 224
0.294665 -0.355574 -0.0780849 32 212 224
0.293403 -0.430088 0.443596 32 212 224
0.290763 -0.310533 0.115827 32 212 224
0.290884 -0.188894 -0.0967478 32 212 224
0.317618 -0.106403 0.236351 32 212 224
0.339451 -0.214534 0.249102 32 212 224
0.305562 -0.0646409 0.372539 32 212 224
0.293717 -0.323362 0.361863 32 212 224
0.290541 -0.24132 -0.121097 32 212 224
0.290327 -0.26854 -0.146221 32 212 224
0.29209 -0.301879 0.179813 32 212 224
0.29489 -0.268734 0.346017 32 212 224
0.326101 -0.354488 0.381658 32 212 224
0.2917 -0.391592 0.380507 32 212 224
0.294289 -0.229792 0.310183 32 212 224
0.291212 -0.0286036 -0.0159969 32 212 224
0.286047 0.0141029 -0.171498 32 212 224
0.289945 -0.250422 0.0770792 32 212 224
0.289404 -0.122581 -0.128453 32 212 224
0.307219 -0.0189418 0.232024 32 212 224
0.288189 0.000220418 -0.0852137 32 212 224
0.289904 -0.177419 0.0937471 32 212 224
0.286159 0.0319426 -0.181161 32 212 224
0.289867 -0.0787979 0.126304 32 212 224
0.316261 -0.109076 0.241861 32 212 224
0.292475 -0.300527 0.192794 32 212 224
0.33348 -0.119292 0.232533 32 212 224
0.291995 -0.283501 -0.015157 32 212 224
0.308492 -0.0109965 0.245151 32 212 224
0.289916 -0.0408936 -0.0507796 32 212 224
0.290007 -0.0915349 -0.0705153 32 212 224
0.30799 0.0555401 0.219844 32 212 224
0.294127 -0.306463 0.358746 32 212 224
0.28879 -0.0505413 -0.0837334 32 212 224
0.289454 -0.161356 -0.125316 32 212 224
0.290927 -0.0842575 -0.0464175 32 212 224
0.298736 -0.21225 0.388763 32 212 224
0.292161 -0.00862029 0.0661513 32 212 224
0.29353 -0.334552 -0.0271739 32 212 224
0.295506 -0.389049 -0.0820041 32 212 224
0.290977 -0.0570514 0.0240456 32 212 224
0.291188 -0.140689 0.00609943 32 212 224
0.307351 -0.00911562 0.327821 32 212 224
0.294747 -0.356479 -0.105093 32 212 224
0.334413 -0.31489 0.334199 32 212 224
0.293069 -0.287584 0.229718 32 212 224
0.29456 -0.333344 -0.177052 32 212 224
0.292207 -0.31073 0.155371 32 212 224
0.289944 -0.297776 0.0577909 32 212 224
0.295765 -0.229787 0.341975 32 212 224
0.303019 0.0179929 0.160541 32 212 224
0.307384 -0.0466449 0.344188 32 212 224
0.287036 0.0600835 -0.0982546 32 212 224
0.294397 -0.438043 0.262388 32 212 224
0.303208 -0.0310535 0.200429 32 212 224
0.287064 -0.0504364 -0.149662 32 212 224
0.340453 -0.129395 0.221603 32 212 224
0.287212 -0.100056 -0.17886 32 212 224
0.296401 -0.0702386 0.181047 32 212 224
0.307131 -0.0517587 0.342724 32 212 224
0.289856 0.0141687 -0.030372 32 212 224
0.329904 -0.349795 0.36589 32 212 224
0.292389 -0.364815 0.0688558 32 212 224
0.292389 -0.387642 0.128678 32 212 224
0.289657 -0.220707 0.160504 32 212 224
0.299161 -0.0932079 0.42692 32 212 224
0.305226 0.021023 0.181239 32 212 224
0.287416 -0.0235661 -0.119818 32 212 224
0.294432 -0.294618 0.359491 32 212 224
0.288609 -0.214103 -0.152224 32 212 224
0.296929 0.0758118 0.0558008 32 212 224
0.29865 -0.246004 0.448115 32 212 224
0.288141 -0.216419 -0.186356 32 212 224
0.292472 -0.332617 -0.00727436 32 212 224
0.298981 -0.148168 0.334849 32 212 224
0.292677 -0.397135 0.3496 32 212 224
0.332375 -0.122582 0.237847 32 212 224
0.29272 -0.388443 0.00872919 32 212 224
0.290491 -0.282065 0.0341704 32 212 224
0.290897 0.0378488 0.00491178 32 212 224
0.294418 -0.409315 0.226892 32 212 224
0.289326 -0.126217 0.131419 32 212 224
0.288162 -0.165615 -0.152237 32 212 224
0.303746 0.0458633 0.151247 32 212 224
0.291819 -0.12244 -0.0216404 32 212 224
0.289986 -0.262746 0.155432 32 212 224
0.290225 -0.0505648 -0.0474616 32 212 224
0.30961 -0.0317481 0.280637 32 212 224
0.295 -0.361635 -0.0756316 32 212 224
0.29249 -0.283976 -0.0247365 32 212 224
0.296705 -0.192715 0.473756 32 212 224
0.290102 -0.241035 0.168065 32 212 224
0.286081 0.0300353 -0.153246 32 212 224
0.29311 -0.43305 0.377121 32 212 224
0.294577 -0.373798 -0.0343358 32 212 224
0.294947 -0.361351 0.186766 32 212 224
0.294179 -0.437801 0.36203 32 212 224
0.286113 -0.0475278 -0.166994 32 212 224
0.293127 -0.311139 -0.109695 32 212 224
0.302899 -0.0863239 0.351505 32 212 224
0.29443 -0.114576 0.205019 32 212 224
0.291562 -0.108141 -0.010832 32 212 224
0.289475 -0.185458 0.169453 32 212 224
0.29529 -0.309453 0.389778 32 212 224
0.301257 -0.124402 0.394464 32 212 224
0.290004 -0.187665 -0.1144 32 212 224
0.294733 -0.356278 -0.104671 32 212 224
0.302903 -0.0539358 0.220263 32 212 224
0.289698 0.0403447 -0.0234697 32 212 224
0.297694 -0.164803 0.464514 32 212 224
0.289349 -0.143927 0.129363 32 212 224
0.288675 -0.135208 -0.149848 32 212 224
0.294918 -0.268264 0.346275 32 212 224
0.290846 -0.423286 0.10286 32 212 224
0.287499 -0.0293516 -0.11802 32 212 224
0.289714 -0.152291 0.0873066 32 212 224
0.291972 -0.337559 0.119873 32 212 224
0.341044 -0.153269 0.240593 32 212 224
0.292869 -0.377631 0.452021 32 212 224
0.289441 -0.135031 0.169263 32 212 224
0.293169 -0.287704 -0.0692353 32 212 224
0.309465 0.00338306 0.321399 32 212 224
0.300805 -0.169227 0.395264 32 212 224
0.291768 -0.319229 0.0140865 32 212 224
0.301872 -0.16345 0.412216 32 212 224
0.289189 -0.0957827 -0.108409 32 212 224
0.294123 -0.22968 0.306427 32 212 224
0.306865 -0.0339196 0.235158 32 212 224
0.290816 -0.0690313 0.0385196 32 212 224
0.302599 0.0804976 0.137124 32 212 224
0.291759 -0.416192 0.131599 32 212 224
0.287437 0.0606242 -0.0762772 32 212 224
0.291289 -0.202479 0.0118814 32 212 224
0.289488 -0.213294 0.110293 32 212 224
0.29492 -0.312181 0.227208 32 212 224
0.309264 -0.0443311 0.266306 32 212 224
0.337003 -0.214377 0.28851 32 212 224
0.289503 -0.25314 -0.185525 32 212 224
0.307 -0.0133728 0.31271 32 212 224
0.28668 0.0269112 -0.125895 32 212 224
0.29205 -0.329117 0.00781008 32 212 224
0.295535 -0.344953 0.225863 32 212 224
0.292861 -0.434223 0.429963 32 212 224
0.308145 -0.0425028 0.310385 32 212 224
0.289956 -0.216707 0.0713927 32 212 224
0.291545 -0.0772754 -0.0277928 32 212 224
0.295809 0.0390487 0.067268 32 212 224
0.291538 -0.308231 -0.000571436 32 212 224
0.288444 -0.0215117 -0.0824825 32 212 224
0.288896 0.0661658 -0.0195852 32 212 224
0.291428 -0.199655 0.00799328 32 212 224
0.290914 -0.265368 -0.129967 32 212 224
0.293357 -0.414809 0.187909 32 212 224
0.290488 -0.287371 0.162869 32 212 224
0.291118 -0.299422 0.0164795 32 212 224
0.293212 -0.373733 0.442328 32 212 224
0.290676 0.0171428 0.0172874 32 212 224
0.292541 -0.281863 0.287595 32 212 224
0.290709 -0.0472526 0.0392728 32 212 224
0.296852 -0.281728 0.414037 32 212 224
0.29663 -0.198752 0.47736 32 212 224
0.301248 -0.187416 0.427441 32 212 224
0.29469 -0.334549 0.204348 32 212 224
0.292899 -0.427057 0.187779 32 212 224
0.296427 -0.00574863 0.111915 32 212 224
0.290614 -0.101388 0.0231294 32 212 224
0.286297 0.0417194 -0.132855 32 212 224
0.289048 -0.0495439 -0.0758186 32 212 224
0.317313 -0.320471 0.430936 32 212 224
0.290274 -0.252258 -0.132951 32 212 224
0.298202 -0.260564 0.422851 32 212 224
0.291262 -0.408012 0.101214 32 212 224
0.297567 -0.184607 0.468668 32 212 224
0.306006 -0.0458707 0.235184 32 212 224
0.290423 -0.0898156 -0.0592808 32 212 224
0.295667 -0.304427 0.477447 32 212 224
0.288324 -0.0481443 -0.0970543 32 212 224
0.2919 -0.139782 -0.0636785 32 212 224
0.298248 -0.24366 0.400584 32 212 224
0.289261 -0.254723 0.128361 32 212 224
0.289572 -0.0929656 0.130312 32 212 224
0.294231 -0.4238 0.326924 32 212 224
0.299808 0.0123121 0.129224 32 212 224
0.291083 -0.112378 0.170858 32 212 224
0.287829 0.0252603 -0.08749 32 212 224
0.290321 -0.0211238 0.035933 32 212 224
0.29265 -0.231323 -0.0594067 32 212 224
0.297883 -0.264965 0.416792 32 212 224
0.292019 -0.29839 -0.132834 32 212 224
0.2945 -0.43744 0.273119 32 212 224
0.285763 -0.0316476 -0.187501 32 212 224
0.290514 -0.2428 0.045922 32 212 224
0.287926 -0.0481229 -0.111069 32 212 224
0.292465 -0.27779 -0.0973259 32 212 224
0.289764 -0.174155 0.18895 32 212 224
0.297467 0.0340529 0.0952799 32 212 224
0.287402 0.0562618 -0.0875051 32 212 224
0.292961 -0.295602 -0.101481 32 212 224
0.288596 -0.0784252 -0.113713 32 212 224
0.292189 -0.125029 -0.0380942 32 212 224
0.290035 -0.0206366 -0.0392664 32 212 224
0.290562 -0.255921 -0.129996 32 212 224
0.304341 -0.0680676 0.338869 32 212 224
0.301559 -0.166909 0.44087 32 212 224
0.302714 0.0400448 0.141804 32 212 224
0.294946 -0.340842 0.205771 32 212 224
0.293745 -0.386538 0.168175 32 212 224
0.296124 0.0635234 0.0501181 32 212 224
0.298357 -0.233466 0.396552 32 212 224
0.316651 -0.314213 0.383721 32 212 224
0.288227 -0.218488 -0.183661 32 212 224
0.289305 -0.054038 -0.0711374 32 212 224
0.287691 0.0411083 -0.0890947 32 212 224
0.289419 -0.0399545 -0.0608889 32 212 224
0.297537 -0.3764 -0.162254 32 212 224
0.321385 -0.371771 0.399442 32 212 224
0.302467 -0.0354604 0.406434 32 212 224
0.29688 -0.173062 0.303402 32 212 224
0.285801 0.0567151 -0.133324 32 212 224
0.311467 -0.14045 0.285664 32 212 224
0.298124 -0.0215711 0.141312 32 212 224
0.301152 -0.0748421 0.426969 32 212 224
0.299914 0.0368368 0.113278 32 212 224
0.292304 0.0516131 0.0118572 32 212 224
0.290543 -0.203487 -0.10738 32 212 224
0.293871 -0.340479 0.167856 32 212 224
0.291634 -0.419748 0.406342 32 212 224
0.292793 -0.397169 0.144383 32 212 224
0.29102 -0.138116 0.189964 32 212 224
0.310073 -0.0204225 0.301892 32 212 224
0.296057 -0.382037 0.245372 32 212 224
0.287211 -0.0331214 -0.129541 32 212 224
0.16653 -0.48153 0.413545 64 236 211
0.305952 -0.425784 0.0776116 64 236 211
0.263932 -0.380548 -0.0167609 64 236 211
0.183779 -0.442208 0.144796 64 236 211
0.329066 -0.311877 0.209582 64 236 211
0.333407 -0.38354 0.314415 64 236 211
0.0786387 -0.484354 0.294872 64 236 211
0.330985 -0.367658 0.265852 64 236 211
0.320138 -0.452635 0.28765 64 236 211
0.301118 -0.445031 0.0599329 64 236 211
0.326191 -0.32083 0.1948 64 236 211
0.337212 -0.231641 0.214576 64 236 211
0.330971 -0.270665 0.195729 64 236 211
0.178767 -0.480675 0.426117 64 236 211
0.287364 -0.467303 0.0800561 64 236 211
0.289973 -0.482292 0.325609 64 236 211
0.247615 -0.46998 0.124687 64 236 211
0.322708 -0.326969 0.166984 64 236 211
0.30978 -0.358943 0.0662676 64 236 211
0.136629 -0.485102 0.286396 64 236 211
0.241709 -0.483538 0.332473 64 236 211
0.314925 -0.325001 0.0828457 64 236 211
0.305456 -0.483955 0.185143 64 236 211
0.336759 -0.397863 0.381595 64 236 211
0.316926 -0.407362 0.161693 64 236 211
0.315325 -0.465101 0.256031 64 236 211
0.314895 -0.481422 0.319141 64 236 211
0.297584 -0.477289 0.0988704 64 236 211
0.332572 -0.399418 0.332629 64 236 211
0.320467 -0.463845 0.318749 64 236 211
0.326757 -0.394009 0.252833 64 236 211
0.308494 -0.48389 0.20836 64 236 211
0.298329 -0.419105 -0.0181647 64 236 211
0.278453 -0.481332 0.358864 64 236 211
0.174714 -0.482733 0.382041 64 236 211
0.320928 -0.213809 0.0356893 64 236 211
0.0960021 -0.48435 0.259162 64 236 211
0.320446 -0.391911 0.195384 64 236 211
0.243844 -0.480713 0.399234 64 236 211
0.331942 -0.235057 0.179555 64 236 211
0.109897 -0.484396 0.299772 64 236 211
0.340788 -0.374241 0.383135 64 236 211
0.276656 -0.483494 0.292488 64 236 211
0.312368 -0.291118 -0.0263887 64 236 211
0.31487 -0.430069 0.164928 64 236 211
0.299937 -0.416853 -0.00411107 64 236 211
0.162975 -0.475275 0.193496 64 236 211
0.277608 -0.411084 -0.0330342 64 236 211
0.324442 -0.432412 0.286392 64 236 211
0.228539 -0.45186 0.11521 64 236 211
0.168913 -0.483213 0.37174 64 236 211
0.309223 -0.437951 0.119092 64 236 211
0.326821 -0.414455 0.279174 64 236 211
0.134601 -0.482692 0.396444 64 236 211
0.303964 -0.378704 0.00959484 64 236 211
0.327603 -0.180594 0.0693173 64 236 211
0.160534 -0.483938 0.344329 64 236 211
0.282989 -0.462928 0.0725574 64 236 211
0.308587 -0.482167 0.307877 64 236 211
0.315888 -0.39499 0.138927 64 236 211
0.321243 -0.350923 0.17376 64 236 211
0.325429 -0.445244 0.321134 64 236 211
0.275882 -0.465515 0.089316 64 236 211
0.324847 -0.355714 0.208661 64 236 211
0.306791 -0.380598 0.0624396 64 236 211
0.124058 -0.48399 0.338513 64 236 211
0.0619793 -0.476262 0.227123 64 236 211
0.340085 -0.284732 0.272602 64 236 211
0.32146 -0.250094 0.0752949 64 236 211
0.260891 -0.483502 0.315144 64 236 211
0.233714 -0.48414 0.309609 64 236 211
0.305463 -0.358882 0.00314427 64 236 211
-0.0344102 -0.481737 0.427837 64 236 211
0.307709 -0.426028 0.0916738 64 236 211
0.299625 -0.373738 -0.0438832 64 236 211
0.269043 -0.484802 0.183792 64 236 211
0.336513 -0.337128 0.287118 64 236 211
0.32099 -0.372431 0.189047 64 236 211
-0.0824127 -0.481614 0.429192 64 236 211
0.315919 -0.481965 0.297764 64 236 211
0.328914 -0.419956 0.316078 64 236 211
0.316152 -0.374266 0.127042 64 236 211
0.323863 -0.34636 0.194741 64 236 211
0.336491 -0.44448 0.454254 64 236 211
0.306958 -0.323056 -0.0388039 64 236 211
0.309565 -0.343283 0.0506452 64 236 211
0.337746 -0.38953 0.377603 64 236 211
0.222102 -0.485077 0.206851 64 236 211
-0.143014 -0.479323 0.370618 64 236 211
0.22838 -0.281569 0.00575335 64 236 211
0.28748 -0.48473 0.185705 64 236 211
0.28921 -0.481163 0.136157 64 236 211
0.325768 -0.297427 0.172758 64 236 211
0.285424 -0.444337 0.00879816 64 236 211
0.252035 -0.485277 0.197845 64 236 211
0.298167 -0.436799 -0.00156813 64 236 211
0.324444 -0.175453 0.0360079 64 236 211
0.296524 -0.478113 0.107782 64 236 211
