ply
format ascii 1.0
comment Created by Open3D
element vertex 1161
property double x
property double y
property double z
property uchar red
property uchar green
property uchar blue
end_header
-0.0936821 -0.183877 -0.227974 224 210 119
-0.120929 -0.39809 -0.127755 224 210 119
-0.106208 -0.397939 0.043629 224 210 119
-0.105763 -0.490276 0.00125902 224 210 119
-0.150271 -0.459756 0.113373 224 210 119
-0.133847 -0.438043 -0.0762821 224 210 119
-0.0468343 -0.455387 -0.266402 224 210 119
-0.11373 -0.377567 -0.176379 224 210 119
-0.146186 -0.421623 0.0349057 224 210 119
-0.134901 -0.469015 0.0761092 224 210 119
-0.0904649 -0.324887 -0.226719 224 210 119
-0.117741 -0.270456 -0.209765 224 210 119
-0.128043 -0.328514 -0.08516 224 210 119
-0.103577 -0.48834 -0.0590797 224 210 119
-0.118041 -0.317 -0.0987745 224 210 119
-0.123023 -0.274443 -0.201839 224 210 119
-0.0954021 -0.26853 -0.101903 224 210 119
-0.0804668 -0.113816 -0.182893 224 210 119
-0.107699 -0.250277 -0.22224 224 210 119
-0.160557 -0.492302 -0.0856336 224 210 119
-0.200616 -0.492944 -0.02544 224 210 119
-0.100817 -0.209564 -0.22236 224 210 119
-0.155335 -0.490416 0.0521834 224 210 119
-0.114774 -0.394061 0.103019 224 210 119
-0.119332 -0.436782 -0.15902 224 210 119
-0.112953 -0.253669 -0.164442 224 210 119
-0.0935814 -0.257653 -0.243488 224 210 119
-0.0843204 -0.334182 -0.230386 224 210 119
-0.0999197 -0.400928 -0.184926 224 210 119
-0.0906754 -0.245064 -0.247305 224 210 119
-0.164035 -0.426878 0.0655786 224 210 119
-0.108174 -0.380099 0.0346378 224 210 119
-0.13248 -0.444656 0.0385179 224 210 119
-0.0771132 -0.148853 -0.281213 224 210 119
-0.117746 -0.399516 0.10559 224 210 119
-0.0636175 -0.238152 -0.366053 224 210 119
-0.0772945 -0.155606 -0.282564 224 210 119
-0.113667 -0.49473 0.00595755 224 210 119
-0.131234 -0.493989 -0.100194 224 210 119
-0.0849017 -0.33399 -0.145458 224 210 119
-0.0614269 -0.33278 -0.361271 224 210 119
-0.131332 -0.373034 -0.0393318 224 210 119
-0.06518 -0.295822 -0.29618 224 210 119
-0.130537 -0.288856 -0.187391 224 210 119
-0.0579461 -0.432263 -0.314009 224 210 119
-0.12558 -0.386923 0.0295763 224 210 119
-0.174448 -0.487371 0.00109687 224 210 119
-0.104763 -0.433983 0.0354659 224 210 119
-0.0747742 -0.205768 -0.312125 224 210 119
-0.101514 -0.380046 -0.162953 224 210 119
-0.113769 -0.247738 -0.197533 224 210 119
-0.127159 -0.441503 -0.097771 224 210 119
-0.150446 -0.464715 0.0751157 224 210 119
-0.113821 -0.494078 -0.0052711 224 210 119
-0.108794 -0.405288 -0.144992 224 210 119
-0.117435 -0.431412 -0.162633 224 210 119
-0.0724569 -0.161366 -0.315308 224 210 119
-0.117889 -0.498406 -0.0579717 224 210 119
-0.0747637 -0.145018 -0.293994 224 210 119
-0.0518163 -0.444948 -0.289706 224 210 119
-0.114464 -0.372911 -0.12787 224 210 119
-0.076516 -0.144058 -0.28421 224 210 119
-0.126131 -0.466851 -0.0029631 224 210 119
-0.0704517 -0.191264 -0.329204 224 210 119
-0.0855722 -0.380262 -0.225818 224 210 119
-0.112868 -0.360145 -0.112355 224 210 119
-0.162929 -0.488541 0.0448078 224 210 119
-0.0699623 -0.205541 -0.19115 224 210 119
-0.0574885 -0.383863 -0.350265 224 210 119
-0.0689477 -0.148041 -0.325067 224 210 119
-0.0677864 -0.391623 -0.325894 224 210 119
-0.113424 -0.256328 -0.20136 224 210 119
-0.0753792 -0.175566 -0.288003 224 210 119
-0.112801 -0.300317 -0.113442 224 210 119
-0.0670996 -0.282873 -0.302951 224 210 119
-0.0815552 -0.480266 -0.19948 224 210 119
-0.0769376 -0.214584 -0.305735 224 210 119
-0.120013 -0.342478 -0.0526216 224 210 119
-0.13188 -0.46666 0.0723258 224 210 119
-0.0992078 -0.359681 -0.0560546 224 210 119
-0.102703 -0.491594 -0.0496043 224 210 119
-0.197126 -0.497805 -0.00581587 224 210 119
-0.132275 -0.335604 -0.102583 224 210 119
-0.123362 -0.322983 -0.0866383 224 210 119
-0.113223 -0.310921 -0.210822 224 210 119
-0.114158 -0.491909 0.0415966 224 210 119
-0.136028 -0.444263 -0.0450581 224 210 119
-0.0730333 -0.115803 -0.321477 224 210 119
-0.125327 -0.280811 -0.198292 224 210 119
-0.116783 -0.467896 -0.113163 224 210 119
-0.0883014 -0.22273 -0.115915 224 210 119
-0.0759493 -0.302029 -0.191717 224 210 119
-0.0736968 -0.140021 -0.243714 224 210 119
-0.0718024 -0.238894 -0.331893 224 210 119
-0.0761783 -0.122513 -0.295523 224 210 119
-0.0766923 -0.109929 -0.187146 224 210 119
-0.126301 -0.280747 -0.195829 224 210 119
-0.115021 -0.49533 -0.0235991 224 210 119
-0.0822531 -0.244829 -0.285465 224 210 119
-0.151262 -0.463506 -0.0545332 224 210 119
-0.102324 -0.272754 -0.227338 224 210 119
-0.0709557 -0.3591 -0.312214 224 210 119
-0.127537 -0.429814 0.0706657 224 210 119
-0.110327 -0.26146 -0.15295 224 210 119
-0.154244 -0.490185 0.0805421 224 210 119
-0.158705 -0.479296 0.00781516 224 210 119
-0.113492 -0.49009 -0.190289 224 210 119
-0.120405 -0.327332 -0.0618297 224 210 119
-0.11422 -0.490502 0.0455867 224 210 119
-0.0780457 -0.470249 -0.175677 224 210 119
-0.105003 -0.358293 0.0130807 224 210 119
-0.100695 -0.415446 -0.165158 224 210 119
-0.0779248 -0.191156 -0.278243 224 210 119
-0.0868077 -0.38367 -0.000284318 224 210 119
-0.109349 -0.336695 -0.206662 224 210 119
-0.0796508 -0.344248 -0.228652 224 210 119
-0.121973 -0.487981 -0.206673 224 210 119
-0.204035 -0.483872 -0.0568087 224 210 119
-0.065371 -0.201618 -0.275452 224 210 119
-0.129481 -0.41416 0.0185999 224 210 119
-0.120814 -0.272965 -0.171567 224 210 119
-0.0689877 -0.150959 -0.326543 224 210 119
-0.148731 -0.45717 -0.0870243 224 210 119
-0.073687 -0.164849 -0.307231 224 210 119
-0.0947594 -0.264217 -0.101712 224 210 119
-0.119428 -0.270804 -0.205577 224 210 119
-0.124945 -0.496016 -0.104928 224 210 119
-0.0884423 -0.449251 -0.164267 224 210 119
-0.131175 -0.298203 -0.144826 224 210 119
-0.144856 -0.418811 -0.0266519 224 210 119
-0.0918505 -0.179236 -0.236931 224 210 119
-0.104092 -0.403305 -0.194556 224 210 119
-0.159417 -0.492265 -0.0952664 224 210 119
-0.0688896 -0.164527 -0.330356 224 210 119
-0.117904 -0.259182 -0.182668 224 210 119
-0.0717336 -0.288657 -0.275995 224 210 119
-0.0520121 -0.407817 -0.34985 224 210 119
-0.132188 -0.496373 -0.053034 224 210 119
-0.179807 -0.485021 0.119091 224 210 119
-0.124795 -0.358401 -0.153161 224 210 119
-0.129079 -0.337456 -0.0817012 224 210 119
-0.0939247 -0.338633 -0.0462731 224 210 119
-0.0768895 -0.212916 -0.304125 224 210 119
-0.0690364 -0.226914 -0.338351 224 210 119
-0.0677396 -0.477045 -0.183329 224 210 119
-0.0682767 -0.215202 -0.353097 224 210 119
-0.12253 -0.42024 -0.119585 224 210 119
-0.0763041 -0.165393 -0.288084 224 210 119
-0.0776448 -0.13952 -0.174204 224 210 119
-0.0704056 -0.173379 -0.326358 224 210 119
-0.065794 -0.355405 -0.347567 224 210 119
-0.0584138 -0.411558 -0.29666 224 210 119
-0.0747806 -0.237238 -0.324028 224 210 119
-0.0939388 -0.35331 -0.210596 224 210 119
-0.139394 -0.306266 -0.165409 224 210 119
-0.0973456 -0.194539 -0.224871 224 210 119
-0.100242 -0.20037 -0.215444 224 210 119
-0.0803549 -0.268382 -0.275139 224 210 119
-0.0448411 -0.468042 -0.224246 224 210 119
-0.106613 -0.293752 -0.220265 224 210 119
-0.145181 -0.481429 0.0392632 224 210 119
-0.102213 -0.216574 -0.188063 224 210 119
-0.104503 -0.247998 -0.159006 224 210 119
-0.0755151 -0.451633 -0.187505 224 210 119
-0.125391 -0.300341 -0.199613 224 210 119
-0.20032 -0.487743 0.16473 255 178 96
-0.178063 -0.488028 0.028162 255 178 96
-0.121078 -0.41819 0.175967 255 178 96
-0.229794 -0.433806 0.183782 255 178 96
-0.31381 -0.188334 0.186505 255 178 96
-0.179207 -0.0873228 0.178986 255 178 96
-0.284176 -0.442914 0.184595 255 178 96
-0.1596 -0.0558455 0.177777 255 178 96
-0.20173 -0.317559 0.181394 255 178 96
-0.22606 -0.272953 0.182775 255 178 96
-0.312829 -0.154907 0.185867 255 178 96
-0.37521 -0.487933 0.0424606 255 178 96
-0.357455 -0.471864 0.168241 255 178 96
-0.232754 -0.405666 0.183328 255 178 96
-0.296607 -0.487849 0.00618353 255 178 96
-0.341474 -0.341262 0.174035 255 178 96
-0.188098 -0.485464 -0.088451 255 178 96
-0.154238 -0.345458 0.179976 255 178 96
-0.265804 -0.16079 0.18416 255 178 96
-0.181734 -0.302804 0.181857 255 178 96
-0.212998 -0.487743 0.143096 255 178 96
-0.310184 -0.391856 0.187932 255 178 96
-0.226373 -0.150294 0.185263 255 178 96
-0.238901 -0.384871 0.183165 255 178 96
-0.129614 -0.488169 -0.041299 255 178 96
-0.294595 -0.205118 0.184764 255 178 96
-0.0836623 -0.28285 0.183398 255 178 96
-0.231308 -0.487656 0.17002 255 178 96
-0.312621 -0.433294 0.188314 255 178 96
-0.149843 -0.387394 0.178649 255 178 96
-0.375189 -0.480878 0.11248 255 178 96
-0.313359 -0.100324 0.184897 255 178 96
-0.202567 -0.48551 -0.12062 255 178 96
-0.0930709 -0.487369 0.14891 255 178 96
-0.277647 -0.468293 0.185599 255 178 96
-0.241307 -0.265424 0.1833 255 178 96
-0.269783 -0.450912 0.183985 255 178 96
-0.149851 -0.45593 0.179353 255 178 96
-0.332215 -0.196528 0.185357 255 178 96
-0.261611 -0.141098 0.18529 255 178 96
-0.330131 -0.152397 0.179794 255 178 96
-0.341021 -0.329459 0.172789 255 178 96
-0.308253 -0.226061 0.186976 255 178 96
-0.367478 -0.487732 0.090067 255 178 96
-0.257846 -0.487889 0.0116027 255 178 96
-0.252399 -0.0640108 0.187684 255 178 96
-0.278713 -0.487833 0.0309462 255 178 96
-0.265234 -0.227498 0.183574 255 178 96
-0.183882 -0.255747 0.182683 255 178 96
-0.204068 -0.387031 0.182151 255 178 96
-0.321048 -0.36949 0.190211 255 178 96
-0.331333 -0.487551 0.105204 255 178 96
-0.319349 -0.487878 -0.00987227 255 178 96
-0.0693853 -0.0585006 0.184467 255 178 96
-0.169709 -0.488156 -0.0765081 255 178 96
-0.283111 -0.487761 0.0740289 255 178 96
-0.181105 -0.166838 0.182504 255 178 96
-0.35425 -0.430845 0.155606 255 178 96
-0.221918 -0.305661 0.182086 255 178 96
-0.330676 -0.304097 0.191242 255 178 96
-0.301638 -0.0794627 0.185819 255 178 96
-0.177385 -0.242101 0.182292 255 178 96
-0.218216 -0.487992 -0.0120351 255 178 96
-0.126692 -0.486699 -0.182641 255 178 96
-0.286669 -0.487831 0.0220803 255 178 96
-0.178003 -0.487777 0.16036 255 178 96
-0.293234 -0.46844 0.186956 255 178 96
-0.199365 -0.488093 -0.0603964 255 178 96
-0.101919 -0.487466 0.163044 255 178 96
-0.194712 -0.487864 0.103815 255 178 96
-0.324075 -0.117738 0.178526 255 178 96
-0.26809 -0.305081 0.185714 255 178 96
-0.336093 -0.373531 0.191261 255 178 96
-0.215322 -0.487906 0.0668986 255 178 96
-0.37254 -0.48774 0.0949879 255 178 96
-0.182346 -0.48804 0.00370823 255 178 96
-0.339072 -0.487464 0.134845 255 178 96
-0.225783 -0.068633 0.187126 255 178 96
-0.232244 -0.269295 0.183082 255 178 96
-0.227923 -0.487956 0.00762113 255 178 96
-0.2571 -0.462683 0.185025 255 178 96
-0.251624 -0.487121 0.18066 255 178 96
-0.266721 -0.487922 -0.0251172 255 178 96
-0.309887 -0.211539 0.186781 255 178 96
-0.337488 -0.487513 0.119598 255 178 96
-0.185704 -0.443502 0.182658 255 178 96
-0.253665 -0.0679507 0.187581 255 178 96
-0.358143 -0.460709 0.157633 255 178 96
-0.333873 -0.175228 0.175299 255 178 96
-0.164076 -0.0455699 0.177376 255 178 96
-0.351448 -0.405825 0.158032 255 178 96
-0.156824 -0.481597 0.177237 255 178 96
-0.222689 -0.0539214 0.186598 255 178 96
-0.331516 -0.172619 0.182263 255 178 96
-0.294792 -0.349543 0.187398 255 178 96
-0.153894 -0.371322 0.179145 255 178 96
-0.354396 -0.487607 0.14569 255 178 96
-0.347941 -0.381175 0.160761 255 178 96
-0.318201 -0.423541 0.18867 255 178 96
-0.205766 -0.487759 0.143324 255 178 96
-0.157047 -0.482935 0.176634 255 178 96
-0.196249 -0.204533 0.183769 255 178 96
-0.24459 -0.487662 0.145162 255 178 96
-0.379011 -0.487889 0.104946 255 178 96
-0.229257 -0.230864 0.183245 255 178 96
-0.0983489 -0.313049 0.181684 255 178 96
-0.241341 -0.104721 0.186872 255 178 96
-0.177359 -0.404591 0.181568 255 178 96
-0.0524997 -0.142611 0.187173 255 178 96
-0.364409 -0.487807 0.13586 255 178 96
-0.313616 -0.322585 0.189632 255 178 96
-0.289319 -0.306849 0.186597 255 178 96
-0.251361 -0.173096 0.183918 255 178 96
-0.0808371 -0.487543 -0.0330536 255 178 96
-0.34604 -0.387764 0.171333 255 178 96
-0.366216 -0.481983 0.139759 255 178 96
-0.292423 -0.12499 0.185994 255 178 96
-0.304814 -0.487797 0.039001 255 178 96
-0.101826 -0.488085 -0.00122093 255 178 96
-0.118925 -0.488697 -0.202834 255 178 96
-0.258892 -0.118506 0.186131 255 178 96
-0.0471792 -0.175414 0.184672 255 178 96
-0.273574 -0.167444 0.183947 255 178 96
-0.10745 -0.487785 0.0740841 255 178 96
-0.34113 -0.349795 0.181084 255 178 96
-0.204273 -0.31839 0.181383 255 178 96
-0.211697 -0.487701 0.176036 255 178 96
-0.332785 -0.487614 0.172848 255 178 96
-0.326238 -0.375 0.191063 255 178 96
-0.31336 -0.134204 0.185472 255 178 96
-0.229429 -0.487865 0.0688044 255 178 96
-0.175489 -0.119299 0.179556 255 178 96
-0.353137 -0.45115 0.169057 255 178 96
-0.127041 -0.173596 0.183722 255 178 96
-0.339268 -0.333848 0.190194 255 178 96
-0.23328 -0.181943 0.183965 255 178 96
-0.110848 -0.101799 0.182467 255 178 96
-0.192181 -0.137614 0.182167 255 178 96
-0.192495 -0.445778 0.183097 255 178 96
-0.301929 -0.487632 0.0988214 255 178 96
-0.215353 -0.309408 0.181793 255 178 96
-0.266969 -0.459393 0.184167 255 178 96
-0.368796 -0.485075 0.130603 255 178 96
-0.32336 -0.326494 0.191345 255 178 96
-0.221973 -0.487986 -0.0104461 255 178 96
-0.272056 -0.346492 0.186095 255 178 96
-0.23325 -0.487997 -0.0313303 255 178 96
-0.280963 -0.487514 0.166241 255 178 96
-0.200147 -0.48804 -0.0311626 255 178 96
-0.373923 -0.487808 0.0771846 255 178 96
-0.292248 -0.132782 0.185885 255 178 96
-0.169536 -0.488085 -0.0090035 255 178 96
-0.332509 -0.487602 0.0919683 255 178 96
-0.339346 -0.280103 0.180541 255 178 96
-0.304604 -0.487844 0.0124651 255 178 96
-0.284011 -0.487902 -0.0556267 255 178 96
-0.329126 -0.487657 0.0770057 255 178 96
-0.193554 -0.424944 0.182549 255 178 96
-0.267463 -0.48782 0.064329 255 178 96
-0.243536 -0.487684 0.135832 255 178 96
-0.118175 -0.487724 0.114193 255 178 96
-0.292793 -0.381323 0.186829 255 178 96
-0.290985 -0.487876 -0.0117498 255 178 96
-0.284782 -0.221159 0.184077 255 178 96
-0.216468 -0.331323 0.181667 255 178 96
-0.246487 -0.315567 0.183818 255 178 96
-0.312364 -0.487631 0.0906105 255 178 96
-0.169196 -0.294998 0.181281 255 178 96
-0.0822157 -0.29908 0.182964 255 178 96
-0.294996 -0.487745 0.0687728 255 178 96
-0.283531 -0.487681 0.0998324 255 178 96
-0.188722 -0.0870158 0.180049 255 178 96
-0.18416 -0.488167 -0.135485 255 178 96
-0.178599 -0.186811 0.182756 255 178 96
-0.292529 -0.429223 0.185141 255 178 96
-0.178352 -0.112746 0.179552 255 178 96
-0.0989881 -0.487715 -0.216958 255 178 96
-0.0793611 -0.488347 -0.0983067 255 178 96
-0.260571 -0.22331 0.183185 255 178 96
-0.310529 -0.487643 0.088661 255 178 96
-0.135158 -0.488196 -0.0904157 255 178 96
-0.0967932 -0.487505 0.116109 255 178 96
-0.23573 -0.373818 0.182734 255 178 96
-0.305774 -0.272411 0.187676 255 178 96
-0.0748533 -0.0398157 0.182859 255 178 96
-0.330773 -0.487734 0.0600204 255 178 96
-0.159059 -0.38789 0.179777 255 178 96
-0.32377 -0.452805 0.190294 255 178 96
-0.204275 -0.487746 0.152031 255 178 96
-0.336777 -0.305062 0.190887 255 178 96
-0.152228 -0.487817 0.15489 255 178 96
-0.367374 -0.488399 0.147078 255 178 96
-0.275678 -0.344698 0.186402 255 178 96
-0.339826 -0.301975 0.17105 255 178 96
-0.337445 -0.29083 0.189807 255 178 96
-0.0804493 -0.420439 0.176903 255 178 96
-0.0660118 -0.0496415 0.18419 255 178 96
-0.0949785 -0.0526549 0.181952 255 178 96
-0.239124 -0.470964 0.185313 255 178 96
-0.169926 -0.487998 0.0659612 255 178 96
-0.297713 -0.460533 0.187092 255 178 96
-0.18809 -0.144851 0.181898 255 178 96
-0.237185 -0.227959 0.183043 255 178 96
-0.269283 -0.485431 0.1826 255 178 96
-0.235492 -0.400894 0.183283 255 178 96
-0.12868 -0.426054 0.175854 255 178 96
-0.278156 -0.487865 0.00498468 255 178 96
-0.225553 -0.444984 0.183547 255 178 96
-0.302304 -0.487719 0.0721481 255 178 96
-0.15539 -0.303787 0.180746 255 178 96
-0.321505 -0.142914 0.185535 255 178 96
-0.231862 -0.487925 0.0237392 255 178 96
-0.253179 -0.438775 0.184124 255 178 96
-0.0644493 -0.460427 0.171713 255 178 96
-0.295567 -0.334398 0.187282 255 178 96
-0.2591 -0.487568 0.179757 255 178 96
-0.270546 -0.188909 0.183484 255 178 96
-0.120387 -0.280339 0.182127 255 178 96
-0.155226 -0.286079 0.181252 255 178 96
-0.170797 -0.0473341 0.177552 255 178 96
-0.258476 -0.43947 0.184127 255 178 96
-0.227906 -0.484855 -0.0955723 255 178 96
-0.267785 -0.237658 0.184013 255 178 96
-0.297597 -0.401766 0.186115 255 178 96
-0.186434 -0.173296 0.183212 255 178 96
-0.296329 -0.068157 0.186057 255 178 96
-0.0685794 -0.487097 -0.161594 255 178 96
-0.205014 -0.248456 0.183075 255 178 96
-0.289069 -0.315387 0.186845 255 178 96
-0.0896316 -0.48814 -0.0340337 255 178 96
-0.15159 -0.455635 0.17983 255 178 96
-0.219845 -0.176931 0.184295 255 178 96
-0.157681 -0.486326 -0.160774 255 178 96
-0.272036 -0.487531 0.165994 255 178 96
-0.167258 -0.422598 0.181572 255 178 96
-0.196861 -0.352736 0.181244 255 178 96
-0.230303 -0.0758744 0.187637 255 178 96
-0.332956 -0.294537 0.190868 255 178 96
-0.101561 -0.488361 -0.107846 255 178 96
-0.220611 -0.416621 0.183223 255 178 96
-0.307392 -0.487532 0.129918 255 178 96
-0.214051 -0.488 -0.014695 255 178 96
-0.334245 -0.194822 0.18259 255 178 96
-0.248058 -0.279356 0.183784 255 178 96
-0.292598 -0.240706 0.185064 255 178 96
-0.274077 -0.387823 0.185381 255 178 96
-0.312208 -0.455746 0.189211 255 178 96
-0.166196 -0.48833 -0.194741 255 178 96
-0.359231 -0.487633 0.10957 255 178 96
-0.146118 -0.488171 -0.0785676 255 178 96
-0.22822 -0.487964 0.000754848 255 178 96
-0.170736 -0.31963 0.180685 255 178 96
-0.179195 -0.226107 0.182235 255 178 96
-0.314581 -0.17251 0.186175 255 178 96
-0.335472 -0.390608 0.190804 255 178 96
-0.218947 -0.258569 0.183005 255 178 96
-0.340729 -0.320787 0.18079 255 178 96
-0.355995 -0.487862 0.0286024 255 178 96
-0.177113 -0.488003 0.0469069 255 178 96
-0.254587 -0.487604 0.157876 255 178 96
-0.29034 -0.152564 0.185347 255 178 96
-0.362204 -0.488352 0.169295 255 178 96
-0.0920255 -0.488349 -0.0992233 255 178 96
-0.271155 -0.127857 0.185466 255 178 96
-0.231831 -0.487652 0.172482 255 178 96
-0.194693 -0.487941 0.0687372 255 178 96
-0.181297 -0.413439 0.181849 255 178 96
-0.261911 -0.487932 -0.0251232 255 178 96
-0.216126 -0.488084 -0.152341 255 178 96
-0.313902 -0.412263 0.187801 255 178 96
-0.313004 -0.485474 0.186398 255 178 96
-0.218509 -0.460973 0.185012 255 178 96
-0.319149 -0.389912 0.18934 255 178 96
-0.0632261 -0.487636 0.0340262 255 178 96
-0.230153 -0.482408 0.18398 255 178 96
-0.275577 -0.48778 0.0731309 255 178 96
-0.278615 -0.427256 0.184543 255 178 96
-0.264406 -0.407582 0.184745 255 178 96
-0.285017 -0.329576 0.186958 255 178 96
-0.247796 -0.487742 0.106211 255 178 96
-0.27596 -0.487815 0.0549099 255 178 96
-0.244795 -0.157427 0.184927 255 178 96
-0.172609 -0.488142 -0.0926879 255 178 96
-0.0682233 -0.487392 0.089155 255 178 96
-0.169337 -0.488079 0.00194423 255 178 96
-0.0604984 -0.487242 0.156614 255 178 96
-0.132925 -0.148658 0.182767 255 178 96
-0.118491 -0.209496 0.184489 255 178 96
-0.201032 -0.487738 0.168122 255 178 96
-0.338578 -0.257307 0.176489 255 178 96
-0.0948436 -0.12444 0.184471 255 178 96
-0.0869066 -0.487429 0.106429 255 178 96
-0.0910478 -0.487968 0.00407229 255 178 96
-0.14433 -0.0474377 0.178178 255 178 96
-0.13351 -0.48775 0.170308 255 178 96
-0.329337 -0.158255 0.182113 255 178 96
-0.17916 -0.205397 0.182448 255 178 96
-0.333562 -0.189105 0.182594 255 178 96
-0.351653 -0.413508 0.160282 255 178 96
-0.309537 -0.487855 0.00677343 255 178 96
-0.337528 -0.230319 0.178878 255 178 96
-0.230341 -0.448082 0.183556 255 178 96
-0.354437 -0.435385 0.156734 255 178 96
-0.338752 -0.487637 0.0863054 255 178 96
-0.361929 -0.487649 0.106542 255 178 96
-0.306126 -0.391989 0.187255 255 178 96
-0.280166 -0.487732 0.0859798 255 178 96
-0.34625 -0.463084 0.187224 255 178 96
-0.0525745 -0.117196 0.187956 255 178 96
-0.0808698 -0.209377 0.18629 255 178 96
-0.104505 -0.487718 -0.227974 255 178 96
-0.327074 -0.487437 0.152665 255 178 96
-0.184956 -0.487894 0.0971875 255 178 96
-0.142325 -0.488075 0.049438 255 178 96
-0.337274 -0.334387 0.190875 255 178 96
-0.291156 -0.306505 0.186685 255 178 96
-0.321748 -0.309529 0.19076 255 178 96
-0.199834 -0.218897 0.183848 255 178 96
-0.324075 -0.219608 0.187125 255 178 96
-0.314227 -0.417246 0.187796 255 178 96
-0.333959 -0.385334 0.191088 255 178 96
-0.202914 -0.485291 -0.0978692 255 178 96
-0.127475 -0.48812 0.0126761 255 178 96
-0.142974 -0.486099 -0.056471 255 178 96
-0.340495 -0.317583 0.170209 255 178 96
-0.278346 -0.346703 0.186626 255 178 96
-0.36031 -0.488258 0.168871 255 178 96
-0.163879 -0.0935531 0.178885 255 178 96
-0.209952 -0.238217 0.1834 255 178 96
-0.340661 -0.376435 0.187817 255 178 96
-0.32075 -0.257485 0.18843 255 178 96
-0.252244 -0.127896 0.185929 255 178 96
-0.232777 -0.483401 0.183923 255 178 96
-0.178296 -0.483118 0.180071 255 178 96
-0.318139 -0.433993 0.189066 255 178 96
-0.238598 -0.487985 -0.0305955 255 178 96
-0.279887 -0.181279 0.183939 255 178 96
-0.358946 -0.488096 0.165138 255 178 96
-0.344416 -0.362377 0.167465 255 178 96
-0.189054 -0.196022 0.18366 255 178 96
-0.284763 -0.487509 0.182513 255 178 96
-0.171199 -0.426105 0.181862 255 178 96
-0.319647 -0.487865 0.00969251 255 178 96
-0.0880065 -0.48748 0.0930515 255 178 96
-0.238422 -0.473471 0.184973 255 178 96
-0.312034 -0.262704 0.188182 255 178 96
-0.30658 -0.487236 0.18482 255 178 96
-0.315256 -0.355672 0.189771 255 178 96
-0.24011 -0.0580816 0.187776 255 178 96
-0.0620212 -0.274884 0.183167 255 178 96
-0.210715 -0.160683 0.184595 255 178 96
-0.267692 -0.159715 0.184143 255 178 96
-0.137029 -0.315742 0.180782 255 178 96
-0.308323 -0.487466 0.169413 255 178 96
-0.263838 -0.126816 0.185707 255 178 96
-0.186228 -0.0620507 0.178953 255 178 96
-0.279669 -0.375866 0.186218 255 178 96
-0.166553 -0.487964 0.0917703 255 178 96
-0.0882862 -0.488453 -0.0757492 255 178 96
-0.0515157 -0.313574 0.181525 255 178 96
-0.182985 -0.145678 0.181575 255 178 96
-0.140845 -0.444812 0.177041 255 178 96
-0.357217 -0.480663 0.176184 255 178 96
-0.347601 -0.389303 0.167021 255 178 96
-0.296913 -0.263287 0.186048 255 178 96
-0.174213 -0.487971 0.0782758 255 178 96
-0.177438 -0.488006 0.0440847 255 178 96
-0.272357 -0.420808 0.184466 255 178 96
-0.300742 -0.101528 0.185632 255 178 96
-0.302602 -0.487857 0.00319566 255 178 96
-0.183789 -0.483118 0.180771 255 178 96
-0.251057 -0.260933 0.183586 255 178 96
-0.346957 -0.487838 0.0340108 255 178 96
-0.291396 -0.162724 0.185068 255 178 96
-0.328246 -0.133737 0.176874 255 178 96
-0.132906 -0.488068 0.0547453 255 178 96
-0.0658277 -0.486986 -0.137736 255 178 96
-0.311313 -0.425279 0.187668 255 178 96
-0.226236 -0.348601 0.1819 255 178 96
-0.298156 -0.190976 0.18559 255 178 96
-0.325636 -0.167467 0.186005 255 178 96
-0.230961 -0.27517 0.182892 255 178 96
-0.289126 -0.487555 0.137122 255 178 96
-0.143387 -0.19555 0.183231 255 178 96
-0.1121 -0.350457 0.179991 255 178 96
-0.216874 -0.410686 0.182918 255 178 96
-0.278117 -0.151762 0.184741 255 178 96
-0.211824 -0.487887 0.078702 255 178 96
-0.368959 -0.488449 0.141039 255 178 96
-0.226717 -0.146117 0.185389 255 178 96
-0.172247 -0.082851 0.178447 255 178 96
-0.0616478 -0.487273 0.132222 255 178 96
-0.313469 -0.487465 0.152994 255 178 96
-0.275601 -0.487664 0.111588 255 178 96
-0.208689 -0.428034 0.18322 255 178 96
-0.123925 -0.487771 0.117137 255 178 96
-0.292593 -0.242167 0.185097 255 178 96
-0.218151 -0.0526036 0.185869 255 178 96
-0.323937 -0.410911 0.189984 255 178 96
-0.0977459 -0.487727 -0.213187 255 178 96
-0.104218 -0.384804 0.17815 255 178 96
-0.100506 -0.476598 0.170083 255 178 96
-0.301818 -0.260973 0.1868 255 178 96
-0.0825934 -0.192828 0.186443 255 178 96
-0.367828 -0.488286 0.146235 255 178 96
-0.332252 -0.16391 0.177747 255 178 96
-0.0460686 -0.1838 0.184004 255 178 96
-0.278502 -0.48756 0.144253 255 178 96
-0.29093 -0.176792 0.18471 255 178 96
-0.26534 -0.487702 0.106173 255 178 96
-0.0987642 -0.129197 0.184375 255 178 96
-0.354436 -0.487723 0.156069 255 178 96
-0.115228 -0.0650045 0.180685 255 178 96
-0.258276 -0.0921852 0.186859 255 178 96
-0.209652 -0.236378 0.183435 255 178 96
-0.120574 -0.384955 0.177958 255 178 96
-0.294512 -0.487512 0.149565 255 178 96
-0.338965 -0.269044 0.175217 255 178 96
-0.180522 -0.191289 0.182967 255 178 96
-0.280995 -0.320508 0.186541 255 178 96
-0.19707 -0.328082 0.181278 255 178 96
-0.350265 -0.419172 0.166937 255 178 96
-0.321946 -0.469446 0.190034 255 178 96
-0.312331 -0.223849 0.187148 255 178 96
-0.213093 -0.309972 0.181728 255 178 96
-0.200395 -0.225393 0.183682 255 178 96
-0.189943 -0.059206 0.17948 255 178 96
-0.207165 -0.487943 0.0503782 255 178 96
-0.281978 -0.227352 0.184139 255 178 96
-0.230228 -0.487661 0.166489 255 178 96
-0.245804 -0.416056 0.184262 255 178 96
-0.281092 -0.411365 0.184984 255 178 96
-0.252975 -0.271196 0.183875 255 178 96
-0.345484 -0.487926 0.176422 255 178 96
-0.15873 -0.151815 0.181388 255 178 96
-0.1835 -0.0672426 0.178809 255 178 96
-0.0538364 -0.134068 0.187611 255 178 96
-0.197538 -0.0999183 0.182124 255 178 96
-0.216355 -0.377825 0.181877 255 178 96
-0.155542 -0.488241 -0.143658 255 178 96
-0.318657 -0.259268 0.188448 255 178 96
-0.324245 -0.478104 0.189471 255 178 96
-0.175618 -0.115051 0.179446 255 178 96
-0.165565 -0.487992 0.0797781 255 178 96
-0.188632 -0.487796 0.136725 255 178 96
-0.258922 -0.487631 0.138459 255 178 96
-0.300491 -0.487616 0.105614 255 178 96
-0.177624 -0.48814 -0.0673343 255 178 96
-0.19051 -0.435967 0.182818 255 178 96
-0.295482 -0.360803 0.187455 255 178 96
-0.281715 -0.379839 0.186245 255 178 96
-0.350706 -0.487653 0.0931385 255 178 96
-0.162788 -0.205264 0.182631 255 178 96
-0.334374 -0.487493 0.123233 255 178 96
-0.294095 -0.487488 0.17154 255 178 96
-0.112822 -0.265828 0.18317 255 178 96
-0.193362 -0.217168 0.183525 255 178 96
-0.288087 -0.0673683 0.18692 255 178 96
-0.301279 -0.487631 0.0997446 255 178 96
-0.241681 -0.407836 0.183861 255 178 96
-0.068996 -0.136555 0.186635 255 178 96
-0.366002 -0.487811 0.0620991 255 178 96
-0.321389 -0.317118 0.190817 255 178 96
-0.325206 -0.302205 0.190777 255 178 96
-0.0963597 -0.487156 -0.208403 255 178 96
-0.135721 -0.216729 0.183514 255 178 96
-0.305668 -0.487468 0.174854 255 178 96
-0.303417 -0.487836 0.0189646 255 178 96
-0.161707 -0.410451 0.1803 255 178 96
-0.312942 -0.168821 0.186143 255 178 96
-0.317257 -0.240005 0.187711 255 178 96
-0.284818 -0.487636 0.113795 255 178 96
-0.295397 -0.46734 0.18751 255 178 96
-0.19602 -0.344481 0.181146 255 178 96
-0.26815 -0.487702 0.104348 255 178 96
-0.183029 -0.488142 -0.0865955 255 178 96
-0.308366 -0.487518 0.134899 255 178 96
-0.30185 -0.487476 0.171432 255 178 96
-0.117277 -0.487886 0.0770019 255 178 96
-0.164591 -0.244833 0.182184 255 178 96
-0.328645 -0.380076 0.191437 255 178 96
-0.126474 -0.486289 -0.0300823 255 178 96
-0.351512 -0.487613 0.107869 255 178 96
-0.242236 -0.312187 0.183428 255 178 96
-0.148685 -0.149293 0.181993 255 178 96
-0.320898 -0.461767 0.190462 255 178 96
-0.0973135 -0.243397 0.184965 255 178 96
-0.111738 -0.487833 -0.230825 255 178 96
-0.223649 -0.485214 -0.126281 255 178 96
-0.302088 -0.487882 -0.0260569 255 178 96
-0.0595776 -0.312913 0.182819 255 178 96
-0.252029 -0.487883 0.0276803 255 178 96
-0.110276 -0.487759 0.0878452 255 178 96
-0.0652307 -0.216579 0.185147 255 178 96
-0.3411 -0.326284 0.1793 255 178 96
-0.0700693 -0.231202 0.185455 255 178 96
-0.204426 -0.424566 0.182965 255 178 96
-0.0610549 -0.48693 -0.0966171 255 178 96
-0.341931 -0.478885 0.188072 255 178 96
-0.181635 -0.412231 0.18184 255 178 96
-0.0754243 -0.0763411 0.184149 255 178 96
-0.14996 -0.488112 0.0252966 255 178 96
-0.137673 -0.450608 0.176786 255 178 96
-0.324314 -0.337328 0.19145 255 178 96
-0.321251 -0.456132 0.190542 255 178 96
-0.23527 -0.427027 0.184011 255 178 96
-0.321339 -0.153582 0.185886 255 178 96
-0.139593 -0.487794 0.171171 255 178 96
-0.321242 -0.404574 0.189473 255 178 96
-0.345378 -0.385934 0.172871 255 178 96
-0.315974 -0.0768482 0.18087 255 178 96
-0.158518 -0.258698 0.181989 255 178 96
-0.0413376 -0.411621 0.0247858 255 139 72
-0.0314567 -0.0549399 0.115714 255 139 72
-0.042578 -0.429367 0.0764916 255 139 72
-0.0447208 -0.476082 -0.0461824 255 139 72
-0.0398528 -0.358943 -0.169952 255 139 72
-0.0378217 -0.17121 0.128621 255 139 72
-0.0298332 -0.0704053 0.051939 255 139 72
-0.0369463 -0.148743 0.132074 255 139 72
-0.0341192 -0.146097 0.078158 255 139 72
-0.0314754 -0.0555814 0.0945563 255 139 72
-0.0369098 -0.305679 0.0769387 255 139 72
-0.0395841 -0.259339 -0.178324 255 139 72
-0.0413678 -0.236848 0.142866 255 139 72
-0.0388546 -0.158216 0.150789 255 139 72
-0.0315342 -0.0339133 0.0584224 255 139 72
-0.0421503 -0.20813 -0.112598 255 139 72
-0.0390131 -0.215856 -0.267008 255 139 72
-0.0398432 -0.293175 -0.0856523 255 139 72
-0.0423826 -0.138959 -0.218555 255 139 72
-0.0411922 -0.298139 -0.124357 255 139 72
-0.0360509 -0.215397 0.0243995 255 139 72
-0.0378694 -0.33632 0.0978329 255 139 72
-0.0471634 -0.479394 0.0473103 255 139 72
-0.0456521 -0.276154 0.164193 255 139 72
-0.0336615 -0.0291597 0.0475586 255 139 72
-0.0404387 -0.302254 0.128254 255 139 72
-0.0465873 -0.487555 0.0373875 255 139 72
-0.0400943 -0.200871 -0.163312 255 139 72
-0.0406067 -0.311743 -0.117441 255 139 72
-0.0379463 -0.343821 0.0657758 255 139 72
-0.0409727 -0.265208 0.138025 255 139 72
-0.0409721 -0.137567 -0.0868942 255 139 72
-0.0399369 -0.386947 0.0184174 255 139 72
-0.0382206 -0.273335 -0.0399629 255 139 72
-0.0399641 -0.198375 0.137155 255 139 72
-0.0396042 -0.261226 -0.232083 255 139 72
-0.0393065 -0.247777 -0.044156 255 139 72
-0.0450797 -0.47336 0.112594 255 139 72
-0.0364981 -0.260825 0.092363 255 139 72
-0.0384509 -0.0635873 -0.0520765 255 139 72
-0.0400343 -0.382223 -0.179638 255 139 72
-0.036566 -0.276795 0.0520813 255 139 72
-0.0436794 -0.467237 -0.0083146 255 139 72
-0.0326909 -0.142982 0.00215272 255 139 72
-0.0325653 -0.141931 0.0301528 255 139 72
-0.0306896 -0.0446113 0.0713033 255 139 72
-0.0424545 -0.423177 0.103827 255 139 72
-0.0382763 -0.313884 0.107872 255 139 72
-0.0381424 -0.292276 -0.0440633 255 139 72
-0.123303 -0.377418 0.161828 255 139 72
-0.0458436 -0.208113 0.16493 255 139 72
-0.0421045 -0.458497 0.134608 255 139 72
-0.0308878 -0.0601117 0.0850606 255 139 72
-0.0377153 -0.337508 0.085124 255 139 72
-0.0313267 -0.0626983 0.119452 255 139 72
-0.0417947 -0.420785 0.0814573 255 139 72
-0.0407778 -0.168524 -0.180429 255 139 72
-0.0399901 -0.0703348 -0.0847346 255 139 72
-0.0416867 -0.439461 -0.253559 255 139 72
-0.0343915 -0.0408772 0.142559 255 139 72
-0.0403003 -0.300895 -0.179261 255 139 72
-0.0390944 -0.274517 -0.0558767 255 139 72
-0.0417865 -0.15644 -0.21429 255 139 72
-0.0335748 -0.131592 0.0736219 255 139 72
-0.0403154 -0.290596 -0.238948 255 139 72
-0.0305109 -0.0472273 0.0209013 255 139 72
-0.0342396 -0.149846 0.0885887 255 139 72
-0.0410585 -0.225052 -0.0602804 255 139 72
-0.0434171 -0.471139 -0.184868 255 139 72
-0.0407328 -0.404514 0.0841759 255 139 72
-0.10609 -0.449396 0.159385 255 139 72
-0.0364852 -0.299089 -0.0191903 255 139 72
-0.040022 -0.383346 -0.143621 255 139 72
-0.0415563 -0.413328 0.0717463 255 139 72
-0.0494408 -0.224238 0.150476 255 139 72
-0.0398592 -0.323426 -0.26448 255 139 72
-0.0346315 -0.16441 -0.0078785 255 139 72
-0.0394854 -0.0670971 -0.0687491 255 139 72
-0.0366741 -0.19254 -0.0192716 255 139 72
-0.041509 -0.424878 -0.142005 255 139 72
-0.0401701 -0.190053 0.147904 255 139 72
-0.0403051 -0.311787 -0.215541 255 139 72
-0.0410379 -0.184399 -0.206603 255 139 72
-0.0418147 -0.0206969 0.160289 255 139 72
-0.0324031 -0.145762 0.0213058 255 139 72
-0.030794 -0.101732 0.0426163 255 139 72
-0.0356653 -0.226842 0.0597781 255 139 72
-0.040895 -0.138912 -0.0822242 255 139 72
-0.0402253 -0.307678 0.124501 255 139 72
-0.0368382 -0.285269 -0.018463 255 139 72
-0.0410556 -0.380528 0.132737 255 139 72
-0.0818702 -0.0955231 0.166514 255 139 72
-0.0319999 -0.101312 0.0784903 255 139 72
-0.0412232 -0.12947 -0.121477 255 139 72
-0.04487 -0.476584 -0.058737 255 139 72
-0.0404328 -0.081778 -0.121552 255 139 72
-0.0376678 -0.293433 -0.0383114 255 139 72
-0.0373924 -0.321007 -0.0494799 255 139 72
-0.043261 -0.440082 -0.0975221 255 139 72
-0.0399493 -0.340798 -0.111819 255 139 72
-0.0403109 -0.324133 0.125059 255 139 72
-0.0359384 -0.114213 -0.0342909 255 139 72
-0.037827 -0.189043 -0.0328238 255 139 72
-0.0402568 -0.384314 -0.219861 255 139 72
-0.0374717 -0.0146899 0.114458 255 139 72
-0.030088 -0.0897558 0.011599 255 139 72
-0.0360454 -0.0335525 0.150927 255 139 72
-0.0398816 -0.400502 -0.187375 255 139 72
-0.0439098 -0.0501049 0.146813 255 139 72
-0.0389046 -0.0630096 -0.0568383 255 139 72
-0.0301331 -0.0901129 0.0410973 255 139 72
-0.0402575 -0.375369 -0.20532 255 139 72
-0.0679866 -0.394278 0.1609 255 139 72
-0.0320374 -0.0870607 0.0992068 255 139 72
-0.0374493 -0.317873 0.0751221 255 139 72
-0.0395384 -0.266123 -0.0584484 255 139 72
-0.0407205 -0.128094 -0.165268 255 139 72
-0.0413232 -0.162214 -0.0703731 255 139 72
-0.0411737 -0.250481 0.148789 255 139 72
-0.0396177 -0.259019 -0.0553862 255 139 72
-0.0354694 -0.207663 0.0671508 255 139 72
-0.0426326 -0.434442 -0.125266 255 139 72
-0.0428654 -0.437054 -0.0630823 255 139 72
-0.149633 -0.427996 0.157939 255 139 72
-0.0309247 -0.0950967 0.0538909 255 139 72
-0.0481292 -0.0770988 0.118726 255 139 72
-0.0316439 -0.0932752 0.0749869 255 139 72
-0.038743 -0.153744 0.151112 255 139 72
-0.0322654 -0.035263 0.105098 255 139 72
-0.0403601 -0.212582 -0.247945 255 139 72
-0.0452592 -0.121303 0.166143 255 139 72
-0.0399145 -0.226814 -0.045917 255 139 72
-0.0389392 -0.235347 -0.0364494 255 139 72
-0.0398574 -0.211031 -0.172243 255 139 72
-0.0330178 -0.100662 0.121434 255 139 72
-0.0493086 -0.136548 0.168987 255 139 72
-0.0389394 -0.132074 -0.292643 255 139 72
-0.0327092 -0.0961996 0.121336 255 139 72
-0.0423377 -0.424753 0.0442473 255 139 72
-0.0437853 -0.449514 -0.0800626 255 139 72
-0.0411929 -0.395243 -0.0709198 255 139 72
-0.0348135 -0.0579173 -0.0230944 255 139 72
-0.0312314 -0.0698487 0.113056 255 139 72
-0.0351455 -0.15553 0.0961324 255 139 72
-0.0849293 -0.325009 0.162341 255 139 72
-0.0404326 -0.203888 0.139711 255 139 72
-0.0381124 -0.232493 -0.268369 255 139 72
-0.0416906 -0.421347 -0.134071 255 139 72
-0.0415635 -0.41482 0.0399572 255 139 72
-0.0419538 -0.157814 -0.23524 255 139 72
-0.0401811 -0.346698 -0.228956 255 139 72
-0.0399356 -0.155858 -0.0583574 255 139 72
-0.10718 -0.277466 0.163558 255 139 72
-0.0427085 -0.217968 0.159102 255 139 72
-0.0402135 -0.242188 -0.0565032 255 139 72
-0.0398589 -0.3505 -0.163212 255 139 72
-0.0411743 -0.393247 -0.0921273 255 139 72
-0.0433546 -0.297317 0.159845 255 139 72
-0.0407276 -0.446648 -0.224174 255 139 72
-0.0389524 -0.342889 -0.079334 255 139 72
-0.0313393 -0.0934127 0.060945 255 139 72
-0.0351135 -0.0919176 0.141869 255 139 72
-0.0313959 -0.0540277 0.124318 255 139 72
-0.0358927 -0.227921 0.0112743 255 139 72
-0.0362517 -0.293036 0.0851351 255 139 72
-0.0390251 -0.373636 0.0727823 255 139 72
-0.0400302 -0.400248 -0.205168 255 139 72
-0.0404388 -0.395211 0.0216213 255 139 72
-0.0895444 -0.39727 0.162045 255 139 72
-0.0373789 -0.18657 0.108218 255 139 72
-0.0372081 -0.214793 0.0950193 255 139 72
-0.036919 -0.303012 0.0287665 255 139 72
-0.0378474 -0.184963 -0.0338021 255 139 72
-0.0405353 -0.360706 0.153631 255 139 72
-0.0402447 -0.389762 -0.208538 255 139 72
-0.0445852 -0.452059 0.100423 255 139 72
-0.0400796 -0.387293 0.0962665 255 139 72
-0.0410518 -0.458683 -0.188738 255 139 72
-0.0401285 -0.335599 -0.151655 255 139 72
-0.0416958 -0.140451 -0.190522 255 139 72
-0.0442197 -0.46614 -0.0443061 255 139 72
-0.0367816 -0.0505282 0.0362714 255 139 72
-0.0862252 -0.143401 0.167153 255 139 72
-0.0411883 -0.0910857 -0.1696 255 139 72
-0.0299614 -0.0557418 0.0513215 255 139 72
-0.0383101 -0.358496 0.0773129 255 139 72
-0.0366959 -0.157977 0.121392 255 139 72
-0.0405536 -0.407748 -0.0213815 255 139 72
-0.0602716 -0.0595441 0.167493 255 139 72
-0.0405986 -0.19907 -0.146778 255 139 72
-0.0484277 -0.329657 0.162188 255 139 72
-0.0411809 -0.291133 -0.115457 255 139 72
-0.0304345 -0.112267 0.0196868 255 139 72
-0.0339804 -0.142517 0.067953 255 139 72
-0.0417512 -0.259916 -0.107562 255 139 72
-0.0421737 -0.217966 0.157574 255 139 72
-0.0390779 -0.374137 0.0717926 255 139 72
-0.0365797 -0.268113 0.0420148 255 139 72
-0.042479 -0.118395 -0.254355 255 139 72
-0.0409209 -0.404677 0.0340385 255 139 72
-0.0385637 -0.36422 0.0123607 255 139 72
-0.0387267 -0.3011 0.11346 255 139 72
-0.0397969 -0.271684 -0.168362 255 139 72
-0.0317139 -0.0792336 0.101057 255 139 72
-0.0392082 -0.100403 0.159129 255 139 72
-0.04083 -0.40418 0.074889 255 139 72
-0.0849986 -0.251882 0.164923 255 139 72
-0.0414339 -0.407705 0.0542732 255 139 72
-0.0348581 -0.165853 -0.00910786 255 139 72
-0.0346093 -0.257905 -0.300236 255 139 72
-0.0314814 -0.0488547 0.089448 255 139 72
-0.039793 -0.333169 0.118059 255 139 72
-0.036324 -0.256294 0.024206 255 139 72
-0.0416388 -0.410506 0.101557 255 139 72
-0.0426949 -0.0483699 0.162659 255 139 72
-0.0385992 -0.244718 -0.0337817 255 139 72
-0.100524 -0.319286 0.161823 255 139 72
-0.0362397 -0.174444 -0.0194183 255 139 72
-0.0396771 -0.260815 -0.187268 255 139 72
-0.0368647 -0.0968036 -0.0446987 255 139 72
-0.0392351 -0.284701 -0.0624712 255 139 72
-0.0423547 -0.428072 -0.125483 255 139 72
-0.0429134 -0.435758 -0.0853459 255 139 72
-0.0386768 -0.366347 0.0763648 255 139 72
-0.0409603 -0.277639 -0.143838 255 139 72
-0.0416376 -0.406335 -0.062485 255 139 72
-0.0421529 -0.0469584 0.161892 255 139 72
-0.0402441 -0.289426 -0.0931639 255 139 72
-0.0348154 -0.125567 -0.0218062 255 139 72
-0.041681 -0.0980067 -0.183022 255 139 72
-0.0391148 -0.29906 -0.0727665 255 139 72
-0.0399642 -0.385375 0.0676111 255 139 72
-0.0363523 -0.24181 0.0275542 255 139 72
-0.0332247 -0.0574364 -0.0116201 255 139 72
-0.0337164 -0.0955001 0.132484 255 139 72
-0.0406815 -0.242293 -0.0646865 255 139 72
-0.037904 -0.266601 -0.0323398 255 139 72
-0.0318992 -0.124758 0.0419856 255 139 72
-0.0368225 -0.272521 -0.0125415 255 139 72
-0.0444973 -0.342192 0.158433 255 139 72
-0.0327915 -0.100256 0.108757 255 139 72
-0.0432413 -0.440148 0.0383282 255 139 72
-0.0374289 -0.20908 -0.290777 255 139 72
-0.0431101 -0.116894 -0.240167 255 139 72
-0.122559 -0.0768197 0.168494 255 139 72
-0.0322741 -0.140495 0.0248218 255 139 72
-0.0415927 -0.42363 -0.0172535 255 139 72
-0.041734 -0.422115 -0.0286684 255 139 72
-0.0337327 -0.133557 0.0778832 255 139 72
-0.0365877 -0.267968 0.0415368 255 139 72
-0.0410287 -0.410192 -0.0314846 255 139 72
-0.0332109 -0.0813348 0.135148 255 139 72
-0.0443814 -0.472239 -0.0354873 255 139 72
-0.0439607 -0.383748 0.158929 255 139 72
-0.0350843 -0.0928704 0.14131 255 139 72
-0.110867 -0.359116 0.162399 255 139 72
-0.0753338 -0.458753 0.160723 255 139 72
-0.0359133 -0.229711 0.0109018 255 139 72
-0.0396506 -0.104567 -0.0748798 255 139 72
-0.0407354 -0.397886 -0.134654 255 139 72
-0.0508826 -0.388953 0.159215 255 139 72
-0.0403903 -0.299987 -0.25064 255 139 72
-0.0398021 -0.093012 -0.0912451 255 139 72
-0.0446212 -0.489556 0.0103606 255 139 72
-0.0399868 -0.279188 -0.182952 255 139 72
-0.0354064 -0.234754 0.0676122 255 139 72
-0.0420723 -0.163268 -0.0844639 255 139 72
-0.0309087 -0.0987061 0.0494609 255 139 72
-0.0401391 -0.286167 -0.19872 255 139 72
-0.0402061 -0.337132 -0.120981 255 139 72
-0.0393191 -0.383821 0.0031121 255 139 72
-0.0339785 -0.12748 -0.0137068 255 139 72
-0.0836227 -0.349818 0.162157 255 139 72
-0.0337852 -0.0399326 0.139125 255 139 72
-0.042889 -0.442743 -0.126902 255 139 72
-0.0421032 -0.436451 0.128967 255 139 72
-0.114875 -0.19564 0.164817 255 139 72
-0.0314417 -0.0790608 0.111902 255 139 72
-0.0401907 -0.136867 -0.0646937 255 139 72
-0.0393074 -0.214178 -0.0407164 255 139 72
-0.0390292 -0.13553 -0.290753 255 139 72
-0.039694 -0.0772963 -0.0827292 255 139 72
-0.0338076 -0.0471146 -0.00867189 255 139 72
-0.0454667 -0.178092 0.164812 255 139 72
-0.0385648 -0.0536359 -0.0472914 255 139 72
-0.0371744 -0.223466 -0.285889 255 139 72
-0.0367268 -0.108815 0.145579 255 139 72
-0.0402626 -0.31265 -0.208176 255 139 72
-0.0301378 -0.0520521 0.0192971 255 139 72
-0.0424887 -0.303816 0.157991 255 139 72
-0.0408566 -0.189784 -0.201827 255 139 72
-0.0383871 -0.138057 0.15222 255 139 72
-0.0354373 -0.122201 0.132575 255 139 72
-0.0399596 -0.208644 0.131344 255 139 72
-0.0392755 -0.294337 -0.07279 255 139 72
-0.0408255 -0.402404 0.0719194 255 139 72
-0.0379067 -0.153976 -0.0417124 255 139 72
-0.0392176 -0.279543 -0.26457 255 139 72
-0.0383179 -0.254481 -0.0325062 255 139 72
-0.0364414 -0.296575 0.0745775 255 139 72
-0.036409 -0.288977 0.0673553 255 139 72
-0.0435952 -0.202828 0.162045 255 139 72
-0.0469269 -0.471211 0.0893589 255 139 72
-0.036767 -0.286885 0.0371722 255 139 72
-0.0425874 -0.474074 -0.15219 255 139 72
-0.0375457 -0.141795 -0.0391366 255 139 72
-0.032767 -0.064843 0.133978 255 139 72
-0.0402655 -0.224027 -0.147859 255 139 72
-0.0402799 -0.280974 -0.0786924 255 139 72
-0.0402255 -0.145638 -0.0624867 255 139 72
-0.0467936 -0.470155 -0.210867 255 139 72
-0.0396585 -0.289577 -0.0770983 255 139 72
-0.0329495 -0.131984 0.0543935 255 139 72
-0.0396657 -0.391333 -0.0279407 255 139 72
-0.040635 -0.381682 -0.080623 255 139 72
-0.0408867 -0.273615 -0.08906 255 139 72
-0.0563922 -0.373071 0.15992 255 139 72
-0.040484 -0.333607 -0.25526 255 139 72
-0.0370921 -0.108777 -0.0441856 255 139 72
-0.0413316 -0.0333891 0.160503 255 139 72
-0.0325999 -0.0326091 0.0845841 255 139 72
-0.0420986 -0.432254 0.11853 255 139 72
-0.0374632 -0.325243 0.0945427 255 139 72
-0.039533 -0.365482 0.105547 255 139 72
-0.0387206 -0.220865 -0.267255 255 139 72
-0.0377843 -0.341032 0.0791648 255 139 72
-0.036379 -0.252751 -0.000526413 255 139 72
-0.0465296 -0.469514 0.0956488 255 139 72
-0.0412662 -0.436144 -0.157963 255 139 72
-0.0400994 -0.377153 0.10607 255 139 72
-0.0751125 -0.183244 0.166969 255 139 72
-0.108914 -0.0274864 0.166516 255 139 72
-0.0394158 -0.260168 -0.244807 255 139 72
-0.0378606 -0.344991 0.0287853 255 139 72
-0.0407099 -0.320683 0.142013 255 139 72
-0.0496826 -0.0914138 0.165002 255 139 72
-0.0296025 -0.0663009 0.0422139 255 139 72
-0.0323394 -0.0957905 0.0980045 255 139 72
-0.0438868 -0.460081 -0.0484561 255 139 72
-0.0395829 -0.180433 0.147592 255 139 72
-0.0423238 -0.377352 0.157385 255 139 72
-0.0409984 -0.460849 0.148232 255 139 72
-0.0921003 -0.43039 0.161541 255 139 72
-0.0407412 -0.419139 -0.156766 255 139 72
-0.0418212 -0.410376 -0.0828696 255 139 72
-0.0374609 -0.322083 0.0700607 255 139 72
-0.0400625 -0.397985 -0.201022 255 139 72
-0.0305584 -0.0778271 0.0626859 255 139 72
-0.0403969 -0.41988 -0.242863 255 139 72
-0.0481323 -0.247121 0.146891 255 139 72
-0.0355257 -0.117557 0.134988 255 139 72
-0.0412549 -0.478613 0.146951 255 139 72
-0.0357204 -0.0418008 0.0249767 255 139 72
-0.0362833 -0.0397583 -0.000582926 255 139 72
-0.0316331 -0.134485 0.0173466 255 139 72
-0.0420434 -0.059878 0.16207 255 139 72
-0.0939503 -0.374409 0.162341 255 139 72
-0.0441492 -0.475635 -0.0146972 255 139 72
-0.041734 -0.123914 0.161195 255 139 72
-0.0379763 -0.274454 -0.0357686 255 139 72
-0.0390808 -0.373275 0.0846489 255 139 72
-0.0391038 -0.149466 -0.0521866 255 139 72
-0.0341779 -0.173495 0.0228279 255 139 72
-0.100781 -0.384194 0.16264 255 139 72
-0.0401952 -0.357717 -0.255012 255 139 72
-0.0403057 -0.328635 -0.143357 255 139 72
-0.0445076 -0.484951 0.00173861 255 139 72
-0.165248 -0.444325 0.157507 255 139 72
-0.036192 -0.241179 0.0446213 255 139 72
-0.0381447 -0.353031 0.0806341 255 139 72
-0.0429977 -0.455215 -0.256084 255 139 72
-0.03226 -0.0923135 0.0997642 255 139 72
-0.0401357 -0.280741 -0.167216 255 139 72
-0.0463238 -0.0858085 0.168406 255 139 72
-0.0368408 -0.104763 0.148584 255 139 72
-0.0612842 -0.364052 0.16052 255 139 72
-0.0405213 -0.176951 -0.05999 255 139 72
-0.0423577 -0.471704 -0.155759 255 139 72
-0.0386804 -0.267345 -0.0450839 255 139 72
-0.0370263 -0.243813 -0.0112557 255 139 72
-0.0409527 -0.221245 -0.135766 255 139 72
-0.0401647 -0.353721 -0.259787 255 139 72
-0.102821 -0.431458 0.160475 255 139 72
-0.0335398 -0.0277668 0.135934 255 139 72
-0.0401149 -0.282602 -0.228591 255 139 72
-0.041505 -0.420792 -0.137412 255 139 72
-0.0407874 -0.0777409 -0.130098 255 139 72
-0.0422691 -0.428332 -0.0483415 255 139 72
-0.0365839 -0.320399 -0.0342625 255 139 72
-0.0359018 -0.1482 0.113679 255 139 72
-0.0336522 -0.129947 0.0831731 255 139 72
-0.0317945 -0.039328 0.0846709 255 139 72
-0.031948 -0.106357 0.065101 255 139 72
-0.0400138 -0.394859 -0.167668 255 139 72
-0.0342787 -0.183377 0.0073226 255 139 72
-0.0403108 -0.0964319 -0.121642 255 139 72
-0.0375085 -0.31289 -0.047722 255 139 72
-0.044868 -0.451533 0.157079 255 139 72
-0.0369161 -0.234785 -0.0110129 255 139 72
-0.0416082 -0.139386 -0.186397 255 139 72
-0.0292708 -0.0755238 0.0258458 255 139 72
-0.0336706 -0.137063 0.0666441 255 139 72
-0.0376886 -0.337565 0.068294 255 139 72
-0.0404045 -0.396054 0.0158779 255 139 72
-0.0366679 -0.0502611 -0.0303793 255 139 72
-0.036158 -0.232473 0.0444142 255 139 72
-0.0397032 -0.270446 -0.240545 255 139 72
-0.0433003 -0.289876 0.160525 255 139 72
-0.0393339 -0.107278 -0.0651518 255 139 72
-0.0360478 -0.260572 0.0135389 255 139 72
-0.0356445 -0.240517 0.0817505 255 139 72
-0.0530054 -0.423261 0.158686 255 139 72
-0.0422664 -0.426915 -0.0567623 255 139 72
-0.0407598 -0.132211 -0.165716 255 139 72
-0.0403235 -0.305688 0.148236 255 139 72
-0.127034 -0.106475 0.166836 255 139 72
-0.0446465 -0.472786 -0.0503006 255 139 72
-0.0404494 -0.0731153 -0.107761 255 139 72
-0.0359122 -0.0121261 0.137846 255 139 72
-0.0420323 -0.414154 -0.0683983 255 139 72
-0.0362574 -0.311659 -0.0144952 255 139 72
-0.0530013 -0.325532 0.162669 255 139 72
-0.0325317 -0.14149 0.0299589 255 139 72
-0.0410551 -0.249969 -0.13014 255 139 72
-0.0405434 -0.0945873 -0.160444 255 139 72
-0.0390342 -0.317425 -0.0760914 255 139 72
-0.0370775 -0.188867 0.103264 255 139 72
-0.0369032 -0.0645074 -0.0395157 255 139 72
-0.133735 -0.129581 0.166202 255 139 72
-0.0365766 -0.278031 0.050378 255 139 72
-0.0890808 -0.225359 0.165657 255 139 72
-0.0300075 -0.0587673 0.0572197 255 139 72
-0.0365641 -0.336569 -0.0321163 255 139 72
-0.0321262 -0.111261 -0.00456114 255 139 72
-0.0409647 -0.12342 -0.108044 255 139 72
-0.0345388 -0.0412956 -0.000650339 255 139 72
-0.0367859 -0.265705 -0.00356119 255 139 72
-0.0408294 -0.295573 -0.110446 255 139 72
-0.0374345 -0.105772 0.154987 255 139 72
-0.0332955 -0.0742049 -0.0163681 255 139 72
-0.037064 -0.286037 -0.0243295 255 139 72
-0.0400616 -0.326738 -0.159149 255 139 72
-0.042195 -0.0805783 0.162885 255 139 72
-0.0431447 -0.456443 -0.00897461 255 139 72
-0.0421288 -0.136325 -0.209224 255 139 72
-0.0322683 -0.120276 0.0534799 255 139 72
-0.0390229 -0.366608 -0.0589801 255 139 72
-0.0399021 -0.360453 -0.115658 255 139 72
-0.0366492 -0.330729 0.00106995 255 139 72
-0.0400763 -0.419198 0.148025 255 139 72
-0.0369369 -0.0984703 0.153077 255 139 72
-0.0380469 -0.324376 -0.0640498 255 139 72
-0.0397401 -0.271599 0.120011 255 139 72
-0.0399052 -0.350182 -0.166719 255 139 72
-0.0424878 -0.424125 0.0580714 255 139 72
-0.0445642 -0.467864 -0.0780484 255 139 72
-0.0402852 -0.385433 -0.205357 255 139 72
-0.0440293 -0.454589 -0.114339 255 139 72
-0.0408555 -0.45489 0.151334 255 139 72
-0.0348018 -0.0732104 0.145132 255 139 72
-0.031586 -0.135365 0.0129596 255 139 72
-0.0361912 -0.244686 0.0465915 255 139 72
-0.0373732 -0.31723 0.0962136 255 139 72
-0.0383369 -0.139487 -0.046588 255 139 72
-0.0930589 -0.463688 0.159367 255 139 72
-0.0401644 -0.36846 0.144535 255 139 72
-0.161561 -0.430021 0.157628 255 139 72
-0.0378315 -0.175631 -0.29112 255 139 72
-0.0404787 -0.319878 -0.143883 255 139 72
-0.0340073 -0.175784 0.00776193 255 139 72
-0.0400083 -0.383375 -0.163915 255 139 72
-0.0371697 -0.285581 -0.285596 255 139 72
-0.0410403 -0.411625 -0.274808 255 139 72
-0.0385991 -0.344206 0.106507 255 139 72
-0.0400552 -0.282633 -0.195061 255 139 72
-0.0302383 -0.110461 0.0160695 255 139 72
-0.042895 -0.160894 0.161487 255 139 72
-0.0400638 -0.0625578 -0.07333 255 139 72
-0.0378025 -0.207769 0.103684 255 139 72
-0.0440709 -0.204026 0.162857 255 139 72
-0.0394017 -0.373636 0.0335046 255 139 72
-0.040784 -0.184665 -0.193911 255 139 72
-0.0409153 -0.18224 0.156823 255 139 72
-0.0357108 -0.147995 -0.0242531 255 139 72
