ply
format ascii 1.0
comment Created by Open3D
element vertex 1186
property double x
property double y
property double z
property uchar red
property uchar green
property uchar blue
end_header
-0.199842 -0.485417 0.148212 255 178 96
-0.244118 -0.429395 0.165916 255 178 96
-0.289427 -0.349291 0.174295 255 178 96
-0.219167 -0.144747 0.166721 255 178 96
-0.118931 -0.103594 0.172433 255 178 96
-0.243398 -0.479913 0.170935 255 178 96
-0.160928 -0.45443 0.169768 255 178 96
-0.185461 -0.238855 0.170636 255 178 96
-0.304741 -0.483996 0.177278 255 178 96
-0.27959 -0.287686 0.172657 255 178 96
-0.250446 -0.25231 0.16976 255 178 96
-0.150541 -0.472231 0.0253668 255 178 96
-0.25782 -0.340583 0.16993 255 178 96
-0.236987 -0.276989 0.170017 255 178 96
-0.23541 -0.485325 0.157003 255 178 96
-0.244979 -0.48572 0.102937 255 178 96
-0.153181 -0.342586 0.171545 255 178 96
-0.321773 -0.461741 0.178917 255 178 96
-0.224003 -0.485541 0.125337 255 178 96
-0.190534 -0.252895 0.170663 255 178 96
-0.335968 -0.398751 0.165555 255 178 96
-0.147508 -0.463134 -0.149915 255 178 96
-0.279385 -0.409671 0.172512 255 178 96
-0.130047 -0.4703 0.0634986 255 178 96
-0.311437 -0.355735 0.173645 255 178 96
-0.256526 -0.465363 0.172726 255 178 96
-0.304389 -0.434193 0.175901 255 178 96
-0.321993 -0.423097 0.174123 255 178 96
-0.284523 -0.485104 0.170928 255 178 96
-0.242167 -0.160082 0.169482 255 178 96
-0.250706 -0.350559 0.169101 255 178 96
-0.252653 -0.197264 0.16933 255 178 96
-0.276876 -0.394787 0.17215 255 178 96
-0.222148 -0.461344 0.169538 255 178 96
-0.288117 -0.478278 0.181308 255 178 96
-0.241528 -0.285568 0.169824 255 178 96
-0.289691 -0.203052 0.174162 255 178 96
-0.23493 -0.475956 -0.0801124 255 178 96
-0.268416 -0.484307 0.172265 255 178 96
-0.271727 -0.275037 0.171782 255 178 96
-0.336071 -0.42374 0.166687 255 178 96
-0.239593 -0.112123 0.168469 255 178 96
-0.339186 -0.425892 0.163583 255 178 96
-0.331359 -0.472342 0.171308 255 178 96
-0.208304 -0.190038 0.168425 255 178 96
-0.291547 -0.244931 0.173739 255 178 96
-0.142528 -0.31083 0.173644 255 178 96
-0.247352 -0.477721 0.173365 255 178 96
-0.234736 -0.391184 0.165401 255 178 96
-0.193971 -0.484196 -0.0559752 255 178 96
-0.14515 -0.46032 -0.188857 255 178 96
-0.124591 -0.363016 0.17296 255 178 96
-0.260078 -0.348524 0.169835 255 178 96
-0.213912 -0.130846 0.165989 255 178 96
-0.193201 -0.32407 0.170103 255 178 96
-0.324023 -0.324408 0.168983 255 178 96
-0.30229 -0.226026 0.17232 255 178 96
-0.302045 -0.274984 0.173372 255 178 96
-0.235637 -0.485567 0.143273 255 178 96
-0.224138 -0.481488 0.013278 255 178 96
-0.244584 -0.485802 0.0460307 255 178 96
-0.179208 -0.326424 0.169743 255 178 96
-0.244049 -0.135605 0.169421 255 178 96
-0.20726 -0.146991 0.166733 255 178 96
-0.156095 -0.31616 0.172236 255 178 96
-0.306358 -0.381429 0.1754 255 178 96
-0.352256 -0.48539 0.0687844 255 178 96
-0.171874 -0.321128 0.170278 255 178 96
-0.340812 -0.485513 0.163167 255 178 96
-0.270265 -0.482846 0.17572 255 178 96
-0.161135 -0.459075 0.170184 255 178 96
-0.227675 -0.297158 0.170492 255 178 96
-0.143482 -0.409836 0.170406 255 178 96
-0.300987 -0.485508 0.154895 255 178 96
-0.276429 -0.485606 0.122526 255 178 96
-0.207331 -0.0961203 0.166534 255 178 96
-0.294313 -0.213026 0.173669 255 178 96
-0.249579 -0.455896 0.169081 255 178 96
-0.181096 -0.207846 0.170932 255 178 96
-0.149412 -0.261834 0.173572 255 178 96
-0.152041 -0.47302 0.170924 255 178 96
-0.178781 -0.213297 0.171205 255 178 96
-0.216036 -0.218622 0.171849 255 178 96
-0.147754 -0.483671 0.15714 255 178 96
-0.110332 -0.465489 0.0402869 255 178 96
-0.309565 -0.469013 0.181541 255 178 96
-0.268972 -0.458446 0.172556 255 178 96
-0.208847 -0.458667 0.168217 255 178 96
-0.326365 -0.48565 0.0845897 255 178 96
-0.24449 -0.485723 0.0134212 255 178 96
-0.0875246 -0.448673 0.176006 255 178 96
-0.173628 -0.483059 0.0238724 255 178 96
-0.183381 -0.314131 0.170621 255 178 96
-0.156221 -0.132054 0.173209 255 178 96
-0.150697 -0.280482 0.173667 255 178 96
-0.200003 -0.17496 0.168368 255 178 96
-0.309681 -0.246891 0.17119 255 178 96
-0.34326 -0.485495 0.0785102 255 178 96
-0.247078 -0.138054 0.169915 255 178 96
-0.281236 -0.208487 0.173365 255 178 96
-0.243176 -0.450636 0.167534 255 178 96
-0.269547 -0.451048 0.171646 255 178 96
-0.225499 -0.221201 0.170591 255 178 96
-0.290133 -0.414113 0.174602 255 178 96
-0.167049 -0.473932 0.129866 255 178 96
-0.267095 -0.480867 0.177588 255 178 96
-0.294387 -0.485567 0.141438 255 178 96
-0.300796 -0.485759 0.0146822 255 178 96
-0.330241 -0.427764 0.171708 255 178 96
-0.137508 -0.440744 -0.0472128 255 178 96
-0.229039 -0.117294 0.165434 255 178 96
-0.2208 -0.454757 0.167275 255 178 96
-0.267479 -0.246555 0.170562 255 178 96
-0.188379 -0.159585 0.170115 255 178 96
-0.282828 -0.48555 0.15053 255 178 96
-0.266853 -0.334061 0.170687 255 178 96
-0.298009 -0.258383 0.173373 255 178 96
-0.171498 -0.484918 0.0682957 255 178 96
-0.25681 -0.129831 0.170153 255 178 96
-0.13598 -0.182838 0.174772 255 178 96
-0.259622 -0.483583 0.172233 255 178 96
-0.0874646 -0.456102 -0.0204512 255 178 96
-0.205049 -0.205329 0.169016 255 178 96
-0.251282 -0.481052 0.172507 255 178 96
-0.309631 -0.247591 0.171216 255 178 96
-0.295489 -0.385204 0.17562 255 178 96
-0.159026 -0.384687 0.168621 255 178 96
-0.303467 -0.339784 0.175 255 178 96
-0.314307 -0.485525 0.153754 255 178 96
-0.192452 -0.30762 0.171315 255 178 96
-0.276861 -0.4663 0.175389 255 178 96
-0.259851 -0.452588 0.170107 255 178 96
-0.307146 -0.294461 0.173101 255 178 96
-0.304942 -0.485556 0.136732 255 178 96
-0.214422 -0.347334 0.167902 255 178 96
-0.179976 -0.0950458 0.170779 255 178 96
-0.232669 -0.110463 0.165955 255 178 96
-0.229316 -0.102014 0.16445 255 178 96
-0.210036 -0.0838763 0.165918 255 178 96
-0.245922 -0.475779 -0.119029 255 178 96
-0.325662 -0.484034 0.175598 255 178 96
-0.287401 -0.485817 0.0799113 255 178 96
-0.246649 -0.453844 0.168418 255 178 96
-0.235033 -0.485646 0.0433243 255 178 96
-0.257217 -0.402002 0.168169 255 178 96
-0.23023 -0.48556 0.0772016 255 178 96
-0.273586 -0.303367 0.171931 255 178 96
-0.226028 -0.298958 0.170556 255 178 96
-0.265754 -0.222987 0.170566 255 178 96
-0.266011 -0.131624 0.170364 255 178 96
-0.295657 -0.312448 0.174381 255 178 96
-0.268966 -0.275209 0.17142 255 178 96
-0.0275732 -0.321045 0.0232206 255 139 72
-0.0306531 -0.166073 0.108178 255 139 72
-0.157499 -0.265686 0.159985 255 139 72
-0.0282607 -0.153726 0.128247 255 139 72
-0.102271 -0.32662 0.159081 255 139 72
-0.0303411 -0.283323 0.0934659 255 139 72
-0.0337684 -0.408219 -0.21946 255 139 72
-0.0244238 -0.337483 -0.00822156 255 139 72
-0.111453 -0.0446838 0.160395 255 139 72
-0.0318521 -0.098289 -0.051327 255 139 72
-0.0308961 -0.0296446 0.0961416 255 139 72
-0.031648 -0.158261 -0.00377886 255 139 72
-0.129719 -0.156898 0.158771 255 139 72
-0.132473 -0.393625 0.156262 255 139 72
-0.0260102 -0.28321 -0.0596937 255 139 72
-0.0550945 -0.127796 0.16071 255 139 72
-0.0290112 -0.185458 -0.0890913 255 139 72
-0.0969689 -0.345913 0.158667 255 139 72
-0.0568133 -0.220866 0.162682 255 139 72
-0.110935 -0.058011 0.16217 255 139 72
-0.141418 -0.0632979 0.16114 255 139 72
-0.0198739 -0.388427 0.114507 255 139 72
-0.0326251 -0.0522268 0.0810324 255 139 72
-0.0272235 -0.154946 0.133947 255 139 72
-0.0261118 -0.0413258 0.154023 255 139 72
-0.0928026 -0.445343 0.155402 255 139 72
-0.0223071 -0.432264 -0.0697402 255 139 72
-0.0219959 -0.368812 0.114078 255 139 72
-0.0579596 -0.109049 0.160882 255 139 72
-0.0287038 -0.213776 -0.0973314 255 139 72
-0.0299871 -0.139826 -0.238989 255 139 72
-0.0290978 -0.188894 -0.0684216 255 139 72
-0.0279738 -0.187476 -0.117617 255 139 72
-0.0333333 -0.107584 0.0433558 255 139 72
-0.0735785 -0.250464 0.161733 255 139 72
-0.0284355 -0.288636 0.116769 255 139 72
-0.0296415 -0.178888 0.118578 255 139 72
-0.0284596 -0.21737 -0.0826861 255 139 72
-0.0230136 -0.345759 0.156665 255 139 72
-0.0266544 -0.298406 0.152986 255 139 72
-0.0304754 -0.285624 0.0864305 255 139 72
-0.0261227 -0.324625 -0.0772015 255 139 72
-0.0337121 -0.0648613 -0.0223834 255 139 72
-0.0298602 -0.22944 -0.212452 255 139 72
-0.0278227 -0.317362 -0.1102 255 139 72
-0.0337694 -0.057422 -0.0861211 255 139 72
-0.0324381 -0.0880813 -0.127268 255 139 72
-0.0549861 -0.141021 0.161392 255 139 72
-0.0287656 -0.345717 -0.124555 255 139 72
-0.0288833 -0.223086 0.132174 255 139 72
-0.0284673 -0.432568 -0.124057 255 139 72
-0.0186528 -0.402082 0.11282 255 139 72
-0.0282222 -0.290811 -0.108337 255 139 72
-0.0150448 -0.43975 0.13019 255 139 72
-0.0309424 -0.267299 -0.19457 255 139 72
-0.0325274 -0.081177 -0.0619129 255 139 72
-0.0193665 -0.373756 0.140135 255 139 72
-0.0331431 -0.116974 0.0336102 255 139 72
-0.029756 -0.210972 -0.169581 255 139 72
-0.0299736 -0.167693 -0.241514 255 139 72
-0.0287536 -0.20816 -0.0859196 255 139 72
-0.03356 -0.0571353 -0.0574355 255 139 72
-0.0319305 -0.25426 0.0177812 255 139 72
-0.0288161 -0.297555 0.103994 255 139 72
-0.0218826 -0.423863 -0.0287618 255 139 72
-0.030523 -0.169592 0.110143 255 139 72
-0.0280984 -0.134999 0.132788 255 139 72
-0.176915 -0.104636 0.1565 255 139 72
-0.0863342 -0.0689911 0.160642 255 139 72
-0.0370971 -0.070074 0.158377 255 139 72
-0.0282016 -0.289682 0.00358553 255 139 72
-0.033517 -0.0690248 -0.027061 255 139 72
-0.0335872 -0.157146 0.0496829 255 139 72
-0.0274158 -0.281496 0.148567 255 139 72
-0.0291433 -0.187952 -0.185348 255 139 72
-0.0318604 -0.0947301 -0.139526 255 139 72
-0.032133 -0.326403 -0.189914 255 139 72
-0.0454054 -0.338472 0.159898 255 139 72
-0.0320046 -0.28096 -0.229996 255 139 72
-0.0310223 -0.103026 -0.129716 255 139 72
-0.0295986 -0.119327 -0.218478 255 139 72
-0.0309641 -0.249625 0.0995556 255 139 72
-0.0411968 -0.225637 0.161128 255 139 72
-0.144705 -0.221264 0.160102 255 139 72
-0.0465326 -0.439301 0.155634 255 139 72
-0.0327746 -0.113272 -0.0193581 255 139 72
-0.0307422 -0.118528 0.110603 255 139 72
-0.0340428 -0.0717564 -0.148331 255 139 72
-0.0321651 -0.0888629 -0.168632 255 139 72
-0.02913 -0.0314491 0.135769 255 139 72
-0.0320094 -0.0969921 -0.0797041 255 139 72
-0.053286 -0.25445 0.161624 255 139 72
-0.0278452 -0.261922 -0.0884642 255 139 72
-0.177002 -0.110275 0.156356 255 139 72
-0.0670411 -0.292268 0.161505 255 139 72
-0.031394 -0.0992623 -0.122884 255 139 72
-0.0333548 -0.130688 0.0371471 255 139 72
-0.0295505 -0.168092 -0.212593 255 139 72
-0.0381179 -0.308236 0.160414 255 139 72
-0.0243168 -0.335931 0.12096 255 139 72
-0.0331203 -0.42317 -0.228625 255 139 72
-0.0881625 -0.0649137 0.160874 255 139 72
-0.030019 -0.251758 -0.00312693 255 139 72
-0.0152464 -0.442757 0.101933 255 139 72
-0.0336764 -0.0672921 0.0574523 255 139 72
-0.0298219 -0.135217 0.114768 255 139 72
-0.147897 -0.239804 0.160439 255 139 72
-0.0306485 -0.0303028 0.107156 255 139 72
-0.0278628 -0.32122 0.0889377 255 139 72
-0.033474 -0.0710064 -0.100094 255 139 72
-0.0281203 -0.174299 -0.11105 255 139 72
-0.0172783 -0.428159 0.0953527 255 139 72
-0.0327514 -0.0792551 -0.039416 255 139 72
-0.028449 -0.25617 -0.0962138 255 139 72
-0.0315939 -0.0887744 -0.195129 255 139 72
-0.0334813 -0.0729681 -0.110685 255 139 72
-0.0338173 -0.0743727 -0.138573 255 139 72
-0.0281127 -0.186467 -0.112636 255 139 72
-0.104131 -0.408482 0.155863 255 139 72
-0.0180936 -0.426407 0.0885865 255 139 72
-0.022192 -0.387804 0.0869833 255 139 72
-0.0341915 -0.0396887 0.00732141 255 139 72
-0.183807 -0.378997 0.156815 255 139 72
-0.0295464 -0.192925 -0.0403143 255 139 72
-0.0297534 -0.230416 0.121329 255 139 72
-0.0339856 -0.190723 0.0640737 255 139 72
-0.033457 -0.139929 0.0477403 255 139 72
-0.0302166 -0.0363168 0.109742 255 139 72
-0.0271814 -0.252847 -0.0667147 255 139 72
-0.0209281 -0.448293 0.0465063 255 139 72
-0.0242676 -0.344689 -0.0291673 255 139 72
-0.027798 -0.260144 -0.0204198 255 139 72
-0.0177903 -0.413286 0.119728 255 139 72
-0.026429 -0.4086 -0.0993626 255 139 72
-0.0323241 -0.450074 -0.214883 255 139 72
-0.0309391 -0.23258 -0.249529 255 139 72
-0.0304746 -0.126327 -0.244437 255 139 72
-0.028826 -0.137815 0.124131 255 139 72
-0.0241167 -0.371438 0.0875374 255 139 72
-0.034117 -0.198555 0.076409 255 139 72
-0.0290015 -0.173863 -0.183323 255 139 72
-0.0276416 -0.0683977 0.132017 255 139 72
-0.0318708 -0.151697 -0.0077753 255 139 72
-0.031198 -0.116793 -0.0625343 255 139 72
-0.0310707 -0.336335 0.158808 255 139 72
-0.0287279 -0.188225 -0.167881 255 139 72
-0.134065 -0.331143 0.157998 255 139 72
-0.0257874 -0.316133 0.125476 255 139 72
-0.0266326 -0.159393 0.158402 255 139 72
-0.0597789 -0.218237 0.163006 255 139 72
-0.209581 -0.258571 0.157176 255 139 72
-0.0332738 -0.393208 -0.19298 255 139 72
-0.028495 -0.239459 -0.032628 255 139 72
-0.0331138 -0.0558328 0.0657907 255 139 72
-0.0344327 -0.123864 0.0646193 255 139 72
-0.0247034 -0.319915 0.148224 255 139 72
-0.0305463 -0.167376 -0.0312191 255 139 72
-0.0296124 -0.158258 0.116278 255 139 72
-0.0298598 -0.153297 -0.0648277 255 139 72
-0.0307533 -0.381848 -0.15372 255 139 72
-0.0338305 -0.0716095 0.0358128 255 139 72
-0.0288445 -0.177819 -0.175386 255 139 72
-0.0269192 -0.262186 0.151401 255 139 72
-0.116846 -0.0821024 0.159173 255 139 72
-0.0311309 -0.213733 0.108911 255 139 72
-0.0283659 -0.436829 -0.125773 255 139 72
-0.20637 -0.222077 0.157134 255 139 72
-0.024037 -0.386094 -0.0156901 255 139 72
-0.0267347 -0.127205 0.14112 255 139 72
-0.0176229 -0.414946 0.118415 255 139 72
-0.0302934 -0.285397 0.0373215 255 139 72
-0.0345617 -0.161336 0.0690685 255 139 72
-0.0266168 -0.10213 0.155167 255 139 72
-0.0273658 -0.363812 -0.100855 255 139 72
-0.0877495 -0.25124 0.161562 255 139 72
-0.0283982 -0.230692 -0.0895921 255 139 72
-0.0217061 -0.430401 0.0216027 255 139 72
-0.0151372 -0.438291 0.1407 255 139 72
-0.0319632 -0.0977668 -0.0467402 255 139 72
-0.0402489 -0.435105 0.155951 255 139 72
-0.0280394 -0.326984 0.157977 255 139 72
-0.101916 -0.0699816 0.160232 255 139 72
-0.0329541 -0.144793 0.0925588 255 139 72
-0.0336563 -0.132549 0.0876382 255 139 72
-0.0301865 -0.443402 -0.169987 255 139 72
-0.0306255 -0.254173 -0.155615 255 139 72
-0.0288867 -0.144141 -0.103677 255 139 72
-0.0291619 -0.195734 -0.055014 255 139 72
-0.0267088 -0.10478 0.138158 255 139 72
-0.0323537 -0.0462106 0.0781664 255 139 72
-0.0345866 -0.12556 0.0723389 255 139 72
-0.0268745 -0.248566 0.15942 255 139 72
-0.027276 -0.172151 -0.141964 255 139 72
-0.030005 -0.355897 -0.14368 255 139 72
-0.0342051 -0.0628219 0.0514392 255 139 72
-0.0224913 -0.423064 0.0645721 255 139 72
-0.063482 -0.356733 0.15906 255 139 72
-0.14436 -0.25675 0.160661 255 139 72
-0.0303364 -0.0517008 0.109525 255 139 72
-0.157316 -0.242552 0.160013 255 139 72
-0.0338686 -0.0749431 0.0394909 255 139 72
-0.0306409 -0.258476 0.00738452 255 139 72
-0.0323862 -0.108858 0.00724017 255 139 72
-0.0325482 -0.0880182 -0.139065 255 139 72
-0.0326856 -0.243689 0.0795919 255 139 72
-0.0287122 -0.31308 0.0614487 255 139 72
-0.0323521 -0.244732 0.0364178 255 139 72
-0.033984 -0.0771162 0.0478963 255 139 72
-0.151807 -0.0663212 0.155307 255 139 72
-0.0247097 -0.380132 -0.0651685 255 139 72
-0.0339658 -0.06211 -0.00488599 255 139 72
-0.0290501 -0.256586 -0.0101508 255 139 72
-0.0336732 -0.22007 0.0658948 255 139 72
-0.174094 -0.176437 0.157144 255 139 72
-0.0167172 -0.430448 0.0988026 255 139 72
-0.0283282 -0.20202 -0.132502 255 139 72
-0.0598469 -0.371415 0.158577 255 139 72
-0.0281731 -0.227747 -0.0591313 255 139 72
-0.137436 -0.305362 0.159133 255 139 72
-0.0217409 -0.438869 0.0569017 255 139 72
-0.030462 -0.180239 0.112469 255 139 72
-0.0336928 -0.128499 0.0870706 255 139 72
-0.0264398 -0.369623 0.0285929 255 139 72
-0.044143 -0.429951 0.155931 255 139 72
-0.0337572 -0.062845 -0.0262139 255 139 72
-0.0296173 -0.372808 -0.134286 255 139 72
-0.0307639 -0.436605 -0.166177 255 139 72
-0.0248789 -0.297401 -0.0374426 255 139 72
-0.0187009 -0.400799 0.125627 255 139 72
-0.0758007 -0.242294 0.161435 255 139 72
-0.0301229 -0.274437 0.0124635 255 139 72
-0.0172244 -0.413163 0.147343 255 139 72
-0.0334023 -0.14841 0.0420082 255 139 72
-0.0296596 -0.0386637 0.117901 255 139 72
-0.0330789 -0.0964674 0.0980982 255 139 72
-0.0298278 -0.151707 -0.0712623 255 139 72
-0.0307134 -0.14567 0.105758 255 139 72
-0.0321297 -0.263401 0.051866 255 139 72
-0.0223588 -0.427306 -0.0691405 255 139 72
-0.0329152 -0.0537497 0.0700234 255 139 72
-0.0243486 -0.374946 -0.0188154 255 139 72
-0.0295046 -0.203047 -0.0337137 255 139 72
-0.0271932 -0.420112 0.155755 255 139 72
-0.0322577 -0.354229 -0.18419 255 139 72
-0.0285042 -0.0530612 0.12496 255 139 72
-0.0313969 -0.0463421 0.0973687 255 139 72
-0.0268385 -0.367772 0.0316089 255 139 72
-0.0174708 -0.411631 0.138002 255 139 72
-0.0281007 -0.334232 0.0679694 255 139 72
-0.0241118 -0.159065 0.149249 255 139 72
-0.0217512 -0.422635 0.00308496 255 139 72
-0.0271222 -0.35294 0.0296025 255 139 72
-0.0297421 -0.155526 -0.0686549 255 139 72
-0.0311371 -0.160295 0.103643 255 139 72
-0.0292415 -0.132223 -0.117303 255 139 72
-0.233041 -0.101757 0.153643 255 139 72
-0.0338555 -0.347097 -0.249825 255 139 72
-0.0326401 -0.0861253 -0.110823 255 139 72
-0.0289396 -0.103277 0.124468 255 139 72
-0.0226416 -0.411733 -0.0423375 255 139 72
-0.0258984 -0.444358 -0.104573 255 139 72
-0.0321037 -0.105414 -0.0351576 255 139 72
-0.0308421 -0.206155 0.112683 255 139 72
-0.189965 -0.176959 0.156793 255 139 72
-0.0338077 -0.0897155 0.0853159 255 139 72
-0.178828 -0.0576119 0.159915 255 139 72
-0.0319122 -0.094082 -0.057335 255 139 72
-0.0281165 -0.0929618 0.128689 255 139 72
-0.0334643 -0.074745 0.078131 255 139 72
-0.171918 -0.259084 0.159227 255 139 72
-0.0630236 -0.260827 0.161866 255 139 72
-0.029505 -0.140277 -0.22268 255 139 72
-0.0253084 -0.319704 0.156059 255 139 72
-0.028432 -0.385816 -0.114517 255 139 72
-0.0314815 -0.0347181 0.0876115 255 139 72
-0.0273613 -0.376483 0.0410878 255 139 72
-0.0281846 -0.401238 -0.11398 255 139 72
-0.0293225 -0.224562 -0.113612 255 139 72
-0.0267017 -0.327525 0.0153761 255 139 72
-0.0282379 -0.261428 0.132222 255 139 72
-0.0256573 -0.376707 0.0140704 255 139 72
-0.178724 -0.18611 0.157092 255 139 72
-0.0252823 -0.31441 0.152111 255 139 72
-0.0505832 -0.243635 0.161362 255 139 72
-0.022924 -0.40725 -0.0347417 255 139 72
-0.0309527 -0.10095 -0.225011 255 139 72
-0.0294623 -0.0817223 0.121317 255 139 72
-0.0270771 -0.235629 0.159551 255 139 72
-0.130761 -0.379064 0.156758 255 139 72
-0.0324599 -0.0827377 -0.0470174 255 139 72
-0.0320754 -0.448268 -0.206725 255 139 72
-0.0269604 -0.340465 -0.0939762 255 139 72
-0.0298946 -0.230174 -0.205314 255 139 72
-0.0186874 -0.429203 0.0826578 255 139 72
-0.0322636 -0.268237 0.0651712 255 139 72
-0.0326537 -0.361962 -0.189818 255 139 72
-0.0279682 -0.131093 0.13442 255 139 72
-0.0307042 -0.0984676 -0.199941 255 139 72
-0.0321967 -0.0990663 -0.0355702 255 139 72
-0.0841531 -0.28945 0.161337 255 139 72
-0.030095 -0.131385 -0.0916063 255 139 72
-0.159181 -0.0544185 0.161766 255 139 72
-0.0329325 -0.0743579 -0.0778389 255 139 72
-0.0278772 -0.171546 0.129434 255 139 72
-0.0320385 -0.281713 -0.229977 255 139 72
-0.197191 -0.100196 0.156732 255 139 72
-0.0291968 -0.194808 -0.0534675 255 139 72
-0.0243925 -0.378549 -0.0556723 255 139 72
-0.0494026 -0.0398396 0.163026 255 139 72
-0.0204792 -0.360626 0.14939 255 139 72
-0.0241438 -0.387511 -0.0342583 255 139 72
-0.0328722 -0.0805435 -0.0327231 255 139 72
-0.0279414 -0.120164 0.134618 255 139 72
-0.0329233 -0.182752 0.0349932 255 139 72
-0.0280648 -0.338311 0.0750347 255 139 72
-0.0295098 -0.168584 -0.0808744 255 139 72
-0.0301112 -0.129596 -0.0948651 255 139 72
-0.0308862 -0.3277 -0.163126 255 139 72
-0.156706 -0.182695 0.157597 255 139 72
-0.127272 -0.113746 0.158329 255 139 72
-0.20624 -0.273834 0.157041 255 139 72
-0.12201 -0.0779592 0.159246 255 139 72
-0.0194198 -0.374738 0.135132 255 139 72
-0.0276239 -0.321956 0.0530304 255 139 72
-0.0221301 -0.419568 0.0147837 255 139 72
-0.0341113 -0.0493125 0.0497922 255 139 72
-0.034118 -0.0434031 -0.0207924 255 139 72
-0.0150727 -0.439401 0.130375 255 139 72
-0.0336651 -0.364447 0.158883 255 139 72
-0.0297242 -0.216587 -0.144911 255 139 72
-0.0331025 -0.302087 -0.23606 255 139 72
-0.0298076 -0.195068 -0.251183 255 139 72
-0.0275185 -0.348305 0.035885 255 139 72
-0.175643 -0.265217 0.158844 255 139 72
-0.0308148 -0.0304168 0.0986355 255 139 72
-0.0288671 -0.225941 -0.0323238 255 139 72
-0.0257516 -0.29218 -0.0598478 255 139 72
-0.0239171 -0.388883 -0.0165593 255 139 72
-0.176695 -0.274432 0.158544 255 139 72
-0.0232308 -0.333369 0.134659 255 139 72
-0.0165235 -0.421465 0.145238 255 139 72
-0.0331039 -0.0805599 -0.0271504 255 139 72
-0.150968 -0.418235 0.1549 255 139 72
-0.0301331 -0.231586 -0.0112046 255 139 72
-0.0340553 -0.16767 0.0854224 255 139 72
-0.0984007 -0.0996585 0.160162 255 139 72
-0.0230164 -0.424079 0.0578174 255 139 72
-0.0697747 -0.0436686 0.165293 255 139 72
-0.0320936 -0.219137 0.0253851 255 139 72
-0.0302941 -0.221791 -0.248543 255 139 72
-0.0333784 -0.0712985 0.0677538 255 139 72
-0.198233 -0.127958 0.155975 255 139 72
-0.0286962 -0.131056 -0.178604 255 139 72
-0.0330629 -0.0794695 -0.100459 255 139 72
-0.0262659 -0.106681 0.140451 255 139 72
-0.0278253 -0.182764 -0.120095 255 139 72
-0.0337053 -0.329794 -0.244548 255 139 72
-0.0282408 -0.260698 -0.0938286 255 139 72
-0.0306907 -0.240301 -0.233727 255 139 72
-0.0309397 -0.267343 -0.195264 255 139 72
-0.030761 -0.191271 0.113126 255 139 72
-0.0227288 -0.417381 -0.0694356 255 139 72
-0.0272312 -0.175309 -0.142615 255 139 72
-0.0783553 -0.210892 0.163227 255 139 72
-0.104913 -0.0734885 0.159931 255 139 72
-0.0270745 -0.259253 0.147829 255 139 72
-0.0224872 -0.415416 -0.0415996 255 139 72
-0.0280591 -0.261815 -0.0912525 255 139 72
-0.0335766 -0.176805 0.0513475 255 139 72
-0.0159881 -0.429201 0.13889 255 139 72
-0.0441455 -0.145014 0.160352 255 139 72
-0.0979136 -0.116123 0.159962 255 139 72
-0.0323219 -0.194944 0.0222356 255 139 72
-0.0275396 -0.340144 0.0531093 255 139 72
-0.0272032 -0.177917 -0.137706 255 139 72
-0.111289 -0.172667 0.160973 255 139 72
-0.0259901 -0.316063 -0.00410938 255 139 72
-0.0305303 -0.040007 0.105311 255 139 72
-0.0274414 -0.18322 -0.148057 255 139 72
-0.0334231 -0.151786 0.0425006 255 139 72
-0.0406032 -0.308009 0.160607 255 139 72
-0.0291291 -0.283866 0.111757 255 139 72
-0.0387574 -0.147891 0.159818 255 139 72
-0.0276841 -0.0777188 0.132033 255 139 72
-0.0331785 -0.128996 0.0327547 255 139 72
-0.0338305 -0.0660505 -0.104807 255 139 72
-0.0334803 -0.069797 -0.0976714 255 139 72
-0.0246756 -0.368716 -0.00650636 255 139 72
-0.0327999 -0.0993715 -0.0168119 255 139 72
-0.03275 -0.0848934 0.0119655 255 139 72
-0.0298728 -0.166697 -0.0524132 255 139 72
-0.0636757 -0.0908883 0.161226 255 139 72
-0.183256 -0.208407 0.157586 255 139 72
-0.0332841 -0.109648 0.0919845 255 139 72
-0.0184746 -0.422694 0.155002 255 139 72
-0.0266455 -0.114359 0.139937 255 139 72
-0.0288796 -0.15442 -0.189896 255 139 72
-0.17842 -0.273226 0.158484 255 139 72
-0.033707 -0.0558613 -0.081276 255 139 72
-0.0340164 -0.0984758 0.0701937 255 139 72
-0.0246386 -0.413659 -0.0864086 255 139 72
-0.0257048 -0.389686 -0.0835356 255 139 72
-0.0278336 -0.235472 -0.0642475 255 139 72
-0.0299882 -0.234451 -0.211726 255 139 72
-0.109279 -0.335872 0.158534 255 139 72
-0.0309521 -0.0703436 0.111336 255 139 72
-0.0256919 -0.354422 -0.0724282 255 139 72
-0.024915 -0.39027 0.0612826 255 139 72
-0.096941 -0.042572 0.166938 255 139 72
-0.0271812 -0.120537 0.156159 255 139 72
-0.0301299 -0.37267 -0.143726 255 139 72
-0.030204 -0.217787 -0.250619 255 139 72
-0.0289829 -0.131577 -0.141031 255 139 72
-0.033049 -0.374237 -0.195589 255 139 72
-0.0224243 -0.41072 -0.00428126 255 139 72
-0.0176248 -0.414 0.153804 255 139 72
-0.113636 -0.0745138 0.159706 255 139 72
-0.0320176 -0.138184 -0.0200284 255 139 72
-0.0228266 -0.406459 -0.014502 255 139 72
-0.0309434 -0.212566 0.111465 255 139 72
-0.0290177 -0.200275 -0.0866052 255 139 72
-0.0314387 -0.154488 -0.015474 255 139 72
-0.0239665 -0.420445 0.0413275 255 139 72
-0.0285481 -0.206368 -0.124165 255 139 72
-0.0287813 -0.255468 -0.0146572 255 139 72
-0.0441015 -0.391263 0.157919 255 139 72
-0.169101 -0.0927577 0.157205 255 139 72
-0.104231 -0.0935149 0.159871 255 139 72
-0.0299521 -0.13454 -0.0910735 255 139 72
-0.0302296 -0.226083 -0.184793 255 139 72
-0.0299956 -0.235055 -0.12279 255 139 72
-0.0257903 -0.325883 -0.0694964 255 139 72
-0.0255764 -0.223635 0.150018 255 139 72
-0.0271504 -0.358593 0.0552012 255 139 72
-0.0244591 -0.366792 0.0892166 255 139 72
-0.0335513 -0.216486 0.0568081 255 139 72
-0.0340314 -0.0976802 0.0734905 255 139 72
-0.0333671 -0.211143 0.0840442 255 139 72
-0.0285544 -0.321604 0.0693273 255 139 72
-0.0330905 -0.181284 0.043172 255 139 72
-0.0606318 -0.0934888 0.161336 255 139 72
-0.0217475 -0.350333 0.137743 255 139 72
-0.13471 -0.311428 0.158782 255 139 72
-0.0185054 -0.392901 0.152265 255 139 72
-0.033745 -0.0638737 0.0294776 255 139 72
-0.017711 -0.409133 0.136293 255 139 72
-0.0321578 -0.0585011 0.0949164 255 139 72
-0.0539522 -0.0317327 0.165005 255 139 72
-0.199173 -0.249981 0.157868 255 139 72
-0.0308933 -0.239984 0.104801 255 139 72
-0.0943502 -0.0831969 0.160322 255 139 72
-0.0320513 -0.20374 0.0978868 255 139 72
-0.0332496 -0.187495 0.0898147 255 139 72
-0.0293138 -0.162515 -0.206259 255 139 72
-0.0320552 -0.26875 0.0547198 255 139 72
-0.045618 -0.231119 0.161386 255 139 72
-0.147443 -0.443781 0.155683 255 139 72
-0.0539507 -0.354619 0.159253 255 139 72
-0.0331437 -0.0468127 0.0654752 255 139 72
-0.0292652 -0.226241 0.128038 255 139 72
-0.033556 -0.0567305 0.0103459 255 139 72
-0.0923984 -0.404503 0.156305 255 139 72
-0.0283456 -0.22931 -0.0859267 255 139 72
-0.0314095 -0.0985415 -0.150975 255 139 72
-0.0290602 -0.193343 -0.0756545 255 139 72
-0.03402 -0.0526576 -0.0182533 255 139 72
-0.0316774 -0.353394 -0.171816 255 139 72
-0.0326785 -0.121683 -0.0017268 255 139 72
-0.0340786 -0.173123 0.0590268 255 139 72
-0.177381 -0.281411 0.158308 255 139 72
-0.0311424 -0.269322 -0.211327 255 139 72
-0.0333696 -0.113274 0.0403247 255 139 72
-0.0302417 -0.126505 -0.239594 255 139 72
-0.0333121 -0.0921602 0.0962816 255 139 72
-0.0321449 -0.362654 -0.177349 255 139 72
-0.0309985 -0.17221 -0.0204788 255 139 72
-0.0305444 -0.247525 -0.22671 255 139 72
-0.0238679 -0.158379 0.152953 255 139 72
-0.0344199 -0.125311 0.0642092 255 139 72
-0.0524811 -0.0816714 0.160293 255 139 72
-0.169725 -0.281538 0.15873 255 139 72
-0.034239 -0.137749 0.0579446 255 139 72
-0.033522 -0.157184 0.0482937 255 139 72
-0.0255529 -0.286453 -0.0401037 255 139 72
-0.0171213 -0.419069 0.122563 255 139 72
-0.0221867 -0.434391 0.0320931 255 139 72
-0.0743824 -0.210055 0.163338 255 139 72
-0.0332541 -0.065595 0.0833048 255 139 72
-0.0291371 -0.0685302 0.123133 255 139 72
-0.0309044 -0.385739 -0.156297 255 139 72
-0.0335218 -0.0769267 0.0906499 255 139 72
-0.084051 -0.0588603 0.161577 255 139 72
-0.0212799 -0.430956 -0.00207934 255 139 72
-0.0273283 -0.250089 -0.0725567 255 139 72
-0.0316248 -0.0854497 0.109336 255 139 72
-0.0985822 -0.396343 0.156557 255 139 72
-0.0236066 -0.419883 0.0539608 255 139 72
-0.149653 -0.253601 0.160417 255 139 72
-0.0340307 -0.195377 0.0740965 255 139 72
-0.0629324 -0.154124 0.162826 255 139 72
-0.112146 -0.0949627 0.159461 255 139 72
-0.0688968 -0.0473207 0.16379 255 139 72
-0.0308106 -0.104216 -0.150748 255 139 72
-0.0166321 -0.423139 0.151732 255 139 72
-0.206896 -0.16874 0.156228 255 139 72
-0.0690655 -0.413817 0.156288 255 139 72
-0.0274024 -0.270824 -0.017325 255 139 72
-0.0379033 -0.176729 0.160357 255 139 72
-0.0301702 -0.193094 0.117557 255 139 72
-0.0340484 -0.0627666 -0.112382 255 139 72
-0.0950179 -0.348881 0.158599 255 139 72
-0.0310554 -0.241714 0.00454943 255 139 72
-0.0729876 -0.061888 0.0877075 255 95 48
-0.228857 -0.189425 0.162398 255 95 48
-0.282094 -0.217252 0.183793 255 95 48
-0.1589 -0.174808 0.17545 255 95 48
-0.250314 -0.12907 0.165302 255 95 48
-0.316323 -0.284683 0.189906 255 95 48
-0.316697 -0.11787 0.187637 255 95 48
-0.169446 -0.45257 0.101855 255 95 48
-0.0791692 -0.0599068 0.175826 255 95 48
-0.0869929 -0.217267 0.164432 255 95 48
-0.105304 -0.312819 0.162911 255 95 48
-0.156328 -0.0469907 0.175471 255 95 48
-0.265134 -0.169361 0.180408 255 95 48
-0.128806 -0.286096 0.166601 255 95 48
-0.107071 -0.0407533 0.171832 255 95 48
-0.292691 -0.111352 0.187744 255 95 48
-0.142951 -0.420719 0.156721 255 95 48
-0.302704 -0.143519 0.161091 255 95 48
-0.20975 -0.233407 0.170765 255 95 48
-0.322495 -0.214976 0.192916 255 95 48
-0.295537 -0.188883 0.18772 255 95 48
-0.310285 -0.114616 0.189375 255 95 48
-0.174839 -0.152564 0.168291 255 95 48
-0.198447 -0.195457 0.165079 255 95 48
-0.133396 -0.18554 0.174859 255 95 48
-0.230416 -0.437907 0.168877 255 95 48
-0.253908 -0.0538362 0.179331 255 95 48
-0.178223 -0.34927 0.164821 255 95 48
-0.0980365 -0.235371 0.167194 255 95 48
-0.159454 -0.331753 0.164512 255 95 48
-0.215496 -0.180023 0.172019 255 95 48
-0.152792 -0.208821 0.17014 255 95 48
-0.225538 -0.272409 0.170038 255 95 48
-0.213062 -0.263706 0.169003 255 95 48
-0.30073 -0.308494 0.185652 255 95 48
-0.0609586 -0.0437314 0.0986431 255 95 48
-0.328345 -0.381176 0.186743 255 95 48
-0.0891298 -0.199896 0.126174 255 95 48
-0.334627 -0.266647 0.191644 255 95 48
-0.095436 -0.0328413 0.179899 255 95 48
-0.130481 -0.181323 0.174959 255 95 48
-0.217629 -0.330637 0.168355 255 95 48
-0.211685 -0.331961 0.167993 255 95 48
-0.315395 -0.233767 0.191123 255 95 48
-0.242231 -0.211116 0.159601 255 95 48
-0.219115 -0.0670369 0.177557 255 95 48
-0.280072 -0.402611 0.176449 255 95 48
-0.0980176 -0.176393 0.173069 255 95 48
-0.217608 -0.257801 0.153352 255 95 48
-0.321688 -0.313432 0.189961 255 95 48
-0.338414 -0.134555 0.18138 255 95 48
-0.199606 -0.311273 0.146984 255 95 48
-0.337137 -0.199934 0.187323 255 95 48
-0.328444 -0.149693 0.187367 255 95 48
-0.161173 -0.132341 0.174783 255 95 48
-0.267211 -0.0870255 0.18246 255 95 48
-0.0731114 -0.0409512 0.10627 255 95 48
-0.0990964 -0.254917 0.166195 255 95 48
-0.264356 -0.285604 0.178393 255 95 48
-0.0761836 -0.186031 0.162041 255 95 48
-0.25575 -0.398529 0.173138 255 95 48
-0.200548 -0.359125 0.165676 255 95 48
-0.19775 -0.238764 0.159333 255 95 48
-0.342418 -0.327447 0.187752 255 95 48
-0.179519 -0.0491514 0.174471 255 95 48
-0.173052 -0.1464 0.174013 255 95 48
-0.307318 -0.445916 0.183161 255 95 48
-0.172016 -0.337859 0.16506 255 95 48
-0.160194 -0.342041 0.163943 255 95 48
-0.176342 -0.219634 0.165348 255 95 48
-0.0641389 -0.0854211 0.0570597 255 95 48
-0.287871 -0.200904 0.185258 255 95 48
-0.336697 -0.271751 0.190905 255 95 48
-0.166502 -0.164546 0.175007 255 95 48
-0.256174 -0.104183 0.180936 255 95 48
-0.224168 -0.18905 0.172751 255 95 48
-0.0812765 -0.111361 0.173414 255 95 48
-0.124285 -0.0957592 0.168326 255 95 48
-0.150801 -0.146985 0.170338 255 95 48
-0.232022 -0.284351 0.171035 255 95 48
-0.295788 -0.434289 0.180771 255 95 48
-0.241916 -0.404485 0.170996 255 95 48
-0.195189 -0.260692 0.169457 255 95 48
-0.325803 -0.268747 0.191643 255 95 48
-0.197601 -0.219096 0.171948 255 95 48
-0.0832599 -0.201349 0.163757 255 95 48
-0.2515 -0.394224 0.172511 255 95 48
-0.329236 -0.356751 0.188555 255 95 48
-0.252977 -0.403884 0.172733 255 95 48
-0.175699 -0.345873 0.164836 255 95 48
-0.118515 -0.0459284 0.179035 255 95 48
-0.166099 -0.345491 0.164183 255 95 48
-0.34245 -0.196371 0.183359 255 95 48
-0.148287 -0.219599 0.174452 255 95 48
-0.217698 -0.219588 0.171452 255 95 48
-0.152027 -0.393756 0.15978 255 95 48
-0.118948 -0.199437 0.173538 255 95 48
-0.204003 -0.159301 0.17241 255 95 48
-0.267109 -0.258894 0.180156 255 95 48
-0.181741 -0.419606 0.129723 255 95 48
-0.149302 -0.0533812 0.174009 255 95 48
-0.306077 -0.427258 0.183624 255 95 48
-0.250814 -0.113393 0.179554 255 95 48
-0.320464 -0.427495 0.184457 255 95 48
-0.110886 -0.286478 0.165218 255 95 48
-0.280042 -0.061334 0.178167 255 95 48
-0.213243 -0.231563 0.171036 255 95 48
-0.219995 -0.311885 0.168866 255 95 48
-0.264309 -0.350845 0.175344 255 95 48
-0.0559141 -0.0478276 0.0436485 255 95 48
-0.156266 -0.384149 0.160781 255 95 48
-0.268418 -0.245798 0.180705 255 95 48
-0.120544 -0.159124 0.175457 255 95 48
-0.328451 -0.39528 0.185791 255 95 48
-0.114648 -0.336115 0.161879 255 95 48
-0.130475 -0.296303 0.165449 255 95 48
-0.29914 -0.371254 0.182018 255 95 48
-0.173857 -0.35913 0.164078 255 95 48
-0.303324 -0.0884052 0.185189 255 95 48
-0.195614 -0.0657622 0.169429 255 95 48
-0.297668 -0.37041 0.181707 255 95 48
-0.273263 -0.203746 0.159238 255 95 48
-0.337318 -0.317533 0.190085 255 95 48
-0.13485 -0.202284 0.174138 255 95 48
-0.171698 -0.0852876 0.175619 255 95 48
-0.164822 -0.124245 0.168747 255 95 48
-0.308646 -0.0914984 0.168797 255 95 48
-0.283073 -0.0773618 0.172522 255 95 48
-0.214204 -0.25319 0.169666 255 95 48
-0.222589 -0.291431 0.169437 255 95 48
-0.0971238 -0.0802379 0.177467 255 95 48
-0.239453 -0.214289 0.174657 255 95 48
-0.238486 -0.381087 0.131824 255 95 48
-0.273254 -0.292155 0.180341 255 95 48
-0.162147 -0.264748 0.17033 255 95 48
-0.142187 -0.171785 0.175461 255 95 48
-0.302727 -0.359551 0.183587 255 95 48
-0.343556 -0.18486 0.182734 255 95 48
-0.26792 -0.0936436 0.182774 255 95 48
-0.104481 -0.0718658 0.177535 255 95 48
-0.289842 -0.0983765 0.186635 255 95 48
-0.159737 -0.0952279 0.16973 255 95 48
-0.0692991 -0.0385024 0.126201 255 95 48
-0.328488 -0.210982 0.193134 255 95 48
-0.139915 -0.254268 0.170898 255 95 48
-0.153323 -0.331828 0.16406 255 95 48
-0.113224 -0.0657475 0.177604 255 95 48
-0.149075 -0.338021 0.163435 255 95 48
-0.20537 -0.153991 0.166082 255 95 48
-0.332976 -0.347852 0.189232 255 95 48
-0.130624 -0.211452 0.173275 255 95 48
-0.164264 -0.192295 0.174775 255 95 48
-0.0928435 -0.232629 0.133258 255 95 48
-0.219533 -0.322648 0.168613 255 95 48
-0.237322 -0.263229 0.172953 255 95 48
-0.318603 -0.104943 0.184456 255 95 48
-0.061378 -0.0468623 0.0512705 255 95 48
-0.218645 -0.215814 0.171623 255 95 48
-0.0746881 -0.16969 0.0871906 255 95 48
-0.220286 -0.388712 0.167916 255 95 48
-0.0576319 -0.0479637 0.0734775 255 95 48
-0.325075 -0.249361 0.192232 255 95 48
-0.321159 -0.148764 0.191244 255 95 48
-0.184791 -0.178977 0.17344 255 95 48
-0.202018 -0.117207 0.173899 255 95 48
-0.172169 -0.15422 0.174226 255 95 48
-0.106968 -0.0349615 0.180402 255 95 48
-0.279799 -0.147737 0.184323 255 95 48
-0.295203 -0.071982 0.175243 255 95 48
-0.143778 -0.344429 0.1625 255 95 48
-0.23456 -0.261486 0.172406 255 95 48
-0.185465 -0.127229 0.1736 255 95 48
-0.122399 -0.0702821 0.177035 255 95 48
-0.131851 -0.0831623 0.176682 255 95 48
-0.0548103 -0.0512773 0.00613449 255 95 48
-0.343792 -0.360467 0.186886 255 95 48
-0.0723146 -0.0439249 0.0918967 255 95 48
-0.270243 -0.385361 0.175351 255 95 48
-0.271238 -0.145666 0.16428 255 95 48
-0.280997 -0.360693 0.178398 255 95 48
-0.16706 -0.240382 0.172722 255 95 48
-0.135054 -0.139935 0.171078 255 95 48
-0.0612926 -0.104724 0.143137 255 95 48
-0.336168 -0.446839 0.183482 255 95 48
-0.200375 -0.251641 0.169622 255 95 48
-0.155313 -0.103862 0.175693 255 95 48
-0.28718 -0.248039 0.184412 255 95 48
-0.143936 -0.331776 0.163379 255 95 48
-0.324437 -0.14219 0.188434 255 95 48
-0.317624 -0.0806194 0.177167 255 95 48
-0.288449 -0.423693 0.178342 255 95 48
-0.182234 -0.186528 0.167595 255 95 48
-0.240424 -0.282977 0.172821 255 95 48
-0.144364 -0.151229 0.175625 255 95 48
-0.265728 -0.397664 0.174453 255 95 48
-0.286592 -0.308573 0.182476 255 95 48
-0.135652 -0.168795 0.175427 255 95 48
-0.131029 -0.068897 0.173726 255 95 48
-0.0901888 -0.189132 0.168592 255 95 48
-0.180561 -0.080226 0.175869 255 95 48
-0.312149 -0.367787 0.18599 255 95 48
-0.172411 -0.0644528 0.176314 255 95 48
-0.155861 -0.0467729 0.17566 255 95 48
-0.203206 -0.177916 0.165599 255 95 48
-0.330004 -0.312287 0.190963 255 95 48
-0.340153 -0.200524 0.18513 255 95 48
-0.250103 -0.344945 0.173062 255 95 48
-0.211284 -0.219643 0.171325 255 95 48
-0.0680207 -0.116567 0.0673862 255 95 48
-0.091172 -0.0386555 0.179162 255 95 48
-0.243038 -0.0547717 0.176579 255 95 48
-0.239747 -0.364439 0.134748 255 95 48
-0.231106 -0.205628 0.160704 255 95 48
-0.129246 -0.174571 0.17508 255 95 48
-0.0583831 -0.0619495 0.107005 255 95 48
-0.189382 -0.0635603 0.169783 255 95 48
-0.0580852 -0.055641 0.101358 255 95 48
-0.221678 -0.345928 0.14033 255 95 48
-0.21014 -0.228051 0.15932 255 95 48
-0.229363 -0.324941 0.169466 255 95 48
-0.114749 -0.277855 0.165298 255 95 48
-0.276697 -0.374325 0.1768 255 95 48
-0.234585 -0.319623 0.170342 255 95 48
-0.119531 -0.0840711 0.177397 255 95 48
-0.187321 -0.0409242 0.179429 255 95 48
-0.243356 -0.127995 0.177356 255 95 48
-0.302834 -0.382708 0.182974 255 95 48
-0.194057 -0.207242 0.172386 255 95 48
-0.10126 -0.084078 0.177791 255 95 48
-0.314105 -0.390525 0.185322 255 95 48
-0.301243 -0.263398 0.187902 255 95 48
-0.275701 -0.0653333 0.181861 255 95 48
-0.2495 -0.302071 0.174393 255 95 48
-0.274477 -0.219453 0.182287 255 95 48
-0.331498 -0.221245 0.192857 255 95 48
-0.236629 -0.382846 0.170091 255 95 48
-0.0758616 -0.0877955 0.0940358 255 95 48
-0.244633 -0.111021 0.178471 255 95 48
-0.127945 -0.380446 0.159936 255 95 48
-0.241336 -0.382299 0.170922 255 95 48
-0.147607 -0.166908 0.170929 255 95 48
-0.220352 -0.412201 0.167163 255 95 48
-0.113358 -0.0778897 0.165705 255 95 48
-0.0984373 -0.0547769 0.178391 255 95 48
-0.279843 -0.107867 0.185027 255 95 48
-0.167653 -0.0760883 0.170226 255 95 48
-0.160238 -0.0732377 0.171043 255 95 48
-0.306405 -0.234927 0.189121 255 95 48
-0.315279 -0.217536 0.191502 255 95 48
-0.307522 -0.0962414 0.185983 255 95 48
-0.126234 -0.294801 0.165254 255 95 48
-0.249021 -0.134502 0.178186 255 95 48
-0.236145 -0.127103 0.176294 255 95 48
-0.0890541 -0.0610521 0.177494 255 95 48
-0.116688 -0.0430816 0.173313 255 95 48
-0.237021 -0.282689 0.172166 255 95 48
-0.335951 -0.188429 0.187732 255 95 48
-0.31644 -0.414621 0.18489 255 95 48
-0.326874 -0.389441 0.18607 255 95 48
-0.309157 -0.39973 0.184608 255 95 48
-0.208486 -0.0724095 0.16893 255 95 48
-0.204014 -0.304539 0.167976 255 95 48
-0.20807 -0.386704 0.165562 255 95 48
-0.229435 -0.250513 0.17159 255 95 48
-0.0634447 -0.0676432 0.0547671 255 95 48
-0.287055 -0.138302 0.186645 255 95 48
-0.305182 -0.383882 0.183793 255 95 48
-0.299982 -0.0889287 0.186292 255 95 48
-0.243233 -0.123756 0.177543 255 95 48
-0.269712 -0.206672 0.159126 255 95 48
-0.272359 -0.10207 0.183574 255 95 48
-0.132097 -0.228893 0.172355 255 95 48
-0.19552 -0.444927 0.105349 255 95 48
-0.153405 -0.36971 0.161718 255 95 48
-0.116824 -0.204309 0.16721 255 95 48
-0.188078 -0.182152 0.173185 255 95 48
-0.247103 -0.0571251 0.181004 255 95 48
-0.337202 -0.409191 0.185423 255 95 48
-0.0953616 -0.111339 0.176319 255 95 48
-0.179509 -0.330428 0.165866 255 95 48
-0.0766594 -0.106803 0.172029 255 95 48
-0.265348 -0.0920534 0.182322 255 95 48
-0.193945 -0.37963 0.138495 255 95 48
-0.33496 -0.426943 0.184383 255 95 48
-0.209352 -0.212786 0.171523 255 95 48
-0.0971084 -0.0780137 0.177378 255 95 48
-0.333805 -0.289681 0.191395 255 95 48
-0.194786 -0.0831365 0.1684 255 95 48
-0.144049 -0.114915 0.175841 255 95 48
-0.120812 -0.396339 0.159259 255 95 48
-0.160839 -0.430688 0.156664 255 95 48
-0.108016 -0.272426 0.166468 255 95 48
-0.104223 -0.348649 0.162904 255 95 48
-0.254071 -0.100627 0.180577 255 95 48
-0.0629686 -0.11319 0.156324 255 95 48
-0.210878 -0.339019 0.167898 255 95 48
-0.330985 -0.135512 0.184598 255 95 48
-0.131924 -0.164626 0.175576 255 95 48
-0.228126 -0.274952 0.170496 255 95 48
-0.26096 -0.40917 0.173893 255 95 48
-0.256537 -0.249801 0.151994 255 95 48
-0.270855 -0.235999 0.181406 255 95 48
-0.148472 -0.0389466 0.180206 255 95 48
-0.135187 -0.246237 0.171469 255 95 48
-0.34406 -0.330333 0.186957 255 95 48
-0.231705 -0.376617 0.169348 255 95 48
-0.323426 -0.405571 0.185357 255 95 48
-0.219157 -0.198804 0.172004 255 95 48
-0.315327 -0.273367 0.190033 255 95 48
-0.342166 -0.434714 0.183899 255 95 48
-0.159448 -0.25665 0.171124 255 95 48
-0.281333 -0.0640863 0.17694 255 95 48
-0.222979 -0.0469644 0.179463 255 95 48
-0.289402 -0.255438 0.184926 255 95 48
-0.0576563 -0.0977899 0.121531 255 95 48
-0.230747 -0.0591092 0.17953 255 95 48
-0.0964725 -0.214849 0.168689 255 95 48
-0.280639 -0.244176 0.183183 255 95 48
-0.321326 -0.237388 0.192152 255 95 48
-0.303233 -0.0722314 0.175534 255 95 48
-0.0879162 -0.210323 0.164815 255 95 48
-0.118286 -0.117065 0.17653 255 95 48
-0.297095 -0.352108 0.18272 255 95 48
-0.083482 -0.0629139 0.176563 255 95 48
-0.167609 -0.236482 0.164394 255 95 48
-0.212013 -0.245915 0.170061 255 95 48
-0.240381 -0.381883 0.170733 255 95 48
-0.163356 -0.18184 0.17494 255 95 48
-0.221413 -0.121108 0.175163 255 95 48
-0.339955 -0.4216 0.184688 255 95 48
-0.21489 -0.428873 0.165228 255 95 48
-0.13599 -0.329344 0.162799 255 95 48
-0.276335 -0.300605 0.180721 255 95 48
-0.266476 -0.186277 0.161661 255 95 48
-0.302355 -0.409833 0.182863 255 95 48
-0.218658 -0.154667 0.173344 255 95 48
-0.145212 -0.04225 0.1793 255 95 48
-0.298387 -0.207901 0.187596 255 95 48
-0.25602 -0.138876 0.164783 255 95 48
-0.327682 -0.364919 0.187956 255 95 48
-0.155773 -0.441254 0.155302 255 95 48
-0.311953 -0.130461 0.190886 255 95 48
-0.116975 -0.140617 0.175657 255 95 48
-0.210869 -0.433031 0.164226 255 95 48
-0.340519 -0.354754 0.188256 255 95 48
-0.190691 -0.27614 0.169142 255 95 48
-0.233588 -0.102326 0.177281 255 95 48
-0.247739 -0.0626718 0.181176 255 95 48
-0.0601273 -0.0484485 0.0377804 255 95 48
-0.248499 -0.0671854 0.180746 255 95 48
-0.238803 -0.154617 0.175979 255 95 48
-0.208669 -0.169011 0.172051 255 95 48
-0.170806 -0.461839 0.0953469 255 95 48
-0.119388 -0.184599 0.167045 255 95 48
-0.27868 -0.156319 0.183856 255 95 48
-0.0615101 -0.105662 0.144978 255 95 48
-0.308926 -0.439355 0.183549 255 95 48
-0.141108 -0.321945 0.16389 255 95 48
-0.236676 -0.0606748 0.174016 255 95 48
-0.165005 -0.238262 0.173012 255 95 48
-0.344994 -0.426412 0.184282 255 95 48
-0.0524325 -0.061224 0.0116591 255 95 48
-0.0807197 -0.0398293 0.127053 255 95 48
-0.300858 -0.359638 0.183168 255 95 48
-0.0993591 -0.308856 0.163573 255 95 48
-0.3182 -0.209561 0.192422 255 95 48
-0.263617 -0.415255 0.174097 255 95 48
-0.241162 -0.233049 0.155934 255 95 48
-0.0970129 -0.0838799 0.17754 255 95 48
-0.155374 -0.122216 0.175134 255 95 48
-0.23888 -0.274515 0.172883 255 95 48
-0.141075 -0.164135 0.175675 255 95 48
-0.216832 -0.100372 0.176118 255 95 48
-0.140437 -0.0559469 0.177549 255 95 48
-0.328321 -0.315087 0.190738 255 95 48
-0.0708921 -0.0370818 0.137319 255 95 48
-0.0593275 -0.0452237 0.0863087 255 95 48
-0.335724 -0.145074 0.184144 255 95 48
-0.311505 -0.370149 0.18574 255 95 48
-0.260924 -0.225219 0.179035 255 95 48
-0.33418 -0.286311 0.191424 255 95 48
-0.123236 -0.21228 0.172901 255 95 48
-0.0858538 -0.0703889 0.12587 255 95 48
-0.313142 -0.432091 0.184078 255 95 48
-0.0572112 -0.0844662 0.110627 255 95 48
-0.0839261 -0.0396697 0.13575 255 95 48
-0.298336 -0.22561 0.187284 255 95 48
-0.0873134 -0.0414026 0.136608 255 95 48
-0.159361 -0.44067 0.155537 255 95 48
-0.203156 -0.127906 0.173292 255 95 48
-0.229071 -0.0640585 0.17212 255 95 48
-0.226811 -0.30872 0.169477 255 95 48
-0.137659 -0.330462 0.162832 255 95 48
-0.168176 -0.294126 0.167855 255 95 48
-0.201379 -0.173004 0.166085 255 95 48
-0.18619 -0.0674496 0.169616 255 95 48
-0.0930621 -0.0363912 0.171326 255 95 48
-0.152148 -0.217623 0.174819 255 95 48
-0.304191 -0.365903 0.183845 255 95 48
-0.185763 -0.216035 0.172904 255 95 48
-0.317827 -0.107168 0.185155 255 95 48
-0.11251 -0.0586934 0.178103 255 95 48
-0.094615 -0.0830575 0.177371 255 95 48
-0.114339 -0.174155 0.174955 255 95 48
-0.0853194 -0.220497 0.164191 255 95 48
-0.216231 -0.430721 0.165432 255 95 48
-0.197329 -0.294363 0.168399 255 95 48
-0.288367 -0.194528 0.185518 255 95 48
-0.28547 -0.370336 0.178849 255 95 48
-0.335569 -0.144024 0.184075 255 95 48
-0.054443 -0.0594466 0.0526023 255 95 48
-0.237178 -0.124294 0.176546 255 95 48
-0.264035 -0.325602 0.17655 255 95 48
-0.321372 -0.17602 0.192802 255 95 48
-0.0575806 -0.0486462 0.0926838 255 95 48
-0.116745 -0.352593 0.152035 255 95 48
-0.305724 -0.135444 0.190261 255 95 48
-0.27835 -0.0717536 0.183839 255 95 48
-0.233544 -0.116364 0.165802 255 95 48
-0.291208 -0.0851071 0.170779 255 95 48
-0.11326 -0.109643 0.177077 255 95 48
-0.177738 -0.328211 0.165917 255 95 48
-0.228712 -0.250438 0.171432 255 95 48
-0.227332 -0.0566544 0.179455 255 95 48
-0.214425 -0.15473 0.172959 255 95 48
-0.188575 -0.278275 0.169238 255 95 48
-0.214828 -0.349896 0.167945 255 95 48
-0.147982 -0.361161 0.161615 255 95 48
-0.249935 -0.0732688 0.180268 255 95 48
-0.0876826 -0.106671 0.175268 255 95 48
-0.195054 -0.420862 0.162813 255 95 48
-0.309687 -0.140735 0.190935 255 95 48
-0.134993 -0.166896 0.175501 255 95 48
-0.146368 -0.182057 0.175299 255 95 48
-0.121743 -0.0404242 0.179937 255 95 48
-0.266691 -0.200428 0.180477 255 95 48
-0.235149 -0.113122 0.16604 255 95 48
-0.0771247 -0.124672 0.097749 255 95 48
-0.293595 -0.256121 0.146019 255 95 48
-0.270753 -0.363458 0.130977 255 95 48
-0.317655 -0.189845 0.192583 255 95 48
-0.193339 -0.225048 0.171872 255 95 48
-0.299216 -0.0697231 0.179599 255 95 48
-0.120952 -0.239566 0.17107 255 95 48
-0.162664 -0.0686676 0.17119 255 95 48
-0.268489 -0.168308 0.163369 255 95 48
-0.20272 -0.33984 0.166856 255 95 48
-0.312733 -0.0822344 0.17993 255 95 48
-0.0924725 -0.265937 0.12745 255 95 48
-0.165507 -0.204913 0.174745 255 95 48
-0.175605 -0.132904 0.167857 255 95 48
-0.311165 -0.391497 0.184941 255 95 48
-0.0926327 -0.100309 0.176701 255 95 48
-0.131083 -0.153606 0.175699 255 95 48
-0.203823 -0.200956 0.171737 255 95 48
-0.165314 -0.0969409 0.175615 255 95 48
-0.303792 -0.0774081 0.181447 255 95 48
-0.0858645 -0.0349357 0.16324 255 95 48
-0.245807 -0.109532 0.166427 255 95 48
-0.306154 -0.164222 0.191043 255 95 48
-0.0528565 -0.0614564 -0.00222386 255 95 48
-0.285361 -0.0641682 0.180192 255 95 48
-0.0864673 -0.138605 0.17394 255 95 48
-0.2581 -0.167162 0.163701 255 95 48
-0.154274 -0.129548 0.175152 255 95 48
-0.203144 -0.080287 0.168479 255 95 48
-0.251838 -0.436814 0.172962 255 95 48
-0.0911919 -0.211513 0.166295 255 95 48
-0.117443 -0.24161 0.17069 255 95 48
-0.322471 -0.32375 0.189752 255 95 48
-0.217771 -0.133778 0.165859 255 95 48
-0.0749016 -0.172565 0.162918 255 95 48
-0.214218 -0.174865 0.172139 255 95 48
-0.110768 -0.143002 0.175485 255 95 48
-0.28151 -0.419191 0.176524 255 95 48
-0.0693423 -0.0384947 0.126196 255 95 48
-0.313797 -0.304543 0.188619 255 95 48
-0.137866 -0.101763 0.176356 255 95 48
-0.287614 -0.291113 0.183506 255 95 48
-0.286059 -0.104694 0.16684 255 95 48
-0.306565 -0.118615 0.189788 255 95 48
-0.0617461 -0.0449213 0.0750298 255 95 48
-0.205108 -0.236766 0.170484 255 95 48
-0.231027 -0.356736 0.169424 255 95 48
-0.146437 -0.382944 0.150965 255 95 48
-0.304669 -0.412044 0.183558 255 95 48
-0.177543 -0.333873 0.165583 255 95 48
-0.145719 -0.229181 0.173437 255 95 48
-0.308513 -0.0874202 0.183332 255 95 48
-0.0953542 -0.0350684 0.178128 255 95 48
-0.142994 -0.164024 0.175714 255 95 48
-0.143609 -0.146876 0.175573 255 95 48
-0.119549 -0.137588 0.175737 255 95 48
-0.181424 -0.473735 0.0810715 255 95 48
-0.127167 -0.0466346 0.17898 255 95 48
-0.0686079 -0.0965478 0.169009 255 95 48
-0.332122 -0.385367 0.186636 255 95 48
-0.301422 -0.0723788 0.175407 255 95 48
-0.268539 -0.0696537 0.183658 255 95 48
-0.318873 -0.384105 0.18605 255 95 48
-0.181573 -0.419225 0.129875 255 95 48
-0.136392 -0.382168 0.160206 255 95 48
-0.181216 -0.127627 0.173779 255 95 48
-0.295772 -0.398601 0.180167 255 95 48
-0.197325 -0.196287 0.172254 255 95 48
-0.28788 -0.369074 0.179393 255 95 48
-0.192009 -0.1985 0.172638 255 95 48
-0.232407 -0.259647 0.17194 255 95 48
-0.299619 -0.158638 0.189655 255 95 48
-0.119027 -0.139563 0.165426 255 95 48
-0.193958 -0.372404 0.164381 255 95 48
-0.122336 -0.265643 0.168924 255 95 48
-0.258296 -0.254908 0.179123 255 46 23
-0.026779 -0.0688829 0.11967 255 46 23
-0.192836 -0.448931 0.163641 255 46 23
-0.100675 -0.127627 0.183888 255 46 23
-0.0260344 -0.157761 0.0357594 255 46 23
-0.05899 -0.15815 0.182214 255 46 23
-0.036453 -0.255606 0.163724 255 46 23
-0.146174 -0.355622 0.175701 255 46 23
-0.218856 -0.105688 0.184161 255 46 23
-0.256072 -0.363949 0.169953 255 46 23
