ply
format ascii 1.0
comment Created by Open3D
element vertex 1177
property double x
property double y
property double z
property uchar red
property uchar green
property uchar blue
end_header
-0.0808375 -0.469586 0.317842 31 142 243
0.00433307 -0.245494 -0.388401 31 142 243
0.00460482 -0.261779 -0.34377 31 142 243
0.0074459 -0.391921 0.113369 31 142 243
0.0122462 -0.397078 0.0894772 31 142 243
-0.0930826 -0.347432 0.240064 31 142 243
-0.00101626 -0.372911 -0.307694 31 142 243
-0.0165695 -0.447367 -0.119413 31 142 243
-0.0198538 -0.433341 0.138729 31 142 243
7.491e-05 -0.357201 -0.463393 31 142 243
-0.0973566 -0.474624 0.165042 31 142 243
0.00856978 -0.238105 -0.290348 31 142 243
-0.0384364 -0.449359 -0.397245 31 142 243
0.037639 -0.489238 0.00603979 31 142 243
0.00770485 -0.250299 -0.422101 31 142 243
-0.00148108 -0.422008 0.0693976 31 142 243
0.00768397 -0.27012 -0.324555 31 142 243
-0.0331213 -0.372678 0.272949 31 142 243
-0.00451718 -0.307027 0.213006 31 142 243
6.51758e-05 -0.42612 -0.35443 31 142 243
-0.0379867 -0.486174 0.0741804 31 142 243
-0.0476503 -0.486684 0.0396642 31 142 243
-0.00871351 -0.405198 -0.411819 31 142 243
0.00428932 -0.442499 0.091967 31 142 243
0.000902515 -0.409865 0.161171 31 142 243
-0.0515945 -0.468959 0.256383 31 142 243
0.00660352 -0.326629 -0.0722062 31 142 243
-0.103208 -0.47277 0.194744 31 142 243
0.013034 -0.433289 -0.0823449 31 142 243
-5.79748e-05 -0.362734 -0.330043 31 142 243
-0.0019491 -0.31642 0.19526 31 142 243
-0.114928 -0.47386 0.352679 31 142 243
0.00382931 -0.430175 -0.0581226 31 142 243
0.00900882 -0.255883 -0.23814 31 142 243
0.00088383 -0.277593 0.214739 31 142 243
0.00609734 -0.350209 -0.320655 31 142 243
-0.00175161 -0.424106 0.041126 31 142 243
-0.0677236 -0.45491 -0.396411 31 142 243
0.00380517 -0.23319 0.0452194 31 142 243
-0.00562776 -0.317904 0.0376951 31 142 243
8.72221e-05 -0.361141 -0.449611 31 142 243
0.00334382 -0.346929 -0.146461 31 142 243
-0.050746 -0.464827 0.257071 31 142 243
0.0378623 -0.489913 -0.0729299 31 142 243
0.0141362 -0.227159 -0.16618 31 142 243
-0.0342416 -0.402081 0.214804 31 142 243
0.00927644 -0.237909 -0.102034 31 142 243
0.00707886 -0.239818 -0.32404 31 142 243
-0.0509445 -0.324316 0.233679 31 142 243
0.00489595 -0.24425 -0.375922 31 142 243
-0.0542144 -0.474104 0.219978 31 142 243
0.011012 -0.473521 0.112434 31 142 243
0.010594 -0.234185 -0.261084 31 142 243
0.0117193 -0.234255 -0.226802 31 142 243
0.00837005 -0.369954 -0.195816 31 142 243
0.00200837 -0.33907 -0.347547 31 142 243
-0.0458094 -0.337417 0.254334 31 142 243
0.00968661 -0.246141 -0.204186 31 142 243
0.00779015 -0.244035 -0.289665 31 142 243
0.00937508 -0.22488 -0.0680148 31 142 243
0.015192 -0.443346 0.0109994 31 142 243
0.000723859 -0.407856 0.159365 31 142 243
-0.0486869 -0.471883 -0.125641 31 142 243
-0.0061138 -0.324151 0.222367 31 142 243
-0.00907284 -0.446132 0.281964 31 142 243
-0.037676 -0.475175 0.206833 31 142 243
0.0156681 -0.428868 0.0834204 31 142 243
0.00310804 -0.253132 -0.361758 31 142 243
0.00891898 -0.251223 -0.202066 31 142 243
-0.0600611 -0.477857 0.182431 31 142 243
0.00638655 -0.286832 -0.334853 31 142 243
-0.0309446 -0.464523 -0.0288599 31 142 243
-0.140737 -0.41227 0.288732 31 142 243
0.000154639 -0.359599 -0.313079 31 142 243
-0.00035755 -0.407495 -0.0296593 31 142 243
0.00854467 -0.241192 -0.124255 31 142 243
0.00398529 -0.319418 -0.377603 31 142 243
-0.00425961 -0.298723 0.24244 31 142 243
-0.0196985 -0.405328 0.285577 31 142 243
0.00413958 -0.243765 0.108403 31 142 243
-0.0319513 -0.466953 -0.322946 31 142 243
0.00118398 -0.307703 0.144746 31 142 243
-0.0176019 -0.395546 0.282917 31 142 243
0.0125375 -0.447092 0.0271091 31 142 243
3.89889e-05 -0.378674 -0.410557 31 142 243
0.00522353 -0.304304 -0.394745 31 142 243
-0.030034 -0.473037 0.28079 31 142 243
-0.00660305 -0.325221 0.0596069 31 142 243
-0.0017361 -0.38643 -0.357978 31 142 243
-0.123882 -0.441726 0.332764 31 142 243
-0.110554 -0.479325 0.0673991 31 142 243
0.00345567 -0.24703 -0.428989 31 142 243
0.000468515 -0.36239 -0.424691 31 142 243
0.0115452 -0.237626 -0.239217 31 142 243
0.0162923 -0.375491 0.0543116 31 142 243
-0.0037715 -0.441613 0.243492 31 142 243
0.00266734 -0.339983 -0.08799 31 142 243
0.00364032 -0.417639 -0.317248 31 142 243
-0.0485265 -0.48789 -0.0411002 31 142 243
0.00755641 -0.232067 -0.109369 31 142 243
-0.0393012 -0.486913 0.0445404 31 142 243
0.00779862 -0.227643 -0.0587875 31 142 243
-0.0370368 -0.316845 0.235847 31 142 243
-0.00216514 -0.422718 -0.360348 31 142 243
-0.00708697 -0.44379 -0.369815 31 142 243
0.00565916 -0.231906 0.0613492 31 142 243
-0.00144298 -0.410488 -0.00861928 31 142 243
-0.0482507 -0.440749 0.253892 31 142 243
-0.0102854 -0.402332 0.271248 31 142 243
-0.0417317 -0.408433 0.229923 31 142 243
0.00999331 -0.229514 -0.141314 31 142 243
0.00853614 -0.295763 0.18981 31 142 243
-0.0054192 -0.303933 0.246108 31 142 243
-0.00263885 -0.429492 -0.35232 31 142 243
-0.0144797 -0.45835 -0.294809 31 142 243
0.0047608 -0.320228 -0.0028622 31 142 243
-0.0089606 -0.48634 -0.0438149 31 142 243
-0.115646 -0.484116 -0.040692 31 142 243
-0.00242296 -0.26707 -0.412755 31 142 243
-0.0740812 -0.47594 0.185593 31 142 243
0.0183894 -0.386324 0.0475295 31 142 243
0.0129566 -0.234458 -0.211577 31 142 243
0.00670712 -0.247908 -0.41561 31 142 243
-0.00115051 -0.292072 0.237542 31 142 243
0.00545375 -0.287884 -0.146935 31 142 243
-0.000710051 -0.284389 0.212307 31 142 243
-0.042221 -0.454026 0.128094 31 142 243
-0.0355756 -0.453961 -0.388599 31 142 243
-0.0834715 -0.465553 0.307705 31 142 243
-0.000642914 -0.39574 -0.402447 31 142 243
-7.32504e-05 -0.300025 0.171251 31 142 243
-0.00161585 -0.398964 -0.277277 31 142 243
0.00107921 -0.350037 -0.450932 31 142 243
-0.0264854 -0.387171 0.274789 31 142 243
0.0107052 -0.245458 -0.262128 31 142 243
-0.0501629 -0.485372 0.0847325 31 142 243
0.00454038 -0.42649 0.118164 31 142 243
-0.0527426 -0.48548 0.0787063 31 142 243
0.00565411 -0.24336 -0.0563641 31 142 243
-7.49249e-05 -0.441996 0.225859 31 142 243
0.00962542 -0.375584 -0.242881 31 142 243
0.00290761 -0.481134 0.0944955 31 142 243
-0.023521 -0.423877 -0.414662 31 142 243
-0.0696984 -0.418093 0.307283 31 142 243
-0.0033024 -0.48238 0.0939078 31 142 243
0.000436906 -0.270878 0.195024 31 142 243
-0.0630306 -0.471716 0.302772 31 142 243
0.00564709 -0.291831 -0.300615 31 142 243
0.0117332 -0.23725 -0.215277 31 142 243
-4.40329e-05 -0.434999 -0.330873 31 142 243
-0.00282211 -0.414048 0.0576845 31 142 243
0.00285735 -0.33464 -0.372717 31 142 243
-0.0108445 -0.338078 0.264552 31 142 243
-0.00081677 -0.364428 -0.415052 31 142 243
0.00542431 -0.302868 -0.428805 31 142 243
-0.0151355 -0.462371 0.167928 31 142 243
-0.00701245 -0.332418 0.218635 31 142 243
0.00348535 -0.353861 -0.136069 31 142 243
-0.0130681 -0.476594 0.189005 31 142 243
-0.0234214 -0.460195 -0.197236 31 142 243
0.00755074 -0.395054 0.107003 31 142 243
-0.0247994 -0.329269 0.214964 31 142 243
-0.0304951 -0.463761 -0.1557 31 142 243
-0.00166148 -0.414657 -0.112916 31 142 243
-0.0022874 -0.338046 -0.0337487 31 142 243
0.000276864 -0.422033 -0.255799 31 142 243
-0.120556 -0.360149 0.234133 31 142 243
-0.113795 -0.405848 0.293045 31 142 243
0.00836335 -0.239543 -0.212565 31 142 243
0.00265556 -0.308395 -0.355495 31 142 243
-0.0402329 -0.487253 0.0238316 31 142 243
0.0040581 -0.319541 0.0615031 31 142 243
0.00421413 -0.338943 0.000626206 31 142 243
0.00739952 -0.239744 -0.330962 31 142 243
0.000171766 -0.362919 -0.438458 31 142 243
-0.0136973 -0.414246 -0.413218 31 142 243
-0.0777157 -0.482917 0.0767621 31 142 243
-0.00966137 -0.397756 -0.419156 31 142 243
-0.0012239 -0.308532 0.184716 31 142 243
-0.0608787 -0.40904 0.30004 31 142 243
0.0112012 -0.224731 -0.0989044 31 142 243
0.0086509 -0.357719 -0.286457 31 142 243
-0.0134758 -0.436023 0.286075 31 142 243
0.00772725 -0.270301 -0.41578 31 142 243
-0.0112546 -0.412348 0.15112 31 142 243
0.00202814 -0.337862 -0.336273 31 142 243
0.00746948 -0.39169 -0.334611 31 142 243
-0.00216924 -0.420542 -0.308694 31 142 243
0.00798365 -0.241989 -0.348589 31 142 243
-0.00370121 -0.313925 0.203536 31 142 243
0.00664379 -0.280173 -0.30021 31 142 243
-0.00119454 -0.366729 0.193635 31 142 243
-0.000318525 -0.36489 0.152077 31 142 243
-0.00229597 -0.391287 -0.334987 31 142 243
0.000703491 -0.430096 -0.271137 31 142 243
0.00188708 -0.443739 -0.212727 31 142 243
0.00141767 -0.264162 -0.383384 31 142 243
0.00283881 -0.24677 -0.011806 31 142 243
0.000341577 -0.360206 -0.443118 31 142 243
-0.00278032 -0.305994 -0.00987364 31 142 243
-0.10521 -0.404023 0.257336 31 142 243
-0.0493305 -0.483417 0.118305 31 142 243
-0.0401704 -0.439868 0.219362 31 142 243
-0.00353044 -0.393688 0.16629 31 142 243
-0.0027352 -0.484063 0.0493942 31 142 243
0.00563037 -0.228574 0.00688096 31 142 243
0.00364609 -0.443571 0.0364765 31 142 243
-0.0434983 -0.487195 0.0186451 31 142 243
0.00389881 -0.436283 0.192902 31 142 243
-0.105146 -0.386689 0.250514 31 142 243
-0.0160329 -0.424958 -0.407404 31 142 243
0.0033649 -0.323308 -0.445401 31 142 243
-0.000334693 -0.351079 0.170341 31 142 243
0.00565119 -0.243472 -0.344623 31 142 243
-0.0470999 -0.456644 -0.384258 31 142 243
0.0166483 -0.453241 0.0728545 31 142 243
-0.0648587 -0.446286 0.302805 31 142 243
-0.00591803 -0.324977 0.232039 31 142 243
-0.00656005 -0.342745 0.02079 31 142 243
0.0111523 -0.239026 -0.14341 31 142 243
-0.0970334 -0.473153 0.202277 31 142 243
0.0028695 -0.251206 0.0266955 31 142 243
-0.0579679 -0.467257 0.277128 31 142 243
0.00777234 -0.227014 -0.0401439 31 142 243
-0.0597838 -0.475514 0.213188 31 142 243
0.00875354 -0.232577 -0.151475 31 142 243
-0.037514 -0.327756 0.250474 31 142 243
0.000509357 -0.254778 0.167962 31 142 243
-0.00466972 -0.333425 0.0939666 31 142 243
0.00303188 -0.351535 0.0489576 31 142 243
0.0190364 -0.476697 0.151764 31 142 243
-0.0757528 -0.47535 0.202817 31 142 243
-0.00414216 -0.333778 -0.425184 31 142 243
-0.053361 -0.486366 0.0478647 31 142 243
-0.0962334 -0.451358 0.298866 31 142 243
-0.068725 -0.469191 0.266901 31 142 243
-0.0228488 -0.38165 0.257005 31 142 243
-0.0442554 -0.32167 0.23161 31 142 243
0.0137197 -0.225347 -0.140844 31 142 243
0.000707349 -0.426315 -0.233443 31 142 243
-0.029857 -0.424779 0.16718 31 142 243
0.0119859 -0.324211 -0.230666 31 142 243
-0.0184662 -0.455301 -0.186074 31 142 243
-0.0480979 -0.481733 0.145284 31 142 243
0.00188085 -0.385031 -0.397734 31 142 243
-0.0893867 -0.471103 0.357514 31 142 243
-0.0179987 -0.363003 0.199268 31 142 243
-0.001755 -0.440517 -0.30131 31 142 243
0.00947745 -0.239105 -0.271301 31 142 243
-0.00107906 -0.267696 0.0528843 31 142 243
-0.0107267 -0.393169 -0.424489 31 142 243
0.0072117 -0.266351 -0.125872 31 142 243
0.00528191 -0.24665 -0.334624 31 142 243
0.00258156 -0.23925 0.0490343 31 142 243
-0.0658085 -0.471555 0.310248 31 142 243
0.00190734 -0.338076 -0.31369 31 142 243
-0.00150632 -0.425954 -0.275478 31 142 243
-0.00128892 -0.321022 -0.391958 31 142 243
-0.00653861 -0.334049 0.247267 31 142 243
0.0074309 -0.443657 0.166847 31 142 243
0.0119863 -0.231604 -0.210476 31 142 243
0.00557411 -0.292981 -0.198828 31 142 243
0.0294676 -0.486401 0.0413833 31 142 243
0.00788105 -0.241081 -0.30136 31 142 243
0.00967204 -0.393561 -0.252539 31 142 243
-0.0375878 -0.429374 -0.418832 31 142 243
-0.00372845 -0.422112 -0.381937 31 142 243
0.000412531 -0.252372 0.137768 31 142 243
0.00554305 -0.483201 -0.029667 31 142 243
0.00349511 -0.390263 -0.134607 31 142 243
-0.000563113 -0.447807 -0.35288 31 142 243
0.00609898 -0.229487 -0.0308353 31 142 243
-0.000561062 -0.433759 -0.258284 31 142 243
-0.0600799 -0.487595 -0.0109783 31 142 243
0.00292667 -0.410168 -0.196394 31 142 243
-0.0325828 -0.488058 -0.0382705 31 142 243
0.00530309 -0.245889 -0.401058 31 142 243
0.00719292 -0.399049 -0.334873 31 142 243
-0.111091 -0.438124 0.283641 31 142 243
-0.0979551 -0.466176 0.308338 31 142 243
-0.00140302 -0.400274 -0.427881 31 142 243
-0.111374 -0.392634 0.250451 31 142 243
-0.0124798 -0.321941 0.256708 31 142 243
0.00470812 -0.302018 0.0481877 31 142 243
0.00610325 -0.279187 -0.175302 31 142 243
0.000706464 -0.347588 -0.268814 31 142 243
0.000835812 -0.254632 0.172739 31 142 243
-0.0247359 -0.309116 0.234945 31 142 243
0.0295044 -0.488549 -0.128166 31 142 243
0.00264796 -0.253182 0.137089 31 142 243
-0.000615578 -0.36643 0.179553 31 142 243
-0.124898 -0.478273 0.0548719 31 142 243
-0.0161467 -0.444818 0.298049 31 142 243
-0.060566 -0.406062 0.302928 31 142 243
-0.0555639 -0.42546 0.28244 31 142 243
-0.0489082 -0.450471 -0.398913 31 142 243
-0.0618836 -0.355555 0.256408 31 142 243
-0.00733627 -0.48619 -0.0224153 31 142 243
0.0160054 -0.455336 -0.000603765 31 142 243
-0.120041 -0.419866 0.327135 31 142 243
0.00146465 -0.262642 -0.382478 31 142 243
0.0131533 -0.227897 -0.159079 31 142 243
-0.0516004 -0.354815 0.259892 31 142 243
0.00428413 -0.336556 0.000387263 31 142 243
0.0124991 -0.229642 -0.199268 31 142 243
0.00409166 -0.468452 0.12749 31 142 243
-0.0200824 -0.446185 0.171485 31 142 243
0.0253597 -0.483447 0.114005 31 142 243
-0.0593043 -0.485442 0.0633374 31 142 243
-0.0205281 -0.384647 0.216268 31 142 243
0.000316771 -0.384433 0.169221 31 142 243
0.0053589 -0.443256 0.185281 31 142 243
0.000114389 -0.44364 -0.279452 31 142 243
-0.0885393 -0.467094 0.296601 31 142 243
-0.0490208 -0.472161 0.298661 31 142 243
0.0113723 -0.233383 -0.234858 31 142 243
0.00653761 -0.228743 -0.021166 31 142 243
-0.0597628 -0.486278 0.0368141 31 142 243
-0.0528971 -0.464753 -0.367127 31 142 243
-0.0253966 -0.476231 0.208766 31 142 243
0.00314818 -0.248014 -0.367825 31 142 243
-0.0959648 -0.47108 0.329522 31 142 243
-0.00293906 -0.385182 -0.459599 31 142 243
-0.0739403 -0.475898 0.187795 31 142 243
0.00600533 -0.240595 -0.0553284 31 142 243
-0.0257397 -0.463999 -0.33223 31 142 243
-0.0135895 -0.396779 -0.426208 31 142 243
-0.142583 -0.375426 0.232855 31 142 243
-0.0254721 -0.308659 0.239287 31 142 243
-0.109867 -0.450606 0.297537 31 142 243
0.0075106 -0.252088 -0.434686 31 142 243
-0.0296358 -0.486381 0.076044 31 142 243
-0.0545075 -0.475551 0.210343 31 142 243
-0.0734909 -0.411936 0.273665 31 142 243
0.00177242 -0.292857 0.1428 31 142 243
-0.0448127 -0.33477 0.216524 31 142 243
-0.00320164 -0.4397 0.239462 31 142 243
-0.0454889 -0.442739 -0.410374 31 142 243
-0.00643071 -0.407172 0.231305 31 142 243
-0.0751311 -0.468523 0.279263 31 142 243
-0.0290021 -0.464137 -0.213532 31 142 243
-0.000267103 -0.237657 0.0904017 0 180 235
-0.0982271 -0.352603 0.222975 0 180 235
0.0134158 -0.220957 0.15397 0 180 235
0.0125927 -0.366124 0.311509 0 180 235
0.016265 -0.369188 0.152042 0 180 235
0.0183267 -0.222454 0.206561 0 180 235
0.00771284 -0.211581 0.177961 0 180 235
-0.0191779 -0.343658 0.282253 0 180 235
0.00011731 -0.335878 -0.233465 0 180 235
0.00317924 -0.392627 -0.294924 0 180 235
0.0094097 -0.405007 -0.155014 0 180 235
0.00246892 -0.307497 -0.110787 0 180 235
-0.0856489 -0.467716 0.132211 0 180 235
0.00727835 -0.352156 -0.0111139 0 180 235
0.0146809 -0.226179 0.148856 0 180 235
-0.00334002 -0.373733 -0.139604 0 180 235
0.0136252 -0.423287 0.274705 0 180 235
0.0122805 -0.315179 0.298985 0 180 235
0.0022862 -0.317935 -0.263303 0 180 235
0.020802 -0.222205 0.229848 0 180 235
0.0120712 -0.442294 0.28511 0 180 235
0.0167818 -0.215318 0.276724 0 180 235
0.018783 -0.236043 0.282791 0 180 235
0.0166906 -0.343118 0.206099 0 180 235
-0.0392116 -0.427852 0.258421 0 180 235
-0.0873337 -0.45198 0.172131 0 180 235
0.00757578 -0.431678 -0.0102059 0 180 235
0.011023 -0.27911 0.314403 0 180 235
0.017432 -0.213416 0.237349 0 180 235
0.0177029 -0.321669 0.119794 0 180 235
0.00411261 -0.316324 -0.281305 0 180 235
-0.0228277 -0.409221 -0.427583 0 180 235
0.0148024 -0.404461 0.25176 0 180 235
0.00489132 -0.364795 -0.29069 0 180 235
-0.0846603 -0.400978 0.200245 0 180 235
0.00606155 -0.42015 -0.00356396 0 180 235
-0.00408995 -0.358517 -0.101187 0 180 235
0.0160231 -0.227251 0.172513 0 180 235
0.0161192 -0.392224 0.225103 0 180 235
0.003281 -0.274298 -0.00466711 0 180 235
0.00579171 -0.343847 -0.34351 0 180 235
-0.0182488 -0.372721 0.217115 0 180 235
0.00284939 -0.406241 -0.324631 0 180 235
0.0157086 -0.368118 -0.173588 0 180 235
0.00554944 -0.351407 -0.292428 0 180 235
0.0144998 -0.348843 0.0797849 0 180 235
0.00320282 -0.295803 -0.0317679 0 180 235
0.00930206 -0.248893 0.340662 0 180 235
6.98073e-05 -0.229165 0.109342 0 180 235
0.0126235 -0.351977 0.0602012 0 180 235
-0.0130459 -0.379273 0.151919 0 180 235
-0.00854009 -0.329856 0.0101073 0 180 235
0.00844964 -0.402855 0.0988253 0 180 235
-0.111033 -0.458541 0.178928 0 180 235
0.00471018 -0.436942 0.0820311 0 180 235
0.00936574 -0.27642 0.340944 0 180 235
0.0219236 -0.257205 0.14967 0 180 235
-0.0210266 -0.412083 0.0976538 0 180 235
0.00722017 -0.27784 0.00988504 0 180 235
0.00180771 -0.381885 -0.309015 0 180 235
-3.99826e-05 -0.342828 -0.0901434 0 180 235
-0.00596996 -0.306194 -0.0990531 0 180 235
-0.00138885 -0.46329 -0.227686 0 180 235
0.00717892 -0.327066 -0.083347 0 180 235
-0.0172192 -0.382752 0.213801 0 180 235
-0.0264561 -0.434536 0.111123 0 180 235
0.00591236 -0.436209 0.254928 0 180 235
-0.00542731 -0.210237 0.234725 0 180 235
0.00933911 -0.281104 0.340889 0 180 235
0.014551 -0.349699 0.268943 0 180 235
0.0105491 -0.312772 0.321695 0 180 235
0.00606264 -0.338806 -0.0414875 0 180 235
0.0129038 -0.417934 0.16863 0 180 235
-0.00446636 -0.399503 -0.410029 0 180 235
-0.00656029 -0.269372 0.0206671 0 180 235
0.0127438 -0.255553 0.306571 0 180 235
0.00221436 -0.33581 -0.342571 0 180 235
0.0148745 -0.358136 0.106934 0 180 235
-0.082177 -0.469106 0.121778 0 180 235
-0.00313263 -0.314825 -0.187532 0 180 235
0.00267307 -0.415672 0.171094 0 180 235
-0.0100432 -0.369326 -0.379302 0 180 235
0.0120841 -0.329084 0.304001 0 180 235
-0.000305692 -0.378913 -0.392445 0 180 235
-0.0128005 -0.335351 0.0446125 0 180 235
0.00277831 -0.336515 -0.363459 0 180 235
0.00736029 -0.210682 0.231771 0 180 235
0.013294 -0.310236 0.283063 0 180 235
-0.0162737 -0.253208 0.162056 0 180 235
0.00637516 -0.388734 -0.17697 0 180 235
-0.0100631 -0.439985 -0.370991 0 180 235
0.000321339 -0.415916 -0.127259 0 180 235
0.0223839 -0.247999 0.172014 0 180 235
-0.0190848 -0.389666 0.260752 0 180 235
0.0101908 -0.427234 0.170532 0 180 235
0.0102882 -0.263577 0.318388 0 180 235
0.00889269 -0.211848 0.25155 0 180 235
0.00815175 -0.211562 0.248234 0 180 235
0.00765949 -0.393092 0.040258 0 180 235
0.0151336 -0.352171 0.108033 0 180 235
0.00956969 -0.413965 -0.0555281 0 180 235
-0.00796737 -0.305023 -0.0145804 0 180 235
0.0180707 -0.296081 0.053644 0 180 235
0.0196772 -0.239613 0.170451 0 180 235
0.0128922 -0.211778 0.222733 0 180 235
0.0213073 -0.306085 0.116701 0 180 235
0.00830143 -0.3657 -0.0804267 0 180 235
-0.0136081 -0.380916 0.00838832 0 180 235
-0.019657 -0.335088 0.276801 0 180 235
0.00863295 -0.350349 -0.118451 0 180 235
0.012657 -0.219264 0.148992 0 180 235
0.0223196 -0.244656 0.238319 0 180 235
0.0162251 -0.38342 0.230164 0 180 235
0.018789 -0.391372 -0.178555 0 180 235
0.00253877 -0.387717 -0.338683 0 180 235
0.0108296 -0.287413 0.316272 0 180 235
0.0172064 -0.215827 0.285294 0 180 235
0.0170503 -0.236271 0.140216 0 180 235
0.0146816 -0.328746 0.178788 0 180 235
-0.00396248 -0.3493 -0.122993 0 180 235
0.00975847 -0.324412 0.354714 0 180 235
0.022225 -0.226645 0.250016 0 180 235
0.00574267 -0.409343 0.0522679 0 180 235
-0.0284715 -0.405917 0.289035 0 180 235
0.010526 -0.278352 0.0241794 0 180 235
0.00919555 -0.430375 -0.0656232 0 180 235
0.00525852 -0.373752 0.038801 0 180 235
-0.00616504 -0.218406 0.187689 0 180 235
0.00802535 -0.349893 0.00280951 0 180 235
-0.00344559 -0.421778 -0.051116 0 180 235
0.0128075 -0.31649 0.0253457 0 180 235
0.0165234 -0.338474 0.208897 0 180 235
0.00896185 -0.433173 0.172024 0 180 235
0.00851531 -0.367764 -0.0823299 0 180 235
-0.00138865 -0.212375 0.193387 0 180 235
0.0140693 -0.262396 0.0624076 0 180 235
-0.00545084 -0.32169 -0.137592 0 180 235
-0.0208609 -0.3137 0.108936 0 180 235
0.0091696 -0.345561 0.0245055 0 180 235
0.00371558 -0.392238 -0.259331 0 180 235
0.00315699 -0.386191 -0.264374 0 180 235
0.0139702 -0.236766 0.306615 0 180 235
0.0123561 -0.22121 0.134283 0 180 235
-0.0251857 -0.357388 -0.411999 0 180 235
0.0064777 -0.328083 -0.321622 0 180 235
0.00340149 -0.243271 0.0417929 0 180 235
0.00458559 -0.328032 -0.124862 0 180 235
0.00742122 -0.240643 0.059912 0 180 235
0.0189839 -0.279512 0.193984 0 180 235
0.0159631 -0.307533 0.184372 0 180 235
-0.0188127 -0.459429 0.0294167 0 180 235
0.0236341 -0.250039 0.191651 0 180 235
-0.00597703 -0.381176 -0.373083 0 180 235
0.0118178 -0.283 0.301524 0 180 235
0.0127655 -0.248723 0.0727647 0 180 235
-0.00211388 -0.222338 0.146644 0 180 235
0.00780054 -0.366589 -0.0288883 0 180 235
-0.00281817 -0.260908 0.0174647 0 180 235
-0.0202582 -0.349114 -0.396237 0 180 235
0.0212309 -0.238749 0.25816 0 180 235
0.0137767 -0.420129 0.26822 0 180 235
-0.00242006 -0.395346 -0.137922 0 180 235
-0.00399532 -0.386014 -0.195762 0 180 235
0.00851285 -0.277295 0.35871 0 180 235
0.02198 -0.2557 0.212483 0 180 235
0.0171778 -0.373807 0.201486 0 180 235
-0.0205421 -0.39353 0.163955 0 180 235
-0.100474 -0.476497 0.107264 0 180 235
0.00754288 -0.33023 0.00995276 0 180 235
0.00566838 -0.312128 -0.0268318 0 180 235
0.01513 -0.343009 0.0781892 0 180 235
-0.00827132 -0.359631 0.241345 0 180 235
0.010015 -0.211282 0.235405 0 180 235
0.00801321 -0.325594 -0.0155979 0 180 235
-0.0893216 -0.457122 0.164992 0 180 235
-0.0261753 -0.40498 -0.428204 0 180 235
0.00780744 -0.369033 -0.039792 0 180 235
0.0150241 -0.343747 0.127211 0 180 235
0.0148805 -0.409626 0.202828 0 180 235
0.0134685 -0.375509 0.105572 0 180 235
0.0178598 -0.277069 0.224297 0 180 235
-0.0208665 -0.370696 0.263906 0 180 235
0.00883938 -0.302972 0.357054 0 180 235
0.00272796 -0.41961 0.163452 0 180 235
-0.111543 -0.400654 0.222257 0 180 235
0.0114444 -0.26885 0.311789 0 180 235
0.0163446 -0.282279 0.243563 0 180 235
0.00560434 -0.216904 0.12838 0 180 235
-0.00645788 -0.345572 -0.0245411 0 180 235
0.019007 -0.249645 0.125404 0 180 235
-0.0255818 -0.44167 0.0992858 0 180 235
0.0102035 -0.210612 0.19668 0 180 235
0.0111419 -0.334454 0.321162 0 180 235
0.0122824 -0.281564 0.0316667 0 180 235
-0.00329564 -0.349887 -0.164143 0 180 235
0.0143152 -0.314696 0.237024 0 180 235
0.0103693 -0.228661 0.327176 0 180 235
0.00980971 -0.277966 0.331627 0 180 235
-0.0232703 -0.299054 0.135712 0 180 235
0.00179768 -0.31661 -0.224034 0 180 235
-0.0103159 -0.369125 -0.407824 0 180 235
-0.0357211 -0.369667 -0.422468 0 180 235
0.0158458 -0.382441 0.244028 0 180 235
-0.00192752 -0.394534 -0.246013 0 180 235
0.0178971 -0.318236 0.0571196 0 180 235
0.0218574 -0.282276 0.140562 0 180 235
0.00330876 -0.393787 -0.330125 0 180 235
0.0130621 -0.238334 0.310405 0 180 235
0.022998 -0.256124 0.19231 0 180 235
0.00992056 -0.246189 0.334974 0 180 235
-0.00744555 -0.308217 -0.0284351 0 180 235
0.0231702 -0.233444 0.229087 0 180 235
-0.000623282 -0.283891 -0.0398879 0 180 235
0.00613563 -0.344488 -0.321861 0 180 235
0.009379 -0.396529 -0.0535447 0 180 235
0.0127507 -0.289665 0.286545 0 180 235
0.00884765 -0.304849 0.361684 0 180 235
0.0102307 -0.33456 0.351091 0 180 235
0.00824135 -0.217017 0.130849 0 180 235
0.00316058 -0.399892 -0.318548 0 180 235
8.304e-05 -0.21851 0.130994 0 180 235
0.00424895 -0.340337 -0.362917 0 180 235
-0.0113073 -0.377215 0.116274 0 180 235
-0.00752667 -0.290589 -0.0422786 0 180 235
0.00109116 -0.330355 -0.239435 0 180 235
0.0169377 -0.232559 0.158343 0 180 235
0.0194456 -0.220388 0.218497 0 180 235
0.0156632 -0.347412 0.154599 0 180 235
0.0168102 -0.390934 0.167875 0 180 235
0.00481245 -0.438667 0.127899 0 180 235
0.015134 -0.335674 0.0668975 0 180 235
0.00740383 -0.355492 -0.0617291 0 180 235
0.0115512 -0.322748 0.309209 0 180 235
0.0102489 -0.211202 0.22801 0 180 235
0.0164667 -0.215235 0.276319 0 180 235
0.0192818 -0.292743 0.0650335 0 180 235
0.00120076 -0.251665 0.050765 0 180 235
0.00281436 -0.334746 -0.356411 0 180 235
0.0102386 -0.30865 0.325697 0 180 235
0.0118535 -0.24349 0.31431 0 180 235
0.00648089 -0.413855 0.0924289 0 180 235
0.00787751 -0.380444 -0.0112108 0 180 235
0.00449117 -0.331149 -0.252034 0 180 235
0.00613379 -0.282784 -0.00110115 0 180 235
0.00667212 -0.413894 0.0946981 0 180 235
0.0109638 -0.411367 -0.13503 0 180 235
0.0066985 -0.367442 0.0080851 0 180 235
0.00248456 -0.341679 -0.293528 0 180 235
-0.0390853 -0.453699 0.0975929 0 180 235
0.0109593 -0.275458 0.314045 0 180 235
0.0159381 -0.333602 0.234032 0 180 235
0.0130637 -0.32053 0.0275364 0 180 235
-0.00354974 -0.383503 -0.234638 0 180 235
0.00385453 -0.327556 -0.328544 0 180 235
0.0107412 -0.308835 0.317892 0 180 235
0.0145655 -0.342498 0.266104 0 180 235
0.00841624 -0.334613 -0.00979819 0 180 235
-0.0240743 -0.472168 -0.0483958 0 180 235
-0.00199222 -0.353565 -0.364523 0 180 235
0.00195623 -0.40945 -0.299506 0 180 235
0.00150471 -0.232854 0.0769817 0 180 235
0.0158897 -0.399743 0.165556 0 180 235
0.0133582 -0.358571 0.0722896 0 180 235
0.0144292 -0.254822 0.29499 0 180 235
0.0100345 -0.250628 0.330737 0 180 235
0.0160663 -0.343612 0.183002 0 180 235
-0.0604446 -0.481675 -0.0454989 0 180 235
-0.0203889 -0.269549 0.157462 0 180 235
0.000511454 -0.35835 -0.134699 0 180 235
0.00233521 -0.415698 -0.279626 0 180 235
-0.0333651 -0.412525 0.129458 0 180 235
-0.000752981 -0.410342 -0.152173 0 180 235
-0.0080885 -0.362109 -0.402872 0 180 235
0.00130388 -0.442303 -0.106552 0 180 235
-0.0861288 -0.482526 0.00922319 0 180 235
0.00292194 -0.348077 -0.37058 0 180 235
-0.00246802 -0.383137 -0.25582 0 180 235
0.00611646 -0.329816 -0.332975 0 180 235
-0.053974 -0.269568 0.210875 0 180 235
0.00915059 -0.360213 0.0365996 0 180 235
0.00316448 -0.288419 -0.0224712 0 180 235
0.00968716 -0.211727 0.182332 0 180 235
0.019719 -0.298548 0.143017 0 180 235
-0.010538 -0.33377 0.182679 0 180 235
-0.0159647 -0.340625 0.243374 0 180 235
-0.00283739 -0.418773 0.348759 0 180 235
0.0216257 -0.409497 -0.18466 0 180 235
0.0093929 -0.375427 0.0460215 0 180 235
-0.00537419 -0.343924 0.0350332 0 180 235
0.00622994 -0.28874 -0.00744866 0 180 235
0.0149392 -0.292576 0.253731 0 180 235
0.0130321 -0.212515 0.251186 0 180 235
-0.0246102 -0.45395 0.0662045 0 180 235
0.0201881 -0.225923 0.275426 0 180 235
0.00248436 -0.407223 0.175487 0 180 235
-0.00621782 -0.395674 0.283635 0 180 235
0.0118139 -0.315578 0.304934 0 180 235
0.0226987 -0.271348 0.145521 0 180 235
0.00582743 -0.331409 -0.340374 0 180 235
0.0218236 -0.257117 0.14845 0 180 235
0.00208438 -0.336389 -0.359846 0 180 235
0.0166516 -0.366639 0.225863 0 180 235
0.0131707 -0.407269 0.328662 0 180 235
0.0134041 -0.429249 0.266392 0 180 235
0.00725914 -0.356267 -0.0124185 0 180 235
0.00559527 -0.328111 -0.340257 0 180 235
0.00633511 -0.428722 0.00980675 0 180 235
0.0166619 -0.272029 0.259428 0 180 235
0.00810246 -0.251731 0.360641 0 180 235
0.00518041 -0.41574 -0.254379 0 180 235
0.00695237 -0.280129 0.00560058 0 180 235
-0.0206687 -0.296605 0.123689 0 180 235
0.014463 -0.237199 0.0986441 0 180 235
0.0116917 -0.276639 0.306577 0 180 235
-0.0650183 -0.322116 0.205282 0 180 235
0.0070908 -0.323728 -0.0209771 0 180 235
0.0186176 -0.215839 0.277262 0 180 235
-0.00470294 -0.333051 -0.127102 0 180 235
-0.0600671 -0.320982 0.201044 0 180 235
0.0126193 -0.377698 0.0970597 0 180 235
-0.00769136 -0.451 0.0311351 0 180 235
-0.00376739 -0.336697 -0.169684 0 180 235
0.0137677 -0.248255 0.0779031 0 180 235
-0.0432307 -0.434749 0.281498 0 180 235
0.00842184 -0.396352 -0.0326534 0 180 235
0.00708195 -0.357567 -0.0450094 0 180 235
0.0111244 -0.430711 0.194616 0 180 235
-0.0142163 -0.219098 0.21187 0 180 235
0.0071824 -0.211485 0.248834 0 180 235
0.010035 -0.223543 0.334843 0 180 235
0.0236108 -0.242679 0.219499 0 180 235
2.64291e-05 -0.34802 -0.355639 0 180 235
0.00635205 -0.383136 0.0161841 0 180 235
-2.01156e-05 -0.353236 -0.0840961 0 180 235
-0.00132685 -0.455287 -0.277554 0 180 235
0.00703802 -0.362438 0.0078604 0 180 235
0.010723 -0.421761 -0.218075 0 180 235
0.0110687 -0.449373 0.268114 0 180 235
0.00258151 -0.450484 -0.0870368 0 180 235
-0.000378858 -0.380722 -0.394481 0 180 235
4.67431e-06 -0.414192 -0.113702 0 180 235
0.00272699 -0.453826 -0.131922 0 180 235
0.0153474 -0.321914 0.0457241 0 180 235
0.0153682 -0.262633 0.27984 0 180 235
-0.0448793 -0.265078 0.206094 0 180 235
-0.0419328 -0.473378 0.00800873 0 180 235
0.00660216 -0.380183 0.00858702 0 180 235
0.015859 -0.362706 0.144161 0 180 235
-0.0609975 -0.482879 -0.0853277 0 180 235
-0.0382733 -0.46968 0.0273763 0 180 235
0.0191235 -0.250603 0.260382 0 180 235
0.0026195 -0.377793 -0.211509 0 180 235
0.0169915 -0.381935 0.203416 0 180 235
-0.0360322 -0.378319 0.144318 0 180 235
-0.0349106 -0.42153 0.129849 0 180 235
-0.00783505 -0.360181 0.00350587 0 180 235
0.0187402 -0.319826 0.0815238 0 180 235
0.0145835 -0.327309 0.260995 0 180 235
0.00345086 -0.301309 -0.0401958 0 180 235
0.00235886 -0.403446 -0.292632 0 180 235
0.0144086 -0.390615 0.275793 0 180 235
-0.0045536 -0.377106 -0.0826661 0 180 235
-0.00627205 -0.30142 -0.0733318 0 180 235
0.0157328 -0.402251 0.218927 0 180 235
0.0170631 -0.386354 0.170649 0 180 235
0.00735013 -0.395913 0.00848585 0 180 235
-0.0036393 -0.301905 -0.11763 0 180 235
-0.0118577 -0.409751 0.0284404 0 180 235
0.00637063 -0.418936 0.0955468 0 180 235
0.0127892 -0.291861 0.0255162 0 180 235
-0.0216451 -0.398011 0.307828 0 180 235
0.00175908 -0.431187 -0.127443 0 180 235
0.0224631 -0.284383 0.121537 0 180 235
0.0158295 -0.392942 0.235934 0 180 235
0.00590599 -0.345991 -0.342994 0 180 235
-0.081812 -0.445724 0.176 0 180 235
0.00660646 -0.350455 -0.0355228 0 180 235
0.0186488 -0.244977 0.129233 0 180 235
-0.034558 -0.348022 0.156763 0 180 235
0.0172123 -0.361888 0.192056 0 180 235
0.00859775 -0.238609 0.353834 0 180 235
-0.0339536 -0.384372 -0.428578 0 180 235
-0.0498835 -0.446413 0.204859 0 180 235
0.00919091 -0.317956 -0.111565 0 180 235
0.00460665 -0.437471 0.0994581 0 180 235
-0.0167631 -0.292239 0.0974658 0 180 235
0.0100272 -0.242525 0.0688839 0 180 235
0.00941309 -0.289685 0.338306 0 180 235
0.0121678 -0.4195 -0.195142 0 180 235
0.0234258 -0.249228 0.205657 0 180 235
0.00909746 -0.249063 0.0569501 0 180 235
0.00137194 -0.39471 -0.389656 0 180 235
0.015177 -0.303979 0.0358955 0 180 235
-0.00360516 -0.349006 -0.370354 0 180 235
0.0157183 -0.399043 0.232219 0 180 235
-0.00300029 -0.34216 -0.379148 0 180 235
0.0142193 -0.370883 -0.169799 0 180 235
0.0117076 -0.21141 0.222253 0 180 235
-0.00210056 -0.255932 0.0600132 0 180 235
-0.0115832 -0.458886 0.0099656 0 180 235
-0.0166189 -0.360852 -0.408288 0 180 235
0.0130479 -0.372298 0.303909 0 180 235
-0.00772903 -0.346774 -0.380014 0 180 235
-0.0321173 -0.39378 -0.42905 0 180 235
0.00557492 -0.43282 0.0553171 0 180 235
0.00239586 -0.391035 0.145863 0 180 235
-0.00514206 -0.332305 -0.0849017 0 180 235
0.0130173 -0.40944 0.344203 0 180 235
-0.0461114 -0.480809 -0.0819728 0 180 235
-0.019684 -0.396548 0.0708114 0 180 235
0.00224271 -0.452974 -0.0674 0 180 235
0.00718513 -0.397378 0.0332855 0 180 235
0.00564214 -0.319825 -0.270943 0 180 235
0.0138878 -0.342702 0.279614 0 180 235
0.00742391 -0.248032 0.0508513 0 180 235
-0.00287733 -0.267907 -0.00825242 0 180 235
0.0142883 -0.428054 0.344191 0 180 235
0.0083418 -0.432913 0.158586 0 180 235
0.00206715 -0.315258 -0.228288 0 180 235
0.0131253 -0.366964 0.301005 0 180 235
0.0199876 -0.301126 0.0663776 0 180 235
0.0070629 -0.411284 -0.0536089 0 180 235
0.0219794 -0.303528 0.0921304 0 180 235
-0.0592066 -0.444627 0.148574 0 180 235
-0.000669949 -0.358936 -0.358892 0 180 235
0.00407433 -0.236813 0.0540569 0 180 235
0.0070838 -0.404898 0.0307904 0 180 235
0.0161236 -0.397696 0.166171 0 180 235
0.0065617 -0.336702 -0.31872 0 180 235
0.00524106 -0.320755 -0.0497509 0 180 235
0.00808095 -0.331875 -0.0146799 0 180 235
0.0183922 -0.264631 0.247118 0 180 235
0.00943275 -0.368677 -0.132713 0 180 235
0.0201865 -0.301023 0.0683773 0 180 235
-0.00391039 -0.31422 -0.174167 0 180 235
-0.0430562 -0.361316 0.166471 0 180 235
0.00993215 -0.447642 0.273977 0 180 235
-0.0305 -0.267701 0.187961 0 180 235
-0.106906 -0.477231 0.111287 0 180 235
0.0224536 -0.303328 0.104078 0 180 235
-0.0546783 -0.377919 0.17668 0 180 235
0.0191084 -0.26558 0.0977446 0 180 235
-0.0379909 -0.423742 0.318703 0 180 235
0.00524854 -0.35218 -0.275841 0 180 235
0.0212875 -0.248301 0.242758 0 180 235
0.00872213 -0.221241 0.109782 0 180 235
0.017353 -0.372709 0.191946 0 180 235
-0.00269774 -0.343946 0.133701 0 180 235
0.0161744 -0.234352 0.132017 0 180 235
0.0156994 -0.347351 0.157828 0 180 235
0.00970093 -0.39437 0.0924047 0 180 235
0.0116531 -0.371152 0.361198 0 180 235
0.00610904 -0.421707 0.0119182 0 180 235
0.00273064 -0.327672 -0.23411 0 180 235
0.00816293 -0.344302 -0.109692 0 180 235
0.00865554 -0.247696 0.349656 0 180 235
0.0196836 -0.244351 0.149948 0 180 235
-0.0165547 -0.386278 0.108124 0 180 235
-0.0149267 -0.403171 0.0410161 0 180 235
0.0190329 -0.25244 0.120465 0 180 235
-0.0108431 -0.376801 -0.00515571 0 180 235
0.00756407 -0.319187 -0.302617 0 180 235
0.0180874 -0.215109 0.225583 0 180 235
-0.014952 -0.390188 0.0254621 0 180 235
-0.121541 -0.464693 0.17517 0 180 235
-0.0909522 -0.482838 0.0139514 0 180 235
0.00681854 -0.39924 -0.200532 0 180 235
0.00183565 -0.262358 0.00280779 0 180 235
0.00294738 -0.394849 -0.273592 0 180 235
-0.00118455 -0.466169 -0.186685 0 180 235
0.0155849 -0.350597 0.141063 0 180 235
0.0094953 -0.404023 -0.150475 0 180 235
0.00680197 -0.31865 -0.302969 0 180 235
-0.0234027 -0.366855 0.317942 0 180 235
0.0165672 -0.344706 0.192714 0 180 235
-0.00501112 -0.306291 -0.136429 0 180 235
0.00635011 -0.41848 0.0948262 0 180 235
0.016681 -0.392533 0.196131 0 180 235
0.0145422 -0.224777 0.155097 0 180 235
0.0155825 -0.402645 0.166582 0 180 235
0.0221045 -0.294096 0.0965426 0 180 235
0.0152395 -0.356895 0.129193 0 180 235
0.00176056 -0.379438 -0.38261 0 180 235
0.000825698 -0.231106 0.0865258 0 180 235
0.0101335 -0.258599 0.325014 0 180 235
0.0181651 -0.232094 0.288496 0 180 235
0.0166802 -0.385385 0.210218 0 180 235
0.00729133 -0.401477 -0.200848 0 180 235
-0.0150247 -0.357335 0.0411524 0 180 235
0.00959332 -0.243093 0.0663554 0 180 235
0.0101221 -0.211712 0.184497 0 180 235
-0.00398935 -0.356927 0.174329 0 180 235
0.0136024 -0.338069 0.284273 0 180 235
0.00418883 -0.433868 0.152838 0 180 235
0.0097443 -0.449171 0.250265 0 180 235
0.0145266 -0.323854 0.202246 0 180 235
-0.0495806 -0.288171 0.198664 0 180 235
0.0214876 -0.293342 0.0864478 0 180 235
0.00214212 -0.319441 -0.263585 0 180 235
-0.0435472 -0.342702 0.17608 0 180 235
0.00295186 -0.432309 -0.309091 0 180 235
0.00145288 -0.425873 0.262982 0 180 235
-0.0238286 -0.378353 0.330025 0 180 235
0.0136381 -0.391253 0.297904 0 180 235
0.015176 -0.379446 0.135171 0 180 235
0.00125245 -0.32119 -0.147905 0 180 235
0.00427353 -0.270288 0.00694219 0 180 235
0.00109925 -0.372687 -0.307117 0 180 235
0.0151691 -0.335355 0.178361 0 180 235
0.0147303 -0.212409 0.220517 0 180 235
0.01538 -0.361862 0.256621 0 180 235
-0.0545883 -0.378634 0.176145 0 180 235
0.0221578 -0.428304 -0.273217 32 212 224
0.0212226 -0.401477 0.0860954 32 212 224
0.0185164 -0.278261 -0.139228 32 212 224
0.0197419 -0.267153 -0.339134 32 212 224
0.0212804 -0.415191 -0.342782 32 212 224
0.0195627 -0.361611 -0.235896 32 212 224
0.0202121 -0.452393 -0.410664 32 212 224
0.0217475 -0.460054 -0.318322 32 212 224
0.0181029 -0.427969 0.180253 32 212 224
0.0204186 -0.460774 -0.0598775 32 212 224
0.0168445 -0.368005 0.247788 32 212 224
0.0188437 -0.339848 -0.203066 32 212 224
0.0167178 -0.292375 0.147895 32 212 224
0.0223389 -0.433304 -0.233886 32 212 224
0.0225636 -0.404655 -0.0982671 32 212 224
0.0194831 -0.407103 -0.4245 32 212 224
0.0184102 -0.307271 -0.205654 32 212 224
0.0213121 -0.433633 -0.424101 32 212 224
0.0155887 -0.470099 0.127181 32 212 224
0.0197106 -0.27033 -0.246824 32 212 224
0.00962253 -0.257676 0.295794 32 212 224
0.0218592 -0.471977 -0.0063804 32 212 224
0.021863 -0.450803 -0.0529893 32 212 224
0.0217707 -0.446365 -0.289531 32 212 224
0.022066 -0.440945 -0.36995 32 212 224
0.0206086 -0.291133 -0.297803 32 212 224
0.0149866 -0.394531 0.288342 32 212 224
0.0198639 -0.274064 -0.239206 32 212 224
0.0189465 -0.251313 -0.293106 32 212 224
0.0177735 -0.343088 0.191423 32 212 224
0.0160446 -0.28105 0.175826 32 212 224
0.0183917 -0.247341 -0.264717 32 212 224
0.0118353 -0.468734 0.265191 32 212 224
0.0221414 -0.449787 -0.320993 32 212 224
0.0212515 -0.409327 -0.291154 32 212 224
0.0210888 -0.393011 -0.235314 32 212 224
0.0140251 -0.467336 0.159875 32 212 224
0.0224718 -0.420806 -0.165777 32 212 224
0.0153665 -0.258819 0.152331 32 212 224
0.0183227 -0.447797 0.156184 32 212 224
0.0212371 -0.442378 0.0982395 32 212 224
0.0200502 -0.271777 -0.339627 32 212 224
0.0200229 -0.304903 -0.282937 32 212 224
0.0196172 -0.336176 -0.0675776 32 212 224
0.020285 -0.390317 0.104415 32 212 224
0.0186743 -0.30478 -0.223028 32 212 224
0.0182067 -0.291903 -0.391632 32 212 224
0.0223183 -0.438045 -0.262244 32 212 224
0.0200809 -0.411349 -0.376793 32 212 224
0.0200716 -0.376107 -0.36346 32 212 224
0.00917791 -0.445457 0.349962 32 212 224
0.0226359 -0.408111 -0.122094 32 212 224
0.0135648 -0.336082 0.363924 32 212 224
0.0167296 -0.38264 -0.435578 32 212 224
0.0186067 -0.283395 0.00997266 32 212 224
0.0235502 -0.422089 -0.0500901 32 212 224
0.0187225 -0.250494 -0.326206 32 212 224
0.0204946 -0.293424 -0.309649 32 212 224
0.0168276 -0.268365 0.0782207 32 212 224
0.0164339 -0.401867 0.242274 32 212 224
0.0170362 -0.317156 0.210683 32 212 224
0.0144214 -0.372874 0.323541 32 212 224
0.0160876 -0.336614 0.269224 32 212 224
0.0195052 -0.369191 0.140107 32 212 224
0.022144 -0.44302 -0.286082 32 212 224
0.021047 -0.462449 -0.122551 32 212 224
0.020303 -0.298805 -0.328075 32 212 224
0.0223612 -0.404074 -0.150087 32 212 224
0.0207259 -0.287587 -0.277689 32 212 224
0.0189408 -0.412808 0.147463 32 212 224
0.0209798 -0.429453 -0.423486 32 212 224
0.0217366 -0.414662 -0.255789 32 212 224
0.010988 -0.250851 0.258499 32 212 224
0.0115553 -0.278853 0.286553 32 212 224
0.0184294 -0.245311 -0.338289 32 212 224
0.00985115 -0.428135 0.35901 32 212 224
0.0194465 -0.314687 -0.278877 32 212 224
0.0169528 -0.450986 0.170806 32 212 224
0.0138337 -0.334789 0.351954 32 212 224
0.0183003 -0.331173 -0.375474 32 212 224
0.0134972 -0.330789 0.362312 32 212 224
0.0194825 -0.422027 0.139333 32 212 224
0.00972382 -0.435392 0.359024 32 212 224
0.012242 -0.382773 0.380599 32 212 224
0.0152508 -0.255683 0.140893 32 212 224
0.0156031 -0.362278 0.29339 32 212 224
0.0215995 -0.381813 -0.0855816 32 212 224
0.0220542 -0.442955 -0.208533 32 212 224
0.01125 -0.257085 0.266025 32 212 224
0.0202748 -0.304583 -0.324062 32 212 224
0.0169451 -0.251886 -0.0173628 32 212 224
0.0221874 -0.421583 -0.201532 32 212 224
0.0206686 -0.360179 -0.341698 32 212 224
0.0125474 -0.25611 0.233671 32 212 224
0.015176 -0.469112 0.119039 32 212 224
0.0174257 -0.266569 -0.0615123 32 212 224
0.0211285 -0.457929 -0.050577 32 212 224
0.0103912 -0.448732 0.332655 32 212 224
0.00893327 -0.45107 0.352718 32 212 224
0.017283 -0.339791 -0.395568 32 212 224
0.0163129 -0.289956 0.176185 32 212 224
0.0188881 -0.302686 -0.0658211 32 212 224
0.0118012 -0.469162 0.273114 32 212 224
0.0118375 -0.40375 0.368527 32 212 224
0.0234742 -0.446257 -0.0201357 32 212 224
0.0236844 -0.428639 0.0421478 32 212 224
0.0218255 -0.418578 0.0801745 32 212 224
0.0168131 -0.288553 0.134979 32 212 224
0.0202384 -0.417891 0.121156 32 212 224
0.0204922 -0.457507 -0.372209 32 212 224
0.023607 -0.466276 -0.252586 32 212 224
0.0206732 -0.360114 -0.109337 32 212 224
0.0106681 -0.441898 0.332581 32 212 224
0.0240295 -0.4298 -0.0186583 32 212 224
0.0080512 -0.265373 0.329916 32 212 224
0.0205642 -0.452978 -0.25982 32 212 224
0.0218578 -0.426756 0.0811297 32 212 224
0.0241003 -0.419833 -0.0159885 32 212 224
0.0110058 -0.273237 0.292174 32 212 224
0.014774 -0.263471 0.193664 32 212 224
0.024184 -0.410824 0.0211895 32 212 224
0.021314 -0.394741 -0.312414 32 212 224
0.0162411 -0.247969 0.0156398 32 212 224
0.0190032 -0.360107 0.146288 32 212 224
0.0204439 -0.45369 -0.394555 32 212 224
0.0202877 -0.295651 -0.332848 32 212 224
0.0221722 -0.427985 -0.268993 32 212 224
0.0174391 -0.29503 -0.407667 32 212 224
0.0232527 -0.439394 -0.0478276 32 212 224
0.0136263 -0.403512 0.31877 32 212 224
0.0120508 -0.457371 0.277899 32 212 224
0.0210805 -0.450911 -0.277695 32 212 224
0.017248 -0.305224 0.150029 32 212 224
0.0140496 -0.333239 0.343284 32 212 224
0.0220146 -0.408011 -0.199063 32 212 224
0.0183954 -0.306983 -0.141186 32 212 224
0.0196866 -0.292515 -0.352744 32 212 224
0.0193113 -0.29574 -0.0196459 32 212 224
0.0159482 -0.471532 0.17023 32 212 224
0.0141959 -0.309649 0.27299 32 212 224
0.0208835 -0.451177 -0.265285 32 212 224
0.0188772 -0.301813 -0.0421172 32 212 224
0.022565 -0.437502 -0.0734416 32 212 224
0.0236641 -0.46379 -0.315292 32 212 224
0.0159428 -0.257816 0.096403 32 212 224
0.0189102 -0.463179 0.020075 32 212 224
0.0210566 -0.38167 -0.30956 32 212 224
0.0190758 -0.253906 -0.305644 32 212 224
0.0224373 -0.421482 -0.170441 32 212 224
0.0200633 -0.458053 -0.246981 32 212 224
0.0136746 -0.379789 0.33704 32 212 224
0.022308 -0.435542 -0.350091 32 212 224
0.0171394 -0.247106 -0.0639569 32 212 224
0.0153266 -0.355258 -0.431508 32 212 224
0.0224619 -0.426298 -0.102003 32 212 224
0.0199117 -0.348972 -0.110947 32 212 224
0.0207873 -0.401121 -0.335537 32 212 224
0.0162625 -0.468982 0.0901712 32 212 224
0.0167314 -0.447611 0.200352 32 212 224
0.0196046 -0.269818 -0.243591 32 212 224
0.019292 -0.312893 -0.262294 32 212 224
0.0187759 -0.307879 -0.108409 32 212 224
0.0176195 -0.298815 0.0985405 32 212 224
0.0200296 -0.355336 -0.300643 32 212 224
0.0202472 -0.337183 -0.0361757 32 212 224
0.0167559 -0.286353 0.136292 32 212 224
0.016863 -0.29997 -0.419767 32 212 224
0.018792 -0.280622 -0.183047 32 212 224
0.0209552 -0.450349 -0.229565 32 212 224
0.0185547 -0.286635 -0.044098 32 212 224
0.0164744 -0.255825 0.028573 32 212 224
0.0125485 -0.463228 0.179677 32 212 224
0.0228423 -0.367928 0.00505931 32 212 224
0.0158504 -0.442916 0.248265 32 212 224
0.0149562 -0.27239 0.205498 32 212 224
0.0174679 -0.267362 -0.040084 32 212 224
0.0193208 -0.407069 -0.391545 32 212 224
0.0139957 -0.314412 0.289041 32 212 224
0.0222076 -0.426922 -0.319045 32 212 224
0.0185916 -0.333618 -0.268438 32 212 224
0.0118717 -0.45557 0.301916 32 212 224
0.0146579 -0.45392 0.219502 32 212 224
0.0210013 -0.463152 -0.0931549 32 212 224
0.0223015 -0.42725 -0.164385 32 212 224
0.0177505 -0.267776 -0.0818841 32 212 224
0.015023 -0.338155 0.307522 32 212 224
0.0148627 -0.280103 0.218412 32 212 224
0.0222503 -0.437943 -0.207049 32 212 224
0.020213 -0.458867 -0.112695 32 212 224
0.0151611 -0.343234 0.303865 32 212 224
0.0171001 -0.32482 0.216442 32 212 224
0.0122438 -0.467847 0.2132 32 212 224
0.0212736 -0.402116 -0.251877 32 212 224
0.0189022 -0.399018 -0.378028 32 212 224
0.0192181 -0.332673 0.0793278 32 212 224
0.014877 -0.321383 0.291867 32 212 224
0.0230227 -0.371533 0.0279709 32 212 224
0.0167517 -0.384723 0.239613 32 212 224
0.0135804 -0.299591 0.268217 32 212 224
0.0219238 -0.436026 -0.171692 32 212 224
0.0188847 -0.327502 -0.121069 32 212 224
0.020851 -0.4515 -0.196346 32 212 224
0.0211442 -0.339368 0.0119653 32 212 224
0.0170365 -0.294628 0.126941 32 212 224
0.0157994 -0.41718 0.243665 32 212 224
0.0101579 -0.440172 0.34841 32 212 224
0.0203525 -0.355083 -0.0807044 32 212 224
0.0174982 -0.327278 0.176304 32 212 224
0.0137326 -0.445137 0.285091 32 212 224
0.0181183 -0.251706 -0.389801 32 212 224
0.0163117 -0.446518 0.221351 32 212 224
0.0223259 -0.426572 -0.158238 32 212 224
0.0180119 -0.330994 -0.379377 32 212 224
0.0206023 -0.459411 -0.0126125 32 212 224
0.0187297 -0.258528 -0.241337 32 212 224
0.017359 -0.257164 -0.0690145 32 212 224
0.0145906 -0.397786 0.298296 32 212 224
0.0157556 -0.440999 0.251549 32 212 224
0.0204332 -0.373098 -0.186246 32 212 224
0.013542 -0.435556 0.287466 32 212 224
0.0224857 -0.448235 -0.331373 32 212 224
0.0202634 -0.324484 0.0020759 32 212 224
0.0149905 -0.44864 0.256575 32 212 224
0.00945191 -0.281228 0.328194 32 212 224
0.0194954 -0.355209 -0.256886 32 212 224
0.0195008 -0.397405 -0.359843 32 212 224
0.022365 -0.461658 -0.3406 32 212 224
0.0215631 -0.374994 0.0688858 32 212 224
0.0207166 -0.274626 -0.291119 32 212 224
0.0148033 -0.435695 0.262071 32 212 224
0.0187533 -0.382433 -0.384108 32 212 224
0.0183383 -0.47161 0.0620567 32 212 224
0.0213287 -0.448515 -0.180421 32 212 224
0.0181816 -0.375567 -0.403507 32 212 224
0.0176854 -0.287962 0.0911051 32 212 224
0.0193242 -0.259332 -0.266355 32 212 224
0.0215776 -0.452936 -0.360864 32 212 224
0.0225681 -0.377564 -0.0379916 32 212 224
0.0173503 -0.274876 -0.413443 32 212 224
0.021316 -0.400278 -0.283142 32 212 224
0.0181647 -0.288904 -0.3922 32 212 224
0.0146508 -0.338275 0.324233 32 212 224
0.0190393 -0.341962 -0.186135 32 212 224
0.0172864 -0.243699 -0.217613 32 212 224
0.0210093 -0.396522 -0.332913 32 212 224
0.021106 -0.388606 -0.330541 32 212 224
0.0203113 -0.378945 -0.201827 32 212 224
0.0143971 -0.459622 0.144614 32 212 224
0.0158257 -0.34854 0.281139 32 212 224
0.0217655 -0.406203 -0.216609 32 212 224
0.017375 -0.279755 -0.410802 32 212 224
0.0077956 -0.254008 0.318791 32 212 224
0.0208116 -0.379612 -0.174192 32 212 224
0.020088 -0.391801 -0.353341 32 212 224
0.0234576 -0.450597 0.00910774 32 212 224
0.0205446 -0.455642 -0.146699 32 212 224
0.0236583 -0.394349 -0.00168556 32 212 224
0.0186326 -0.252548 -0.345575 32 212 224
0.0150089 -0.328614 0.296631 32 212 224
0.0177275 -0.390642 -0.432729 32 212 224
0.017585 -0.247858 -0.183045 32 212 224
0.0212883 -0.396662 -0.216002 32 212 224
0.0196209 -0.305465 -0.355312 32 212 224
0.0177172 -0.326626 -0.389209 32 212 224
0.0167925 -0.3039 -0.421093 32 212 224
0.0204838 -0.371267 -0.269172 32 212 224
0.0187791 -0.32565 -0.282697 32 212 224
0.00929229 -0.450623 0.347815 32 212 224
0.0173898 -0.371808 0.220467 32 212 224
0.0101269 -0.265191 0.298354 32 212 224
0.0200442 -0.456631 -0.406221 32 212 224
0.0157426 -0.371651 0.282156 32 212 224
0.0159256 -0.2804 0.181251 32 212 224
0.0104508 -0.274912 0.303606 32 212 224
0.0185343 -0.30205 -0.384239 32 212 224
0.0144935 -0.437893 0.27281 32 212 224
0.0173586 -0.311748 0.171573 32 212 224
0.012699 -0.469194 0.228619 32 212 224
0.0117299 -0.264835 0.269061 32 212 224
0.0134771 -0.427853 0.282903 32 212 224
0.0215562 -0.450707 -0.0706597 32 212 224
0.0201323 -0.458098 -0.252942 32 212 224
0.0189455 -0.297766 -0.0848654 32 212 224
0.0187651 -0.334087 -0.172075 32 212 224
0.0137749 -0.42272 0.276752 32 212 224
0.0176779 -0.249238 -0.181244 32 212 224
0.0183733 -0.288361 0.0673321 32 212 224
0.0202124 -0.307298 -0.330364 32 212 224
0.00909261 -0.423753 0.384304 32 212 224
0.0182436 -0.338754 -0.374708 32 212 224
0.0116115 -0.414393 0.34604 32 212 224
0.0191283 -0.447485 0.126086 32 212 224
0.0184354 -0.328264 -0.171302 32 212 224
0.00660438 -0.256662 0.348299 32 212 224
0.0201143 -0.405442 0.113721 32 212 224
0.0218236 -0.444769 -0.0817844 32 212 224
0.0206707 -0.424142 -0.400395 32 212 224
0.018876 -0.37373 -0.387887 32 212 224
0.0207016 -0.453397 -0.269385 32 212 224
0.0154836 -0.406137 0.261086 32 212 224
0.0239916 -0.445882 0.0128909 32 212 224
0.0112617 -0.254154 0.260069 32 212 224
0.0150654 -0.331685 0.298034 32 212 224
0.0194881 -0.352006 -0.187075 32 212 224
0.0192478 -0.364759 0.144407 32 212 224
0.0191873 -0.430536 0.153177 32 212 224
0.0101744 -0.437154 0.350559 32 212 224
0.0187723 -0.3894 -0.380081 32 212 224
0.0159996 -0.261542 0.126184 32 212 224
0.0211589 -0.386362 -0.274042 32 212 224
0.0155431 -0.41505 0.252234 32 212 224
0.0162068 -0.345538 0.26895 32 212 224
0.0209666 -0.367793 -0.12431 32 212 224
0.00764797 -0.445727 0.376473 32 212 224
0.0175558 -0.410142 0.204902 32 212 224
0.00744785 -0.45876 0.369022 32 212 224
0.0138534 -0.416484 0.286947 32 212 224
0.0195766 -0.394399 0.143426 32 212 224
0.0225567 -0.44694 -0.335494 32 212 224
0.0182311 -0.245621 -0.264646 32 212 224
0.0227671 -0.464289 -0.264972 32 212 224
0.0241261 -0.445355 0.0113041 32 212 224
0.0155141 -0.257154 0.13568 32 212 224
0.017184 -0.431807 0.208446 32 212 224
