ply
format ascii 1.0
comment Created by Open3D
element vertex 1145
property double x
property double y
property double z
property uchar red
property uchar green
property uchar blue
end_header
-0.0132896 -0.309659 0.0188936 128 254 179
0.193738 -0.117779 -0.00154941 128 254 179
0.228123 -0.485028 -0.0588761 128 254 179
0.365258 -0.471744 -0.104618 128 254 179
0.146831 -0.142395 -0.00117035 128 254 179
0.370093 -0.458266 -0.177172 128 254 179
0.354149 -0.352335 -0.0278415 128 254 179
0.348255 -0.342101 -0.0561648 128 254 179
0.330273 -0.167039 -0.0157779 128 254 179
0.358063 -0.40347 -0.0191407 128 254 179
0.309355 -0.172871 -0.0073971 128 254 179
0.00355774 -0.148081 0.00709875 128 254 179
0.349494 -0.463571 -0.00799675 128 254 179
0.273528 -0.0959487 -0.00155499 128 254 179
0.308857 -0.286716 -0.000713482 128 254 179
0.275396 -0.484919 -0.0610739 128 254 179
0.137753 -0.0850674 8.12858e-05 128 254 179
0.0353429 -0.485867 0.0141392 128 254 179
0.342993 -0.299681 -0.141806 128 254 179
0.343175 -0.305512 -0.168329 128 254 179
0.34677 -0.134561 -0.0426374 128 254 179
0.342152 -0.284016 -0.157341 128 254 179
0.374492 -0.478006 -0.14362 128 254 179
0.347016 -0.346294 -0.0685713 128 254 179
0.115053 -0.485474 0.0106485 128 254 179
0.346862 -0.19573 -0.0589154 128 254 179
0.0983297 -0.119553 0.000146985 128 254 179
-0.00751671 -0.459392 0.0218618 128 254 179
0.103742 -0.147565 3.48315e-05 128 254 179
0.339448 -0.307985 -0.00745434 128 254 179
-0.152909 -0.245817 0.0172518 128 254 179
0.3384 -0.458216 -0.000110194 128 254 179
0.311384 -0.248576 -0.00381928 128 254 179
0.351648 -0.402262 -0.0672097 128 254 179
0.349613 -0.311921 -0.0375111 128 254 179
0.363176 -0.465716 -0.116118 128 254 179
0.276631 -0.215403 -0.00170249 128 254 179
0.341591 -0.0424756 -0.14922 128 254 179
0.142914 -0.0705644 0.000240617 128 254 179
0.350839 -0.467217 -0.00946654 128 254 179
0.342109 -0.208872 -0.14515 128 254 179
0.147243 -0.396697 0.0205025 128 254 179
-0.158574 -0.302723 0.0165627 128 254 179
0.0861644 -0.273105 0.0130695 128 254 179
0.289501 -0.053523 -0.00292665 128 254 179
0.319781 -0.109055 -0.0113375 128 254 179
0.34226 -0.0448416 -0.0933413 128 254 179
-0.122919 -0.345338 0.0167769 128 254 179
0.343388 -0.164308 -0.117754 128 254 179
0.244092 -0.271141 0.00310427 128 254 179
0.236584 -0.386764 0.0137305 128 254 179
-0.204936 -0.334071 0.0159129 128 254 179
0.117089 -0.258818 0.00913574 128 254 179
0.344858 -0.342581 -0.157339 128 254 179
-0.133136 -0.292811 0.0166496 128 254 179
0.354655 -0.369934 -0.0349086 128 254 179
0.344368 -0.173445 -0.101371 128 254 179
0.34217 -0.0405316 -0.119365 128 254 179
0.283306 -0.309844 0.00404889 128 254 179
0.0182785 -0.410035 0.020304 128 254 179
0.139282 -0.319783 0.0157521 128 254 179
0.343597 -0.187491 -0.116677 128 254 179
-0.137253 -0.287899 0.016697 128 254 179
0.356082 -0.446301 -0.0595109 128 254 179
0.347178 -0.330011 -0.0733005 128 254 179
0.194988 -0.164014 -0.00234177 128 254 179
0.34247 -0.290494 -0.159913 128 254 179
0.347851 -0.325504 -0.0626794 128 254 179
0.0098021 -0.293469 0.0188116 128 254 179
-0.248487 -0.317393 0.0159394 128 254 179
0.0669775 -0.404012 0.0207856 128 254 179
0.159472 -0.0656192 -0.000146821 128 254 179
0.270677 -0.166957 -0.00204725 128 254 179
0.340233 -0.0551071 -0.177807 128 254 179
0.00590005 -0.457952 0.0219891 128 254 179
0.333202 -0.292593 -0.00682171 128 254 179
-0.0144764 -0.228585 0.013734 128 254 179
0.125315 -0.449304 0.0195374 128 254 179
-0.233463 -0.299172 0.0160606 128 254 179
0.260762 -0.48386 0.00706055 128 254 179
0.357027 -0.455181 -0.0316342 128 254 179
0.349923 -0.336529 -0.0437598 128 254 179
0.300044 -0.415467 0.00896706 128 254 179
0.069998 -0.186018 0.00363205 128 254 179
0.348896 -0.24877 -0.0507117 128 254 179
0.348734 -0.244677 -0.0494226 128 254 179
0.355457 -0.401439 -0.0135133 128 254 179
-0.0107707 -0.248094 0.0152751 128 254 179
0.320426 -0.483942 -0.0525549 128 254 179
0.207396 -0.459221 0.016701 128 254 179
-0.0240683 -0.345434 0.019214 128 254 179
0.333668 -0.0704287 -0.0216297 128 254 179
-0.171795 -0.335157 0.0165672 128 254 179
0.121064 -0.462715 0.0210855 128 254 179
0.0997811 -0.417157 0.0199723 128 254 179
0.162549 -0.121388 -0.00121098 128 254 179
0.342532 -0.053887 -0.107266 128 254 179
0.146941 -0.392082 0.020473 128 254 179
0.347493 -0.318453 -0.0671764 128 254 179
0.322536 -0.41439 0.00520576 128 254 179
0.137974 -0.0643162 0.000379987 128 254 179
0.332215 -0.0466323 -0.0203546 128 254 179
0.340468 -0.172633 -0.0251995 128 254 179
0.358271 -0.43088 -0.0311431 128 254 179
0.344877 -0.0822999 -0.0484603 128 254 179
0.0161779 -0.0774559 0.00438829 128 254 179
0.345651 -0.208714 -0.0284525 128 254 179
0.234771 -0.0827382 -0.000772714 128 254 179
-0.188232 -0.355144 0.0161897 128 254 179
-0.151013 -0.265621 0.0170606 128 254 179
-0.126741 -0.203244 0.0170609 128 254 179
0.346992 -0.172519 -0.0503596 128 254 179
0.349961 -0.294772 -0.0415967 128 254 179
0.351372 -0.323832 -0.0157702 128 254 179
0.343382 -0.0742798 -0.0828558 128 254 179
0.352749 -0.427204 -0.140263 128 254 179
0.314572 -0.478884 0.00510587 128 254 179
0.127535 -0.477509 0.0221724 128 254 179
0.0844032 -0.478104 0.0227611 128 254 179
0.356229 -0.382572 -0.0309216 128 254 179
0.349994 -0.290861 -0.0359632 128 254 179
0.211672 -0.466303 0.0161674 128 254 179
0.340457 -0.0756148 -0.178229 128 254 179
0.00745232 -0.466943 0.0216101 128 254 179
0.344231 -0.0838916 -0.0735356 128 254 179
0.294385 -0.0558364 -0.00357475 128 254 179
0.041674 -0.420259 0.0201709 128 254 179
0.135019 -0.399081 0.0209325 128 254 179
0.185026 -0.256338 0.00397916 128 254 179
0.235709 -0.446159 0.0126878 128 254 179
0.18873 -0.333822 0.0122143 128 254 179
0.170124 -0.149393 -0.00179058 128 254 179
-0.190753 -0.26303 0.0169275 128 254 179
0.256725 -0.456337 0.0128305 128 254 179
0.186947 -0.368502 0.016803 128 254 179
0.342667 -0.0583705 -0.104405 128 254 179
0.342765 -0.48246 -0.052364 128 254 179
0.12399 -0.124887 -0.000349708 128 254 179
0.342556 -0.0467679 -0.0772179 128 254 179
-0.161949 -0.210493 0.0175138 128 254 179
-0.220776 -0.27927 0.0163494 128 254 179
0.163042 -0.233316 0.00278926 128 254 179
0.348599 -0.229735 -0.0452649 128 254 179
0.326931 -0.128488 -0.0140404 128 254 179
0.345503 -0.254596 -0.0985188 128 254 179
0.351242 -0.300273 -0.0207801 128 254 179
0.00775158 -0.0657154 0.00497552 128 254 179
0.310543 -0.23242 -0.00515743 128 254 179
-0.055604 -0.192939 0.013266 128 254 179
0.273032 -0.146067 -0.00223986 128 254 179
0.330923 -0.193521 -0.015497 128 254 179
0.342578 -0.0660232 -0.0396752 128 254 179
0.356582 -0.400563 -0.0152942 128 254 179
0.169075 -0.485132 -0.0392329 128 254 179
0.324988 -0.325356 -0.00173178 128 254 179
0.15806 -0.252569 0.00498478 128 254 179
0.254924 -0.423684 0.0117211 128 254 179
0.28295 -0.469913 0.0109016 128 254 179
0.24562 -0.0663248 -0.000630155 128 254 179
0.245839 -0.220578 -0.00168902 128 254 179
0.155942 -0.484945 0.0154041 128 254 179
0.173237 -0.482477 0.0198775 128 254 179
0.11402 -0.111276 -0.000187486 128 254 179
0.34267 -0.0724432 -0.0377972 128 254 179
0.24435 -0.420822 0.013092 128 254 179
0.0734328 -0.32627 0.0201058 128 254 179
0.323605 -0.151465 -0.0119661 128 254 179
0.342791 -0.293548 -0.13098 128 254 179
0.318935 -0.485127 -0.0884362 128 254 179
0.202528 -0.413421 0.0172827 128 254 179
0.195883 -0.0935721 -0.000940464 128 254 179
0.345791 -0.177684 -0.0734418 128 254 179
0.363123 -0.48087 -0.14872 128 254 179
0.346302 -0.356041 -0.0818608 128 254 179
0.258319 -0.4849 -0.139407 128 254 179
-0.117743 -0.423182 0.0183053 128 254 179
0.338383 -0.263628 -0.0115506 128 254 179
0.312764 -0.101823 -0.00857455 128 254 179
-0.00921352 -0.442433 0.0205565 128 254 179
-0.0107814 -0.41747 0.0202143 128 254 179
0.314148 -0.3264 0.000945799 128 254 179
0.0252196 -0.324407 0.0191511 128 254 179
0.35652 -0.4611 -0.0230896 128 254 179
0.357364 -0.416136 -0.0162925 128 254 179
0.311599 -0.476209 0.00666777 128 254 179
0.286232 -0.47556 0.0106969 128 254 179
0.298401 -0.176541 -0.00394814 128 254 179
0.275659 -0.116467 -0.00194087 128 254 179
0.323948 -0.364328 0.00206743 128 254 179
0.121026 -0.148133 -0.000206336 128 254 179
0.357977 -0.451801 -0.124112 128 254 179
0.0673767 -0.31996 0.0198758 128 254 179
-0.156638 -0.362232 0.0164961 128 254 179
0.333273 -0.482718 -0.0262987 128 254 179
0.149759 -0.275741 0.00840331 128 254 179
0.35782 -0.423433 -0.0328267 128 254 179
0.0992005 -0.194327 0.00253266 128 254 179
0.318225 -0.463632 0.00762171 128 254 179
0.343114 -0.196282 -0.126325 128 254 179
0.342462 -0.483434 -0.0794291 128 254 179
0.143918 -0.443443 0.017957 128 254 179
0.164845 -0.485115 0.00807269 128 254 179
0.324111 -0.484388 -0.0705612 128 254 179
0.259027 -0.396121 0.0117032 128 254 179
0.346024 -0.287104 -0.013298 128 254 179
0.346311 -0.364805 -0.164692 128 254 179
0.355391 -0.473947 -0.0249884 128 254 179
-0.182627 -0.341957 0.0162285 128 254 179
-0.0556801 -0.229835 0.0153552 128 254 179
0.0539177 -0.186823 0.00483579 128 254 179
0.323977 -0.0381379 -0.0128227 128 254 179
0.343114 -0.199373 -0.126884 128 254 179
-0.159263 -0.392969 0.0171604 128 254 179
0.352543 -0.412259 -0.0699965 128 254 179
-0.162117 -0.238804 0.0173736 128 254 179
-0.0540478 -0.329922 0.0182083 128 254 179
0.073111 -0.391013 0.0206861 128 254 179
0.282777 -0.472042 0.0108226 128 254 179
0.130799 -0.128992 -0.000569075 128 254 179
0.349543 -0.328183 -0.0418116 128 254 179
0.252579 -0.298225 0.0048235 128 254 179
-0.274946 -0.325241 0.0161923 128 254 179
-0.175089 -0.242483 0.0173499 128 254 179
0.347771 -0.189804 -0.0406466 128 254 179
-0.236508 -0.298482 0.0160665 128 254 179
0.342631 -0.281125 -0.126007 128 254 179
-0.267271 -0.45449 -0.161575 160 249 161
-0.0605297 -0.479514 -0.0826935 160 249 161
0.0538894 -0.476969 -0.120855 160 249 161
-0.178452 -0.477563 -0.0716383 160 249 161
-0.357933 -0.29689 0.0644075 160 249 161
0.151601 -0.485897 -0.116385 160 249 161
-0.366673 -0.15608 0.0607981 160 249 161
-0.353433 -0.280696 0.0610592 160 249 161
-0.360721 -0.130666 0.0598874 160 249 161
-0.321611 -0.457051 -0.0452474 160 249 161
-0.346563 -0.3093 0.042286 160 249 161
-0.300128 -0.414559 -0.277637 160 249 161
-0.223063 -0.369712 0.0410644 160 249 161
-0.320979 -0.0299269 0.0604171 160 249 161
-0.351051 -0.42617 0.0521766 160 249 161
0.0357428 -0.421199 0.0465019 160 249 161
-0.158442 -0.443812 0.00538279 160 249 161
-0.215717 -0.428052 -0.284902 160 249 161
-0.167053 -0.471436 0.0301128 160 249 161
-0.129243 -0.459769 -0.165682 160 249 161
-0.207457 -0.465669 0.036532 160 249 161
-0.186928 -0.44166 -0.249208 160 249 161
-0.0887114 -0.47386 0.033746 160 249 161
0.0587178 -0.485994 -0.0255207 160 249 161
0.0768561 -0.475361 -0.158376 160 249 161
-0.332147 -0.38101 0.0240421 160 249 161
-0.357229 -0.370312 0.0639478 160 249 161
-0.15097 -0.353596 0.0353947 160 249 161
-0.275056 -0.340249 0.0354458 160 249 161
0.0913042 -0.482076 -0.1045 160 249 161
-0.320763 -0.460456 0.0232111 160 249 161
0.0454009 -0.472042 0.0486909 160 249 161
-0.00990667 -0.465924 0.0475394 160 249 161
-0.379862 0.0480303 0.0565165 160 249 161
-0.130332 -0.390998 0.0591763 160 249 161
-0.120906 -0.432659 -0.241296 160 249 161
-0.304324 -0.459249 -0.0626278 160 249 161
-0.325983 -0.300574 0.0376804 160 249 161
-0.357095 -0.362533 0.0622378 160 249 161
0.196848 -0.490284 0.000984752 160 249 161
-0.335502 -0.328075 0.0567785 160 249 161
-0.354512 -0.375443 0.0395933 160 249 161
-0.36513 -0.207655 0.0625676 160 249 161
-0.230774 -0.457183 -0.161036 160 249 161
0.0808841 -0.486202 -0.0165222 160 249 161
-0.294996 -0.464794 -0.0128998 160 249 161
0.184456 -0.49196 -0.0337052 160 249 161
0.200707 -0.463399 -0.138329 160 249 161
0.0908085 -0.481433 0.0498048 160 249 161
-0.363297 -0.226997 0.0605031 160 249 161
-0.286565 -0.468552 0.0254612 160 249 161
-0.319547 -0.419019 -0.21846 160 249 161
-0.257028 -0.412559 -0.332423 160 249 161
-0.291817 -0.154258 0.0614197 160 249 161
0.160835 -0.488422 -0.0828622 160 249 161
-0.265377 -0.460064 0.0376342 160 249 161
-0.281734 -0.456164 0.0389742 160 249 161
-0.317937 -0.218052 0.0537928 160 249 161
-0.0229073 -0.481377 0.0357882 160 249 161
-0.256176 -0.426525 -0.23651 160 249 161
-0.356895 -0.38765 0.0633721 160 249 161
-0.376645 -0.107145 0.0570639 160 249 161
0.00982389 -0.363559 0.0356252 160 249 161
-0.361516 -0.427096 -0.00315726 160 249 161
-0.377666 -0.0495634 0.0558749 160 249 161
-0.379556 -0.0356344 0.0557579 160 249 161
-0.0541577 -0.460163 -0.166503 160 249 161
-0.297418 -0.158916 0.0606187 160 249 161
-0.197251 -0.408417 -0.339497 160 249 161
-0.369098 -0.440218 -0.0451397 160 249 161
0.148496 -0.483872 0.0523716 160 249 161
0.0644181 -0.481469 0.0505095 160 249 161
-0.357228 -0.359063 0.0611539 160 249 161
-0.243211 -0.47732 0.00775393 160 249 161
-0.373712 -0.0716285 0.0564687 160 249 161
-0.0377986 -0.412987 0.0458002 160 249 161
-0.337585 -0.437182 0.0477473 160 249 161
-0.342995 -0.189294 0.0611689 160 249 161
-0.353853 -0.32025 0.0610629 160 249 161
-0.0376225 -0.482577 -0.0620476 160 249 161
-0.113648 -0.462672 0.0444118 160 249 161
-0.232777 -0.391698 0.0249681 160 249 161
-0.364727 -0.228573 0.0616074 160 249 161
-0.319485 -0.106714 0.0621978 160 249 161
-0.322719 -0.450333 -0.0923522 160 249 161
-0.37259 -0.0141002 0.0562812 160 249 161
-0.357621 -0.304508 0.0641517 160 249 161
-0.377141 -0.0669239 0.0560172 160 249 161
-0.376952 -0.105398 0.0570064 160 249 161
-0.351917 -0.245527 0.0643892 160 249 161
-0.343561 -0.431401 0.0512075 160 249 161
-0.350129 -0.307722 0.0474214 160 249 161
-0.276489 -0.452428 0.0419134 160 249 161
-0.377068 -0.116724 0.057841 160 249 161
-0.351348 -0.358445 0.060588 160 249 161
-0.356484 -0.337426 0.0568554 160 249 161
-0.13278 -0.485908 -0.126612 160 249 161
0.23436 -0.493632 -0.0577394 160 249 161
-0.351456 -0.285907 0.0619051 160 249 161
-0.145313 -0.464932 -0.13807 160 249 161
-0.114664 -0.452319 0.0142201 160 249 161
-0.199078 -0.375705 0.0456809 160 249 161
-0.356833 -0.376713 0.0640077 160 249 161
-0.0172203 -0.481754 0.0347694 160 249 161
-0.203868 -0.310655 0.0578342 160 249 161
-0.258687 -0.449701 0.0484125 160 249 161
-0.253253 -0.454241 -0.169812 160 249 161
-0.14083 -0.463229 0.0427633 160 249 161
0.026291 -0.473894 0.0451112 160 249 161
-0.363133 -0.085254 0.0589729 160 249 161
0.0802833 -0.482764 -0.0821059 160 249 161
-0.355982 -0.454277 -0.00344886 160 249 161
-0.376406 -0.0738372 0.0562318 160 249 161
-0.190034 -0.334486 0.0565989 160 249 161
-0.158322 -0.461678 0.045072 160 249 161
-0.191112 -0.475882 0.0251315 160 249 161
-0.254686 -0.465376 -0.0950817 160 249 161
-0.205295 -0.463843 -0.111318 160 249 161
-0.284 -0.433747 0.0555815 160 249 161
-0.327132 -0.362534 0.0257925 160 249 161
-0.377632 -0.0498875 0.0558743 160 249 161
-0.20228 -0.432598 -0.270145 160 249 161
-0.351208 -0.283452 0.0626667 160 249 161
-0.279865 -0.0773825 0.0633038 160 249 161
-0.356559 -0.325052 0.0651991 160 249 161
-0.128623 -0.272872 0.0229129 160 249 161
-0.361978 -0.435129 -0.0907832 160 249 161
-0.247137 -0.476882 0.00654444 160 249 161
-0.227258 -0.406498 0.0155588 160 249 161
0.104264 -0.480616 0.0582808 160 249 161
-0.33015 -0.131145 0.0610185 160 249 161
-0.334873 -0.115056 0.0614665 160 249 161
-0.0118803 -0.455539 0.0477706 160 249 161
-0.0246744 -0.356255 0.0756904 160 249 161
-0.340166 -0.45082 -0.0513504 160 249 161
0.0237531 -0.306847 0.0266375 160 249 161
-0.358264 -0.402556 0.044021 160 249 161
-0.126042 -0.461939 -0.0144571 160 249 161
-0.352866 -0.399092 0.027928 160 249 161
-0.380498 -0.0224664 0.0562453 160 249 161
-0.125063 -0.447019 0.0535598 160 249 161
-0.374175 0.0307831 0.0553316 160 249 161
-0.350885 -0.438645 0.0412699 160 249 161
-0.352077 -0.335597 0.0600601 160 249 161
-0.355148 -0.452914 -0.0243218 160 249 161
-0.356475 -0.312446 0.0630874 160 249 161
-0.18926 -0.351017 0.0354738 160 249 161
-0.299315 -0.432939 -0.235251 160 249 161
-0.264383 -0.144882 0.0634925 160 249 161
-0.0567 -0.481866 0.0291989 160 249 161
-0.134781 -0.45957 0.0507613 160 249 161
-0.349591 -0.431637 0.0492433 160 249 161
-0.374452 -0.140589 0.0589882 160 249 161
-0.350903 -0.341182 0.059647 160 249 161
-0.360144 -0.445297 0.0233004 160 249 161
-0.34911 -0.155608 0.0606675 160 249 161
-0.36812 0.0162264 0.0551447 160 249 161
-0.11919 -0.465374 0.0383756 160 249 161
0.0111759 -0.305571 0.0268124 160 249 161
-0.265599 -0.419913 -0.305854 160 249 161
-0.368207 -0.442322 0.0140959 160 249 161
-0.21978 -0.420929 -0.311884 160 249 161
-0.371891 -0.158843 0.0598462 160 249 161
-0.25 -0.469453 0.0279062 160 249 161
-0.347523 -0.353434 0.0594365 160 249 161
-0.35112 -0.302785 0.0604984 160 249 161
-0.381501 0.00923104 0.0568482 160 249 161
-0.370352 -0.169357 0.0601848 160 249 161
-0.281699 -0.0500185 0.0630803 160 249 161
-0.361684 -0.239788 0.0611894 160 249 161
-0.212148 -0.37331 0.0403027 160 249 161
-0.346679 -0.416384 -0.0104013 160 249 161
-0.341658 -0.335586 0.0350712 160 249 161
-0.0373066 -0.313738 0.0752702 160 249 161
-0.371896 -0.169262 0.0595814 160 249 161
-0.144591 -0.36849 0.0381549 160 249 161
-0.341503 -0.411911 -0.0066832 160 249 161
-0.126003 -0.468097 -0.0340137 160 249 161
-0.201844 -0.152776 0.0674252 160 249 161
-0.370937 -0.438041 -0.0142473 160 249 161
0.146498 -0.485003 0.0280626 160 249 161
-0.298952 -0.420476 0.0564453 160 249 161
-0.210851 -0.446376 -0.223236 160 249 161
-0.176861 -0.440532 -0.255093 160 249 161
-0.317795 -0.420051 -0.149716 160 249 161
-0.0653511 -0.472159 -0.12026 160 249 161
-0.196403 -0.19618 0.0640772 160 249 161
-0.367869 -0.112172 0.058958 160 249 161
-0.201811 -0.346126 0.0521746 160 249 161
-0.244125 -0.0280817 0.0662416 160 249 161
0.0469338 -0.482185 0.0157154 160 249 161
-0.2993 -0.331118 0.0329953 160 249 161
-0.380109 -0.0381783 0.0563903 160 249 161
-0.267764 -0.429457 -0.159222 160 249 161
-0.274631 -0.123867 0.0649353 160 249 161
-0.320768 -0.405596 0.0571461 160 249 161
-0.358461 -0.268678 0.064086 160 249 161
-0.364931 -0.227643 0.0629875 160 249 161
-0.303016 -0.444567 -0.172746 160 249 161
-0.299891 -0.375641 0.0150622 160 249 161
-0.137217 -0.206888 0.0681015 160 249 161
-0.265225 -0.3174 0.0430698 160 249 161
-0.35686 -0.252488 0.0612277 160 249 161
-0.200016 -0.431168 -0.275126 160 249 161
-0.141527 -0.384972 0.059088 160 249 161
-0.378352 -0.0466508 0.0558111 160 249 161
-0.284379 -0.41868 0.0553344 160 249 161
-0.0984434 -0.489298 -0.091533 160 249 161
-0.262155 -0.41405 -0.324535 160 249 161
-0.358838 -0.254328 0.0616089 160 249 161
-0.359382 -0.419228 0.0495809 160 249 161
-0.367189 -0.432955 -0.00786382 160 249 161
-0.246496 -0.468724 0.0292934 160 249 161
-0.359019 -0.0829816 0.0589771 160 249 161
-0.36236 -0.214391 0.0610122 160 249 161
-0.340735 -0.052181 0.0591297 160 249 161
-0.342345 -0.448563 0.0311562 160 249 161
-0.261193 -0.461955 0.0362541 160 249 161
-0.256514 -0.46036 -0.12684 160 249 161
-0.336068 -0.420577 -0.156145 160 249 161
-0.337099 -0.316771 0.0363364 160 249 161
-0.320397 -0.199843 0.0554717 160 249 161
-0.339676 -0.428315 0.0542269 160 249 161
-0.158193 -0.438325 0.0521692 160 249 161
0.010901 -0.484232 -0.0185524 160 249 161
-0.354134 -0.401124 0.0614108 160 249 161
-0.343683 -0.279797 0.0500254 160 249 161
-0.356149 -0.0127584 0.0557998 160 249 161
-0.213813 -0.368936 0.0436602 160 249 161
-0.35262 -0.266763 0.0651366 160 249 161
-0.151091 -0.478157 -0.072047 160 249 161
-0.359159 -0.243125 0.0611573 160 249 161
-0.333258 -0.429136 -0.201801 160 249 161
-0.373362 -0.149347 0.058231 160 249 161
-0.0313639 -0.466747 -0.141155 160 249 161
-0.273669 -0.026879 0.0631998 160 249 161
-0.175218 -0.309238 0.0614345 160 249 161
-0.0235067 -0.496774 -0.0777538 160 249 161
-0.0236246 -0.377512 0.0392738 160 249 161
-0.372167 -0.110702 0.0574954 160 249 161
-0.359938 -0.249132 0.0615416 160 249 161
0.17933 -0.487734 -0.122332 160 249 161
-0.281707 -0.0128179 0.0628447 160 249 161
-0.026066 -0.474641 -0.108258 160 249 161
-0.180409 -0.369128 0.0525488 160 249 161
-0.347971 -0.436141 -0.13857 160 249 161
-0.313047 -0.391783 0.0558344 160 249 161
-0.265595 -0.415683 -0.317594 160 249 161
-0.0334502 -0.475461 -0.103798 160 249 161
-0.35158 -0.413375 0.0166628 160 249 161
-0.214032 -0.481385 -0.00422466 160 249 161
-0.14316 -0.461021 0.04694 160 249 161
-0.365618 -0.425273 0.0269667 160 249 161
-0.360881 0.05625 0.0550446 160 249 161
-0.263383 -0.0442522 0.0639165 160 249 161
-0.272506 -0.449126 -0.191079 160 249 161
-0.365269 0.0225176 0.0547615 160 249 161
-0.356859 -0.346894 0.0555799 160 249 161
-0.321357 -0.0796195 0.0618372 160 249 161
-0.234356 -0.331689 0.0485214 160 249 161
-0.0553318 -0.481315 -0.065366 160 249 161
-0.310645 -0.415211 -0.278294 160 249 161
-0.283276 -0.367501 0.0252832 160 249 161
0.213715 -0.475473 -0.12063 160 249 161
-0.343291 -0.424923 -0.153746 160 249 161
-0.247179 -0.419055 -0.318977 160 249 161
-0.208885 -0.44546 -0.22783 160 249 161
-0.0386401 -0.362158 0.0370108 160 249 161
0.0700216 -0.470991 0.0515871 160 249 161
-0.357997 -0.280182 0.0648754 160 249 161
-0.375325 -0.127894 0.0575971 160 249 161
-0.172919 -0.459554 0.0487436 160 249 161
-0.0892075 -0.473851 0.0337209 160 249 161
0.0915345 -0.485393 -0.00235113 160 249 161
-0.191608 -0.463862 -0.195159 160 249 161
-0.372926 -0.132152 0.058234 160 249 161
0.203123 -0.490105 0.00771338 160 249 161
-0.3196 -0.318512 0.0331112 160 249 161
-0.356626 -0.321997 0.0635061 160 249 161
-0.356176 -0.430105 0.047335 160 249 161
0.184121 -0.491877 -0.0324239 160 249 161
-0.352255 -0.354137 0.0609814 160 249 161
-0.291298 -0.0782868 0.0628221 160 249 161
0.173671 -0.491302 -0.0497078 160 249 161
-0.296687 -0.439237 -0.213745 160 249 161
0.120582 -0.480081 0.0606223 160 249 161
-0.313015 -0.250888 0.0472974 160 249 161
0.114297 -0.483906 -0.101775 160 249 161
-0.165552 -0.425115 -0.261226 160 249 161
-0.129011 -0.477516 -0.0786782 160 249 161
0.0163586 -0.467143 0.0445604 160 249 161
-0.1641 -0.436432 0.0517175 160 249 161
-0.367324 -0.434862 -0.0513011 160 249 161
-0.361932 -0.0776337 0.0585536 160 249 161
-0.33035 -0.215788 0.0555461 160 249 161
-0.358518 -0.376365 0.055098 160 249 161
-0.16786 -0.148839 0.0702989 160 249 161
-0.200155 -0.33522 0.0548015 160 249 161
-0.361533 -0.411387 0.0245683 160 249 161
0.16589 -0.482625 0.0662256 160 249 161
-0.332337 -0.269124 0.046016 160 249 161
-0.0807692 -0.34703 0.0340464 160 249 161
-0.00516573 -0.469248 0.043609 160 249 161
-0.343835 -0.369159 0.0319801 160 249 161
-0.128564 -0.292785 0.0656664 160 249 161
-0.190378 -0.149357 0.0686001 160 249 161
0.0196197 -0.501457 -0.058398 160 249 161
0.205685 -0.475279 -0.126713 160 249 161
-0.342095 -0.316366 0.0590059 160 249 161
0.204571 -0.488238 0.0306285 160 249 161
-0.297177 -0.083991 0.0626278 160 249 161
-0.238017 -0.471078 -0.0768006 160 249 161
-0.325951 -0.375215 0.0567653 160 249 161
-0.376406 -0.123877 0.058146 160 249 161
0.0629229 -0.483843 -0.0643122 160 249 161
0.0271294 -0.493329 -0.00610081 160 249 161
0.163173 -0.484667 0.0437222 160 249 161
-0.276309 -0.468499 -0.0176335 160 249 161
-0.371407 0.0257509 0.0552577 160 249 161
-0.303042 -0.420598 -0.143786 160 249 161
-0.0574385 -0.479752 0.0326879 160 249 161
-0.350182 -0.377106 0.0594746 160 249 161
-0.19153 -0.0803657 0.0732602 160 249 161
0.0961232 -0.484263 0.0161898 160 249 161
-0.230877 -0.478725 -0.0261911 160 249 161
-0.356029 -0.292462 0.0624939 160 249 161
-0.362035 0.054605 0.0549838 160 249 161
-0.367456 -0.198477 0.0601889 160 249 161
-0.347251 -0.418422 -0.0282276 160 249 161
-0.237351 -0.169007 0.0638525 160 249 161
-0.158071 -0.475976 0.0276387 160 249 161
-0.148271 -0.258777 0.0653999 160 249 161
0.137255 -0.485038 0.0229461 160 249 161
-0.271565 -0.454209 -0.160558 160 249 161
-0.202623 -0.278328 0.0609943 160 249 161
-0.197552 -0.368971 0.0481058 160 249 161
-0.242954 -0.476521 -0.0296773 160 249 161
-0.188698 -0.43172 0.00773208 160 249 161
-0.208569 -0.416415 -0.321148 160 249 161
-0.27995 -0.470236 0.0244456 160 249 161
-0.347299 -0.339959 0.0368891 160 249 161
0.0643455 -0.385841 0.0394034 160 249 161
-0.269207 -0.47176 0.0239234 160 249 161
-0.325676 -0.436824 -0.173053 160 249 161
-0.270326 -0.31256 0.0465739 160 249 161
-0.310569 -0.179742 0.0577529 160 249 161
-0.369175 -0.0160305 0.0560712 160 249 161
-0.355315 -0.404463 0.0612565 160 249 161
-0.147303 -0.461181 0.0464498 160 249 161
-0.155658 -0.469479 -0.11201 160 249 161
-0.269133 -0.0807934 0.065079 160 249 161
-0.337695 -0.136907 0.060566 160 249 161
-0.254148 -0.0765795 0.068093 160 249 161
-0.379351 -0.0161552 0.0563792 160 249 161
-0.224362 -0.455727 0.0466719 160 249 161
-0.0826326 -0.447027 -0.206103 160 249 161
-0.317545 -0.445781 0.0422135 160 249 161
-0.351567 -0.120862 0.0604848 160 249 161
-0.359495 -0.407169 0.051842 160 249 161
-0.300975 -0.0769995 0.0625394 160 249 161
-0.297509 -0.412732 0.0559291 160 249 161
-0.36441 -0.421956 0.0189009 160 249 161
-0.367022 -0.441339 -0.051233 160 249 161
-0.304329 -0.462893 0.0123952 160 249 161
-0.377747 -0.0560793 0.0558852 160 249 161
0.114713 -0.484024 0.0306215 160 249 161
-0.340077 -0.103821 0.0614326 160 249 161
-0.268986 -0.444785 -0.216788 160 249 161
-0.229441 -0.214386 0.0614033 160 249 161
-0.357345 -0.371691 0.0609579 160 249 161
-0.0194832 -0.390894 0.0413897 160 249 161
-0.306538 -0.0371327 0.0619855 160 249 161
-0.306689 -0.414805 -0.272196 160 249 161
-0.0859572 -0.419988 0.0522845 160 249 161
-0.37934 -0.010943 0.0564467 160 249 161
-0.340689 -0.434361 -0.163152 160 249 161
-0.288214 -0.321884 0.0396748 160 249 161
-0.247696 -0.0598027 0.0679921 160 249 161
-0.357535 0.0506962 0.0551038 160 249 161
-0.354381 0.0381227 0.0552139 160 249 161
-0.0245015 -0.483504 0.00621505 160 249 161
-0.362228 -0.420755 0.0185339 160 249 161
-0.26863 -0.41062 -0.330858 160 249 161
-0.167548 -0.480082 -0.160807 160 249 161
-0.118894 -0.432787 -0.240887 160 249 161
-0.318096 -0.0546002 0.0615726 160 249 161
0.0201704 -0.484037 -0.0119349 160 249 161
-0.364959 -0.0373725 0.0563278 160 249 161
0.00876972 -0.465652 -0.156163 160 249 161
-0.304881 -0.463139 -0.00401525 160 249 161
-0.365329 -0.0292515 0.0560721 160 249 161
-0.0770992 -0.427944 0.0496005 160 249 161
-0.317557 -0.429042 -0.226797 160 249 161
-0.26762 -0.309233 0.0427009 160 249 161
-0.371322 -0.00261789 0.0558806 160 249 161
-0.268431 -0.185293 0.0599622 160 249 161
-0.215379 -0.222503 0.0622523 160 249 161
-0.17766 -0.48191 -0.0395837 160 249 161
-0.351972 -0.287065 0.0628161 160 249 161
0.0144129 -0.456015 0.0503842 160 249 161
-0.378566 -0.087641 0.0568354 160 249 161
-0.161535 -0.469398 0.0318505 160 249 161
-0.325916 -0.452775 0.0343016 160 249 161
-0.103972 -0.48921 -0.16016 160 249 161
-0.136727 -0.457705 -0.177157 160 249 161
-0.188 -0.473612 -0.0878443 160 249 161
-0.0153569 -0.464015 0.0486536 160 249 161
-0.184371 -0.473121 -0.140252 160 249 161
-0.29801 -0.433645 0.0568983 160 249 161
-0.173736 -0.348198 0.0578635 160 249 161
-0.354885 -0.259939 0.0649894 160 249 161
-0.2253 -0.439513 0.0518642 160 249 161
-0.335759 -0.112021 0.061532 160 249 161
0.0871877 -0.425627 0.0492974 160 249 161
0.0150522 -0.484318 -0.0210789 160 249 161
-0.268116 -0.0873844 0.065966 160 249 161
-0.358791 -0.413519 0.053061 160 249 161
-0.022292 -0.428388 0.0607033 160 249 161
-0.332419 -0.379153 0.0570581 160 249 161
-0.248954 -0.4211 -0.311849 160 249 161
-0.373925 -0.119167 0.057651 160 249 161
-0.335508 -0.422062 0.059473 160 249 161
-0.356997 -0.330964 0.0646603 160 249 161
-0.35331 -0.305548 0.0554824 160 249 161
0.000732385 -0.484383 -0.0317903 160 249 161
-0.356884 -0.344395 0.0566309 160 249 161
-0.288817 -0.438558 0.0545451 160 249 161
-0.369246 -0.176322 0.0603225 160 249 161
-0.367927 -0.0837383 0.0580952 160 249 161
-0.335685 -0.39613 0.0582458 160 249 161
-0.357594 -0.413784 0.0208754 160 249 161
0.158978 -0.485354 -0.133603 160 249 161
-0.370607 -0.162221 0.0600171 160 249 161
-0.233396 -0.314885 0.0536688 160 249 161
-0.232563 -0.448783 0.0520594 160 249 161
-0.254689 -0.0939633 0.0673615 160 249 161
-0.177085 -0.428871 0.0148653 160 249 161
-0.380625 -0.00313394 0.0565845 160 249 161
-0.266406 -0.109634 0.0659911 160 249 161
-0.151785 -0.182858 0.0681756 160 249 161
-0.332748 -0.308675 0.036763 160 249 161
-0.194766 -0.396275 0.0431508 160 249 161
-0.338797 -0.168225 0.060468 160 249 161
-0.0592739 -0.475461 -0.103602 160 249 161
-0.21108 -0.468263 -0.111009 160 249 161
-0.286971 -0.143371 0.0628614 160 249 161
0.210164 -0.492176 -0.075645 160 249 161
-0.25532 -0.416394 -0.00540368 160 249 161
0.165344 -0.488506 0.0081464 160 249 161
-0.325428 -0.0332201 0.0600602 160 249 161
-0.343412 -0.450806 0.0255099 160 249 161
-0.329817 -0.424499 -0.209456 160 249 161
-0.0668029 -0.491549 -0.0748381 160 249 161
-0.358085 -0.446606 -0.0464668 160 249 161
-0.0940613 -0.409355 0.0573976 160 249 161
-0.209117 -0.390065 0.0342092 160 249 161
0.0349402 -0.440686 0.0503049 160 249 161
-0.35605 -0.294819 0.0624977 160 249 161
0.197549 -0.486503 0.0427652 160 249 161
-0.34646 -0.379794 0.058888 160 249 161
-0.378374 -0.0450674 0.055837 160 249 161
-0.0957094 -0.346108 0.0664236 160 249 161
-0.355158 -0.165957 0.0612958 160 249 161
-0.121686 -0.411736 0.0453495 160 249 161
-0.364971 -0.227089 0.0629745 160 249 161
0.14013 -0.484707 0.0294359 160 249 161
-0.1308 -0.467175 -0.0353593 160 249 161
-0.32982 -0.166528 0.0608193 160 249 161
-0.369368 0.0347812 0.0548122 160 249 161
-0.0767279 -0.484232 -0.00285719 160 249 161
-0.35595 -0.251989 0.0612932 160 249 161
0.00145131 -0.483268 -0.0203968 160 249 161
-0.283395 -0.0714449 0.0630984 160 249 161
-0.0732326 -0.467736 -0.138419 160 249 161
-0.199266 -0.432422 -0.271867 160 249 161
0.221249 -0.488674 0.0355547 160 249 161
-0.378099 -0.00525979 0.0564939 160 249 161
-0.354959 -0.401469 0.061885 160 249 161
0.000250973 -0.484285 -0.0269527 160 249 161
-0.355749 -0.353705 0.0633223 160 249 161
-0.364644 -0.439569 0.0231332 160 249 161
-0.119938 -0.280697 0.0237513 160 249 161
-0.00944738 -0.470861 0.0421117 160 249 161
0.115119 -0.486215 -0.0655407 160 249 161
-0.327081 -0.263217 0.0461527 160 249 161
-0.0973675 -0.440135 -0.223267 160 249 161
-0.37578 0.0472425 0.0555269 160 249 161
-0.0360466 -0.456437 0.0416565 160 249 161
-0.186722 -0.469969 -0.170041 160 249 161
-0.203521 -0.416552 0.0472867 160 249 161
-0.0949178 -0.214384 0.0715466 160 249 161
-0.377661 -0.054385 0.0559107 160 249 161
-0.188682 -0.37666 0.0484223 160 249 161
-0.254265 -0.465865 0.0329472 160 249 161
-0.152434 -0.474799 0.0294857 160 249 161
-0.304027 -0.165016 0.059675 160 249 161
-0.347359 -0.291755 0.0494396 160 249 161
-0.23945 -0.416487 0.00122527 160 249 161
-0.118587 -0.372094 0.0648361 160 249 161
-0.338722 -0.249907 0.0545143 160 249 161
-0.356526 -0.317815 0.0632858 160 249 161
0.0775466 -0.486228 -0.0477775 160 249 161
-0.0437553 -0.254739 0.019537 160 249 161
-0.194706 -0.425153 0.0491119 160 249 161
-0.296554 -0.425584 0.0565505 160 249 161
-0.379384 -0.0130034 0.0564291 160 249 161
-0.354727 -0.274665 0.0652929 160 249 161
-0.258636 -0.359965 0.0462396 160 249 161
-0.356011 -0.445669 0.0254105 160 249 161
-0.361063 -0.439232 0.0302323 160 249 161
-0.21302 -0.398376 0.0442051 160 249 161
-0.376676 -0.0995729 0.0568557 160 249 161
-0.0780945 -0.348663 -0.288827 192 234 140
0.343472 -0.329839 -0.143659 192 234 140
0.352911 -0.0690641 -0.132263 192 234 140
0.362399 -0.434132 -0.141109 192 234 140
0.21137 -0.47892 -0.0876175 192 234 140
0.346941 -0.44725 -0.151432 192 234 140
0.34379 -0.293057 -0.121998 192 234 140
0.338796 -0.147116 -0.179411 192 234 140
0.35181 -0.175078 -0.111607 192 234 140
0.190364 -0.47913 -0.20876 192 234 140
0.367332 -0.477291 -0.0769257 192 234 140
0.35538 -0.0383358 -0.11486 192 234 140
-0.0525485 -0.394106 -0.322323 192 234 140
0.35119 -0.121869 -0.13179 192 234 140
0.287854 -0.482442 -0.207901 192 234 140
0.345938 -0.307684 -0.154464 192 234 140
0.239094 -0.443827 -0.246035 192 234 140
0.118332 -0.441719 -0.313178 192 234 140
-0.176351 -0.404224 -0.146196 192 234 140
0.350174 -0.108853 -0.183438 192 234 140
0.350197 -0.487331 -0.107068 192 234 140
0.373339 -0.479269 -0.161106 192 234 140
0.349139 -0.188466 -0.11623 192 234 140
0.348749 -0.356104 -0.0862729 192 234 140
0.369704 -0.450561 -0.113777 192 234 140
0.374833 -0.463345 -0.120109 192 234 140
-0.000726933 -0.350677 -0.413016 192 234 140
-0.0451228 -0.35198 -0.396314 192 234 140
-0.10742 -0.333262 -0.364799 192 234 140
0.190051 -0.479204 -0.139509 192 234 140
0.359665 -0.488807 -0.132948 192 234 140
0.0374284 -0.370504 -0.379755 192 234 140
0.343526 -0.309233 -0.163043 192 234 140
0.0517325 -0.354344 -0.319096 192 234 140
0.350676 -0.214234 -0.102824 192 234 140
0.348375 -0.127374 -0.139432 192 234 140
-0.0631439 -0.340157 -0.392943 192 234 140
-0.0392628 -0.363761 -0.373235 192 234 140
0.311811 -0.487664 -0.0690474 192 234 140
0.299747 -0.307622 -0.138065 192 234 140
0.343044 -0.283269 -0.162446 192 234 140
0.343581 -0.26907 -0.13372 192 234 140
-0.0954285 -0.385127 -0.310784 192 234 140
0.319096 -0.482303 -0.1922 192 234 140
0.360101 -0.228253 -0.148002 192 234 140
-0.108531 -0.433046 -0.113405 192 234 140
0.367635 -0.489155 -0.123113 192 234 140
0.344864 -0.325107 -0.108671 192 234 140
0.196353 -0.478769 -0.106487 192 234 140
0.246695 -0.431264 -0.229277 192 234 140
0.0715468 -0.411455 -0.36289 192 234 140
0.370109 -0.462455 -0.0978485 192 234 140
0.344608 -0.281712 -0.150613 192 234 140
-0.0579862 -0.340175 -0.408224 192 234 140
0.357743 -0.25543 -0.148854 192 234 140
0.335652 -0.488124 -0.1009 192 234 140
-0.0731301 -0.331271 -0.404873 192 234 140
0.28638 -0.423339 -0.182913 192 234 140
0.348774 -0.256666 -0.10262 192 234 140
0.34383 -0.274295 -0.165813 192 234 140
0.348837 -0.155656 -0.129255 192 234 140
0.362494 -0.242445 -0.134202 192 234 140
0.282098 -0.428409 -0.190999 192 234 140
0.330494 -0.477522 -0.193938 192 234 140
-0.189499 -0.381528 -0.208821 192 234 140
0.346512 -0.25395 -0.112608 192 234 140
0.304403 -0.488008 -0.115329 192 234 140
0.195132 -0.383929 -0.242647 192 234 140
-0.0448331 -0.33192 -0.405537 192 234 140
-0.0236299 -0.343993 -0.372672 192 234 140
0.342543 -0.0962938 -0.169414 192 234 140
0.347246 -0.344527 -0.152957 192 234 140
-0.0828708 -0.386656 -0.323082 192 234 140
0.229534 -0.334232 -0.156091 192 234 140
0.374321 -0.472895 -0.108482 192 234 140
-0.0738417 -0.330639 -0.391035 192 234 140
0.0404039 -0.469766 -0.0812548 192 234 140
-0.159947 -0.366936 -0.284528 192 234 140
0.341898 -0.329663 -0.134304 192 234 140
-0.0933931 -0.440973 -0.0665969 192 234 140
0.344955 -0.247947 -0.161619 192 234 140
0.25289 -0.483098 -0.121848 192 234 140
0.203372 -0.36648 -0.23327 192 234 140
0.294746 -0.486339 -0.17548 192 234 140
0.341737 -0.264183 -0.170414 192 234 140
0.344956 -0.357549 -0.104725 192 234 140
0.349601 -0.157972 -0.125205 192 234 140
0.0707747 -0.360556 -0.255798 192 234 140
-0.076844 -0.318222 -0.440289 192 234 140
0.341191 -0.353153 -0.158842 192 234 140
0.348828 -0.31493 -0.0932045 192 234 140
0.283238 -0.484818 -0.0965052 192 234 140
-0.0537723 -0.330943 -0.434662 192 234 140
-0.0626957 -0.394751 -0.319023 192 234 140
0.318763 -0.489477 -0.1245 192 234 140
0.00334872 -0.381924 -0.385861 192 234 140
-0.0559289 -0.32852 -0.416572 192 234 140
-0.0178257 -0.458886 -0.0982551 192 234 140
0.314746 -0.47945 -0.20209 192 234 140
-0.0404904 -0.357489 -0.25803 192 234 140
0.0245301 -0.45999 -0.193298 192 234 140
-0.01008 -0.415754 -0.301516 192 234 140
0.0920751 -0.426309 -0.340792 192 234 140
0.33852 -0.489005 -0.141877 192 234 140
0.346555 -0.327622 -0.152209 192 234 140
0.347689 -0.0522901 -0.153563 192 234 140
0.356479 -0.257328 -0.131711 192 234 140
0.358306 -0.220147 -0.152234 192 234 140
0.342356 -0.0572626 -0.168714 192 234 140
0.348913 -0.187279 -0.171772 192 234 140
-0.00823711 -0.451832 -0.188995 192 234 140
-0.00739931 -0.376018 -0.392615 192 234 140
-0.0383142 -0.355996 -0.414456 192 234 140
0.292251 -0.486827 -0.12158 192 234 140
0.358299 -0.490582 -0.118147 192 234 140
0.369478 -0.448144 -0.132362 192 234 140
-0.0627908 -0.324063 -0.422209 192 234 140
0.0322403 -0.36099 -0.266264 192 234 140
0.342826 -0.188081 -0.175062 192 234 140
0.345791 -0.334212 -0.142998 192 234 140
0.34332 -0.152026 -0.145465 192 234 140
0.343392 -0.181515 -0.164858 192 234 140
0.342735 -0.150184 -0.165405 192 234 140
0.35192 -0.306834 -0.13784 192 234 140
0.31322 -0.28529 -0.125756 192 234 140
0.35042 -0.359959 -0.144705 192 234 140
0.358314 -0.490264 -0.120985 192 234 140
0.125843 -0.465985 -0.241769 192 234 140
0.303084 -0.486529 -0.0646269 192 234 140
0.348221 -0.235199 -0.164686 192 234 140
0.342351 -0.153308 -0.173116 192 234 140
0.015387 -0.350828 -0.353384 192 234 140
0.353366 -0.216779 -0.126739 192 234 140
0.352776 -0.488211 -0.137774 192 234 140
-0.141301 -0.369275 -0.299362 192 234 140
0.345992 -0.420534 -0.144133 192 234 140
0.348346 -0.412332 -0.104989 192 234 140
0.333099 -0.317697 -0.144521 192 234 140
0.100007 -0.394107 -0.326563 192 234 140
0.246995 -0.400084 -0.204099 192 234 140
-0.131928 -0.337972 -0.361635 192 234 140
0.344847 -0.173046 -0.141592 192 234 140
0.30798 -0.468556 -0.198472 192 234 140
0.346861 -0.21675 -0.122803 192 234 140
-0.0280474 -0.454705 -0.116457 192 234 140
0.342011 -0.126235 -0.173377 192 234 140
0.277746 -0.483244 -0.0629477 192 234 140
0.332464 -0.489038 -0.0983466 192 234 140
0.34517 -0.380578 -0.136743 192 234 140
0.116614 -0.353267 -0.288353 192 234 140
0.375376 -0.48146 -0.128978 192 234 140
0.302888 -0.487774 -0.114348 192 234 140
0.345839 -0.422734 -0.144575 192 234 140
-0.110107 -0.433109 -0.107882 192 234 140
0.0495191 -0.362026 -0.21214 192 234 140
0.359043 -0.430565 -0.111922 192 234 140
-0.050522 -0.332754 -0.432798 192 234 140
0.35777 -0.469541 -0.0593208 192 234 140
0.31755 -0.44585 -0.172433 192 234 140
-0.093298 -0.429491 -0.157792 192 234 140
-0.0212362 -0.433816 -0.246643 192 234 140
0.346969 -0.170654 -0.133395 192 234 140
0.0710409 -0.436261 -0.280156 192 234 140
0.216437 -0.347223 -0.190322 192 234 140
0.348963 -0.349661 -0.142122 192 234 140
0.346685 -0.317149 -0.151384 192 234 140
-0.0342312 -0.357755 -0.283234 192 234 140
0.0857819 -0.41576 -0.35649 192 234 140
0.313386 -0.295673 -0.131377 192 234 140
-0.0151487 -0.356458 -0.300233 192 234 140
0.347004 -0.387073 -0.0798374 192 234 140
-0.078131 -0.315103 -0.428733 192 234 140
0.346591 -0.395211 -0.152228 192 234 140
-0.0879949 -0.397812 -0.277576 192 234 140
0.312928 -0.337904 -0.157842 192 234 140
0.341852 -0.489189 -0.0516649 192 234 140
0.214656 -0.462648 -0.264905 192 234 140
0.34219 -0.152619 -0.174149 192 234 140
0.342971 -0.165123 -0.167191 192 234 140
0.220327 -0.443801 -0.263952 192 234 140
0.343105 -0.188978 -0.14918 192 234 140
0.355089 -0.231533 -0.155423 192 234 140
0.343369 -0.115826 -0.153567 192 234 140
0.338218 -0.447357 -0.15546 192 234 140
0.203762 -0.417039 -0.254148 192 234 140
0.27756 -0.48357 -0.209083 192 234 140
-0.101128 -0.334116 -0.338805 192 234 140
0.0991262 -0.463953 -0.234666 192 234 140
-0.17904 -0.377537 -0.235479 192 234 140
-0.188789 -0.405823 -0.122149 192 234 140
0.343143 -0.339271 -0.138884 192 234 140
0.0795823 -0.394795 -0.351513 192 234 140
0.137519 -0.435511 -0.317707 192 234 140
0.358083 -0.421545 -0.142064 192 234 140
-0.18625 -0.381877 -0.211438 192 234 140
0.178014 -0.398461 -0.262016 192 234 140
0.343382 -0.487684 -0.0766903 192 234 140
-0.0744944 -0.428701 -0.186015 192 234 140
0.35808 -0.289164 -0.136096 192 234 140
0.366949 -0.447825 -0.106214 192 234 140
0.307602 -0.484549 -0.189377 192 234 140
-0.0789791 -0.322177 -0.441435 192 234 140
-0.00771794 -0.383212 -0.366135 192 234 140
-0.0163271 -0.448446 -0.194557 192 234 140
-0.0814591 -0.318209 -0.447244 192 234 140
0.00515972 -0.35527 -0.316371 192 234 140
-0.0718267 -0.332593 -0.388449 192 234 140
0.344378 -0.26442 -0.151631 192 234 140
-0.0959979 -0.371994 -0.338919 192 234 140
0.344378 -0.252679 -0.154446 192 234 140
0.15194 -0.474027 -0.223671 192 234 140
0.113281 -0.418442 -0.338647 192 234 140
-0.0663058 -0.446878 -0.0856105 192 234 140
0.341931 -0.105869 -0.158376 192 234 140
0.342147 -0.111718 -0.171737 192 234 140
0.35816 -0.117721 -0.102227 192 234 140
0.0873837 -0.356044 -0.31795 192 234 140
0.331911 -0.343677 -0.148399 192 234 140
0.345945 -0.0775869 -0.154557 192 234 140
0.34297 -0.13335 -0.150555 192 234 140
-0.00943804 -0.355702 -0.307736 192 234 140
0.352674 -0.226035 -0.0932197 192 234 140
-0.0700369 -0.352279 -0.286003 192 234 140
0.376296 -0.481329 -0.145214 192 234 140
0.0184184 -0.361332 -0.263982 192 234 140
0.302988 -0.487767 -0.113896 192 234 140
-0.064808 -0.335417 -0.383808 192 234 140
0.0508716 -0.360803 -0.262979 192 234 140
-0.0696388 -0.411992 -0.255508 192 234 140
0.357761 -0.0798905 -0.107634 192 234 140
0.145475 -0.455258 -0.291098 192 234 140
-0.0300356 -0.362998 -0.392825 192 234 140
-0.0933956 -0.329054 -0.368382 192 234 140
0.351769 -0.421149 -0.15196 192 234 140
0.00810163 -0.358553 -0.291431 192 234 140
0.342378 -0.146665 -0.170394 192 234 140
-0.0557751 -0.327858 -0.436195 192 234 140
0.357433 -0.111273 -0.108751 192 234 140
0.0868571 -0.360529 -0.205635 192 234 140
0.344755 -0.26287 -0.163761 192 234 140
0.322065 -0.453578 -0.174238 192 234 140
0.26819 -0.375827 -0.184613 192 234 140
0.359275 -0.47936 -0.076578 192 234 140
0.360812 -0.248369 -0.144636 192 234 140
0.347914 -0.20052 -0.124554 192 234 140
0.00183196 -0.383214 -0.378095 192 234 140
0.287437 -0.485375 -0.0968474 192 234 140
0.354677 -0.306352 -0.14167 192 234 140
0.348214 -0.364899 -0.149645 192 234 140
0.350664 -0.483078 -0.0631703 192 234 140
0.295841 -0.327357 -0.159341 192 234 140
0.236061 -0.34637 -0.200589 192 234 140
0.36592 -0.439374 -0.123676 192 234 140
0.0357581 -0.351348 -0.358709 192 234 140
0.0494793 -0.355245 -0.350134 192 234 140
-0.024379 -0.42876 -0.265713 192 234 140
-0.00628556 -0.348225 -0.415706 192 234 140
0.361863 -0.456251 -0.0610146 192 234 140
0.336652 -0.489256 -0.0799117 192 234 140
0.34382 -0.472449 -0.170572 192 234 140
0.346851 -0.224935 -0.119038 192 234 140
0.363971 -0.489944 -0.0958421 192 234 140
0.206842 -0.434436 -0.267216 192 234 140
-0.0588459 -0.33975 -0.412607 192 234 140
0.110714 -0.379539 -0.306806 192 234 140
0.375798 -0.470232 -0.139951 192 234 140
-0.0518369 -0.344325 -0.421138 192 234 140
0.351881 -0.0195161 -0.130313 192 234 140
-0.0233059 -0.358155 -0.414818 192 234 140
0.115613 -0.465324 -0.239695 192 234 140
0.0172992 -0.354951 -0.317246 192 234 140
0.221159 -0.363292 -0.218613 192 234 140
0.21387 -0.353896 -0.223345 192 234 140
0.266274 -0.447438 -0.223654 192 234 140
0.356914 -0.206699 -0.156391 192 234 140
-0.0047729 -0.364652 -0.409115 192 234 140
-0.119178 -0.325805 -0.368493 192 234 140
0.0123196 -0.466173 -0.0940821 192 234 140
0.35483 -0.0196013 -0.113164 192 234 140
0.174833 -0.478143 -0.146633 192 234 140
0.311721 -0.487866 -0.0832192 192 234 140
-0.0560417 -0.355232 -0.271133 192 234 140
0.320116 -0.488231 -0.137719 192 234 140
0.346943 -0.399487 -0.141639 192 234 140
0.342385 -0.0783992 -0.162995 192 234 140
0.0132469 -0.390066 -0.368915 192 234 140
0.356836 -0.190275 -0.158501 192 234 140
0.343543 -0.271273 -0.14563 192 234 140
-0.0399591 -0.356332 -0.407663 192 234 140
-0.114805 -0.370436 -0.32669 192 234 140
0.110525 -0.403417 -0.327633 192 234 140
0.345345 -0.148717 -0.141218 192 234 140
-0.00435166 -0.359094 -0.28428 192 234 140
-0.0773886 -0.319384 -0.445696 192 234 140
0.353036 -0.0592109 -0.129967 192 234 140
0.350075 -0.150162 -0.176787 192 234 140
0.224458 -0.351962 -0.215712 192 234 140
0.328149 -0.432016 -0.156774 192 234 140
0.308904 -0.481041 -0.20197 192 234 140
0.316822 -0.314503 -0.146778 192 234 140
-0.0627573 -0.337252 -0.377363 192 234 140
0.344731 -0.229777 -0.139137 192 234 140
0.334215 -0.414358 -0.146629 192 234 140
-0.104053 -0.334779 -0.312723 192 234 140
-0.115492 -0.403761 -0.220436 192 234 140
0.113173 -0.357701 -0.266689 192 234 140
0.362818 -0.227443 -0.14244 192 234 140
0.317527 -0.474108 -0.194391 192 234 140
0.356681 -0.152855 -0.103638 192 234 140
0.343101 -0.0544553 -0.173968 192 234 140
0.362351 -0.486198 -0.0851047 192 234 140
0.0199823 -0.467238 -0.059561 192 234 140
0.182457 -0.478419 -0.127006 192 234 140
0.0345708 -0.35175 -0.362764 192 234 140
0.347963 -0.199374 -0.125267 192 234 140
0.341787 -0.366629 -0.131161 192 234 140
0.343213 -0.19417 -0.149615 192 234 140
0.294398 -0.485684 -0.0738806 192 234 140
-0.0368799 -0.456641 -0.0596804 192 234 140
0.279208 -0.471048 -0.229216 192 234 140
0.184419 -0.478703 -0.208246 192 234 140
0.342866 -0.198792 -0.172889 192 234 140
0.341705 -0.164761 -0.152157 192 234 140
0.347987 -0.463674 -0.159506 192 234 140
0.0112367 -0.440609 -0.259566 192 234 140
0.28694 -0.478331 -0.219658 192 234 140
0.359554 -0.159534 -0.146085 192 234 140
0.343243 -0.285698 -0.143691 192 234 140
-0.122288 -0.380394 -0.288285 192 234 140
0.368358 -0.475505 -0.0801994 192 234 140
0.343669 -0.19371 -0.168299 192 234 140
-0.0141654 -0.422143 -0.293272 192 234 140
0.361707 -0.438845 -0.147756 192 234 140
-0.0245034 -0.340976 -0.423446 192 234 140
0.347714 -0.203767 -0.124823 192 234 140
0.193794 -0.435538 -0.280331 192 234 140
0.342804 -0.175401 -0.159103 192 234 140
0.190103 -0.406933 -0.256305 192 234 140
0.341883 -0.163981 -0.154479 192 234 140
0.343366 -0.280984 -0.131916 192 234 140
0.350247 -0.406838 -0.121346 192 234 140
0.376018 -0.476014 -0.122146 192 234 140
0.204367 -0.415828 -0.252076 192 234 140
0.15789 -0.389764 -0.274216 192 234 140
-0.0400824 -0.356034 -0.408986 192 234 140
0.131214 -0.353428 -0.186551 192 234 140
0.345895 -0.421783 -0.144451 192 234 140
0.341892 -0.107535 -0.165312 192 234 140
-0.0577406 -0.446329 -0.120695 192 234 140
0.241095 -0.48355 -0.155283 192 234 140
-0.00662585 -0.460149 -0.119083 192 234 140
-0.0281106 -0.457286 -0.0834465 192 234 140
0.339562 -0.0663547 -0.187642 192 234 140
0.344678 -0.285434 -0.150575 192 234 140
0.342647 -0.173537 -0.157791 192 234 140
0.276687 -0.315384 -0.142662 192 234 140
0.360105 -0.172153 -0.142807 192 234 140
0.374135 -0.461537 -0.135221 192 234 140
0.353253 -0.156798 -0.169836 192 234 140
0.316712 -0.487472 -0.16124 192 234 140
-0.114464 -0.389956 -0.268966 192 234 140
0.347436 -0.175226 -0.132133 192 234 140
0.347728 -0.191452 -0.131982 192 234 140
0.344299 -0.0791898 -0.158365 192 234 140
0.351979 -0.258398 -0.156162 192 234 140
0.343259 -0.0631854 -0.173405 192 234 140
0.179233 -0.465832 -0.271158 192 234 140
0.336986 -0.319496 -0.143685 192 234 140
0.0461056 -0.457401 -0.229613 192 234 140
0.351794 -0.288483 -0.136668 192 234 140
0.340004 -0.487231 -0.100741 192 234 140
0.241224 -0.482896 -0.142355 192 234 140
0.347913 -0.18734 -0.131431 192 234 140
-0.0437149 -0.426391 -0.240048 192 234 140
0.251669 -0.480781 -0.0638698 192 234 140
-0.165971 -0.397366 -0.183356 192 234 140
0.3551 -0.481678 -0.0727782 192 234 140
0.110936 -0.416052 -0.340091 192 234 140
0.163104 -0.409577 -0.285094 192 234 140
0.355941 -0.15072 -0.108351 192 234 140
0.122111 -0.353372 -0.287867 192 234 140
-0.183252 -0.379937 -0.221888 192 234 140
0.370446 -0.463406 -0.148591 192 234 140
-0.0249831 -0.352571 -0.322604 192 234 140
0.344181 -0.383915 -0.101515 192 234 140
0.306462 -0.364683 -0.160745 192 234 140
0.346067 -0.433484 -0.147223 192 234 140
-0.157624 -0.361452 -0.303652 192 234 140
0.350145 -0.299331 -0.0893925 192 234 140
0.363432 -0.485317 -0.158133 192 234 140
0.343503 -0.287476 -0.161307 192 234 140
0.360429 -0.433135 -0.0407423 192 234 140
-0.120417 -0.331318 -0.365967 192 234 140
0.344989 -0.367445 -0.103576 192 234 140
0.349164 -0.182266 -0.172252 192 234 140
0.353848 -0.48491 -0.158884 192 234 140
0.364367 -0.444317 -0.0997177 192 234 140
0.303707 -0.487621 -0.107255 192 234 140
0.270415 -0.486051 -0.176639 192 234 140
0.247192 -0.482063 -0.226756 192 234 140
0.0728446 -0.360483 -0.255596 192 234 140
0.2738 -0.484111 -0.187201 192 234 140
0.351135 -0.264549 -0.0903254 192 234 140
0.342337 -0.32443 -0.131178 192 234 140
0.344775 -0.258171 -0.161543 192 234 140
0.131616 -0.352887 -0.184956 192 234 140
0.0805084 -0.360254 -0.252747 192 234 140
