ply
format ascii 1.0
comment Created by Open3D
element vertex 1158
property double x
property double y
property double z
property uchar red
property uchar green
property uchar blue
end_header
0.171095 -0.152297 -0.250403 192 234 140
0.283275 -0.170862 -0.249645 192 234 140
0.186672 -0.43285 -0.253404 192 234 140
0.168108 -0.209722 -0.252427 192 234 140
0.218967 0.0412267 -0.247743 192 234 140
0.167598 -0.152501 -0.250322 192 234 140
0.136683 -0.0877123 -0.247994 192 234 140
0.161358 -0.413853 -0.252619 192 234 140
-0.186507 -0.244782 -0.244094 192 234 140
0.122034 -0.31798 -0.250788 192 234 140
0.208037 -0.0168206 -0.248881 192 234 140
-0.0530101 -0.485104 -0.228689 192 234 140
0.268754 -0.368964 -0.253707 192 234 140
0.166553 -0.148312 -0.250183 192 234 140
0.299653 -0.226384 -0.240448 192 234 140
-0.159285 -0.1645 -0.244551 192 234 140
0.142212 -0.37306 -0.251904 192 234 140
0.13188 0.0555671 -0.246778 192 234 140
0.0445263 -0.13043 -0.244405 192 234 140
0.257613 0.0196161 -0.249277 192 234 140
0.174839 -0.484376 -0.240432 192 234 140
0.306123 -0.0765309 -0.21294 192 234 140
0.193649 -0.290628 -0.253227 192 234 140
0.309134 -0.0621545 -0.0825078 192 234 140
0.238633 -0.252957 -0.252086 192 234 140
0.298915 0.0354551 -0.226813 192 234 140
-0.221412 -0.314052 -0.242332 192 234 140
0.300987 -0.41673 -0.241537 192 234 140
0.263638 -0.101601 -0.250754 192 234 140
-0.182201 -0.202256 -0.24428 192 234 140
0.0613067 0.0731683 -0.24384 192 234 140
-0.26975 -0.426707 -0.237788 192 234 140
0.199991 -0.192449 -0.251758 192 234 140
-0.114401 -0.208806 -0.244781 192 234 140
0.271825 -0.147995 -0.250542 192 234 140
-0.15133 -0.477628 -0.243188 192 234 140
0.301337 0.0525613 -0.161628 192 234 140
0.202063 -0.436176 -0.253744 192 234 140
0.307314 -0.0374709 -0.0625631 192 234 140
0.276111 -0.00677587 -0.250158 192 234 140
0.306108 -0.379619 -0.236748 192 234 140
0.193504 0.0654534 -0.247146 192 234 140
0.13308 -0.379744 -0.251533 192 234 140
0.0632112 0.0442716 -0.244273 192 234 140
0.127112 -0.154244 -0.248406 192 234 140
0.31257 -0.466864 -0.140174 192 234 140
0.203513 -0.398335 -0.253783 192 234 140
0.118301 -0.461392 -0.250728 192 234 140
0.316912 -0.239095 -0.0531005 192 234 140
0.313763 -0.339212 0.0243616 192 234 140
0.248347 -0.125591 -0.250553 192 234 140
0.310481 -0.0895289 -0.0778384 192 234 140
0.115305 -0.195111 -0.248942 192 234 140
0.228175 -0.262771 -0.25226 192 234 140
0.204467 -0.346756 -0.253762 192 234 140
0.300531 -0.0411675 -0.238285 192 234 140
0.303949 -0.0516779 -0.228488 192 234 140
0.224681 0.0302041 -0.247998 192 234 140
-0.389704 -0.234512 -0.236673 224 210 119
-0.179743 -0.0721154 -0.237458 224 210 119
-0.475278 -0.368577 -0.239505 224 210 119
-0.266348 -0.0150549 -0.242754 224 210 119
-0.269145 -0.16032 -0.233798 224 210 119
-0.236642 -0.101398 -0.234215 224 210 119
0.0146154 -0.129889 -0.242384 224 210 119
-0.302633 -0.403169 -0.231361 224 210 119
-0.357701 -0.248107 -0.234713 224 210 119
0.0578319 -0.276858 -0.238802 224 210 119
-0.379586 -0.13446 -0.259908 224 210 119
-0.491531 -0.260142 -0.240617 224 210 119
-0.194679 0.0233985 -0.238925 224 210 119
0.0494843 -0.0908859 -0.244491 224 210 119
-0.20992 0.0458218 -0.241906 224 210 119
-0.455256 -0.13822 -0.239271 224 210 119
-0.266015 -0.15854 -0.233767 224 210 119
-0.357658 -0.19864 -0.235665 224 210 119
-0.349687 -0.00559309 -0.237522 224 210 119
-0.34266 -0.193721 -0.235065 224 210 119
-0.260219 0.0113694 -0.23805 224 210 119
-0.463476 -0.38665 -0.237027 224 210 119
0.0401373 -0.283083 -0.239251 224 210 119
-0.0707721 -0.0710379 -0.238948 224 210 119
-0.0614556 -0.421102 -0.238514 224 210 119
-0.26486 -0.241573 -0.233948 224 210 119
-0.0379796 -0.263858 -0.237786 224 210 119
-0.386105 0.0597234 -0.243775 224 210 119
-0.00207803 0.0208022 -0.247532 224 210 119
0.0235378 -0.167924 -0.241824 224 210 119
-0.246447 -0.383072 -0.23307 224 210 119
-0.494244 -0.158193 -0.241849 224 210 119
-0.160015 -0.343446 -0.236047 224 210 119
-0.279922 -0.198637 -0.234181 224 210 119
-0.280928 -0.437616 -0.231781 224 210 119
-0.312098 -0.439341 -0.230526 224 210 119
-0.342057 -0.0780492 -0.23369 224 210 119
-0.200298 -0.217078 -0.256357 224 210 119
-0.404562 -0.112983 -0.263373 224 210 119
0.00613298 -0.167736 -0.241285 224 210 119
-0.481521 0.0345539 -0.252877 224 210 119
-0.218482 -0.205731 -0.236174 224 210 119
-0.274624 -0.343593 -0.234104 224 210 119
-0.449565 -0.440075 -0.234835 224 210 119
-0.451928 -0.32985 -0.23608 224 210 119
0.111956 -0.285499 -0.235735 224 210 119
-0.0409722 -0.403368 -0.23913 224 210 119
-0.147768 -0.0334403 -0.237324 224 210 119
-0.253151 -0.239118 -0.257864 224 210 119
0.0123234 -0.0683907 -0.245302 224 210 119
-0.49733 -0.116282 -0.24489 224 210 119
-0.284634 -0.0603561 -0.23299 224 210 119
-0.293489 -0.172028 -0.233802 224 210 119
-0.44179 -0.100382 -0.238571 224 210 119
-0.267948 -0.040596 -0.246062 224 210 119
-0.381834 -0.0585071 -0.236447 224 210 119
-0.247639 0.0486762 -0.239079 224 210 119
-0.34219 -0.402203 -0.231835 224 210 119
-0.174835 -0.169664 -0.238475 224 210 119
-0.369954 -0.147139 -0.260869 224 210 119
0.0262836 -0.35574 -0.239079 224 210 119
-0.125281 0.0404492 -0.241599 224 210 119
-0.43186 -0.401494 -0.232167 224 210 119
-0.328133 -0.330381 -0.233315 224 210 119
-0.182315 -0.357846 -0.235487 224 210 119
-0.172009 0.0400479 -0.24012 224 210 119
-0.0942536 -0.0400871 -0.238828 224 210 119
-0.044943 -0.148851 -0.239035 224 210 119
-0.270291 0.0318886 -0.239603 224 210 119
-0.093073 -0.316935 -0.237689 224 210 119
-0.134733 -0.332393 -0.236861 224 210 119
-0.323486 -0.136833 -0.259632 224 210 119
-0.334779 -0.207981 -0.234637 224 210 119
-0.436843 -0.386429 -0.233345 224 210 119
-0.338082 -0.0405575 -0.250644 224 210 119
-0.152918 -0.0686005 -0.235735 224 210 119
-0.497049 -0.0813627 -0.245284 224 210 119
-0.219388 -0.114435 -0.234389 224 210 119
-0.17075 -0.132168 -0.238632 224 210 119
-0.0224418 -0.214484 -0.238155 224 210 119
-0.359326 -0.276049 -0.234244 224 210 119
-0.238589 -0.428932 -0.230302 224 210 119
-0.251575 -0.0217134 -0.242009 224 210 119
-0.030963 -0.156825 -0.238946 224 210 119
-0.344294 -0.299567 -0.23371 224 210 119
-0.0490052 -0.253664 -0.237518 224 210 119
-0.444429 -0.117285 -0.238426 224 210 119
-0.00599359 -0.292891 -0.238932 224 210 119
-0.0264955 -0.266939 -0.23806 224 210 119
-0.268937 -0.203204 -0.234098 224 210 119
-0.339937 -0.316107 -0.233587 224 210 119
-0.424862 -0.0464208 -0.239166 224 210 119
-0.454597 -0.00905778 -0.242246 224 210 119
-0.280558 0.0576305 -0.240514 224 210 119
-0.137825 -0.286994 -0.254323 224 210 119
-0.265507 0.0462846 -0.240426 224 210 119
-0.368447 -0.403443 -0.232492 224 210 119
-0.142722 -0.2361 -0.237034 224 210 119
-0.420375 -0.147538 -0.237169 224 210 119
-0.316732 -0.187284 -0.233994 224 210 119
0.0941437 -0.0335616 -0.244878 224 210 119
-0.17909 -0.109111 -0.237397 224 210 119
-0.490529 -0.411497 -0.240871 224 210 119
-0.311495 0.0529134 -0.24024 224 210 119
-0.399975 0.0445863 -0.242928 224 210 119
-0.322109 -0.269532 -0.255715 224 210 119
-0.241374 0.018054 -0.239439 224 210 119
-0.36158 -0.401755 -0.23264 224 210 119
-0.237318 -0.281352 -0.234965 224 210 119
-0.447885 0.015 -0.242824 224 210 119
-0.255997 -0.42388 -0.231962 224 210 119
-0.49342 -0.124532 -0.24275 224 210 119
-0.396905 -0.102914 -0.262744 224 210 119
-0.134826 -0.280427 -0.237295 224 210 119
-0.302632 -0.29341 -0.233129 224 210 119
-0.301003 -0.162885 -0.2336 224 210 119
-0.227293 -0.190043 -0.235538 224 210 119
-0.359125 -0.288285 -0.234166 224 210 119
-0.0948188 -0.0916761 -0.240442 224 210 119
-0.213225 -0.285792 -0.235754 224 210 119
-0.186431 -0.385633 -0.233331 224 210 119
-0.198582 -0.130984 -0.235926 224 210 119
-0.12647 -0.311725 -0.236829 224 210 119
-0.165475 -0.0859064 -0.241183 224 210 119
-0.296991 -0.316385 -0.233725 224 210 119
-0.181731 -0.299379 -0.235808 224 210 119
-0.485881 -0.297627 -0.240862 224 210 119
-0.21218 -0.165609 -0.23616 224 210 119
-0.0623913 -0.16025 -0.238626 224 210 119
-0.32553 -0.421634 -0.221815 224 210 119
-0.00156467 -0.0907388 -0.243489 224 210 119
-0.181923 -0.138398 -0.237716 224 210 119
-0.292495 -0.17129 -0.233789 224 210 119
-0.0764841 0.0075703 -0.242661 224 210 119
-0.420284 -0.302236 -0.234944 224 210 119
-0.167949 -0.0520799 -0.234089 224 210 119
-0.369475 -0.000324935 -0.247669 224 210 119
-0.224673 -0.193594 -0.23575 224 210 119
-0.00496616 -0.0780878 -0.243973 224 210 119
-0.375532 -0.306083 -0.24845 224 210 119
-0.234903 -0.305206 -0.23509 224 210 119
-0.378654 0.00814542 -0.24718 224 210 119
-0.291285 -0.10535 -0.232363 224 210 119
-0.18589 -0.350256 -0.235732 224 210 119
-0.197522 -0.284127 -0.236091 224 210 119
-0.209336 -0.379526 -0.22939 224 210 119
-0.242683 -0.0542809 -0.234884 224 210 119
-0.29654 0.0179647 -0.238003 224 210 119
-0.369923 -0.0602353 -0.257208 224 210 119
-0.448989 -0.198559 -0.237367 224 210 119
-0.41873 -0.300646 -0.234985 224 210 119
-0.475253 -0.39363 -0.238741 224 210 119
-0.318688 -0.187841 -0.234005 224 210 119
-0.322486 -0.289458 -0.232998 224 210 119
-0.208872 -0.189539 -0.251984 224 210 119
0.0621521 -0.232171 -0.239611 224 210 119
-0.382782 -0.0544682 -0.258743 224 210 119
-0.111164 -0.262708 -0.237249 224 210 119
0.0234175 -0.208965 -0.240826 224 210 119
0.0352224 -0.0784525 -0.245286 224 210 119
-0.146606 -0.113045 -0.241429 224 210 119
-0.436788 0.0633359 -0.245883 224 210 119
-0.280529 -0.107667 -0.232652 224 210 119
-0.101994 -0.128135 -0.240726 224 210 119
0.0452195 -0.0627856 -0.246012 224 210 119
0.054044 -0.0325598 -0.246775 224 210 119
-0.349251 -0.291536 -0.233752 224 210 119
-0.0105774 -0.237995 -0.239376 224 210 119
0.129913 -0.0206814 -0.243178 224 210 119
-0.260296 -0.279495 -0.234226 224 210 119
-0.457549 0.011188 -0.243303 224 210 119
-0.275204 -0.0597873 -0.248825 224 210 119
-0.356346 -0.440586 -0.23152 224 210 119
-0.164801 -0.0734918 -0.238522 224 210 119
0.011641 -0.12468 -0.24238 224 210 119
-0.258007 -0.162418 -0.251998 224 210 119
-0.203799 -0.279696 -0.235951 224 210 119
-0.243724 -0.373078 -0.233374 224 210 119
-0.317924 -0.393968 -0.231592 224 210 119
-0.319019 -0.270463 -0.232907 224 210 119
-0.344169 -0.100732 -0.233549 224 210 119
-0.420041 0.0472174 -0.244621 224 210 119
-0.102507 0.0314629 -0.243743 224 210 119
-0.0651509 -0.0250382 -0.243242 224 210 119
-0.0265397 0.0417105 -0.246087 224 210 119
-0.496721 -0.0141103 -0.247105 224 210 119
-0.311729 -0.0999005 -0.232136 224 210 119
-0.396728 -0.104985 -0.262511 224 210 119
-0.257945 -0.267848 -0.234421 224 210 119
-0.494305 -0.26671 -0.24094 224 210 119
-0.359042 -0.316191 -0.234749 224 210 119
-0.275213 -0.0954953 -0.251896 224 210 119
-0.363529 -0.307548 -0.234465 224 210 119
-0.392882 -0.136307 -0.235781 224 210 119
-0.103875 0.0387681 -0.243304 224 210 119
-0.0324088 -0.00916053 -0.245009 224 210 119
-0.0956559 0.0127088 -0.243676 224 210 119
-0.00247918 -0.361051 -0.239617 224 210 119
-0.265021 -0.0682471 -0.233098 224 210 119
-0.0922384 0.0281943 -0.244097 224 210 119
-0.472677 -0.135674 -0.240703 224 210 119
-0.317966 -0.0968522 -0.232295 224 210 119
-0.419341 -0.395676 -0.23132 224 210 119
-0.243607 -0.441298 -0.229049 224 210 119
-0.418508 -0.309139 -0.23472 224 210 119
-0.29484 -0.280339 -0.252296 224 210 119
-0.218837 -0.0958614 -0.234757 224 210 119
-0.351139 -0.374773 -0.233321 224 210 119
-0.44469 -0.29113 -0.2357 224 210 119
-0.283099 -0.0836745 -0.251032 224 210 119
-0.224889 -0.317575 -0.235825 224 210 119
-0.424657 -0.0064078 -0.240642 224 210 119
-0.267411 -0.0801624 -0.232945 224 210 119
-0.383114 -0.375447 -0.232514 224 210 119
-0.228851 -0.381349 -0.233594 224 210 119
-0.319144 -0.377854 -0.232032 224 210 119
-0.26289 -0.369349 -0.233686 224 210 119
-0.250196 -0.0693606 -0.246366 224 210 119
0.125633 -0.0272841 -0.243154 224 210 119
-0.447026 -0.0552773 -0.240181 224 210 119
-0.21825 -0.194621 -0.23614 224 210 119
-0.247265 -0.00336658 -0.24017 224 210 119
-0.349259 -0.273792 -0.233708 224 210 119
-0.203318 -0.112001 -0.235255 224 210 119
-0.184489 -0.315154 -0.236349 224 210 119
-0.276453 -0.00414485 -0.236745 224 210 119
0.053954 -0.318968 -0.239308 224 210 119
-0.250333 -0.425742 -0.214129 224 210 119
0.105158 -0.0721939 -0.242945 224 210 119
-0.404082 -0.412442 -0.231293 224 210 119
0.00648407 -0.239557 -0.239986 224 210 119
0.072791 -0.223213 -0.239414 224 210 119
-0.441188 -0.0358409 -0.240328 224 210 119
-0.470966 -0.116847 -0.241139 224 210 119
-0.219251 -0.111517 -0.234467 224 210 119
-0.24214 -0.257906 -0.234863 224 210 119
-0.297784 -0.306228 -0.240209 224 210 119
-0.446964 -0.279544 -0.235994 224 210 119
-0.402896 -0.359098 -0.232545 224 210 119
-0.215535 -0.295091 -0.23555 224 210 119
0.125361 -0.329889 -0.235435 224 210 119
-0.188823 -0.160899 -0.237586 224 210 119
-0.196542 0.0470697 -0.241827 224 210 119
0.109945 -0.0936522 -0.241256 224 210 119
-0.451893 -0.252946 -0.236598 224 210 119
-0.438097 -0.0749112 -0.239083 224 210 119
-0.189094 -0.0161889 -0.239343 224 210 119
0.0377058 -0.190062 -0.24137 224 210 119
0.0965254 -0.166596 -0.239957 224 210 119
-0.402147 -0.402917 -0.231265 224 210 119
-0.0132068 0.0121972 -0.247144 224 210 119
-0.333807 -0.134921 -0.260518 224 210 119
-0.313606 -0.0250064 -0.247436 224 210 119
-0.0636297 0.0232594 -0.244379 224 210 119
-0.251551 -0.203961 -0.234427 224 210 119
-0.393235 -0.312248 -0.234062 224 210 119
-0.0180793 0.0441893 -0.246312 224 210 119
-0.246125 -0.0125721 -0.237412 224 210 119
0.0179122 -0.153274 -0.24202 224 210 119
-0.425773 -0.235271 -0.236236 224 210 119
-0.483922 0.0332446 -0.246702 224 210 119
-0.377017 -0.208332 -0.236289 224 210 119
-0.181929 -0.0687422 -0.237454 224 210 119
-0.200405 -0.428128 -0.229753 224 210 119
-0.325651 0.0478153 -0.24019 224 210 119
-0.408865 0.0437729 -0.2435 224 210 119
-0.032667 -0.427198 -0.238326 224 210 119
-0.0173209 -0.281597 -0.238692 224 210 119
-0.446961 -0.272607 -0.236117 224 210 119
-0.479196 -0.0179284 -0.244284 224 210 119
-0.216204 -0.0690073 -0.235314 224 210 119
-0.0288295 -0.397628 -0.239094 224 210 119
-0.196213 -0.408996 -0.231292 224 210 119
-0.173756 -0.0283962 -0.236023 224 210 119
-0.328378 -0.1597 -0.233386 224 210 119
-0.253727 -0.306591 -0.23458 224 210 119
0.0657039 -0.383665 -0.236741 224 210 119
-0.457278 -0.117127 -0.239827 224 210 119
-0.310419 0.0227876 -0.24049 224 210 119
-0.378821 -0.242972 -0.236283 224 210 119
0.123072 0.0433231 -0.244268 224 210 119
-0.354015 -0.270078 -0.234031 224 210 119
-0.215039 -0.110505 -0.246759 224 210 119
-0.29455 -0.250129 -0.233327 224 210 119
-0.270365 -0.179997 -0.234204 224 210 119
0.00539847 -0.258553 -0.239416 224 210 119
-0.133883 0.0109747 -0.241838 224 210 119
-0.202473 -0.0795032 -0.235535 224 210 119
-0.291702 -0.320526 -0.23841 224 210 119
-0.412724 -0.023368 -0.258184 224 210 119
-0.283004 -0.419934 -0.232064 224 210 119
-0.372341 -0.315186 -0.234365 224 210 119
-0.230339 -0.0727436 -0.234776 224 210 119
-0.464714 -0.193433 -0.238265 224 210 119
-0.338439 -0.322439 -0.233667 224 210 119
0.0371853 0.0424887 -0.244819 224 210 119
-0.296805 -0.00452781 -0.236101 224 210 119
-0.222221 -0.166064 -0.247956 224 210 119
0.0119859 -0.138852 -0.242164 224 210 119
-0.194692 0.0271913 -0.24139 224 210 119
-0.234972 -0.217725 -0.23525 224 210 119
0.130541 -0.322956 -0.235086 224 210 119
-0.229349 -0.39822 -0.232992 224 210 119
-0.491501 -0.305457 -0.241679 224 210 119
-0.440266 -0.167461 -0.237328 224 210 119
-0.0247002 0.0244958 -0.246382 224 210 119
-0.479043 0.0445294 -0.251659 224 210 119
0.124174 -0.252757 -0.235231 224 210 119
-0.450975 -0.0671423 -0.240183 224 210 119
-0.423315 -0.369848 -0.232633 224 210 119
-0.363476 -0.334255 -0.242342 224 210 119
0.0496774 -0.28902 -0.239135 224 210 119
-0.38544 0.0584431 -0.243239 224 210 119
-0.227256 -0.205676 -0.235685 224 210 119
-0.13863 -0.270133 -0.237327 224 210 119
-0.227639 -0.316645 -0.235768 224 210 119
-0.00766841 -0.0646265 -0.244422 224 210 119
-0.457798 0.0466465 -0.245724 224 210 119
-0.0907326 -0.421848 -0.237592 224 210 119
0.0329522 -0.10907 -0.243489 224 210 119
-0.272532 0.00386481 -0.240632 224 210 119
-0.252964 -0.34367 -0.232482 224 210 119
0.116328 -0.389455 -0.234463 224 210 119
-0.270227 -0.407084 -0.232528 224 210 119
-0.451673 -0.23112 -0.23696 224 210 119
-0.0445591 0.0447211 -0.245468 224 210 119
-0.438385 -0.363394 -0.23395 224 210 119
-0.0921125 -0.313242 -0.237379 224 210 119
-0.138857 -0.0427845 -0.240401 224 210 119
0.0173639 -0.413844 -0.237269 224 210 119
-0.219333 -0.148313 -0.235036 224 210 119
0.0224782 -0.0435618 -0.246297 224 210 119
-0.213416 -0.188436 -0.252119 224 210 119
-0.268389 -0.09257 -0.23289 224 210 119
-0.154964 -0.29122 -0.250371 224 210 119
0.0346683 0.0371898 -0.244753 224 210 119
0.0571609 0.0434752 -0.245409 224 210 119
-0.475379 -0.0145089 -0.244114 224 210 119
-0.278123 -0.00061667 -0.241535 224 210 119
-0.468727 -0.286819 -0.238156 224 210 119
-0.0824101 -0.161219 -0.238634 224 210 119
0.0752518 0.0199244 -0.243446 224 210 119
-0.357842 -0.0767022 -0.257585 224 210 119
-0.282484 -0.094128 -0.232533 224 210 119
-0.49744 -0.00878154 -0.248221 224 210 119
-0.259746 -0.266241 -0.255402 224 210 119
-0.417795 -0.26953 -0.23584 224 210 119
-0.239643 -0.338012 -0.234758 224 210 119
-0.0955507 -0.0359353 -0.241713 224 210 119
-0.419771 -0.276573 -0.235577 224 210 119
-0.142552 0.0220466 -0.24269 224 210 119
0.125738 -0.104396 -0.239463 224 210 119
-0.492495 -0.071085 -0.244204 224 210 119
-0.110942 0.0464521 -0.242887 224 210 119
-0.0527376 -0.314119 -0.239284 224 210 119
-0.199184 -0.133175 -0.246743 224 210 119
-0.112534 -0.157153 -0.238873 224 210 119
-0.200873 -0.250103 -0.235411 224 210 119
-0.248052 -0.105439 -0.24912 224 210 119
-0.0727806 -0.012446 -0.241352 224 210 119
-0.12161 0.0387654 -0.242834 224 210 119
-0.422722 0.0620301 -0.244963 224 210 119
-0.211777 -0.293692 -0.235655 224 210 119
-0.350519 -0.228232 -0.235039 224 210 119
-0.481276 -0.188623 -0.240048 224 210 119
-0.383344 -0.347313 -0.243945 224 210 119
-0.193987 -0.0582313 -0.238332 224 210 119
-0.0439934 0.0473832 -0.24513 224 210 119
-0.27992 -0.0997877 -0.252809 224 210 119
-0.243477 0.0159065 -0.239233 224 210 119
-0.419781 -0.180525 -0.236954 224 210 119
-0.307239 -0.14347 -0.23304 224 210 119
-0.231157 -0.167943 -0.248758 224 210 119
-0.1885 -0.0961428 -0.236604 224 210 119
-0.414586 -0.31054 -0.234688 224 210 119
-0.127735 -0.254773 -0.254976 224 210 119
-0.135305 -0.136949 -0.239427 224 210 119
-0.131996 0.0405238 -0.242632 224 210 119
-0.314967 0.0146423 -0.237905 224 210 119
-0.395923 -0.113877 -0.261442 224 210 119
-0.292051 -0.378491 -0.23263 224 210 119
-0.341534 -0.317205 -0.233936 224 210 119
-0.468918 -0.056092 -0.242 224 210 119
-0.219726 -0.198312 -0.254809 224 210 119
-0.403545 -0.131778 -0.236287 224 210 119
-0.404908 -0.442074 -0.232449 224 210 119
-0.498011 -0.0578992 -0.246508 224 210 119
-0.205336 -0.333175 -0.236084 224 210 119
-0.391904 -0.140472 -0.235755 224 210 119
-0.315663 0.0447876 -0.240502 224 210 119
-0.410277 -0.053893 -0.238135 224 210 119
-0.25645 0.000680506 -0.237483 224 210 119
-0.283576 -0.285839 -0.248532 224 210 119
-0.232277 -0.390916 -0.233192 224 210 119
-0.432297 0.0383412 -0.2435 224 210 119
-0.0435299 -0.144659 -0.239226 224 210 119
-0.316347 -0.128172 -0.232399 224 210 119
-0.169724 -0.0271303 -0.236316 224 210 119
-0.23766 -0.101847 -0.234172 224 210 119
-0.248567 -0.0253256 -0.242002 224 210 119
0.0185742 -0.169918 -0.241621 224 210 119
-0.27826 -0.374073 -0.233022 224 210 119
0.0287379 -0.120623 -0.242922 224 210 119
-0.288974 -0.0579666 -0.233008 224 210 119
-0.335947 -0.316226 -0.233418 224 210 119
-0.452233 -0.312558 -0.23622 224 210 119
-0.343186 -0.189856 -0.235035 224 210 119
-0.216608 -0.377332 -0.234204 224 210 119
-0.207342 -0.0858558 -0.245246 224 210 119
-0.246783 -0.38548 -0.232997 224 210 119
-0.385082 0.0319765 -0.243203 224 210 119
0.0396097 0.0141615 -0.243081 224 210 119
-0.471228 -0.417836 -0.237578 224 210 119
-0.0920317 -0.0517056 -0.241243 224 210 119
-0.00420727 0.0420185 -0.24508 224 210 119
-0.279642 -0.0426422 -0.234005 224 210 119
-0.497484 -0.0409 -0.246346 224 210 119
-0.489853 -0.227566 -0.240492 224 210 119
-0.228879 -0.358842 -0.234325 224 210 119
-0.204514 0.0478535 -0.239921 224 210 119
-0.287865 0.00855109 -0.237502 224 210 119
-0.205286 -0.347303 -0.231401 224 210 119
-0.492047 -0.0281645 -0.244999 224 210 119
-0.165845 0.0455389 -0.241502 224 210 119
-0.306655 -0.262783 -0.23306 224 210 119
-0.486097 -0.179383 -0.240589 224 210 119
-0.45982 -0.366677 -0.237028 224 210 119
-0.477889 0.0559395 -0.248328 224 210 119
0.0830292 -0.337794 -0.237268 224 210 119
0.0680154 0.0459741 -0.248508 224 210 119
-0.18379 -0.145186 -0.237782 224 210 119
-0.0872395 -0.0229746 -0.24258 224 210 119
0.035071 -0.240608 -0.240113 224 210 119
0.0332762 -0.0114897 -0.247642 224 210 119
-0.189176 -0.298364 -0.241503 224 210 119
-0.436825 0.00371744 -0.24159 224 210 119
-0.154861 -0.203033 -0.237822 224 210 119
-0.199483 -0.0965195 -0.235732 224 210 119
-0.304009 -0.181853 -0.233943 224 210 119
-0.152563 -0.260399 -0.237058 224 210 119
-0.422997 -0.286484 -0.235281 224 210 119
-0.0757789 -0.0940027 -0.240647 224 210 119
-0.135654 -0.263852 -0.23735 224 210 119
0.0609216 -0.0212979 -0.246867 224 210 119
0.0344713 -0.0916972 -0.244456 224 210 119
-0.284268 -0.18427 -0.233953 224 210 119
0.0280999 -0.184372 -0.241522 224 210 119
-0.214109 -0.36936 -0.234529 224 210 119
-0.292118 0.0581997 -0.240669 224 210 119
-0.436794 -0.0152506 -0.258694 224 210 119
0.108861 -0.182918 -0.238635 224 210 119
-0.176457 -0.114988 -0.244398 224 210 119
0.137006 -0.38098 -0.233744 224 210 119
0.0617055 -0.302374 -0.238556 224 210 119
-0.452437 -0.0859595 -0.239913 224 210 119
-0.150947 -0.129584 -0.239265 224 210 119
-0.307334 -0.246864 -0.23344 224 210 119
0.138969 -0.342631 -0.2344 224 210 119
-0.0238758 -0.20695 -0.237837 224 210 119
-0.35143 -0.321666 -0.234439 224 210 119
-0.493761 -0.119583 -0.24293 224 210 119
-0.271334 -0.0482892 -0.233804 224 210 119
-0.16239 -0.0758302 -0.238609 224 210 119
-0.30752 0.0592129 -0.241211 224 210 119
0.0683314 -0.126042 -0.242671 224 210 119
-0.166549 -0.0752873 -0.238385 224 210 119
-0.129645 0.0462438 -0.242787 224 210 119
0.00602907 0.0434664 -0.245151 224 210 119
-0.450796 0.0494169 -0.245543 224 210 119
-0.463565 -0.100424 -0.240649 224 210 119
-0.293183 -0.314429 -0.239219 224 210 119
0.143882 -0.350816 -0.23398 224 210 119
-0.434408 -0.0213714 -0.240459 224 210 119
-0.444301 -0.0626638 -0.239787 224 210 119
-0.137111 -0.116409 -0.23981 224 210 119
-0.335904 -0.0421141 -0.234546 224 210 119
-0.254687 -0.361731 -0.230482 224 210 119
-0.232414 0.0452115 -0.24137 224 210 119
-0.378641 -0.0422953 -0.23683 224 210 119
-0.444639 -0.0262293 -0.240905 224 210 119
0.00671707 -0.291211 -0.239094 224 210 119
-0.388009 -0.0597759 -0.260379 224 210 119
-0.390433 0.0475201 -0.242932 224 210 119
-0.276656 -0.2807 -0.233857 224 210 119
-0.216034 -0.189142 -0.236182 224 210 119
-0.425696 0.0608754 -0.24506 224 210 119
-0.43356 -0.160758 -0.237164 224 210 119
-0.182124 -0.153544 -0.237864 224 210 119
0.0762482 -0.308866 -0.23791 224 210 119
-0.26802 -0.25168 -0.256958 224 210 119
0.0637732 0.0238701 -0.243855 224 210 119
-0.207743 -0.0748193 -0.235412 224 210 119
-0.159025 -0.233133 -0.255744 224 210 119
-0.183086 -0.104747 -0.237018 224 210 119
-0.425307 -0.357608 -0.233213 224 210 119
-0.192514 -0.136882 -0.236716 224 210 119
-0.211462 -0.151489 -0.235616 224 210 119
-0.497226 -0.135277 -0.244193 224 210 119
0.03531 -0.0431878 -0.246921 224 210 119
0.0908594 -0.0434368 -0.244736 224 210 119
-0.127323 -0.156198 -0.238928 224 210 119
-0.124242 -0.0693016 -0.239841 224 210 119
-0.423978 -0.364644 -0.232883 224 210 119
-0.28653 -0.327537 -0.233901 224 210 119
-0.432253 -0.436682 -0.232584 224 210 119
-0.20515 -0.300302 -0.235717 224 210 119
-0.0627211 -0.301403 -0.238183 224 210 119
-0.172487 0.0411603 -0.242283 224 210 119
-0.242278 -0.103564 -0.233947 224 210 119
-0.339085 -0.272626 -0.2551 224 210 119
-0.314498 -0.249915 -0.233346 224 210 119
-0.454032 -0.078236 -0.24017 224 210 119
0.154374 -0.466311 0.198974 255 178 96
0.13159 -0.487786 -0.0627614 255 178 96
-0.162639 -0.487453 0.114364 255 178 96
0.0653116 -0.487661 -0.00438182 255 178 96
0.228731 -0.488196 0.0108806 255 178 96
-0.245617 -0.487082 0.0128074 255 178 96
-0.323939 -0.487245 0.0321454 255 178 96
-0.310747 -0.487201 0.0423114 255 178 96
-0.344808 -0.487333 -0.0208093 255 178 96
-0.0845441 -0.48732 -0.106467 255 178 96
-0.12571 -0.48729 -0.15116 255 178 96
-0.431929 -0.487355 -0.144572 255 178 96
-0.140669 -0.487183 -0.0636698 255 178 96
0.0205532 -0.487725 -0.160086 255 178 96
0.0201545 -0.480113 0.112869 255 178 96
-0.346943 -0.487357 0.0219817 255 178 96
-0.260339 -0.487229 -0.21828 255 178 96
-0.0782423 -0.487424 0.0498929 255 178 96
-0.261771 -0.48706 0.115778 255 178 96
-0.148224 -0.487304 0.0646501 255 178 96
0.221425 -0.485973 -0.236116 255 178 96
-0.0655026 -0.455055 0.160754 255 178 96
0.219769 -0.473657 0.17853 255 178 96
-0.264171 -0.487047 0.0688556 255 178 96
0.124805 -0.487754 -0.0305888 255 178 96
0.244074 -0.488161 0.103068 255 178 96
-0.23946 -0.464459 -0.250133 255 178 96
0.131886 -0.482264 -0.250409 255 178 96
-0.0999046 -0.487287 -0.107083 255 178 96
0.147048 -0.487903 -0.126516 255 178 96
0.0558411 -0.487652 0.0278274 255 178 96
0.0177539 -0.466307 0.149764 255 178 96
-0.00770038 -0.487475 -0.0119462 255 178 96
-0.361855 -0.487366 -0.0346016 255 178 96
-0.0990858 -0.42605 -0.24422 255 178 96
-0.240121 -0.487281 -0.234587 255 178 96
0.000878319 -0.487953 -0.226698 255 178 96
0.138022 -0.46443 0.200471 255 178 96
-0.350703 -0.484455 -0.251093 255 178 96
0.147004 -0.487866 -0.0362698 255 178 96
-0.139864 -0.484979 0.116935 255 178 96
-0.0132094 -0.4875 0.0745125 255 178 96
-0.225137 -0.487037 0.0400441 255 178 96
0.0229928 -0.487582 0.0259761 255 178 96
0.256782 -0.488156 0.121626 255 178 96
0.0271326 -0.487489 -0.0441946 255 178 96
-0.278363 -0.487111 0.0596602 255 178 96
0.239569 -0.488021 -0.0731188 255 178 96
-0.289272 -0.487249 -0.219994 255 178 96
-0.0320774 -0.488855 -0.0907332 255 178 96
0.243464 -0.488164 0.0879051 255 178 96
-0.209405 -0.472011 0.147471 255 178 96
-0.096756 -0.487224 -0.00715404 255 178 96
-0.0753263 -0.421435 0.250516 255 178 96
-0.245625 -0.487303 0.0997109 255 178 96
-0.442148 -0.4673 -0.260638 255 178 96
-0.0314403 -0.487367 -0.0265526 255 178 96
0.24825 -0.479457 -0.164405 255 178 96
-0.125149 -0.487398 -0.230953 255 178 96
-0.311622 -0.487256 -0.0344365 255 178 96
-0.00845694 -0.444689 -0.248586 255 178 96
-0.291132 -0.487273 -0.147441 255 178 96
0.257092 -0.488191 0.0972445 255 178 96
0.18268 -0.487993 0.0799946 255 178 96
-0.286984 -0.487231 -0.0726649 255 178 96
-0.241924 -0.487244 -0.193625 255 178 96
0.188688 -0.488002 0.105735 255 178 96
-0.165607 -0.487069 -0.00380452 255 178 96
0.246271 -0.487933 -0.115135 255 178 96
-0.39133 -0.487417 -0.223372 255 178 96
-0.33337 -0.487497 0.102319 255 178 96
-0.257111 -0.487379 0.116834 255 178 96
-0.181525 -0.487117 -0.096692 255 178 96
0.0335662 -0.487543 -0.0704494 255 178 96
0.0332371 -0.487588 -0.00414329 255 178 96
0.157744 -0.481646 -0.237567 255 178 96
-0.131715 -0.465446 0.146408 255 178 96
-0.324429 -0.487308 -0.145643 255 178 96
-0.1357 -0.487171 -0.0394347 255 178 96
-0.273579 -0.48717 -0.0311995 255 178 96
0.0296226 -0.487575 0.00148149 255 178 96
-0.210855 -0.487079 -0.00998662 255 178 96
0.127416 -0.483167 0.137534 255 178 96
0.123968 -0.487811 0.0391815 255 178 96
0.104269 -0.457561 0.209356 255 178 96
0.123696 -0.48779 -0.089779 255 178 96
0.0493329 -0.487572 0.070724 255 178 96
-0.312251 -0.487268 -0.0903795 255 178 96
0.14206 -0.487788 0.111563 255 178 96
-0.0724685 -0.436935 0.20107 255 178 96
-0.139208 -0.479225 0.125184 255 178 96
0.174533 -0.487977 -0.152516 255 178 96
0.274385 -0.401021 -0.214394 255 178 96
-0.165685 -0.487181 -0.145295 255 178 96
0.00124912 -0.460194 0.160969 255 178 96
-0.124141 -0.487193 0.00744736 255 178 96
0.174514 -0.487925 -0.0712296 255 178 96
0.0130281 -0.469658 0.140068 255 178 96
-0.132219 -0.487227 -0.112255 255 178 96
-0.442207 -0.487279 -0.134161 255 178 96
-0.238924 -0.45948 0.151861 255 178 96
-0.205086 -0.48723 -0.156349 255 178 96
0.130153 -0.488016 -0.204702 255 178 96
0.121539 -0.487817 0.0287936 255 178 96
-0.0894454 -0.487455 -0.196752 255 178 96
-0.12969 -0.487342 0.0613018 255 178 96
0.0640972 -0.487653 -9.60231e-05 255 178 96
-0.12552 -0.487158 -0.00523145 255 178 96
0.137893 -0.452462 0.238536 255 178 96
-0.170957 -0.487158 0.0257155 255 178 96
0.209746 -0.488103 0.0734817 255 178 96
-0.261002 -0.487104 0.0139803 255 178 96
-0.219453 -0.487046 0.0214632 255 178 96
-0.420184 -0.487461 -0.209973 255 178 96
0.107941 -0.487769 0.021689 255 178 96
0.0133865 -0.452312 0.181747 255 178 96
0.242646 -0.488171 0.0781209 255 178 96
-0.0262497 -0.487744 -0.223271 255 178 96
-0.301538 -0.48718 0.0476552 255 178 96
-0.033081 -0.48756 -0.162588 255 178 96
-0.0738243 -0.487652 -0.233283 255 178 96
0.171155 -0.487994 -0.0162309 255 178 96
-0.232777 -0.48738 -0.239527 255 178 96
-0.0397917 -0.487526 0.0816286 255 178 96
-0.143973 -0.487255 0.0409646 255 178 96
0.0410288 -0.444403 -0.248063 255 178 96
0.244015 -0.48772 -0.219344 255 178 96
-0.128313 -0.487307 -0.183566 255 178 96
-0.317103 -0.487261 -0.023436 255 178 96
0.265344 -0.448278 -0.235033 255 178 96
-0.416538 -0.487445 -0.161948 255 178 96
-0.126418 -0.487351 -0.221198 255 178 96
-0.274461 -0.487071 0.0782308 255 178 96
-0.306385 -0.487259 -0.0841532 255 178 96
0.0309928 -0.487587 0.0424787 255 178 96
0.196293 -0.488109 0.0504317 255 178 96
0.229785 -0.487817 -0.208018 255 178 96
-0.288659 -0.488361 0.108093 255 178 96
0.222044 -0.474926 -0.250385 255 178 96
-0.060602 -0.487277 -0.0464933 255 178 96
-0.225842 -0.48713 -0.0609998 255 178 96
-0.391894 -0.440852 -0.261328 255 178 96
0.00519688 -0.454051 0.175339 255 178 96
-0.296424 -0.472225 0.1095 255 178 96
0.185679 -0.488112 0.00895078 255 178 96
0.0764113 -0.48765 0.0782277 255 178 96
-0.244919 -0.487055 0.0659103 255 178 96
0.137222 -0.487849 0.0447863 255 178 96
0.234587 -0.488077 -0.0590262 255 178 96
0.00758724 -0.487583 -0.112103 255 178 96
-0.223293 -0.487216 -0.228395 255 178 96
-0.119883 -0.45389 0.164125 255 178 96
-0.402695 -0.487453 -0.0204355 255 178 96
0.176431 -0.488082 0.0199117 255 178 96
0.112963 -0.487667 0.114975 255 178 96
-0.451191 -0.487318 -0.166466 255 178 96
-0.274862 -0.487233 -0.109943 255 178 96
-0.132059 -0.487228 0.0195593 255 178 96
0.0246842 -0.487578 -0.0924954 255 178 96
-0.262924 -0.487126 -0.00369055 255 178 96
-0.0595041 -0.480288 0.10925 255 178 96
0.095296 -0.488022 -0.206768 255 178 96
0.0472537 -0.487579 0.0649157 255 178 96
0.127033 -0.487768 -0.061578 255 178 96
0.218197 -0.487902 -0.166762 255 178 96
0.221632 -0.488146 0.0686218 255 178 96
0.260747 -0.488253 0.0386415 255 178 96
0.172422 -0.487986 -0.157787 255 178 96
0.273188 -0.485804 -0.157445 255 178 96
-0.331537 -0.487274 0.0374748 255 178 96
-0.338084 -0.487307 0.0294717 255 178 96
-0.044594 -0.487466 0.0354646 255 178 96
-0.384401 -0.487421 -0.0641342 255 178 96
-0.229987 -0.487237 -0.189743 255 178 96
-0.101119 -0.487254 0.00549186 255 178 96
0.0613175 -0.488092 -0.135352 255 178 96
0.271133 -0.477186 -0.21867 255 178 96
-0.0671514 -0.487978 -0.170645 255 178 96
0.211061 -0.487926 -0.172376 255 178 96
0.139632 -0.487999 -0.174793 255 178 96
0.047003 -0.487736 -0.142349 255 178 96
-0.290813 -0.487156 0.0541092 255 178 96
-0.357647 -0.487359 -0.0268388 255 178 96
0.086899 -0.487818 -0.141455 255 178 96
0.273751 -0.483255 0.0393897 255 178 96
-0.167202 -0.487173 0.0264156 255 178 96
-0.0343441 -0.487532 0.0710344 255 178 96
-0.224798 -0.48712 -0.0494685 255 178 96
0.156908 -0.483782 -0.225097 255 178 96
-0.140781 -0.48724 -0.142592 255 178 96
-0.3012 -0.487239 -0.0475386 255 178 96
-0.394017 -0.487454 -0.234601 255 178 96
-0.182241 -0.447442 0.179957 255 178 96
-0.386037 -0.487395 -0.184207 255 178 96
0.196445 -0.489165 0.0148823 255 178 96
-0.308367 -0.487272 -0.134104 255 178 96
0.142181 -0.488014 -0.195592 255 178 96
-0.212688 -0.487108 0.0484928 255 178 96
-0.18394 -0.459014 0.164704 255 178 96
-0.103488 -0.487509 0.0916424 255 178 96
-0.0164629 -0.439243 0.211188 255 178 96
-0.362767 -0.417662 -0.260972 255 178 96
0.0144898 -0.4876 -0.112389 255 178 96
-0.306957 -0.487203 0.0589119 255 178 96
0.123077 -0.449993 0.242939 255 178 96
-0.349767 -0.487422 -0.240506 255 178 96
-0.332427 -0.487305 0.0491566 255 178 96
-0.0684652 -0.487427 -0.149024 255 178 96
0.1989 -0.487964 -0.0774889 255 178 96
-0.258819 -0.487637 0.107193 255 178 96
-0.0566588 -0.480887 0.107968 255 178 96
0.2226 -0.487863 -0.1907 255 178 96
-0.0610256 -0.487364 0.0020066 255 178 96
0.234579 -0.48788 -0.151677 255 178 96
-0.0452549 -0.487416 0.0178715 255 178 96
0.268186 -0.487584 -0.198854 255 178 96
-0.0413749 -0.428707 -0.247284 255 178 96
-0.413369 -0.463994 -0.258751 255 178 96
-0.388783 -0.487432 -0.0307213 255 178 96
-0.0949347 -0.487548 -0.232543 255 178 96
0.126702 -0.487824 -0.116978 255 178 96
0.125128 -0.487977 -0.178086 255 178 96
0.168995 -0.487945 -0.0478012 255 178 96
0.241293 -0.488109 0.134516 255 178 96
0.104638 -0.452917 0.22625 255 178 96
-0.0589399 -0.487499 -0.177438 255 178 96
0.147152 -0.487901 -0.125526 255 178 96
0.156932 -0.487935 -0.0229597 255 178 96
-0.115732 -0.487483 0.0941861 255 178 96
-0.180124 -0.480684 0.132381 255 178 96
-0.130276 -0.487219 -0.103405 255 178 96
0.0602574 -0.487632 -0.0225181 255 178 96
-0.276761 -0.487098 0.0639862 255 178 96
-0.118579 -0.371768 -0.248909 255 178 96
-0.214747 -0.487152 -0.0939691 255 178 96
-0.389432 -0.487449 -0.00754017 255 178 96
0.0566965 -0.487969 -0.229214 255 178 96
0.0432208 -0.479476 -0.240352 255 178 96
-0.349335 -0.487369 -0.232424 255 178 96
-0.347338 -0.487428 0.0932366 255 178 96
0.0481891 -0.487764 -0.153092 255 178 96
-0.304605 -0.48726 -0.07448 255 178 96
0.0488092 -0.487616 0.00733833 255 178 96
-0.371986 -0.48737 -0.0943999 255 178 96
0.0548263 -0.488999 -0.061223 255 178 96
-0.066838 -0.487273 -0.0521648 255 178 96
0.134662 -0.48338 0.139699 255 178 96
-0.315641 -0.487427 -0.248282 255 178 96
-0.104036 -0.487557 -0.236411 255 178 96
0.228404 -0.488172 0.062001 255 178 96
-0.233498 -0.487103 0.0673252 255 178 96
0.0358616 -0.487607 0.0209215 255 178 96
-0.198779 -0.487318 0.0933885 255 178 96
-0.220834 -0.487203 -0.214393 255 178 96
-0.0688457 -0.436267 0.203932 255 178 96
-0.130848 -0.487398 -0.233534 255 178 96
0.0177843 -0.487571 -0.0967701 255 178 96
-0.00645207 -0.483639 0.101134 255 178 96
-0.0891911 -0.487373 -0.14549 255 178 96
0.0123258 -0.487516 0.0658622 255 178 96
-0.3166 -0.487515 0.10479 255 178 96
-0.335419 -0.487459 0.0990149 255 178 96
-0.0629685 -0.361442 -0.252352 255 178 96
-0.230165 -0.48722 -0.203902 255 178 96
-0.287531 -0.487214 -0.0528207 255 178 96
-0.17654 -0.487195 -0.217059 255 178 96
0.0302696 -0.48758 0.0470782 255 178 96
0.122509 -0.487737 0.0910408 255 178 96
-0.192898 -0.447407 -0.24702 255 178 96
0.0538948 -0.489358 -0.0412156 255 178 96
-0.0492854 -0.47932 -0.239058 255 178 96
0.0436652 -0.48806 -0.144833 255 178 96
-0.238936 -0.487755 0.121677 255 178 96
-0.4017 -0.487449 -0.0285793 255 178 96
-0.403822 -0.487501 -0.249137 255 178 96
-0.122223 -0.431592 0.215924 255 178 96
0.0469059 -0.487615 0.0111475 255 178 96
-0.324911 -0.487296 -0.129986 255 178 96
-0.00943537 -0.472808 0.128617 255 178 96
-0.390903 -0.487405 -0.0959482 255 178 96
-0.194015 -0.487193 -0.210669 255 178 96
-0.141197 -0.487155 -0.0339279 255 178 96
-0.148231 -0.487132 0.0118818 255 178 96
0.0870717 -0.487959 -0.190395 255 178 96
-0.356288 -0.487364 -0.182683 255 178 96
0.124294 -0.487743 -0.0424857 255 178 96
0.00713318 -0.433073 0.2349 255 178 96
0.0266174 -0.487591 0.0232509 255 178 96
-0.287794 -0.48725 -0.125945 255 178 96
0.0247278 -0.489947 -0.0136917 255 178 96
-0.265682 -0.462142 0.135865 255 178 96
0.0712308 -0.487961 -0.226377 255 178 96
-0.356099 -0.487371 -0.0164635 255 178 96
0.272865 -0.488172 0.00943339 255 178 96
0.0584418 -0.487641 0.0507785 255 178 96
0.0727804 -0.487673 -0.0165159 255 178 96
-0.313369 -0.487239 0.0817652 255 178 96
0.0502603 -0.479247 0.12234 255 178 96
0.141172 -0.487872 -0.0200777 255 178 96
0.0997727 -0.487664 0.0938806 255 178 96
0.00665965 -0.487588 -0.11818 255 178 96
0.24 -0.486198 -0.111395 255 178 96
0.20899 -0.488077 0.113846 255 178 96
0.0878009 -0.487957 -0.189364 255 178 96
0.149084 -0.487997 -0.234559 255 178 96
-0.0905631 -0.487338 -0.129686 255 178 96
0.274276 -0.486818 -0.140814 255 178 96
0.164629 -0.487909 0.094252 255 178 96
0.182355 -0.488118 0.0152435 255 178 96
0.27878 -0.487832 -0.0614126 255 178 96
0.102697 -0.456042 0.213898 255 178 96
0.0487917 -0.487558 -0.0403933 255 178 96
-0.356689 -0.487401 0.0546688 255 178 96
-0.313361 -0.487811 0.107595 255 178 96
0.140623 -0.48802 -0.183644 255 178 96
-0.179973 -0.457977 0.165964 255 178 96
-0.255743 -0.487236 -0.207861 255 178 96
0.245958 -0.488076 -0.0665772 255 178 96
-0.171796 -0.48732 0.0781161 255 178 96
-0.0954617 -0.478926 -0.241428 255 178 96
-0.237393 -0.487257 -0.153825 255 178 96
0.145975 -0.487948 -0.00547553 255 178 96
-0.045663 -0.459929 0.153476 255 178 96
0.00579632 -0.487462 -0.0709957 255 178 96
-0.191274 -0.487413 0.112149 255 178 96
-0.182227 -0.487171 -0.130965 255 178 96
-0.0925777 -0.487319 0.0257052 255 178 96
-0.397587 -0.487441 -0.0431955 255 178 96
0.276096 -0.464672 -0.218401 255 178 96
0.273936 -0.48811 -0.02431 255 178 96
-0.0512217 -0.487695 -0.229274 255 178 96
0.268613 -0.488108 -0.0434732 255 178 96
0.258476 -0.487808 -0.158151 255 178 96
-0.156884 -0.487561 -0.241985 255 178 96
-0.0416773 -0.48741 0.00106199 255 178 96
-0.170527 -0.487194 -0.197099 255 178 96
-0.368564 -0.48741 0.0307354 255 178 96
0.155379 -0.487889 -0.0525401 255 178 96
0.212317 -0.485156 0.143013 255 178 96
0.0770808 -0.47256 0.150095 255 178 96
0.189633 -0.487911 -0.23155 255 178 96
0.00264489 -0.430545 0.240906 255 178 96
-0.201646 -0.487111 -0.0732291 255 178 96
0.268027 -0.487718 -0.164317 255 178 96
-0.0933646 -0.487367 -0.148972 255 178 96
-0.197853 -0.440998 0.187702 255 178 96
-0.439403 -0.487533 -0.245708 255 178 96
0.104065 -0.4877 -0.0391862 255 178 96
0.106586 -0.448184 0.24383 255 178 96
0.216621 -0.48818 -0.0677322 255 178 96
-0.0750657 -0.487526 0.0679163 255 178 96
0.279715 -0.47817 0.0116465 255 178 96
0.0790792 -0.487945 -0.234679 255 178 96
-0.177417 -0.487083 -0.055513 255 178 96
0.172734 -0.488059 0.0226758 255 178 96
-0.278201 -0.392786 -0.256817 255 178 96
-0.0998416 -0.487486 -0.227765 255 178 96
-0.0250138 -0.48742 -0.0890947 255 178 96
0.273212 -0.478798 -0.146875 255 178 96
-0.0471632 -0.487535 0.0587514 255 178 96
0.12867 -0.487809 -0.0998383 255 178 96
0.13029 -0.487757 0.0981239 255 178 96
0.0589999 -0.487649 0.0184829 255 178 96
-0.370504 -0.487373 -0.0576369 255 178 96
-0.371159 -0.48741 -0.0336759 255 178 96
-0.334972 -0.487374 0.0763683 255 178 96
-0.400063 -0.487444 -0.224404 255 178 96
-0.29784 -0.47938 0.107907 255 178 96
-0.0647093 -0.424938 0.240205 255 178 96
-0.152438 -0.4871 -0.00370601 255 178 96
0.179363 -0.482493 -0.225787 255 178 96
0.266248 -0.487758 -0.160971 255 178 96
-0.205083 -0.487231 -0.157463 255 178 96
0.072944 -0.487751 -0.125263 255 178 96
-0.170576 -0.487119 -0.0930255 255 178 96
0.0615862 -0.487653 0.0175193 255 178 96
-0.259004 -0.487182 0.0894896 255 178 96
-0.100901 -0.487305 0.0285537 255 178 96
-0.3243 -0.487293 -0.0639024 255 178 96
-0.027825 -0.487367 -0.0656671 255 178 96
-0.111698 -0.487302 0.0387255 255 178 96
-0.396313 -0.487446 -0.022923 255 178 96
0.224752 -0.488125 0.0872952 255 178 96
0.197862 -0.479287 -0.249271 255 178 96
-0.258328 -0.487166 -0.0491208 255 178 96
0.155383 -0.488922 -0.0234665 255 178 96
-0.0338137 -0.432321 0.226449 255 178 96
-0.214756 -0.487255 0.0886946 255 178 96
-0.106791 -0.487938 -0.181672 255 178 96
0.0969904 -0.487873 -0.156407 255 178 96
-0.244665 -0.487275 -0.172102 255 178 96
-0.205692 -0.487221 -0.148166 255 178 96
-0.100202 -0.487247 0.00286948 255 178 96
-0.319818 -0.487343 -0.23776 255 178 96
0.00741911 -0.487492 -0.0830967 255 178 96
0.155115 -0.487904 0.0576012 255 178 96
-0.271373 -0.487072 0.0695242 255 178 96
0.246387 -0.483813 0.149219 255 178 96
0.0538756 -0.485262 0.107139 255 178 96
0.164875 -0.487969 -0.151149 255 178 96
-0.391623 -0.487445 -0.0161408 255 178 96
0.263588 -0.487765 -0.167465 255 178 96
-0.303944 -0.487221 -0.012155 255 178 96
-0.247297 -0.487055 0.042742 255 178 96
-0.153207 -0.487217 -0.150175 255 178 96
0.153107 -0.48193 -0.240267 255 178 96
-0.120966 -0.479876 -0.243158 255 178 96
0.219085 -0.487888 -0.17715 255 178 96
-0.356172 -0.447306 -0.257602 255 178 96
-0.249728 -0.449907 0.140399 255 178 96
-0.205089 -0.487209 -0.223715 255 178 96
0.100906 -0.488029 -0.213243 255 178 96
0.0612875 -0.487644 0.00834543 255 178 96
0.147404 -0.481501 -0.240492 255 178 96
-0.415259 -0.487434 -0.107284 255 178 96
-0.0770181 -0.487343 0.0148372 255 178 96
-0.19263 -0.487148 -0.110574 255 178 96
-0.258832 -0.487191 0.0903227 255 178 96
0.0786071 -0.488801 -0.0637964 255 178 96
-0.00231848 -0.432555 0.234102 255 178 96
-0.0044876 -0.487491 0.00626501 255 178 96
-0.184251 -0.440429 0.192198 255 178 96
-0.288321 -0.487143 0.0327687 255 178 96
-0.341471 -0.487347 -0.172873 255 178 96
0.0254894 -0.487534 0.0642568 255 178 96
-0.257921 -0.487186 -0.0739593 255 178 96
0.0855869 -0.487887 -0.165644 255 178 96
-0.0740711 -0.46684 0.137721 255 178 96
-0.319118 -0.487384 -0.241641 255 178 96
0.281306 -0.467896 -0.027017 255 178 96
-0.102215 -0.487248 -0.0680332 255 178 96
0.0433304 -0.487655 -0.101143 255 178 96
-0.326531 -0.487349 -0.237736 255 178 96
-0.0946242 -0.4875 0.075894 255 178 96
0.0595992 -0.487705 -0.116082 255 178 96
-0.0883496 -0.487374 0.0432028 255 178 96
-0.213745 -0.487122 -0.0719046 255 178 96
0.152511 -0.487968 -0.00572119 255 178 96
-0.351895 -0.487375 0.0051517 255 178 96
-0.130391 -0.487212 -0.0903669 255 178 96
0.274413 -0.487128 -0.137106 255 178 96
-0.310129 -0.487221 0.0179224 255 178 96
-0.246709 -0.487176 -0.0798161 255 178 96
-0.0604164 -0.487274 -0.0403023 255 178 96
-0.169572 -0.454462 -0.245766 255 178 96
0.0129977 -0.487457 -0.0410436 255 178 96
-0.0915596 -0.428745 -0.244928 255 178 96
-0.325304 -0.487257 0.0264713 255 178 96
0.105841 -0.488342 -0.0883678 255 178 96
-0.222227 -0.46096 0.156213 255 178 96
0.238918 -0.483597 -0.143306 255 178 96
-0.0972435 -0.487605 -0.23773 255 178 96
-0.0726894 -0.487282 -0.0647703 255 178 96
-0.162143 -0.434855 0.208446 255 178 96
0.101487 -0.489393 -0.0208259 255 178 96
-0.136491 -0.487488 0.111274 255 178 96
0.198442 -0.488778 -0.00908834 255 178 96
-0.128622 -0.434827 -0.242049 255 178 96
0.16052 -0.488374 -0.0601054 255 178 96
-0.446887 -0.487534 -0.242681 255 178 96
0.160382 -0.484931 -0.216622 255 178 96
-0.329149 -0.460766 -0.253955 255 178 96
0.21395 -0.488097 0.0949054 255 178 96
0.226512 -0.487888 -0.15643 255 178 96
0.188748 -0.488136 0.0231636 255 178 96
-0.394227 -0.487405 -0.177846 255 178 96
-0.0314756 -0.487557 -0.157475 255 178 96
0.118023 -0.488027 -0.204469 255 178 96
0.282971 -0.463645 0.0360472 255 178 96
-0.295673 -0.487194 -0.0039411 255 178 96
0.164564 -0.488204 -0.0845557 255 178 96
-0.0485684 -0.487412 -0.106545 255 178 96
0.0771395 -0.465318 -0.243893 255 178 96
0.0620153 -0.480203 0.12414 255 178 96
-0.202106 -0.48704 0.0261617 255 178 96
0.125086 -0.457062 0.220102 255 178 96
-0.0152841 -0.487393 -0.0618333 255 178 96
-0.133053 -0.487299 -0.197167 255 178 96
0.0562495 -0.455942 0.190154 255 178 96
-0.387457 -0.487394 -0.192159 255 178 96
-0.285018 -0.487255 -0.133937 255 178 96
0.0755551 -0.454821 0.201728 255 178 96
-0.235947 -0.487155 -0.0747381 255 178 96
-0.27801 -0.487157 -0.0115718 255 178 96
-0.164259 -0.48746 -0.238612 255 178 96
0.279406 -0.478193 -0.0762924 255 178 96
-0.0344822 -0.364491 -0.255256 255 178 96
0.283026 -0.46424 1.95801e-05 255 178 96
-0.182813 -0.487459 0.119134 255 178 96
-0.0304037 -0.487432 -0.00260879 255 178 96
-0.329234 -0.487287 -0.00870304 255 178 96
-0.0987136 -0.4366 0.20049 255 178 96
-0.237429 -0.487085 0.00156945 255 178 96
-0.000582442 -0.487523 0.0229251 255 178 96
-0.0261733 -0.486351 0.0933072 255 178 96
-0.174315 -0.487198 0.0437056 255 178 96
0.11284 -0.487814 -0.122077 255 178 96
-0.135148 -0.487408 0.0778925 255 178 96
-0.261687 -0.487131 -0.0104032 255 178 96
0.108489 -0.487708 0.0755211 255 178 96
-0.109832 -0.487282 -0.116033 255 178 96
0.0770719 -0.456563 0.196688 255 178 96
0.229208 -0.471908 0.182266 255 178 96
0.228254 -0.485155 -0.146452 255 178 96
-0.0204839 -0.453563 0.170622 255 178 96
-0.210205 -0.487075 -0.00546264 255 178 96
0.268849 -0.484259 -0.223099 255 178 96
0.0958273 -0.487964 -0.214898 255 178 96
-0.100347 -0.469488 0.136372 255 178 96
-0.0530955 -0.487449 -0.128153 255 178 96
0.175166 -0.487999 -0.0231499 255 178 96
-0.280762 -0.487163 0.0880679 255 178 96
0.32573 -0.296788 -0.0533946 255 139 72
0.301773 -0.314142 -0.112357 255 139 72
0.32424 -0.0808508 -0.162412 255 139 72
0.324437 -0.283433 -0.0809448 255 139 72
0.321352 -0.24349 0.0245435 255 139 72
0.0704339 -0.43178 -0.0126646 255 139 72
0.329129 -0.162171 0.0355042 255 139 72
0.323107 -0.199684 -0.161146 255 139 72
0.325112 -0.414315 -0.0823563 255 139 72
0.32323 -0.207947 -0.111 255 139 72
0.320467 -0.311002 0.0245385 255 139 72
0.326349 -0.236008 -0.0340148 255 139 72
0.323973 -0.137264 -0.183892 255 139 72
0.182289 -0.447751 -0.0187669 255 139 72
-0.0280245 -0.445895 0.0363855 255 139 72
0.325201 -0.382646 -0.0781177 255 139 72
0.29545 -0.462287 0.0639281 255 139 72
0.31921 -0.297309 0.050527 255 139 72
0.206937 -0.460079 0.164165 255 139 72
0.326283 -0.0285259 0.0665347 255 139 72
0.319143 -0.423217 0.00975391 255 139 72
0.322815 -0.225108 -0.201587 255 139 72
0.323663 -0.179941 -0.138737 255 139 72
0.336481 -0.148674 -0.0349733 255 139 72
0.325399 -0.210958 -0.0196053 255 139 72
0.328565 0.0216038 -0.0724858 255 139 72
-0.0838908 -0.448369 0.0344523 255 139 72
0.316738 -0.34388 0.0683735 255 139 72
0.141368 -0.456183 0.031365 255 139 72
0.319691 -0.361655 0.0265694 255 139 72
0.322893 -0.442304 -0.221231 255 139 72
0.331817 0.0388514 0.000589177 255 139 72
0.324429 -0.394673 -0.22265 255 139 72
0.322838 -0.248445 0.0136352 255 139 72
0.0981357 -0.417868 0.08016 255 139 72
0.308422 -0.436566 0.0306796 255 139 72
0.326053 -0.38754 -0.0591862 255 139 72
0.324468 -0.0554292 -0.208446 255 139 72
0.316873 -0.339864 0.0808655 255 139 72
0.308802 -0.292291 -0.0106775 255 139 72
0.311158 -0.37795 -0.0418467 255 139 72
0.3032 -0.352324 -0.194011 255 139 72
0.226854 -0.436805 -0.160344 255 139 72
0.323816 -0.338359 -0.107978 255 139 72
0.293994 -0.440205 0.0539828 255 139 72
0.326012 -0.385968 -0.0602731 255 139 72
0.321651 -0.153079 0.0611152 255 139 72
0.263877 -0.410447 -0.119504 255 139 72
0.338836 -0.149644 -0.0274939 255 139 72
-0.14617 -0.440851 -0.0433487 255 139 72
0.309229 -0.381263 0.0379727 255 139 72
0.323012 -0.437156 -0.165798 255 139 72
0.326147 -0.0480525 0.0869096 255 139 72
0.155013 -0.450581 0.00344744 255 139 72
0.313248 -0.408157 0.0755704 255 139 72
0.326519 -0.0136437 -0.135259 255 139 72
0.329136 -0.153648 0.0358905 255 139 72
0.309516 -0.419119 0.0488868 255 139 72
0.324021 -0.42594 -0.18364 255 139 72
0.323263 -0.217837 -0.107594 255 139 72
-0.0445922 -0.427684 -0.015955 255 139 72
0.318157 -0.308849 0.0781513 255 139 72
0.322321 -0.449124 -0.105103 255 139 72
0.28325 -0.337115 -0.11916 255 139 72
0.325488 -0.0588945 -0.0293 255 139 72
0.325438 -0.293341 -0.00996112 255 139 72
0.32686 -0.221572 -0.0428029 255 139 72
0.323431 -0.300051 -0.0945194 255 139 72
0.332572 -0.241172 -0.0542378 255 139 72
0.320355 -0.0674595 0.0381616 255 139 72
0.32468 -0.135828 -0.121729 255 139 72
0.320986 -0.353356 0.0194189 255 139 72
0.336065 0.0216573 0.0533778 255 139 72
0.324986 -0.0604629 -0.141814 255 139 72
0.00295643 -0.434009 -0.071905 255 139 72
0.324203 -0.0850688 -0.215069 255 139 72
