ply
format ascii 1.0
comment Created by Open3D
element vertex 1203
property double x
property double y
property double z
property uchar red
property uchar green
property uchar blue
end_header
0.172392 -0.223687 -0.0425925 63 97 250
0.0629058 -0.384781 -0.148483 63 97 250
-0.265666 -0.335746 0.0659437 63 97 250
0.104558 -0.359075 -0.111067 63 97 250
-0.262462 -0.335479 0.157224 63 97 250
0.0959815 -0.460132 -0.00722961 63 97 250
0.0251322 -0.356098 -0.234197 63 97 250
0.0563408 -0.386084 -0.169271 63 97 250
0.0911504 -0.390933 -0.314834 63 97 250
0.173714 -0.129627 -0.0706567 63 97 250
-0.337993 -0.3168 -0.00187823 63 97 250
0.129473 -0.448052 -0.175294 63 97 250
0.114884 -0.452508 -0.00379243 63 97 250
-0.343174 -0.321239 0.0750102 63 97 250
0.177394 -0.131906 -0.197875 63 97 250
0.0953521 -0.350246 -0.169764 63 97 250
-0.278617 -0.328906 0.134766 63 97 250
0.131185 -0.467448 0.0371092 63 97 250
0.152823 -0.24973 -0.146314 63 97 250
0.134604 -0.344067 -0.0709686 63 97 250
-0.345195 -0.320981 0.0741007 63 97 250
0.131679 -0.371466 0.0311066 63 97 250
0.114133 -0.434375 0.0817322 63 97 250
0.0620625 -0.370934 -0.16203 63 97 250
0.0577414 -0.463787 0.0262664 63 97 250
0.11895 -0.383552 0.0120107 63 97 250
0.0912236 -0.344522 -0.201063 63 97 250
-0.0788695 -0.477495 -0.0711232 63 97 250
0.079399 -0.362918 -0.294945 63 97 250
-0.194165 -0.446166 0.0768994 63 97 250
-0.248549 -0.341906 0.0521747 63 97 250
0.0785712 -0.387448 -0.129031 63 97 250
-0.267539 -0.351869 -0.0329495 63 97 250
-0.271869 -0.334328 -0.000502482 63 97 250
0.165109 -0.194632 -0.129832 63 97 250
0.153768 -0.347109 -0.029806 63 97 250
0.12828 -0.333922 -0.188773 63 97 250
0.170893 -0.206629 -0.0601139 63 97 250
0.163573 -0.325953 -0.0344841 63 97 250
-0.263967 -0.353703 -0.0254593 63 97 250
0.17391 -0.195458 -0.0395383 63 97 250
-0.252731 -0.462814 0.00902717 63 97 250
-0.298555 -0.348802 -0.0844935 63 97 250
0.112515 -0.384587 -0.0242812 63 97 250
-0.232345 -0.343123 0.0798038 63 97 250
0.0616307 -0.376697 -0.154122 63 97 250
0.130374 -0.343722 -0.0825536 63 97 250
0.157105 -0.202763 -0.255437 63 97 250
0.170027 -0.203257 0.0355771 63 97 250
0.0826192 -0.377524 -0.118702 63 97 250
-0.330631 -0.325718 0.105025 63 97 250
0.116521 -0.36379 -0.0482674 63 97 250
0.172597 -0.137483 -0.0517641 63 97 250
-0.294547 -0.41724 0.0167373 63 97 250
0.137946 -0.364872 -0.0171011 63 97 250
0.150774 -0.328462 0.034178 63 97 250
0.168889 -0.290415 -0.0623735 63 97 250
0.16464 -0.311942 -0.00541054 63 97 250
0.165598 -0.308827 -0.00487114 63 97 250
0.141368 -0.296103 -0.25403 63 97 250
0.150477 -0.254264 -0.158187 63 97 250
0.148621 -0.31639 -0.108679 63 97 250
-0.308936 -0.349385 -0.117803 63 97 250
0.17383 -0.223339 -0.0424324 63 97 250
-0.227137 -0.35418 0.0771053 63 97 250
0.0803868 -0.342201 -0.220551 63 97 250
-0.338839 -0.317782 -0.0392325 63 97 250
-0.294061 -0.327927 -0.0224549 63 97 250
-0.244163 -0.338095 0.110429 63 97 250
-0.315717 -0.326989 -0.122307 63 97 250
0.168059 -0.297277 -0.0619937 63 97 250
0.0679604 -0.404501 -0.309628 63 97 250
0.110244 -0.376968 -0.0262231 63 97 250
-0.253563 -0.337204 0.161243 63 97 250
0.108926 -0.347298 -0.142236 63 97 250
-0.198081 -0.440095 0.0812302 63 97 250
0.0726861 -0.4686 -0.0145155 63 97 250
0.0909951 -0.390016 -0.115157 63 97 250
0.141522 -0.296276 -0.254965 63 97 250
0.0371022 -0.476357 0.0571444 63 97 250
-0.227876 -0.367297 0.139868 63 97 250
0.117348 -0.336004 -0.265955 63 97 250
0.177189 -0.163131 -0.0112182 63 97 250
-0.249583 -0.364755 0.0133918 63 97 250
0.144161 -0.283668 -0.170458 63 97 250
0.0522376 -0.385414 -0.217562 63 97 250
0.171676 -0.277619 0.00242115 63 97 250
-0.221644 -0.362799 0.0884673 63 97 250
0.166399 -0.272699 -0.0897592 63 97 250
0.126747 -0.323587 -0.206599 63 97 250
0.145109 -0.303218 -0.139242 63 97 250
0.0956709 -0.466899 -0.0159244 63 97 250
0.170477 -0.167975 -0.11887 63 97 250
0.105632 -0.363378 -0.0748416 63 97 250
0.127447 -0.322258 -0.212052 63 97 250
0.0619274 -0.348243 -0.254594 63 97 250
-0.260846 -0.344163 -0.0156637 63 97 250
-0.320329 -0.36547 0.184857 63 97 250
0.106691 -0.353278 -0.123949 63 97 250
0.175049 -0.14163 -0.212506 63 97 250
0.00466445 -0.362296 -0.264506 63 97 250
-0.298874 -0.387437 -0.207517 63 97 250
-0.197951 -0.464865 0.0223418 63 97 250
0.16342 -0.197768 -0.138764 63 97 250
0.145492 -0.30163 -0.278479 63 97 250
0.112352 -0.355596 -0.0819596 63 97 250
0.158464 -0.332467 -0.0020459 63 97 250
0.0507342 -0.396523 -0.258563 63 97 250
-0.318154 -0.332213 -0.134693 63 97 250
-0.303636 -0.412833 -0.00604224 63 97 250
0.0674138 -0.474284 -0.319231 63 97 250
-0.266978 -0.432799 0.0309545 63 97 250
-0.00280782 -0.478018 -0.068318 63 97 250
0.118455 -0.417165 -0.111634 63 97 250
0.137828 -0.306284 -0.196961 63 97 250
0.0343463 -0.364619 -0.214572 63 97 250
0.148466 -0.286441 -0.276507 63 97 250
-0.222413 -0.364119 0.105639 63 97 250
-0.081003 -0.4686 0.00839126 63 97 250
0.0577288 -0.385815 -0.30324 63 97 250
0.0946721 -0.412022 -0.169875 63 97 250
0.157856 -0.268105 0.0584236 63 97 250
-0.266986 -0.34587 0.174407 63 97 250
-0.218157 -0.379814 0.0603033 63 97 250
0.160702 -0.317895 -0.0609691 63 97 250
-0.115827 -0.460923 0.074221 63 97 250
0.0267412 -0.380969 -0.285645 63 97 250
0.048746 -0.377751 -0.174228 63 97 250
-0.230885 -0.347078 0.0787192 63 97 250
0.0445795 -0.399481 -0.289413 63 97 250
0.119977 -0.371141 -0.0248133 63 97 250
0.1766 -0.173493 -0.0159922 63 97 250
-0.268957 -0.335586 -0.00566876 63 97 250
-0.33081 -0.317546 -0.00473282 63 97 250
0.0852243 -0.35796 -0.153257 63 97 250
0.11204 -0.470321 0.0430405 63 97 250
0.161435 -0.336165 -0.0428131 63 97 250
-0.190115 -0.458125 0.0530383 63 97 250
0.129953 -0.320751 -0.251334 63 97 250
-0.326968 -0.325718 0.127978 63 97 250
-0.33853 -0.318339 -0.0443339 63 97 250
0.0578086 -0.367709 -0.177817 63 97 250
0.0876856 -0.378412 -0.112304 63 97 250
-0.245884 -0.337816 0.111531 63 97 250
0.0935986 -0.352957 -0.159307 63 97 250
0.168628 -0.303712 -0.0112327 63 97 250
-0.228656 -0.354355 0.0975303 63 97 250
0.177668 -0.194921 -0.00768244 63 97 250
0.171322 -0.252793 0.0134995 63 97 250
0.158196 -0.338476 -0.0193831 63 97 250
-0.287418 -0.381913 -0.0571606 63 97 250
0.0991295 -0.357916 -0.125962 63 97 250
0.0226248 -0.357036 -0.264456 63 97 250
0.112922 -0.43466 0.0942483 63 97 250
-0.233996 -0.343134 0.138097 63 97 250
-0.358121 -0.320439 0.0528639 63 97 250
0.062167 -0.369541 -0.294993 63 97 250
-0.272105 -0.336149 -0.0215864 63 97 250
-0.240504 -0.344604 0.167564 63 97 250
0.0710404 -0.39825 -0.22318 63 97 250
0.0796745 -0.390177 -0.129376 63 97 250
-0.336574 -0.324054 0.102686 63 97 250
-0.345428 -0.321545 0.0880967 63 97 250
0.147557 -0.283032 0.130445 63 97 250
0.161929 -0.307583 -0.0884184 63 97 250
0.0703816 -0.356873 -0.18787 63 97 250
-0.262648 -0.443912 -0.222475 63 97 250
-0.279285 -0.38208 -0.030177 63 97 250
-0.319609 -0.32283 0.021442 63 97 250
0.17071 -0.165398 -0.116747 63 97 250
0.150564 -0.249824 -0.188706 63 97 250
0.104835 -0.34467 -0.172837 63 97 250
-0.277787 -0.33287 0.0202481 63 97 250
0.162886 -0.184824 -0.167976 63 97 250
-0.117912 -0.47536 -0.0479634 63 97 250
0.147622 -0.359214 0.00594314 63 97 250
0.115546 -0.406626 -0.000334378 63 97 250
-0.223873 -0.373936 0.128578 63 97 250
0.114092 -0.385817 0.00908771 63 97 250
0.145398 -0.359603 -0.0026077 63 97 250
-0.262287 -0.397491 0.0172097 63 97 250
0.082293 -0.357568 -0.161945 63 97 250
-0.308695 -0.323373 -0.0560898 63 97 250
0.111229 -0.421106 -0.170524 63 97 250
0.131037 -0.465698 0.0375271 63 97 250
0.17579 -0.188498 -0.0238607 63 97 250
0.164701 -0.22562 -0.104865 63 97 250
0.0352203 -0.460693 -0.308863 63 97 250
0.048298 -0.476837 -0.0580152 63 97 250
-0.263951 -0.335601 0.086504 63 97 250
-0.266144 -0.412161 0.0174401 63 97 250
-0.312996 -0.328138 0.0987745 63 97 250
0.177604 -0.200205 -2.14204e-05 63 97 250
0.109296 -0.35382 -0.0968827 63 97 250
-0.299806 -0.326228 -0.0106471 63 97 250
0.107421 -0.341268 -0.21389 63 97 250
0.154049 -0.345636 -0.000196103 63 97 250
0.131252 -0.317846 -0.248802 63 97 250
-0.350489 -0.320369 0.0716315 63 97 250
0.122372 -0.326512 -0.226322 63 97 250
0.150181 -0.35348 -0.025691 63 97 250
0.174215 -0.142657 -0.207305 63 97 250
0.157699 -0.329605 -0.0632382 63 97 250
0.101347 -0.348557 -0.158627 63 97 250
-0.105206 -0.459612 -0.302314 63 97 250
0.0765702 -0.480767 -0.136359 63 97 250
-0.238086 -0.455239 -0.20731 63 97 250
0.165821 -0.298723 -0.0832663 63 97 250
0.141261 -0.344537 -0.0652893 63 97 250
0.0710652 -0.388521 -0.139445 63 97 250
0.169961 -0.173793 -0.12093 63 97 250
0.159931 -0.202483 0.087321 63 97 250
-0.263717 -0.348467 -0.0288352 63 97 250
0.147129 -0.325782 -0.0892079 63 97 250
0.173566 -0.136565 -0.101302 63 97 250
-0.308952 -0.328293 0.0648127 63 97 250
0.0715713 -0.39022 -0.140008 63 97 250
0.174392 -0.180386 -0.0367407 63 97 250
-0.249219 -0.347819 0.17787 63 97 250
-0.226192 -0.366258 0.126343 63 97 250
0.152082 -0.317221 0.0570332 63 97 250
0.175457 -0.23155 -0.0406612 63 97 250
0.100773 -0.362159 -0.116581 63 97 250
0.107392 -0.365953 -0.0608415 63 97 250
0.123915 -0.464749 0.0504783 63 97 250
-0.261411 -0.338885 0.0412989 63 97 250
0.0970164 -0.392547 -0.316558 63 97 250
-0.294156 -0.445168 -0.140789 63 97 250
0.173837 -0.280136 -0.0419083 63 97 250
-0.307549 -0.414648 -0.0273704 63 97 250
0.176323 -0.183217 0.0185336 63 97 250
0.0999025 -0.362738 -0.117459 63 97 250
0.137957 -0.334003 -0.0942653 63 97 250
0.104711 -0.435325 -0.314395 63 97 250
-0.300006 -0.328843 0.108471 63 97 250
-0.301458 -0.349794 -0.0892752 63 97 250
0.153559 -0.264734 0.0814176 63 97 250
0.108298 -0.376716 -0.0475482 63 97 250
0.0683901 -0.347447 -0.214065 63 97 250
0.0931128 -0.34291 -0.254451 63 97 250
0.115704 -0.394571 -0.05811 63 97 250
0.126551 -0.338381 -0.281582 63 97 250
-0.230761 -0.39945 0.0933384 63 97 250
0.175867 -0.214832 0.00802659 63 97 250
0.158003 -0.19698 -0.247556 63 97 250
0.171656 -0.167557 -0.0763533 63 97 250
0.168776 -0.157657 -0.203729 63 97 250
-0.258985 -0.332579 0.125599 63 97 250
-0.301614 -0.327675 0.128058 63 97 250
0.1044 -0.369631 -0.310962 63 97 250
0.172922 -0.160581 -0.0343804 63 97 250
0.117612 -0.408682 -0.0592033 63 97 250
-0.226224 -0.461389 0.0310496 63 97 250
-0.284011 -0.331741 0.0174629 63 97 250
-0.231837 -0.455525 -0.297106 63 97 250
0.0468939 -0.390754 -0.299001 63 97 250
-0.218992 -0.389781 0.0846796 63 97 250
-0.344194 -0.320927 0.0707544 63 97 250
-0.303472 -0.331289 0.14773 63 97 250
0.155321 -0.314787 0.0283243 63 97 250
0.147321 -0.266233 -0.185954 63 97 250
0.1709 -0.174115 -0.0824894 63 97 250
-0.295621 -0.395065 -0.215485 63 97 250
0.172967 -0.16623 -0.0466029 63 97 250
0.170904 -0.205048 -0.060726 63 97 250
-0.298774 -0.457772 -0.0990419 63 97 250
0.0504037 -0.390056 -0.238328 63 97 250
0.0959172 -0.342587 -0.199834 63 97 250
0.134237 -0.45322 -0.160566 63 97 250
0.115282 -0.340495 -0.166135 63 97 250
0.177265 -0.134779 -0.210598 63 97 250
0.151245 -0.241394 -0.207546 63 97 250
-0.16219 -0.461852 0.0296099 63 97 250
0.127578 -0.452158 -0.0413895 63 97 250
-0.277686 -0.443367 -0.269617 63 97 250
0.177281 -0.162393 -0.0102483 63 97 250
-0.266398 -0.333754 0.153241 63 97 250
0.122549 -0.34161 -0.110366 63 97 250
-0.220691 -0.366519 0.0953835 63 97 250
0.156597 -0.337432 -0.00601355 63 97 250
-0.301004 -0.325505 -0.0498021 63 97 250
0.114474 -0.347313 -0.105175 63 97 250
0.127211 -0.356903 -0.0541774 63 97 250
0.139361 -0.302022 -0.196193 63 97 250
-0.216711 -0.370257 0.0897843 63 97 250
0.0958254 -0.390145 -0.108504 63 97 250
0.0676201 -0.35318 -0.271366 63 97 250
-0.295854 -0.331375 0.147943 63 97 250
-0.311055 -0.32253 -0.0693786 63 97 250
0.0564938 -0.38381 -0.161634 63 97 250
0.149118 -0.313797 -0.110053 63 97 250
-0.124205 -0.462039 -0.237423 63 97 250
-0.243923 -0.341959 0.16344 63 97 250
-0.221939 -0.363534 0.0944222 63 97 250
0.157516 -0.216921 -0.156149 63 97 250
0.110471 -0.349373 -0.127485 63 97 250
0.115114 -0.393731 -0.0669914 63 97 250
-0.162969 -0.468635 -0.00646224 63 97 250
0.0826187 -0.443805 -0.255603 63 97 250
0.14357 -0.284509 -0.19557 63 97 250
0.0446031 -0.461115 -0.248002 63 97 250
0.0328299 -0.350883 -0.239616 63 97 250
-0.225603 -0.396194 0.101142 63 97 250
0.108423 -0.429234 -0.31831 63 97 250
-0.322817 -0.326705 0.0793681 63 97 250
0.159462 -0.209348 -0.152423 63 97 250
0.140921 -0.364911 -0.00678361 63 97 250
0.167993 -0.196096 -0.100224 63 97 250
0.173926 -0.125968 -0.0765119 63 97 250
-0.348657 -0.325634 0.121051 63 97 250
0.118035 -0.4225 -0.151481 63 97 250
0.114667 -0.385613 0.0115098 63 97 250
-0.294361 -0.386483 -0.0918701 63 97 250
0.121881 -0.42506 -0.157951 63 97 250
0.105209 -0.38313 -0.0935623 63 97 250
-0.280729 -0.381901 -0.0358828 63 97 250
0.147203 -0.314997 0.0964467 63 97 250
-0.222817 -0.3934 0.110518 63 97 250
0.0606111 -0.474559 -0.0429152 63 97 250
0.160945 -0.289056 -0.100421 63 97 250
0.12635 -0.425251 0.00816224 63 97 250
0.109153 -0.464244 0.0436453 63 97 250
-0.299361 -0.365694 -0.0860138 63 97 250
0.146393 -0.285538 -0.147753 63 97 250
0.166567 -0.162679 -0.175075 63 97 250
0.169652 -0.30128 -0.0319105 63 97 250
0.136109 -0.45296 -0.0909961 63 97 250
-0.272061 -0.441244 -0.280584 63 97 250
-0.285059 -0.33062 -0.0272254 63 97 250
-0.299235 -0.457001 -0.030395 63 97 250
0.0781856 -0.358591 -0.165447 63 97 250
0.169931 -0.21767 -0.0721711 63 97 250
-0.0221033 -0.477754 -0.0654894 63 97 250
0.134923 -0.328084 -0.117063 63 97 250
0.110333 -0.351721 -0.108306 63 97 250
0.134932 -0.328648 -0.163521 63 97 250
0.120652 -0.383364 0.0191187 63 97 250
0.117968 -0.35438 -0.0715393 63 97 250
0.119421 -0.415419 0.00218426 63 97 250
0.164736 -0.187123 -0.148889 63 97 250
0.0258359 -0.383854 -0.280348 63 97 250
0.126806 -0.3527 -0.304544 63 97 250
0.170396 -0.172717 -0.101961 63 97 250
0.12835 -0.335325 -0.137749 63 97 250
-0.240701 -0.350552 0.0319636 63 97 250
-0.318437 -0.370603 0.190302 63 97 250
-0.256507 -0.402593 0.0196116 63 97 250
0.0609191 -0.442436 -0.267525 63 97 250
0.123424 -0.435454 -0.0708733 63 97 250
0.148854 -0.320773 -0.0997839 63 97 250
0.138654 -0.340222 -0.0752879 63 97 250
-0.240929 -0.345813 0.171487 63 97 250
-0.300713 -0.409635 -0.218188 63 97 250
0.11347 -0.455068 -0.213605 63 97 250
0.093242 -0.350739 -0.175441 63 97 250
-0.221253 -0.361416 0.0725808 63 97 250
0.171983 -0.155588 -0.0916119 63 97 250
-0.0767638 -0.470161 -0.00674287 63 97 250
-0.340322 -0.332406 -0.118598 63 97 250
0.101072 -0.454266 -0.31598 63 97 250
-0.301064 -0.375231 -0.096244 63 97 250
0.172159 -0.2958 -0.0418365 63 97 250
0.124268 -0.34099 -0.124172 63 97 250
-0.243709 -0.338883 0.0911427 63 97 250
0.123958 -0.325295 -0.221246 63 97 250
0.162573 -0.323229 -0.025875 63 97 250
0.178476 -0.165201 0.0123116 63 97 250
-0.102737 -0.469024 0.00413446 63 97 250
0.0434927 -0.408273 -0.277754 63 97 250
0.0217456 -0.474168 -0.317914 63 97 250
-0.261879 -0.398979 0.0175256 63 97 250
0.130594 -0.378462 0.0161451 63 97 250
0.168773 -0.316836 -0.0517748 63 97 250
0.177204 -0.127156 -0.157565 63 97 250
-0.268818 -0.37423 -0.00258969 63 97 250
0.144706 -0.273239 -0.229426 63 97 250
-0.272988 -0.333905 0.00628011 63 97 250
0.0663848 -0.391188 -0.308388 63 97 250
-0.349584 -0.332085 0.1317 63 97 250
0.114893 -0.360348 -0.0574154 63 97 250
0.134647 -0.366234 -0.0162747 63 97 250
0.0986974 -0.480564 -0.111401 63 97 250
-0.238704 -0.339596 0.0881658 63 97 250
0.165632 -0.30642 0.00232379 63 97 250
0.136241 -0.327967 -0.156445 63 97 250
0.0511302 -0.382492 -0.20932 63 97 250
-0.225866 -0.371862 0.142937 63 97 250
0.09327 -0.409542 -0.317106 63 97 250
0.153196 -0.303025 -0.113426 63 97 250
0.171811 -0.165056 -0.0769084 63 97 250
0.125294 -0.381499 0.0143229 63 97 250
0.119844 -0.425255 -0.170383 63 97 250
0.15945 -0.300251 0.0249442 63 97 250
0.172134 -0.296267 -0.0420639 63 97 250
-0.332121 -0.325065 0.0997217 63 97 250
0.0277462 -0.364317 -0.221359 63 97 250
-0.354422 -0.317285 0.00353631 63 97 250
0.170827 -0.14649 -0.145531 63 97 250
0.156223 -0.203458 -0.250255 63 97 250
0.0694917 -0.353194 -0.271771 63 97 250
0.105013 -0.362118 -0.297969 63 97 250
-0.270545 -0.329432 0.137513 63 97 250
0.138719 -0.36398 -0.0209016 63 97 250
0.0987171 -0.350952 -0.154902 63 97 250
0.113033 -0.350008 -0.0964944 63 97 250
0.172227 -0.149474 -0.129103 63 97 250
0.0571182 -0.398784 -0.305748 63 97 250
0.147587 -0.278079 -0.269269 63 97 250
0.140781 -0.313064 -0.156043 63 97 250
0.0353224 -0.439924 -0.287811 63 97 250
-0.306181 -0.414175 -0.0797317 63 97 250
0.168849 -0.284118 -0.0746723 63 97 250
0.125868 -0.387212 0.0638146 63 97 250
-0.25719 -0.344171 0.00405057 63 97 250
-0.351246 -0.337621 -0.107974 63 97 250
0.0523915 -0.373679 -0.174887 63 97 250
-0.128164 -0.467987 0.0115517 63 97 250
0.0124709 -0.358023 -0.259054 63 97 250
0.148752 -0.338381 -0.0655292 63 97 250
0.0477144 -0.375578 -0.179268 63 97 250
-0.353068 -0.31919 0.052694 63 97 250
-0.310836 -0.322204 -0.0223811 63 97 250
0.130122 -0.322211 -0.255229 63 97 250
-0.35729 -0.327086 -0.0744806 63 97 250
0.126504 -0.466613 -0.320712 63 97 250
0.173087 -0.261998 -0.0197387 63 97 250
-0.255945 -0.44649 0.0464981 63 97 250
-0.292404 -0.45591 -0.000197422 63 97 250
0.152577 -0.349108 0.000222072 63 97 250
0.130668 -0.330062 -0.274682 63 97 250
-0.344958 -0.33714 -0.119998 63 97 250
0.114169 -0.34292 -0.194004 63 97 250
0.157541 -0.199056 0.099264 63 97 250
-0.342602 -0.341332 0.149514 63 97 250
-0.33031 -0.330041 0.144579 63 97 250
-0.306683 -0.337701 0.161039 63 97 250
0.175399 -0.194453 -0.0254284 63 97 250
0.113066 -0.349518 -0.0983351 63 97 250
0.171572 -0.185328 -0.0520684 63 97 250
0.172417 -0.129251 -0.132641 31 142 243
-0.12141 -0.276319 -0.334749 31 142 243
0.1496 -0.149585 0.121527 31 142 243
0.171773 -0.242818 -0.3216 31 142 243
0.140393 -0.236516 -0.0803194 31 142 243
0.169732 -0.370877 -0.205193 31 142 243
0.157661 -0.109934 -0.0496483 31 142 243
0.156071 -0.129539 0.131658 31 142 243
-0.0630853 -0.202308 -0.333345 31 142 243
0.122587 -0.276401 -0.200426 31 142 243
0.0526526 -0.116063 -0.291333 31 142 243
0.00682214 -0.163693 -0.311696 31 142 243
0.157884 -0.071995 -0.254447 31 142 243
0.0635995 -0.461975 0.195327 31 142 243
0.0643936 -0.0953545 -0.32293 31 142 243
0.133648 -0.0741463 -0.232132 31 142 243
0.173648 -0.121174 -0.304451 31 142 243
0.145695 -0.255073 0.112262 31 142 243
0.172988 -0.32506 -0.0044215 31 142 243
0.108989 -0.494642 -0.040677 31 142 243
-0.101911 -0.130333 -0.317913 31 142 243
0.126737 -0.107975 -0.210142 31 142 243
0.174124 -0.159987 -0.168483 31 142 243
0.120214 -0.084721 -0.230009 31 142 243
0.0987299 -0.346735 -0.270269 31 142 243
0.176935 -0.253587 -0.24094 31 142 243
-0.0523309 -0.181981 -0.332021 31 142 243
0.175618 -0.465096 0.230546 31 142 243
0.161695 -0.0714805 -0.322452 31 142 243
0.169668 -0.416983 -0.12236 31 142 243
0.179769 -0.425197 -0.0402411 31 142 243
0.125095 -0.458629 -0.180927 31 142 243
0.178512 -0.427027 0.03451 31 142 243
-0.131818 -0.211855 -0.326098 31 142 243
0.112578 -0.480415 -0.040685 31 142 243
0.151438 -0.339182 0.30494 31 142 243
0.175333 -0.260559 -0.191699 31 142 243
0.0310124 -0.489685 -0.253905 31 142 243
0.165053 -0.209321 0.0241382 31 142 243
0.0756313 -0.476715 -0.266055 31 142 243
0.156127 -0.128748 0.0277878 31 142 243
0.130207 -0.455435 -0.157136 31 142 243
-0.0245014 -0.314193 0.301536 31 142 243
0.10537 -0.185588 -0.242727 31 142 243
0.166488 -0.0769128 -0.18302 31 142 243
0.0422792 -0.0827566 -0.31232 31 142 243
0.168459 -0.0817059 -0.295383 31 142 243
0.147483 -0.213209 0.279729 31 142 243
0.177792 -0.396934 0.0611691 31 142 243
0.10658 -0.0776976 -0.267931 31 142 243
-0.116366 -0.178099 -0.323694 31 142 243
0.0137179 -0.463713 0.227011 31 142 243
0.119244 -0.100624 -0.226154 31 142 243
0.0730959 -0.265543 0.310402 31 142 243
0.149869 -0.0804246 -0.0356953 31 142 243
0.0282914 -0.50065 0.0506338 31 142 243
0.129849 -0.43923 0.0872042 31 142 243
0.0370815 -0.498922 -0.0551646 31 142 243
0.176703 -0.126667 -0.213764 31 142 243
0.173424 -0.432541 -0.109721 31 142 243
0.165929 -0.206673 -0.000363843 31 142 243
0.168363 -0.363143 -0.114288 31 142 243
0.148513 -0.273006 0.147966 31 142 243
0.170106 -0.321648 -0.0383819 31 142 243
0.153409 -0.135307 0.169959 31 142 243
0.176303 -0.164566 -0.211299 31 142 243
0.170375 -0.331096 -0.0474248 31 142 243
0.187326 -0.451009 -0.0279036 31 142 243
0.169107 -0.376191 -0.181223 31 142 243
0.171033 -0.0811788 -0.23977 31 142 243
0.0652817 -0.477023 0.0409719 31 142 243
0.0239428 -0.367913 -0.310425 31 142 243
0.175964 -0.234845 -0.190846 31 142 243
0.174883 -0.300756 -0.246402 31 142 243
0.141866 -0.0912176 -0.160556 31 142 243
0.154332 -0.0820897 -0.333425 31 142 243
0.0716925 -0.0928091 -0.282203 31 142 243
-0.119867 -0.249562 -0.331657 31 142 243
0.175726 -0.192798 -0.186589 31 142 243
0.163341 -0.212506 0.190417 31 142 243
0.167793 -0.241884 -0.0453428 31 142 243
0.173654 -0.330435 -0.31044 31 142 243
0.126034 -0.297304 -0.192023 31 142 243
0.167053 -0.217951 0.021721 31 142 243
0.176919 -0.218535 -0.222054 31 142 243
0.171501 -0.344035 -0.237983 31 142 243
0.0855122 -0.0802505 -0.29927 31 142 243
-0.100484 -0.343012 0.288599 31 142 243
0.171894 -0.128059 -0.124022 31 142 243
0.120283 -0.422049 -0.243296 31 142 243
0.165104 -0.208505 0.0206009 31 142 243
0.152332 -0.0899991 -0.0301115 31 142 243
0.176146 -0.264544 -0.232686 31 142 243
0.167215 -0.106063 -0.106228 31 142 243
0.125527 -0.0759543 -0.307721 31 142 243
0.0708354 -0.263803 -0.29408 31 142 243
0.175828 -0.255471 -0.210673 31 142 243
0.0211748 -0.21335 -0.338192 31 142 243
0.171567 -0.197479 -0.322196 31 142 243
0.165874 -0.200325 -0.343813 31 142 243
0.120328 -0.492355 0.235178 31 142 243
-0.146133 -0.166671 -0.315473 31 142 243
0.126989 -0.169736 -0.344481 31 142 243
0.168392 -0.250954 -0.0604535 31 142 243
0.174172 -0.0939319 -0.244697 31 142 243
0.171188 -0.369287 -0.256817 31 142 243
0.0537559 -0.499649 -0.00330417 31 142 243
0.16909 -0.322043 -0.341746 31 142 243
0.172487 -0.367737 -0.309368 31 142 243
-0.0612306 -0.146297 -0.317673 31 142 243
0.0783205 -0.482096 -0.0956735 31 142 243
0.146376 -0.107079 -0.0100832 31 142 243
0.133344 -0.182451 -0.163596 31 142 243
-0.0486005 -0.140523 -0.327161 31 142 243
-0.0942511 -0.166955 -0.325581 31 142 243
0.0250252 -0.486149 -0.283723 31 142 243
0.134357 -0.210278 -0.144531 31 142 243
0.162665 -0.43857 0.13264 31 142 243
-0.175237 -0.352142 0.276972 31 142 243
0.173431 -0.460377 0.14853 31 142 243
0.0363987 -0.0981757 -0.3235 31 142 243
0.13852 -0.12812 -0.163237 31 142 243
0.0552395 -0.497212 0.145947 31 142 243
-0.127275 -0.204934 -0.314037 31 142 243
0.0849846 -0.489013 0.274344 31 142 243
0.157279 -0.142608 0.0155381 31 142 243
0.0950425 -0.0999773 -0.323801 31 142 243
0.176647 -0.214215 -0.214278 31 142 243
0.0989065 -0.260142 -0.255388 31 142 243
-0.110712 -0.206546 -0.328883 31 142 243
-0.0348216 -0.267162 -0.315636 31 142 243
-0.0380946 -0.438141 0.263919 31 142 243
0.105089 -0.494803 -0.0178735 31 142 243
0.116943 -0.077822 -0.290091 31 142 243
0.0487078 -0.115477 -0.294319 31 142 243
0.163955 -0.24031 0.206039 31 142 243
0.174819 -0.0953955 -0.219287 31 142 243
0.149828 -0.076536 -0.0657048 31 142 243
0.172417 -0.0957697 -0.290174 31 142 243
-0.0780689 -0.221027 -0.334114 31 142 243
0.176128 -0.16902 -0.207099 31 142 243
0.0934382 -0.479772 -0.00270007 31 142 243
0.144754 -0.12765 -0.0633656 31 142 243
0.144387 -0.115157 -0.0395199 31 142 243
0.135323 -0.231551 -0.133869 31 142 243
0.144279 -0.136101 -0.0709764 31 142 243
-0.0384748 -0.223844 -0.3364 31 142 243
-0.0896109 -0.15342 -0.317401 31 142 243
0.172379 -0.317232 -0.206041 31 142 243
0.10265 -0.178037 -0.342444 31 142 243
0.134243 -0.352431 -0.174729 31 142 243
0.139724 -0.285868 -0.0737777 31 142 243
0.166365 -0.214092 0.00131007 31 142 243
0.157753 -0.137564 -0.342898 31 142 243
0.151276 -0.0910213 0.090605 31 142 243
0.163455 -0.0725807 -0.29037 31 142 243
-0.0825804 -0.113425 -0.318838 31 142 243
0.144636 -0.0718045 -0.205811 31 142 243
0.138379 -0.330685 -0.147428 31 142 243
0.157416 -0.132045 0.0785015 31 142 243
0.166405 -0.303857 -0.0815781 31 142 243
0.175901 -0.146492 -0.198993 31 142 243
0.136663 -0.159629 -0.157596 31 142 243
0.110752 -0.120324 -0.235361 31 142 243
0.185963 -0.478964 -0.0249552 31 142 243
0.173559 -0.288966 -0.173388 31 142 243
-0.0691524 -0.276272 -0.314254 31 142 243
0.144446 -0.101053 -0.115909 31 142 243
-0.0390804 -0.383479 -0.311856 31 142 243
0.173169 -0.467611 -0.234518 31 142 243
0.177261 -0.222992 -0.232989 31 142 243
0.177581 -0.224422 -0.251199 31 142 243
0.175378 -0.317404 -0.281726 31 142 243
-0.159262 -0.262014 -0.327707 31 142 243
0.173502 -0.349252 -0.299021 31 142 243
0.161744 -0.184744 0.00459067 31 142 243
0.11547 -0.482213 -0.112285 31 142 243
0.161101 -0.385186 0.155796 31 142 243
0.173994 -0.286436 -0.180503 31 142 243
0.174814 -0.27663 -0.200029 31 142 243
0.167035 -0.179749 -0.0404799 31 142 243
0.172044 -0.346058 -0.323577 31 142 243
0.139583 -0.378572 -0.00391966 31 142 243
0.177782 -0.219489 -0.270551 31 142 243
-0.0741328 -0.153072 -0.326633 31 142 243
0.175558 -0.153189 -0.193419 31 142 243
-0.00840635 -0.228828 -0.314616 31 142 243
0.145218 -0.122795 -0.0359531 31 142 243
0.0282788 -0.181878 -0.307208 31 142 243
0.158946 -0.393288 0.240991 31 142 243
-0.107871 -0.152834 -0.320116 31 142 243
0.171728 -0.287329 -0.140853 31 142 243
0.172905 -0.0967957 -0.179871 31 142 243
0.164751 -0.304215 0.284303 31 142 243
-0.0259058 -0.290758 -0.315275 31 142 243
0.159684 -0.0936406 -0.0863858 31 142 243
0.0922114 -0.079668 -0.307798 31 142 243
0.17296 -0.355303 -0.308287 31 142 243
0.126832 -0.428007 -0.217049 31 142 243
0.17568 -0.455236 0.232074 31 142 243
0.155946 -0.406203 0.271622 31 142 243
0.155595 -0.163178 0.206011 31 142 243
0.144382 -0.260569 0.0305636 31 142 243
0.177224 -0.115903 -0.249136 31 142 243
0.157473 -0.141817 0.145866 31 142 243
-0.103241 -0.149336 -0.320332 31 142 243
-0.156727 -0.265971 -0.328475 31 142 243
0.172549 -0.107993 -0.14462 31 142 243
0.172372 -0.10637 -0.305944 31 142 243
0.175962 -0.177654 -0.198144 31 142 243
0.0220221 -0.48771 -0.147448 31 142 243
0.176826 -0.250915 -0.234391 31 142 243
0.183464 -0.425555 0.236694 31 142 243
0.0770569 -0.49515 0.188576 31 142 243
0.143425 -0.123202 -0.128856 31 142 243
0.156506 -0.0698588 -0.124989 31 142 243
0.150658 -0.116158 0.171959 31 142 243
0.153652 -0.0946475 -0.0357575 31 142 243
0.16911 -0.238298 -0.07005 31 142 243
0.161066 -0.0728879 -0.146313 31 142 243
0.17179 -0.303442 0.0120582 31 142 243
0.175045 -0.280741 -0.222816 31 142 243
0.0224095 -0.34728 0.306746 31 142 243
0.0253745 -0.488276 -0.207362 31 142 243
0.171623 -0.416592 -0.102615 31 142 243
-0.0985972 -0.195241 -0.316741 31 142 243
0.170121 -0.19998 -0.0853067 31 142 243
0.0803646 -0.479934 -0.00892599 31 142 243
0.114512 -0.202799 -0.219703 31 142 243
0.110396 -0.0776208 -0.253885 31 142 243
-0.0969094 -0.163004 -0.324131 31 142 243
0.190648 -0.478242 -0.119418 31 142 243
0.119228 -0.109839 -0.222633 31 142 243
-0.0569215 -0.215877 -0.334826 31 142 243
0.176425 -0.110661 -0.219497 31 142 243
0.117658 -0.0774937 -0.3014 31 142 243
0.112331 -0.45699 -0.243666 31 142 243
0.127973 -0.492013 0.167209 31 142 243
0.102001 -0.335749 -0.265466 31 142 243
0.172674 -0.308112 -0.189936 31 142 243
0.0478793 -0.361929 -0.30694 31 142 243
0.122853 -0.110596 -0.334598 31 142 243
0.128475 -0.382759 -0.204256 31 142 243
0.171992 -0.151449 -0.121764 31 142 243
-0.00859918 -0.206 -0.335777 31 142 243
0.175206 -0.252233 -0.172185 31 142 243
0.153021 -0.183815 0.254385 31 142 243
0.148833 -0.0744116 -0.0947162 31 142 243
0.170775 -0.315953 -0.148152 31 142 243
0.164395 -0.205406 0.177763 31 142 243
0.110699 -0.408267 -0.262626 31 142 243
-0.049548 -0.327325 0.296236 31 142 243
0.185042 -0.480977 -0.0366709 31 142 243
0.14445 -0.136854 -0.093908 31 142 243
0.177282 -0.260374 -0.259401 31 142 243
0.174439 -0.14087 -0.172519 31 142 243
0.123803 -0.41309 -0.234752 31 142 243
-0.0291661 -0.25209 -0.339662 31 142 243
0.182072 -0.416756 0.271201 31 142 243
0.171151 -0.494213 -0.0476033 31 142 243
0.146775 -0.101248 -0.0158703 31 142 243
0.171999 -0.22036 -0.128685 31 142 243
0.14972 -0.110123 0.114913 31 142 243
0.120044 -0.454662 0.0716633 31 142 243
0.173962 -0.420633 0.014575 31 142 243
0.167692 -0.217856 -0.338097 31 142 243
0.0842855 -0.0804011 -0.276763 31 142 243
0.0299341 -0.0893818 -0.32087 31 142 243
0.169117 -0.389893 -0.204284 31 142 243
0.150382 -0.121116 0.133843 31 142 243
0.171459 -0.448422 -0.144485 31 142 243
0.124787 -0.389931 -0.229172 31 142 243
0.107711 -0.399263 -0.266182 31 142 243
0.165255 -0.0717902 -0.20104 31 142 243
0.133749 -0.426335 -0.183926 31 142 243
0.176751 -0.279764 -0.270075 31 142 243
0.0244567 -0.477422 0.0487584 31 142 243
0.171848 -0.316465 -0.330904 31 142 243
0.0892469 -0.0795532 -0.317002 31 142 243
0.148547 -0.104801 0.0800782 31 142 243
0.12227 -0.37596 -0.240294 31 142 243
0.042555 -0.158319 -0.334364 31 142 243
0.136745 -0.101788 -0.187134 31 142 243
0.107194 -0.118814 -0.240751 31 142 243
0.140952 -0.403399 0.000710271 31 142 243
0.174819 -0.38308 -0.0290612 31 142 243
-0.069772 -0.136722 -0.317839 31 142 243
0.092802 -0.434497 -0.280149 31 142 243
0.172607 -0.133181 -0.136479 31 142 243
-0.0316795 -0.116693 -0.323613 31 142 243
0.106681 -0.20138 -0.345366 31 142 243
0.168924 -0.186902 -0.0662417 31 142 243
-0.150122 -0.180215 -0.310242 31 142 243
-0.0335675 -0.249159 -0.339208 31 142 243
0.139407 -0.419958 -0.0952042 31 142 243
0.128948 -0.386753 0.307155 31 142 243
-0.039443 -0.361108 0.300073 31 142 243
0.171082 -0.371663 -0.256522 31 142 243
0.131742 -0.235867 0.298313 31 142 243
0.144461 -0.0771123 -0.165967 31 142 243
0.161256 -0.126779 -0.0553742 31 142 243
-0.0270822 -0.207341 -0.335113 31 142 243
0.168715 -0.223474 -0.0639733 31 142 243
0.104666 -0.201893 -0.243852 31 142 243
0.156446 -0.132113 0.130874 31 142 243
0.156193 -0.10908 -0.0376262 31 142 243
0.172347 -0.319817 -0.216752 31 142 243
-0.0571498 -0.323944 -0.313611 31 142 243
0.169573 -0.375237 -0.203544 31 142 243
0.147508 -0.114337 -0.339733 31 142 243
-0.096669 -0.140627 -0.320214 31 142 243
0.146979 -0.491261 -0.061425 31 142 243
0.025772 -0.0931061 -0.307103 31 142 243
0.158308 -0.188544 0.263123 31 142 243
0.17855 -0.44268 0.191631 31 142 243
0.182508 -0.402669 0.139621 31 142 243
0.166791 -0.290203 -0.0530237 31 142 243
0.176046 -0.214963 -0.183413 31 142 243
0.150855 -0.123202 0.17441 31 142 243
0.153555 -0.160156 0.189981 31 142 243
0.156414 -0.123297 0.0585502 31 142 243
0.015801 -0.497458 0.177431 31 142 243
-0.0180814 -0.31098 0.30259 31 142 243
0.161832 -0.169987 0.139925 31 142 243
-0.109145 -0.2417 -0.332301 31 142 243
-0.141561 -0.247131 -0.328868 31 142 243
0.17338 -0.348133 -0.305106 31 142 243
0.174783 -0.305373 -0.302036 31 142 243
0.00457171 -0.273925 -0.313788 31 142 243
-0.0914061 -0.144661 -0.317618 31 142 243
0.1701 -0.078076 -0.238714 31 142 243
0.175374 -0.230781 -0.166178 31 142 243
0.172515 -0.14652 -0.136328 31 142 243
-0.0177424 -0.318171 0.303541 31 142 243
0.162392 -0.179257 0.0894804 31 142 243
0.0885415 -0.259222 0.311969 31 142 243
0.17601 -0.178688 -0.202307 31 142 243
0.0899737 -0.128896 -0.331443 31 142 243
0.17146 -0.259373 0.133664 31 142 243
0.181647 -0.443459 0.00816952 31 142 243
-0.0314429 -0.206335 -0.334846 31 142 243
0.17914 -0.398534 0.284682 31 142 243
0.158916 -0.149203 0.124151 31 142 243
0.171308 -0.384113 -0.269083 31 142 243
0.000971426 -0.25074 -0.313901 31 142 243
0.133982 -0.101409 -0.333812 31 142 243
0.143644 -0.13254 -0.116787 31 142 243
0.17439 -0.122942 -0.175238 31 142 243
0.144119 -0.131477 -0.107724 31 142 243
0.167372 -0.421254 0.064211 31 142 243
0.152284 -0.27878 0.296808 31 142 243
-0.0964364 -0.257738 -0.313853 31 142 243
0.173925 -0.317731 0.0249479 31 142 243
0.158443 -0.0673727 -0.188519 31 142 243
0.173892 -0.322539 -0.246932 31 142 243
0.0513915 -0.487313 -0.238667 31 142 243
0.0831322 -0.28508 -0.28378 31 142 243
0.174351 -0.277258 -0.311077 31 142 243
-0.132352 -0.164863 -0.31274 31 142 243
0.168689 -0.470418 -0.246806 31 142 243
0.169205 -0.125169 -0.0983566 31 142 243
-0.154729 -0.178135 -0.312728 31 142 243
0.109485 -0.465982 0.0659419 31 142 243
0.170863 -0.0987807 -0.143165 31 142 243
-0.0806553 -0.170961 -0.317969 31 142 243
0.168801 -0.395776 0.297777 31 142 243
0.149244 -0.491973 0.192922 31 142 243
0.134952 -0.45083 -0.127512 31 142 243
-0.0402536 -0.130738 -0.316846 31 142 243
0.10224 -0.0950216 -0.322932 31 142 243
0.0894991 -0.0993117 -0.264898 31 142 243
0.0461655 -0.471377 0.149274 31 142 243
0.150465 -0.0856266 0.0592335 31 142 243
0.169185 -0.336983 -0.0790313 31 142 243
-0.0392266 -0.147843 -0.329226 31 142 243
-0.0741687 -0.324828 -0.312731 31 142 243
0.176661 -0.208547 -0.21519 31 142 243
0.167106 -0.454573 -0.219864 31 142 243
0.108823 -0.482322 -0.121317 31 142 243
0.170347 -0.150318 -0.0958892 31 142 243
0.115204 -0.2855 -0.225809 31 142 243
0.159822 -0.156736 -0.0237168 31 142 243
0.166429 -0.230081 -0.0204095 31 142 243
0.061795 -0.378572 0.306982 31 142 243
0.168532 -0.206196 -0.334712 31 142 243
0.171467 -0.226738 -0.323164 31 142 243
0.173873 -0.29092 0.179218 31 142 243
0.177203 -0.204997 -0.241226 31 142 243
0.108253 -0.217707 -0.235888 31 142 243
-0.179622 -0.351724 0.276158 31 142 243
0.0720994 -0.141489 -0.280358 31 142 243
0.153654 -0.443873 0.289287 31 142 243
0.143626 -0.0725304 -0.225248 31 142 243
0.173367 -0.104556 -0.174193 31 142 243
0.0264571 -0.137422 -0.306493 31 142 243
0.110233 -0.387766 -0.262773 31 142 243
0.168616 -0.175869 -0.0652722 31 142 243
-0.091727 -0.178784 -0.328361 31 142 243
0.00835424 -0.374872 0.302916 31 142 243
0.172101 -0.116861 -0.132284 31 142 243
0.1701 -0.237037 -0.0937872 31 142 243
0.153776 -0.135336 0.167513 31 142 243
0.122792 -0.41545 -0.238215 31 142 243
-0.0594019 -0.159417 -0.329658 31 142 243
0.172529 -0.374849 -0.280257 31 142 243
-0.13527 -0.177849 -0.312506 31 142 243
-0.0965966 -0.143077 -0.320487 31 142 243
0.177378 -0.211453 -0.248701 31 142 243
0.0662112 -0.406087 0.26691 31 142 243
0.114379 -0.427185 0.30115 31 142 243
0.16854 -0.299751 0.264583 31 142 243
0.114823 -0.419309 0.311817 31 142 243
0.175437 -0.198206 -0.173708 31 142 243
0.177885 -0.395922 -0.0130217 31 142 243
0.0976801 -0.492057 0.228361 31 142 243
0.134805 -0.314166 -0.162022 31 142 243
0.167051 -0.22115 0.0332788 31 142 243
0.176033 -0.235825 -0.202774 31 142 243
0.154251 -0.101992 0.0232233 31 142 243
0.177865 -0.231395 -0.26813 31 142 243
0.159505 -0.47705 0.284459 31 142 243
0.00489663 -0.383275 -0.310252 31 142 243
0.171215 -0.284767 -0.329631 31 142 243
0.175877 -0.304244 -0.288525 31 142 243
0.0977912 -0.147371 -0.256654 31 142 243
0.153278 -0.0725551 -0.258647 31 142 243
0.124455 -0.401728 -0.231874 31 142 243
0.140482 -0.491749 0.0701634 31 142 243
0.171574 -0.186917 -0.122849 31 142 243
0.177102 -0.250719 -0.285766 31 142 243
0.171397 -0.224969 -0.122195 31 142 243
0.17361 -0.354442 -0.294661 31 142 243
0.175379 -0.311444 -0.274103 31 142 243
0.166159 -0.214514 -0.00329841 31 142 243
0.118114 -0.329666 -0.241794 31 142 243
0.151115 -0.193967 0.263605 31 142 243
0.177363 -0.224125 -0.237498 31 142 243
0.166624 -0.198517 -0.0256178 31 142 243
0.177541 -0.19578 -0.260077 31 142 243
0.12152 -0.378532 -0.242692 31 142 243
0.168678 -0.403001 -0.208265 31 142 243
0.178952 -0.439933 -0.0303061 31 142 243
0.0804184 -0.48362 -0.176218 31 142 243
0.167232 -0.316671 -0.0933992 31 142 243
0.124674 -0.447027 -0.22124 31 142 243
0.156193 -0.121246 -0.0264527 31 142 243
0.174184 -0.32861 -0.262518 31 142 243
0.144557 -0.267431 0.0768773 31 142 243
0.155881 -0.121809 -0.0232 31 142 243
0.102814 -0.482615 0.304318 31 142 243
-0.120563 -0.264915 -0.333427 31 142 243
0.149401 -0.49215 0.00429678 31 142 243
0.119177 -0.493976 -0.0349214 31 142 243
-0.057819 -0.24841 -0.316355 31 142 243
-0.09662 -0.180303 -0.317076 31 142 243
0.142583 -0.0736304 -0.249749 31 142 243
0.15345 -0.0748834 -0.330138 31 142 243
-0.120638 -0.201936 -0.326868 31 142 243
0.177753 -0.191289 -0.267572 31 142 243
0.17279 -0.15377 -0.152461 31 142 243
0.164646 -0.0722606 -0.288395 31 142 243
0.170175 -0.0844458 -0.284635 31 142 243
0.175968 -0.320523 0.064876 31 142 243
0.081608 -0.282122 0.295786 31 142 243
0.0709788 -0.483991 -0.188981 31 142 243
-0.108203 -0.143744 -0.315133 31 142 243
-0.0393971 -0.113512 -0.322229 31 142 243
0.162871 -0.370468 0.108856 31 142 243
0.156431 -0.0732479 -0.296143 31 142 243
0.151867 -0.0732624 -0.323483 31 142 243
-0.0111565 -0.204486 -0.335484 31 142 243
0.184051 -0.398517 0.171227 31 142 243
0.138971 -0.49156 0.0162731 31 142 243
0.170211 -0.378891 -0.091734 31 142 243
0.147272 -0.0955301 -0.0185556 31 142 243
0.119396 -0.367764 0.229781 31 142 243
0.133018 -0.086543 -0.203504 31 142 243
0.144853 -0.130677 -0.0836417 31 142 243
0.143676 -0.102842 -0.336623 31 142 243
0.0762613 -0.331826 0.312685 31 142 243
0.146505 -0.132484 -0.00989559 31 142 243
0.122273 -0.44929 -0.230508 31 142 243
0.167137 -0.239924 -0.00977606 31 142 243
0.169008 -0.295019 0.249642 31 142 243
0.12861 -0.439167 0.297698 31 142 243
0.0599576 -0.47183 -0.282571 31 142 243
0.171601 -0.458762 -0.154275 31 142 243
0.135473 -0.0756663 -0.277183 31 142 243
0.142505 -0.284037 0.0995545 31 142 243
0.153592 -0.0872689 -0.0628816 31 142 243
0.00764388 -0.321967 0.300062 31 142 243
0.158633 -0.0770714 -0.333431 31 142 243
0.177482 -0.119914 -0.242319 31 142 243
0.176651 -0.281805 -0.269645 31 142 243
0.171479 -0.204219 -0.119225 31 142 243
-0.0955248 -0.12385 -0.318206 31 142 243
0.171885 -0.323748 -0.197247 31 142 243
0.153974 -0.145333 0.177293 31 142 243
0.17698 -0.268237 -0.259976 31 142 243
-0.116293 -0.239101 -0.33103 31 142 243
0.173863 -0.307889 -0.228586 31 142 243
0.170886 -0.290378 0.0128692 31 142 243
0.184816 -0.426339 -0.0989286 31 142 243
0.150799 -0.0758845 -0.0725517 31 142 243
0.159346 -0.311636 0.296118 31 142 243
0.0300854 -0.495463 0.203425 31 142 243
0.130394 -0.49266 -0.0840443 31 142 243
0.168834 -0.397391 -0.230216 31 142 243
0.140549 -0.353155 -0.0963465 31 142 243
0.163253 -0.0995773 -0.0935277 31 142 243
0.17569 -0.143796 -0.193892 31 142 243
-0.0176914 -0.400647 -0.308123 31 142 243
0.116543 -0.134788 -0.239436 0 180 235
0.00702858 -0.190444 -0.297209 0 180 235
0.120128 -0.17701 -0.231706 0 180 235
0.146881 -0.435697 -0.0951418 0 180 235
0.13957 -0.188639 0.221486 0 180 235
0.134763 -0.248448 0.30992 0 180 235
0.143032 -0.401217 0.200405 0 180 235
0.0936024 -0.235227 -0.26113 0 180 235
0.101631 -0.470849 -0.261577 0 180 235
0.138816 -0.235338 0.0494925 0 180 235
0.138196 -0.473068 -0.14306 0 180 235
0.114814 -0.440331 -0.271468 0 180 235
0.135191 -0.153238 -0.200296 0 180 235
0.154215 -0.309443 -0.00256404 0 180 235
0.14152 -0.205603 0.168518 0 180 235
0.10386 -0.155011 -0.26123 0 180 235
0.142965 -0.151495 -0.113378 0 180 235
0.123978 -0.470106 -0.147454 0 180 235
0.0686435 -0.322058 -0.285058 0 180 235
-0.0134464 -0.276119 -0.295208 0 180 235
0.138753 -0.370186 -0.150391 0 180 235
-5.71981e-05 -0.233783 -0.294608 0 180 235
0.0963043 -0.383344 -0.272688 0 180 235
0.0565616 -0.359479 -0.18896 0 180 235
0.144919 -0.319966 0.0915443 0 180 235
0.140283 -0.23943 0.130623 0 180 235
0.150332 -0.135881 0.100647 0 180 235
0.137434 -0.328935 -0.0872732 0 180 235
-0.01175 -0.421549 -0.240122 0 180 235
0.0108122 -0.306302 -0.294389 0 180 235
0.142319 -0.385956 0.0119269 0 180 235
0.0644861 -0.287681 -0.282403 0 180 235
0.0944706 -0.473326 0.161319 0 180 235
0.0837691 -0.3459 -0.17804 0 180 235
0.0687801 -0.386737 -0.294465 0 180 235
0.142879 -0.456936 -0.0546439 0 180 235
0.146008 -0.143633 0.0322526 0 180 235
0.149996 -0.115733 0.185752 0 180 235
-0.0263406 -0.212962 -0.297746 0 180 235
0.136919 -0.26867 -0.0989345 0 180 235
0.128241 -0.318358 -0.23589 0 180 235
0.0703943 -0.368749 -0.289805 0 180 235
0.0688806 -0.477813 -0.0080631 0 180 235
0.135632 -0.306636 -0.0191872 0 180 235
0.1436 -0.0918351 0.31199 0 180 235
0.157968 -0.412233 -0.0538386 0 180 235
0.0888272 -0.151088 -0.276642 0 180 235
0.133066 -0.288322 0.306434 0 180 235
0.08514 -0.379659 -0.170517 0 180 235
0.0561625 -0.343224 -0.291043 0 180 235
0.136892 -0.317323 0.221389 0 180 235
0.158711 -0.348851 -0.012643 0 180 235
0.146431 -0.252763 0.163632 0 180 235
-0.0161835 -0.457941 -0.314485 0 180 235
0.141322 -0.189539 0.0323385 0 180 235
0.0989695 -0.232623 -0.245323 0 180 235
-0.058144 -0.479676 -0.140578 0 180 235
0.124983 -0.231786 -0.230721 0 180 235
0.139747 -0.225892 0.0727556 0 180 235
0.137729 -0.302071 0.110776 0 180 235
-0.0552905 -0.472101 -0.29835 0 180 235
0.0955707 -0.345538 -0.258728 0 180 235
0.134253 -0.268893 0.298106 0 180 235
0.139108 -0.184251 -0.0353737 0 180 235
0.137975 -0.437055 -0.163187 0 180 235
-0.0104016 -0.447079 -0.314978 0 180 235
0.137478 -0.35236 -0.0918149 0 180 235
0.133553 -0.383713 -0.213282 0 180 235
0.13523 -0.340716 -0.0244023 0 180 235
0.139934 -0.148652 0.312897 0 180 235
0.0942873 -0.433454 -0.288668 0 180 235
0.0541652 -0.238659 -0.283528 0 180 235
0.0780104 -0.213268 -0.276448 0 180 235
-0.108148 -0.428127 -0.3191 0 180 235
0.028641 -0.46692 -0.284124 0 180 235
0.151026 -0.430294 -0.0559909 0 180 235
0.0815712 -0.344258 -0.27936 0 180 235
0.140794 -0.451779 -0.0834485 0 180 235
0.142011 -0.179161 -0.0544387 0 180 235
-0.103632 -0.472007 -0.315555 0 180 235
0.0958464 -0.242523 -0.259296 0 180 235
0.142937 -0.426052 0.0567315 0 180 235
0.0428635 -0.300067 -0.287966 0 180 235
-0.00683734 -0.438984 -0.314758 0 180 235
0.159509 -0.397109 -0.0904093 0 180 235
0.143944 -0.0962005 0.31185 0 180 235
0.0143552 -0.258386 -0.297842 0 180 235
0.140232 -0.170215 -0.0881725 0 180 235
0.137054 -0.224872 -0.117837 0 180 235
0.141042 -0.457746 -0.0900009 0 180 235
0.0250379 -0.170991 -0.297932 0 180 235
0.145043 -0.438908 0.180955 0 180 235
0.0456051 -0.479646 -0.158728 0 180 235
0.143766 -0.382471 0.103273 0 180 235
-0.0555759 -0.275029 -0.299367 0 180 235
0.14112 -0.170249 -0.141533 0 180 235
0.089972 -0.447157 -0.229842 0 180 235
0.136149 -0.349518 0.141215 0 180 235
-0.0156056 -0.47594 -0.287458 0 180 235
0.150923 -0.0987475 0.168543 0 180 235
0.145962 -0.122011 0.271039 0 180 235
0.0549632 -0.33086 -0.289824 0 180 235
0.112306 -0.355009 -0.237989 0 180 235
0.152195 -0.101193 0.0550261 0 180 235
0.142605 -0.335981 -0.219404 0 180 235
0.0947387 -0.241737 -0.26006 0 180 235
0.0920089 -0.454453 -0.239791 0 180 235
0.0445359 -0.423582 -0.306285 0 180 235
0.142901 -0.417775 0.150274 0 180 235
0.138397 -0.237743 -0.162617 0 180 235
0.123285 -0.382013 -0.248895 0 180 235
0.140738 -0.141163 0.313029 0 180 235
0.138854 -0.246375 0.0691623 0 180 235
-0.00342835 -0.357924 -0.306415 0 180 235
0.142781 -0.106878 0.283961 0 180 235
0.13956 -0.253253 0.188348 0 180 235
0.000952669 -0.249427 -0.293942 0 180 235
0.0324767 -0.267363 -0.296973 0 180 235
0.129239 -0.466753 -0.049607 0 180 235
0.132455 -0.450244 -0.201759 0 180 235
0.135838 -0.336275 -0.0444725 0 180 235
0.143843 -0.406735 0.287993 0 180 235
0.1264 -0.0953049 0.303133 0 180 235
0.118615 -0.467618 -0.218237 0 180 235
0.135771 -0.28127 -0.0152339 0 180 235
0.140491 -0.175617 -0.0856994 0 180 235
0.137089 -0.402054 -0.0286216 0 180 235
0.128358 -0.398027 -0.232037 0 180 235
0.134736 -0.372257 -0.0409962 0 180 235
0.149544 -0.271627 -0.0229666 0 180 235
0.138043 -0.353863 -0.125211 0 180 235
0.136301 -0.33791 0.193413 0 180 235
0.158587 -0.40524 -0.0447411 0 180 235
0.141007 -0.113697 0.303468 0 180 235
-0.0541947 -0.474621 -0.313678 0 180 235
0.135142 -0.0874367 0.316778 0 180 235
0.148471 -0.105161 -0.0650427 0 180 235
0.137481 -0.337913 0.307954 0 180 235
0.141329 -0.418942 0.0043753 0 180 235
0.0882721 -0.394162 -0.281975 0 180 235
0.0273647 -0.354081 -0.300015 0 180 235
0.134445 -0.35296 -0.00318849 0 180 235
0.136903 -0.234359 -0.111597 0 180 235
0.126642 -0.383284 -0.162153 0 180 235
-0.118603 -0.444796 -0.319438 0 180 235
0.138988 -0.287853 -0.20436 0 180 235
0.0185074 -0.353349 -0.301756 0 180 235
0.132371 -0.360742 -0.228803 0 180 235
0.135197 -0.405952 -0.0761565 0 180 235
0.123559 -0.312636 -0.174628 0 180 235
0.0947925 -0.325484 -0.225501 0 180 235
-0.0414111 -0.328218 -0.305201 0 180 235
0.140218 -0.372181 0.309517 0 180 235
0.122566 -0.346643 -0.0651514 0 180 235
0.102546 -0.224573 -0.242262 0 180 235
0.137625 -0.336077 -0.0902487 0 180 235
-0.0226711 -0.270868 -0.296413 0 180 235
0.144609 -0.425159 0.0156479 0 180 235
0.0342952 -0.407034 -0.308798 0 180 235
0.143498 -0.30148 -0.152344 0 180 235
0.0784027 -0.332686 -0.280447 0 180 235
0.157485 -0.36298 0.00127045 0 180 235
0.105826 -0.42424 -0.174834 0 180 235
0.137039 -0.290164 0.0518444 0 180 235
0.116869 -0.463708 -0.211596 0 180 235
0.13042 -0.31349 -0.231774 0 180 235
0.0689703 -0.346452 -0.287523 0 180 235
0.138049 -0.347342 -0.126459 0 180 235
0.0855498 -0.469494 -0.277844 0 180 235
0.127293 -0.443182 -0.14394 0 180 235
0.121803 -0.39197 -0.216865 0 180 235
0.136458 -0.338603 0.207087 0 180 235
0.0209566 -0.473107 -0.298998 0 180 235
0.089896 -0.371321 -0.236699 0 180 235
0.13282 -0.374447 -0.221059 0 180 235
0.138775 -0.209125 0.208345 0 180 235
0.137746 -0.421885 -0.165279 0 180 235
-0.042885 -0.438054 -0.317541 0 180 235
0.0803316 -0.271376 -0.273459 0 180 235
0.0732921 -0.408718 -0.268663 0 180 235
0.13824 -0.187112 0.313156 0 180 235
0.155783 -0.329848 -0.0900375 0 180 235
0.132873 -0.321887 -0.134294 0 180 235
0.136613 -0.348354 -0.0724228 0 180 235
0.0747615 -0.325747 -0.282062 0 180 235
0.1234 -0.128998 -0.21975 0 180 235
0.137184 -0.294623 0.236254 0 180 235
0.0673557 -0.367732 -0.182177 0 180 235
0.087461 -0.459715 0.21447 0 180 235
0.113098 -0.474101 -0.124795 0 180 235
0.126853 -0.435371 -0.0693984 0 180 235
0.141553 -0.381167 0.243984 0 180 235
0.138865 -0.230233 0.206261 0 180 235
0.139334 -0.365351 0.279085 0 180 235
-0.0449079 -0.478173 -0.28732 0 180 235
0.143647 -0.307739 0.04965 0 180 235
0.138937 -0.273299 0.126399 0 180 235
0.151371 -0.290842 -0.0561817 0 180 235
0.0479528 -0.3164 -0.288977 0 180 235
0.138315 -0.381394 -0.126816 0 180 235
0.119362 -0.448754 -0.151716 0 180 235
0.108833 -0.168236 -0.248892 0 180 235
0.0898321 -0.462052 -0.291114 0 180 235
0.147812 -0.134349 0.0445572 0 180 235
0.137963 -0.348 -0.121796 0 180 235
0.144683 -0.14847 0.236095 0 180 235
0.148368 -0.15511 0.148229 0 180 235
0.0260082 -0.204022 -0.290721 0 180 235
0.103911 -0.279542 -0.229012 0 180 235
0.135376 -0.242656 0.312531 0 180 235
0.133531 -0.281444 0.300996 0 180 235
0.139319 -0.154031 0.312296 0 180 235
0.134295 -0.0945552 0.288676 0 180 235
0.145071 -0.122085 -0.0946566 0 180 235
0.158125 -0.376742 -0.0893172 0 180 235
0.150952 -0.103006 0.0503654 0 180 235
0.0468517 -0.383959 -0.301537 0 180 235
0.142242 -0.348099 0.0149007 0 180 235
0.133138 -0.361889 0.0359465 0 180 235
0.0525934 -0.354744 -0.29367 0 180 235
0.141144 -0.400943 0.173278 0 180 235
0.146938 -0.298492 -0.110883 0 180 235
0.11791 -0.149162 -0.235272 0 180 235
0.0133098 -0.303222 -0.293593 0 180 235
0.139718 -0.171103 0.289491 0 180 235
0.157124 -0.331143 -0.0114773 0 180 235
0.138136 -0.301059 0.171792 0 180 235
0.117077 -0.149934 -0.236717 0 180 235
0.137447 -0.236667 0.258894 0 180 235
0.139805 -0.164621 0.299219 0 180 235
0.118156 -0.47064 0.0516177 0 180 235
0.138814 -0.353072 0.308193 0 180 235
0.11749 -0.435882 -0.203902 0 180 235
0.145053 -0.454987 -0.00697136 0 180 235
0.0254473 -0.165943 -0.299004 0 180 235
0.137129 -0.347465 0.226719 0 180 235
0.12351 -0.128292 -0.217913 0 180 235
0.0561641 -0.478298 0.0728756 0 180 235
0.139056 -0.266305 0.18597 0 180 235
0.124857 -0.45618 -0.188227 0 180 235
0.0236428 -0.410252 -0.216612 0 180 235
0.112014 -0.159422 -0.244052 0 180 235
0.12754 -0.418923 -0.228958 0 180 235
0.094508 -0.423517 -0.195274 0 180 235
0.136933 -0.295984 0.24017 0 180 235
0.105642 -0.471884 -0.281063 0 180 235
0.133686 -0.432631 -0.196033 0 180 235
0.136561 -0.32205 -0.0555101 0 180 235
0.0343908 -0.390667 -0.306369 0 180 235
0.141671 -0.19328 0.0475103 0 180 235
0.0916413 -0.215569 -0.266862 0 180 235
0.146017 -0.14742 0.212523 0 180 235
