ply
format ascii 1.0
comment Created by Open3D
element vertex 1180
property double x
property double y
property double z
property uchar red
property uchar green
property uchar blue
end_header
-0.264977 -0.302633 -0.25087 32 212 224
-0.266664 -0.195313 0.0567059 32 212 224
-0.284306 -0.473414 0.114208 32 212 224
-0.25776 -0.359392 0.269093 32 212 224
-0.203731 -0.488811 0.136021 32 212 224
0.184331 -0.48603 -0.126597 32 212 224
-0.270978 -0.385958 -0.235349 32 212 224
-0.236365 -0.330386 -0.32223 32 212 224
0.247076 -0.4885 0.116779 32 212 224
-0.283457 -0.173858 -0.102557 32 212 224
-0.262887 -0.483482 -0.0395625 32 212 224
-0.127244 -0.488567 0.0559382 32 212 224
-0.266261 -0.32551 -0.240749 32 212 224
-0.177395 -0.488779 0.158391 32 212 224
-0.264745 -0.481084 -0.0758016 32 212 224
-0.268588 -0.44813 0.319446 32 212 224
-0.254259 -0.371718 0.317811 32 212 224
-0.246324 -0.486107 0.251669 32 212 224
-0.284351 -0.472394 0.113728 32 212 224
0.297095 -0.486359 -0.113688 32 212 224
-0.270454 -0.395465 -0.199114 32 212 224
-0.252758 -0.480118 -0.252692 32 212 224
0.0881319 -0.486654 -0.305023 32 212 224
-0.185687 -0.488849 0.130866 32 212 224
-0.146043 -0.487205 -0.123855 32 212 224
0.23519 -0.48747 0.0199632 32 212 224
-0.0917325 -0.487032 -0.274189 32 212 224
-0.0717378 -0.420029 -0.3263 32 212 224
0.0386159 -0.46715 -0.328209 32 212 224
-0.228393 -0.485646 0.218543 32 212 224
0.356237 -0.485765 -0.0260841 32 212 224
0.143711 -0.487804 0.0552507 32 212 224
-0.267421 -0.487595 0.099788 32 212 224
0.0246264 -0.488461 0.329998 32 212 224
-0.274666 -0.4585 -0.197521 32 212 224
-0.207248 -0.48785 0.289429 32 212 224
-0.109757 -0.489212 0.330444 32 212 224
0.130974 -0.487682 0.051741 32 212 224
-0.283395 -0.44802 0.0998844 32 212 224
-0.245673 -0.486102 0.255301 32 212 224
-0.278562 -0.464918 0.0113444 32 212 224
-0.0209932 -0.486725 -0.143476 32 212 224
0.15156 -0.487961 0.032032 32 212 224
0.251943 -0.487807 0.0574683 32 212 224
-0.149536 -0.488958 0.0873604 32 212 224
-0.269246 -0.325964 0.108085 32 212 224
0.0976765 -0.486255 -0.160668 32 212 224
-0.0841081 -0.487091 -0.039615 32 212 224
-0.27869 -0.435427 -0.0522787 32 212 224
-0.268852 -0.351139 -0.214921 32 212 224
-0.268524 -0.312048 0.112493 32 212 224
0.336612 -0.486841 0.0618801 32 212 224
-0.236116 -0.242686 0.283878 32 212 224
-0.283571 -0.240437 -0.0399944 32 212 224
-0.0513333 -0.487253 -0.236259 32 212 224
-0.0282694 -0.488545 0.298719 32 212 224
-0.277051 -0.198973 -0.143942 32 212 224
-0.266504 -0.254702 0.0976802 32 212 224
0.162089 -0.488465 0.175299 32 212 224
-0.127096 -0.489498 0.348208 32 212 224
-0.251308 -0.194838 -0.310716 32 212 224
0.0966095 -0.486422 -0.10705 32 212 224
0.00616296 -0.486594 -0.181233 32 212 224
-0.265212 -0.355143 0.189951 32 212 224
-0.230495 -0.384127 -0.322451 32 212 224
0.296947 -0.485916 -0.160228 32 212 224
-0.0100557 -0.488811 0.328597 32 212 224
-0.264075 -0.47312 0.334623 32 212 224
-0.282098 -0.388683 0.0253074 32 212 224
0.0373234 -0.486654 -0.047564 32 212 224
0.0176633 -0.471854 -0.327135 32 212 224
-0.264556 -0.268871 -0.252235 32 212 224
-0.199568 -0.489135 0.0846071 32 212 224
-0.273658 -0.447395 -0.155947 32 212 224
-0.204632 -0.446805 -0.326999 32 212 224
-0.264921 -0.479562 -0.115288 32 212 224
-0.152393 -0.488838 0.223412 32 212 224
-0.0223517 -0.488872 0.19311 32 212 224
-0.203314 -0.486802 0.22458 32 212 224
0.246733 -0.486971 -0.22913 32 212 224
-0.207469 -0.487922 -0.119071 32 212 224
-0.150721 -0.489004 0.193462 32 212 224
-0.0280899 -0.486444 -0.0919384 32 212 224
-0.266212 -0.209521 0.0611939 32 212 224
-0.265674 -0.390305 0.225756 32 212 224
-0.0948008 -0.489201 0.164843 32 212 224
-0.184179 -0.489051 0.0615325 32 212 224
-0.120816 -0.32177 -0.328043 32 212 224
-0.256673 -0.478764 0.361989 32 212 224
-0.26569 -0.230222 0.0824738 32 212 224
-0.251384 -0.484859 -0.212385 32 212 224
-0.21001 -0.488071 -0.185831 32 212 224
-0.27848 -0.307824 -0.0744907 32 212 224
0.243654 -0.486111 -0.0946935 32 212 224
-0.265674 -0.228421 0.0703317 32 212 224
-0.26182 -0.480727 -0.122549 32 212 224
0.110856 -0.487576 0.0275955 32 212 224
-0.278918 -0.438258 -0.0449951 32 212 224
-0.0876956 -0.488802 0.146324 32 212 224
0.239897 -0.486041 -0.079529 32 212 224
0.0680038 -0.488072 0.171594 32 212 224
-0.252988 -0.476277 -0.295872 32 212 224
-0.107165 -0.487726 -0.0146178 32 212 224
-0.20026 -0.188164 -0.329502 32 212 224
-0.267628 -0.408071 0.192885 32 212 224
0.00904033 -0.485116 -0.305302 32 212 224
-0.275922 -0.44168 -0.241225 32 212 224
0.0838839 -0.487307 0.0310651 32 212 224
-0.278065 -0.331428 -0.0765195 32 212 224
-0.0659233 -0.471692 -0.326531 32 212 224
0.289875 -0.486 -0.1892 32 212 224
0.273763 -0.486449 -0.189273 32 212 224
-0.0256119 -0.486681 -0.120312 32 212 224
-0.234452 -0.22936 0.282929 32 212 224
0.0684815 -0.48756 0.0722802 32 212 224
-0.223171 -0.487225 0.269442 32 212 224
-0.266466 -0.191773 0.0572866 32 212 224
-0.273358 -0.398296 -0.150966 32 212 224
0.200433 -0.487033 -0.222912 32 212 224
-0.159757 -0.48894 0.105703 32 212 224
-0.264617 -0.204526 -0.279581 32 212 224
-0.267676 -0.286877 0.113141 32 212 224
-0.236619 -0.248836 -0.322469 32 212 224
-0.184842 -0.22022 -0.330515 32 212 224
-0.281673 -0.416844 0.0306522 32 212 224
0.289742 -0.487295 0.0536873 32 212 224
0.238315 -0.486628 -0.163463 32 212 224
-0.172704 -0.488976 0.0855998 32 212 224
-0.258531 -0.475504 0.370279 32 212 224
0.0676721 -0.486384 -0.174177 32 212 224
-0.27506 -0.390881 -0.127022 32 212 224
0.148993 -0.486924 -0.233086 32 212 224
-0.199235 -0.487929 0.348113 32 212 224
-0.159568 -0.488846 0.156974 32 212 224
0.169962 -0.488736 0.252721 32 212 224
-0.272487 -0.475569 -0.0855012 32 212 224
-0.001678 -0.486795 -0.203174 32 212 224
-0.0686179 -0.487399 -0.222716 32 212 224
-0.169309 -0.488746 0.361289 32 212 224
-0.267075 -0.178678 -0.269882 32 212 224
0.116794 -0.487797 0.106971 32 212 224
0.26683 -0.486621 -0.153942 32 212 224
-0.269349 -0.290093 -0.198087 32 212 224
-0.266535 -0.263924 -0.281461 32 212 224
0.119089 -0.487229 -0.257798 32 212 224
0.024724 -0.474985 -0.326852 32 212 224
-0.234027 -0.48728 -0.209984 32 212 224
0.0676317 -0.486497 -0.300502 32 212 224
0.117563 -0.486721 -0.0631782 32 212 224
0.25849 -0.487165 0.0123896 32 212 224
-0.274429 -0.429486 -0.221414 32 212 224
-0.274647 -0.429996 0.137089 32 212 224
-0.11399 -0.451646 -0.327281 32 212 224
0.0542482 -0.486872 -0.0121084 32 212 224
-0.214221 -0.487947 -0.14892 32 212 224
-0.285791 -0.204185 -0.0239635 32 212 224
0.104623 -0.488094 0.186763 32 212 224
-0.262143 -0.265511 0.146013 32 212 224
-0.195426 -0.489058 0.072538 32 212 224
-0.28437 -0.468587 0.110475 32 212 224
0.168861 -0.48805 0.0491 32 212 224
0.266961 -0.486642 -0.182995 32 212 224
-0.21936 -0.439134 -0.326966 32 212 224
-0.276116 -0.402005 -0.297549 32 212 224
-0.0305186 -0.486518 -0.073268 32 212 224
-0.118377 -0.489441 0.220239 32 212 224
-0.265168 -0.283372 -0.26545 32 212 224
-0.0538208 -0.402596 -0.325924 32 212 224
-0.268396 -0.168739 -0.247176 32 212 224
-0.104229 -0.485094 -0.298685 32 212 224
-0.147014 -0.489113 0.376642 32 212 224
-0.238829 -0.268185 0.290197 32 212 224
0.22331 -0.486508 -0.045212 32 212 224
0.121548 -0.487647 0.0398511 32 212 224
-0.128599 -0.488446 0.0313758 32 212 224
-0.198588 -0.45831 -0.327218 32 212 224
0.0808648 -0.48701 -0.265475 32 212 224
-0.280812 -0.376008 0.0397546 32 212 224
-0.269797 -0.147108 -0.236687 32 212 224
-0.209786 -0.487997 -0.109298 32 212 224
-0.254926 -0.487947 0.139145 32 212 224
0.162187 -0.486017 -0.134278 32 212 224
0.0156272 -0.488414 0.324251 32 212 224
-0.129875 -0.488697 0.0792409 32 212 224
-0.185587 -0.488321 -0.0663926 32 212 224
-0.268931 -0.320456 0.0993863 32 212 224
-0.270161 -0.470908 0.198497 32 212 224
0.212694 -0.486356 -0.0682765 32 212 224
-0.277158 -0.463316 -0.0536812 32 212 224
0.118782 -0.488762 0.231746 32 212 224
0.000706635 -0.479463 -0.323462 32 212 224
-0.0450126 -0.487284 0.0113564 32 212 224
-0.277316 -0.481343 0.0237545 32 212 224
-0.0328787 -0.488544 0.168477 32 212 224
0.170381 -0.486965 -0.227127 32 212 224
-0.188091 -0.489013 0.0549313 32 212 224
-0.0571601 -0.487428 0.0262866 32 212 224
-0.128872 -0.487506 -0.18081 32 212 224
0.0798225 -0.488301 0.213246 32 212 224
0.204004 -0.4888 0.189223 32 212 224
0.190155 -0.487317 -0.243633 32 212 224
-0.270443 -0.395249 -0.198931 32 212 224
0.105494 -0.487487 0.0567982 32 212 224
-0.267353 -0.274578 0.103362 32 212 224
0.300147 -0.486227 -0.0769611 32 212 224
-0.276605 -0.345136 -0.104469 32 212 224
-0.228517 -0.487579 -0.237052 32 212 224
-0.185285 -0.48825 -0.0768714 32 212 224
-0.0664641 -0.48694 -0.0516005 32 212 224
0.0900533 -0.48736 0.0331176 32 212 224
-0.262541 -0.478625 0.313503 32 212 224
-0.0840905 -0.486898 -0.0807061 32 212 224
0.285432 -0.487895 0.091722 32 212 224
0.318101 -0.486181 -0.0548976 32 212 224
0.246049 -0.486825 -0.189204 32 212 224
-0.260323 -0.477841 0.33682 32 212 224
-0.189054 -0.488972 0.0455998 32 212 224
-0.207077 -0.487555 0.329781 32 212 224
0.122506 -0.487677 0.0332687 32 212 224
-0.284222 -0.244523 -0.0123019 32 212 224
-0.175479 -0.488078 0.387701 32 212 224
-0.126008 -0.487834 -0.0332942 32 212 224
0.269833 -0.486551 -0.018226 32 212 224
-0.0746388 -0.488551 0.140988 32 212 224
0.087262 -0.48641 -0.220658 32 212 224
-0.264685 -0.267871 -0.303643 32 212 224
-0.264476 -0.377619 0.249073 32 212 224
-0.26461 -0.185973 0.068104 32 212 224
-0.269312 -0.483691 0.14729 32 212 224
0.27924 -0.48619 -0.0381006 32 212 224
-0.0343056 -0.489338 0.261567 32 212 224
-0.273065 -0.370114 -0.268681 32 212 224
-0.247117 -0.310127 -0.32049 32 212 224
0.149163 -0.486248 -0.17693 32 212 224
-0.0907153 -0.486795 -0.116546 32 212 224
0.0888264 -0.489224 0.282616 32 212 224
0.294524 -0.485946 -0.166053 32 212 224
-0.0410588 -0.486492 -0.0861674 32 212 224
-0.123298 -0.48383 -0.307045 32 212 224
-0.0375306 -0.487103 -0.262635 32 212 224
0.179376 -0.488195 0.105854 32 212 224
-0.119875 -0.488838 0.238718 32 212 224
-0.199898 -0.488973 0.0426373 32 212 224
-0.277694 -0.433958 -0.0711548 32 212 224
0.0956122 -0.487805 0.106238 32 212 224
-0.275148 -0.429718 -0.237866 32 212 224
-0.0096496 -0.487413 0.046445 32 212 224
-0.182201 -0.488517 -0.026293 32 212 224
-0.262055 -0.477025 -0.207621 32 212 224
-0.266045 -0.273762 -0.272264 32 212 224
-0.249988 -0.485502 0.260161 32 212 224
-0.285674 -0.161097 -0.0749372 32 212 224
0.106072 -0.487993 0.157183 32 212 224
0.1072 -0.488726 0.219064 32 212 224
-0.284336 -0.232903 -0.0481665 32 212 224
-0.266667 -0.365279 0.170477 32 212 224
-0.110094 -0.488996 0.324078 32 212 224
-0.100623 -0.489247 0.235974 32 212 224
-0.265731 -0.377274 0.193833 32 212 224
-0.265091 -0.367224 0.198385 32 212 224
-0.199492 -0.460122 -0.327289 32 212 224
-0.251898 -0.3491 0.303139 32 212 224
0.137414 -0.488845 0.223174 32 212 224
-0.265479 -0.352028 0.195553 32 212 224
-0.26057 -0.482744 -0.0788891 32 212 224
0.00931806 -0.486309 -0.295783 32 212 224
0.0172828 -0.456241 -0.328715 32 212 224
-0.285828 -0.218591 -0.017179 32 212 224
-0.277989 -0.449067 -0.0505348 32 212 224
-0.235237 -0.487122 -0.103804 32 212 224
-0.224316 -0.488396 -0.00992176 32 212 224
-0.273597 -0.41418 -0.14725 32 212 224
0.0744962 -0.486318 -0.140939 32 212 224
-0.281535 -0.368013 0.0200449 32 212 224
0.0399393 -0.488157 0.207543 32 212 224
0.0926833 -0.487201 -0.270599 32 212 224
-0.272326 -0.285613 0.0574608 32 212 224
-0.249875 -0.481681 0.376475 32 212 224
-0.214336 -0.485897 0.227977 32 212 224
-0.225075 -0.487951 -0.209414 32 212 224
-0.1529 -0.488928 0.106813 32 212 224
-0.227685 -0.335863 -0.323415 32 212 224
-0.256755 -0.485426 -0.0597017 32 212 224
-0.256619 -0.286917 -0.315261 32 212 224
0.0311979 -0.486566 -0.151583 32 212 224
-0.185747 -0.488294 0.214179 32 212 224
-0.201633 -0.489015 0.0978556 32 212 224
-0.265681 -0.176853 -0.278483 32 212 224
0.0146657 -0.487989 0.136912 32 212 224
-0.157079 -0.485741 -0.295181 32 212 224
0.224655 -0.486142 -0.111334 32 212 224
-0.22814 -0.487588 -0.1515 32 212 224
-0.00992392 -0.486665 -0.132327 32 212 224
0.0246603 -0.487543 0.0642267 32 212 224
-0.277166 -0.362336 -0.0974958 32 212 224
-0.148478 -0.487264 -0.120022 32 212 224
-0.277192 -0.396168 -0.0911825 32 212 224
-0.122248 -0.487018 -0.282169 32 212 224
-0.259963 -0.485116 0.243153 32 212 224
0.299977 -0.487662 0.119228 32 212 224
-0.195343 -0.48884 0.136338 32 212 224
-0.279792 -0.437854 -0.0271595 32 212 224
-0.160517 -0.488919 0.0369913 32 212 224
-0.234049 -0.271101 -0.323678 32 212 224
-0.247972 -0.486015 -0.171316 32 212 224
0.262545 -0.48844 0.128658 32 212 224
-0.241373 -0.486595 -0.193832 32 212 224
-0.0741438 -0.48822 0.0949516 32 212 224
-0.18933 -0.487941 -0.107857 32 212 224
-0.261089 -0.192087 0.0997551 32 212 224
-0.261975 -0.414167 0.329058 32 212 224
0.0782308 -0.488112 0.203122 32 212 224
-0.259846 -0.478272 -0.207492 32 212 224
0.152078 -0.487941 0.0851862 32 212 224
0.237114 -0.488171 0.076702 32 212 224
0.290874 -0.487944 0.136695 32 212 224
0.120568 -0.488772 0.213471 32 212 224
0.327088 -0.485781 -0.102971 32 212 224
-0.269291 -0.242259 -0.199006 32 212 224
-0.281614 -0.169783 -0.0295055 32 212 224
-0.251796 -0.462411 -0.316273 32 212 224
0.185076 -0.488155 0.0707402 32 212 224
-0.271254 -0.3759 -0.179297 32 212 224
-0.173759 -0.486996 0.260906 32 212 224
-0.207228 -0.487589 0.340797 32 212 224
-0.0189027 -0.489391 0.269473 32 212 224
0.298576 -0.48697 0.0260222 32 212 224
-0.193065 -0.488039 0.291765 32 212 224
-0.27964 -0.296589 0.0450486 32 212 224
0.17894 -0.488225 0.13712 32 212 224
-0.114367 -0.313558 -0.328684 32 212 224
-0.274165 -0.373857 -0.300024 32 212 224
-0.128439 -0.48779 -0.205871 32 212 224
-0.250043 -0.294988 0.235837 32 212 224
0.033427 -0.485161 -0.308108 32 212 224
-0.245168 -0.478834 -0.304537 32 212 224
-0.281936 -0.206323 -0.00705966 32 212 224
-0.0368677 -0.471272 -0.326549 32 212 224
0.249102 -0.486693 -0.170078 32 212 224
0.23758 -0.486114 -0.0976109 32 212 224
-0.264478 -0.392533 0.275651 32 212 224
0.141273 -0.486392 -0.0811076 32 212 224
-0.272341 -0.392846 -0.244719 32 212 224
0.0124356 -0.489101 0.28233 32 212 224
-0.246059 -0.482588 0.385811 32 212 224
-0.258601 -0.47548 0.369951 32 212 224
-0.275359 -0.373538 -0.290704 32 212 224
-0.232047 -0.487208 -0.247121 32 212 224
0.00540995 -0.487415 0.0482618 32 212 224
-0.264047 -0.189329 -0.290896 32 212 224
-0.0911575 -0.487387 -0.173924 32 212 224
0.239576 -0.486853 -0.194035 32 212 224
-0.267051 -0.345855 0.159558 32 212 224
-0.285063 -0.146207 -0.107443 32 212 224
0.012089 -0.488557 0.205467 32 212 224
-0.170698 -0.488426 -0.0540297 32 212 224
0.0747189 -0.486467 -0.217658 32 212 224
-0.0710842 -0.455338 -0.326866 32 212 224
-0.128752 -0.487878 0.28605 32 212 224
-0.235468 -0.479027 -0.313718 32 212 224
-0.279237 -0.384059 0.0858707 32 212 224
0.292375 -0.486091 -0.0573892 32 212 224
-0.184179 -0.219797 -0.330566 32 212 224
-0.179255 -0.488764 0.190784 32 212 224
0.126572 -0.486773 -0.232486 32 212 224
-0.245683 -0.486304 -0.142734 32 212 224
-0.262554 -0.485646 -5.26896e-05 32 212 224
0.165663 -0.486679 -0.204022 32 212 224
-0.27264 -0.472166 0.194919 32 212 224
-0.242271 -0.299571 -0.321618 32 212 224
-0.163315 -0.426624 -0.326187 32 212 224
-0.0631561 -0.488969 0.318952 32 212 224
0.229677 -0.488714 0.168561 32 212 224
-0.218998 -0.483298 -0.303057 32 212 224
-0.0894247 -0.48721 -0.16107 32 212 224
-0.26716 -0.449368 0.285178 32 212 224
-0.258413 -0.482828 -0.103457 32 212 224
-0.277696 -0.45804 -0.0477031 32 212 224
-0.21521 -0.488018 -0.170626 32 212 224
-0.0237204 -0.483823 -0.309042 32 212 224
-0.267619 -0.473004 0.258809 32 212 224
-0.214196 -0.488112 -0.0907042 32 212 224
-0.258671 -0.468413 -0.291833 32 212 224
-0.269102 -0.479414 0.249039 32 212 224
-0.267192 -0.44547 0.284163 32 212 224
-0.282528 -0.295037 -0.0202863 32 212 224
-0.0815162 -0.487486 -0.193154 32 212 224
0.247979 -0.488403 0.110378 32 212 224
-0.184711 -0.488639 0.332813 32 212 224
-0.183688 -0.488687 0.00515188 32 212 224
-0.264834 -0.482024 -0.055818 32 212 224
-0.243796 -0.485678 0.184002 32 212 224
-0.221913 -0.355672 -0.323785 32 212 224
-0.150888 -0.452723 -0.327455 32 212 224
-0.258199 -0.471359 -0.284089 32 212 224
-0.270174 -0.465534 -0.208108 32 212 224
-0.235998 -0.486507 0.317144 32 212 224
-0.249365 -0.478919 -0.29643 32 212 224
-0.249109 -0.223759 0.184384 32 212 224
-0.143725 -0.487739 -0.0718154 32 212 224
-0.281627 -0.422554 0.0678687 32 212 224
-0.265504 -0.213013 -0.270844 32 212 224
-0.121104 -0.356398 -0.326428 32 212 224
-0.255417 -0.282853 0.19404 32 212 224
-0.28681 -0.194874 -0.0363771 32 212 224
-0.0109014 -0.487123 -0.235956 32 212 224
0.00857225 -0.486636 -0.110011 32 212 224
0.0645646 -0.480029 -0.323339 32 212 224
-0.0510283 -0.487131 -0.21457 32 212 224
0.321476 -0.486135 -0.0620546 32 212 224
-0.120986 -0.408765 -0.325093 32 212 224
-0.18127 -0.48842 -0.0530598 32 212 224
-0.276729 -0.480201 0.194224 32 212 224
-0.00116532 -0.486658 -0.150126 32 212 224
0.185478 -0.486769 -0.0347511 32 212 224
-0.219706 -0.488154 -0.215603 32 212 224
0.234962 -0.486094 -0.0784224 32 212 224
-0.161739 -0.487338 -0.135098 32 212 224
0.170641 -0.487493 -0.254041 32 212 224
-0.239643 -0.282972 0.297853 32 212 224
0.226478 -0.487891 0.0371859 32 212 224
-0.283143 -0.474754 0.131223 32 212 224
-0.253102 -0.488164 0.127714 32 212 224
-0.0308921 -0.486699 -0.180394 32 212 224
0.18547 -0.48633 -0.0792935 32 212 224
-0.253205 -0.485168 -0.184872 32 212 224
-0.172389 -0.478178 -0.321251 32 212 224
-0.135606 -0.487865 -0.256059 32 212 224
0.0967855 -0.487047 -0.257837 32 212 224
0.117996 -0.487464 -0.270725 32 212 224
-0.193175 -0.488821 0.142882 32 212 224
-0.269952 -0.486225 0.0621467 32 212 224
-0.280064 -0.472545 0.174089 32 212 224
-0.267101 -0.173864 -0.270833 32 212 224
0.122203 -0.48767 -0.282106 32 212 224
-0.100435 -0.489023 0.151512 32 212 224
-0.284318 -0.469708 0.125618 32 212 224
-0.120992 -0.458213 -0.32726 32 212 224
-0.240752 -0.268696 0.279976 32 212 224
-0.218957 -0.288603 -0.325566 32 212 224
-0.267448 -0.282135 -0.300615 32 212 224
0.275702 -0.486509 -0.152517 32 212 224
-0.280511 -0.343134 0.0204521 32 212 224
-0.235727 -0.487042 -0.227476 32 212 224
-0.237091 -0.269198 0.299543 32 212 224
0.0158286 -0.486646 -0.0431134 32 212 224
-0.277667 -0.155857 -0.0259212 32 212 224
-0.239973 -0.243493 -0.321275 32 212 224
-0.283724 -0.460327 0.0904707 32 212 224
-0.268164 -0.461623 0.259713 32 212 224
-0.181914 -0.488452 0.355869 32 212 224
-0.113767 -0.48946 0.191695 32 212 224
0.253681 -0.487552 0.0382173 32 212 224
-0.04132 -0.486462 -0.0956635 32 212 224
0.255167 -0.486111 -0.089536 32 212 224
-0.269798 -0.471891 0.226261 32 212 224
-0.282637 -0.453881 0.078432 32 212 224
0.253454 -0.48624 -0.109522 32 212 224
0.314025 -0.486728 0.0188915 32 212 224
-0.269825 -0.191366 0.0317137 32 212 224
-0.182881 -0.487599 -0.169121 32 212 224
0.25371 -0.486848 -0.21568 32 212 224
-0.274489 -0.241101 -0.147897 32 212 224
0.0904868 -0.486873 -0.0539817 32 212 224
-0.0527257 -0.489347 0.204177 32 212 224
0.245173 -0.486197 -0.10932 32 212 224
-0.072534 -0.486893 -0.068004 32 212 224
-0.249061 -0.48335 -0.250222 32 212 224
0.30725 -0.485664 -0.159555 32 212 224
0.133408 -0.487053 -0.245318 32 212 224
-0.277627 -0.456302 -0.0516529 32 212 224
-0.230639 -0.451624 -0.32698 32 212 224
-0.0818769 -0.358147 -0.32668 32 212 224
-0.218083 -0.487579 0.287627 32 212 224
-0.233808 -0.205721 0.268033 32 212 224
-0.27954 -0.470209 0.174616 32 212 224
0.173507 -0.486207 -0.155392 32 212 224
0.023757 -0.489644 0.252744 32 212 224
-0.0473783 -0.488589 0.160766 32 212 224
-0.271586 -0.485948 0.123152 32 212 224
-0.237316 -0.267112 0.297072 32 212 224
-0.278529 -0.449637 0.141867 32 212 224
0.125857 -0.487509 -0.00328884 32 212 224
0.325789 -0.486079 -0.045661 32 212 224
0.00164538 -0.486861 -0.212216 32 212 224
-0.183123 -0.489043 0.0630213 32 212 224
-0.265583 -0.180946 -0.278068 32 212 224
-0.304154 -0.462022 -0.0840381 64 236 211
-0.300419 -0.315009 -0.335761 64 236 211
-0.248159 -0.479492 -0.359895 64 236 211
-0.279422 -0.481705 0.21455 64 236 211
-0.309376 -0.466876 -0.201144 64 236 211
-0.187538 -0.474777 0.215824 64 236 211
-0.307637 -0.392638 -0.294324 64 236 211
-0.297838 -0.358983 -0.106806 64 236 211
-0.304127 -0.463221 -0.0897302 64 236 211
-0.303607 -0.239876 0.0947508 64 236 211
-0.107906 -0.463607 -0.363264 64 236 211
-0.0271474 -0.486299 -0.301577 64 236 211
-0.158306 -0.472555 -0.365115 64 236 211
-0.302462 -0.3611 0.367287 64 236 211
-0.167753 -0.353092 -0.351434 64 236 211
-0.305689 -0.217463 -0.039605 64 236 211
-0.291926 -0.45024 -0.352212 64 236 211
-0.214316 -0.354372 -0.352191 64 236 211
0.0499206 -0.461237 -0.358075 64 236 211
-0.308433 -0.448716 -0.22909 64 236 211
-0.290265 -0.386251 0.177773 64 236 211
-0.298755 -0.294801 0.114891 64 236 211
-0.125575 -0.466775 0.225405 64 236 211
0.0418214 -0.483752 -0.333058 64 236 211
0.0460223 -0.459374 -0.357912 64 236 211
-0.306708 -0.477993 -0.236879 64 236 211
0.041355 -0.48618 -0.274349 64 236 211
-0.304336 -0.458459 -0.0622762 64 236 211
-0.301088 -0.304803 -0.00215947 64 236 211
-0.209217 -0.48651 -0.176448 64 236 211
-0.2819 -0.414646 -0.352537 64 236 211
-0.309131 -0.466997 -0.302269 64 236 211
-0.19398 -0.425979 -0.357756 64 236 211
-0.305393 -0.321061 -0.318202 64 236 211
-0.305842 -0.308053 -0.281464 64 236 211
-0.000800137 -0.476263 0.0590578 64 236 211
-0.304656 -0.179904 0.143717 64 236 211
-0.302146 -0.439336 -0.11891 64 236 211
-0.308064 -0.160419 0.0267824 64 236 211
-0.307655 -0.173321 0.00873231 64 236 211
-0.308875 -0.227379 -0.18382 64 236 211
-0.0393191 -0.480362 -0.360955 64 236 211
-0.306579 -0.219874 0.0538066 64 236 211
-0.0141746 -0.430398 -0.358471 64 236 211
-0.266797 -0.279734 -0.345629 64 236 211
-0.181925 -0.481017 0.130016 64 236 211
-0.301583 -0.389683 -0.156244 64 236 211
-0.290678 -0.45432 0.215238 64 236 211
-0.294254 -0.276529 0.291725 64 236 211
-0.249566 -0.360016 -0.351724 64 236 211
-0.28823 -0.486361 0.0306 64 236 211
-0.141004 -0.434402 -0.358788 64 236 211
-0.131651 -0.486995 -0.035116 64 236 211
0.101089 -0.484329 -0.162947 64 236 211
-0.215988 -0.432952 -0.359985 64 236 211
-0.310945 -0.166694 -0.192241 64 236 211
-0.307791 -0.472483 -0.0235113 64 236 211
-0.297214 -0.192768 -0.338975 64 236 211
-0.309972 -0.461891 -0.234546 64 236 211
-0.287953 -0.17245 -0.342447 64 236 211
-0.311356 -0.478064 0.0653451 64 236 211
-0.135454 -0.45391 -0.362059 64 236 211
-0.292133 -0.206153 -0.341497 64 236 211
-0.177461 -0.300285 -0.349089 64 236 211
-0.209398 -0.477379 0.205423 64 236 211
-0.304033 -0.224941 0.106012 64 236 211
-0.260318 -0.487 -0.0201703 64 236 211
-0.307045 -0.171631 -0.0714705 64 236 211
-0.0603241 -0.48475 -0.0396241 64 236 211
-0.0969708 -0.479102 0.0941879 64 236 211
-0.311713 -0.139478 -0.180692 64 236 211
-0.303027 -0.308742 -0.146053 64 236 211
-0.021926 -0.485066 -0.0679087 64 236 211
-0.29754 -0.405518 -0.00421924 64 236 211
-0.1317 -0.479902 -0.357656 64 236 211
-0.269728 -0.434417 -0.360248 64 236 211
-0.30916 -0.465005 -0.197401 64 236 211
-0.308386 -0.218505 -0.141071 64 236 211
-0.344553 -0.474229 0.3191 64 236 211
-0.301563 -0.169185 0.315832 64 236 211
-0.304891 -0.30935 -0.203732 64 236 211
-0.308788 -0.211311 -0.14472 64 236 211
0.0172413 -0.4237 -0.356437 64 236 211
-0.216238 -0.343109 -0.351689 64 236 211
-0.291835 -0.398097 0.139944 64 236 211
-0.292643 -0.365016 0.0510745 64 236 211
-0.22209 -0.429038 -0.35973 64 236 211
-0.165814 -0.48647 -0.138212 64 236 211
-0.298868 -0.33263 -0.0430997 64 236 211
-0.299691 -0.424604 -0.043305 64 236 211
-0.0014 -0.481681 -0.352571 64 236 211
-0.215982 -0.486782 -0.0790758 64 236 211
-0.308816 -0.251478 -0.294886 64 236 211
0.062235 -0.449059 -0.356653 64 236 211
-0.272655 -0.486529 -0.199822 64 236 211
-0.197873 -0.479738 -0.356468 64 236 211
0.022037 -0.486209 -0.255996 64 236 211
-0.147378 -0.481759 0.0847278 64 236 211
-0.273821 -0.480927 -0.345462 64 236 211
-0.305129 -0.429262 -0.186246 64 236 211
-0.307142 -0.179729 -0.0181591 64 236 211
-0.298623 -0.385274 -0.0913917 64 236 211
-0.237264 -0.266578 -0.346832 64 236 211
-0.11088 -0.486941 -0.0523108 64 236 211
-0.304224 -0.229109 0.0964032 64 236 211
-0.301007 -0.279615 0.085798 64 236 211
-0.293203 -0.338403 0.107841 64 236 211
-0.301937 -0.361594 -0.180841 64 236 211
-0.309427 -0.460751 -0.221873 64 236 211
-0.302164 -0.178718 0.242247 64 236 211
-0.312098 -0.135998 -0.195255 64 236 211
-0.24705 -0.483681 -0.325799 64 236 211
-0.227965 -0.484256 -0.318225 64 236 211
-0.018697 -0.479123 0.0353681 64 236 211
-0.307919 -0.254081 -0.304204 64 236 211
-0.306931 -0.383166 -0.279997 64 236 211
-0.306941 -0.173552 -0.0353128 64 236 211
-0.313199 -0.126276 -0.286458 64 236 211
-0.129156 -0.479267 -0.363116 64 236 211
-0.288767 -0.32716 0.341393 64 236 211
-0.192053 -0.431155 -0.358066 64 236 211
-0.308359 -0.263014 -0.245579 64 236 211
0.0452523 -0.486248 -0.301263 64 236 211
-0.29858 -0.270339 -0.337058 64 236 211
-0.246717 -0.484835 0.0928888 64 236 211
-0.307695 -0.438381 -0.237385 64 236 211
-0.23348 -0.325436 -0.350256 64 236 211
-0.243256 -0.439142 -0.362139 64 236 211
-0.298957 -0.281129 0.158568 64 236 211
-0.15966 -0.409579 -0.35633 64 236 211
-0.283816 -0.486298 -0.26413 64 236 211
-0.307997 -0.214658 -0.126573 64 236 211
-0.294536 -0.367904 0.0150349 64 236 211
-0.308647 -0.473939 -0.0113691 64 236 211
0.0379226 -0.486231 -0.230808 64 236 211
-0.305101 -0.307068 -0.299037 64 236 211
-0.300392 -0.310183 0.0292069 64 236 211
-0.239104 -0.487102 0.00197881 64 236 211
-0.108572 -0.486339 -0.243647 64 236 211
-0.301764 -0.205759 0.220039 64 236 211
-0.209082 -0.30522 -0.349906 64 236 211
-0.222757 -0.483658 0.125899 64 236 211
-0.185586 -0.476046 0.201291 64 236 211
-0.208027 -0.469135 -0.364627 64 236 211
-0.303265 -0.451841 -0.0651703 64 236 211
-0.267545 -0.483267 0.174816 64 236 211
0.00562593 -0.486327 -0.190501 64 236 211
-0.306929 -0.247048 -0.323338 64 236 211
-0.124448 -0.31701 -0.349233 64 236 211
-0.258281 -0.485616 0.0326442 64 236 211
-0.301708 -0.182939 0.25379 64 236 211
-0.306393 -0.20429 0.0792067 64 236 211
0.0220424 -0.482296 -0.347898 64 236 211
-0.261375 -0.484669 0.103824 64 236 211
-0.301859 -0.163024 0.27013 64 236 211
-0.307208 -0.437072 -0.224078 64 236 211
-0.30435 -0.307756 -0.183368 64 236 211
-0.310754 -0.467534 0.12218 64 236 211
-0.0582026 -0.48034 0.0416718 64 236 211
-0.0987615 -0.338364 -0.352003 64 236 211
-0.301738 -0.18069 0.255489 64 236 211
0.0327963 -0.485318 -0.0996001 64 236 211
-0.298036 -0.48038 0.252105 64 236 211
-0.234653 -0.486723 -0.115257 64 236 211
-0.178536 -0.323736 -0.349895 64 236 211
-0.296165 -0.411946 0.149606 64 236 211
-0.312985 -0.143288 -0.256912 64 236 211
-0.291184 -0.266584 -0.340922 64 236 211
-0.301431 -0.18749 0.257655 64 236 211
-0.134452 -0.336491 -0.350252 64 236 211
-0.148146 -0.483227 -0.324815 64 236 211
-0.301341 -0.23303 -0.336024 64 236 211
-0.291754 -0.399926 0.120485 64 236 211
-0.290782 -0.218427 -0.341688 64 236 211
-0.299138 -0.380155 -0.115849 64 236 211
-0.307454 -0.194299 0.0279898 64 236 211
-0.289234 -0.486474 -0.114835 64 236 211
-0.30638 -0.352419 -0.302885 64 236 211
-0.152723 -0.480703 -0.347358 64 236 211
-0.114684 -0.473024 0.181733 64 236 211
-0.290637 -0.366512 0.262815 64 236 211
-0.20948 -0.479305 -0.361624 64 236 211
-0.302264 -0.439717 -0.332335 64 236 211
-0.0693214 -0.486308 -0.240352 64 236 211
-0.270751 -0.483853 -0.323449 64 236 211
-0.30477 -0.248099 -0.0434957 64 236 211
0.0324372 -0.482405 -0.347818 64 236 211
-0.210323 -0.486541 -0.159015 64 236 211
-0.303941 -0.382179 -0.219114 64 236 211
-0.286359 -0.470238 0.188388 64 236 211
-0.273411 -0.486546 -0.262491 64 236 211
0.0784891 -0.481292 -0.360071 64 236 211
-0.253567 -0.478936 -0.363287 64 236 211
-0.304988 -0.428854 -0.323694 64 236 211
-0.307658 -0.425854 0.243222 64 236 211
-0.148464 -0.486735 -0.0208475 64 236 211
-0.148474 -0.486287 -0.270668 64 236 211
-0.096012 -0.486488 -0.120733 64 236 211
-0.210862 -0.476733 0.213714 64 236 211
-0.0927474 -0.484213 -0.0549627 64 236 211
-0.3148 -0.478792 0.280602 64 236 211
-0.038835 -0.36818 -0.353999 64 236 211
-0.3081 -0.17122 -0.0969862 64 236 211
-0.302545 -0.233559 0.125931 64 236 211
-0.306202 -0.483173 0.00732816 64 236 211
-0.293729 -0.400191 -0.343669 64 236 211
-0.306595 -0.200848 -0.0753708 64 236 211
-0.00701731 -0.450621 -0.359896 64 236 211
-0.304624 -0.296634 -0.167176 64 236 211
-0.304377 -0.172751 0.16722 64 236 211
-0.23943 -0.428829 -0.36039 64 236 211
-0.290909 -0.316048 0.266091 64 236 211
-0.313242 -0.135068 -0.250673 64 236 211
0.068467 -0.434285 -0.355172 64 236 211
-0.11743 -0.480671 0.0844169 64 236 211
-0.307579 -0.410079 -0.307566 64 236 211
-0.307373 -0.273149 -0.214705 64 236 211
-0.310001 -0.224034 -0.244064 64 236 211
-0.242091 -0.486558 -0.235739 64 236 211
-0.163009 -0.473569 0.207338 64 236 211
-0.309135 -0.261789 -0.281373 64 236 211
-0.0497038 -0.487018 -0.0759529 64 236 211
-0.208896 -0.478854 0.188287 64 236 211
-0.119145 -0.359009 -0.353647 64 236 211
-0.29047 -0.348501 0.148474 64 236 211
-0.0745825 -0.4858 -0.0668338 64 236 211
-0.30375 -0.445808 0.100608 64 236 211
-0.018886 -0.486256 -0.291148 64 236 211
-0.300066 -0.317196 0.00870312 64 236 211
-0.305577 -0.355636 -0.316905 64 236 211
-0.305602 -0.27653 -0.15789 64 236 211
-0.303314 -0.348188 -0.32791 64 236 211
-0.304969 -0.342047 -0.273423 64 236 211
-0.123486 -0.48649 -0.125584 64 236 211
-0.300795 -0.256478 0.132769 64 236 211
-0.108021 -0.486457 -0.144172 64 236 211
-0.11262 -0.454453 -0.362331 64 236 211
-0.0663531 -0.47824 0.0813932 64 236 211
-0.311218 -0.18207 -0.298042 64 236 211
-0.27585 -0.283763 -0.344695 64 236 211
-0.309509 -0.214672 -0.310023 64 236 211
-0.308591 -0.453522 -0.305733 64 236 211
-0.308604 -0.465304 0.0790509 64 236 211
-0.293554 -0.331807 0.141015 64 236 211
-0.0918805 -0.370975 -0.354414 64 236 211
-0.312155 -0.144226 -0.212801 64 236 211
-0.245599 -0.486897 -0.0491934 64 236 211
-0.298027 -0.30422 0.111756 64 236 211
-0.291819 -0.328281 0.20437 64 236 211
-0.160651 -0.422562 -0.357087 64 236 211
-0.188697 -0.395672 -0.35628 64 236 211
0.091246 -0.474688 -0.359489 64 236 211
-0.296786 -0.244546 0.318515 64 236 211
-0.289628 -0.473593 0.284303 64 236 211
-0.206386 -0.335294 -0.351261 64 236 211
-0.298711 -0.484767 -0.177948 64 236 211
-0.0959877 -0.486838 -0.0685619 64 236 211
-0.226847 -0.486508 -0.285611 64 236 211
-0.292809 -0.179486 -0.340982 64 236 211
-0.0577373 -0.486294 -0.262302 64 236 211
-0.141754 -0.46943 0.221276 64 236 211
-0.279985 -0.38012 -0.350101 64 236 211
-0.299797 -0.326478 -0.103386 64 236 211
-0.308359 -0.2638 -0.292691 64 236 211
-0.17235 -0.266998 -0.34756 64 236 211
-0.173555 -0.278679 -0.34819 64 236 211
-0.30783 -0.473815 -0.285152 64 236 211
-0.288913 -0.483702 -0.320883 64 236 211
-0.30797 -0.238506 -0.156792 64 236 211
-0.305984 -0.392131 -0.319005 64 236 211
-0.146152 -0.469762 0.221614 64 236 211
-0.302097 -0.257909 0.0943375 64 236 211
-0.296759 -0.203363 -0.339317 64 236 211
-0.209395 -0.482294 -0.335514 64 236 211
-0.180946 -0.256235 -0.347149 64 236 211
-0.28864 -0.328271 0.310777 64 236 211
-0.301329 -0.175337 0.31673 64 236 211
-0.306123 -0.274327 -0.173491 64 236 211
-0.284838 -0.47669 0.107918 64 236 211
-0.309802 -0.460002 -0.268041 64 236 211
-0.310485 -0.124483 -0.32808 64 236 211
-0.23736 -0.208673 -0.345343 64 236 211
-0.297887 -0.144354 -0.338119 64 236 211
-0.0129135 -0.485436 -0.0983674 64 236 211
-0.26076 -0.483598 -0.326805 64 236 211
-0.305468 -0.223532 -0.0503039 64 236 211
-0.298332 -0.319024 0.0567823 64 236 211
-0.304869 -0.244264 0.0617309 64 236 211
-0.291776 -0.394221 0.164944 64 236 211
0.00817306 -0.486208 -0.278852 64 236 211
-0.300692 -0.187831 0.312711 64 236 211
-0.0418609 -0.48646 -0.122649 64 236 211
-0.302725 -0.359101 -0.196604 64 236 211
-0.289524 -0.320396 0.278928 64 236 211
-0.232213 -0.308 -0.349359 64 236 211
-0.196235 -0.314738 -0.350142 64 236 211
0.0446127 -0.4862 -0.210342 64 236 211
-0.245282 -0.486584 -0.209675 64 236 211
-0.210966 -0.479432 -0.360822 64 236 211
-0.310715 -0.474398 0.294535 64 236 211
-0.202346 -0.2476 -0.346711 64 236 211
-0.296471 -0.456655 0.284404 64 236 211
-0.307846 -0.459296 0.160018 64 236 211
-0.306011 -0.233869 -0.0832049 64 236 211
-0.305101 -0.234582 -0.0408767 64 236 211
-0.303002 -0.285461 -0.0721177 64 236 211
-0.273123 -0.481744 0.204013 64 236 211
-0.30114 -0.321737 -0.335028 64 236 211
-0.308354 -0.463367 -0.308475 64 236 211
-0.304756 -0.424416 -0.324749 64 236 211
-0.294924 -0.409126 0.352222 64 236 211
-0.304015 -0.40549 -0.327148 64 236 211
-0.29668 -0.318438 0.10192 64 236 211
-0.206968 -0.48654 0.0105731 64 236 211
-0.202523 -0.486871 -0.0533388 64 236 211
-0.0419301 -0.412169 -0.35685 64 236 211
-0.0123067 -0.48661 -0.0892382 64 236 211
-0.30445 -0.301267 -0.319354 64 236 211
-0.20465 -0.480333 0.163472 64 236 211
-0.216739 -0.486467 -0.208682 64 236 211
-0.121502 -0.486312 -0.269539 64 236 211
0.0766871 -0.480862 -0.36087 64 236 211
-0.134009 -0.458259 -0.362761 64 236 211
-0.155178 -0.265139 -0.347253 64 236 211
-0.163096 -0.291868 -0.348492 64 236 211
-0.285852 -0.269876 -0.342577 64 236 211
-0.213528 -0.299748 -0.349697 64 236 211
0.0525618 -0.48624 -0.306613 64 236 211
-0.270887 -0.480149 0.219352 64 236 211
0.0381935 -0.481701 -0.355784 64 236 211
-0.29269 -0.307639 0.255389 64 236 211
-0.149905 -0.486818 -0.0229045 64 236 211
-0.154284 -0.486713 -0.0178913 64 236 211
-0.30474 -0.464979 -0.0666738 64 236 211
-0.102623 -0.48147 0.0535307 64 236 211
0.0484361 -0.485461 -0.150002 64 236 211
-0.223763 -0.285646 -0.348365 64 236 211
-0.279639 -0.482909 0.132655 64 236 211
-0.307881 -0.365889 0.375935 64 236 211
-0.294252 -0.45866 0.17081 64 236 211
-0.069163 -0.486389 -0.18054 64 236 211
-0.288584 -0.362551 0.164244 64 236 211
-0.296066 -0.459637 -0.348077 64 236 211
-0.300458 -0.191846 0.31792 64 236 211
-0.2616 -0.486645 -0.243458 64 236 211
-0.307144 -0.208345 0.0532837 64 236 211
-0.305892 -0.270068 -0.148516 64 236 211
-0.303721 -0.442658 -0.13882 64 236 211
-0.304555 -0.455045 -0.130069 64 236 211
-0.0353362 -0.484943 -0.0578398 64 236 211
-0.309689 -0.475452 0.023288 64 236 211
-0.305916 -0.356119 -0.278769 64 236 211
-0.302832 -0.449173 -0.0652782 64 236 211
-0.288009 -0.364816 0.176204 64 236 211
-0.18997 -0.482307 -0.332516 64 236 211
-0.301187 -0.297541 0.0386774 64 236 211
-0.132222 -0.324108 -0.349622 64 236 211
-0.30045 -0.483364 -0.0700774 64 236 211
-0.292719 -0.37123 0.0419172 64 236 211
0.0542714 -0.409795 -0.353553 64 236 211
-0.326658 -0.472708 0.309061 64 236 211
0.0729415 -0.482362 -0.353767 64 236 211
-0.140426 -0.465084 0.2387 64 236 211
-0.188212 -0.487055 -0.0194017 64 236 211
-0.285617 -0.485839 -0.303444 64 236 211
-0.290097 -0.486464 -0.103665 64 236 211
-0.0828253 -0.474791 0.137497 64 236 211
-0.139276 -0.319588 -0.349463 64 236 211
-0.307082 -0.292675 -0.285409 64 236 211
-0.306557 -0.353615 -0.290831 64 236 211
-0.302776 -0.173859 0.224563 64 236 211
-0.294051 -0.486436 -0.0473998 64 236 211
-0.306153 -0.22508 -0.0798745 64 236 211
-0.232081 -0.480638 0.180777 64 236 211
-0.180763 -0.479108 -0.362274 64 236 211
-0.22849 -0.472625 0.252367 64 236 211
-0.303261 -0.481132 -0.271266 64 236 211
-0.202995 -0.200157 -0.345315 64 236 211
-0.297097 -0.318443 0.0910213 64 236 211
-0.0357187 -0.47996 0.0328047 64 236 211
-0.333704 -0.476132 0.306177 64 236 211
-0.294046 -0.157587 -0.340104 64 236 211
-0.305612 -0.288189 -0.308705 64 236 211
-0.303079 -0.279707 -0.0411542 64 236 211
-0.0731234 -0.486419 -0.16735 64 236 211
-0.293726 -0.387839 0.254888 64 236 211
-0.267078 -0.477507 -0.36415 64 236 211
-0.286414 -0.390518 -0.348513 64 236 211
-0.296623 -0.428396 0.0602552 64 236 211
-0.304169 -0.465641 0.320661 64 236 211
-0.305546 -0.224586 -0.0314653 64 236 211
-0.307266 -0.173377 -0.016718 64 236 211
-0.3052 -0.241226 -0.331359 64 236 211
-0.309855 -0.442124 0.206455 64 236 211
-0.308091 -0.44743 -0.309787 64 236 211
-0.303577 -0.275725 -0.056412 64 236 211
-0.328819 -0.474245 0.3069 64 236 211
-0.287452 -0.443956 0.279168 64 236 211
-0.305164 -0.164006 0.147094 64 236 211
-0.295222 -0.48559 -0.269812 64 236 211
-0.288867 -0.349497 0.188453 64 236 211
-0.175747 -0.473975 0.213561 64 236 211
-0.234933 -0.146187 -0.344835 64 236 211
-0.302814 -0.337697 -0.232162 64 236 211
-0.31111 -0.18693 -0.226873 64 236 211
-0.170468 -0.470233 0.229655 64 236 211
-0.242438 -0.207138 -0.345285 64 236 211
-0.188685 -0.481981 0.11591 64 236 211
-0.294162 -0.310195 0.215171 64 236 211
0.0678634 -0.481003 -0.360526 64 236 211
-0.0791368 -0.485481 -0.064248 64 236 211
-0.299448 -0.217822 0.27274 64 236 211
-0.0385864 -0.483004 -0.333207 64 236 211
-0.29775 -0.447238 0.30605 64 236 211
0.0287398 -0.486537 -0.105071 64 236 211
-0.300495 -0.345619 -0.168381 64 236 211
-0.231762 -0.365983 -0.35376 64 236 211
-0.28825 -0.486376 0.0406887 64 236 211
-0.308546 -0.19867 -0.125313 64 236 211
-0.0641 -0.420704 -0.358037 64 236 211
-0.304201 -0.266235 -0.00807519 64 236 211
-0.0603216 -0.486395 -0.176018 64 236 211
-0.302164 -0.293136 0.0211658 64 236 211
-0.298002 -0.23426 0.283442 64 236 211
-0.238003 -0.363918 -0.35312 64 236 211
-0.298749 -0.21941 0.317658 64 236 211
-0.303736 -0.351066 -0.241278 64 236 211
-0.277463 -0.218422 -0.343904 64 236 211
-0.329829 -0.476913 0.301236 64 236 211
-0.180245 -0.486875 -0.0444122 64 236 211
-0.182937 -0.371101 -0.353976 64 236 211
-0.255736 -0.304053 -0.347869 64 236 211
-0.260768 -0.485257 0.0724858 64 236 211
-0.307856 -0.147148 0.0947985 64 236 211
-0.265417 -0.423394 -0.358462 64 236 211
-0.309714 -0.4621 -0.294902 64 236 211
0.0357454 -0.486209 -0.192063 64 236 211
-0.301409 -0.168942 0.27999 64 236 211
-0.289667 -0.347899 0.176622 64 236 211
-0.305352 -0.43985 -0.323586 64 236 211
-0.276047 -0.19716 -0.343918 64 236 211
0.0774927 -0.48188 -0.357665 64 236 211
-0.0896635 -0.478561 -0.365383 64 236 211
-0.302661 -0.446818 -0.331768 64 236 211
-0.128663 -0.325932 -0.34966 64 236 211
-0.164247 -0.368237 -0.353165 64 236 211
-0.29549 -0.409826 0.347276 64 236 211
-0.307164 -0.151655 0.110394 64 236 211
-0.303995 -0.153696 0.199943 64 236 211
-0.31155 -0.170511 -0.301961 64 236 211
-0.306244 -0.188771 0.0996504 64 236 211
-0.174823 -0.243147 -0.346361 64 236 211
-0.307568 -0.19576 0.0557558 64 236 211
-0.293777 -0.363676 0.0334228 64 236 211
-0.166524 -0.36545 -0.352878 64 236 211
-0.310367 -0.482744 0.0804264 64 236 211
-0.0212901 -0.485067 -0.0907305 64 236 211
-0.302462 -0.289011 -0.0509146 64 236 211
-0.305579 -0.326798 -0.315255 64 236 211
-0.214574 -0.486491 -0.257515 64 236 211
-0.070108 -0.474506 -0.364206 64 236 211
-0.244001 -0.479515 -0.360253 64 236 211
-0.30388 -0.278537 -0.0971262 64 236 211
-0.273263 -0.484696 -0.315038 64 236 211
-0.17833 -0.469822 0.234868 64 236 211
-0.299447 -0.357707 -0.138206 64 236 211
-0.303207 -0.413917 -0.162762 64 236 211
-0.304173 -0.349867 -0.253964 64 236 211
-0.2987 -0.399693 -0.0495707 64 236 211
-0.0836392 -0.479912 0.071121 64 236 211
-0.295347 -0.414303 0.334873 64 236 211
-0.303989 -0.457492 -0.109889 64 236 211
-0.307628 -0.47429 -0.283645 64 236 211
-0.253434 -0.330258 -0.349522 64 236 211
-0.312449 -0.158564 -0.250438 64 236 211
-0.305269 -0.217225 0.0887748 64 236 211
-0.289026 -0.329617 0.258111 64 236 211
-0.291773 -0.408667 0.389633 64 236 211
-0.2925 -0.476861 0.24685 64 236 211
-0.304018 -0.355889 -0.24296 64 236 211
-0.27516 -0.323105 -0.346709 64 236 211
-0.298667 -0.334828 -0.0882592 64 236 211
0.034529 -0.4857 -0.101508 64 236 211
-0.299006 -0.386992 -0.10138 64 236 211
-0.20098 -0.486493 0.0101305 64 236 211
-0.266084 -0.422957 -0.35831 64 236 211
-0.282827 -0.218995 -0.343347 64 236 211
0.0506362 -0.486203 -0.286619 64 236 211
0.00182019 -0.477813 0.0377486 64 236 211
-0.310737 -0.217308 -0.279537 64 236 211
-0.215428 -0.479466 -0.361032 64 236 211
-0.224129 -0.279433 -0.347977 64 236 211
-0.236704 -0.47754 -0.367663 64 236 211
-0.297298 -0.350658 -0.0689028 64 236 211
-0.200998 -0.27438 -0.348249 64 236 211
-0.133818 -0.341501 -0.350913 64 236 211
-0.293653 -0.300577 0.253256 64 236 211
-0.301285 -0.397646 -0.13892 64 236 211
-0.23234 -0.41404 -0.358808 64 236 211
-0.240848 -0.414758 -0.359057 64 236 211
0.0583652 -0.480849 -0.0433863 64 236 211
-0.2943 -0.486309 -0.15332 64 236 211
-0.211777 -0.308446 -0.350093 64 236 211
-0.309311 -0.185506 -0.326401 64 236 211
-0.300127 -0.202079 0.277751 64 236 211
-0.304611 -0.472162 -0.0829831 64 236 211
-0.295654 -0.387321 -0.340842 64 236 211
-0.189545 -0.480726 0.14268 64 236 211
-0.296856 -0.290356 0.20104 64 236 211
-0.197708 -0.348966 -0.351789 64 236 211
-0.0464404 -0.482497 -0.0103624 64 236 211
-0.169741 -0.486632 -0.00874651 64 236 211
-0.230603 -0.486535 0.146522 96 250 196
-0.329088 -0.480735 -0.201164 96 250 196
0.128494 -0.4869 0.303529 96 250 196
-0.295353 -0.48612 0.324382 96 250 196
-0.248259 -0.48643 -0.0782909 96 250 196
-0.23592 -0.429532 -0.345354 96 250 196
-0.326062 -0.463318 -0.337286 96 250 196
-0.0883931 -0.486329 -0.286629 96 250 196
0.145659 -0.486994 -0.134701 96 250 196
-0.160801 -0.486912 0.151296 96 250 196
-0.211371 -0.486089 -0.285286 96 250 196
-0.204713 -0.485498 -0.343744 96 250 196
-0.234283 -0.486415 0.293229 96 250 196
0.166213 -0.487029 0.183263 96 250 196
0.22418 -0.48689 -0.0585349 96 250 196
0.151179 -0.486783 -0.273263 96 250 196
-0.291565 -0.486095 -0.175627 96 250 196
-0.213707 -0.465207 -0.348727 96 250 196
-0.316905 -0.387595 -0.104422 96 250 196
0.0352658 -0.436861 -0.329328 96 250 196
-0.273189 -0.48397 -0.349114 96 250 196
-0.333309 -0.480334 -0.307 96 250 196
0.285268 -0.486679 -0.10928 96 250 196
-0.305993 -0.446354 0.432465 96 250 196
0.0201841 -0.486887 0.323441 96 250 196
-0.221185 -0.485783 -0.310795 96 250 196
-0.316 -0.393667 -0.178154 96 250 196
-0.331425 -0.468683 -0.288871 96 250 196
-0.253478 -0.485515 -0.325837 96 250 196
-0.32948 -0.169438 -0.307279 96 250 196
0.162035 -0.487062 0.186247 96 250 196
-0.304298 -0.485952 0.189379 96 250 196
0.277492 -0.486368 0.00943679 96 250 196
-0.326833 -0.431677 -0.260683 96 250 196
-0.39064 -0.449727 0.158057 96 250 196
-0.32307 -0.484865 -0.326049 96 250 196
-0.327392 -0.379335 -0.276462 96 250 196
-0.187771 -0.486036 -0.295547 96 250 196
-0.309216 -0.485752 0.413453 96 250 196
0.136627 -0.486999 -0.108033 96 250 196
-0.183702 -0.383506 -0.339645 96 250 196
-0.314928 -0.485533 -0.254225 96 250 196
-0.319086 -0.427387 -0.0688813 96 250 196
-0.331731 -0.454612 -0.294267 96 250 196
0.00631952 -0.486616 -0.256743 96 250 196
-0.0373303 -0.475982 -0.333109 96 250 196
-0.331396 -0.280247 -0.205869 96 250 196
-0.203978 -0.486615 0.276292 96 250 196
0.0635687 -0.487061 -0.0464506 96 250 196
-0.272796 -0.291258 -0.339167 96 250 196
-0.198354 -0.485707 -0.321403 96 250 196
-0.275968 -0.486084 -0.241465 96 250 196
-0.0284483 -0.486255 -0.293906 96 250 196
-0.309743 -0.485905 -0.117999 96 250 196
-0.228579 -0.486277 -0.236364 96 250 196
-0.305657 -0.46192 0.436784 96 250 196
-0.242162 -0.485643 -0.318115 96 250 196
-0.154009 -0.485858 -0.313747 96 250 196
0.031199 -0.486604 -0.269604 96 250 196
-0.21099 -0.335702 -0.339538 96 250 196
-0.171245 -0.486026 -0.298452 96 250 196
-0.326062 -0.484786 -0.298225 96 250 196
0.07178 -0.471785 -0.323382 96 250 196
-0.316259 -0.340516 0.137586 96 250 196
-0.262615 -0.3308 -0.340018 96 250 196
0.284842 -0.486404 -0.236915 96 250 196
-0.100805 -0.485874 -0.322139 96 250 196
-0.289648 -0.485757 0.418008 96 250 196
-0.341353 -0.168069 -0.181645 96 250 196
0.0683222 -0.486555 0.338789 96 250 196
0.0753562 -0.487179 0.196484 96 250 196
-0.326807 -0.310486 -0.115377 96 250 196
-0.34712 -0.451674 0.26483 96 250 196
-0.168238 -0.422768 -0.341232 96 250 196
-0.319018 -0.428515 -0.15463 96 250 196
-0.286448 -0.486029 0.395745 96 250 196
-0.326571 -0.418392 -0.337423 96 250 196
-0.308448 -0.470613 0.320075 96 250 196
-0.314161 -0.383666 0.207366 96 250 196
0.141373 -0.377168 -0.326388 96 250 196
0.106347 -0.486204 -0.31244 96 250 196
-0.316683 -0.408719 -0.111436 96 250 196
-0.314744 -0.287447 0.32529 96 250 196
-0.108366 -0.345038 -0.337223 96 250 196
-0.329736 -0.219637 -0.322024 96 250 196
-0.255315 -0.486383 0.141864 96 250 196
0.183648 -0.486916 -0.206044 96 250 196
0.16997 -0.399068 -0.321917 96 250 196
0.0913932 -0.487031 -0.0978315 96 250 196
-0.318069 -0.382243 -0.113853 96 250 196
-0.29348 -0.361311 -0.340036 96 250 196
-0.315921 -0.34085 -0.335637 96 250 196
-0.308186 -0.318345 0.391142 96 250 196
-0.17108 -0.486791 0.303162 96 250 196
-0.0946562 -0.485951 -0.315376 96 250 196
0.254383 -0.486572 -0.0164396 96 250 196
-0.330769 -0.481702 -0.29698 96 250 196
0.0406828 -0.487185 0.120086 96 250 196
0.151297 -0.486924 -0.196838 96 250 196
0.255749 -0.486397 0.0880688 96 250 196
-0.164931 -0.486257 0.389153 96 250 196
-0.314943 -0.321163 -0.334905 96 250 196
-0.319553 -0.426406 0.181365 96 250 196
-0.329133 -0.337927 -0.293933 96 250 196
0.229765 -0.486853 -0.229226 96 250 196
0.261793 -0.486917 -0.142104 96 250 196
-0.330612 -0.252262 -0.320185 96 250 196
-0.330054 -0.189882 -0.319639 96 250 196
-0.323184 -0.332784 -0.00140938 96 250 196
-0.33004 -0.228692 -0.321657 96 250 196
-0.304958 -0.371109 0.423567 96 250 196
-0.328464 -0.446718 -0.269649 96 250 196
0.213707 -0.48687 -0.244467 96 250 196
0.193043 -0.486823 -0.268998 96 250 196
-0.331755 -0.240152 0.0994869 96 250 196
-0.225867 -0.485828 -0.306088 96 250 196
-0.266542 -0.475842 -0.350897 96 250 196
0.127186 -0.449344 -0.324161 96 250 196
0.177589 -0.486966 0.101532 96 250 196
-0.30963 -0.475204 0.426638 96 250 196
0.248621 -0.486413 0.155733 96 250 196
-0.30468 -0.422149 0.437398 96 250 196
-0.322401 -0.484852 -0.330946 96 250 196
-0.332672 -0.395113 -0.311296 96 250 196
-0.310941 -0.484016 0.168625 96 250 196
-0.288831 -0.485359 0.434564 96 250 196
0.146968 -0.487146 0.241677 96 250 196
-0.254107 -0.439197 -0.347168 96 250 196
0.172014 -0.486879 -0.241712 96 250 196
-0.309436 -0.271115 -0.334192 96 250 196
-0.329228 -0.294134 -0.0555531 96 250 196
0.0807958 -0.343098 -0.332399 96 250 196
-0.198936 -0.486388 -0.228524 96 250 196
0.217873 -0.463042 -0.308943 96 250 196
-0.316643 -0.325929 -0.334666 96 250 196
-0.325451 -0.471138 -0.154883 96 250 196
-0.302047 -0.486012 0.219568 96 250 196
-0.331938 -0.231755 0.120445 96 250 196
0.0965939 -0.486546 -0.288012 96 250 196
0.108271 -0.487004 -0.125346 96 250 196
-0.33452 -0.449824 -0.315939 96 250 196
-0.284505 -0.486129 -0.205445 96 250 196
-0.314301 -0.398311 0.258617 96 250 196
0.17558 -0.486998 -0.162344 96 250 196
-0.321882 -0.451056 0.0292875 96 250 196
-0.0153717 -0.487007 -0.10636 96 250 196
-0.337424 -0.183661 -0.221398 96 250 196
0.226629 -0.486808 -0.245094 96 250 196
-0.316587 -0.393314 0.116732 96 250 196
-0.328975 -0.296857 -0.292601 96 250 196
-0.104203 -0.486973 -0.0831918 96 250 196
-0.279185 -0.485467 -0.315967 96 250 196
0.248846 -0.486928 -0.12441 96 250 196
-0.325267 -0.284314 0.099648 96 250 196
-0.370091 -0.466656 0.235561 96 250 196
-0.297965 -0.485736 -0.271205 96 250 196
-0.326308 -0.245846 -0.329044 96 250 196
-0.157931 -0.485772 -0.321748 96 250 196
-0.331553 -0.266023 -0.322795 96 250 196
-0.253908 -0.33047 -0.339855 96 250 196
-0.259907 -0.486319 0.1995 96 250 196
0.25654 -0.486862 -0.109988 96 250 196
0.00997063 -0.474319 -0.329923 96 250 196
-0.324389 -0.344429 0.391534 96 250 196
-0.330353 -0.482532 -0.310241 96 250 196
0.214502 -0.486153 -0.295855 96 250 196
0.17662 -0.427034 -0.319462 96 250 196
-0.200566 -0.486712 0.180334 96 250 196
-0.330993 -0.269548 -0.018997 96 250 196
-0.307446 -0.484172 0.433308 96 250 196
-0.330054 -0.298451 -0.169419 96 250 196
-0.315757 -0.485469 -0.263051 96 250 196
0.158981 -0.486896 -0.223745 96 250 196
-0.325781 -0.31108 0.0138187 96 250 196
-0.306988 -0.483799 0.434588 96 250 196
-0.301777 -0.485823 -0.246033 96 250 196
0.0202341 -0.399945 -0.332057 96 250 196
-0.15964 -0.31757 -0.337781 96 250 196
-0.309054 -0.485841 -0.190634 96 250 196
0.0587672 -0.487067 -0.0431861 96 250 196
-0.318705 -0.484971 -0.323261 96 250 196
