ply
format ascii 1.0
comment Created by Open3D
element vertex 1190
property double x
property double y
property double z
property uchar red
property uchar green
property uchar blue
end_header
-0.461133 -0.263938 -0.189307 31 142 243
0.224343 0.0143192 -0.189793 31 142 243
-0.44133 -0.0127235 -0.196415 31 142 243
-0.36806 -0.0377326 -0.196172 31 142 243
-0.305281 -0.319411 -0.183823 31 142 243
-0.428639 -0.33372 -0.198646 31 142 243
0.242841 -0.118483 -0.186216 31 142 243
0.151014 -0.505935 0.0645212 31 142 243
0.129786 -0.117508 -0.196467 31 142 243
0.342288 -0.256935 -0.179659 31 142 243
0.419861 -0.126924 -0.17579 31 142 243
-0.42005 -0.0723668 -0.195873 31 142 243
-0.347287 -0.260181 -0.194243 31 142 243
0.403993 0.0236828 -0.18686 31 142 243
-0.373546 -0.0631942 -0.195274 31 142 243
0.0852441 -0.476191 -0.197113 31 142 243
-0.442744 -0.180547 -0.190331 31 142 243
0.437473 0.00753497 -0.176565 31 142 243
-0.0119504 -0.00541298 -0.194383 31 142 243
0.00599896 -0.00951437 -0.194608 31 142 243
-0.0166906 0.00178467 -0.18803 31 142 243
-0.119932 -0.086298 -0.194605 31 142 243
-0.450504 -0.394129 -0.185169 31 142 243
-0.383022 -0.0152198 -0.191953 31 142 243
0.350231 -0.485282 0.0517157 31 142 243
0.311063 -0.169994 -0.191079 31 142 243
-0.137958 -0.0232429 -0.191753 31 142 243
0.372054 -0.497678 -0.151406 31 142 243
-0.339423 -0.0072332 -0.194029 31 142 243
-0.46382 -0.135477 -0.192129 31 142 243
-0.216621 -0.000197649 -0.194617 31 142 243
-0.377608 -0.128758 -0.193193 31 142 243
-0.00587521 -0.487218 -0.142997 31 142 243
0.146111 -0.128268 -0.190863 31 142 243
-0.325455 -0.0732256 -0.195701 31 142 243
-0.473729 -0.127685 -0.191964 31 142 243
0.438881 0.005641 -0.17647 31 142 243
0.114569 -0.504865 0.0159645 31 142 243
-0.38145 -0.225746 -0.189072 31 142 243
-0.260332 -0.422076 -0.196338 31 142 243
-0.472909 -0.243164 -0.189559 31 142 243
0.159406 -0.0787641 -0.197549 31 142 243
-0.34301 -0.154819 -0.192178 31 142 243
-0.185434 -0.232755 -0.194269 31 142 243
-0.430017 -0.194988 -0.189564 31 142 243
0.391115 -0.0685175 -0.190695 31 142 243
-0.122337 -0.0110493 -0.190539 31 142 243
-0.22859 -0.083623 -0.193935 31 142 243
0.0504169 -0.255497 -0.190306 31 142 243
0.383146 -0.0107588 -0.189258 31 142 243
-0.439019 -0.0320821 -0.193876 31 142 243
0.426889 -0.00973646 -0.187978 31 142 243
-0.3529 -0.137588 -0.192774 31 142 243
0.340229 0.0222819 -0.183617 31 142 243
-0.202668 -0.263458 -0.194666 31 142 243
0.42237 0.0289074 -0.180751 31 142 243
-0.317135 -0.0164418 -0.190107 31 142 243
-0.0824495 -0.0116664 -0.191981 0 180 235
-0.2582 -0.248902 -0.183693 0 180 235
-0.0329866 -0.0192353 -0.190584 0 180 235
-0.193787 -0.10123 -0.191531 0 180 235
-0.20491 -0.304261 -0.186687 0 180 235
0.122841 -0.423219 -0.198243 0 180 235
-0.440277 -0.347942 -0.178264 0 180 235
0.0570164 -0.346319 -0.18678 0 180 235
-0.150693 -0.201348 -0.185049 0 180 235
-0.302645 -0.0339404 -0.195872 0 180 235
0.145209 -0.15782 -0.184078 0 180 235
-0.160395 -0.0810638 -0.191521 0 180 235
-0.192266 -0.180145 -0.188322 0 180 235
0.377027 -0.337175 -0.164048 0 180 235
-0.00326729 -0.220277 -0.182518 0 180 235
-0.332227 -0.289013 -0.181496 0 180 235
0.164978 -0.345386 -0.201315 0 180 235
0.220139 -0.483595 -0.166472 0 180 235
-0.0106548 -0.324007 -0.187624 0 180 235
0.0635893 -0.25553 -0.180273 0 180 235
-0.303201 -0.181117 -0.182641 0 180 235
-0.0540072 -0.123673 -0.187484 0 180 235
0.292106 -0.388785 -0.180413 0 180 235
0.117515 -0.122081 -0.184294 0 180 235
0.0102454 -0.16697 -0.183826 0 180 235
0.0378443 -0.311478 -0.205103 0 180 235
-0.341857 -0.249973 -0.181477 0 180 235
0.413708 -0.417971 -0.146046 0 180 235
-0.0927083 -0.0163147 -0.191498 0 180 235
0.252724 -0.419856 -0.197373 0 180 235
-0.451963 -0.249364 -0.179366 0 180 235
-0.39789 -0.291875 -0.181409 0 180 235
-0.302872 -0.346133 -0.181218 0 180 235
-0.157715 -0.00329691 -0.195219 0 180 235
-0.124816 -0.0225638 -0.19205 0 180 235
-0.329787 -0.0719036 -0.187969 0 180 235
-0.135081 -0.287287 -0.187091 0 180 235
-0.384518 -0.21813 -0.180572 0 180 235
-0.231507 -0.115202 -0.189812 0 180 235
0.00346906 -0.142008 -0.184086 0 180 235
-0.226819 -0.0488525 -0.197685 0 180 235
-0.326174 -0.121779 -0.181983 0 180 235
0.0571051 -0.350259 -0.187024 0 180 235
0.128358 -0.0956846 -0.181344 0 180 235
0.0401882 -0.060375 -0.186361 0 180 235
0.00964993 -0.159835 -0.18741 0 180 235
0.166898 -0.290817 -0.177209 0 180 235
-0.226462 -0.319025 -0.184478 0 180 235
-0.412684 -0.071464 -0.183327 0 180 235
0.0709031 -0.306892 -0.182262 0 180 235
0.0492273 -0.434778 -0.193798 0 180 235
0.0197319 -0.257197 -0.184975 0 180 235
-0.435572 -0.338491 -0.178637 0 180 235
0.253725 -0.345055 -0.194893 0 180 235
-0.130799 -0.254434 -0.187222 0 180 235
0.190358 -0.43154 -0.17916 0 180 235
0.0479972 -0.22878 -0.180577 0 180 235
0.170434 -0.207486 -0.178472 0 180 235
-0.314172 -0.0820728 -0.20416 0 180 235
-0.0526478 -0.263944 -0.187631 0 180 235
-0.277687 -0.279223 -0.187558 0 180 235
-0.0506658 -0.0248335 -0.189507 0 180 235
0.0822532 -0.357249 -0.185847 0 180 235
0.322868 -0.232871 -0.183431 0 180 235
-0.245423 -0.0923973 -0.190903 0 180 235
0.292961 -0.338412 -0.18138 0 180 235
0.0395657 -0.193271 -0.180966 0 180 235
-0.125839 -0.12006 -0.189657 0 180 235
0.21547 -0.358966 -0.20144 0 180 235
-0.0970794 -0.39572 -0.184408 0 180 235
-0.179441 -0.436018 -0.190965 0 180 235
-0.448312 -0.235111 -0.179579 0 180 235
-0.38947 -0.0750248 -0.183348 0 180 235
0.146544 -0.3938 -0.182331 0 180 235
-0.0121607 -0.314802 -0.209458 0 180 235
-0.110797 -0.109939 -0.189141 0 180 235
-0.234743 -0.00378734 -0.199573 0 180 235
0.112047 -0.211507 -0.178071 0 180 235
-0.123185 -0.212521 -0.187944 0 180 235
0.145669 -0.195997 -0.182986 0 180 235
-0.377323 -0.406918 -0.176491 0 180 235
-0.30454 -0.121933 -0.183858 0 180 235
-0.363533 -0.258033 -0.1815 0 180 235
0.264153 -0.414976 -0.199724 0 180 235
-0.323614 -0.0255106 -0.196606 0 180 235
-0.36069 -0.184661 -0.17979 0 180 235
-0.0550346 -0.135888 -0.187673 0 180 235
-0.215205 -0.0487026 -0.194346 0 180 235
0.123984 -0.277238 -0.17866 0 180 235
-0.109158 -0.30578 -0.187268 0 180 235
-0.144691 -0.176446 -0.188797 0 180 235
0.0786548 -0.0969802 -0.185675 0 180 235
-0.177557 -0.284581 -0.186367 0 180 235
-0.282252 -0.025797 -0.197475 0 180 235
-0.297222 -0.0904926 -0.188268 0 180 235
0.00926313 -0.114701 -0.188738 0 180 235
-0.346209 -0.124439 -0.18025 0 180 235
-0.457941 -0.0170076 -0.187678 0 180 235
-0.433253 -0.401875 -0.175405 0 180 235
0.321064 -0.440634 -0.144748 0 180 235
0.0873922 -0.0808213 -0.183549 0 180 235
0.0902304 -0.142028 -0.180381 0 180 235
-0.0754464 -0.217859 -0.187368 0 180 235
-0.430255 -0.12251 -0.176885 0 180 235
0.404996 -0.422834 -0.136445 0 180 235
-0.0575097 -0.031777 -0.188834 0 180 235
-0.250154 -0.12371 -0.18806 0 180 235
-0.142345 -0.130307 -0.189694 0 180 235
-0.337678 -0.0310193 -0.19495 0 180 235
-0.218315 -0.389279 -0.191454 0 180 235
0.0775639 -0.314653 -0.18217 0 180 235
0.138588 -0.0937903 -0.181096 0 180 235
-0.360156 -0.221942 -0.202731 0 180 235
-0.132135 -0.0985763 -0.190034 0 180 235
-0.0574612 -0.233477 -0.180733 0 180 235
0.0379837 -0.133093 -0.182512 0 180 235
-0.0155736 -0.0584746 -0.187099 0 180 235
-0.320786 -0.268622 -0.181482 0 180 235
-0.434357 -0.346716 -0.178509 0 180 235
-0.180611 -0.263523 -0.183377 0 180 235
0.132018 -0.373208 -0.182681 0 180 235
0.238932 -0.38597 -0.191895 0 180 235
-0.199414 -0.116441 -0.193393 0 180 235
0.0152413 -0.281937 -0.185771 0 180 235
-0.315138 -0.159871 -0.182375 0 180 235
0.206527 -0.192795 -0.183739 0 180 235
-0.121199 -0.0549255 -0.190038 0 180 235
-0.399006 -0.0889436 -0.20269 0 180 235
-0.089656 -0.230737 -0.187619 0 180 235
0.132432 -0.325454 -0.201764 0 180 235
-0.0603758 -0.189738 -0.186636 0 180 235
-0.233391 -0.0565508 -0.193861 0 180 235
0.141765 -0.284676 -0.178598 0 180 235
0.0634107 -0.413246 -0.191028 0 180 235
-0.422655 -0.0433126 -0.198042 0 180 235
-0.241728 -0.0328088 -0.196575 0 180 235
-0.354036 -0.292533 -0.181551 0 180 235
-0.266164 -0.0422682 -0.200574 0 180 235
-0.0526553 -0.199746 -0.186968 0 180 235
0.133609 -0.208635 -0.181845 0 180 235
-0.122957 -0.125151 -0.189442 0 180 235
0.165783 -0.313361 -0.179266 0 180 235
-0.450917 -0.290606 -0.178487 0 180 235
0.221063 -0.300294 -0.173557 0 180 235
0.0428662 -0.359042 -0.182233 0 180 235
-0.212263 -0.104858 -0.191193 0 180 235
-0.334426 -0.0809202 -0.185933 0 180 235
0.049983 -0.0667837 -0.185601 0 180 235
-0.429462 -0.124333 -0.176814 0 180 235
-0.293293 -0.256916 -0.187357 0 180 235
-0.357668 -0.110756 -0.180385 0 180 235
0.0383304 -0.303448 -0.18547 0 180 235
0.205813 -0.432452 -0.17078 0 180 235
-0.251691 -0.139874 -0.187272 0 180 235
-0.132548 -0.321119 -0.187455 0 180 235
-0.253467 -0.334222 -0.191046 0 180 235
-0.1456 -0.176138 -0.188823 0 180 235
-0.334999 -0.160948 -0.180767 0 180 235
-0.275986 -0.133902 -0.20115 0 180 235
-0.0328996 -0.324826 -0.187337 0 180 235
-0.109447 -0.0463375 -0.189769 0 180 235
-0.217161 -0.331186 -0.184601 0 180 235
0.146731 -0.0932064 -0.180962 0 180 235
-0.352813 -0.314741 -0.181499 0 180 235
-0.308806 -0.184375 -0.182115 0 180 235
-0.444583 -0.0470541 -0.184993 0 180 235
-0.2233 -0.176344 -0.190284 0 180 235
-0.123829 -0.267141 -0.181599 0 180 235
0.115384 -0.348874 -0.183201 0 180 235
0.122245 -0.262196 -0.178248 0 180 235
-0.269007 -0.0192583 -0.198675 0 180 235
-0.31178 -0.190837 -0.181683 0 180 235
0.318848 -0.360974 -0.116432 0 180 235
-0.32909 -0.121931 -0.181723 0 180 235
-0.088148 -0.413859 -0.188905 0 180 235
0.218828 -0.183367 -0.180994 0 180 235
0.0147175 -0.223277 -0.184228 0 180 235
0.101752 -0.42193 -0.184139 0 180 235
-0.0464754 -0.303927 -0.187256 0 180 235
-0.231566 -0.272823 -0.184653 0 180 235
-0.0489645 -0.374622 -0.182399 0 180 235
0.189764 -0.428221 -0.17923 0 180 235
0.0575084 -0.140321 -0.186334 0 180 235
-0.3669 -0.13335 -0.206386 0 180 235
-0.274684 -0.293276 -0.183061 0 180 235
-0.427079 -0.0916705 -0.179813 0 180 235
0.0841289 -0.344911 -0.194444 0 180 235
-0.229451 -0.247518 -0.184575 0 180 235
-0.352175 -0.109195 -0.205322 0 180 235
-0.190773 -0.105749 -0.191387 0 180 235
-0.384978 -0.371672 -0.17912 0 180 235
0.230001 -0.43151 -0.167608 0 180 235
-0.223816 -0.0137486 -0.199087 0 180 235
-0.406706 -0.406419 -0.175631 0 180 235
0.438661 -0.418091 -0.116571 0 180 235
-0.0316794 -0.0553228 -0.187476 0 180 235
0.0174809 -0.129878 -0.183415 0 180 235
-0.19133 -0.31968 -0.185788 0 180 235
-0.245399 -0.00887857 -0.199342 0 180 235
-0.0661232 -0.0778764 -0.187645 0 180 235
-0.299602 -0.00794799 -0.201041 0 180 235
-0.229897 -0.40324 -0.193252 0 180 235
-0.154966 -0.108177 -0.190554 0 180 235
-0.146381 -0.300822 -0.183494 0 180 235
-0.313844 -0.0234435 -0.197437 0 180 235
-0.453434 -0.0515365 -0.183447 0 180 235
0.191911 -0.445873 -0.175835 0 180 235
-0.416499 -0.0213905 -0.197752 0 180 235
-0.299477 -0.0338784 -0.195937 0 180 235
-0.181986 -0.21458 -0.184078 0 180 235
-0.0627262 -0.338645 -0.188173 0 180 235
-0.117516 -0.324383 -0.187594 0 180 235
-0.0594803 -0.0832806 -0.187362 0 180 235
-0.164772 -0.46431 -0.191467 0 180 235
0.0781907 -0.144637 -0.185477 0 180 235
0.162594 -0.141411 -0.179285 0 180 235
-0.0961281 -0.017787 -0.191436 0 180 235
0.0812055 -0.369286 -0.194652 0 180 235
-0.023089 -0.105508 -0.185685 0 180 235
-0.0632094 -0.125076 -0.187861 0 180 235
0.012713 -0.0409236 -0.188358 0 180 235
0.377117 -0.411162 -0.0916223 0 180 235
-0.287413 -0.0636679 -0.192344 0 180 235
-0.438847 -0.125326 -0.176049 0 180 235
0.317336 -0.280469 -0.183338 0 180 235
-0.208014 -0.0662189 -0.192967 0 180 235
0.0539463 -0.0576855 -0.186134 0 180 235
-0.122125 -0.392251 -0.18695 0 180 235
-0.232627 -0.0189863 -0.197992 0 180 235
0.166264 -0.325461 -0.182314 0 180 235
-0.204133 -0.120262 -0.190514 0 180 235
-0.0991166 -0.00422191 -0.19329 0 180 235
-0.230522 -0.375463 -0.192026 0 180 235
-0.0302399 -0.12524 -0.186398 0 180 235
-0.21671 -0.0651739 -0.196797 0 180 235
-0.0272828 -0.131794 -0.186338 0 180 235
-0.446459 -0.015111 -0.192547 0 180 235
-0.0185261 -0.14893 -0.18566 0 180 235
0.138867 -0.127644 -0.179233 0 180 235
0.0384894 -0.0446331 -0.187506 0 180 235
0.00441062 -0.0284801 -0.189565 0 180 235
0.195944 -0.134975 -0.183963 0 180 235
0.058568 -0.413228 -0.184033 0 180 235
0.152217 -0.211649 -0.178105 0 180 235
-0.000133274 -0.33084 -0.20609 0 180 235
-0.13276 -0.00209041 -0.194537 0 180 235
-0.213825 -0.13766 -0.189149 0 180 235
0.293475 -0.408566 -0.197902 0 180 235
-0.161974 -0.0394758 -0.192667 0 180 235
-0.0746489 -0.212869 -0.184097 0 180 235
0.406072 -0.346413 -0.146321 0 180 235
0.302698 -0.259949 -0.17662 0 180 235
-0.188944 -0.339942 -0.185502 0 180 235
-0.0492169 -0.0399254 -0.188415 0 180 235
-0.330031 -0.201254 -0.201846 0 180 235
0.00446407 -0.202992 -0.184509 0 180 235
0.24078 -0.225874 -0.180102 0 180 235
-0.351302 -0.0742944 -0.203161 0 180 235
0.337524 -0.424754 -0.128668 0 180 235
0.298755 -0.341554 -0.154802 0 180 235
0.030994 -0.235864 -0.183051 0 180 235
-0.0985548 -0.169755 -0.187496 0 180 235
-0.22505 -0.391927 -0.181542 0 180 235
-0.241491 -0.121576 -0.188916 0 180 235
-0.268156 -0.343095 -0.181979 0 180 235
0.110596 -0.339958 -0.199028 0 180 235
-0.436826 -0.152652 -0.176729 0 180 235
0.0448409 -0.355838 -0.187653 0 180 235
0.119481 -0.366689 -0.19463 0 180 235
-0.240343 -0.111878 -0.189747 0 180 235
-0.373046 -0.0616656 -0.186702 0 180 235
-0.437011 -0.0602904 -0.183827 0 180 235
-0.456488 -0.0660864 -0.181446 0 180 235
-0.425327 -0.105667 -0.178206 0 180 235
-0.309246 -0.0395246 -0.194828 0 180 235
0.379597 -0.418286 -0.187148 0 180 235
0.000977565 -0.219964 -0.185542 0 180 235
0.0601272 -0.403907 -0.190515 0 180 235
-0.335956 -0.11036 -0.205563 0 180 235
-0.34466 -0.160655 -0.207618 0 180 235
0.430963 -0.377588 -0.128494 0 180 235
0.0994107 -0.0976679 -0.18218 0 180 235
-0.234446 -0.213854 -0.185079 0 180 235
-0.446383 -0.0468091 -0.184812 0 180 235
-0.00886169 -0.28994 -0.214276 0 180 235
-0.328295 -0.00768544 -0.200205 0 180 235
-0.0469685 -0.288296 -0.187661 0 180 235
-0.326709 -0.0151294 -0.198777 0 180 235
0.395346 -0.416201 -0.115297 0 180 235
-0.257072 -0.177283 -0.185546 0 180 235
-0.373098 -0.136472 -0.178498 0 180 235
0.178832 -0.430406 -0.179898 0 180 235
-0.308205 -0.111317 -0.184306 0 180 235
-0.352628 -0.0103662 -0.200492 0 180 235
0.0130288 -0.295358 -0.186395 0 180 235
-0.305555 -0.0591117 -0.192269 0 180 235
-0.408721 -0.343847 -0.179514 0 180 235
-0.366318 -0.00670404 -0.199703 0 180 235
0.264038 -0.473708 -0.166978 0 180 235
-0.172628 -0.262971 -0.186636 0 180 235
-0.0169051 -0.132648 -0.18536 0 180 235
-0.435607 -0.352423 -0.178254 0 180 235
-0.267716 -0.122413 -0.186877 0 180 235
-0.110991 -0.27289 -0.187124 0 180 235
-0.156149 -0.258478 -0.186777 0 180 235
-0.225108 -0.372665 -0.191422 0 180 235
-0.197934 -0.102668 -0.191434 0 180 235
0.0619765 -0.361996 -0.187442 0 180 235
-0.108419 -0.371115 -0.198914 0 180 235
0.369541 -0.285629 -0.176741 0 180 235
-0.244624 -0.169554 -0.186471 0 180 235
-0.0187642 -0.213267 -0.186244 0 180 235
0.395598 -0.336233 -0.156631 0 180 235
0.195605 -0.427401 -0.171238 0 180 235
-0.452402 -0.0653736 -0.181906 0 180 235
-0.0565988 -0.0261437 -0.191016 0 180 235
-0.146248 -0.1428 -0.189461 0 180 235
0.143853 -0.108183 -0.183386 0 180 235
-0.313303 -0.0752671 -0.188995 0 180 235
0.239921 -0.338545 -0.184894 0 180 235
-0.206728 -0.365273 -0.183796 0 180 235
-0.0578889 -0.104861 -0.187449 0 180 235
-0.181842 -0.158393 -0.189076 0 180 235
-0.439634 -0.0142189 -0.191297 0 180 235
0.0972162 -0.192546 -0.178825 0 180 235
-0.00277601 -0.0352783 -0.188599 0 180 235
0.12952 -0.295806 -0.208837 0 180 235
0.274585 -0.3079 -0.184923 0 180 235
-0.0537476 -0.312231 -0.20791 0 180 235
-0.0222628 -0.0530318 -0.187575 0 180 235
0.313809 -0.389505 -0.150512 0 180 235
-0.233246 -0.0272441 -0.197189 0 180 235
-0.0106298 -0.274064 -0.178719 0 180 235
0.350188 -0.314309 -0.168192 0 180 235
-0.179917 -0.0024673 -0.196576 0 180 235
0.314806 -0.360024 -0.120619 0 180 235
-0.0439328 -0.320837 -0.20978 0 180 235
-0.426855 -0.250966 -0.180909 0 180 235
-0.214697 -0.133743 -0.189239 0 180 235
-0.0198284 -0.127704 -0.185571 0 180 235
0.276229 -0.37137 -0.188977 0 180 235
-0.148784 -0.383722 -0.187107 0 180 235
-0.177333 -0.395244 -0.184185 0 180 235
-0.0887998 -0.0283321 -0.19005 0 180 235
0.152267 -0.274831 -0.178818 0 180 235
-0.431103 -0.312254 -0.179404 0 180 235
-0.256733 -0.134061 -0.187123 0 180 235
0.212413 -0.432875 -0.170019 0 180 235
-0.452184 -0.113143 -0.176071 0 180 235
-0.131234 -0.24895 -0.180537 0 180 235
-0.412908 -0.0387477 -0.198666 0 180 235
0.0311678 -0.307572 -0.203884 0 180 235
-0.29775 -0.101602 -0.186615 0 180 235
0.33824 -0.359385 -0.166901 0 180 235
-0.285586 -0.365802 -0.180612 0 180 235
0.156371 -0.38452 -0.20185 0 180 235
-0.317915 -0.313078 -0.181469 0 180 235
-0.22707 -0.119082 -0.189682 0 180 235
0.405402 -0.320086 -0.14766 0 180 235
-0.0910398 -0.16971 -0.187992 0 180 235
-0.245544 -0.268229 -0.184332 0 180 235
-0.200212 -0.243044 -0.185577 0 180 235
0.115817 -0.244579 -0.178027 0 180 235
-0.222283 -0.175337 -0.187306 0 180 235
-0.280964 -0.0203628 -0.201682 0 180 235
-0.127215 -0.0616492 -0.190054 0 180 235
-0.200537 -0.0348764 -0.195329 0 180 235
-0.0907119 -0.342004 -0.188358 0 180 235
-0.00977367 -0.153619 -0.185036 0 180 235
-0.0797245 -0.174665 -0.187698 0 180 235
-0.0021974 -0.412805 -0.182235 0 180 235
-0.347511 -0.055175 -0.189759 0 180 235
-0.0852412 -0.117587 -0.188463 0 180 235
-0.00304652 -0.243311 -0.186068 0 180 235
0.0172015 -0.0978971 -0.184735 0 180 235
0.0536271 -0.418789 -0.173226 0 180 235
-0.224566 -0.271044 -0.184822 0 180 235
-0.407327 -0.0890273 -0.180761 0 180 235
-0.320111 -0.0873153 -0.186274 0 180 235
0.0831441 -0.19011 -0.179211 0 180 235
-0.437398 -0.279483 -0.179649 0 180 235
-0.12723 -0.354506 -0.187672 0 180 235
-0.0785936 -0.282398 -0.225163 0 180 235
-0.132946 -0.0413306 -0.191119 0 180 235
-0.00445742 -0.0381275 -0.188334 0 180 235
-0.293155 -0.0513325 -0.20203 0 180 235
0.0530123 -0.331096 -0.185916 0 180 235
-0.266399 -0.0670542 -0.192615 0 180 235
-0.330138 -0.404392 -0.17782 0 180 235
-0.054217 -0.146588 -0.18776 0 180 235
-0.184262 -0.133361 -0.190164 0 180 235
-0.430094 -0.372003 -0.177716 0 180 235
-0.0216502 -0.145888 -0.18598 0 180 235
0.272134 -0.355518 -0.19518 0 180 235
0.0760544 -0.351293 -0.185654 0 180 235
0.323207 -0.381706 -0.189525 0 180 235
-0.341432 -0.0830018 -0.184972 0 180 235
-0.322107 -0.188477 -0.181087 0 180 235
-0.143655 -0.267752 -0.186889 0 180 235
-0.205238 -0.194713 -0.187237 0 180 235
0.331776 -0.2492 -0.182871 0 180 235
-0.199461 -0.0731982 -0.195336 0 180 235
-0.445472 -0.0137173 -0.192512 0 180 235
-0.300946 -0.0846403 -0.188715 0 180 235
0.291498 -0.223069 -0.184347 0 180 235
-0.396421 -0.37947 -0.178191 0 180 235
-0.0275476 -0.343273 -0.20358 0 180 235
0.301282 -0.37322 -0.189191 0 180 235
0.168379 -0.253567 -0.178496 0 180 235
-0.121169 -0.229613 -0.187655 0 180 235
-0.100843 -0.00680991 -0.193468 0 180 235
-0.233584 -0.110486 -0.190056 0 180 235
-0.31924 -0.241687 -0.181444 0 180 235
-0.220007 -0.145982 -0.188765 0 180 235
-0.371047 -0.272624 -0.181431 0 180 235
-0.0159579 -0.0367228 -0.188473 0 180 235
-0.0683836 -0.0919207 -0.189042 0 180 235
-0.00401308 -0.444256 -0.190519 0 180 235
0.0353732 -0.291993 -0.185041 0 180 235
-0.317801 -0.399519 -0.17837 0 180 235
0.0607097 -0.390851 -0.189277 0 180 235
-0.243717 -0.0453603 -0.195089 0 180 235
0.178279 -0.127869 -0.183546 0 180 235
0.213911 -0.240988 -0.178557 0 180 235
0.187786 -0.151402 -0.184049 0 180 235
0.0672235 -0.318806 -0.183572 0 180 235
0.124212 -0.194482 -0.178223 0 180 235
-0.298842 -0.219749 -0.194861 0 180 235
-0.071949 -0.100926 -0.188698 0 180 235
-0.166227 -0.0999108 -0.192265 0 180 235
-0.168365 -0.0277776 -0.19387 0 180 235
-0.0268287 -0.304041 -0.180359 0 180 235
-0.0215634 -0.353191 -0.198969 0 180 235
-0.196272 -0.304804 -0.185713 0 180 235
-0.45379 -0.265861 -0.178897 0 180 235
0.312764 -0.408843 -0.149309 0 180 235
-0.186063 -0.397831 -0.183622 0 180 235
-0.0948324 -0.0435625 -0.190568 0 180 235
-0.217765 -0.0424561 -0.195027 0 180 235
-0.298315 -0.161028 -0.183645 0 180 235
0.0678775 -0.28359 -0.181272 0 180 235
-0.194185 -0.233025 -0.186094 0 180 235
-0.2567 -0.0909808 -0.190819 0 180 235
-0.102758 -0.421667 -0.187752 0 180 235
-0.139507 -0.36244 -0.199746 0 180 235
-0.12188 -0.00581411 -0.19371 0 180 235
-0.143016 0.000845611 -0.195033 0 180 235
0.0423575 -0.0769336 -0.185002 0 180 235
-0.37856 -0.0359645 -0.191357 0 180 235
-0.295406 -0.167256 -0.18368 0 180 235
-0.100283 -0.344766 -0.188356 0 180 235
-0.121164 -0.00339312 -0.193942 0 180 235
-0.321685 -0.235517 -0.195927 0 180 235
-0.105656 -0.373451 -0.198719 0 180 235
0.322207 -0.340473 -0.164503 0 180 235
0.363175 -0.318306 -0.167498 0 180 235
0.409792 -0.394957 -0.148876 0 180 235
-0.28731 -0.208089 -0.194545 0 180 235
0.094826 -0.286022 -0.181418 0 180 235
-0.332028 -0.108315 -0.18256 0 180 235
0.263427 -0.244235 -0.183901 0 180 235
-0.415977 -0.378363 -0.177744 0 180 235
-0.130451 -0.0577424 -0.190289 0 180 235
0.328432 -0.357355 -0.0808757 0 180 235
0.0884557 -0.461348 -0.18412 0 180 235
-0.219435 -0.0799847 -0.192163 0 180 235
-0.341978 -0.172687 -0.180037 0 180 235
-0.147306 -0.182634 -0.188666 0 180 235
0.102148 -0.148983 -0.179687 0 180 235
0.0208169 -0.314619 -0.206908 0 180 235
-0.20347 -0.0945917 -0.191739 0 180 235
-0.194376 -0.347814 -0.184918 0 180 235
-0.28163 -0.1719 -0.198786 0 180 235
0.100692 -0.282609 -0.181023 0 180 235
-0.345817 -0.275132 -0.181459 0 180 235
-0.251916 -0.352748 -0.182016 0 180 235
-0.33548 -0.117175 -0.205857 0 180 235
-0.264678 -0.40414 -0.180041 0 180 235
0.0685884 -0.311922 -0.182967 0 180 235
-0.206285 -0.263048 -0.185273 0 180 235
-0.414541 -0.0802454 -0.181871 0 180 235
-0.333454 -0.0284369 -0.200672 0 180 235
0.154406 -0.260522 -0.178522 0 180 235
-0.326841 -0.0583175 -0.191014 0 180 235
-0.24777 -0.247065 -0.184861 0 180 235
0.0645298 -0.308648 -0.202836 0 180 235
-0.197903 -0.0942154 -0.191804 0 180 235
0.17296 -0.345555 -0.202014 0 180 235
-0.210419 -0.0254934 -0.196703 0 180 235
-0.138745 -0.469969 -0.187593 0 180 235
0.187845 -0.337916 -0.202845 0 180 235
-0.315539 -0.163163 -0.204518 0 180 235
-0.454301 -0.256173 -0.179058 0 180 235
0.25069 -0.226448 -0.180561 0 180 235
-0.0119137 -0.321998 -0.187611 0 180 235
-0.238979 -0.0760145 -0.192209 0 180 235
-0.361911 -0.268059 -0.181428 0 180 235
0.0407793 -0.281279 -0.216736 0 180 235
-0.0788324 -0.289632 -0.222497 0 180 235
0.186767 -0.202048 -0.179245 0 180 235
-0.118769 -0.0451325 -0.190345 0 180 235
-0.419003 -0.203999 -0.179862 0 180 235
-0.348802 -0.00735086 -0.199893 0 180 235
-0.09041 -0.266902 -0.187537 0 180 235
0.112924 -0.197193 -0.183016 0 180 235
-0.33982 -0.325796 -0.181468 0 180 235
-0.257128 -0.263443 -0.183866 0 180 235
-0.342181 -0.31585 -0.181501 0 180 235
0.177692 -0.484471 -0.162156 0 180 235
0.0707316 -0.346868 -0.185606 0 180 235
0.308454 -0.41105 -0.152523 0 180 235
-0.041134 -0.309031 -0.187233 0 180 235
0.379792 -0.48687 0.000243077 32 212 224
0.332823 -0.486801 0.0598313 32 212 224
0.169455 -0.407783 -0.186792 32 212 224
0.349515 -0.486858 -0.0266126 32 212 224
0.3388 -0.319871 -0.182193 32 212 224
-0.270284 -0.488421 -0.161922 32 212 224
0.463176 -0.236648 -0.181841 32 212 224
0.204684 -0.487242 -0.0276945 32 212 224
0.0808232 -0.223007 -0.187281 32 212 224
0.108095 -0.196489 -0.185557 32 212 224
0.000687811 -0.200292 -0.188634 32 212 224
0.247201 -0.337947 -0.181465 32 212 224
0.185239 -0.487159 -0.0248918 32 212 224
0.419086 -0.425435 -0.184686 32 212 224
0.260943 -0.353321 -0.181092 32 212 224
0.279965 -0.40331 -0.185161 32 212 224
0.17931 -0.485658 -0.191643 32 212 224
0.157255 -0.0712629 -0.182777 32 212 224
0.469943 -0.451424 -0.192872 32 212 224
-0.130696 -0.488344 0.0938224 32 212 224
0.00154377 -0.418245 -0.192544 32 212 224
-0.28289 -0.488831 -0.0795165 32 212 224
0.446043 -0.487028 -0.0513716 32 212 224
0.314935 -0.48672 -0.100525 32 212 224
0.198959 -0.419436 -0.189219 32 212 224
0.437654 -0.120397 -0.185474 32 212 224
-0.27103 -0.488483 0.115687 32 212 224
0.208911 -0.0519262 -0.180137 32 212 224
0.27234 -0.487097 0.0922433 32 212 224
0.279435 -0.486778 -0.18254 32 212 224
-0.189205 -0.488859 0.0110831 32 212 224
0.018413 -0.36607 -0.18923 32 212 224
0.333988 -0.199017 -0.179623 32 212 224
0.411246 -0.269762 -0.184697 32 212 224
0.337898 -0.252558 -0.180916 32 212 224
0.161879 -0.421321 -0.187961 32 212 224
0.128642 -0.250277 -0.184157 32 212 224
0.392085 -0.486869 -0.00388802 32 212 224
-0.0371652 -0.378387 -0.190457 32 212 224
0.416468 -0.486998 -0.0534924 32 212 224
0.284882 -0.486736 -0.164856 32 212 224
0.340535 -0.450466 -0.188264 32 212 224
0.388427 -0.141486 -0.183161 32 212 224
0.473681 -0.469069 -0.193017 32 212 224
0.45621 -0.486879 -0.163158 32 212 224
0.406703 -0.061199 -0.181838 32 212 224
0.41035 -0.486995 -0.0597421 32 212 224
-0.103395 -0.488374 0.101925 32 212 224
0.122978 -0.0717005 -0.183605 32 212 224
0.141182 -0.133977 -0.184657 32 212 224
0.422968 -0.348297 -0.186033 32 212 224
0.114378 -0.376083 -0.187627 32 212 224
0.0831515 -0.487618 0.0189894 32 212 224
0.226737 -0.332729 -0.181656 32 212 224
0.176202 -0.466731 -0.193698 32 212 224
0.382272 -0.253355 -0.18484 32 212 224
0.27002 -0.486757 -0.0884203 32 212 224
0.443848 -0.48694 -0.0242205 32 212 224
0.376871 -0.486909 -0.0682823 32 212 224
0.466403 -0.470054 -0.191484 32 212 224
0.205005 -0.487357 -0.0568109 32 212 224
0.417813 -0.333738 -0.186004 32 212 224
0.455082 -0.486735 -0.180478 32 212 224
0.435201 -0.487042 -0.145754 32 212 224
0.343044 -0.361768 -0.180938 32 212 224
-0.277653 -0.488987 -0.0658536 32 212 224
0.189725 -0.487105 0.0734075 32 212 224
0.191948 -0.487415 -0.164807 32 212 224
0.30072 -0.325319 -0.180204 32 212 224
0.451861 -0.378315 -0.185471 32 212 224
-0.112995 -0.488144 -0.114862 32 212 224
0.47376 -0.428054 -0.189421 32 212 224
0.0954753 -0.487356 -0.123705 32 212 224
0.478051 -0.48666 -0.125294 32 212 224
-0.210218 -0.488471 -0.182614 32 212 224
0.353114 -0.251513 -0.182644 32 212 224
0.37598 -0.382606 -0.18297 32 212 224
0.236158 -0.228286 -0.18296 32 212 224
0.283137 -0.0698658 -0.180331 32 212 224
0.349121 -0.486855 -0.0233709 32 212 224
0.472564 -0.486965 -0.096304 32 212 224
-0.165159 -0.488213 0.106279 32 212 224
0.0946082 -0.324019 -0.186049 32 212 224
0.368636 -0.434173 -0.186453 32 212 224
-0.040912 -0.488322 0.189999 32 212 224
0.461298 -0.419059 -0.186256 32 212 224
0.377408 -0.484073 -0.189751 32 212 224
0.459158 -0.485913 -0.18751 32 212 224
0.312301 -0.486918 0.0423991 32 212 224
0.00550905 -0.488149 0.15653 32 212 224
0.411013 -0.395574 -0.182878 32 212 224
0.0952206 -0.486718 -0.0468452 32 212 224
0.305233 -0.444751 -0.18888 32 212 224
-0.273109 -0.489081 -0.0216995 32 212 224
0.0441729 -0.487879 0.119551 32 212 224
0.377282 -0.486852 0.00895741 32 212 224
0.328356 -0.0400134 -0.177488 32 212 224
-0.044727 -0.362107 -0.189054 32 212 224
-0.0273435 -0.443903 -0.194111 32 212 224
0.281014 -0.405254 -0.18534 32 212 224
0.300641 -0.486866 -0.0142196 32 212 224
0.189332 -0.487417 -0.134868 32 212 224
0.315175 -0.486886 0.0317942 32 212 224
0.0348776 -0.487875 0.104093 32 212 224
0.108602 -0.397076 -0.189983 32 212 224
-0.129866 -0.488539 -0.101126 32 212 224
0.196563 -0.487159 0.0350312 32 212 224
0.143406 -0.487704 -0.136624 32 212 224
0.32014 -0.450217 -0.187951 32 212 224
0.442063 -0.487052 -0.0698957 32 212 224
0.446791 -0.130951 -0.185815 32 212 224
0.175946 -0.0929658 -0.182953 32 212 224
0.173779 -0.0932679 -0.183016 32 212 224
-0.0992485 -0.488325 0.209386 32 212 224
0.322618 -0.44397 -0.187348 32 212 224
0.0635115 -0.245658 -0.187839 32 212 224
0.370437 -0.0171795 -0.176749 32 212 224
0.436683 -0.375134 -0.185644 32 212 224
0.281533 -0.487136 0.0371669 32 212 224
0.408964 -0.487001 -0.178588 32 212 224
0.204016 -0.487023 0.112245 32 212 224
0.478408 -0.421361 -0.190326 32 212 224
0.469745 -0.486864 -0.14828 32 212 224
0.420848 -0.336339 -0.186128 32 212 224
0.0374754 -0.487976 0.191704 32 212 224
0.412846 -0.413357 -0.183104 32 212 224
0.335955 -0.486812 -0.131019 32 212 224
0.356902 -0.483457 -0.189437 32 212 224
-0.175916 -0.489073 -0.0987262 32 212 224
0.412755 -0.0614389 -0.182755 32 212 224
0.472757 -0.358518 -0.188055 32 212 224
0.175466 -0.487091 -0.0143242 32 212 224
-0.181982 -0.488002 0.172666 32 212 224
0.104722 -0.487675 0.14382 32 212 224
0.452962 -0.0734312 -0.186774 32 212 224
0.441594 -0.487041 -0.0568436 32 212 224
0.152314 -0.487241 -0.0690232 32 212 224
0.463161 -0.486997 -0.0881829 32 212 224
0.419335 -0.486942 -0.0317047 32 212 224
0.0943576 -0.487032 -0.0289395 32 212 224
0.306752 -0.132667 -0.180576 32 212 224
0.24814 -0.179842 -0.18211 32 212 224
0.404284 -0.477457 -0.190199 32 212 224
0.255933 -0.42256 -0.189354 32 212 224
0.154662 -0.486828 0.1014 32 212 224
0.352078 -0.160264 -0.181076 32 212 224
0.421565 -0.0910989 -0.185145 32 212 224
0.436084 -0.487023 -0.158407 32 212 224
0.0720343 -0.487823 0.0987913 32 212 224
0.257942 -0.182108 -0.181738 32 212 224
0.294792 -0.0571202 -0.179579 32 212 224
0.170641 -0.448591 -0.19191 32 212 224
-0.141148 -0.488188 0.13995 32 212 224
0.32447 -0.474173 -0.18967 32 212 224
0.404226 -0.413652 -0.183431 32 212 224
0.312294 -0.426292 -0.186146 32 212 224
-0.316625 -0.48858 0.0920154 32 212 224
0.319273 -0.437352 -0.186812 32 212 224
0.391359 -0.48673 0.0475865 32 212 224
0.291624 -0.484973 -0.189465 32 212 224
0.43531 -0.487028 -0.157391 32 212 224
0.302168 -0.486683 -0.109896 32 212 224
0.263767 -0.285047 -0.182527 32 212 224
0.258821 -0.486809 -0.181771 32 212 224
0.279452 -0.332458 -0.180454 32 212 224
-0.0978125 -0.488377 0.100009 32 212 224
0.465643 -0.486205 -0.183907 32 212 224
0.0733913 -0.31353 -0.187629 32 212 224
0.320685 -0.486762 -0.0792196 32 212 224
0.311337 -0.239672 -0.181007 32 212 224
0.175721 -0.487675 -0.188395 32 212 224
0.457112 -0.487022 -0.0434568 32 212 224
0.449176 -0.0591456 -0.186545 32 212 224
0.432025 -0.355372 -0.186048 32 212 224
-0.223831 -0.489231 -0.0673025 32 212 224
0.27416 -0.159604 -0.181066 32 212 224
0.276853 -0.487069 0.00958235 32 212 224
0.0913258 -0.339793 -0.186874 32 212 224
0.135629 -0.120605 -0.184458 32 212 224
-0.205213 -0.472838 -0.197694 32 212 224
0.40261 -0.486993 -0.18074 32 212 224
0.378204 -0.420691 -0.184933 32 212 224
0.442848 -0.1376 -0.185403 32 212 224
-0.0841884 -0.488306 0.05366 32 212 224
0.433953 -0.48687 -0.180793 32 212 224
0.468936 -0.451378 -0.192712 32 212 224
0.367249 -0.38692 -0.181964 32 212 224
0.341003 -0.460964 -0.189533 32 212 224
-0.00191328 -0.487449 -0.0647734 32 212 224
0.098817 -0.486811 -0.0639232 32 212 224
0.135624 -0.455892 -0.192059 32 212 224
0.248764 -0.487227 0.074538 32 212 224
0.311529 -0.486759 -0.159734 32 212 224
0.328596 -0.0457114 -0.177524 32 212 224
0.457408 -0.294229 -0.183998 32 212 224
-0.170771 -0.488464 -0.147071 32 212 224
0.287627 -0.3534 -0.179539 32 212 224
0.0956331 -0.487326 0.00404437 32 212 224
0.447023 -0.0584913 -0.186448 32 212 224
0.38558 -0.486853 0.00655289 32 212 224
0.420543 -0.486838 -0.182916 32 212 224
-0.164608 -0.487343 -0.192409 32 212 224
0.277579 -0.487086 0.0945893 32 212 224
0.0199952 -0.107927 -0.186878 32 212 224
0.426531 -0.486852 0.0058338 32 212 224
0.475004 -0.486618 -0.1581 32 212 224
0.176788 -0.487165 -0.0340134 32 212 224
0.47549 -0.486418 -0.168936 32 212 224
0.314788 -0.131889 -0.180526 32 212 224
0.403234 -0.487067 -0.114883 32 212 224
-0.020242 -0.487128 -0.117 32 212 224
0.257669 -0.486777 -0.0968875 32 212 224
0.393839 -0.487002 -0.103021 32 212 224
0.35378 -0.0719358 -0.177768 32 212 224
0.396476 -0.486837 0.00780512 32 212 224
0.118486 -0.488229 -0.177177 32 212 224
-0.341791 -0.488621 -0.0757247 32 212 224
0.288546 -0.440637 -0.189745 32 212 224
0.334611 -0.326881 -0.181524 32 212 224
0.463234 -0.485714 -0.187878 32 212 224
0.46771 -0.486704 -0.175162 32 212 224
-0.232649 -0.488662 0.0449902 32 212 224
0.316477 -0.486806 -0.0499829 32 212 224
0.422822 -0.427479 -0.184946 32 212 224
-0.0847587 -0.488356 0.147832 32 212 224
-0.243665 -0.463869 -0.197844 32 212 224
0.354093 -0.486897 -0.12224 32 212 224
0.451389 -0.165268 -0.185144 32 212 224
0.469538 -0.486908 -0.131596 32 212 224
0.180604 -0.472497 -0.1933 32 212 224
0.451813 -0.487009 -0.0456308 32 212 224
0.436508 -0.33684 -0.186146 32 212 224
0.0477336 -0.155012 -0.186408 32 212 224
0.451298 -0.486985 -0.128437 32 212 224
0.40922 -0.0155547 -0.178541 32 212 224
0.42273 -0.0511499 -0.183588 32 212 224
0.294218 -0.487087 0.146076 32 212 224
0.345574 -0.397238 -0.180665 32 212 224
0.376798 -0.245113 -0.18453 32 212 224
-0.113504 -0.48841 0.0732426 32 212 224
0.392126 -0.296882 -0.185842 32 212 224
0.44802 -0.193393 -0.183538 32 212 224
0.19786 -0.487399 -0.0844502 32 212 224
0.131127 -0.482329 -0.192988 32 212 224
0.0794635 -0.48761 0.0111629 32 212 224
0.233049 -0.110788 -0.181303 32 212 224
-0.183776 -0.489098 -0.046867 32 212 224
0.412243 -0.487101 -0.144487 32 212 224
-0.154765 -0.48822 0.116602 32 212 224
-0.0217588 -0.487141 -0.116108 32 212 224
0.366222 -0.486687 0.0742226 32 212 224
-0.163851 -0.488139 -0.16215 32 212 224
0.369171 -0.452789 -0.189254 32 212 224
-0.0388949 -0.486823 -0.175305 32 212 224
0.359986 -0.0136664 -0.176864 32 212 224
0.199312 -0.487226 -0.029166 32 212 224
-0.149777 -0.488044 0.20311 32 212 224
0.174611 -0.212452 -0.184658 32 212 224
0.245383 -0.378588 -0.183373 32 212 224
0.396634 -0.486644 0.0729476 32 212 224
-0.0975228 -0.488141 -0.0909811 32 212 224
-0.155851 -0.488963 -0.0383485 32 212 224
0.0598476 -0.241198 -0.187797 32 212 224
0.356488 -0.486823 0.0189197 32 212 224
0.3249 -0.292336 -0.180888 32 212 224
0.290434 -0.486897 -0.0191841 32 212 224
0.193706 -0.487143 -0.00780878 32 212 224
0.414367 -0.470576 -0.189931 32 212 224
-0.266102 -0.488503 -0.124788 32 212 224
0.416805 -0.224296 -0.18299 32 212 224
0.329942 -0.359317 -0.179802 32 212 224
0.477992 -0.485386 -0.185094 32 212 224
0.387047 -0.486653 0.0753595 32 212 224
0.209242 -0.03714 -0.179661 32 212 224
0.363695 -0.486795 0.0372716 32 212 224
0.434838 -0.420707 -0.18332 32 212 224
0.437292 -0.487056 -0.0912035 32 212 224
0.261084 -0.135311 -0.181583 32 212 224
0.394833 -0.48693 -0.0404483 32 212 224
0.359031 -0.215657 -0.181964 32 212 224
0.130711 -0.474113 -0.193539 32 212 224
0.379878 -0.194418 -0.184249 32 212 224
0.236377 -0.0245661 -0.179465 32 212 224
-0.163212 -0.489113 -0.07892 32 212 224
0.0923947 -0.487528 0.0219355 32 212 224
0.334457 -0.486785 0.0658092 32 212 224
0.244292 -0.486944 -0.0743511 32 212 224
0.181786 -0.146489 -0.183614 32 212 224
0.22566 -0.467565 -0.193949 32 212 224
0.209033 -0.487266 -0.0327998 32 212 224
0.315239 -0.486831 -0.0117378 32 212 224
0.372667 -0.486804 0.0341766 32 212 224
0.476119 -0.413571 -0.1896 32 212 224
0.151589 -0.410222 -0.186708 32 212 224
0.0382228 -0.487691 0.0212749 32 212 224
0.445265 -0.457489 -0.188712 32 212 224
0.250773 -0.486784 -0.175248 32 212 224
0.112735 -0.487054 0.0465308 32 212 224
0.475166 -0.485767 -0.182996 32 212 224
0.193829 -0.032819 -0.180675 32 212 224
0.477552 -0.42907 -0.190268 32 212 224
0.263656 -0.450113 -0.192322 32 212 224
0.0235612 -0.487746 0.0122412 32 212 224
0.223858 -0.0470156 -0.179446 32 212 224
-0.222875 -0.488139 0.159992 32 212 224
0.390713 -0.250374 -0.184713 32 212 224
0.0690209 -0.487033 -0.132152 32 212 224
0.43208 -0.486851 0.00640466 32 212 224
0.464172 -0.330265 -0.186681 32 212 224
-0.305843 -0.488872 -0.0234813 32 212 224
0.401954 -0.110245 -0.183647 32 212 224
0.401031 -0.401048 -0.181938 32 212 224
0.419803 -0.486714 0.0489175 32 212 224
-0.104402 -0.487395 -0.181663 32 212 224
0.462365 -0.486093 -0.185703 32 212 224
0.414997 -0.0387475 -0.181647 32 212 224
0.286662 -0.486668 -0.105805 32 212 224
0.384305 -0.486921 -0.03315 32 212 224
0.460298 -0.373428 -0.186315 32 212 224
0.23876 -0.463481 -0.193464 32 212 224
0.220263 -0.48724 -0.00327818 32 212 224
0.383521 -0.189458 -0.184183 32 212 224
0.176457 -0.403919 -0.186649 32 212 224
0.00334528 -0.157349 -0.187833 32 212 224
0.309617 -0.351216 -0.17914 32 212 224
0.368711 -0.14914 -0.182629 32 212 224
0.181315 -0.34952 -0.181071 32 212 224
0.27377 -0.366509 -0.180583 32 212 224
0.280815 -0.27755 -0.181971 32 212 224
0.0955578 -0.165007 -0.185895 32 212 224
0.350628 -0.486866 -0.0477468 32 212 224
0.470337 -0.486939 -0.109224 32 212 224
0.379307 -0.48692 -0.0324809 32 212 224
-0.027165 -0.488062 0.0740344 32 212 224
0.355301 -0.0743862 -0.177813 32 212 224
0.467778 -0.486909 -0.132707 32 212 224
0.0896172 -0.307352 -0.186926 32 212 224
0.411064 -0.487104 -0.140826 32 212 224
0.469932 -0.289003 -0.185104 32 212 224
0.338689 -0.486904 -0.178556 32 212 224
0.47084 -0.290135 -0.185309 32 212 224
0.442237 -0.179868 -0.18401 32 212 224
0.190429 -0.367592 -0.182748 32 212 224
0.18064 -0.116677 -0.183351 32 212 224
-0.284877 -0.488871 -0.0730238 32 212 224
0.197799 -0.487145 0.0160465 32 212 224
0.293832 -0.444662 -0.189777 32 212 224
0.477789 -0.486022 -0.176272 32 212 224
-0.181268 -0.48898 -0.114562 32 212 224
0.392147 -0.486951 -0.05345 32 212 224
-0.0520473 -0.487948 -0.0552652 32 212 224
0.154951 -0.487828 -0.155876 32 212 224
0.415982 -0.110977 -0.184793 32 212 224
-0.215607 -0.448967 -0.196803 32 212 224
0.407111 -0.486427 -0.188192 32 212 224
0.412616 -0.0892103 -0.184182 32 212 224
0.143984 -0.254461 -0.183263 32 212 224
0.47591 -0.383143 -0.188858 32 212 224
0.352357 -0.486974 -0.179647 32 212 224
0.162948 -0.487426 0.199814 32 212 224
0.12022 -0.486741 -0.0150005 32 212 224
0.364295 -0.486961 -0.138713 32 212 224
0.474815 -0.357521 -0.188378 32 212 224
0.0882409 -0.181788 -0.186535 32 212 224
0.460653 -0.407987 -0.186268 32 212 224
-0.116508 -0.48848 -0.0816451 32 212 224
-0.00368102 -0.488024 0.0730375 32 212 224
0.27085 -0.127104 -0.181297 32 212 224
0.226951 -0.475609 -0.193314 32 212 224
0.143352 -0.487913 -0.156063 32 212 224
-0.106502 -0.48841 0.0733336 32 212 224
0.252321 -0.0932722 -0.180845 32 212 224
0.36356 -0.487001 -0.168949 32 212 224
0.320842 -0.48681 -0.0528814 32 212 224
-0.248671 -0.488603 0.0745559 32 212 224
0.369897 -0.41066 -0.183423 32 212 224
0.124644 -0.487612 0.204035 32 212 224
0.122708 -0.189784 -0.184759 32 212 224
0.270834 -0.0897151 -0.180934 32 212 224
0.274627 -0.487189 0.0417282 32 212 224
0.201998 -0.487352 -0.0840648 32 212 224
0.437772 -0.486989 -0.163754 32 212 224
0.418198 -0.487027 -0.170028 32 212 224
0.354077 -0.369913 -0.181749 32 212 224
-0.00807268 -0.488007 0.0477611 32 212 224
0.136755 -0.347296 -0.182162 32 212 224
0.480425 -0.485752 -0.177671 32 212 224
0.280831 -0.0604486 -0.180243 32 212 224
0.260648 -0.487222 0.0688285 32 212 224
0.221216 -0.107454 -0.181678 32 212 224
0.423884 -0.456279 -0.188326 32 212 224
0.334426 -0.16651 -0.180545 32 212 224
0.014161 -0.487667 -0.00488608 32 212 224
0.371903 -0.462094 -0.190455 32 212 224
0.409671 -0.298771 -0.185562 32 212 224
0.309593 -0.486821 -0.038781 32 212 224
-0.0203413 -0.488189 0.138149 32 212 224
0.127076 -0.486794 -0.00612334 32 212 224
0.205036 -0.471835 -0.193626 32 212 224
0.259139 -0.292116 -0.182545 32 212 224
-0.0503323 -0.487057 -0.149928 32 212 224
0.454279 -0.208341 -0.182769 32 212 224
-0.0392819 -0.488035 0.0608189 32 212 224
0.451351 -0.486897 -0.166166 32 212 224
-0.288517 -0.48901 -0.0317034 32 212 224
0.436889 -0.407595 -0.182439 32 212 224
0.411389 -0.486883 -0.00768531 32 212 224
0.321271 -0.173929 -0.180706 32 212 224
0.422886 -0.48706 -0.163594 32 212 224
-0.207906 -0.488612 -0.146045 32 212 224
0.233193 -0.0995805 -0.181027 32 212 224
0.294509 -0.0569625 -0.179584 32 212 224
0.412651 -0.486766 0.0408985 32 212 224
0.0873694 -0.487702 -0.194317 32 212 224
0.219657 -0.487154 -0.080201 32 212 224
0.310244 -0.486924 0.0246533 32 212 224
0.451167 -0.48702 -0.0941767 32 212 224
0.456963 -0.487048 -0.0571749 32 212 224
0.214801 -0.349456 -0.18154 32 212 224
-0.0520766 -0.488232 0.114597 32 212 224
0.364219 -0.486879 -0.066028 32 212 224
0.297047 -0.263119 -0.181584 32 212 224
0.466585 -0.486815 -0.163401 32 212 224
-0.136058 -0.487769 -0.17763 32 212 224
0.186688 -0.471271 -0.193332 32 212 224
-0.0936489 -0.487957 -0.106273 32 212 224
0.131177 -0.487522 0.167905 32 212 224
0.350273 -0.48691 -0.145631 32 212 224
-0.147287 -0.488164 -0.148118 32 212 224
0.1268 -0.486841 -0.0161192 32 212 224
0.474145 -0.419487 -0.189369 32 212 224
0.432131 -0.0188827 -0.18199 32 212 224
0.478922 -0.485466 -0.184049 32 212 224
0.27877 -0.487027 0.00207589 32 212 224
0.464352 -0.487033 -0.0736548 32 212 224
0.390489 -0.461967 -0.190651 32 212 224
0.113312 -0.32206 -0.184359 32 212 224
0.342303 -0.243542 -0.18095 32 212 224
0.157975 -0.412767 -0.186852 32 212 224
0.420367 -0.370569 -0.185202 32 212 224
0.470231 -0.443305 -0.190756 32 212 224
0.379831 -0.487024 -0.171885 32 212 224
0.479114 -0.48651 -0.134005 32 212 224
0.152443 -0.0839688 -0.183408 32 212 224
0.276727 -0.320074 -0.180971 32 212 224
0.38672 -0.486854 0.00561275 32 212 224
0.464858 -0.239458 -0.182047 32 212 224
0.185868 -0.207871 -0.184498 32 212 224
0.332468 -0.329782 -0.181258 32 212 224
-0.137936 -0.488391 0.0652076 32 212 224
0.41923 -0.486975 -0.0467279 32 212 224
0.318162 -0.194185 -0.180396 32 212 224
0.370295 -0.486906 -0.0264815 32 212 224
0.380959 -0.486658 0.0860495 32 212 224
0.382466 -0.17092 -0.183878 32 212 224
-0.174096 -0.488884 0.00252538 32 212 224
0.292457 -0.354877 -0.17933 32 212 224
0.412171 -0.0820844 -0.183928 32 212 224
0.339211 -0.486903 -0.174138 32 212 224
0.231745 -0.123538 -0.181636 32 212 224
0.420948 -0.373733 -0.185108 32 212 224
0.478241 -0.48657 -0.134702 32 212 224
0.461275 -0.242819 -0.181156 32 212 224
0.45634 -0.136743 -0.186418 32 212 224
0.0547221 -0.201816 -0.187411 32 212 224
-0.131008 -0.488785 -0.0666749 32 212 224
-0.341814 -0.488428 0.00100851 32 212 224
0.216142 -0.310776 -0.182434 32 212 224
0.1095 -0.487448 -0.127739 32 212 224
0.0962426 -0.473015 -0.196406 32 212 224
0.226929 -0.242751 -0.183494 32 212 224
0.35084 -0.134032 -0.180729 32 212 224
-0.0134122 -0.469804 -0.19614 32 212 224
-0.118883 -0.488001 -0.135209 32 212 224
0.294443 -0.3207 -0.180501 32 212 224
0.347174 -0.486835 -0.065953 32 212 224
0.435771 -0.455042 -0.188044 32 212 224
-0.024247 -0.488063 0.0643521 32 212 224
0.132589 -0.139838 -0.184781 32 212 224
0.405027 -0.487105 -0.139025 32 212 224
0.370312 -0.342297 -0.184923 32 212 224
0.243258 -0.453518 -0.192982 32 212 224
-0.040178 -0.374348 -0.190096 32 212 224
0.367561 -0.288758 -0.185438 32 212 224
0.439699 -0.0448848 -0.185503 32 212 224
0.145789 -0.48745 0.212551 32 212 224
0.437344 -0.156107 -0.184725 32 212 224
0.132796 -0.487506 0.192954 32 212 224
0.437741 -0.156238 -0.184742 32 212 224
0.0820894 -0.488004 0.184287 32 212 224
0.434813 -0.376136 -0.185562 32 212 224
-0.110875 -0.487812 -0.141272 32 212 224
0.390991 -0.138058 -0.183309 32 212 224
-0.0686639 -0.488126 -0.0134876 32 212 224
0.244567 -0.303708 -0.182284 32 212 224
0.45442 -0.487014 -0.0895376 32 212 224
0.407077 -0.487031 -0.172486 32 212 224
0.312116 -0.297127 -0.180723 32 212 224
0.406887 -0.21619 -0.183413 32 212 224
0.439407 -0.487047 -0.0662555 32 212 224
0.433841 -0.463683 -0.188901 32 212 224
-0.200539 -0.48921 -0.0626296 32 212 224
0.0286976 -0.487944 0.137398 32 212 224
0.421155 -0.00925887 -0.179555 32 212 224
0.07359 -0.184538 -0.186843 32 212 224
-0.250492 -0.489194 -0.0486688 32 212 224
-0.052423 -0.488336 0.21531 32 212 224
0.288796 -0.316946 -0.180753 32 212 224
0.261933 -0.486763 -0.176231 32 212 224
0.226836 -0.487122 -0.0655341 32 212 224
0.282598 -0.432414 -0.189279 32 212 224
0.194564 -0.463652 -0.193917 32 212 224
-0.346508 -0.441385 -0.198495 64 236 211
-0.402639 -0.429636 -0.201871 64 236 211
-0.0192876 -0.0317495 -0.193183 64 236 211
-0.0932544 -0.243039 -0.197309 64 236 211
-0.0651373 -0.480117 -0.194249 64 236 211
0.205394 -0.138389 -0.192959 64 236 211
-0.0229397 -0.228495 -0.195822 64 236 211
-0.318458 -0.0607672 -0.199125 64 236 211
0.16553 -0.487065 0.0471384 64 236 211
0.370907 -0.487458 -0.19018 64 236 211
-0.448636 -0.27529 -0.2051 64 236 211
0.226013 -0.487516 -0.154303 64 236 211
0.0744487 -0.455358 -0.191708 64 236 211
-0.153958 -0.100735 -0.19711 64 236 211
0.129936 -0.487354 -0.0912171 64 236 211
-0.422445 -0.188938 -0.20314 64 236 211
-0.368878 -0.487718 -0.0922003 64 236 211
-0.0144101 -0.294236 -0.192549 64 236 211
-0.36998 -0.47741 -0.204233 64 236 211
0.0942538 -0.0945228 -0.195407 64 236 211
-0.359515 -0.487699 -0.101048 64 236 211
-0.0227912 -0.487489 -0.0925575 64 236 211
-0.35792 -0.200672 -0.199811 64 236 211
-0.0907609 -0.263987 -0.196699 64 236 211
0.342652 -0.428404 -0.189119 64 236 211
-0.145836 -0.201193 -0.198746 64 236 211
-0.0532917 -0.487563 -0.0683275 64 236 211
0.387538 -0.240192 -0.191971 64 236 211
0.0952867 -0.386647 -0.186242 64 236 211
-0.224459 -0.487514 -0.199025 64 236 211
-0.200323 -0.0151563 -0.196885 64 236 211
-0.30248 -0.220432 -0.197733 64 236 211
-0.410803 -0.487595 -0.201616 64 236 211
-0.141672 -0.487553 -0.10385 64 236 211
0.327353 -0.23135 -0.191441 64 236 211
-0.352352 -0.487738 -0.0640263 64 236 211
-0.298934 -0.487629 -0.126571 64 236 211
-0.400612 -0.38258 -0.201118 64 236 211
0.0348296 -0.321016 -0.189275 64 236 211
-0.200314 -0.405937 -0.194427 64 236 211
0.173901 -0.411836 -0.187904 64 236 211
0.104814 -0.395282 -0.186603 64 236 211
-0.44047 -0.121236 -0.204601 64 236 211
0.114472 -0.486789 0.15563 64 236 211
-0.406024 -0.48769 -0.0874729 64 236 211
-0.0883657 -0.4878 -0.0881179 64 236 211
0.197924 -0.478809 -0.193485 64 236 211
-0.459676 -0.477356 -0.193961 64 236 211
-0.078358 -0.466747 -0.192823 64 236 211
-0.155111 -0.487465 -0.0345523 64 236 211
-0.416644 -0.124017 -0.202488 64 236 211
0.245167 -0.216351 -0.191358 64 236 211
-0.376017 -0.329925 -0.198939 64 236 211
-0.356105 -0.271648 -0.197805 64 236 211
0.377561 -0.139994 -0.191974 64 236 211
0.10966 -0.487358 -0.0837467 64 236 211
-0.0775956 -0.487362 0.152681 64 236 211
-0.100467 -0.487488 0.0776762 64 236 211
-0.306793 -0.37123 -0.196495 64 236 211
-0.29439 -0.458907 -0.198728 64 236 211
-0.381633 -0.316949 -0.199271 64 236 211
-0.0621382 -0.413408 -0.190469 64 236 211
0.149022 -0.191345 -0.191553 64 236 211
-0.2003 -0.175846 -0.198301 64 236 211
0.414611 -0.429361 -0.189551 64 236 211
0.358686 -0.441203 -0.189761 64 236 211
0.00320191 -0.423317 -0.1883 64 236 211
-0.0781492 -0.369807 -0.191323 64 236 211
-0.319574 -0.227498 -0.198005 64 236 211
0.282947 -0.261031 -0.190407 64 236 211
-0.244834 -0.487596 -0.141769 64 236 211
-0.388868 -0.434166 -0.201187 64 236 211
-0.0675696 -0.148871 -0.197575 64 236 211
-0.133147 -0.232877 -0.197887 64 236 211
-0.218918 -0.14533 -0.198045 64 236 211
-0.240096 -0.328431 -0.19562 64 236 211
-0.409252 -0.426141 -0.202247 64 236 211
-0.29349 -0.115122 -0.199058 64 236 211
-0.248241 -0.226305 -0.19675 64 236 211
0.0149302 -0.293782 -0.191853 64 236 211
0.0808458 -0.0597956 -0.1952 64 236 211
-0.0297373 -0.43188 -0.189866 64 236 211
0.278489 -0.156379 -0.192121 64 236 211
0.178784 -0.269713 -0.189834 64 236 211
0.0936594 -0.396342 -0.186698 64 236 211
-0.212787 -0.411283 -0.194566 64 236 211
-0.208804 -0.48742 0.0953221 64 236 211
-0.144504 -0.403361 -0.192983 64 236 211
-0.286314 -0.487456 0.0830784 64 236 211
0.233768 -0.25021 -0.190126 64 236 211
-0.226916 -0.269569 -0.195632 64 236 211
-0.289313 -0.460378 -0.19872 64 236 211
-0.34006 -0.0680451 -0.199918 64 236 211
-0.414584 -0.48768 -0.165533 64 236 211
-0.0610522 -0.300886 -0.193 64 236 211
-0.143781 -0.487457 0.0107236 64 236 211
-0.0534304 -0.241376 -0.19646 64 236 211
-0.0905483 -0.487451 -0.0160868 64 236 211
0.305957 -0.244459 -0.191006 64 236 211
0.109442 -0.321684 -0.187114 64 236 211
0.382894 -0.417275 -0.190114 64 236 211
-0.115821 -0.487458 -0.0683445 64 236 211
0.224418 -0.487192 -0.195534 64 236 211
-0.234977 -0.487444 0.0123001 64 236 211
0.0151647 -0.466855 -0.192455 64 236 211
0.0368895 -0.183007 -0.194864 64 236 211
-0.156026 -0.427242 -0.193162 64 236 211
-0.26895 -0.0874324 -0.198379 64 236 211
0.231134 -0.443949 -0.189581 64 236 211
