ply
format ascii 1.0
comment Created by Open3D
element vertex 1197
property double x
property double y
property double z
property uchar red
property uchar green
property uchar blue
end_header
-0.138825 -0.383362 0.271393 32 212 224
0.367878 -0.382407 0.0791555 32 212 224
-0.00108875 -0.401505 0.0941227 32 212 224
0.186087 -0.301978 0.0960001 32 212 224
0.320486 -0.439469 0.073659 32 212 224
-0.135903 -0.461559 0.37681 32 212 224
0.344111 -0.440186 0.0723411 32 212 224
0.382331 -0.468273 0.0655248 32 212 224
0.107217 -0.237416 0.104303 32 212 224
-0.078512 -0.475697 0.368443 32 212 224
-0.153875 -0.294618 0.343102 32 212 224
-0.1449 -0.320313 0.336859 32 212 224
-0.000816893 -0.280077 0.0921527 32 212 224
-0.139461 -0.372834 0.329475 32 212 224
0.0733737 -0.485145 0.372386 32 212 224
-0.142718 -0.259059 0.220384 32 212 224
-0.132857 -0.318834 0.130962 32 212 224
0.0871623 -0.486585 0.309221 32 212 224
0.09685 -0.387885 0.103342 32 212 224
-0.141646 -0.320644 0.297464 32 212 224
-0.139574 -0.466206 0.354876 32 212 224
0.159927 -0.486565 0.233838 32 212 224
0.290584 -0.370854 0.0869691 32 212 224
0.251391 -0.263338 0.107898 32 212 224
0.281316 -0.443929 0.0735243 32 212 224
-0.0447231 -0.241398 0.103591 32 212 224
-0.133452 -0.446191 0.206807 32 212 224
-0.139261 -0.453763 0.396744 32 212 224
0.393711 -0.428505 0.0676262 32 212 224
0.351437 -0.417254 0.077971 32 212 224
0.145482 -0.486597 0.21427 32 212 224
-0.0706644 -0.486364 0.121094 32 212 224
0.240029 -0.411405 0.0800463 32 212 224
0.371745 -0.392991 0.0768763 32 212 224
0.18501 -0.487231 0.296594 32 212 224
0.388597 -0.466794 0.0646375 32 212 224
-0.12679 -0.275776 0.116031 32 212 224
-0.141622 -0.361528 0.296254 32 212 224
0.339213 -0.338415 0.0974913 32 212 224
-0.0863063 -0.470526 0.393528 32 212 224
-0.132591 -0.47426 0.334061 32 212 224
0.0606101 -0.333921 0.0991546 32 212 224
-0.132222 -0.428801 0.144371 32 212 224
0.328393 -0.469064 0.0632697 32 212 224
0.402636 -0.47115 0.0516748 32 212 224
-0.144148 -0.255404 0.236758 32 212 224
0.0118563 -0.486564 0.266926 32 212 224
0.0303228 -0.484774 0.393971 32 212 224
0.138292 -0.38505 0.0970379 32 212 224
0.113556 -0.485626 0.347893 32 212 224
0.0885005 -0.486654 0.31885 32 212 224
0.358448 -0.486648 0.104793 32 212 224
0.194273 -0.343334 0.0893052 32 212 224
0.250125 -0.439138 0.0764415 32 212 224
0.129935 -0.486888 0.323057 32 212 224
-0.0903265 -0.4866 0.159599 32 212 224
0.133398 -0.486644 0.326726 32 212 224
0.148261 -0.486588 0.219917 32 212 224
0.323752 -0.360121 0.0896078 32 212 224
-0.131401 -0.240757 0.162875 32 212 224
-0.00924573 -0.486733 0.170648 32 212 224
0.227674 -0.422466 0.0813112 32 212 224
-0.00523876 -0.48661 0.150428 32 212 224
0.181742 -0.247972 0.102629 32 212 224
0.158654 -0.486592 0.208526 32 212 224
-0.00513692 -0.486728 0.232789 32 212 224
-0.135045 -0.454263 0.406103 32 212 224
0.125671 -0.48664 0.264673 32 212 224
0.165681 -0.48616 0.0956864 32 212 224
0.0255972 -0.486528 0.271886 32 212 224
0.176679 -0.255057 0.104288 32 212 224
0.209359 -0.486651 0.180388 32 212 224
0.0425439 -0.486666 0.247941 32 212 224
0.155485 -0.486506 0.144097 32 212 224
-0.127028 -0.485763 0.257999 32 212 224
0.289391 -0.486558 0.104388 32 212 224
0.274769 -0.327997 0.0943326 32 212 224
-0.0465843 -0.419443 0.0786177 32 212 224
-0.151795 -0.295288 0.360749 32 212 224
-0.106252 -0.427682 0.0838801 32 212 224
-0.149841 -0.339602 0.32218 32 212 224
0.123511 -0.486998 0.302432 32 212 224
0.341653 -0.482892 0.0615984 32 212 224
-0.00968874 -0.485861 0.348924 32 212 224
0.0649712 -0.485736 0.357141 32 212 224
-0.137097 -0.361328 0.209 32 212 224
0.401744 -0.453094 0.06106 32 212 224
-0.141191 -0.419036 0.363785 32 212 224
0.0507376 -0.486184 0.318406 32 212 224
0.222707 -0.486589 0.128186 32 212 224
0.363621 -0.437176 0.0711178 32 212 224
-0.134009 -0.397831 0.187367 32 212 224
0.255705 -0.474284 0.0705206 32 212 224
-0.0282031 -0.486781 0.228028 32 212 224
0.0847924 -0.486705 0.32953 32 212 224
0.374637 -0.486577 0.102969 32 212 224
-0.0428493 -0.324713 0.0805084 32 212 224
0.308599 -0.361292 0.0901633 32 212 224
0.219494 -0.486947 0.256507 32 212 224
-0.136955 -0.380081 0.222202 32 212 224
-0.145889 -0.312179 0.333471 32 212 224
0.221424 -0.319261 0.0924002 32 212 224
-0.131553 -0.432226 0.127883 32 212 224
0.360109 -0.439145 0.0712403 32 212 224
0.344009 -0.486837 0.132801 32 212 224
0.0636888 -0.486784 0.203071 32 212 224
0.329015 -0.486979 0.174457 32 212 224
-0.144991 -0.315556 0.339353 32 212 224
0.0452234 -0.33515 0.0975074 32 212 224
-0.122922 -0.479333 0.324932 32 212 224
0.14745 -0.486592 0.216686 32 212 224
0.274922 -0.486645 0.146711 32 212 224
0.321455 -0.353666 0.090138 32 212 224
0.159017 -0.487205 0.294972 32 212 224
0.269389 -0.486658 0.150128 32 212 224
-0.106868 -0.478584 0.338234 32 212 224
0.179154 -0.395892 0.0921019 32 212 224
0.0051423 -0.483893 0.10399 32 212 224
0.40167 -0.462489 0.049611 32 212 224
0.253942 -0.392871 0.081141 32 212 224
-0.12805 -0.294174 0.109405 32 212 224
0.40214 -0.476133 0.05371 32 212 224
0.396121 -0.462867 0.0614276 32 212 224
0.13264 -0.450104 0.100222 32 212 224
0.359167 -0.475212 0.131588 32 212 224
-0.109411 -0.47542 0.35162 32 212 224
0.0896389 -0.236655 0.10442 32 212 224
0.269317 -0.436555 0.0754066 32 212 224
0.0737701 -0.486284 0.142444 32 212 224
0.158354 -0.48617 0.0997316 32 212 224
0.0485969 -0.486796 0.218425 32 212 224
-0.136281 -0.327131 0.15488 32 212 224
0.167756 -0.480169 0.0899365 32 212 224
0.314097 -0.486986 0.1871 32 212 224
-0.141574 -0.460377 0.357511 32 212 224
0.33546 -0.427856 0.0755782 32 212 224
0.186259 -0.486593 0.150473 32 212 224
0.146987 -0.408348 0.0979376 32 212 224
0.211512 -0.379011 0.0872029 32 212 224
0.145418 -0.486621 0.199654 32 212 224
-0.14293 -0.334384 0.398253 32 212 224
0.275163 -0.352491 0.0903706 32 212 224
0.358863 -0.486805 0.123788 32 212 224
-0.134309 -0.358592 0.138703 32 212 224
0.0936942 -0.486696 0.22621 32 212 224
-0.000757217 -0.486187 0.310166 32 212 224
-0.141765 -0.355852 0.265848 32 212 224
-0.134969 -0.396967 0.210688 32 212 224
-0.144676 -0.348399 0.36212 32 212 224
0.161062 -0.486566 0.225766 32 212 224
-0.133822 -0.394451 0.160559 32 212 224
-0.116844 -0.486285 0.180583 32 212 224
0.371326 -0.402965 0.0758068 32 212 224
-0.0550984 -0.486383 0.308492 32 212 224
0.334377 -0.486835 0.136496 32 212 224
-0.0557699 -0.486152 0.100784 32 212 224
0.0516571 -0.436099 0.106809 32 212 224
0.155787 -0.298035 0.0957943 32 212 224
0.117681 -0.486736 0.329247 32 212 224
0.287988 -0.486389 0.0842612 32 212 224
0.0669669 -0.486345 0.314075 32 212 224
-0.136241 -0.364458 0.195334 32 212 224
-0.135167 -0.382635 0.408993 32 212 224
0.391786 -0.480062 0.0662589 32 212 224
-0.148104 -0.339 0.366154 32 212 224
0.108871 -0.486655 0.241286 32 212 224
0.344277 -0.486999 0.161172 32 212 224
-0.0611588 -0.486203 0.104365 32 212 224
-0.138418 -0.46219 0.319368 32 212 224
0.393478 -0.470038 0.0632362 32 212 224
-0.0458352 -0.263371 0.100429 32 212 224
0.014019 -0.48632 0.300952 32 212 224
0.204311 -0.486761 0.243865 32 212 224
0.165445 -0.486545 0.243696 32 212 224
0.120846 -0.486678 0.195202 32 212 224
-0.134608 -0.456241 0.233741 32 212 224
0.206708 -0.486935 0.260503 32 212 224
0.316755 -0.486794 0.142362 32 212 224
0.119442 -0.238538 0.103612 32 212 224
-0.149753 -0.305498 0.372983 32 212 224
0.231336 -0.483601 0.0782353 32 212 224
-0.0204114 -0.486716 0.247094 32 212 224
0.113439 -0.486265 0.338678 32 212 224
0.0157622 -0.486564 0.266516 32 212 224
-0.0483204 -0.486671 0.256953 32 212 224
0.143098 -0.486597 0.253553 32 212 224
0.0101874 -0.486498 0.276751 32 212 224
0.206455 -0.399465 0.0867536 32 212 224
0.137608 -0.486968 0.2897 32 212 224
0.349363 -0.407063 0.0805267 32 212 224
0.0332872 -0.486723 0.189311 32 212 224
0.283992 -0.486672 0.15264 32 212 224
0.38471 -0.361991 0.077388 32 212 224
0.189128 -0.370238 0.0894751 32 212 224
-0.146095 -0.304905 0.331051 32 212 224
-0.0164749 -0.486338 0.12285 32 212 224
0.0219257 -0.485679 0.353299 32 212 224
-0.124861 -0.449059 0.107621 32 212 224
-0.13426 -0.421987 0.219061 32 212 224
0.391652 -0.485995 0.0680243 32 212 224
0.324621 -0.33919 0.0972748 32 212 224
0.00474263 -0.486599 0.258689 32 212 224
-0.0774952 -0.383929 0.0729659 32 212 224
0.258541 -0.298176 0.100438 32 212 224
0.149052 -0.48659 0.164704 32 212 224
-0.116781 -0.354962 0.0879659 32 212 224
-0.134 -0.28849 0.14358 32 212 224
-0.13681 -0.468092 0.283068 32 212 224
0.036058 -0.486229 0.311305 32 212 224
0.0820162 -0.486566 0.318422 32 212 224
-0.144363 -0.361152 0.381502 32 212 224
-0.120452 -0.474192 0.347972 32 212 224
0.041976 -0.386113 0.103405 32 212 224
-0.105217 -0.266546 0.104449 32 212 224
0.00251476 -0.460093 0.0940655 32 212 224
0.322668 -0.486703 0.129607 32 212 224
0.25675 -0.486752 0.190623 32 212 224
-0.138361 -0.46224 0.371043 32 212 224
0.125562 -0.450291 0.101179 32 212 224
-0.0930723 -0.469905 0.0900248 32 212 224
0.24295 -0.487076 0.252828 32 212 224
-0.0294895 -0.484941 0.344485 32 212 224
0.326085 -0.293003 0.105791 32 212 224
-0.13046 -0.428359 0.404602 32 212 224
0.0864491 -0.486724 0.221283 32 212 224
0.249898 -0.486956 0.242541 32 212 224
0.191713 -0.242008 0.105518 32 212 224
0.340401 -0.486862 0.136808 32 212 224
-0.0909384 -0.252909 0.114288 32 212 224
0.378264 -0.486247 0.0706156 32 212 224
-0.0843413 -0.468873 0.404666 32 212 224
0.0172193 -0.341877 0.0954124 32 212 224
0.0291683 -0.486705 0.235318 32 212 224
0.295748 -0.450023 0.071763 32 212 224
0.337228 -0.47068 0.0628122 32 212 224
0.298654 -0.273888 0.107689 32 212 224
0.146257 -0.486186 0.106325 32 212 224
0.221764 -0.487191 0.266176 32 212 224
0.0892956 -0.358425 0.101802 32 212 224
0.394474 -0.416281 0.0663312 32 212 224
0.242977 -0.486888 0.238453 32 212 224
0.237473 -0.427658 0.0787542 32 212 224
0.345195 -0.486421 0.0704888 32 212 224
0.135582 -0.487037 0.313812 32 212 224
0.00616163 -0.485963 0.34125 32 212 224
0.365392 -0.371683 0.0801356 32 212 224
-0.0585039 -0.471123 0.406635 32 212 224
0.293004 -0.372597 0.0867179 32 212 224
-0.0789458 -0.477648 0.0884266 32 212 224
0.355706 -0.433181 0.0724442 32 212 224
-0.149735 -0.290366 0.366751 32 212 224
0.180976 -0.256941 0.10432 32 212 224
-0.147218 -0.241573 0.315281 32 212 224
-0.0107203 -0.486631 0.259746 32 212 224
0.241222 -0.332629 0.0914143 32 212 224
0.390676 -0.467486 0.0639411 32 212 224
0.171828 -0.46495 0.0885517 32 212 224
0.0139477 -0.486602 0.258198 32 212 224
0.337537 -0.486919 0.14613 32 212 224
-0.0929515 -0.486604 0.151215 32 212 224
-0.13393 -0.482085 0.252384 32 212 224
-0.0341494 -0.431809 0.0857405 32 212 224
0.244943 -0.297836 0.099815 32 212 224
-0.0178866 -0.233395 0.0987038 32 212 224
0.0328532 -0.486429 0.155896 32 212 224
0.348902 -0.484047 0.155074 32 212 224
-0.0623048 -0.431608 0.0737909 32 212 224
-0.137551 -0.362165 0.217058 32 212 224
0.155042 -0.429408 0.0987034 32 212 224
-0.0809213 -0.48659 0.182613 32 212 224
0.149378 -0.313753 0.0928011 32 212 224
-0.0571084 -0.472556 0.395724 32 212 224
0.133001 -0.314522 0.093534 32 212 224
0.226876 -0.462927 0.0758045 32 212 224
0.26779 -0.486283 0.0769463 32 212 224
-0.00492405 -0.48676 0.1876 32 212 224
0.402722 -0.470996 0.0512015 32 212 224
-0.136074 -0.339664 0.16891 32 212 224
0.273581 -0.396804 0.0801745 32 212 224
-0.142587 -0.306871 0.288123 32 212 224
0.005426 -0.486308 0.119549 32 212 224
0.20534 -0.395586 0.0873552 32 212 224
-0.100049 -0.480445 0.100784 32 212 224
0.0109208 -0.331941 0.0928757 32 212 224
-0.140721 -0.380413 0.352605 32 212 224
0.0172075 -0.486086 0.321707 32 212 224
-0.147971 -0.322307 0.325745 32 212 224
0.281613 -0.35805 0.0895957 32 212 224
-0.121822 -0.485705 0.15021 32 212 224
-0.132296 -0.42531 0.143283 32 212 224
-0.131462 -0.395849 0.121547 32 212 224
0.238001 -0.486245 0.079552 32 212 224
-0.1156 -0.468269 0.383063 32 212 224
0.0341128 -0.486294 0.306524 32 212 224
-0.14327 -0.288296 0.280194 32 212 224
0.0188773 -0.486469 0.280129 32 212 224
0.0838148 -0.486593 0.279027 32 212 224
0.315226 -0.270015 0.109216 32 212 224
0.327326 -0.288159 0.106765 32 212 224
-0.0262093 -0.304194 0.0846028 32 212 224
-0.143019 -0.263966 0.224948 32 212 224
0.278376 -0.48705 0.22916 32 212 224
0.106783 -0.486698 0.18671 32 212 224
0.183006 -0.486536 0.227233 32 212 224
0.319013 -0.487015 0.187679 32 212 224
0.051946 -0.486571 0.271168 32 212 224
0.0211322 -0.486729 0.187951 32 212 224
0.0961107 -0.486704 0.216758 32 212 224
-0.118117 -0.323824 0.0899518 32 212 224
0.22762 -0.456764 0.0764806 32 212 224
-0.135954 -0.301407 0.304256 32 212 224
-0.141994 -0.294081 0.389655 32 212 224
0.18498 -0.487223 0.294411 32 212 224
-0.0713392 -0.468486 0.414204 32 212 224
0.186637 -0.486542 0.136814 32 212 224
-0.132649 -0.309721 0.131563 32 212 224
0.297978 -0.46051 0.0689068 32 212 224
-0.137158 -0.402193 0.271649 32 212 224
0.104195 -0.486651 0.17447 32 212 224
0.0187765 -0.486526 0.15831 32 212 224
0.0942496 -0.486643 0.260776 32 212 224
-0.139493 -0.44051 0.324533 32 212 224
0.274591 -0.486643 0.144242 32 212 224
0.399181 -0.415852 0.0649455 32 212 224
-0.108906 -0.330619 0.0822581 32 212 224
-0.132918 -0.443364 0.191209 32 212 224
0.17118 -0.48722 0.296466 32 212 224
-0.0147939 -0.480449 0.391913 32 212 224
0.306545 -0.487008 0.19787 32 212 224
-0.044995 -0.486215 0.327821 32 212 224
0.261043 -0.37933 0.0832954 32 212 224
0.409155 -0.443488 0.0573816 32 212 224
0.14941 -0.437735 0.0988605 32 212 224
0.0546 -0.486603 0.266265 32 212 224
-0.041985 -0.486205 0.104728 32 212 224
0.279335 -0.486849 0.198783 32 212 224
-0.0186935 -0.48002 0.390122 32 212 224
0.264678 -0.486378 0.0936823 32 212 224
-0.135772 -0.284101 0.156918 32 212 224
0.350164 -0.486908 0.139622 32 212 224
0.176047 -0.487222 0.30045 32 212 224
-0.147427 -0.347077 0.374014 32 212 224
0.315721 -0.48678 0.140046 32 212 224
-0.151217 -0.43447 0.348707 64 236 211
0.217394 -0.487068 0.183309 64 236 211
-0.166571 -0.47874 0.227968 64 236 211
0.276639 -0.486919 0.155374 64 236 211
0.0955967 -0.487206 0.102526 64 236 211
-0.153411 -0.232694 0.135482 64 236 211
-0.144787 -0.346362 0.396095 64 236 211
0.149983 -0.486605 0.0870479 64 236 211
-0.159739 -0.421485 0.109075 64 236 211
-0.136537 -0.487215 0.188358 64 236 211
-0.151913 -0.267432 0.148975 64 236 211
-0.0206254 -0.482884 0.063352 64 236 211
-0.059322 -0.487316 0.171282 64 236 211
-0.121504 -0.486874 0.318289 64 236 211
-0.148774 -0.366958 0.332828 64 236 211
-0.0534412 -0.486752 0.0608514 64 236 211
-0.141009 -0.319342 0.417576 64 236 211
-0.132529 -0.487359 0.0905607 64 236 211
-0.155617 -0.3579 0.138587 64 236 211
0.250821 -0.474347 0.0369518 64 236 211
-0.144557 -0.412896 0.401572 64 236 211
-0.0881544 -0.381339 0.101466 64 236 211
-0.142809 -0.412843 0.412381 64 236 211
0.048145 -0.487047 0.264123 64 236 211
-0.112671 -0.260578 0.110637 64 236 211
-0.091194 -0.486529 0.0599737 64 236 211
0.116941 -0.486988 0.264444 64 236 211
0.0625812 -0.486458 0.319139 64 236 211
0.0860856 -0.422328 0.0977751 64 236 211
-0.0254552 -0.487393 0.127813 64 236 211
-0.141793 -0.416456 0.41404 64 236 211
-0.161549 -0.459013 0.281554 64 236 211
0.0413218 -0.428549 0.0962278 64 236 211
-0.148681 -0.320511 0.310972 64 236 211
-0.151509 -0.302442 0.243963 64 236 211
-0.0409975 -0.485848 0.0592036 64 236 211
-0.156958 -0.284484 0.118912 64 236 211
-0.0529246 -0.487385 0.143907 64 236 211
-0.149548 -0.343584 0.302342 64 236 211
0.0441049 -0.487241 0.185753 64 236 211
-0.0451194 -0.485846 0.0595184 64 236 211
-0.158879 -0.414017 0.118181 64 236 211
0.0210406 -0.320919 0.109858 64 236 211
-0.157442 -0.347954 0.119302 64 236 211
0.162155 -0.487204 0.149233 64 236 211
-0.160692 -0.471702 0.110322 64 236 211
0.212835 -0.46298 0.0553248 64 236 211
0.286864 -0.486074 0.06741 64 236 211
0.0324702 -0.487267 0.182381 64 236 211
-0.156989 -0.426874 0.286676 64 236 211
-0.149693 -0.26907 0.29864 64 236 211
-0.156783 -0.429066 0.25183 64 236 211
-0.150294 -0.376202 0.211992 64 236 211
0.0562946 -0.487306 0.149914 64 236 211
-0.126213 -0.487363 0.077243 64 236 211
-0.157466 -0.457446 0.341331 64 236 211
0.00894655 -0.484349 0.0575684 64 236 211
-0.157314 -0.291323 0.124252 64 236 211
0.33609 -0.479599 0.0281151 64 236 211
-0.142125 -0.329917 0.415278 64 236 211
-0.016735 -0.487353 0.0837928 64 236 211
-0.0607686 -0.487229 0.0702923 64 236 211
0.0528457 -0.487221 0.188178 64 236 211
-0.121666 -0.487347 0.123837 64 236 211
0.0306384 -0.41692 0.0989121 64 236 211
0.0765183 -0.417312 0.100311 64 236 211
-0.144664 -0.343325 0.392381 64 236 211
-0.0433717 -0.487267 0.187023 64 236 211
-0.144964 -0.404961 0.397236 64 236 211
-0.153807 -0.487024 0.263327 64 236 211
-0.0612341 -0.487366 0.154154 64 236 211
-0.153126 -0.341541 0.153528 64 236 211
0.0165576 -0.485902 0.0550982 64 236 211
0.247201 -0.48699 0.187768 64 236 211
-0.150893 -0.454259 0.395243 64 236 211
0.00633886 -0.487008 0.311664 64 236 211
-0.041907 -0.443387 0.0838682 64 236 211
-0.151733 -0.275114 0.219467 64 236 211
-0.157622 -0.439246 0.2177 64 236 211
0.0483669 -0.487128 0.236991 64 236 211
0.0171865 -0.471426 0.0717106 64 236 211
-0.0525927 -0.487231 0.197965 64 236 211
-0.15099 -0.348421 0.265092 64 236 211
-0.16115 -0.455509 0.237939 64 236 211
-0.150026 -0.305638 0.189022 64 236 211
0.116954 -0.487226 0.144477 64 236 211
-0.00205579 -0.487353 0.156741 64 236 211
-0.16263 -0.479389 0.0822608 64 236 211
-0.0457957 -0.487095 0.255466 64 236 211
-0.125389 -0.487326 0.152901 64 236 211
0.278341 -0.486892 0.202064 64 236 211
0.0785855 -0.487271 0.136777 64 236 211
-0.066886 -0.487379 0.14708 64 236 211
-0.150663 -0.357045 0.244096 64 236 211
0.0858126 -0.487258 0.139275 64 236 211
-0.158333 -0.472889 0.351246 64 236 211
0.170783 -0.480431 0.0459352 64 236 211
-0.15206 -0.290621 0.270186 64 236 211
0.226962 -0.485434 0.0476761 64 236 211
-0.139288 -0.408198 0.106683 64 236 211
0.283144 -0.486885 0.147863 64 236 211
-0.147602 -0.383755 0.3635 64 236 211
0.0722079 -0.487199 0.189385 64 236 211
-0.0357722 -0.487269 0.077137 64 236 211
-0.151939 -0.270807 0.218363 64 236 211
-0.160598 -0.487252 0.173401 64 236 211
-0.152184 -0.478887 0.392054 64 236 211
-0.150504 -0.252058 0.164362 64 236 211
0.183102 -0.486903 0.274208 64 236 211
-0.150658 -0.289716 0.162771 64 236 211
-0.143732 -0.356297 0.416715 64 236 211
0.192797 -0.486459 0.0793222 64 236 211
-0.15404 -0.449806 0.350738 64 236 211
0.295784 -0.486824 0.188671 64 236 211
-0.150281 -0.262157 0.168977 64 236 211
-0.00663798 -0.487225 0.211585 64 236 211
0.147104 -0.485406 0.0521749 64 236 211
-0.040295 -0.487266 0.187681 64 236 211
-0.11841 -0.486566 0.390697 64 236 211
-0.153456 -0.461037 0.382026 64 236 211
-0.122918 -0.487374 0.0773473 64 236 211
-0.0850697 -0.265094 0.107019 64 236 211
-0.147155 -0.487332 0.0977598 64 236 211
-0.160371 -0.467999 0.111079 64 236 211
-0.0859292 -0.48718 0.216736 64 236 211
-0.0697881 -0.487401 0.080031 64 236 211
-0.150494 -0.345221 0.237972 64 236 211
0.15606 -0.478225 0.0486994 64 236 211
0.0757337 -0.487212 0.183467 64 236 211
0.038205 -0.313849 0.112405 64 236 211
-0.0559617 -0.265538 0.104303 64 236 211
0.0401741 -0.480676 0.0596396 64 236 211
-0.157647 -0.44129 0.206327 64 236 211
-0.0254585 -0.486963 0.323036 64 236 211
0.0455804 -0.476312 0.0656744 64 236 211
0.239955 -0.486837 0.0913241 64 236 211
0.180115 -0.487113 0.203087 64 236 211
0.149977 -0.486859 0.28705 64 236 211
-0.155311 -0.426051 0.22988 64 236 211
-0.152687 -0.450064 0.376839 64 236 211
0.0222156 -0.487347 0.119623 64 236 211
-0.161184 -0.475802 0.133829 64 236 211
0.235447 -0.486925 0.0970339 64 236 211
-0.0841714 -0.320279 0.10649 64 236 211
-0.14333 -0.486491 0.386903 64 236 211
-0.157806 -0.43447 0.252127 64 236 211
-0.0729695 -0.487341 0.162548 64 236 211
-0.0794561 -0.486748 0.366566 64 236 211
0.0582479 -0.486793 0.339448 64 236 211
-0.131938 -0.369253 0.109157 64 236 211
0.259229 -0.485902 0.0608814 64 236 211
-0.103844 -0.487389 0.0765594 64 236 211
-0.0577693 -0.487399 0.122778 64 236 211
0.0923654 -0.480464 0.0541048 64 236 211
-0.157286 -0.316815 0.125534 64 236 211
-0.150923 -0.487005 0.272777 64 236 211
0.0361582 -0.487004 0.290887 64 236 211
-0.146946 -0.421409 0.37876 64 236 211
0.234839 -0.478982 0.0364788 64 236 211
0.0093396 -0.440265 0.0886559 64 236 211
-0.108412 -0.486787 0.336649 64 236 211
0.0161707 -0.48739 0.137124 64 236 211
0.0320694 -0.405219 0.101801 64 236 211
-0.158374 -0.370475 0.118907 64 236 211
-0.14175 -0.315896 0.400894 64 236 211
-0.157221 -0.380849 0.128951 64 236 211
-0.00968974 -0.486739 0.0686986 64 236 211
-0.147501 -0.334675 0.336108 64 236 211
-0.040123 -0.486185 0.0582073 64 236 211
-0.150892 -0.413144 0.334235 64 236 211
-0.162604 -0.461697 0.264633 64 236 211
-0.150092 -0.342734 0.290453 64 236 211
-0.155203 -0.389398 0.142772 64 236 211
-0.153134 -0.413413 0.269379 64 236 211
-0.072953 -0.487343 0.161993 64 236 211
-0.158407 -0.443931 0.289158 64 236 211
-0.156693 -0.417707 0.131369 64 236 211
0.0685835 -0.486311 0.0714011 64 236 211
0.255889 -0.486982 0.166166 64 236 211
0.200427 -0.485965 0.0664474 64 236 211
0.0921149 -0.460925 0.0732362 64 236 211
0.066734 -0.487248 0.170992 64 236 211
-0.150606 -0.358012 0.237275 64 236 211
-0.0040859 -0.393043 0.100923 64 236 211
-0.000714412 -0.486976 0.0773541 64 236 211
-0.15251 -0.41339 0.275223 64 236 211
0.0167089 -0.331558 0.108191 64 236 211
-0.0458548 -0.487301 0.175423 64 236 211
-0.16303 -0.475423 0.327246 64 236 211
-0.149318 -0.395188 0.330982 64 236 211
0.0233358 -0.438724 0.0901686 64 236 211
-0.150994 -0.35194 0.255146 64 236 211
-0.0884001 -0.486859 0.330647 64 236 211
-0.142921 -0.402788 0.414671 64 236 211
-0.143092 -0.412853 0.412363 64 236 211
-0.153943 -0.295698 0.144357 64 236 211
-0.160582 -0.44158 0.0963527 64 236 211
0.115135 -0.486909 0.0926987 64 236 211
0.0383924 -0.437815 0.0911779 64 236 211
-0.044127 -0.284676 0.104646 64 236 211
-0.0740264 -0.486791 0.354396 64 236 211
-0.142697 -0.487097 0.240536 64 236 211
-0.0503367 -0.486976 0.0653744 64 236 211
-0.149779 -0.343511 0.208989 64 236 211
0.119209 -0.470699 0.062782 64 236 211
0.271357 -0.486876 0.12064 64 236 211
-0.163706 -0.486328 0.151606 64 236 211
0.0355749 -0.479986 0.060952 64 236 211
-0.150818 -0.311549 0.226845 64 236 211
-0.150696 -0.357855 0.244474 64 236 211
-0.0383673 -0.48627 0.0587438 64 236 211
-0.0353239 -0.486831 0.065251 64 236 211
-0.144316 -0.412865 0.399152 64 236 211
0.149846 -0.473503 0.0562062 64 236 211
-0.000933332 -0.478074 0.0675796 64 236 211
0.0020342 -0.487337 0.0974989 64 236 211
-0.148985 -0.290638 0.306438 64 236 211
-0.151682 -0.33575 0.166003 64 236 211
-0.150907 -0.304931 0.22564 64 236 211
0.0127723 -0.440896 0.0885206 64 236 211
-0.157009 -0.337784 0.1204 64 236 211
0.105205 -0.482861 0.0521088 64 236 211
-0.137965 -0.455929 0.0836851 64 236 211
0.000993061 -0.33474 0.106508 64 236 211
0.0164414 -0.487228 0.21022 64 236 211
0.190145 -0.473025 0.0504385 64 236 211
0.188179 -0.487061 0.104497 64 236 211
-0.0796604 -0.283467 0.106459 64 236 211
-0.154154 -0.413334 0.286302 64 236 211
-0.159435 -0.444285 0.110716 64 236 211
-0.154467 -0.348221 0.145046 64 236 211
-0.0662259 -0.487397 0.078287 64 236 211
-0.142264 -0.32974 0.412736 64 236 211
-0.0721378 -0.487246 0.191809 64 236 211
-0.157322 -0.306598 0.12254 64 236 211
0.0275191 -0.487012 0.294128 64 236 211
-0.151498 -0.237138 0.174473 64 236 211
-0.154393 -0.431867 0.314841 64 236 211
-0.146936 -0.378751 0.375538 64 236 211
0.166149 -0.487175 0.177898 64 236 211
0.132384 -0.487207 0.160536 64 236 211
-0.0326768 -0.486938 0.328555 64 236 211
-0.0261044 -0.486262 0.361786 64 236 211
0.12898 -0.466683 0.0647143 64 236 211
-0.158704 -0.456481 0.173211 64 236 211
-0.162413 -0.476982 0.332361 64 236 211
0.333841 -0.485854 0.0547068 64 236 211
-0.159279 -0.400131 0.112219 64 236 211
-0.158118 -0.451728 0.151305 64 236 211
-0.14644 -0.402938 0.383423 64 236 211
-0.044063 -0.486914 0.332237 64 236 211
0.00649856 -0.486961 0.325345 64 236 211
-0.1389 -0.281042 0.11484 64 236 211
-0.14849 -0.465088 0.0794686 64 236 211
-0.149787 -0.330251 0.207834 64 236 211
-0.151227 -0.325065 0.258922 64 236 211
0.208363 -0.48647 0.077599 64 236 211
-0.0101925 -0.486957 0.0749554 64 236 211
-0.116768 -0.48697 0.297848 64 236 211
-0.15481 -0.281444 0.137108 64 236 211
-0.12737 -0.45821 0.0805072 64 236 211
0.210353 -0.47805 0.0410651 64 236 211
-0.153966 -0.235043 0.125757 64 236 211
-0.168774 -0.483198 0.292495 64 236 211
0.226376 -0.486991 0.111082 64 236 211
-0.158276 -0.452585 0.160205 64 236 211
0.0919692 -0.487071 0.248764 64 236 211
0.180333 -0.465191 0.0587194 64 236 211
-0.153356 -0.255401 0.254842 64 236 211
0.187071 -0.487036 0.248071 64 236 211
-0.154433 -0.347707 0.145247 64 236 211
-0.0203615 -0.487397 0.113721 64 236 211
-0.161256 -0.477268 0.109902 64 236 211
-0.152078 -0.273644 0.271455 64 236 211
-0.150284 -0.401683 0.222124 64 236 211
-0.146628 -0.413737 0.107186 64 236 211
-0.157684 -0.370013 0.124975 64 236 211
-0.153472 -0.28389 0.145489 64 236 211
0.0123752 -0.48695 0.0794408 64 236 211
0.226074 -0.487007 0.249036 64 236 211
0.15418 -0.487183 0.122685 64 236 211
-0.160069 -0.487007 0.268071 64 236 211
0.17057 -0.486846 0.2883 64 236 211
-0.15897 -0.414024 0.117587 64 236 211
0.246587 -0.487014 0.239481 64 236 211
0.0932834 -0.485412 0.0523901 64 236 211
-0.154629 -0.31073 0.117108 64 236 211
-0.145311 -0.309412 0.356971 64 236 211
-0.156428 -0.436918 0.188193 64 236 211
-0.157296 -0.300921 0.127806 64 236 211
-0.152663 -0.275215 0.254286 64 236 211
-0.0349468 -0.48696 0.321783 64 236 211
0.0540266 -0.449662 0.084697 64 236 211
0.0751128 -0.384464 0.107751 64 236 211
-0.143094 -0.312585 0.383035 64 236 211
-0.0362024 -0.486234 0.374422 64 236 211
-0.046695 -0.487195 0.215211 64 236 211
-0.151052 -0.404236 0.287914 64 236 211
-0.143022 -0.329707 0.114985 64 236 211
-0.157013 -0.360417 0.129717 64 236 211
0.0939215 -0.487155 0.213779 64 236 211
0.0898671 -0.486107 0.0685193 64 236 211
0.0844369 -0.478532 0.0569691 64 236 211
0.360925 -0.485939 0.0593551 64 236 211
-0.101201 -0.272998 0.108657 64 236 211
-0.0439209 -0.233077 0.1046 64 236 211
-0.131917 -0.487322 0.148144 64 236 211
-0.0904142 -0.486269 0.059844 64 236 211
0.176001 -0.480316 0.0452018 64 236 211
-0.153531 -0.28017 0.144197 64 236 211
-0.150506 -0.269796 0.16099 64 236 211
-0.152582 -0.43807 0.338147 64 236 211
-0.151892 -0.413575 0.231184 64 236 211
-0.050126 -0.24193 0.104107 64 236 211
-0.16047 -0.463862 0.197529 64 236 211
0.0303624 -0.367688 0.106063 64 236 211
-0.148553 -0.445729 0.401942 64 236 211
-0.159468 -0.414062 0.111891 64 236 211
0.20138 -0.487013 0.251743 64 236 211
-0.108564 -0.422955 0.0970036 64 236 211
-0.150269 -0.359885 0.293655 64 236 211
-0.0944712 -0.469201 0.0703671 64 236 211
-0.15023 -0.28325 0.173451 64 236 211
-0.149996 -0.354422 0.209893 64 236 211
-0.0641677 -0.386521 0.0978644 64 236 211
-0.157269 -0.295236 0.121319 64 236 211
-0.150898 -0.345147 0.178414 64 236 211
-0.148442 -0.411629 0.357828 64 236 211
0.182359 -0.486805 0.0918094 64 236 211
-0.122568 -0.440494 0.0893947 64 236 211
-0.00542293 -0.487169 0.239677 64 236 211
0.0838325 -0.350242 0.11291 64 236 211
-0.106314 -0.487241 0.191119 64 236 211
-0.154305 -0.46766 0.374207 64 236 211
0.0291466 -0.425828 0.0965542 64 236 211
-0.143878 -0.395829 0.408851 64 236 211
-0.15102 -0.347917 0.254912 64 236 211
0.0207955 -0.445745 0.0865259 64 236 211
0.250976 -0.484675 0.0384388 64 236 211
-0.0117777 -0.420468 0.095842 64 236 211
-0.145677 -0.254913 0.117338 64 236 211
-0.0181308 -0.487207 0.219297 64 236 211
0.0350494 -0.427123 0.0964599 64 236 211
-0.153849 -0.238722 0.131138 64 236 211
-0.152054 -0.295994 0.11688 64 236 211
0.0955542 -0.48122 0.0532298 64 236 211
-0.148606 -0.363924 0.335181 64 236 211
-0.15045 -0.401881 0.217278 64 236 211
-0.0655399 -0.486964 0.062399 64 236 211
-0.137814 -0.487167 0.209921 64 236 211
0.132756 -0.486738 0.0895356 64 236 211
0.111107 -0.487232 0.130327 64 236 211
-0.100699 -0.486997 0.289128 64 236 211
0.199571 -0.480911 0.0420465 64 236 211
-0.150782 -0.245159 0.16843 64 236 211
0.109798 -0.480924 0.0519121 64 236 211
-0.158666 -0.439668 0.279941 64 236 211
-0.154172 -0.380751 0.155023 64 236 211
0.263241 -0.486879 0.107151 64 236 211
0.0567365 -0.48717 0.212903 64 236 211
-0.146142 -0.391337 0.387665 64 236 211
-0.0947798 -0.486681 0.373199 64 236 211
-0.0549224 -0.4871 0.251986 64 236 211
0.124669 -0.487209 0.125895 64 236 211
0.131905 -0.487152 0.10133 64 236 211
-0.150173 -0.340113 0.28896 64 236 211
-0.117605 -0.486574 0.0619976 64 236 211
0.0398966 -0.48244 0.0573742 64 236 211
-0.155894 -0.382369 0.138466 64 236 211
0.101157 -0.428713 0.0921063 64 236 211
0.00661416 -0.48736 0.153971 64 236 211
-0.153286 -0.458909 0.382912 64 236 211
-0.0591573 -0.487394 0.127686 64 236 211
-0.142664 -0.32739 0.399983 64 236 211
-0.151217 -0.411182 0.264347 64 236 211
-0.154929 -0.417662 0.158927 64 236 211
-0.0631458 -0.300604 0.104587 64 236 211
0.0463148 -0.487316 0.128607 64 236 211
-0.151407 -0.276482 0.155281 64 236 211
0.0538128 -0.487313 0.141218 64 236 211
-0.0310754 -0.486876 0.349466 64 236 211
-0.150717 -0.397987 0.296077 64 236 211
-0.0364333 -0.487382 0.148494 64 236 211
0.0223759 -0.487296 0.103043 64 236 211
0.096866 -0.485886 0.06389 64 236 211
-0.157855 -0.432837 0.270284 64 236 211
-0.146736 -0.255166 0.338456 64 236 211
0.259419 -0.48693 0.133118 64 236 211
-0.152321 -0.283098 0.253758 64 236 211
0.0921224 -0.486833 0.32763 64 236 211
0.00745868 -0.487312 0.0932977 64 236 211
-0.0156531 -0.487393 0.112182 64 236 211
-0.153852 -0.233133 0.131903 64 236 211
-0.153419 -0.363488 0.161397 64 236 211
-0.160894 -0.47372 0.141579 64 236 211
-0.141171 -0.487273 0.170218 64 236 211
-0.0943563 -0.487076 0.252394 64 236 211
-0.16007 -0.466576 0.154607 64 236 211
0.0121229 -0.487246 0.20132 64 236 211
0.132966 -0.487206 0.161735 64 236 211
-0.0672432 -0.4874 0.10283 64 236 211
-0.159066 -0.459503 0.128544 64 236 211
0.347723 -0.485927 0.0579864 64 236 211
0.26621 -0.485491 0.0424997 64 236 211
0.233406 -0.486868 0.0927466 64 236 211
-0.155558 -0.315522 0.137295 64 236 211
-0.114547 -0.487036 0.264082 64 236 211
-0.0798726 -0.421605 0.0938148 64 236 211
-0.150275 -0.266494 0.175758 64 236 211
-0.127446 -0.486567 0.371327 64 236 211
-0.128939 -0.487195 0.199332 64 236 211
0.0572163 -0.487277 0.163493 64 236 211
0.0243701 -0.487063 0.268604 64 236 211
-0.0529448 -0.48709 0.0679815 64 236 211
-0.150832 -0.266967 0.190544 64 236 211
-0.152844 -0.345288 0.159181 64 236 211
0.0224707 -0.487318 0.169871 64 236 211
0.0896406 -0.486483 0.311408 64 236 211
0.0179033 -0.486116 0.0563539 64 236 211
-0.0239662 -0.320724 0.105474 64 236 211
0.0793171 -0.485865 0.0612103 64 236 211
-0.150921 -0.413472 0.230322 64 236 211
0.300371 -0.486788 0.114493 64 236 211
-0.150247 -0.352073 0.231333 64 236 211
-0.151063 -0.254043 0.18169 64 236 211
-0.101748 -0.487027 0.270417 64 236 211
-0.154909 -0.436762 0.312272 64 236 211
0.0448005 -0.25414 0.116286 64 236 211
-0.157337 -0.31001 0.126501 64 236 211
-0.150369 -0.404308 0.227713 64 236 211
-0.156058 -0.279492 0.131245 64 236 211
-0.153253 -0.278317 0.145197 64 236 211
-0.152629 -0.39881 0.180123 64 236 211
-0.0694543 -0.486777 0.373235 64 236 211
-0.144756 -0.487064 0.251694 64 236 211
-0.151116 -0.383121 0.262319 64 236 211
0.094882 -0.444857 0.0840124 64 236 211
-0.159472 -0.414071 0.111552 64 236 211
0.215122 -0.486578 0.0808976 64 236 211
-0.143213 -0.273928 0.372912 64 236 211
-0.156068 -0.341121 0.135167 64 236 211
-0.151275 -0.357945 0.187642 64 236 211
-0.101249 -0.487288 0.178476 64 236 211
-0.138067 -0.48721 0.189518 64 236 211
-0.0570628 -0.439767 0.0846378 64 236 211
0.016347 -0.487238 0.0888717 64 236 211
-0.154528 -0.422491 0.198084 64 236 211
-0.150433 -0.358638 0.197619 64 236 211
-0.150953 -0.255035 0.180421 64 236 211
0.212074 -0.48708 0.185016 64 236 211
-0.138879 -0.301934 0.114629 64 236 211
-0.155382 -0.38404 0.141571 64 236 211
-0.159507 -0.426107 0.110036 64 236 211
0.0988597 -0.434179 0.0895651 64 236 211
-0.15238 -0.285681 0.266486 64 236 211
-0.0645066 -0.486141 0.0590132 64 236 211
-0.149876 -0.331107 0.219179 64 236 211
-0.150692 -0.413197 0.322002 64 236 211
0.130722 -0.48683 0.318843 64 236 211
0.220533 -0.479224 0.0383661 64 236 211
-0.0104089 -0.487346 0.159059 64 236 211
-0.155 -0.443724 0.317507 64 236 211
-0.0802437 -0.270596 0.106473 64 236 211
0.220638 -0.485498 0.051092 64 236 211
0.00419255 -0.48686 0.36211 64 236 211
-0.150133 -0.37858 0.295206 64 236 211
-0.153023 -0.487312 0.133507 64 236 211
-0.15067 -0.245063 0.165132 64 236 211
-0.154135 -0.339188 0.146426 64 236 211
0.110139 -0.472958 0.061774 64 236 211
-0.157325 -0.34505 0.119366 64 236 211
-0.155205 -0.474232 0.074242 64 236 211
-0.151439 -0.413357 0.284241 64 236 211
0.0802362 -0.48705 0.254057 64 236 211
-0.0243177 -0.486838 0.374402 64 236 211
-0.0475879 -0.487154 0.0712407 64 236 211
0.0816273 -0.486481 0.311241 64 236 211
0.0609767 -0.486847 0.355349 64 236 211
-0.145918 -0.275108 0.345951 64 236 211
-0.156077 -0.266194 0.121682 64 236 211
-0.156862 -0.331121 0.119692 64 236 211
-0.1598 -0.464881 0.156424 64 236 211
0.216277 -0.487046 0.237185 64 236 211
-0.129653 -0.376116 0.108184 64 236 211
0.204284 -0.487074 0.226726 64 236 211
-0.152761 -0.413221 0.313159 64 236 211
-0.144694 -0.350023 0.401016 64 236 211
-0.15743 -0.430921 0.263062 64 236 211
-0.16155 -0.487305 0.160782 64 236 211
-0.150657 -0.356879 0.194566 64 236 211
-0.0895663 -0.487372 0.143122 64 236 211
0.00256821 -0.487256 0.194628 64 236 211
0.158315 -0.452708 0.0708124 64 236 211
-0.075145 -0.48678 0.0608746 64 236 211
0.02381 -0.486676 0.0743748 64 236 211
-0.149512 -0.347386 0.306922 64 236 211
0.233246 -0.480906 0.0366797 64 236 211
-0.151625 -0.413399 0.274218 64 236 211
-0.159877 -0.451404 0.107696 64 236 211
-0.162895 -0.471922 0.218625 64 236 211
0.0677882 -0.48724 0.11031 64 236 211
-0.163318 -0.48734 0.120472 64 236 211
-0.0328147 -0.48424 0.0620303 64 236 211
-0.155739 -0.41109 0.140727 64 236 211
0.236878 -0.482063 0.0367197 64 236 211
-0.148559 -0.439757 0.383978 64 236 211
-0.142507 -0.48733 0.112199 64 236 211
0.0307379 -0.486873 0.339417 64 236 211
-0.153176 -0.406141 0.175254 64 236 211
-0.166663 -0.475971 0.290118 64 236 211
-0.15725 -0.316936 0.126802 64 236 211
0.0722414 -0.457802 0.0774701 64 236 211
0.31752 -0.487376 -0.0800811 96 250 196
-0.17211 -0.478741 0.245288 96 250 196
0.191786 -0.487317 -0.0578595 96 250 196
0.00295896 -0.487047 0.423394 96 250 196
0.380707 -0.487314 0.0382099 96 250 196
-0.103686 -0.487178 0.115155 96 250 196
-0.149717 -0.487136 0.0828602 96 250 196
0.409541 -0.414119 0.0258836 96 250 196
-0.191006 -0.421054 0.278125 96 250 196
0.354477 -0.487337 -0.0891404 96 250 196
0.36278 -0.398774 0.00725626 96 250 196
0.0829801 -0.487301 0.0891613 96 250 196
-0.00936904 -0.487249 0.050458 96 250 196
0.211883 -0.487374 -0.00770259 96 250 196
-0.172079 -0.384367 0.32339 96 250 196
-0.172169 -0.462165 0.400714 96 250 196
-0.118551 -0.364923 0.0755312 96 250 196
-0.060221 -0.376616 0.0673076 96 250 196
-0.148803 -0.275672 0.225919 96 250 196
0.0347198 -0.487243 0.176644 96 250 196
-0.176074 -0.461522 0.228264 96 250 196
-0.1175 -0.487092 0.338484 96 250 196
-0.163188 -0.40472 0.434801 96 250 196
0.275474 -0.48738 -0.030485 96 250 196
-0.161331 -0.357034 0.10553 96 250 196
0.420863 -0.487293 -0.043215 96 250 196
-0.0622026 -0.360459 0.0717976 96 250 196
0.314652 -0.487387 -0.0501908 96 250 196
0.357081 -0.48733 -0.0714579 96 250 196
-0.143122 -0.37403 0.40963 96 250 196
-0.0607432 -0.487205 0.0891906 96 250 196
-0.139828 -0.487146 0.228844 96 250 196
-0.0965519 -0.487161 0.209257 96 250 196
-0.142247 -0.487145 0.0884079 96 250 196
-0.166152 -0.468027 0.141726 96 250 196
0.38273 -0.487315 0.00896877 96 250 196
0.358072 -0.487332 -0.097658 96 250 196
-0.125464 -0.487099 0.0304874 96 250 196
-0.173248 -0.478771 0.254658 96 250 196
0.20585 -0.487357 0.0608093 96 250 196
0.269478 -0.487386 -0.0530734 96 250 196
-0.0983325 -0.487126 0.030248 96 250 196
0.0825961 -0.487049 0.406178 96 250 196
0.0143885 -0.445697 0.0211037 96 250 196
-0.167896 -0.334481 0.321338 96 250 196
0.00410479 -0.380476 0.0629308 96 250 196
-0.137483 -0.487027 0.388277 96 250 196
0.321318 -0.445014 -0.0732503 96 250 196
0.279483 -0.393358 0.00710081 96 250 196
-0.138629 -0.465829 0.428462 96 250 196
0.247314 -0.487361 0.0397078 96 250 196
-0.151408 -0.487152 0.124451 96 250 196
-0.159796 -0.315833 0.283087 96 250 196
-0.0304439 -0.487179 0.0107883 96 250 196
0.0137846 -0.487038 0.425974 96 250 196
0.31982 -0.396045 0.00191719 96 250 196
0.335535 -0.487326 0.0533738 96 250 196
0.224334 -0.487379 -0.0464875 96 250 196
0.106391 -0.33891 0.0720043 96 250 196
0.236157 -0.487366 -0.0628879 96 250 196
0.393979 -0.487324 0.0128748 96 250 196
0.374678 -0.487325 -0.0952917 96 250 196
-0.148517 -0.283844 0.216239 96 250 196
-0.0883481 -0.487047 0.389756 96 250 196
0.279507 -0.487249 0.24842 96 250 196
-0.0272311 -0.48718 0.00948055 96 250 196
-0.167153 -0.487069 0.0298946 96 250 196
-0.167495 -0.433788 0.430303 96 250 196
-0.14792 -0.383835 0.427514 96 250 196
-0.148629 -0.265911 0.234293 96 250 196
0.309707 -0.45643 -0.08629 96 250 196
0.190447 -0.487367 -0.0198136 96 250 196
0.397221 -0.438272 -0.0259786 96 250 196
0.346451 -0.474248 -0.0997459 96 250 196
-0.170421 -0.40214 0.0676361 96 250 196
-0.148667 -0.481669 0.398575 96 250 196
0.377918 -0.487309 0.000223564 96 250 196
-0.169903 -0.371568 0.408421 96 250 196
-0.176107 -0.436014 0.251546 96 250 196
-0.139959 -0.487149 0.0922155 96 250 196
0.372979 -0.436535 -0.0430228 96 250 196
0.215127 -0.487319 0.212682 96 250 196
0.303125 -0.487356 -0.101503 96 250 196
0.400612 -0.419613 0.00255875 96 250 196
0.025216 -0.463126 0.00282016 96 250 196
0.0772821 -0.487302 0.0333154 96 250 196
-0.165993 -0.487112 0.281001 96 250 196
0.0865271 -0.436914 0.012422 96 250 196
0.254465 -0.487338 0.195234 96 250 196
0.265541 -0.337601 0.0617878 96 250 196
0.0432948 -0.487241 -0.00641846 96 250 196
0.303311 -0.487379 -0.0717101 96 250 196
-0.124458 -0.487137 0.255089 96 250 196
0.290637 -0.487239 0.236158 96 250 196
-0.0149535 -0.405964 0.0579047 96 250 196
-0.178996 -0.418838 0.397059 96 250 196
-0.107728 -0.400097 0.0665846 96 250 196
-0.116129 -0.487107 0.031552 96 250 196
-0.138275 -0.487158 0.179532 96 250 196
-0.172458 -0.455664 0.196181 96 250 196
0.368172 -0.487301 -0.0033425 96 250 196
0.340353 -0.487357 -0.100875 96 250 196
0.251714 -0.487353 0.126883 96 250 196
0.239977 -0.429229 -0.0275173 96 250 196
-0.159411 -0.405878 0.161192 96 250 196
-0.169042 -0.391104 0.0678229 96 250 196
0.176113 -0.487266 0.266752 96 250 196
-0.136834 -0.487115 0.297446 96 250 196
0.0566447 -0.487033 0.419953 96 250 196
0.280948 -0.487358 -0.0943166 96 250 196
-0.175983 -0.438877 0.384102 96 250 196
-0.128849 -0.48706 0.362409 96 250 196
0.366089 -0.487299 0.0217716 96 250 196
-0.0642108 -0.487119 0.325033 96 250 196
-0.112808 -0.487154 0.0577343 96 250 196
0.131995 -0.360914 0.0599088 96 250 196
-0.0853485 -0.487149 0.254792 96 250 196
0.150534 -0.487322 -0.0299287 96 250 196
-0.153476 -0.285833 0.180931 96 250 196
0.149643 -0.487268 0.222745 96 250 196
0.0394689 -0.487112 0.363867 96 250 196
-0.175727 -0.434839 0.249392 96 250 196
-0.152878 -0.353941 0.163667 96 250 196
-0.0308102 -0.403953 0.0591582 96 250 196
0.208789 -0.487164 0.358781 96 250 196
-0.169339 -0.373297 0.420997 96 250 196
-0.100799 -0.487113 0.327696 96 250 196
-0.162946 -0.449963 0.11858 96 250 196
0.114312 -0.320092 0.0756224 96 250 196
0.0224379 -0.355315 0.0707638 96 250 196
0.382274 -0.487292 -0.0790741 96 250 196
-0.0838844 -0.48715 0.252277 96 250 196
0.419954 -0.487314 -0.0195185 96 250 196
-0.174245 -0.485006 0.307745 96 250 196
-0.163271 -0.445565 0.0531355 96 250 196
-0.118425 -0.398596 0.430048 96 250 196
0.112017 -0.487316 0.00571449 96 250 196
-0.162838 -0.38132 0.434549 96 250 196
-0.157586 -0.310361 0.146828 96 250 196
0.0776698 -0.487302 0.0334963 96 250 196
0.160233 -0.487131 0.394564 96 250 196
0.305853 -0.35538 0.0484917 96 250 196
-0.167368 -0.324967 0.330231 96 250 196
0.296133 -0.487381 -0.0656546 96 250 196
-0.165551 -0.327119 0.309773 96 250 196
-0.157259 -0.367782 0.0761506 96 250 196
-0.0307308 -0.487172 0.00744241 96 250 196
-0.139968 -0.397333 0.0694527 96 250 196
-0.0949345 -0.487015 0.404373 96 250 196
0.155171 -0.487152 0.386725 96 250 196
-0.162821 -0.338456 0.282956 96 250 196
-0.159493 -0.320055 0.12291 96 250 196
-0.124425 -0.487166 0.10729 96 250 196
0.205782 -0.487362 0.032548 96 250 196
-0.0132515 -0.48723 0.121874 96 250 196
-0.153436 -0.332863 0.156218 96 250 196
-0.0386203 -0.336445 0.0760282 96 250 196
0.024852 -0.48723 0.195779 96 250 196
0.0477141 -0.487287 0.0570453 96 250 196
0.246592 -0.48735 0.117978 96 250 196
-0.135927 -0.487127 0.271693 96 250 196
-0.00500827 -0.487163 0.290862 96 250 196
0.127384 -0.487328 0.0391957 96 250 196
-0.108189 -0.487105 0.0286501 96 250 196
0.058685 -0.487233 0.23371 96 250 196
-0.177392 -0.469835 0.26345 96 250 196
-0.107864 -0.48076 0.0249471 96 250 196
-0.139957 -0.473937 0.416016 96 250 196
-0.160438 -0.337201 0.267677 96 250 196
-0.17826 -0.461512 0.319907 96 250 196
-0.16451 -0.474099 0.062294 96 250 196
0.0518272 -0.487256 0.171005 96 250 196
-0.0130123 -0.487248 0.0532877 96 250 196
-0.170287 -0.391964 0.424254 96 250 196
0.391314 -0.48733 0.0580731 96 250 196
0.0225881 -0.340993 0.0744942 96 250 196
-0.11077 -0.487173 0.16827 96 250 196
-0.15838 -0.402983 0.153029 96 250 196
-0.122445 -0.466877 0.427851 96 250 196
-0.0744144 -0.487152 0.244681 96 250 196
-0.107175 -0.487173 0.0890714 96 250 196
-0.00238419 -0.487164 0.292164 96 250 196
0.144146 -0.487223 0.29017 96 250 196
0.230603 -0.338202 0.0613669 96 250 196
0.267731 -0.487368 0.0660458 96 250 196
0.326783 -0.48736 -0.0149003 96 250 196
-0.169803 -0.472871 0.200368 96 250 196
-0.0666273 -0.487117 0.327733 96 250 196
-0.156857 -0.388449 0.157295 96 250 196
-0.102182 -0.470839 0.428132 96 250 196
-0.0942077 -0.487134 0.295432 96 250 196
-0.164402 -0.475585 0.0658853 96 250 196
0.0727351 -0.437582 0.015237 96 250 196
0.205721 -0.418413 -0.00334669 96 250 196
0.30362 -0.487204 0.243577 96 250 196
0.0443311 -0.487196 0.276528 96 250 196
0.102572 -0.487179 0.317278 96 250 196
-0.100778 -0.487057 0.373674 96 250 196
0.192796 -0.487294 0.212534 96 250 196
-0.00250493 -0.487136 0.3359 96 250 196
-0.154728 -0.338987 0.14814 96 250 196
-0.0630927 -0.487145 0.273944 96 250 196
-0.0733239 -0.487193 0.0807031 96 250 196
-0.170591 -0.429428 0.0546318 96 250 196
-0.107324 -0.487177 0.145033 96 250 196
0.0438486 -0.487285 0.0571491 96 250 196
0.354268 -0.429782 -0.0408669 96 250 196
0.266845 -0.487387 -0.0367958 96 250 196
-0.176715 -0.42746 0.374597 96 250 196
-0.0290813 -0.487066 0.396575 96 250 196
-0.148009 -0.462851 0.0348099 96 250 196
0.11638 -0.487322 0.0476487 96 250 196
-0.00805529 -0.363928 0.0679402 96 250 196
0.0293918 -0.487145 0.333468 96 250 196
0.147989 -0.444495 -0.0124366 96 250 196
-0.133644 -0.487071 0.345761 96 250 196
-0.0318468 -0.314511 0.0802225 96 250 196
0.100742 -0.487053 0.40573 96 250 196
0.0303509 -0.487273 0.0781252 96 250 196
0.0827639 -0.487212 0.270274 96 250 196
-0.165715 -0.456365 0.426333 96 250 196
0.0384309 -0.487224 -0.0139871 96 250 196
0.0856195 -0.487301 0.0202669 96 250 196
-0.151412 -0.342725 0.161593 96 250 196
-0.0527177 -0.487123 0.325179 96 250 196
0.395327 -0.487292 -0.0449201 96 250 196
0.242019 -0.487384 -0.0537797 96 250 196
-0.116332 -0.482517 0.404853 96 250 196
-0.122418 -0.48716 0.0808275 96 250 196
0.159073 -0.487223 0.340041 96 250 196
0.0637165 -0.487244 -0.017725 96 250 196
-0.157964 -0.306462 0.142912 96 250 196
0.343702 -0.487353 -0.0971139 96 250 196
-0.151478 -0.341655 0.164146 96 250 196
-0.160067 -0.407758 0.432535 96 250 196
0.386694 -0.487305 -0.0217839 96 250 196
-0.153006 -0.28664 0.219244 96 250 196
-0.0102995 -0.487207 0.191232 96 250 196
-0.144771 -0.386564 0.407593 96 250 196
-0.174569 -0.448261 0.0468654 96 250 196
0.184455 -0.420433 0.0008323 96 250 196
0.389113 -0.44838 -0.0495038 96 250 196
-0.173294 -0.45594 0.0464714 96 250 196
0.422802 -0.460315 -0.0135464 96 250 196
-0.0621408 -0.487202 0.0713006 96 250 196
0.201163 -0.487314 0.183588 96 250 196
-0.192922 -0.431913 0.252797 96 250 196
-0.103032 -0.487128 0.303295 96 250 196
0.348351 -0.487309 0.0245886 96 250 196
0.220734 -0.357771 0.0420623 96 250 196
0.134373 -0.450497 -0.014464 96 250 196
-0.163558 -0.364599 0.261446 96 250 196
0.216273 -0.487324 0.199819 96 250 196
0.282321 -0.487366 -0.0807916 96 250 196
-0.0337129 -0.487215 0.120972 96 250 196
0.075816 -0.487181 0.301929 96 250 196
-0.133605 -0.48714 0.242294 96 250 196
-0.171701 -0.478988 0.04173 96 250 196
-0.103913 -0.487122 0.313363 96 250 196
0.254664 -0.398952 0.00550451 96 250 196
0.255102 -0.409072 -0.00897409 96 250 196
0.166463 -0.487253 0.279107 96 250 196
-0.158573 -0.484793 0.143837 96 250 196
-0.153096 -0.365863 0.141321 96 250 196
0.322723 -0.487284 0.14106 96 250 196
-0.111911 -0.487173 0.16766 96 250 196
-0.0836359 -0.487068 0.376713 96 250 196
0.373543 -0.487312 -0.0954996 96 250 196
0.38887 -0.487292 -0.0803419 96 250 196
-0.0336695 -0.48712 0.341771 96 250 196
-0.172688 -0.452026 0.200418 96 250 196
0.0028594 -0.487251 0.0334089 96 250 196
-0.108526 -0.487175 0.122161 96 250 196
0.13553 -0.355209 0.0650632 96 250 196
-0.188287 -0.440201 0.329471 96 250 196
-0.172299 -0.381617 0.396371 96 250 196
0.236128 -0.487349 -0.0767403 96 250 196
-0.0909482 -0.487169 0.0539285 96 250 196
0.392448 -0.487315 -0.00689443 96 250 196
-0.132413 -0.487088 0.330505 96 250 196
0.239032 -0.387866 0.0154334 96 250 196
0.335396 -0.339497 0.0761254 96 250 196
-0.0341242 -0.487231 0.0712879 96 250 196
0.238937 -0.451513 -0.0564144 96 250 196
0.0188326 -0.487257 0.104495 96 250 196
-0.130133 -0.487156 0.0853379 96 250 196
0.173822 -0.487322 0.133652 96 250 196
-0.166413 -0.346638 0.407029 96 250 196
0.0873419 -0.487104 0.372467 96 250 196
0.10886 -0.353483 0.0682965 96 250 196
0.377482 -0.48729 -0.0549688 96 250 196
0.194599 -0.365058 0.0408861 96 250 196
-0.0664205 -0.487133 0.297771 96 250 196
-0.106341 -0.48704 0.383182 96 250 196
-0.16703 -0.360264 0.290717 96 250 196
-0.0642154 -0.480003 0.012213 96 250 196
-0.177107 -0.442628 0.322677 96 250 196
-0.163794 -0.473483 0.0741557 96 250 196
0.370171 -0.487302 0.0865857 96 250 196
-0.0604418 -0.487128 0.309938 96 250 196
-0.145513 -0.487127 0.0567574 96 250 196
0.290132 -0.379949 0.0175723 96 250 196
0.28733 -0.487387 -0.042333 96 250 196
-0.123122 -0.48716 0.08305 96 250 196
-0.169488 -0.484422 0.0467924 96 250 196
0.347324 -0.487285 0.0665625 96 250 196
-0.0275534 -0.487171 0.246468 96 250 196
-0.14905 -0.487153 0.125435 96 250 196
0.20901 -0.48731 0.225941 96 250 196
0.205327 -0.487361 -0.0415533 96 250 196
0.34815 -0.365053 0.0637776 96 250 196
0.12445 -0.487224 0.269548 96 250 196
-0.13752 -0.487049 0.369423 96 250 196
0.426338 -0.487299 -0.0282259 96 250 196
-0.156248 -0.36178 0.125025 96 250 196
-0.156553 -0.395235 0.429 96 250 196
0.300028 -0.487342 0.127345 96 250 196
-0.14722 -0.487084 0.028592 96 250 196
0.017198 -0.487174 0.291166 96 250 196
0.307955 -0.487365 -0.0915014 96 250 196
0.110078 -0.487257 -0.0362505 96 250 196
-0.167768 -0.377074 0.429395 96 250 196
0.251668 -0.487305 0.252653 96 250 196
-0.0484566 -0.472033 0.0114959 96 250 196
-0.0207336 -0.487237 0.0429795 96 250 196
0.119301 -0.487325 0.0201686 96 250 196
-0.157034 -0.34025 0.232221 96 250 196
-0.175428 -0.452077 0.387313 96 250 196
-0.139521 -0.486845 0.263227 96 250 196
0.239595 -0.48735 0.077985 96 250 196
0.258973 -0.487385 -0.0591164 96 250 196
0.145125 -0.444184 -0.0113117 96 250 196
0.0238689 -0.487238 0.171857 96 250 196
-0.0911274 -0.487021 0.403152 96 250 196
-0.0380765 -0.35912 0.0701619 96 250 196
0.0555825 -0.487063 0.411654 96 250 196
-0.18589 -0.465598 0.289617 96 250 196
0.0135284 -0.487047 0.424652 96 250 196
-0.0511044 -0.354622 0.0722735 96 250 196
0.153523 -0.487346 0.00169259 96 250 196
0.368126 -0.487294 -0.0314395 96 250 196
0.182028 -0.389444 0.025898 96 250 196
