ply
format ascii 1.0
comment Created by Open3D
element vertex 1200
property double x
property double y
property double z
property uchar red
property uchar green
property uchar blue
end_header
0.0311113 -0.277383 0.040266 224 210 119
0.133281 -0.260604 -0.209583 224 210 119
0.304758 -0.293441 -0.204734 224 210 119
0.029473 -0.222257 0.19451 224 210 119
0.157963 -0.415569 -0.214645 224 210 119
0.0369114 -0.435686 0.236933 224 210 119
0.0298965 -0.243243 0.252216 224 210 119
0.221721 -0.250379 -0.209325 224 210 119
0.244273 -0.150874 -0.206197 224 210 119
0.0319635 -0.338702 -0.0292976 224 210 119
0.0306383 -0.198223 -0.0319656 224 210 119
0.106837 -0.259825 -0.204844 224 210 119
0.0371939 -0.478478 -0.0586882 224 210 119
0.221948 -0.253816 -0.209566 224 210 119
0.029531 -0.188526 0.208229 224 210 119
0.101475 -0.159075 -0.206538 224 210 119
0.0350745 -0.450134 0.0492845 224 210 119
0.228068 -0.334504 -0.214137 224 210 119
0.0354068 -0.121309 0.145714 224 210 119
0.110965 -0.125835 -0.207432 224 210 119
0.0301322 -0.211691 0.04204 224 210 119
0.0401231 -0.317497 -0.179693 224 210 119
0.0349107 -0.43695 -0.157856 224 210 119
0.12653 -0.20098 -0.207507 224 210 119
0.0382692 -0.119356 -0.19923 224 210 119
0.0443258 -0.403333 -0.189654 224 210 119
0.0375416 -0.481625 -0.0801226 224 210 119
0.0551524 -0.35035 -0.200443 224 210 119
0.0281269 -0.179999 -0.0899397 224 210 119
0.0320053 -0.299627 -0.0980443 224 210 119
0.0284749 -0.264157 0.0903758 224 210 119
0.0439078 -0.467823 -0.182228 224 210 119
0.028704 -0.159378 0.063271 224 210 119
0.0621476 -0.268038 -0.199655 224 210 119
0.218631 -0.199509 -0.207067 224 210 119
0.0326405 -0.352321 0.241468 224 210 119
0.0292271 -0.124 0.237818 224 210 119
0.0295527 -0.297867 0.139341 224 210 119
0.0335255 -0.372842 0.237604 224 210 119
0.171895 -0.137664 -0.208851 224 210 119
0.0318229 -0.337174 -0.151936 224 210 119
0.0311213 -0.317299 0.0521445 224 210 119
0.216715 -0.146086 -0.207165 224 210 119
0.258767 -0.193454 -0.205006 224 210 119
0.0417416 -0.183519 -0.197633 224 210 119
0.16728 -0.157087 -0.208778 224 210 119
0.0424821 -0.343001 -0.187571 224 210 119
0.129872 -0.17355 -0.207626 224 210 119
0.0628002 -0.20077 -0.202133 224 210 119
0.0323791 -0.363839 0.00736505 224 210 119
0.032246 -0.280286 -0.0248157 224 210 119
0.0468217 -0.168241 -0.201177 224 210 119
0.030099 -0.212633 -0.153054 224 210 119
0.133198 -0.456586 -0.212201 224 210 119
0.0486406 -0.178154 -0.201201 224 210 119
0.0319302 -0.356958 -0.092318 224 210 119
0.0302016 -0.240447 0.034629 224 210 119
0.0287265 -0.130222 0.199354 224 210 119
0.0302704 -0.348068 0.106359 224 210 119
0.0299882 -0.174209 0.127304 224 210 119
0.0371578 -0.472207 -0.0814786 224 210 119
0.179104 -0.403622 -0.217304 224 210 119
0.0879141 -0.413816 -0.204406 224 210 119
0.181896 -0.441075 -0.217961 224 210 119
0.0493728 -0.287662 -0.194116 224 210 119
0.270293 -0.147741 -0.206101 224 210 119
0.038222 -0.168406 -0.195887 224 210 119
0.182103 -0.164313 -0.208099 224 210 119
0.0292427 -0.308749 0.0844507 224 210 119
0.0318677 -0.36266 -0.0968908 224 210 119
0.0635481 -0.218528 -0.201342 224 210 119
0.0333364 -0.453614 0.172887 224 210 119
0.278007 -0.179496 -0.203972 224 210 119
0.0322193 -0.306231 -0.0264327 224 210 119
0.31138 -0.402353 -0.213257 224 210 119
0.169887 -0.372533 -0.21577 224 210 119
0.0297977 -0.17987 0.0473751 224 210 119
0.0298902 -0.39255 0.14149 224 210 119
0.308726 -0.429625 -0.213039 224 210 119
0.0330589 -0.110396 -0.0821398 224 210 119
0.290013 -0.334196 -0.208836 224 210 119
0.110911 -0.317273 -0.207726 224 210 119
0.277293 -0.177882 -0.204008 224 210 119
0.0301863 -0.179327 0.130251 224 210 119
0.033881 -0.387577 0.055819 224 210 119
0.0347983 -0.417445 0.0594564 224 210 119
0.0288516 -0.21977 0.0729403 224 210 119
0.249722 -0.439725 -0.216322 224 210 119
0.0415667 -0.34023 -0.185347 224 210 119
0.0338939 -0.37978 0.248283 224 210 119
0.034077 -0.45751 -0.150774 224 210 119
0.206423 -0.182691 -0.207428 224 210 119
0.0300889 -0.336334 0.0972726 224 210 119
0.10189 -0.187075 -0.204847 224 210 119
0.0298767 -0.194758 0.103488 224 210 119
0.157502 -0.168647 -0.208752 224 210 119
0.153542 -0.40977 -0.214085 224 210 119
0.289911 -0.386044 -0.213698 224 210 119
0.0920439 -0.334255 -0.204224 224 210 119
0.0327449 -0.107722 -0.122898 224 210 119
0.222599 -0.373919 -0.217434 224 210 119
0.322982 -0.279708 -0.203109 224 210 119
0.0351126 -0.229995 0.287556 224 210 119
0.169801 -0.314113 -0.214336 224 210 119
0.0376902 -0.299982 -0.172352 224 210 119
0.0300286 -0.405911 0.111926 224 210 119
0.109166 -0.145028 -0.207005 224 210 119
0.0280905 -0.147288 0.281028 224 210 119
0.0317933 -0.375994 -0.101366 224 210 119
0.0322253 -0.246173 -0.0296188 224 210 119
0.0324058 -0.362203 0.00904585 224 210 119
0.133603 -0.448419 -0.21177 224 210 119
0.0312206 -0.324877 0.251226 224 210 119
0.0683621 -0.415663 -0.202866 224 210 119
0.0316152 -0.440827 0.133854 224 210 119
0.256759 -0.333464 -0.211795 224 210 119
0.0519476 -0.163471 -0.203086 224 210 119
0.0297932 -0.240312 0.140978 224 210 119
0.0311 -0.323541 0.276633 224 210 119
0.0316281 -0.327844 0.0148306 224 210 119
0.337129 -0.29911 -0.203017 224 210 119
0.0344179 -0.114191 -0.193318 224 210 119
0.177912 -0.402905 -0.217178 224 210 119
0.0317651 -0.336001 0.248366 224 210 119
0.181426 -0.459112 -0.218132 224 210 119
0.0472198 -0.42433 -0.193861 224 210 119
0.12583 -0.327348 -0.210271 224 210 119
0.0408061 -0.481649 -0.174079 224 210 119
0.0315994 -0.348344 -0.114026 224 210 119
0.285762 -0.163548 -0.204372 224 210 119
0.0267022 -0.145358 -0.0208092 224 210 119
0.328718 -0.278224 -0.202719 224 210 119
0.169211 -0.140191 -0.208841 224 210 119
0.113912 -0.366167 -0.208519 224 210 119
0.0304519 -0.417748 0.0993871 255 178 96
0.0240163 -0.313831 0.310103 255 178 96
0.0196957 -0.367883 0.281185 255 178 96
0.18981 -0.489105 0.0470649 255 178 96
0.0199169 -0.254978 0.095057 255 178 96
0.129447 -0.485541 0.329334 255 178 96
0.0189282 -0.336895 0.156339 255 178 96
0.0318496 -0.426574 0.326647 255 178 96
0.21278 -0.489186 0.120231 255 178 96
0.120112 -0.488242 0.0385201 255 178 96
0.246495 -0.488791 0.03256 255 178 96
0.128961 -0.462851 0.333082 255 178 96
0.12746 -0.488152 0.233918 255 178 96
0.0633073 -0.480793 0.336865 255 178 96
0.194005 -0.489148 0.0532423 255 178 96
0.0242391 -0.263573 0.298196 255 178 96
0.0264567 -0.472358 0.214289 255 178 96
0.0177313 -0.274914 0.162854 255 178 96
0.0221831 -0.32182 0.289862 255 178 96
0.117977 -0.445674 0.33268 255 178 96
0.0298536 -0.428671 0.128928 255 178 96
0.0337558 -0.487254 -0.0533158 255 178 96
0.0868764 -0.487832 0.0117188 255 178 96
0.0196138 -0.253284 0.0996043 255 178 96
0.0188712 -0.339512 0.163682 255 178 96
0.142453 -0.488467 0.0836838 255 178 96
0.0785467 -0.48842 0.291247 255 178 96
0.020344 -0.302277 0.118505 255 178 96
0.169974 -0.488952 0.0516619 255 178 96
0.0237123 -0.463795 0.255302 255 178 96
0.0203596 -0.397791 0.286417 255 178 96
0.0204047 -0.391172 0.301175 255 178 96
0.216803 -0.488267 -0.00634358 255 178 96
0.0311073 -0.428726 0.325285 255 178 96
0.0875429 -0.488217 0.304791 255 178 96
0.262765 -0.48908 0.244792 255 178 96
0.0189924 -0.281297 0.137363 255 178 96
0.0997695 -0.274362 0.326138 255 178 96
0.115657 -0.488019 0.131822 255 178 96
0.0277629 -0.227311 0.308272 255 178 96
0.0892343 -0.487748 0.0893851 255 178 96
0.0300423 -0.35292 -0.0334521 255 178 96
0.0188039 -0.363628 0.27283 255 178 96
0.0281676 -0.327409 0.0434354 255 178 96
0.0198444 -0.314938 0.131487 255 178 96
0.0268984 -0.440861 0.31221 255 178 96
0.0184253 -0.239086 0.119696 255 178 96
0.123738 -0.428232 0.330727 255 178 96
0.1789 -0.457334 0.328321 255 178 96
0.0966289 -0.488405 0.302936 255 178 96
0.0668011 -0.487428 0.170591 255 178 96
0.130516 -0.383903 0.327031 255 178 96
0.0294471 -0.434288 0.0231828 255 178 96
0.0260741 -0.290226 0.0532017 255 178 96
0.0205181 -0.290689 0.238116 255 178 96
0.233928 -0.489206 0.191643 255 178 96
0.0249416 -0.396141 0.161381 255 178 96
0.0904343 -0.488087 0.255047 255 178 96
0.171367 -0.488458 0.239395 255 178 96
0.0188828 -0.27522 0.19985 255 178 96
0.12096 -0.409006 0.3294 255 178 96
0.149325 -0.488264 0.238505 255 178 96
0.0265189 -0.219481 0.301286 255 178 96
0.0843526 -0.288372 0.326175 255 178 96
0.206063 -0.467583 0.323027 255 178 96
0.0492766 -0.485171 0.323727 255 178 96
0.0212317 -0.369271 0.29974 255 178 96
0.139204 -0.456948 0.331963 255 178 96
0.0263507 -0.355938 0.321141 255 178 96
0.0301305 -0.293289 0.00295111 255 178 96
0.191095 -0.390904 0.319673 255 178 96
0.0224119 -0.191968 0.240114 255 178 96
0.0857884 -0.487657 0.124144 255 178 96
0.144933 -0.462763 0.332182 255 178 96
0.149168 -0.418547 0.327675 255 178 96
0.0564056 -0.410664 0.333051 255 178 96
0.0350259 -0.400154 0.329531 255 178 96
0.0750733 -0.487695 0.059316 255 178 96
0.0528986 -0.487568 0.0187551 255 178 96
0.0179467 -0.28017 0.181654 255 178 96
0.0234618 -0.388467 0.31378 255 178 96
0.0640167 -0.487626 0.0625331 255 178 96
0.0207426 -0.347914 0.275837 255 178 96
0.0223438 -0.385698 0.178071 255 178 96
0.104987 -0.320317 0.329117 255 178 96
0.0937467 -0.351103 0.329194 255 178 96
0.133335 -0.488147 0.14357 255 178 96
0.0188287 -0.30221 0.152956 255 178 96
0.0935167 -0.487631 -0.0458289 255 178 96
0.0220997 -0.397419 0.18942 255 178 96
0.0223406 -0.198808 0.23909 255 178 96
0.0644745 -0.481466 0.336705 255 178 96
0.0402558 -0.248176 0.320432 255 178 96
0.112706 -0.487569 -0.0704527 255 178 96
0.120505 -0.488229 0.000804215 255 178 96
0.0187072 -0.40013 0.262941 255 178 96
0.109662 -0.25871 0.32615 255 178 96
0.0291788 -0.455857 0.314242 255 178 96
0.0176725 -0.258377 0.179668 255 178 96
0.150766 -0.488517 0.00129707 255 178 96
0.0294389 -0.404421 0.326275 255 178 96
0.135563 -0.488527 0.279623 255 178 96
0.0210014 -0.320277 0.122189 255 178 96
0.0550522 -0.180627 0.321292 255 178 96
0.0183536 -0.366975 0.216977 255 178 96
0.0200084 -0.443189 0.253621 255 178 96
0.0201643 -0.257774 0.222321 255 178 96
0.0261027 -0.302236 0.062169 255 178 96
0.0182749 -0.308788 0.173229 255 178 96
0.0780913 -0.487303 -0.0667418 255 178 96
0.0269966 -0.405328 0.322865 255 178 96
0.196737 -0.488126 -0.0232333 255 178 96
0.0274704 -0.366232 0.0740527 255 178 96
0.0242525 -0.323375 0.312237 255 178 96
0.0230433 -0.289181 0.279011 255 178 96
0.121548 -0.247811 0.321129 255 178 96
0.0842384 -0.485809 0.329855 255 178 96
0.220808 -0.488978 0.230287 255 178 96
0.135744 -0.48713 0.31943 255 178 96
0.0216789 -0.29366 0.257349 255 178 96
0.02048 -0.349105 0.26945 255 178 96
0.0313085 -0.449109 0.320494 255 178 96
0.0219503 -0.317319 0.278679 255 178 96
0.120515 -0.457562 0.333462 255 178 96
0.0290167 -0.195592 0.309551 255 178 96
0.0674348 -0.392038 0.332216 255 178 96
0.0182413 -0.254863 0.188359 255 178 96
0.0955598 -0.487781 0.120384 255 178 96
0.0311136 -0.441922 0.0943006 255 178 96
0.0209811 -0.329344 0.127689 255 178 96
0.121039 -0.488247 0.0271647 255 178 96
0.0239842 -0.427978 0.307832 255 178 96
0.254997 -0.489513 0.0959333 255 178 96
0.0842568 -0.487777 -0.0164852 255 178 96
0.117587 -0.482707 0.334075 255 178 96
0.151943 -0.434528 0.328855 255 178 96
0.134485 -0.488429 0.00876588 255 178 96
0.284212 -0.48961 0.10824 255 178 96
0.0783828 -0.180468 0.321079 255 178 96
0.209092 -0.484279 -0.102665 255 178 96
0.0190358 -0.40897 0.240195 255 178 96
0.0989034 -0.48778 0.147681 255 178 96
0.0759466 -0.405666 0.330085 255 178 96
0.081504 -0.479083 0.337216 255 178 96
0.0242891 -0.263059 0.0399067 255 178 96
0.0321266 -0.48603 0.0234127 255 178 96
0.0192911 -0.3944 0.275277 255 178 96
0.0248652 -0.421381 0.313648 255 178 96
0.0276819 -0.327733 0.0582265 255 178 96
0.0184153 -0.290862 0.190606 255 178 96
0.130362 -0.488031 0.169466 255 178 96
0.0204124 -0.420673 0.284586 255 178 96
0.0818067 -0.478274 0.336912 255 178 96
0.106365 -0.426064 0.33102 255 178 96
0.057708 -0.204016 0.322805 255 178 96
0.0226349 -0.305716 0.291356 255 178 96
0.0362868 -0.188197 0.315138 255 178 96
0.0278642 -0.338871 0.0539563 255 178 96
0.0273078 -0.283706 0.317767 255 178 96
0.17832 -0.371466 0.32093 255 178 96
0.0201107 -0.448068 0.256772 255 178 96
0.0208573 -0.251 0.231473 255 178 96
0.0373399 -0.443696 0.331342 255 178 96
0.0938318 -0.29495 0.327408 255 178 96
0.0308646 -0.478326 0.0396368 255 178 96
0.0310425 -0.342894 -0.0227741 255 178 96
0.0582923 -0.487638 0.242372 255 178 96
0.023415 -0.453978 0.283086 255 178 96
0.0188101 -0.391453 0.268085 255 178 96
0.0295308 -0.299935 0.012566 255 178 96
0.0350019 -0.458704 0.326078 255 178 96
0.0962967 -0.487667 0.177246 255 178 96
0.0691355 -0.39987 0.331367 255 178 96
0.24116 -0.485718 0.306966 255 178 96
0.0498663 -0.213774 0.321602 255 178 96
0.123092 -0.474868 0.334934 255 178 96
0.0442313 -0.484964 0.322363 255 178 96
0.0202171 -0.390779 0.291267 255 178 96
0.0966694 -0.250842 0.325616 255 178 96
0.0702856 -0.346283 0.328878 255 178 96
0.0953024 -0.480514 0.336839 255 178 96
0.298452 -0.489572 0.110865 255 178 96
0.171475 -0.487496 0.311852 255 178 96
0.23975 -0.489435 0.0846885 255 178 96
0.0313737 -0.257273 -0.0426804 255 178 96
0.103752 -0.34521 0.326009 255 178 96
0.0263164 -0.363066 0.103674 255 178 96
0.0607404 -0.487478 0.113871 255 178 96
0.156179 -0.488748 0.0219988 255 178 96
0.184048 -0.488802 0.12426 255 178 96
0.186437 -0.488877 0.278748 255 178 96
0.0268977 -0.371312 0.109588 255 178 96
0.0272207 -0.352787 0.0726135 255 178 96
0.0222916 -0.431055 0.210321 255 178 96
0.0266639 -0.177289 0.298535 255 178 96
0.0197743 -0.333848 0.252267 255 178 96
0.0827074 -0.193252 0.321718 255 178 96
0.0242686 -0.282965 0.0624954 255 178 96
0.229043 -0.489145 0.191651 255 178 96
0.237158 -0.487995 -0.00986595 255 178 96
0.0176052 -0.371073 0.233178 255 178 96
0.0316961 -0.47766 0.0640049 255 178 96
0.0993667 -0.212572 0.32295 255 178 96
0.0197112 -0.300947 0.131748 255 178 96
0.0202067 -0.414886 0.280938 255 178 96
0.177794 -0.488498 0.177294 255 178 96
0.0444986 -0.381676 0.328581 255 178 96
0.034707 -0.487456 0.0139471 255 178 96
0.0859816 -0.231884 0.324491 255 178 96
0.114962 -0.483275 0.334085 255 178 96
0.0205877 -0.210259 0.206863 255 178 96
0.255674 -0.489609 0.140105 255 178 96
0.10673 -0.307355 0.326988 255 178 96
0.0287558 -0.283117 0.00907071 255 178 96
0.0216401 -0.259927 0.24376 255 178 96
0.0218346 -0.320552 0.277703 255 178 96
0.0977583 -0.487962 0.0156547 255 178 96
0.0192296 -0.308353 0.144566 255 178 96
0.0170738 -0.248934 0.16814 255 178 96
0.0181514 -0.384039 0.258799 255 178 96
0.090805 -0.487793 0.0809837 255 178 96
0.0496865 -0.346021 0.326751 255 178 96
0.228914 -0.489068 0.217661 255 178 96
0.0218856 -0.372985 0.165612 255 178 96
0.0193937 -0.390431 0.214884 255 178 96
0.0303673 -0.475458 0.0126583 255 178 96
0.107456 -0.310401 0.328673 255 178 96
0.0909649 -0.182481 0.320073 255 178 96
0.167117 -0.488585 -0.00336605 255 178 96
0.0571711 -0.487413 0.208224 255 178 96
0.0407749 -0.39843 0.330066 255 178 96
0.191822 -0.464637 0.326415 255 178 96
0.0736107 -0.457713 0.333068 255 178 96
0.0218351 -0.21534 0.234326 255 178 96
0.0209187 -0.292147 0.246035 255 178 96
0.0193186 -0.269972 0.207323 255 178 96
0.0270887 -0.420746 0.320763 255 178 96
0.0263433 -0.315446 0.31859 255 178 96
0.0237095 -0.437458 0.301134 255 178 96
0.121079 -0.487601 -0.0727513 255 178 96
0.0285768 -0.36645 0.325125 255 178 96
0.261368 -0.485106 -0.0775357 255 178 96
0.0270467 -0.189793 0.300772 255 178 96
0.0243885 -0.333801 0.0963419 255 178 96
0.0453668 -0.486906 0.23279 255 178 96
0.304201 -0.488339 0.0320167 255 178 96
0.208423 -0.480903 -0.0365462 255 178 96
0.0237635 -0.382171 0.314661 255 178 96
0.0799558 -0.48827 0.27666 255 178 96
0.0442744 -0.211198 0.319836 255 178 96
0.0953092 -0.343677 0.327462 255 178 96
0.0279292 -0.295584 0.318756 255 178 96
0.0682061 -0.48752 0.114678 255 178 96
0.181952 -0.488553 0.178615 255 178 96
0.266338 -0.488886 0.252838 255 178 96
0.017284 -0.246187 0.174701 255 178 96
0.0215656 -0.350053 0.300206 255 178 96
0.191233 -0.488641 0.21511 255 178 96
0.0212357 -0.318862 0.118999 255 178 96
0.108715 -0.478311 0.335896 255 178 96
0.0198225 -0.339961 0.14615 255 178 96
0.108677 -0.43979 0.331918 255 178 96
0.0188877 -0.300718 0.151186 255 178 96
0.0411441 -0.483397 0.328177 255 178 96
0.0227818 -0.21347 0.256959 255 178 96
0.205631 -0.489105 0.0494556 255 178 96
0.074627 -0.488305 0.284114 255 178 96
0.0223213 -0.322871 0.295091 255 178 96
0.199162 -0.400453 0.318661 255 178 96
0.0536006 -0.435649 0.332975 255 178 96
0.230624 -0.488492 0.285233 255 178 96
0.0364204 -0.446442 0.329961 255 178 96
0.283699 -0.489634 0.166828 255 178 96
0.0233958 -0.401498 0.181477 255 178 96
0.0292325 -0.175856 0.307583 255 178 96
0.253509 -0.489153 0.0554685 255 178 96
0.0180536 -0.278706 0.15737 255 178 96
0.0206847 -0.345155 0.142079 255 178 96
0.0277149 -0.360323 0.0513981 255 178 96
0.12257 -0.488378 0.30313 255 178 96
0.234841 -0.489071 0.236157 255 178 96
0.0412408 -0.278288 0.322078 255 178 96
0.11985 -0.488131 -0.0120228 255 178 96
0.0199149 -0.273082 0.110792 255 178 96
0.0481089 -0.35039 0.326908 255 178 96
0.0954933 -0.487918 0.0452351 255 178 96
0.122346 -0.48749 -0.0832283 255 178 96
0.0273649 -0.365314 0.0777013 255 178 96
0.145876 -0.452042 0.330845 255 178 96
0.0195659 -0.396213 0.277451 255 178 96
0.175006 -0.488889 0.292181 255 178 96
0.0630379 -0.47993 0.337128 255 178 96
0.054913 -0.485141 0.3264 255 178 96
0.0964801 -0.336987 0.327878 255 178 96
0.0178762 -0.383907 0.253965 255 178 96
0.169439 -0.488347 0.219099 255 178 96
0.157017 -0.421922 0.327122 255 178 96
0.0223716 -0.351166 0.12827 255 178 96
0.0219657 -0.318528 0.280467 255 178 96
0.166332 -0.430462 0.32675 255 178 96
0.0238326 -0.179949 0.287992 255 178 96
0.0286866 -0.416005 -0.000753552 255 178 96
0.0706514 -0.445512 0.332536 255 178 96
0.214215 -0.48931 0.0918686 255 178 96
0.0850527 -0.486668 0.325028 255 178 96
0.152207 -0.48872 0.0454028 255 178 96
0.14139 -0.488011 -0.0448973 255 178 96
0.0222484 -0.288699 0.261472 255 178 96
0.0821036 -0.487727 0.0712614 255 178 96
0.0232886 -0.448693 0.208066 255 178 96
0.0188322 -0.290957 0.147148 255 178 96
0.0271759 -0.362274 0.079316 255 178 96
0.0225627 -0.392731 0.310744 255 178 96
0.124172 -0.317274 0.318279 255 178 96
0.0638026 -0.487008 0.313024 255 178 96
0.123389 -0.381514 0.327 255 178 96
0.0556006 -0.366143 0.328626 255 178 96
0.0351786 -0.374679 0.327164 255 178 96
0.201353 -0.488795 0.180008 255 178 96
0.0277937 -0.392659 0.324171 255 178 96
0.23283 -0.48896 0.262116 255 178 96
0.0291246 -0.396633 0.325949 255 178 96
0.0921507 -0.487581 -0.0495658 255 178 96
0.0682934 -0.478948 0.337343 255 178 96
0.181337 -0.400267 0.321993 255 178 96
0.0183966 -0.302734 0.162653 255 178 96
0.029314 -0.430169 0.0361472 255 178 96
0.147106 -0.319926 0.314076 255 178 96
0.0710746 -0.487488 0.207971 255 178 96
0.0180948 -0.328487 0.21327 255 178 96
0.035478 -0.457819 0.327043 255 178 96
0.259434 -0.489278 0.0661098 255 178 96
0.0845133 -0.477801 0.33647 255 178 96
0.020682 -0.322004 0.259045 255 178 96
0.0173899 -0.363754 0.238116 255 178 96
0.0850429 -0.482274 0.336599 255 178 96
0.104196 -0.314912 0.329214 255 178 96
0.0206278 -0.258853 0.0856456 255 178 96
0.195059 -0.488689 0.214518 255 178 96
0.117329 -0.488142 0.238736 255 178 96
0.0181344 -0.35791 0.260892 255 178 96
0.204652 -0.488398 -0.00551873 255 178 96
0.166105 -0.482852 0.331389 255 178 96
0.0937014 -0.312535 0.328916 255 178 96
0.0188459 -0.259294 0.124234 255 178 96
0.0215211 -0.351788 0.30027 255 178 96
0.0303485 -0.470784 -0.0470096 255 178 96
0.0184073 -0.363374 0.26829 255 178 96
0.0872657 -0.487608 0.162059 255 178 96
0.0937776 -0.339753 0.330782 255 178 96
0.0272472 -0.237841 0.307616 255 178 96
0.129305 -0.459385 0.333014 255 178 96
0.0774986 -0.444229 0.332414 255 178 96
0.040073 -0.226623 0.319285 255 178 96
0.027769 -0.457927 0.309028 255 178 96
0.151704 -0.485155 0.328334 255 178 96
0.0559471 -0.487425 0.292111 255 178 96
0.0806761 -0.477296 0.335688 255 178 96
0.0853878 -0.29927 0.327143 255 178 96
0.0176599 -0.359081 0.24782 255 178 96
0.169413 -0.48834 0.209558 255 178 96
0.111108 -0.487733 -0.052401 255 178 96
0.0177372 -0.34438 0.219888 255 178 96
0.0201872 -0.379983 0.292066 255 178 96
0.0224543 -0.318958 0.297017 255 178 96
0.0882066 -0.487741 0.0871495 255 178 96
0.0316544 -0.485944 0.233254 255 178 96
0.160216 -0.482828 0.331983 255 178 96
0.0868324 -0.488173 0.264127 255 178 96
0.0302133 -0.423424 0.325326 255 178 96
0.177153 -0.488479 0.181056 255 178 96
0.0244947 -0.309377 0.311263 255 178 96
0.100557 -0.476134 0.33529 255 178 96
0.258112 -0.485145 -0.0848377 255 178 96
0.0297684 -0.349154 0.0290778 255 178 96
0.0176687 -0.389372 0.24675 255 178 96
0.0217014 -0.316419 0.270347 255 178 96
0.0354312 -0.442621 0.328785 255 178 96
0.258383 -0.484623 -0.0742017 255 178 96
0.023244 -0.423079 0.307577 255 178 96
0.0288397 -0.394526 0.0597236 255 178 96
0.155782 -0.488467 -0.0100378 255 178 96
0.0184041 -0.332153 0.225903 255 178 96
0.0271491 -0.349197 0.322023 255 178 96
0.171115 -0.452129 0.328797 255 178 96
0.0180339 -0.351049 0.249745 255 178 96
0.0204241 -0.205056 0.202479 255 178 96
0.214377 -0.488965 0.182171 255 178 96
0.0472832 -0.401617 0.3317 255 178 96
0.148788 -0.488519 0.0910127 255 178 96
0.0201777 -0.374245 0.288226 255 178 96
0.127374 -0.397241 0.328211 255 178 96
0.177955 -0.488745 0.272883 255 178 96
0.180721 -0.489015 0.0711821 255 178 96
0.304433 -0.488568 0.0701105 255 178 96
0.0338989 -0.486061 0.14645 255 178 96
0.173911 -0.483578 0.329277 255 178 96
0.204286 -0.440983 0.320652 255 178 96
0.0215182 -0.281167 0.249272 255 178 96
0.0489365 -0.436213 0.334668 255 178 96
0.174296 -0.488694 0.270915 255 178 96
0.0508052 -0.195256 0.320886 255 178 96
0.184403 -0.451499 0.326465 255 178 96
0.141988 -0.488487 0.00723911 255 178 96
0.0384027 -0.485017 0.317032 255 178 96
0.091974 -0.487793 0.0863545 255 178 96
0.0223227 -0.333846 0.302777 255 178 96
0.0222897 -0.449179 0.219791 255 178 96
0.0276733 -0.395052 -0.0105622 255 178 96
0.0301795 -0.411169 0.0941604 255 178 96
0.0292397 -0.407007 0.326069 255 178 96
0.0708326 -0.484704 0.332124 255 178 96
0.100699 -0.331451 0.328666 255 178 96
0.0314531 -0.461093 0.0908944 255 178 96
0.123172 -0.487833 0.313194 255 178 96
0.0286602 -0.384134 0.0872405 255 178 96
0.018617 -0.381644 0.221095 255 178 96
0.259741 -0.482593 -0.0245737 255 178 96
0.0224288 -0.309902 0.288984 255 178 96
0.0265862 -0.227703 0.303205 255 178 96
0.150018 -0.485118 0.328784 255 178 96
0.0178335 -0.365848 0.25981 255 178 96
0.137258 -0.417234 0.328762 255 178 96
0.0224561 -0.322368 0.299503 255 178 96
0.0218164 -0.213162 0.233311 255 178 96
0.0181971 -0.348441 0.2083 255 178 96
0.0216492 -0.349104 0.300889 255 178 96
0.0288841 -0.484598 0.299234 255 178 96
0.0243365 -0.415131 0.181669 255 178 96
0.0464819 -0.479116 0.333154 255 178 96
0.0228128 -0.202799 0.267117 255 178 96
0.115392 -0.488147 0.0719862 255 178 96
0.0282677 -0.242623 0.314351 255 178 96
0.086741 -0.36945 0.330311 255 178 96
0.0199755 -0.40665 0.222319 255 178 96
0.140772 -0.488061 0.197717 255 178 96
0.181983 -0.488591 -0.002691 255 178 96
0.0289538 -0.363055 0.0373879 255 178 96
0.0195374 -0.333533 0.145147 255 178 96
0.0772865 -0.466271 0.334101 255 178 96
0.0208241 -0.432314 0.289328 255 178 96
0.0395124 -0.486529 0.239166 255 178 96
0.0234138 -0.293173 0.0795885 255 178 96
0.0219666 -0.442872 0.286948 255 178 96
0.0296318 -0.299773 0.0116089 255 178 96
0.0182531 -0.327556 0.160686 255 178 96
0.0195033 -0.273339 0.211665 255 178 96
0.0203976 -0.3748 0.291361 255 178 96
0.0202379 -0.356262 0.27644 255 178 96
0.0666146 -0.485422 0.32857 255 178 96
0.113716 -0.27038 0.326642 255 178 96
0.247248 -0.489581 0.135456 255 178 96
0.0314012 -0.465179 0.0766211 255 178 96
0.0372397 -0.197168 0.316064 255 178 96
0.0200187 -0.422011 0.276092 255 178 96
0.142286 -0.488341 -0.0122455 255 178 96
0.197835 -0.433821 0.320786 255 178 96
0.0297595 -0.396776 0.326621 255 178 96
0.184524 -0.488532 -0.00611574 255 178 96
0.0276258 -0.227894 0.307656 255 178 96
0.0296012 -0.269555 0.31786 255 178 96
0.0231394 -0.458716 0.214363 255 178 96
0.266662 -0.489672 0.157504 255 178 96
0.0195697 -0.274402 0.119035 255 178 96
0.286358 -0.486951 -0.0321095 255 178 96
0.0302141 -0.441311 0.0507267 255 178 96
0.1686 -0.455828 0.329631 255 178 96
0.0248283 -0.318356 0.0849149 255 178 96
0.150385 -0.310038 0.31143 255 178 96
0.0382989 -0.486422 0.234907 255 178 96
0.0209494 -0.239664 0.228061 255 178 96
0.298148 -0.488812 0.0720081 255 178 96
0.0216029 -0.2795 0.0871833 255 178 96
0.02934 -0.28151 0.318432 255 178 96
0.0956585 -0.257634 0.325747 255 178 96
0.0644895 -0.217515 0.323688 255 178 96
0.0188002 -0.338538 0.163964 255 178 96
0.0188983 -0.24454 0.111831 255 178 96
0.138025 -0.467788 0.333189 255 178 96
0.13327 -0.488222 -0.016646 255 178 96
0.154306 -0.48221 0.333035 255 178 96
0.0202651 -0.277985 0.229519 255 178 96
0.0262756 -0.255397 0.306101 255 178 96
0.113565 -0.482184 0.334861 255 178 96
0.0604659 -0.245795 0.324027 255 178 96
0.0277506 -0.418889 0.322584 255 178 96
0.237364 -0.472616 0.31107 255 178 96
0.025684 -0.264315 0.03082 255 178 96
0.287325 -0.489588 0.17502 255 178 96
0.0191532 -0.220236 0.192634 255 178 96
0.0171812 -0.236965 0.152221 255 178 96
0.0275319 -0.191343 0.302161 255 178 96
0.317636 -0.488535 0.0683827 255 178 96
0.188415 -0.391033 0.320178 255 178 96
0.0312935 -0.453359 0.091054 255 178 96
0.0234784 -0.283713 0.294724 255 178 96
0.110294 -0.2995 0.327274 255 178 96
0.0191805 -0.299165 0.212934 255 178 96
0.0283276 -0.379747 0.095188 255 178 96
0.0359581 -0.487124 0.0982834 255 178 96
0.144708 -0.488562 0.0648915 255 178 96
0.0193365 -0.408711 0.270566 255 178 96
0.021779 -0.39859 0.19348 255 178 96
0.0297951 -0.411201 0.0646836 255 178 96
0.028759 -0.289368 0.0125439 255 178 96
0.0285918 -0.384289 0.101485 255 178 96
0.0870099 -0.418693 0.330736 255 178 96
0.0351228 -0.484623 0.317891 255 178 96
0.163555 -0.488637 0.299521 255 178 96
0.0388181 -0.449041 0.332201 255 178 96
0.189385 -0.488695 0.293917 255 178 96
0.0334219 -0.320218 0.322437 255 178 96
0.0456282 -0.375919 0.166228 255 139 72
0.0429489 -0.437545 0.247599 255 139 72
0.106835 -0.331464 0.322561 255 139 72
0.0416158 -0.480299 0.148017 255 139 72
0.103663 -0.356251 0.292333 255 139 72
0.262696 -0.402153 -0.187954 255 139 72
0.250244 -0.480977 0.231291 255 139 72
0.0704899 -0.330253 -0.0412109 255 139 72
0.094922 -0.412118 -0.0167908 255 139 72
0.287213 -0.481645 0.176242 255 139 72
0.0337781 -0.484579 0.100659 255 139 72
0.392705 -0.3599 -0.17081 255 139 72
0.0907559 -0.344177 0.331851 255 139 72
0.308153 -0.487203 -0.105619 255 139 72
0.349979 -0.483292 -0.104445 255 139 72
0.0847631 -0.313903 0.291351 255 139 72
0.0892986 -0.410172 0.245111 255 139 72
0.0201365 -0.445605 0.102357 255 139 72
0.0991202 -0.465952 0.335187 255 139 72
0.366253 -0.412264 -0.163388 255 139 72
0.429864 -0.416799 -0.0624285 255 139 72
0.19435 -0.478795 0.269305 255 139 72
0.103941 -0.310364 0.32161 255 139 72
0.207518 -0.493683 -0.0257092 255 139 72
0.158949 -0.483436 0.21409 255 139 72
0.444229 -0.413848 -0.113284 255 139 72
0.094017 -0.381504 -0.0781752 255 139 72
0.213316 -0.480763 0.258165 255 139 72
0.0372472 -0.413613 0.21033 255 139 72
0.125194 -0.399108 0.320413 255 139 72
0.247599 -0.484532 0.114759 255 139 72
0.0242275 -0.362088 0.172598 255 139 72
0.45225 -0.371772 -0.130656 255 139 72
0.110907 -0.322789 0.308993 255 139 72
0.106034 -0.335735 0.323637 255 139 72
0.148223 -0.433397 0.302906 255 139 72
0.034388 -0.303363 0.250417 255 139 72
0.43198 -0.42133 -0.0629711 255 139 72
0.107064 -0.415881 0.273839 255 139 72
0.0368629 -0.312613 0.253081 255 139 72
0.0740842 -0.34491 0.276997 255 139 72
0.122614 -0.398184 0.284647 255 139 72
0.280725 -0.491397 -0.0389507 255 139 72
0.204892 -0.480786 0.239972 255 139 72
0.263095 -0.425387 -0.18156 255 139 72
0.0299651 -0.460319 0.144008 255 139 72
0.0385886 -0.351258 0.0737883 255 139 72
0.436739 -0.40056 -0.0826627 255 139 72
0.429729 -0.409259 -0.0741176 255 139 72
0.182347 -0.487902 0.178005 255 139 72
0.0610516 -0.344195 -0.0215226 255 139 72
0.396113 -0.450635 -0.105567 255 139 72
0.0338895 -0.404035 0.125586 255 139 72
0.102858 -0.245641 0.312932 255 139 72
0.113948 -0.453073 0.0927998 255 139 72
0.399174 -0.451708 -0.0976286 255 139 72
0.138282 -0.396422 -0.139526 255 139 72
0.185009 -0.290111 -0.208446 255 139 72
0.0729392 -0.4005 -0.140809 255 139 72
0.0670191 -0.361658 0.266674 255 139 72
0.0704887 -0.175736 0.329055 255 139 72
0.0531829 -0.215281 0.281853 255 139 72
0.103063 -0.386703 0.330549 255 139 72
0.10862 -0.387268 0.275227 255 139 72
0.437081 -0.404523 -0.086539 255 139 72
0.0971734 -0.434711 0.261624 255 139 72
0.126789 -0.372983 0.311975 255 139 72
0.119809 -0.38004 -0.12278 255 139 72
0.133443 -0.488666 0.169291 255 139 72
0.0302048 -0.378391 0.19295 255 139 72
0.0696139 -0.393198 0.234812 255 139 72
0.0693728 -0.469367 0.249428 255 139 72
0.0326961 -0.380213 0.0670518 255 139 72
0.134954 -0.492642 0.0879415 255 139 72
0.176451 -0.298129 -0.209244 255 139 72
0.107377 -0.346294 0.323913 255 139 72
0.0353526 -0.407839 0.170111 255 139 72
0.138796 -0.491106 0.138322 255 139 72
0.303274 -0.299154 -0.186707 255 139 72
0.151526 -0.355693 -0.184195 255 139 72
0.0351012 -0.406437 0.158805 255 139 72
0.144987 -0.402995 0.300297 255 139 72
0.0795181 -0.429884 0.311135 255 139 72
0.17684 -0.476794 0.279421 255 139 72
0.382689 -0.4272 -0.14057 255 139 72
0.456096 -0.366473 -0.135448 255 139 72
0.0427361 -0.28744 0.305145 255 139 72
0.363047 -0.469051 -0.132756 255 139 72
0.181043 -0.258958 -0.208722 255 139 72
0.297695 -0.30353 -0.188236 255 139 72
0.0438362 -0.247955 0.261672 255 139 72
0.140622 -0.484829 0.207828 255 139 72
0.119036 -0.45575 -0.0335315 255 139 72
0.0933839 -0.326748 -0.140093 255 139 72
0.135346 -0.386089 0.310184 255 139 72
0.234191 -0.486244 -0.135046 255 139 72
0.400408 -0.471602 0.0399215 255 139 72
0.0566265 -0.432205 0.298762 255 139 72
0.141027 -0.289606 -0.208469 255 139 72
0.0313916 -0.453547 0.147643 255 139 72
0.0315491 -0.383507 0.162591 255 139 72
0.354795 -0.36217 -0.176977 255 139 72
0.170706 -0.49187 0.128311 255 139 72
0.154631 -0.494144 -0.000238262 255 139 72
0.0772036 -0.460768 0.338873 255 139 72
0.136082 -0.385809 0.309496 255 139 72
0.196362 -0.426861 -0.181092 255 139 72
0.0902642 -0.312705 0.29516 255 139 72
0.279197 -0.272775 -0.192921 255 139 72
0.079733 -0.415764 0.149668 255 139 72
0.137299 -0.393442 0.310716 255 139 72
0.0192067 -0.358528 0.13869 255 139 72
0.0787544 -0.445997 0.299807 255 139 72
0.0790047 -0.426564 0.311195 255 139 72
0.0714226 -0.461926 0.266424 255 139 72
0.398719 -0.454816 -0.0938449 255 139 72
0.0463992 -0.482104 0.16847 255 139 72
0.383719 -0.354251 -0.171014 255 139 72
0.385992 -0.476142 0.00136217 255 139 72
0.122396 -0.478919 0.058568 255 139 72
0.0429274 -0.244767 0.266806 255 139 72
0.116397 -0.442781 -0.0283344 255 139 72
0.157347 -0.485305 0.20466 255 139 72
0.0782806 -0.420721 0.313269 255 139 72
0.0792248 -0.403064 0.339163 255 139 72
0.365786 -0.474464 -0.119863 255 139 72
0.140197 -0.491531 0.125815 255 139 72
0.0807378 -0.382663 0.338747 255 139 72
0.0798406 -0.421939 0.298522 255 139 72
0.451401 -0.38848 -0.124329 255 139 72
0.0176638 -0.470193 0.0871556 255 139 72
0.150026 -0.27427 -0.210568 255 139 72
0.086068 -0.33146 0.290787 255 139 72
0.0343066 -0.396931 0.216995 255 139 72
0.1188 -0.472355 0.0487969 255 139 72
0.119532 -0.468985 0.0691281 255 139 72
0.0696151 -0.340899 0.295089 255 139 72
0.0300889 -0.314441 0.24267 255 139 72
0.0309985 -0.331194 0.238013 255 139 72
0.443938 -0.416515 -0.116214 255 139 72
0.113591 -0.401844 0.2735 255 139 72
0.119399 -0.365816 0.314733 255 139 72
0.084574 -0.422882 0.164988 255 139 72
0.144567 -0.486507 0.196802 255 139 72
0.0623565 -0.181074 0.315225 255 139 72
0.0704329 -0.251052 0.275529 255 139 72
0.288249 -0.488575 -0.110387 255 139 72
0.0474264 -0.299416 0.267243 255 139 72
0.1417 -0.363331 -0.167528 255 139 72
0.0862412 -0.334241 0.290475 255 139 72
0.073924 -0.402869 0.212742 255 139 72
0.247119 -0.490766 -0.0779137 255 139 72
0.0921982 -0.208515 0.307672 255 139 72
0.0611677 -0.394498 0.121763 255 139 72
0.119417 -0.436444 0.328614 255 139 72
0.323317 -0.434684 -0.171908 255 139 72
0.105926 -0.411664 0.330749 255 139 72
0.0632222 -0.35642 0.267182 255 139 72
0.12654 -0.465454 0.327033 255 139 72
0.122919 -0.423789 0.326483 255 139 72
0.103189 -0.335985 0.325291 255 139 72
0.388384 -0.476199 -0.0348584 255 139 72
0.0793437 -0.182966 0.320673 255 139 72
0.0199238 -0.472829 0.0458105 255 139 72
0.309754 -0.345441 -0.186111 255 139 72
0.264594 -0.45756 -0.164904 255 139 72
0.0336708 -0.399219 0.140222 255 139 72
0.0739244 -0.178106 0.318151 255 139 72
0.296776 -0.368673 -0.187186 255 139 72
0.145938 -0.49351 0.0131664 255 139 72
0.433467 -0.416492 -0.0643747 255 139 72
0.288043 -0.355273 -0.190072 255 139 72
0.129859 -0.376736 0.300099 255 139 72
0.0822144 -0.19977 0.325848 255 139 72
0.234323 -0.490141 0.0663694 255 139 72
0.107252 -0.407982 0.32987 255 139 72
0.124034 -0.31354 -0.186793 255 139 72
0.265395 -0.492325 -0.0292096 255 139 72
0.117398 -0.424296 0.328629 255 139 72
0.459847 -0.360683 -0.142497 255 139 72
0.315172 -0.385632 -0.181298 255 139 72
0.0781471 -0.320945 -0.0835893 255 139 72
0.131921 -0.489072 0.161909 255 139 72
0.260594 -0.30622 -0.194883 255 139 72
0.167901 -0.479302 0.308344 255 139 72
0.118617 -0.435532 0.276424 255 139 72
0.0887947 -0.227127 0.293429 255 139 72
0.0432705 -0.477672 0.169411 255 139 72
0.382706 -0.476492 0.0170577 255 139 72
0.348395 -0.481981 -0.00779513 255 139 72
0.089856 -0.208108 0.322868 255 139 72
0.255199 -0.488454 0.0597971 255 139 72
0.0375471 -0.40453 0.242896 255 139 72
0.125318 -0.481247 0.077839 255 139 72
0.0263298 -0.356599 0.174504 255 139 72
0.0870729 -0.333404 0.291192 255 139 72
0.374337 -0.476178 0.0730015 255 139 72
0.363028 -0.467481 -0.134913 255 139 72
0.289695 -0.311843 -0.190314 255 139 72
0.0908463 -0.429534 0.173805 255 139 72
0.142445 -0.434007 0.317365 255 139 72
0.0407087 -0.437991 -0.0278505 255 139 72
0.394699 -0.473515 0.0115888 255 139 72
0.0926074 -0.338097 0.294368 255 139 72
0.235716 -0.361874 -0.197239 255 139 72
0.357849 -0.482815 -0.0324483 255 139 72
0.0264758 -0.409493 0.182117 255 139 72
0.0976593 -0.465222 0.218227 255 139 72
0.296021 -0.281368 -0.18899 255 139 72
0.34782 -0.418713 -0.17042 255 139 72
0.247333 -0.253966 -0.200425 255 139 72
0.135166 -0.490189 0.150524 255 139 72
0.0276245 -0.446778 0.131087 255 139 72
0.174951 -0.495408 0.0320382 255 139 72
0.153813 -0.471602 0.309902 255 139 72
0.271867 -0.487705 -0.132721 255 139 72
0.407648 -0.394103 -0.143113 255 139 72
0.148168 -0.386135 -0.159798 255 139 72
0.438755 -0.384242 -0.119138 255 139 72
0.126421 -0.486161 0.00780335 255 139 72
0.165277 -0.493896 0.0698456 255 139 72
0.0643012 -0.429086 0.307333 255 139 72
0.110687 -0.320591 0.311667 255 139 72
0.0237251 -0.421632 0.146911 255 139 72
0.0992683 -0.241467 0.321212 255 139 72
0.199468 -0.322582 -0.205538 255 139 72
0.138421 -0.492352 0.0168392 255 139 72
0.43203 -0.402689 -0.0825888 255 139 72
0.186315 -0.482159 -0.128909 255 139 72
0.0692631 -0.33787 -0.0484207 255 139 72
0.120325 -0.311194 -0.185819 255 139 72
0.393131 -0.468989 -0.0778608 255 139 72
0.344245 -0.478798 0.0980826 255 139 72
0.0989951 -0.224844 0.31095 255 139 72
0.15534 -0.414009 -0.164508 255 139 72
0.0262235 -0.321646 0.225927 255 139 72
0.0766959 -0.446264 0.339847 255 139 72
0.0461268 -0.338055 0.249518 255 139 72
0.0309496 -0.331448 0.237819 255 139 72
0.125516 -0.420496 0.283564 255 139 72
0.407951 -0.417862 -0.115182 255 139 72
0.403919 -0.469883 -0.0560045 255 139 72
0.034171 -0.468655 0.117865 255 139 72
0.218663 -0.492015 0.0581954 255 139 72
0.0721851 -0.362135 -0.128945 255 139 72
0.115176 -0.458893 0.114405 255 139 72
0.249993 -0.363034 -0.195115 255 139 72
0.0975157 -0.269596 -0.198116 255 139 72
0.106934 -0.383999 0.328068 255 139 72
0.0747852 -0.184745 0.309095 255 139 72
0.402395 -0.429298 -0.114754 255 139 72
0.114281 -0.424227 -0.0338257 255 139 72
0.100807 -0.439822 0.13184 255 139 72
0.366651 -0.424171 -0.161453 255 139 72
0.38743 -0.475276 0.0308047 255 139 72
0.449135 -0.38719 -0.113338 255 139 72
0.126501 -0.384759 0.31586 255 139 72
0.169602 -0.495406 0.0316653 255 139 72
0.0539055 -0.268567 0.265421 255 139 72
0.209556 -0.490094 0.100312 255 139 72
0.142181 -0.397558 0.301652 255 139 72
0.107738 -0.383617 0.327694 255 139 72
0.0616169 -0.453417 0.269955 255 139 72
0.160348 -0.495112 0.0211355 255 139 72
0.261161 -0.447469 -0.171326 255 139 72
0.0851919 -0.301763 0.331009 255 139 72
0.370415 -0.476454 0.0786248 255 139 72
0.0684454 -0.448661 0.291862 255 139 72
0.0978037 -0.436665 0.224787 255 139 72
0.41129 -0.41757 -0.109805 255 139 72
0.0848365 -0.267268 0.29141 255 139 72
0.294068 -0.415522 -0.180445 255 139 72
0.0829446 -0.37212 0.337244 255 139 72
0.110192 -0.460129 0.251146 255 139 72
0.422608 -0.45367 -0.043201 255 139 72
0.012424 -0.323983 0.169466 255 139 72
0.0845934 -0.361126 -0.0701505 255 139 72
0.152421 -0.437773 0.305798 255 139 72
0.105119 -0.285564 0.305908 255 139 72
0.0372114 -0.204421 0.334287 255 139 72
0.318494 -0.468781 -0.149275 255 139 72
0.0575152 -0.203969 0.290324 255 139 72
0.130896 -0.397653 0.292407 255 139 72
0.268935 -0.487104 0.0528127 255 139 72
0.105186 -0.407019 0.264701 255 139 72
0.012049 -0.458006 0.0249846 255 139 72
0.0975863 -0.437902 0.224055 255 139 72
0.104951 -0.287888 0.318265 255 139 72
0.0695872 -0.376746 0.264592 255 139 72
0.0802035 -0.392632 0.307825 255 139 72
0.163594 -0.490375 0.163075 255 139 72
0.0986973 -0.433226 0.219669 255 139 72
0.11579 -0.357203 0.30021 255 139 72
0.278816 -0.265384 -0.19385 255 139 72
0.436707 -0.420364 -0.0858323 255 139 72
0.0325252 -0.338835 0.215564 255 139 72
0.101351 -0.456438 0.194337 255 139 72
0.0264631 -0.479497 0.0645986 255 139 72
0.119653 -0.444874 0.32887 255 139 72
0.0205092 -0.349395 0.19627 255 139 72
0.103997 -0.330295 0.324131 255 139 72
0.0559896 -0.411215 0.310611 255 139 72
0.0498974 -0.370231 -0.0523854 255 139 72
0.146252 -0.490128 0.16096 255 139 72
0.0782203 -0.235006 0.332671 255 139 72
0.0631028 -0.387091 0.232758 255 139 72
0.0818756 -0.28528 0.332177 255 139 72
0.110519 -0.320369 0.308645 255 139 72
0.367783 -0.392566 -0.169546 255 139 72
0.138812 -0.493408 0.0876883 255 139 72
0.0640449 -0.391553 -0.110488 255 139 72
0.0836587 -0.363216 0.336311 255 139 72
0.122379 -0.476878 0.110885 255 139 72
0.0354608 -0.408668 0.167547 255 139 72
0.0466682 -0.327867 0.25076 255 139 72
0.0461045 -0.448215 0.218543 255 139 72
0.0633054 -0.330041 -0.0264609 255 139 72
0.105975 -0.463638 0.1844 255 139 72
0.0119628 -0.454162 -0.0159152 255 139 72
0.112902 -0.476696 0.218588 255 139 72
0.315836 -0.398923 -0.177974 255 139 72
0.0685461 -0.460677 0.273136 255 139 72
0.0656551 -0.376347 0.315255 255 139 72
0.0978929 -0.430253 0.261661 255 139 72
0.181571 -0.491452 0.122531 255 139 72
0.0314266 -0.382777 0.164274 255 139 72
0.0646014 -0.390005 0.215909 255 139 72
0.370865 -0.390533 -0.169892 255 139 72
0.0310332 -0.360274 0.158348 255 139 72
0.137199 -0.338524 -0.177175 255 139 72
0.112806 -0.474986 0.228469 255 139 72
0.0366628 -0.481494 0.000710599 255 139 72
0.229982 -0.492319 -0.0440537 255 139 72
0.035348 -0.409743 0.15382 255 139 72
0.0266721 -0.356843 0.17081 255 139 72
0.0729168 -0.454532 0.28954 255 139 72
0.0754018 -0.352594 0.338526 255 139 72
0.11702 -0.411721 0.277997 255 139 72
0.431233 -0.392372 -0.111386 255 139 72
0.164988 -0.28556 -0.210231 255 139 72
0.398915 -0.369744 -0.168492 255 139 72
0.0620533 -0.185088 0.311716 255 139 72
0.0309334 -0.47679 0.0769952 255 139 72
0.135301 -0.487464 0.180973 255 139 72
0.301751 -0.487615 -0.124481 255 139 72
0.0976215 -0.373802 0.276647 255 139 72
0.0113816 -0.321859 0.168476 255 139 72
0.131335 -0.453842 0.324704 255 139 72
0.326111 -0.486432 -0.0151357 255 139 72
0.0723706 -0.373109 0.265678 255 139 72
0.055038 -0.459314 0.202606 255 139 72
0.0931903 -0.387985 0.266243 255 139 72
0.0620592 -0.343326 0.000504591 255 139 72
0.131713 -0.464037 0.325167 255 139 72
0.0439892 -0.372151 0.194196 255 139 72
0.0135873 -0.453142 0.0712117 255 139 72
0.034467 -0.333726 0.223591 255 139 72
0.118157 -0.470161 0.124549 255 139 72
0.0696406 -0.370937 0.308307 255 139 72
0.0876093 -0.237713 0.329033 255 139 72
0.0404715 -0.468373 0.185694 255 139 72
0.129475 -0.442102 0.325042 255 139 72
0.020796 -0.350902 0.171682 255 139 72
0.0500032 -0.183688 0.33308 255 139 72
0.142249 -0.460444 -0.117835 255 139 72
0.183452 -0.477314 0.282831 255 139 72
0.103292 -0.36497 0.288359 255 139 72
0.431115 -0.427249 -0.0574905 255 139 72
0.111867 -0.440704 -0.00516177 255 139 72
0.0893746 -0.308266 -0.148514 255 139 72
0.417346 -0.436605 -0.0745341 255 139 72
0.131191 -0.488966 0.117712 255 139 72
0.11454 -0.43441 -0.0244593 255 139 72
0.183377 -0.480622 0.228244 255 139 72
0.0803574 -0.411917 0.20448 255 139 72
0.284445 -0.488155 -0.126221 255 139 72
0.0364798 -0.31907 0.252104 255 139 72
0.211604 -0.480846 0.250178 255 139 72
0.12423 -0.478766 0.0801856 255 139 72
0.0947798 -0.44074 0.252381 255 139 72
0.378284 -0.473272 -0.108249 255 139 72
0.236173 -0.486164 -0.135392 255 139 72
0.066285 -0.441853 0.297226 255 139 72
0.184265 -0.478599 0.251415 255 139 72
0.0957154 -0.431861 0.104283 255 139 72
0.0715209 -0.347703 0.296476 255 139 72
0.0652447 -0.173578 0.330763 255 139 72
0.0381996 -0.417307 0.216868 255 139 72
0.0835033 -0.310826 -0.123261 255 139 72
0.387856 -0.400789 -0.154831 255 139 72
0.0167253 -0.386533 0.0845116 255 139 72
0.190533 -0.255104 -0.207401 255 139 72
0.0364524 -0.339354 0.248682 255 139 72
0.0263944 -0.33976 0.123118 255 139 72
0.225539 -0.492014 -0.0511629 255 139 72
0.0950458 -0.389254 -0.0653958 255 139 72
0.128712 -0.485322 0.122961 255 139 72
0.0425739 -0.447581 0.200119 255 139 72
0.39701 -0.465044 -0.0787205 255 139 72
0.060598 -0.365059 0.264052 255 139 72
0.438542 -0.376236 -0.140427 255 139 72
0.1501 -0.477973 0.24599 255 139 72
0.111395 -0.44469 0.00679965 255 139 72
0.421558 -0.429971 -0.0702867 255 139 72
0.115924 -0.391057 0.323982 255 139 72
0.15019 -0.457285 0.294495 255 139 72
0.0267104 -0.354744 0.163962 255 139 72
0.417046 -0.45642 -0.0511436 255 139 72
0.0495062 -0.456654 -0.0552325 255 139 72
0.152016 -0.467999 0.304263 255 139 72
0.107325 -0.404161 0.32957 255 139 72
0.230756 -0.482319 0.19237 255 139 72
0.431291 -0.375613 -0.151239 255 139 72
0.13051 -0.408025 0.291902 255 139 72
0.0472535 -0.346777 0.0486918 255 139 72
0.0343997 -0.482045 0.113557 255 139 72
0.123576 -0.441621 -0.0692954 255 139 72
0.0463094 -0.377057 0.249885 255 139 72
0.0381557 -0.486551 0.0307974 255 139 72
0.375993 -0.34799 -0.171591 255 139 72
0.059631 -0.465593 -0.11204 255 139 72
0.0796348 -0.453083 0.338944 255 139 72
0.0387945 -0.200198 0.335565 255 139 72
0.275904 -0.487932 -0.130142 255 139 72
0.0497457 -0.368886 0.21766 255 139 72
0.358433 -0.461879 -0.142923 255 139 72
0.442081 -0.367014 -0.152443 255 139 72
0.121302 -0.355444 0.308325 255 139 72
0.0374199 -0.454087 -0.00904881 255 139 72
0.0823937 -0.404924 0.240896 255 139 72
0.133767 -0.489984 0.151863 255 139 72
0.0997085 -0.434548 0.208258 255 139 72
0.110393 -0.348968 0.320719 255 139 72
0.0463541 -0.333697 0.250113 255 139 72
0.0409749 -0.255021 0.259266 255 139 72
0.232836 -0.493732 0.00597839 255 139 72
0.0870411 -0.29739 -0.161005 255 139 72
0.084566 -0.213069 0.295264 255 139 72
0.153641 -0.431181 0.307422 255 139 72
0.0522049 -0.241034 0.268075 255 139 72
0.0710549 -0.271628 0.275686 255 139 72
0.167171 -0.492106 0.109353 255 139 72
0.074384 -0.378598 0.288649 255 139 72
0.0548637 -0.46591 -0.103824 255 139 72
0.256723 -0.481203 0.217164 255 139 72
0.05412 -0.431936 -0.0853202 255 139 72
0.267403 -0.40828 -0.185829 255 139 72
0.396302 -0.381981 -0.165454 255 139 72
0.168577 -0.476159 0.277833 255 139 72
0.421203 -0.466221 -0.0156424 255 139 72
0.0713492 -0.458476 0.281078 255 139 72
0.107353 -0.404895 0.329599 255 139 72
0.108172 -0.334789 0.304558 255 139 72
0.279759 -0.336835 -0.191663 255 139 72
0.127228 -0.377851 0.297175 255 139 72
0.421443 -0.453892 -0.0456095 255 139 72
0.0247034 -0.452713 -0.0890648 255 139 72
0.0284796 -0.3071 0.237033 255 139 72
0.252032 -0.349477 -0.195708 255 139 72
0.19447 -0.265848 -0.207001 255 139 72
0.413703 -0.414767 -0.107533 255 139 72
0.210494 -0.395928 -0.195378 255 139 72
0.384042 -0.478233 -0.0437387 255 139 72
0.0767267 -0.40068 0.236281 255 139 72
0.0970198 -0.243682 0.323886 255 139 72
0.0198488 -0.378522 0.0907651 255 139 72
0.0511157 -0.470393 0.215845 255 139 72
0.082746 -0.415705 0.20103 255 139 72
0.0578786 -0.47332 0.217969 255 139 72
0.0861034 -0.252617 0.291371 255 139 72
0.11009 -0.355431 0.320097 255 139 72
0.0617033 -0.364847 -0.0827134 255 139 72
0.110143 -0.365286 0.321994 255 139 72
0.446887 -0.402712 -0.11418 255 139 72
0.0509393 -0.427962 0.298439 255 139 72
0.0678925 -0.391759 0.268903 255 139 72
0.136148 -0.489145 0.166754 255 139 72
0.239976 -0.49282 -0.0348995 255 139 72
0.122462 -0.372953 0.31492 255 139 72
0.148841 -0.29728 -0.208516 255 139 72
0.0314807 -0.376256 0.212468 255 139 72
0.0322593 -0.387708 0.168196 255 139 72
0.123209 -0.477941 0.108942 255 139 72
0.149324 -0.447102 0.302733 255 139 72
0.0511425 -0.426337 0.300387 255 139 72
0.0983544 -0.380858 0.33241 255 139 72
0.0333844 -0.286226 0.244801 255 139 72
0.161121 -0.495081 0.0197807 255 139 72
0.072459 -0.459185 0.277061 255 139 72
0.429509 -0.404746 -0.082145 255 139 72
0.0322083 -0.362564 0.0731037 255 139 72
0.03973 -0.404811 -0.0272093 255 139 72
0.452533 -0.378815 -0.122634 255 139 72
0.154338 -0.491237 0.145328 255 139 72
0.17092 -0.411549 -0.18098 255 139 72
0.117997 -0.446392 -0.0342697 255 139 72
0.145376 -0.420401 -0.145812 255 139 72
0.134179 -0.493062 0.0681154 255 139 72
0.368851 -0.456499 -0.142463 255 139 72
0.0179788 -0.469578 0.0136933 255 139 72
0.391592 -0.371033 -0.170062 255 139 72
0.0284751 -0.434643 0.127307 255 139 72
0.370149 -0.450579 -0.143884 255 139 72
0.0688362 -0.299576 0.272486 255 139 72
0.206689 -0.337981 -0.203728 255 139 72
0.0749161 -0.454461 0.290086 255 139 72
0.394655 -0.407476 -0.14067 255 139 72
0.36515 -0.442517 -0.153981 255 139 72
0.0663087 -0.373498 0.272302 255 139 72
0.344341 -0.449221 -0.157987 255 139 72
0.232203 -0.480799 0.252412 255 139 72
0.123826 -0.484998 0.164042 255 139 72
0.147878 -0.312669 0.327298 255 95 48
0.0276509 -0.433571 0.322137 255 95 48
0.0709674 -0.143442 0.331799 255 95 48
0.0321378 -0.198608 0.333725 255 95 48
0.0578649 -0.268494 0.347748 255 95 48
0.000658791 -0.209177 0.0411326 255 95 48
0.160058 -0.413433 0.339115 255 95 48
0.0501978 -0.295027 0.336367 255 95 48
0.0132316 -0.378843 -0.0306587 255 95 48
0.13033 -0.272893 0.329769 255 95 48
0.0254216 -0.20799 0.318029 255 95 48
0.0293457 -0.0970075 0.339463 255 95 48
0.0228564 -0.298656 0.295591 255 95 48
0.00388427 -0.119446 0.18114 255 95 48
0.128131 -0.404236 0.340395 255 95 48
0.0433739 -0.398018 0.338182 255 95 48
0.0247515 -0.368359 0.315051 255 95 48
0.0872728 -0.372286 0.342232 255 95 48
0.172103 -0.333454 0.322917 255 95 48
0.15563 -0.178269 0.325598 255 95 48
0.000240371 -0.13918 0.266345 255 95 48
0.0214734 -0.408466 0.254749 255 95 48
0.159059 -0.349007 0.328716 255 95 48
0.0374275 -0.42264 0.336109 255 95 48
0.0145995 -0.351793 0.270497 255 95 48
0.0584283 -0.122379 0.335136 255 95 48
0.0114336 -0.305745 0.292389 255 95 48
0.0098591 -0.213939 0.171714 255 95 48
0.136759 -0.180206 0.325739 255 95 48
0.114288 -0.226637 0.316274 255 95 48
0.0290583 -0.219696 0.322151 255 95 48
0.07011 -0.163941 0.333256 255 95 48
0.0380084 -0.328499 0.332298 255 95 48
0.150275 -0.300545 0.326115 255 95 48
0.15932 -0.39309 0.336017 255 95 48
0.00465977 -0.198033 0.299765 255 95 48
0.105136 -0.155881 0.329904 255 95 48
0.0315934 -0.208421 0.331018 255 95 48
0.0359512 -0.14675 0.333751 255 95 48
0.161064 -0.381998 0.33394 255 95 48
0.139222 -0.435494 0.344547 255 95 48
0.0473551 -0.310352 0.336066 255 95 48
