ply
format ascii 1.0
comment Created by Open3D
element vertex 1188
property double x
property double y
property double z
property uchar red
property uchar green
property uchar blue
end_header
0.420239 -0.485082 0.358931 32 212 224
0.409763 -0.328086 0.465443 32 212 224
0.408776 -0.342764 0.41169 32 212 224
0.421158 -0.239477 0.045594 32 212 224
0.408234 -0.380659 -0.0729524 32 212 224
0.408736 -0.39019 0.150495 32 212 224
0.408136 -0.319862 0.0372619 32 212 224
0.421268 -0.165147 -0.0402662 32 212 224
0.408223 -0.259517 -0.0535493 32 212 224
0.432301 -0.220676 0.385015 32 212 224
0.408252 -0.258277 -0.0531062 32 212 224
0.0140681 -0.48696 0.234835 32 212 224
0.387245 -0.486505 0.26899 32 212 224
0.430148 -0.224585 0.272602 32 212 224
0.40843 -0.297019 0.48144 32 212 224
-0.103594 -0.485445 0.396379 32 212 224
0.432093 -0.225691 0.378747 32 212 224
0.429665 -0.248296 0.306881 32 212 224
0.413406 -0.130203 0.471713 32 212 224
0.29246 -0.486099 0.362042 32 212 224
0.423446 -0.151197 0.0257058 32 212 224
0.407671 -0.331796 0.170047 32 212 224
0.123693 -0.486493 0.432556 32 212 224
0.407465 -0.339849 0.0964623 32 212 224
0.424599 -0.416702 0.301877 32 212 224
0.420781 -0.386431 -0.03603 32 212 224
0.427473 -0.443188 0.41167 32 212 224
0.408866 -0.270929 0.464088 32 212 224
0.422351 -0.440946 0.00164625 32 212 224
0.42262 -0.400887 0.09211 32 212 224
0.425144 -0.371348 0.274644 32 212 224
0.420773 -0.0623442 -0.0164261 32 212 224
0.408999 -0.277067 0.374689 32 212 224
0.384318 -0.482577 0.166273 32 212 224
0.407428 -0.250013 0.304325 32 212 224
0.417178 -0.434927 0.420517 32 212 224
0.379835 -0.486018 0.229728 32 212 224
0.40999 -0.313294 0.490479 32 212 224
0.361004 -0.486745 0.18565 32 212 224
0.420881 -0.114222 -0.0177371 32 212 224
0.423419 -0.467675 0.432622 32 212 224
0.42717 -0.442219 0.382522 32 212 224
0.430418 -0.333015 0.403746 32 212 224
-0.177732 -0.485812 0.379946 32 212 224
0.426293 -0.262018 0.224575 32 212 224
0.421209 -0.217258 0.0391191 32 212 224
0.408231 -0.35215 0.275555 32 212 224
0.414091 -0.392613 0.424933 32 212 224
0.425249 -0.249673 0.191297 32 212 224
0.42057 -0.343839 -0.0234642 32 212 224
0.408669 -0.343547 0.410187 32 212 224
0.425506 -0.415142 0.317053 32 212 224
0.405182 -0.43478 -0.0269915 32 212 224
0.409574 -0.395978 0.18209 32 212 224
0.423968 -0.417504 0.248261 32 212 224
0.431859 -0.343806 0.295471 32 212 224
0.410892 -0.436335 0.237913 32 212 224
0.420758 -0.294449 0.0116683 32 212 224
0.42463 -0.248441 0.131841 32 212 224
0.407536 -0.41908 -0.00959417 32 212 224
0.425612 -0.23516 0.195371 32 212 224
0.42014 -0.460191 -0.0738902 32 212 224
0.407855 -0.249277 0.255119 32 212 224
0.408958 -0.34814 0.23736 32 212 224
0.33116 -0.486681 0.183336 32 212 224
0.407958 -0.320121 -0.017566 32 212 224
0.417693 -0.409454 0.439439 32 212 224
0.413634 -0.139841 0.383623 32 212 224
0.186225 -0.485982 0.294721 32 212 224
0.408079 -0.303056 0.385252 32 212 224
0.0612397 -0.486302 0.374522 32 212 224
0.388535 -0.486462 0.303805 32 212 224
0.420295 -0.224241 -0.0762555 32 212 224
0.427172 -0.177965 0.152278 32 212 224
0.407877 -0.40416 -0.107676 32 212 224
0.417254 -0.395953 0.449915 32 212 224
0.422326 -0.441663 0.0373656 32 212 224
0.417667 -0.0958076 0.409381 32 212 224
0.0467663 -0.48626 0.346752 32 212 224
0.42436 -0.192752 0.0838064 32 212 224
0.435786 -0.0996107 0.355493 32 212 224
0.424287 -0.153848 0.0450335 32 212 224
0.408204 -0.236021 0.274996 32 212 224
0.420933 -0.114843 -0.0235846 32 212 224
0.430016 -0.270698 0.337655 32 212 224
0.414302 -0.412722 0.456565 32 212 224
0.434984 -0.137742 0.346839 32 212 224
0.422838 -0.304045 0.105949 32 212 224
0.422131 -0.0938452 -0.00563426 32 212 224
0.427824 -0.218545 0.223332 32 212 224
0.420976 -0.352228 0.0430206 32 212 224
0.429157 -0.421205 0.428283 32 212 224
0.409047 -0.262897 0.463336 32 212 224
0.408977 -0.240846 0.139439 32 212 224
0.436597 -0.0737392 0.28743 32 212 224
0.407624 -0.326948 0.301024 32 212 224
0.427728 -0.289211 0.278991 32 212 224
0.139563 -0.486545 0.419236 32 212 224
0.428703 -0.1163 0.142686 32 212 224
0.408136 -0.263455 -0.0552036 32 212 224
0.41179 -0.136314 0.273651 32 212 224
0.424631 -0.409651 0.0587226 32 212 224
0.420793 -0.297537 0.0537688 32 212 224
0.408985 -0.290619 0.49564 32 212 224
0.42316 -0.403594 0.127279 32 212 224
0.408209 -0.288563 0.46005 32 212 224
0.431311 -0.204501 0.274674 32 212 224
0.43088 -0.284873 0.391457 32 212 224
0.413347 -0.106576 0.171123 32 212 224
0.419917 -0.450675 0.247952 32 212 224
0.410628 -0.167348 0.293385 32 212 224
0.0474442 -0.486375 0.30758 32 212 224
0.407846 -0.230712 0.324436 32 212 224
0.407334 -0.242833 0.323879 32 212 224
0.421326 -0.311758 0.0662106 32 212 224
0.427544 -0.0666237 0.0869683 32 212 224
0.426174 -0.10442 0.0438597 32 212 224
0.177225 -0.485996 0.332601 32 212 224
0.426137 -0.0557538 0.0427884 32 212 224
0.408001 -0.307248 0.400555 32 212 224
0.407484 -0.317904 0.294449 32 212 224
0.409762 -0.250524 0.433845 32 212 224
0.430323 -0.354798 0.414048 32 212 224
0.408641 -0.422265 -0.00581217 32 212 224
0.420824 -0.270004 0.0242047 32 212 224
0.432219 -0.162865 0.240609 32 212 224
0.418064 -0.441715 0.129904 32 212 224
0.413083 -0.103078 0.244959 32 212 224
0.407829 -0.324539 0.000768609 32 212 224
0.427399 -0.164043 0.116361 32 212 224
0.424597 -0.459685 0.368687 32 212 224
0.426356 -0.379853 0.309357 32 212 224
0.408769 -0.314779 0.434845 32 212 224
0.410474 -0.431088 0.159095 32 212 224
0.3966 -0.483736 0.236111 32 212 224
0.410006 -0.253877 0.423793 32 212 224
0.425934 -0.0591736 0.0388662 32 212 224
0.422002 -0.429841 -0.00525419 32 212 224
0.407795 -0.333268 -0.01206 32 212 224
0.432906 -0.0888123 0.196131 32 212 224
0.40753 -0.377802 -0.00472313 32 212 224
0.119728 -0.486243 0.287725 32 212 224
0.422328 -0.463803 -0.0444161 32 212 224
0.421439 -0.363401 0.0540246 32 212 224
0.421837 -0.482585 0.373354 32 212 224
0.417004 -0.0844939 0.390665 32 212 224
0.409961 -0.231403 0.434159 32 212 224
0.424205 -0.387462 0.203812 32 212 224
0.42396 -0.273858 0.124469 32 212 224
0.406548 -0.233269 -0.0926386 32 212 224
0.409067 -0.227481 0.0968322 32 212 224
0.430434 -0.339363 0.436904 32 212 224
0.43604 -0.277338 0.398788 32 212 224
0.435481 -0.116021 0.334234 32 212 224
0.420194 -0.280141 -0.0227705 32 212 224
0.412061 -0.429909 0.0152528 32 212 224
0.407376 -0.4552 0.428721 32 212 224
0.425855 -0.182907 0.103396 32 212 224
0.407424 -0.411739 0.0596223 32 212 224
0.436181 -0.0912707 0.30413 32 212 224
0.407728 -0.323211 0.367157 32 212 224
0.435775 -0.0636803 0.220751 32 212 224
0.420848 -0.410905 -0.0454979 32 212 224
0.424575 -0.285428 0.152709 32 212 224
0.409399 -0.203861 0.181133 32 212 224
0.423968 -0.379434 0.159827 32 212 224
0.415627 -0.0807365 0.452815 32 212 224
0.423775 -0.26813 0.117155 32 212 224
0.407232 -0.257883 -0.0783766 32 212 224
0.426723 -0.189215 0.141513 32 212 224
0.407394 -0.349777 0.387558 32 212 224
0.409747 -0.177994 0.0168549 32 212 224
0.426742 -0.442897 0.444544 32 212 224
0.103596 -0.486316 0.268237 32 212 224
0.409816 -0.178844 0.259789 32 212 224
0.422699 -0.456691 0.330784 32 212 224
0.414178 -0.150301 0.409815 32 212 224
0.416797 -0.485837 0.375242 32 212 224
0.323232 -0.486843 0.158896 32 212 224
0.429918 -0.442597 0.224386 32 212 224
0.233253 -0.486253 0.41469 32 212 224
0.0430261 -0.486567 0.277923 32 212 224
0.408207 -0.421391 0.346226 32 212 224
0.408809 -0.400645 0.142963 32 212 224
0.427142 -0.186327 0.183154 32 212 224
0.420651 -0.216083 -0.0159268 32 212 224
0.410274 -0.194229 0.375416 32 212 224
0.434204 -0.15918 0.391804 32 212 224
0.415791 -0.445707 0.303466 32 212 224
0.410078 -0.42522 0.00739466 32 212 224
0.421013 -0.165046 -0.0044831 32 212 224
0.426445 -0.197421 0.139676 32 212 224
0.420769 -0.0811065 -0.0209279 32 212 224
0.421191 -0.293838 0.0674445 32 212 224
0.407765 -0.426328 0.295482 32 212 224
0.115076 -0.487694 -0.151555 64 236 211
0.176061 -0.487528 0.0522548 64 236 211
0.0254726 -0.48765 -0.236404 64 236 211
-0.104314 -0.487624 -0.368151 64 236 211
-0.110069 -0.487693 -0.265108 64 236 211
-0.0516112 -0.48781 -0.330646 64 236 211
-0.0767652 -0.487077 0.119051 64 236 211
0.100581 -0.487685 -0.260075 64 236 211
-0.107027 -0.487785 -0.314822 64 236 211
-0.352479 -0.486976 -0.133472 64 236 211
-0.0342953 -0.487265 0.21798 64 236 211
-0.0807238 -0.487744 -0.288611 64 236 211
-0.424427 -0.485937 0.169223 64 236 211
-0.062403 -0.487157 0.0729252 64 236 211
-0.101632 -0.487628 -0.227838 64 236 211
-0.182085 -0.487445 -0.204047 64 236 211
-0.247388 -0.487301 -0.209934 64 236 211
-0.0192665 -0.487712 -0.310867 64 236 211
-0.0102682 -0.487123 0.138703 64 236 211
0.208832 -0.487497 0.0356272 64 236 211
-0.227606 -0.486735 0.156936 64 236 211
0.00855164 -0.487751 -0.352761 64 236 211
-0.122669 -0.487541 -0.20121 64 236 211
-0.0939124 -0.487595 -0.205327 64 236 211
-0.176708 -0.487286 -0.0792196 64 236 211
-0.0381989 -0.487024 0.160237 64 236 211
-0.0426115 -0.487006 0.164253 64 236 211
0.197591 -0.487553 -0.0185952 64 236 211
-0.0746758 -0.487479 -0.076324 64 236 211
0.00350995 -0.48743 -0.00725446 64 236 211
-0.153024 -0.487662 -0.298891 64 236 211
-0.0435434 -0.487697 -0.247368 64 236 211
-0.292553 -0.486459 0.220267 64 236 211
0.187099 -0.487505 0.037527 64 236 211
0.238489 -0.487489 0.0390229 64 236 211
0.134008 -0.487718 -0.263896 64 236 211
-0.126612 -0.487702 -0.330516 64 236 211
-0.200451 -0.486602 0.228529 64 236 211
-0.0338425 -0.487809 -0.366099 64 236 211
-0.398648 -0.48672 -0.0692983 64 236 211
-0.333496 -0.486291 0.234366 64 236 211
0.0155576 -0.487625 -0.291015 64 236 211
0.0416078 -0.487525 -0.0407496 64 236 211
-0.097554 -0.487298 0.000441998 64 236 211
0.0108689 -0.487726 -0.339705 64 236 211
-0.372002 -0.486941 -0.135288 64 236 211
0.155346 -0.487424 0.104488 64 236 211
-0.280692 -0.486887 0.0275655 64 236 211
-0.16129 -0.487269 -0.0172876 64 236 211
0.19141 -0.48777 0.109937 64 236 211
-0.120983 -0.487068 0.0841642 64 236 211
-0.247399 -0.486837 0.0817326 64 236 211
0.112852 -0.487701 -0.268157 64 236 211
-0.218392 -0.487155 -0.0735165 64 236 211
-0.0194193 -0.487519 -0.0562128 64 236 211
-0.345463 -0.486807 -0.0143226 64 236 211
-0.170854 -0.487646 -0.337693 64 236 211
-0.20943 -0.487488 -0.279586 64 236 211
-0.0149804 -0.487596 -0.113989 64 236 211
-0.190042 -0.486895 0.115225 64 236 211
0.239795 -0.487592 -0.247916 64 236 211
0.137975 -0.487595 -0.0485189 64 236 211
0.0489454 -0.487584 -0.0827164 64 236 211
-0.302125 -0.486593 0.144439 64 236 211
-0.0834213 -0.487532 -0.151012 64 236 211
0.0809966 -0.48767 -0.23654 64 236 211
-0.198715 -0.486982 0.063104 64 236 211
-0.115788 -0.487346 -0.0326476 64 236 211
0.0591579 -0.487651 -0.316775 64 236 211
-0.0231668 -0.487689 -0.220412 64 236 211
-0.230916 -0.487249 -0.160467 64 236 211
0.0486672 -0.487442 0.00899017 64 236 211
0.0638546 -0.487701 -0.360646 64 236 211
0.254545 -0.487468 0.0855771 64 236 211
-0.195241 -0.487369 -0.178309 64 236 211
0.00398605 -0.487366 0.0152718 64 236 211
-0.132767 -0.487581 -0.228421 64 236 211
-0.179444 -0.487149 0.0245712 64 236 211
-0.00851424 -0.48732 0.0243363 64 236 211
-0.187862 -0.487262 -0.0842571 64 236 211
-0.172294 -0.486669 0.227011 64 236 211
0.0586591 -0.487693 -0.368303 64 236 211
0.210016 -0.487494 0.0378833 64 236 211
-0.219683 -0.487068 0.0122203 64 236 211
-0.129974 -0.487512 -0.189013 64 236 211
-0.140178 -0.487682 -0.281548 64 236 211
-0.257197 -0.48659 0.199914 64 236 211
0.139335 -0.487684 -0.118214 64 236 211
-0.179638 -0.487087 0.0440319 64 236 211
-0.0771722 -0.487732 -0.281291 64 236 211
-0.0290995 -0.487702 -0.299266 64 236 211
0.0845151 -0.487643 -0.112704 64 236 211
-0.0424004 -0.487815 -0.35453 64 236 211
0.0671636 -0.4876 -0.093413 64 236 211
-0.0145099 -0.487793 -0.370069 64 236 211
-0.278712 -0.486836 0.0498523 64 236 211
0.0932563 -0.487525 -0.00940412 64 236 211
-0.106296 -0.487326 -0.0137252 64 236 211
-0.205165 -0.487616 -0.326098 64 236 211
-0.198768 -0.487517 -0.271148 64 236 211
-0.00858128 -0.487667 -0.159508 64 236 211
0.00412002 -0.487671 -0.307984 64 236 211
-0.166342 -0.487609 -0.270708 64 236 211
-0.123309 -0.48772 -0.284262 64 236 211
-0.0306393 -0.487579 -0.112328 64 236 211
0.208332 -0.488204 0.142525 64 236 211
-0.145824 -0.487328 -0.0444896 64 236 211
-0.0397795 -0.487743 0.270506 64 236 211
0.126292 -0.487691 -0.119222 64 236 211
0.00870019 -0.487748 -0.373581 64 236 211
-0.216528 -0.487081 0.0097519 64 236 211
-0.307932 -0.486888 0.000716008 64 236 211
-0.146404 -0.487358 -0.0717047 64 236 211
-0.154905 -0.487431 -0.168636 64 236 211
-0.0337042 -0.487731 -0.308468 64 236 211
0.0292802 -0.487656 -0.149179 64 236 211
-0.116116 -0.487483 -0.153216 64 236 211
0.204971 -0.487635 -0.0881934 64 236 211
-0.328721 -0.486905 -0.0686945 64 236 211
-0.322452 -0.487024 -0.139352 64 236 211
-0.348842 -0.486996 -0.141809 64 236 211
-0.280416 -0.48675 0.0799781 64 236 211
-0.273875 -0.4866 0.176855 64 236 211
0.213812 -0.487617 -0.173694 64 236 211
-0.209128 -0.486979 0.0562873 64 236 211
-0.0581118 -0.487635 -0.183355 64 236 211
0.217144 -0.487508 0.0524415 64 236 211
-0.172636 -0.487631 -0.327918 64 236 211
0.0300478 -0.487623 -0.11863 64 236 211
-0.0763476 -0.487514 -0.110549 64 236 211
0.100552 -0.487625 -0.0899934 64 236 211
-0.0266821 -0.487797 -0.353359 64 236 211
-0.0876096 -0.487595 -0.375806 64 236 211
0.0386334 -0.487658 -0.319784 64 236 211
-0.213835 -0.487497 -0.294693 64 236 211
-0.422386 -0.486434 0.0711554 64 236 211
-0.283234 -0.486634 0.142682 64 236 211
0.0214877 -0.487657 -0.219299 64 236 211
-0.350893 -0.486887 -0.0856948 64 236 211
-0.220416 -0.487122 -0.0536089 64 236 211
0.160084 -0.487531 0.000698328 64 236 211
-0.0676599 -0.487524 -0.102783 64 236 211
-0.12489 -0.487539 -0.202111 64 236 211
-0.151809 -0.487586 -0.246364 64 236 211
0.0530239 -0.487639 -0.307526 64 236 211
0.0948007 -0.48768 -0.281688 64 236 211
-0.068879 -0.487792 -0.311317 64 236 211
-0.315443 -0.487123 -0.178704 64 236 211
-0.285113 -0.486827 0.0451441 64 236 211
-0.0875307 -0.487684 -0.251206 64 236 211
0.174149 -0.4876 0.101587 64 236 211
-0.189835 -0.487533 -0.257392 64 236 211
-0.0621565 -0.487637 -0.196291 64 236 211
0.227506 -0.487595 -0.209413 64 236 211
0.189286 -0.487506 0.0237858 64 236 211
0.0406918 -0.487165 0.153871 64 236 211
0.243755 -0.487584 -0.0505249 64 236 211
0.00565501 -0.487669 -0.232642 64 236 211
-0.179336 -0.487576 -0.28374 64 236 211
-0.283972 -0.486869 0.0295491 64 236 211
-0.308192 -0.48704 -0.125691 64 236 211
0.00319099 -0.487061 0.165945 64 236 211
-0.145351 -0.487366 -0.0767347 64 236 211
-0.0223843 -0.487789 -0.352558 64 236 211
-0.0950329 -0.487281 0.00887713 64 236 211
-0.114704 -0.487754 -0.321853 64 236 211
-0.325203 -0.486964 -0.106584 64 236 211
-0.25704 -0.487317 -0.250727 64 236 211
-0.00829044 -0.487678 -0.21425 64 236 211
-0.297403 -0.486786 0.0409025 64 236 211
-0.137189 -0.487604 -0.240908 64 236 211
-0.188344 -0.48733 -0.14394 64 236 211
-0.0955776 -0.487505 -0.146995 64 236 211
0.0936059 -0.487508 0.00320529 64 236 211
0.000180865 -0.487635 -0.283106 64 236 211
0.196632 -0.487637 -0.149406 64 236 211
-0.0353531 -0.487448 -0.0283189 64 236 211
-0.0961525 -0.48696 0.162756 64 236 211
-0.269499 -0.486857 0.0540535 64 236 211
0.0556281 -0.488307 0.276078 64 236 211
0.234095 -0.48763 -0.122824 64 236 211
-0.15227 -0.487408 -0.148814 64 236 211
0.255137 -0.487481 0.0424388 64 236 211
-0.0489451 -0.487698 -0.237423 64 236 211
-0.185656 -0.486585 0.250682 64 236 211
-0.117581 -0.487324 -0.0205052 64 236 211
0.175244 -0.487506 0.024982 64 236 211
0.175156 -0.487646 -0.125413 64 236 211
0.0311253 -0.487296 0.0924807 64 236 211
-0.164684 -0.487377 -0.140075 64 236 211
-0.129084 -0.487515 -0.190319 64 236 211
0.135033 -0.487764 -0.308256 64 236 211
0.0714746 -0.487435 0.0475542 64 236 211
-0.00216373 -0.487762 -0.351352 64 236 211
0.254788 -0.487602 -0.0682449 64 236 211
-0.219515 -0.487429 -0.241535 64 236 211
-0.0947071 -0.487522 -0.157255 64 236 211
0.102704 -0.487687 -0.159461 64 236 211
-0.32657 -0.486995 -0.126136 64 236 211
-0.187109 -0.486651 0.220242 64 236 211
-0.074533 -0.487796 -0.348898 64 236 211
0.0186379 -0.48742 0.177029 64 236 211
0.110792 -0.487715 -0.352768 64 236 211
-0.0631815 -0.486912 0.189232 64 236 211
-0.218711 -0.48715 -0.0715309 64 236 211
0.0607147 -0.487658 -0.19539 64 236 211
0.0559481 -0.487399 0.0515542 64 236 211
-0.0935216 -0.487346 -0.0144915 64 236 211
0.213053 -0.487508 0.0650279 64 236 211
-0.351593 -0.486191 0.241798 64 236 211
0.0833455 -0.487711 -0.353573 64 236 211
-0.0288816 -0.48768 -0.286604 64 236 211
-0.0617041 -0.487454 -0.0493893 64 236 211
0.0958726 -0.487682 -0.256259 64 236 211
-0.194667 -0.487361 -0.171713 64 236 211
-0.100035 -0.487583 -0.204237 64 236 211
-0.298079 -0.486761 0.0496367 64 236 211
0.0959489 -0.487589 -0.0629942 64 236 211
0.0937309 -0.487389 0.106947 64 236 211
0.220224 -0.487604 -0.224551 64 236 211
0.0266934 -0.487656 -0.178456 64 236 211
0.0807104 -0.487677 -0.321346 64 236 211
-0.0982627 -0.487446 -0.0868919 64 236 211
0.0937506 -0.488061 0.176958 64 236 211
-0.051332 -0.48774 -0.298803 64 236 211
-0.219026 -0.486727 0.165104 64 236 211
0.104218 -0.487718 -0.323047 64 236 211
-0.124423 -0.487713 -0.328268 64 236 211
0.247388 -0.487479 0.0760105 64 236 211
-0.398016 -0.486731 -0.0651033 64 236 211
-0.235049 -0.486519 0.250413 64 236 211
0.0468197 -0.487645 -0.312702 64 236 211
-0.016959 -0.487675 -0.171 64 236 211
-0.115722 -0.487495 -0.162721 64 236 211
0.159977 -0.487774 -0.302684 64 236 211
0.0716287 -0.487429 0.0583434 64 236 211
-0.00164794 -0.48726 0.0821238 64 236 211
0.0349532 -0.487339 0.0599425 64 236 211
-0.335213 -0.487075 -0.173268 64 236 211
0.180671 -0.487633 -0.167156 64 236 211
0.0116968 -0.487649 -0.303032 64 236 211
-0.203445 -0.487176 -0.05557 64 236 211
-0.0284788 -0.487678 -0.194523 64 236 211
-0.0184378 -0.48749 -0.0420072 64 236 211
-0.202986 -0.487381 -0.201177 64 236 211
0.197071 -0.487644 -0.133638 64 236 211
-0.244498 -0.487474 -0.294052 64 236 211
-0.233419 -0.487084 -0.0512077 64 236 211
-0.0927349 -0.487757 -0.297024 64 236 211
0.0898963 -0.487586 -0.0646959 64 236 211
-0.346907 -0.486981 -0.130921 64 236 211
0.164379 -0.487513 0.0155242 64 236 211
0.0474209 -0.487567 -0.0716825 64 236 211
-0.201535 -0.487196 -0.0663672 64 236 211
-0.159732 -0.487486 -0.206455 64 236 211
0.0449517 -0.487203 0.141803 64 236 211
0.00506569 -0.487536 -0.0569605 64 236 211
-0.166601 -0.486853 0.153913 64 236 211
0.236342 -0.487617 -0.151467 64 236 211
0.086048 -0.487666 -0.274309 64 236 211
-0.179963 -0.487337 -0.13613 64 236 211
0.292968 -0.487803 0.0917673 64 236 211
-0.0196768 -0.487717 -0.312704 64 236 211
-0.081927 -0.487735 -0.282262 64 236 211
-0.069364 -0.487448 -0.0503571 64 236 211
-0.0321995 -0.487683 -0.204977 64 236 211
-0.103173 -0.48768 -0.356929 64 236 211
0.128932 -0.487754 -0.309391 64 236 211
-0.331778 -0.486943 -0.0965124 64 236 211
0.12778 -0.487627 -0.0785438 64 236 211
-0.418957 -0.486561 0.0353592 64 236 211
-0.244558 -0.486589 0.210976 64 236 211
-0.165799 -0.486937 0.118547 64 236 211
0.139963 -0.487778 -0.312449 64 236 211
0.174986 -0.487641 -0.169829 64 236 211
-0.0582824 -0.487763 -0.303774 64 236 211
-0.101334 -0.487424 -0.0721299 64 236 211
-0.206154 -0.487197 -0.0769749 64 236 211
-0.239707 -0.487303 -0.194789 64 236 211
-0.345695 -0.487075 -0.178057 64 236 211
0.0255585 -0.487734 -0.364271 64 236 211
0.0513015 -0.487285 0.118147 64 236 211
-0.0372342 -0.487812 -0.359423 64 236 211
-0.34009 -0.486992 -0.132864 64 236 211
-0.0915174 -0.487708 -0.266404 64 236 211
0.261001 -0.488288 0.171852 64 236 211
0.0573956 -0.487658 -0.226604 64 236 211
-0.324512 -0.487049 -0.150559 64 236 211
-0.34557 -0.486632 0.0508397 64 236 211
-0.0454127 -0.487504 -0.0698455 64 236 211
0.0414235 -0.487481 -0.011865 64 236 211
-0.0627278 -0.487615 -0.169916 64 236 211
-0.0530364 -0.487243 0.0375863 64 236 211
0.239593 -0.487592 -0.216312 64 236 211
0.135419 -0.487347 0.124279 64 236 211
0.116082 -0.487497 0.0414493 64 236 211
-0.188011 -0.48707 0.043777 64 236 211
0.0704912 -0.487679 -0.369225 64 236 211
-0.0294704 -0.487625 -0.139803 64 236 211
-0.114599 -0.487721 -0.280729 64 236 211
-0.0278418 -0.487219 0.0598443 64 236 211
0.0152991 -0.487652 -0.14395 64 236 211
0.161236 -0.487767 -0.29812 64 236 211
0.119319 -0.487555 -0.0161817 64 236 211
0.0150669 -0.487627 -0.272765 64 236 211
-0.107233 -0.486985 0.147583 64 236 211
-0.00662558 -0.487645 -0.143985 64 236 211
-0.00197839 -0.487269 0.0597761 64 236 211
-0.387139 -0.486187 0.198929 64 236 211
-0.0624672 -0.487685 -0.240154 64 236 211
-0.22004 -0.487429 -0.245924 64 236 211
-0.125824 -0.487373 -0.0652908 64 236 211
0.104388 -0.48772 -0.325167 64 236 211
-0.177245 -0.487452 -0.201588 64 236 211
-0.0615405 -0.487536 -0.106619 64 236 211
-0.312669 -0.486912 -0.0178008 64 236 211
-0.239567 -0.487365 -0.242988 64 236 211
-0.0632665 -0.487696 -0.252906 64 236 211
0.0550835 -0.487662 -0.175664 64 236 211
-0.230492 -0.487117 -0.0732779 64 236 211
0.254067 -0.487575 -0.243581 64 236 211
-0.0782622 -0.487539 -0.147254 64 236 211
-0.412659 -0.486459 0.0679615 64 236 211
-0.138784 -0.487702 -0.311408 64 236 211
0.048433 -0.487608 -0.103477 64 236 211
-0.0672157 -0.487299 0.0102399 64 236 211
-0.253546 -0.48727 -0.199714 64 236 211
-0.0696128 -0.48741 -0.0279086 64 236 211
-0.0748532 -0.48783 -0.331458 64 236 211
-0.183288 -0.487366 -0.158742 64 236 211
-0.239184 -0.487379 -0.266938 64 236 211
-0.0922035 -0.487733 -0.351354 64 236 211
0.00239053 -0.487757 -0.364592 64 236 211
-0.151147 -0.487333 -0.0582864 64 236 211
-0.214627 -0.487203 -0.099546 64 236 211
-0.281714 -0.487026 -0.073125 64 236 211
-0.00613997 -0.487655 -0.253333 64 236 211
0.0850739 -0.487605 0.147765 64 236 211
0.0814271 -0.487677 -0.320689 64 236 211
-0.0144051 -0.487707 -0.311708 64 236 211
0.0992711 -0.487368 0.116421 64 236 211
-0.0691989 -0.487787 -0.309452 64 236 211
-0.258325 -0.486887 0.0520819 64 236 211
-0.00838234 -0.487649 -0.147341 64 236 211
0.154495 -0.488962 0.292089 64 236 211
-0.125427 -0.487034 0.10579 64 236 211
0.130899 -0.488602 0.252224 64 236 211
-0.0216973 -0.487777 -0.342355 64 236 211
0.13044 -0.488657 0.259083 64 236 211
0.0312347 -0.487663 -0.200659 64 236 211
0.219683 -0.487611 -0.18554 64 236 211
-0.0646045 -0.487809 -0.321095 64 236 211
0.0622313 -0.487547 -0.0517723 64 236 211
-0.0216565 -0.487655 -0.274829 64 236 211
-0.125461 -0.487057 0.0927911 64 236 211
0.152514 -0.487738 -0.274631 64 236 211
0.205083 -0.487648 -0.257431 64 236 211
-0.0410224 -0.487249 0.040206 64 236 211
-0.0385902 -0.487665 -0.187147 64 236 211
0.192613 -0.487603 -0.203351 64 236 211
0.061026 -0.487435 0.137388 64 236 211
0.0152198 -0.487624 -0.290161 64 236 211
-0.110731 -0.487573 -0.207327 64 236 211
0.0488375 -0.487561 0.164194 64 236 211
-0.338281 -0.487108 -0.192907 64 236 211
-0.228929 -0.487344 -0.204351 64 236 211
-0.368778 -0.486077 0.256687 64 236 211
0.165342 -0.487578 -0.042348 64 236 211
-0.0302012 -0.487803 -0.369738 64 236 211
0.097102 -0.487675 -0.205964 64 236 211
-0.235497 -0.487383 -0.258032 64 236 211
-0.0331288 -0.487692 -0.222366 64 236 211
-0.396966 -0.486729 -0.0168945 64 236 211
0.100371 -0.4879 0.162993 64 236 211
0.128904 -0.487714 -0.241711 64 236 211
0.118976 -0.487704 -0.212165 64 236 211
0.183739 -0.487645 -0.130727 64 236 211
-0.254182 -0.487392 -0.275453 64 236 211
-0.0434526 -0.487705 -0.285753 64 236 211
-0.122516 -0.486668 0.262311 64 236 211
-0.130177 -0.487449 -0.139127 64 236 211
0.0615345 -0.487649 -0.313889 64 236 211
0.0175323 -0.48768 -0.320474 64 236 211
0.271044 -0.487507 0.00763285 64 236 211
0.0990256 -0.487473 0.0199463 64 236 211
-0.192196 -0.486579 0.246957 64 236 211
-0.215001 -0.487214 -0.108099 64 236 211
0.269559 -0.487497 0.0182469 64 236 211
0.0569877 -0.487203 0.14863 64 236 211
-0.192286 -0.487524 -0.25533 64 236 211
-0.0254833 -0.487674 -0.178756 64 236 211
0.158152 -0.487659 -0.116752 64 236 211
-0.0518424 -0.48777 -0.311285 64 236 211
0.25098 -0.487701 0.0887868 64 236 211
0.103844 -0.4882 0.188633 64 236 211
-0.211784 -0.486639 0.207782 64 236 211
0.228584 -0.488321 0.170048 64 236 211
-0.0749788 -0.487665 -0.374541 64 236 211
0.0969458 -0.48767 -0.199342 64 236 211
-0.111599 -0.487372 -0.047687 64 236 211
-0.1131 -0.487049 0.109572 64 236 211
-0.346565 -0.486877 -0.0717767 64 236 211
0.103078 -0.487472 0.0548321 64 236 211
-0.0577764 -0.487302 0.0124564 64 236 211
-0.27355 -0.486536 0.208963 64 236 211
0.191638 -0.487672 -0.25796 64 236 211
-0.00318756 -0.48745 -0.0165872 64 236 211
-0.228437 -0.486653 0.193303 64 236 211
0.0866296 -0.487688 -0.324551 64 236 211
0.172128 -0.487657 -0.238589 64 236 211
-0.0188012 -0.487684 -0.208257 64 236 211
0.0891669 -0.487703 -0.335995 64 236 211
0.0706246 -0.487706 -0.352468 64 236 211
0.181563 -0.487641 -0.152697 64 236 211
0.0129227 -0.487658 -0.236989 64 236 211
-0.238963 -0.487315 -0.203094 64 236 211
-0.139092 -0.487505 -0.195048 64 236 211
-0.18501 -0.487552 -0.264019 64 236 211
-0.274239 -0.486653 0.15312 64 236 211
-0.0307288 -0.48763 -0.14282 64 236 211
0.0474644 -0.487458 0.001048 64 236 211
0.260694 -0.48756 -0.0402992 64 236 211
-0.0383647 -0.487597 -0.131623 64 236 211
0.245389 -0.487619 -0.139355 64 236 211
-0.0693307 -0.486882 0.198113 64 236 211
-0.0382434 -0.4876 -0.133368 64 236 211
0.0370974 -0.487569 -0.0726573 64 236 211
-0.11751 -0.487692 -0.268287 64 236 211
0.117942 -0.487645 -0.0923399 64 236 211
-0.0302768 -0.487672 -0.17665 64 236 211
0.284215 -0.487508 -0.000700816 64 236 211
0.0744045 -0.487661 -0.225082 64 236 211
0.0927142 -0.48768 -0.295653 64 236 211
-0.0264061 -0.487343 0.0115548 64 236 211
-0.103989 -0.48773 -0.280395 64 236 211
-0.0702777 -0.487619 -0.186151 64 236 211
-0.0302158 -0.487276 0.214611 64 236 211
0.0973061 -0.487682 -0.279276 64 236 211
-0.251159 -0.487091 -0.0882773 64 236 211
-0.0347149 -0.487674 -0.270087 64 236 211
-0.259025 -0.486708 0.148551 64 236 211
-0.114183 -0.487212 0.0313862 64 236 211
-0.145612 -0.487648 -0.334255 64 236 211
-0.222227 -0.486878 0.083614 64 236 211
-0.152834 -0.486774 0.206816 64 236 211
-0.271797 -0.486994 -0.0190578 64 236 211
-0.0825103 -0.487807 -0.317311 64 236 211
0.155029 -0.487722 -0.266499 64 236 211
-0.0698972 -0.487387 -0.0190217 64 236 211
-0.268562 -0.486628 0.171522 64 236 211
0.110808 -0.487461 0.0811823 64 236 211
-0.0719375 -0.487829 -0.328722 64 236 211
-0.0753189 -0.487592 -0.174818 64 236 211
-0.182883 -0.48679 0.165862 64 236 211
0.192925 -0.487638 -0.239409 64 236 211
-0.0769353 -0.487827 -0.328002 64 236 211
-0.198083 -0.487146 0.00214982 64 236 211
-0.0400644 -0.486996 0.169221 64 236 211
-0.320301 -0.487063 -0.154417 64 236 211
0.0563403 -0.487658 -0.223383 64 236 211
-0.0851177 -0.487573 -0.176648 64 236 211
-0.0321471 -0.487787 -0.337792 64 236 211
-0.0445439 -0.487752 -0.309405 64 236 211
0.250962 -0.487585 -0.216817 64 236 211
-0.228218 -0.486971 0.0450402 64 236 211
0.0385292 -0.487676 -0.330374 64 236 211
-0.195897 -0.487194 -0.0445403 64 236 211
-0.276751 -0.486549 0.196204 64 236 211
-0.165002 -0.487306 -0.0677625 64 236 211
-0.087527 -0.487433 -0.0571526 64 236 211
-0.420648 -0.486571 0.0319009 64 236 211
0.106643 -0.488283 0.220594 64 236 211
0.177634 -0.487541 -0.00916072 64 236 211
0.208754 -0.487599 -0.204792 64 236 211
0.163612 -0.48765 -0.135212 64 236 211
-0.209002 -0.487348 -0.191881 64 236 211
0.0740675 -0.488543 0.286947 64 236 211
-0.218519 -0.486875 0.0875406 64 236 211
0.117792 -0.487543 -0.0102724 64 236 211
0.0150956 -0.487661 -0.185721 64 236 211
-0.104881 -0.487705 -0.267757 64 236 211
-0.168337 -0.487634 -0.323117 64 236 211
-0.0339238 -0.487547 -0.0915778 64 236 211
-0.102997 -0.487008 0.139119 64 236 211
-0.277671 -0.486842 0.0490273 64 236 211
0.00872301 -0.487561 -0.075312 64 236 211
-0.109992 -0.487624 -0.36435 64 236 211
-0.16291 -0.487448 -0.183933 64 236 211
0.0192919 -0.487676 -0.31908 64 236 211
-0.0814192 -0.487793 -0.312046 64 236 211
-0.0299679 -0.487563 -0.100751 64 236 211
0.170864 -0.488284 0.170394 64 236 211
0.120268 -0.487695 -0.158654 64 236 211
-0.165068 -0.487343 -0.0989084 64 236 211
-0.244076 -0.486929 0.0477879 64 236 211
0.0428096 -0.487174 0.149426 64 236 211
0.211862 -0.487509 0.0509837 64 236 211
-0.309647 -0.487141 -0.187645 64 236 211
-0.14381 -0.487009 0.103652 64 236 211
0.229861 -0.487381 0.10971 64 236 211
-0.0991035 -0.487675 -0.249694 64 236 211
0.0506798 -0.48766 -0.216362 64 236 211
-0.276769 -0.486759 0.0815142 64 236 211
-0.000411352 -0.487762 -0.366897 64 236 211
0.189147 -0.488939 0.269442 64 236 211
-0.315559 -0.486983 -0.100585 64 236 211
-0.312226 -0.486807 0.0259934 64 236 211
-0.0804742 -0.487307 0.00455765 64 236 211
-0.103837 -0.487679 -0.254678 64 236 211
0.02614 -0.487686 -0.32902 64 236 211
0.106295 -0.487575 -0.0410968 64 236 211
-0.223621 -0.487441 -0.280158 64 236 211
-0.201325 -0.487473 -0.228336 96 250 196
-0.301763 -0.487538 -0.244133 96 250 196
0.0860412 -0.48672 0.250547 96 250 196
-0.285165 -0.487567 -0.260483 96 250 196
0.356815 -0.486848 0.0363777 96 250 196
0.376704 -0.486868 -0.0179955 96 250 196
0.316295 -0.486904 -0.109513 96 250 196
0.316147 -0.486528 0.451013 96 250 196
0.406773 -0.29335 0.00145226 96 250 196
-0.325262 -0.487259 0.0546281 96 250 196
0.412783 -0.445825 0.363236 96 250 196
0.407051 -0.24309 0.0376994 96 250 196
0.346235 -0.486736 0.350986 96 250 196
0.402035 -0.486769 0.340526 96 250 196
0.40425 -0.400549 0.0196302 96 250 196
0.399085 -0.486828 0.174115 96 250 196
0.366702 -0.487081 -0.150808 96 250 196
0.408941 -0.486787 0.361797 96 250 196
0.407046 -0.422757 -0.0714122 96 250 196
-0.0622364 -0.487091 -0.0695494 96 250 196
-0.354002 -0.487175 0.295207 96 250 196
0.327325 -0.487071 -0.207037 96 250 196
0.0876582 -0.487145 -0.1768 96 250 196
-0.0603877 -0.487642 -0.358927 96 250 196
0.418776 -0.301608 -0.068032 96 250 196
0.014698 -0.487416 -0.328952 96 250 196
-0.169744 -0.487177 -0.0775169 96 250 196
0.170593 -0.486499 0.442223 96 250 196
0.406574 -0.47917 0.479895 96 250 196
0.417969 -0.372181 0.451027 96 250 196
0.421204 -0.256011 0.43158 96 250 196
0.274677 -0.487047 -0.229882 96 250 196
0.289467 -0.48679 0.0531493 96 250 196
0.0472755 -0.487064 -0.0985371 96 250 196
0.414443 -0.336257 0.161128 96 250 196
0.398689 -0.487106 -0.128978 96 250 196
0.412512 -0.426256 0.378435 96 250 196
0.417955 -0.474682 0.241408 96 250 196
0.251447 -0.48695 -0.216194 96 250 196
0.40133 -0.44805 -0.043047 96 250 196
0.228326 -0.486967 -0.225612 96 250 196
-0.0348428 -0.487327 -0.220346 96 250 196
-0.0272013 -0.487654 -0.38087 96 250 196
0.408449 -0.486923 0.0988741 96 250 196
0.421993 -0.260021 0.298167 96 250 196
0.0427251 -0.486876 0.0273948 96 250 196
0.411899 -0.187313 0.117548 96 250 196
0.240219 -0.486974 -0.232966 96 250 196
0.414374 -0.298402 -0.0398932 96 250 196
0.39646 -0.486855 0.0949904 96 250 196
-0.239087 -0.487408 -0.187754 96 250 196
0.420551 -0.178637 0.374601 96 250 196
0.21295 -0.487029 -0.262491 96 250 196
0.236635 -0.486961 -0.221407 96 250 196
0.387233 -0.48678 0.280619 96 250 196
0.419642 -0.237644 -0.0714318 96 250 196
0.349605 -0.486766 0.114191 96 250 196
-0.301362 -0.487325 -0.109438 96 250 196
0.228275 -0.486682 0.198957 96 250 196
0.411388 -0.486592 0.00701991 96 250 196
0.306618 -0.486994 -0.190538 96 250 196
0.41918 -0.196614 -0.0397905 96 250 196
0.417428 -0.329882 -0.0617751 96 250 196
0.40716 -0.314955 -0.0170237 96 250 196
-0.12233 -0.487157 -0.0881348 96 250 196
-0.323438 -0.487498 -0.241529 96 250 196
-0.0462845 -0.486966 0.373051 96 250 196
0.30197 -0.486978 -0.188416 96 250 196
0.230578 -0.48697 -0.237058 96 250 196
0.404372 -0.486962 -0.0366372 96 250 196
0.341763 -0.48687 -0.00137803 96 250 196
0.41612 -0.340743 -0.0770114 96 250 196
0.102828 -0.487308 -0.350541 96 250 196
0.353976 -0.487066 -0.156343 96 250 196
0.411957 -0.480719 0.376358 96 250 196
0.423275 -0.226784 0.257944 96 250 196
-0.192865 -0.487555 -0.284783 96 250 196
0.200717 -0.487003 -0.259363 96 250 196
0.392584 -0.486874 0.0435497 96 250 196
0.358738 -0.486842 0.0443763 96 250 196
-0.360723 -0.48722 0.193119 96 250 196
0.358159 -0.48707 -0.144143 96 250 196
0.349304 -0.486743 0.161464 96 250 196
0.412125 -0.0613158 0.193042 96 250 196
0.422341 -0.134424 0.306708 96 250 196
-0.151805 -0.487104 0.434728 96 250 196
0.100771 -0.486562 0.424051 96 250 196
0.343579 -0.486894 -0.08423 96 250 196
0.0466278 -0.487471 -0.385327 96 250 196
0.41352 -0.277086 -0.0303021 96 250 196
-0.184146 -0.487191 -0.0764163 96 250 196
-0.0253618 -0.486863 0.11213 96 250 196
0.00106499 -0.487174 -0.157274 96 250 196
0.384412 -0.486819 0.137237 96 250 196
0.144427 -0.486462 0.461697 96 250 196
-0.312147 -0.487237 0.0851329 96 250 196
0.0329624 -0.487448 -0.36556 96 250 196
-0.123194 -0.486973 0.0643467 96 250 196
0.15785 -0.487156 -0.224911 96 250 196
0.0628245 -0.486564 0.237055 96 250 196
0.408859 -0.411502 0.159804 96 250 196
0.380743 -0.486947 -0.0462392 96 250 196
0.412259 -0.486811 0.281281 96 250 196
0.404594 -0.445622 -0.0788877 96 250 196
0.38992 -0.486896 0.0164201 96 250 196
0.410125 -0.381133 0.0885373 96 250 196
0.408396 -0.418726 0.197345 96 250 196
0.421097 -0.0704298 0.406452 96 250 196
0.390807 -0.487109 -0.171607 96 250 196
0.201456 -0.487039 -0.237052 96 250 196
0.349592 -0.487058 -0.157815 96 250 196
0.24002 -0.486911 -0.0567339 96 250 196
-0.0556414 -0.487554 -0.34805 96 250 196
-0.0526779 -0.487472 -0.292369 96 250 196
-0.346929 -0.487236 0.178134 96 250 196
0.18975 -0.487027 -0.267769 96 250 196
0.150943 -0.487164 -0.316238 96 250 196
0.307539 -0.486864 -0.023109 96 250 196
0.415102 -0.393063 0.373204 96 250 196
-0.197817 -0.487506 -0.248289 96 250 196
0.275732 -0.487026 -0.219559 96 250 196
-0.0853924 -0.487563 -0.336255 96 250 196
-0.198162 -0.487089 0.425548 96 250 196
-0.118269 -0.486771 0.396733 96 250 196
0.217339 -0.487062 -0.187719 96 250 196
0.279055 -0.486575 0.420828 96 250 196
0.41032 -0.147797 0.0865197 96 250 196
0.250481 -0.486675 0.256111 96 250 196
0.335944 -0.486905 -0.101285 96 250 196
0.420206 -0.0873404 0.416486 96 250 196
0.311523 -0.486908 -0.113866 96 250 196
0.422908 -0.247607 0.300961 96 250 196
0.00546363 -0.487579 -0.395286 96 250 196
0.103564 -0.487237 -0.315343 96 250 196
-0.158067 -0.487018 0.0639784 96 250 196
0.35369 -0.487009 -0.129079 96 250 196
-0.366919 -0.487153 0.33676 96 250 196
0.413964 -0.359412 0.257822 96 250 196
0.233096 -0.486568 0.397934 96 250 196
0.410674 -0.353512 -0.115552 96 250 196
0.408935 -0.210475 0.0826125 96 250 196
0.240451 -0.487023 -0.246174 96 250 196
0.297254 -0.486703 0.178317 96 250 196
0.411181 -0.398165 -0.095065 96 250 196
0.403564 -0.461174 -0.0940466 96 250 196
0.314838 -0.486903 -0.0527081 96 250 196
0.340929 -0.484473 0.476434 96 250 196
-0.32237 -0.487491 -0.233252 96 250 196
-0.257808 -0.487007 0.383325 96 250 196
-0.291173 -0.48754 -0.222093 96 250 196
0.313104 -0.487043 -0.19492 96 250 196
0.292836 -0.486923 -0.138324 96 250 196
0.419033 -0.427354 0.451686 96 250 196
-0.237788 -0.487496 -0.226986 96 250 196
0.410823 -0.401116 0.22051 96 250 196
-0.0517983 -0.487396 -0.24975 96 250 196
0.00748258 -0.487328 -0.244296 96 250 196
0.21704 -0.486958 -0.0863472 96 250 196
0.273311 -0.486678 0.298484 96 250 196
-0.227257 -0.487271 0.390261 96 250 196
0.362852 -0.487083 -0.146502 96 250 196
0.406872 -0.486725 0.430326 96 250 196
0.0494792 -0.486555 0.437631 96 250 196
0.238788 -0.487031 -0.248712 96 250 196
0.405801 -0.467509 -0.0358236 96 250 196
0.417782 -0.256306 0.390789 96 250 196
0.343155 -0.48673 0.183388 96 250 196
0.420514 -0.107903 0.254927 96 250 196
0.375878 -0.487109 -0.130695 96 250 196
0.419944 -0.240843 0.429593 96 250 196
-0.30469 -0.487547 -0.255114 96 250 196
-0.237249 -0.487223 0.301269 96 250 196
-0.32622 -0.487468 -0.194457 96 250 196
-0.327865 -0.487369 -0.130371 96 250 196
-0.326689 -0.487468 -0.213859 96 250 196
0.312602 -0.486707 0.268944 96 250 196
0.224786 -0.487022 -0.154433 96 250 196
0.343759 -0.486912 -0.0887879 96 250 196
0.15295 -0.487159 -0.260199 96 250 196
0.186902 -0.487038 -0.148915 96 250 196
0.326659 -0.487004 -0.164721 96 250 196
0.250529 -0.486666 0.293781 96 250 196
0.309319 -0.486772 0.0847572 96 250 196
-0.0945827 -0.487208 -0.131746 96 250 196
-0.330794 -0.487402 -0.146641 96 250 196
0.177399 -0.487091 -0.193528 96 250 196
0.416469 -0.332775 0.27357 96 250 196
0.363028 -0.486609 0.450002 96 250 196
0.387388 -0.487117 -0.123419 96 250 196
0.41048 -0.48687 0.17294 96 250 196
0.412428 -0.43713 0.367425 96 250 196
0.32166 -0.486926 -0.131179 96 250 196
0.30989 -0.486985 -0.180705 96 250 196
-0.248266 -0.487024 0.294895 96 250 196
0.0488936 -0.487402 -0.358971 96 250 196
0.340517 -0.487012 -0.147674 96 250 196
0.200149 -0.487094 -0.295654 96 250 196
0.41183 -0.161267 0.114532 96 250 196
-0.262116 -0.487268 -0.0681552 96 250 196
0.422534 -0.109087 0.36498 96 250 196
0.334712 -0.486761 0.110384 96 250 196
0.417095 -0.167666 0.195622 96 250 196
-0.141553 -0.486824 0.374276 96 250 196
0.406289 -0.486885 0.120789 96 250 196
0.25621 -0.486994 -0.165164 96 250 196
0.342013 -0.486875 -0.0630828 96 250 196
0.14039 -0.487253 -0.363476 96 250 196
0.41802 -0.481393 0.229968 96 250 196
0.244408 -0.487039 -0.246008 96 250 196
-6.84001e-05 -0.487362 -0.25972 96 250 196
0.254068 -0.486942 -0.198958 96 250 196
0.415323 -0.293456 0.140946 96 250 196
0.405869 -0.486786 0.284245 96 250 196
-0.275398 -0.485308 -0.289673 96 250 196
-0.175427 -0.487466 -0.231295 96 250 196
0.414884 -0.395916 0.376976 96 250 196
-0.00893665 -0.487361 -0.253591 96 250 196
0.095712 -0.487247 -0.316401 96 250 196
0.41605 -0.463748 0.200023 96 250 196
-0.0262836 -0.487462 -0.318967 96 250 196
-0.0919068 -0.486869 0.195655 96 250 196
0.280566 -0.486923 -0.185661 96 250 196
-0.204773 -0.487275 -0.130535 96 250 196
-0.291359 -0.487539 -0.221791 96 250 196
0.419309 -0.27485 0.388624 96 250 196
0.107708 -0.486889 -0.0111308 96 250 196
-0.254089 -0.485332 -0.298147 96 250 196
0.0860263 -0.487458 -0.409056 96 250 196
0.389527 -0.4871 -0.13328 96 250 196
0.27574 -0.486924 -0.182256 96 250 196
0.204336 -0.487101 -0.300724 96 250 196
-0.13846 -0.487163 -0.0856181 96 250 196
0.403605 -0.486804 0.247135 96 250 196
-0.226924 -0.487558 -0.26722 96 250 196
0.395667 -0.486838 0.153503 96 250 196
0.396426 -0.486861 0.0688758 96 250 196
0.191577 -0.486717 0.15226 96 250 196
0.033057 -0.487528 -0.398041 96 250 196
-0.182169 -0.487248 -0.122253 96 250 196
0.115004 -0.48664 0.343397 96 250 196
0.332341 -0.486937 -0.123614 96 250 196
0.419246 -0.197101 -0.0334106 96 250 196
-0.118846 -0.487474 -0.259863 96 250 196
0.127905 -0.486567 0.407995 96 250 196
0.412796 -0.275964 0.106131 96 250 196
-0.268166 -0.487372 -0.164111 96 250 196
0.407131 -0.442738 0.0233521 96 250 196
0.378992 -0.487102 -0.17973 96 250 196
0.178196 -0.487057 -0.160681 96 250 196
0.420734 -0.06584 0.292674 96 250 196
0.344162 -0.486876 -0.00302859 96 250 196
0.377018 -0.487036 -0.100847 96 250 196
0.418757 -0.301824 0.298548 96 250 196
0.31303 -0.486765 0.096761 96 250 196
0.411711 -0.132281 0.0165554 96 250 196
0.42072 -0.132373 0.254043 96 250 196
0.42063 -0.256509 -0.0630718 96 250 196
0.394469 -0.486835 0.161751 96 250 196
0.203687 -0.487106 -0.30876 96 250 196
0.387245 -0.486965 -0.0522584 96 250 196
0.419988 -0.271439 -0.066083 96 250 196
0.418854 -0.355944 0.380059 96 250 196
-0.323708 -0.487477 -0.218039 96 250 196
-0.036814 -0.487599 -0.365228 96 250 196
0.412994 -0.432592 0.241971 96 250 196
-0.269626 -0.487166 0.0998226 96 250 196
-0.314092 -0.487462 -0.185241 96 250 196
0.248786 -0.486944 -0.0872561 96 250 196
-0.199284 -0.487306 -0.319026 96 250 196
-0.190049 -0.486841 0.426141 96 250 196
-0.224056 -0.486968 0.351595 96 250 196
0.401288 -0.486944 0.0186982 96 250 196
-0.0669406 -0.487049 -0.0425028 96 250 196
0.372041 -0.48673 0.387421 96 250 196
0.414214 -0.471647 0.144473 96 250 196
0.407672 -0.405136 -0.113376 96 250 196
0.379202 -0.48686 0.00442005 96 250 196
0.379369 -0.487102 -0.177743 96 250 196
0.407446 -0.335972 0.0332041 96 250 196
0.415022 -0.346796 0.274478 96 250 196
0.413358 -0.341952 -0.0940939 96 250 196
0.41912 -0.190784 -0.034161 96 250 196
0.0239651 -0.48726 -0.215225 96 250 196
0.00797293 -0.487514 -0.375223 96 250 196
-0.0297214 -0.48687 0.105914 96 250 196
-0.134623 -0.487288 -0.157048 96 250 196
0.28224 -0.486493 0.445932 96 250 196
0.422884 -0.0727508 0.355911 96 250 196
-0.177771 -0.487203 0.355156 96 250 196
-0.201745 -0.487488 -0.236733 96 250 196
0.327684 -0.487058 -0.187232 96 250 196
-0.270052 -0.487577 -0.261341 96 250 196
-0.281725 -0.48745 -0.189948 96 250 196
0.212219 -0.487077 -0.277256 96 250 196
-0.31933 -0.48729 -0.0480031 96 250 196
-0.228521 -0.487082 0.124735 96 250 196
0.289294 -0.486779 0.06494 96 250 196
-0.0596566 -0.487554 -0.346123 96 250 196
0.335667 -0.486885 -0.0814395 96 250 196
-0.0686757 -0.486793 0.290619 96 250 196
0.378819 -0.487016 -0.0931566 96 250 196
0.370631 -0.486968 -0.0908466 96 250 196
0.348847 -0.487072 -0.169686 96 250 196
0.402454 -0.432748 0.00232701 96 250 196
0.178524 -0.486621 0.336935 96 250 196
0.0359749 -0.486851 0.0551433 96 250 196
0.410903 -0.345458 0.0754888 96 250 196
0.285131 -0.486607 0.403908 96 250 196
-0.285693 -0.48744 -0.185973 96 250 196
0.413262 -0.161324 0.14142 96 250 196
-0.343781 -0.487385 0.386259 96 250 196
0.0699282 -0.48741 -0.377428 96 250 196
0.0427969 -0.487515 -0.400869 96 250 196
0.408302 -0.434483 -0.103703 96 250 196
0.414814 -0.393239 0.365136 96 250 196
0.422043 -0.0956084 0.317616 96 250 196
0.369418 -0.487087 -0.175041 96 250 196
-0.147007 -0.487554 -0.307743 96 250 196
0.392662 -0.486856 0.0432859 96 250 196
0.0760399 -0.485291 0.474369 96 250 196
0.309675 -0.486602 0.431115 96 250 196
0.364135 -0.486715 0.402486 96 250 196
-0.144854 -0.487527 -0.273793 96 250 196
0.22608 -0.487009 -0.143739 96 250 196
0.3362 -0.486883 -0.0667174 96 250 196
0.0229979 -0.486955 -0.015452 96 250 196
0.0284381 -0.48737 -0.313112 96 250 196
0.407015 -0.486953 -0.0289615 96 250 196
0.283586 -0.486957 -0.201142 96 250 196
-0.304909 -0.487528 -0.233458 96 250 196
0.418098 -0.365165 0.38885 96 250 196
0.213838 -0.486698 0.174451 96 250 196
0.0128873 -0.486573 0.444756 96 250 196
-0.20953 -0.48757 -0.289984 96 250 196
-0.0470258 -0.486865 0.134814 96 250 196
0.0838268 -0.486804 0.0733404 96 250 196
0.41822 -0.358759 0.369587 96 250 196
0.0679916 -0.487232 -0.218084 96 250 196
-0.29077 -0.487335 -0.137172 96 250 196
0.403342 -0.419314 0.0134269 96 250 196
0.213527 -0.486918 -0.0552934 96 250 196
0.412218 -0.285759 0.0970471 96 250 196
-0.232449 -0.487594 -0.294237 96 250 196
0.163157 -0.487124 -0.275002 96 250 196
0.258688 -0.486944 -0.211603 96 250 196
-0.147539 -0.487121 -0.0475586 96 250 196
0.41538 -0.365202 0.4398 96 250 196
0.240681 -0.486562 0.404448 96 250 196
0.283805 -0.487008 -0.210355 96 250 196
0.268527 -0.486721 0.133806 96 250 196
0.343783 -0.48681 0.0575871 96 250 196
0.258996 -0.486997 -0.22754 96 250 196
0.0553632 -0.486684 0.328419 96 250 196
0.407014 -0.285918 -0.00422709 96 250 196
0.285023 -0.486945 -0.190305 96 250 196
0.338363 -0.487039 -0.169827 96 250 196
0.0323502 -0.486608 0.412871 96 250 196
0.416474 -0.437004 0.436237 96 250 196
0.203396 -0.487076 -0.281408 96 250 196
0.218693 -0.487031 -0.159238 96 250 196
-0.36587 -0.487337 -0.102472 96 250 196
0.322667 -0.486722 0.156179 96 250 196
0.330492 -0.487076 -0.213937 96 250 196
-0.275853 -0.487591 -0.281225 96 250 196
0.410325 -0.468082 0.458671 96 250 196
0.378554 -0.48697 -0.0739742 96 250 196
0.134044 -0.487259 -0.35582 96 250 196
0.403473 -0.470249 -0.0525121 96 250 196
-0.402404 -0.487145 0.321555 96 250 196
-0.0502824 -0.487474 -0.298825 96 250 196
0.410839 -0.476487 0.0986414 96 250 196
0.414173 -0.397063 0.347537 96 250 196
0.413951 -0.31203 -0.103189 96 250 196
0.416391 -0.478266 0.165649 96 250 196
0.394814 -0.48666 0.446774 96 250 196
0.0055573 -0.487402 -0.297164 96 250 196
0.402548 -0.466896 -0.0898754 96 250 196
0.406577 -0.329862 -0.0187232 96 250 196
0.142457 -0.486704 0.227547 96 250 196
0.41274 -0.400208 0.410489 96 250 196
0.374578 -0.487012 -0.0985962 96 250 196
0.252112 -0.486969 -0.225747 96 250 196
0.321765 -0.486691 0.375656 96 250 196
0.299821 -0.48669 0.323789 96 250 196
-0.347258 -0.48738 -0.139189 96 250 196
0.402587 -0.414291 -0.0237053 96 250 196
0.413761 -0.386875 0.42273 96 250 196
0.421667 -0.314478 0.417216 96 250 196
0.417685 -0.375092 0.449269 96 250 196
-0.138356 -0.48765 -0.335788 96 250 196
0.417363 -0.301744 -0.078163 96 250 196
-0.0451388 -0.487472 -0.303406 96 250 196
0.418143 -0.361173 0.418443 96 250 196
-0.0105007 -0.486811 0.172132 96 250 196
0.190755 -0.487111 -0.322765 96 250 196
0.411712 -0.472603 0.422355 96 250 196
-0.0944039 -0.487243 -0.150024 96 250 196
0.280334 -0.486663 0.342416 96 250 196
0.176036 -0.486695 0.214193 96 250 196
-0.336825 -0.487439 -0.197852 96 250 196
0.413996 -0.447006 0.407426 96 250 196
-0.00232163 -0.486757 0.273638 96 250 196
0.285457 -0.486693 0.202242 96 250 196
0.415192 -0.223704 0.144623 96 250 196
0.408597 -0.436749 0.104266 96 250 196
0.409 -0.391047 0.0816403 96 250 196
0.408763 -0.251288 0.0707608 96 250 196
-0.0131012 -0.48753 -0.363534 96 250 196
0.084421 -0.487315 -0.343227 96 250 196
0.40654 -0.421567 0.137032 96 250 196
-0.213306 -0.487249 -0.102297 96 250 196
0.417996 -0.234416 -0.0282257 96 250 196
-0.140779 -0.486957 0.135648 96 250 196
0.416623 -0.429596 0.432512 96 250 196
-0.273948 -0.487566 -0.246613 96 250 196
0.265567 -0.486942 -0.0979178 96 250 196
0.00634911 -0.487419 -0.312062 96 250 196
-0.23617 -0.48729 -0.122549 96 250 196
0.362638 -0.486696 0.421618 96 250 196
0.0838625 -0.486497 0.459472 96 250 196
-0.178172 -0.486979 0.194121 96 250 196
0.419362 -0.355459 0.461797 96 250 196
0.347631 -0.487074 -0.183101 96 250 196
0.408822 -0.366141 0.0595794 96 250 196
0.19186 -0.486537 0.421905 96 250 196
-0.160341 -0.487639 -0.327773 96 250 196
0.343311 -0.486856 0.0111893 96 250 196
0.414834 -0.302359 -0.0969803 96 250 196
-0.143784 -0.487535 -0.294436 96 250 196
-0.00861103 -0.487501 -0.358705 96 250 196
0.390976 -0.487119 -0.0984643 96 250 196
0.408915 -0.486861 0.173928 96 250 196
-0.363224 -0.487348 -0.0646089 96 250 196
0.413219 -0.435501 0.385709 96 250 196
0.403863 -0.386523 -0.00582552 96 250 196
0.422312 -0.145841 0.277366 96 250 196
0.232257 -0.486611 0.361757 96 250 196
-0.0555177 -0.487405 -0.253258 96 250 196
-0.332124 -0.487454 -0.214042 96 250 196
0.154677 -0.486793 0.0376604 96 250 196
0.415504 -0.355525 0.292722 96 250 196
0.259026 -0.486966 -0.221255 96 250 196
0.413246 -0.446773 0.351579 96 250 196
-0.366165 -0.487306 0.0248192 96 250 196
0.418251 -0.17104 0.415782 96 250 196
0.355334 -0.48687 -0.0378812 96 250 196
0.0823081 -0.487442 -0.399369 96 250 196
-0.182207 -0.487636 -0.321038 96 250 196
0.400998 -0.486718 0.424839 96 250 196
0.412666 -0.486812 0.311934 96 250 196
0.416073 -0.298593 0.15128 96 250 196
-0.198663 -0.487616 -0.310408 96 250 196
-0.273426 -0.487042 0.378708 96 250 196
0.422274 -0.092219 0.337478 96 250 196
0.395915 -0.487109 -0.0877067 96 250 196
-0.354852 -0.487197 0.252397 96 250 196
-0.34311 -0.48742 -0.192102 96 250 196
0.0967362 -0.487392 -0.389775 96 250 196
0.35836 -0.486731 0.390644 96 250 196
-0.363315 -0.487355 -0.116002 96 250 196
0.16311 -0.486939 -0.0554074 96 250 196
0.414792 -0.386029 0.288184 96 250 196
0.311218 -0.486909 -0.118959 96 250 196
0.415268 -0.46202 0.325117 96 250 196
0.3586 -0.486753 0.307807 96 250 196
0.422641 -0.0830438 0.375868 96 250 196
-0.0205537 -0.486921 0.413104 96 250 196
0.405605 -0.480206 0.460074 96 250 196
0.410322 -0.137219 0.0581112 96 250 196
0.417741 -0.260038 -0.0860688 96 250 196
0.186711 -0.487095 -0.24676 96 250 196
-0.321453 -0.487489 -0.228624 96 250 196
0.408582 -0.437326 0.109339 96 250 196
0.415881 -0.467312 0.184087 96 250 196
0.411755 -0.348279 0.0877547 96 250 196
-0.175353 -0.487647 -0.326077 96 250 196
0.413707 -0.421162 0.401337 96 250 196
0.215739 -0.48705 -0.175547 96 250 196
0.412506 -0.151054 0.126221 96 250 196
0.40876 -0.486788 0.348531 96 250 196
0.407115 -0.270199 -0.00392064 96 250 196
