ply
format ascii 1.0
comment Created by Open3D
element vertex 1176
property double x
property double y
property double z
property uchar red
property uchar green
property uchar blue
end_header
0.117849 -0.243994 -0.213899 224 210 119
0.0894375 -0.0454821 -0.220193 224 210 119
-0.264797 -0.293131 -0.166275 224 210 119
-0.257804 -0.0886843 -0.0380404 224 210 119
-0.260792 -0.109688 -0.0935592 224 210 119
0.0575274 -0.0409529 -0.21885 224 210 119
-0.263478 -0.0300102 -0.170722 224 210 119
-0.259012 -0.362209 0.00344037 224 210 119
-0.259258 -0.141011 0.0329247 224 210 119
-0.263374 -0.0248868 -0.137297 224 210 119
-0.264548 -0.100807 -0.177266 224 210 119
-0.00732242 -0.00180059 -0.214306 224 210 119
-0.272556 -0.0908173 -0.178816 224 210 119
-0.0935967 -0.18122 -0.217107 224 210 119
0.0104714 -0.0254945 -0.214976 224 210 119
-0.264997 -0.19601 -0.160075 224 210 119
-0.26183 -0.157457 -0.189179 224 210 119
0.171892 -0.0966937 -0.220584 224 210 119
-0.269101 -0.0639475 -0.166478 224 210 119
-0.257493 -0.098531 -0.0276522 224 210 119
-0.00498046 -0.092535 -0.214896 224 210 119
-0.0998898 -0.331735 -0.21242 224 210 119
-0.26138 -0.0463847 -0.054525 224 210 119
-0.101725 -0.33561 -0.212267 224 210 119
-0.264808 -0.255563 -0.169388 224 210 119
-0.227266 -0.338024 -0.210109 224 210 119
-0.0835708 -0.0950966 -0.216734 224 210 119
0.0611636 -0.0312799 -0.219503 224 210 119
-0.26414 -0.196663 -0.155919 224 210 119
0.0362447 -0.271431 -0.211448 224 210 119
-0.262642 -0.0876093 -0.159386 224 210 119
-0.261609 -0.342282 0.107744 224 210 119
-0.206044 -0.110177 -0.218918 224 210 119
-0.265492 -0.267805 -0.154832 224 210 119
-0.264005 -0.280144 -0.175894 224 210 119
0.0853999 -0.191513 -0.216338 224 210 119
0.0337565 -0.225168 -0.212097 224 210 119
-0.223314 -0.328822 -0.210735 224 210 119
0.0307667 -0.130368 -0.215281 224 210 119
0.0751807 -0.0534679 -0.219803 224 210 119
-0.100505 -0.369786 -0.211357 224 210 119
-0.185724 -0.208411 -0.216211 224 210 119
0.212878 -0.130956 -0.220648 224 210 119
-0.0142062 -0.142472 -0.215477 224 210 119
-0.260352 -0.244629 0.0382399 224 210 119
-0.241087 -0.349695 -0.207733 224 210 119
0.101052 -0.304942 -0.210752 224 210 119
-0.138435 -0.231348 -0.216204 224 210 119
-0.262002 -0.315627 -0.182683 224 210 119
-0.240413 -0.231303 -0.210889 224 210 119
-0.224799 -0.217186 -0.21593 224 210 119
0.0793832 -0.331809 -0.209989 224 210 119
0.052497 -0.177943 -0.215867 224 210 119
0.0846932 -0.0134344 -0.22206 224 210 119
-0.262623 -0.33507 0.146647 224 210 119
-0.257129 -0.0864543 0.0363312 224 210 119
0.014134 -0.0718139 -0.214287 224 210 119
0.0381358 -0.135051 -0.215648 224 210 119
-0.247467 -0.147914 -0.205108 224 210 119
-0.262536 -0.0702359 -0.168168 224 210 119
-0.242875 -0.394317 -0.207028 224 210 119
-0.259137 -0.415843 -0.197328 224 210 119
-0.012425 -0.250838 -0.212923 224 210 119
-0.145707 -0.338673 -0.21012 224 210 119
0.166721 -0.100726 -0.220558 224 210 119
0.16262 -0.203373 -0.216165 224 210 119
-0.280128 -0.120582 -0.0852149 224 210 119
-0.265101 -0.217525 -0.167803 224 210 119
-0.0587364 -0.349964 -0.212864 224 210 119
-0.0453324 -0.127659 -0.216076 224 210 119
-0.259054 -0.164394 0.00752897 224 210 119
-0.20629 -0.122366 -0.215394 224 210 119
-0.261339 -0.256862 0.0936622 224 210 119
-0.263552 -0.421748 -0.10472 224 210 119
-0.0317833 -0.122322 -0.215726 224 210 119
-0.25905 -0.158603 0.0115914 224 210 119
-0.00351131 -0.0828993 -0.214649 224 210 119
0.0168281 -0.17799 -0.214823 224 210 119
0.0270036 -0.0333064 -0.215693 224 210 119
-0.258239 -0.15531 0.13284 224 210 119
-0.0694009 -0.128984 -0.21638 224 210 119
-0.0901996 -0.387075 -0.211283 224 210 119
-0.119889 -0.0877125 -0.217157 224 210 119
0.202079 -0.26801 -0.21598 224 210 119
-0.265567 -0.277319 -0.0526142 224 210 119
-0.153964 -0.0313718 -0.216996 224 210 119
-0.250393 -0.240651 -0.203591 224 210 119
-0.127502 -0.159984 -0.216772 224 210 119
0.224577 -0.384618 -0.217414 224 210 119
-0.22075 -0.0788369 -0.215218 224 210 119
-0.280793 -0.10259 -0.12566 224 210 119
-0.257289 -0.0985478 0.0761812 224 210 119
-0.260512 -0.283929 -0.0409867 224 210 119
-0.0370006 -0.0201789 -0.215328 224 210 119
-0.196775 -0.319025 -0.211394 224 210 119
0.0507341 -0.149531 -0.216287 224 210 119
-0.270147 -0.232528 -0.0923097 224 210 119
-0.262113 -0.393808 -0.184781 224 210 119
-0.0305373 -0.0757253 -0.215036 224 210 119
-0.258216 -0.229999 -0.195591 224 210 119
-0.0390997 -0.224989 -0.214687 224 210 119
-0.137743 -0.197543 -0.217062 224 210 119
0.176189 -0.3119 -0.214688 224 210 119
-0.257217 -0.0799346 -0.0186838 224 210 119
-0.195295 -0.308947 -0.211928 224 210 119
-0.26422 -0.249164 -0.174867 224 210 119
-0.17079 -0.310467 -0.212252 224 210 119
-0.231761 -0.225302 -0.214452 224 210 119
-0.158763 -0.381976 -0.20836 224 210 119
0.0363416 -0.330155 -0.211707 224 210 119
-0.0955042 -0.00546028 -0.213777 224 210 119
-0.0871448 -0.162114 -0.216905 224 210 119
-0.184696 -0.229939 -0.215646 224 210 119
-0.0634698 -0.360804 -0.212748 224 210 119
-0.137577 -0.419502 -0.208544 224 210 119
-0.265526 -0.210805 -0.157211 224 210 119
-0.107211 -0.207006 -0.216959 224 210 119
-0.157444 -0.0362755 -0.217461 224 210 119
0.0024562 -0.36595 -0.212237 224 210 119
-0.214742 -0.0263468 -0.216857 224 210 119
-0.0520775 -0.330867 -0.213065 224 210 119
-0.0632784 -0.253301 -0.214852 224 210 119
-0.264698 -0.0196257 -0.172863 224 210 119
0.0772212 -0.101487 -0.21925 224 210 119
-0.144274 -0.176769 -0.216434 224 210 119
-0.261998 -0.27882 0.118327 224 210 119
-0.159336 -0.349519 -0.2095 224 210 119
-0.259187 -0.204359 -0.00873703 224 210 119
-0.16322 -0.043025 -0.217078 224 210 119
-0.264874 -0.228076 -0.123822 224 210 119
0.208003 -0.154437 -0.219851 224 210 119
-0.120439 -0.00624488 -0.214595 224 210 119
-0.2323 -0.369648 -0.208402 224 210 119
-0.122755 -0.19674 -0.217425 224 210 119
0.185355 -0.252917 -0.21507 224 210 119
0.0636588 -0.181287 -0.216559 224 210 119
-0.255606 -0.0787613 -0.197853 224 210 119
-0.257185 -0.0989961 0.10229 224 210 119
-0.191932 -0.320999 -0.211451 224 210 119
-0.265698 -0.177908 -0.146795 224 210 119
0.0181712 -0.0673395 -0.214216 224 210 119
-0.260979 -0.332179 0.0712715 224 210 119
-0.282266 -0.136287 -0.0862836 224 210 119
-0.219742 -0.267893 -0.213547 224 210 119
-0.181773 -0.373435 -0.208692 224 210 119
-0.185049 -0.0682999 -0.216656 224 210 119
0.175876 -0.158012 -0.219534 224 210 119
-0.182361 -0.213123 -0.216269 224 210 119
0.025269 -0.361436 -0.211833 224 210 119
0.0221184 -0.206603 -0.213408 224 210 119
-0.20716 -0.220117 -0.215943 224 210 119
-0.00747025 -0.381442 -0.212381 224 210 119
-0.198609 -0.451229 -0.205729 224 210 119
-0.260502 -0.229889 0.0417966 224 210 119
-0.265124 -0.384378 -0.172848 224 210 119
-0.263566 -0.209802 -0.10953 224 210 119
-0.0641307 -0.281488 -0.213983 224 210 119
-0.264685 -0.303019 -0.164745 224 210 119
-0.0227171 -0.0896923 -0.215204 224 210 119
-0.1885 -0.303703 -0.212464 224 210 119
-0.259606 -0.0599698 -0.0392725 224 210 119
-0.215771 -0.362285 -0.209249 224 210 119
-0.262535 -0.0399466 -0.07776 224 210 119
-0.261218 -0.329419 -0.18556 224 210 119
-0.260754 -0.0841398 -0.0982705 224 210 119
-0.072341 -0.0291383 -0.216145 224 210 119
-0.254194 -0.16805 -0.199842 224 210 119
0.203523 -0.28977 -0.216285 224 210 119
0.13842 -0.106399 -0.220125 224 210 119
-0.221802 -0.443224 -0.206227 224 210 119
-0.00170851 -0.080036 -0.214577 224 210 119
-0.264668 -0.248704 -0.162447 224 210 119
-0.26388 -0.104486 -0.181601 224 210 119
-0.26631 -0.387987 -0.167637 224 210 119
-0.260366 -0.177661 -0.19263 224 210 119
-0.133161 -0.0127182 -0.216068 224 210 119
-0.176381 -0.00531876 -0.218029 224 210 119
-0.182917 -0.136864 -0.215661 224 210 119
0.182588 -0.277504 -0.21495 224 210 119
-0.0427353 -0.0240712 -0.215331 224 210 119
-0.264754 -0.305465 -0.165388 224 210 119
-0.00374509 -0.368819 -0.21226 224 210 119
-0.188021 -0.312822 -0.21203 224 210 119
-0.119154 -0.114487 -0.216901 224 210 119
-0.164784 -0.415331 -0.206971 224 210 119
-0.207022 -0.18493 -0.216285 224 210 119
-0.122317 -0.0811434 -0.217131 224 210 119
0.109909 -0.0227493 -0.222083 224 210 119
-0.0567187 -0.165211 -0.216435 224 210 119
-0.159042 -0.251641 -0.215192 224 210 119
-0.0982592 -0.0447578 -0.216984 224 210 119
-0.26803 -0.46057 -0.165667 224 210 119
-0.091163 -0.168043 -0.217106 224 210 119
-0.26439 -0.0154175 -0.170805 224 210 119
-0.00643763 -0.012264 -0.2154 224 210 119
-0.261094 -0.241471 -0.0644823 224 210 119
-0.169113 -0.0802648 -0.215712 224 210 119
0.0729314 -0.103841 -0.219182 224 210 119
-0.262116 -0.074029 -0.1399 224 210 119
-0.000163324 -0.0590185 -0.214265 224 210 119
-0.093516 -0.3374 -0.21254 224 210 119
-0.0082847 -0.276446 -0.212275 224 210 119
0.185627 -0.301255 -0.215363 224 210 119
-0.156221 -0.294398 -0.212849 224 210 119
-0.257257 -0.0956893 0.0287662 224 210 119
0.115778 -0.339737 -0.209763 224 210 119
0.0837752 -0.361944 -0.209764 224 210 119
-0.132721 -0.202776 -0.217177 224 210 119
0.183602 -0.187497 -0.217321 224 210 119
-0.26664 -0.237367 -0.143426 224 210 119
0.0293747 -0.210363 -0.212944 224 210 119
-0.257194 -0.0500108 -0.192682 224 210 119
-0.175901 -0.0198146 -0.218289 224 210 119
-0.257465 -0.0763379 0.0054262 224 210 119
-0.210745 -0.240231 -0.215052 224 210 119
-0.264136 -0.10671 -0.139937 224 210 119
-0.211665 -0.236715 -0.215226 224 210 119
-0.259286 -0.13478 0.0497281 224 210 119
-0.102332 -0.0525264 -0.217016 224 210 119
-0.258681 -0.419127 0.0476945 224 210 119
0.215803 -0.235816 -0.216131 224 210 119
-0.266223 -0.327792 -0.143475 224 210 119
0.0240926 -0.394189 -0.212353 224 210 119
-0.205131 -0.326976 -0.210925 224 210 119
-0.264798 -0.266885 -0.16937 224 210 119
-0.251745 -0.0174991 -0.202022 224 210 119
-0.246288 -0.402464 0.070862 224 210 119
0.0330726 -0.207415 -0.213035 224 210 119
-0.259856 -0.373092 0.0510939 224 210 119
-0.261659 -0.199798 -0.082893 224 210 119
-0.2594 -0.160618 0.0315318 224 210 119
-0.262212 -0.248472 0.133557 224 210 119
-0.255918 -0.2085 -0.164252 224 210 119
-0.215626 -0.0939506 -0.215876 224 210 119
-0.262868 -0.321563 0.14838 224 210 119
-0.12863 -0.0183721 -0.210493 224 210 119
-0.260782 -0.105059 -0.0930998 224 210 119
0.101316 -0.279254 -0.211867 224 210 119
-0.137605 -0.0925286 -0.215842 224 210 119
-0.249229 -0.0467677 -0.203299 224 210 119
-0.160187 -0.115453 -0.214945 224 210 119
0.19335 -0.185134 -0.217488 224 210 119
0.0854448 -0.0135663 -0.222064 224 210 119
-0.261293 -0.452079 -0.0665167 224 210 119
-0.259363 -0.419232 -0.0427632 224 210 119
0.149881 -0.177025 -0.218135 224 210 119
-0.259445 -0.188038 -0.022698 224 210 119
-0.252474 -0.199583 -0.203201 224 210 119
-0.260354 -0.312056 0.0426526 224 210 119
-0.235126 -0.30579 -0.210214 224 210 119
-0.123801 -0.175979 -0.217163 224 210 119
-0.00675385 -0.321559 -0.212404 224 210 119
-0.2623 -0.068583 -0.16658 224 210 119
0.0978199 -0.140973 -0.218928 224 210 119
-0.266343 -0.410562 -0.134104 224 210 119
-0.0392018 -0.305646 -0.213109 224 210 119
-0.0430032 -0.0521585 -0.215615 224 210 119
-0.0552651 -0.361147 -0.21253 224 210 119
0.159928 -0.41439 -0.213288 224 210 119
-0.153845 -0.209475 -0.216515 224 210 119
0.0934959 -0.276737 -0.211636 224 210 119
-0.27023 -0.10196 -0.0613331 224 210 119
-0.26361 -0.236202 -0.178531 224 210 119
-0.241072 -0.342143 -0.207905 224 210 119
-0.264375 -0.116215 -0.14874 224 210 119
0.133419 -0.323742 -0.211482 224 210 119
0.219356 -0.109227 -0.221067 224 210 119
-0.188025 -0.012641 -0.219173 224 210 119
-0.0749352 -0.241819 -0.215544 224 210 119
-0.256376 -0.067923 -0.196009 224 210 119
-0.227484 -0.086861 -0.213791 224 210 119
0.168238 -0.297628 -0.214219 224 210 119
-0.261514 -0.285591 0.0104863 224 210 119
-0.134184 -0.265492 -0.214567 224 210 119
-0.263477 -0.087643 -0.166695 224 210 119
-0.265522 -0.245174 -0.155861 224 210 119
-0.0365546 -0.112967 -0.215744 224 210 119
-0.177282 -0.00919905 -0.214888 224 210 119
-0.200259 -0.0752875 -0.216824 224 210 119
-0.230196 -0.326465 -0.210546 224 210 119
-0.265124 -0.186577 -0.15797 224 210 119
-0.200557 -0.316668 -0.211324 224 210 119
-0.11176 -0.336187 -0.211783 224 210 119
0.201276 -0.368626 -0.215764 224 210 119
-0.0801323 -0.134062 -0.216618 224 210 119
-0.0635385 -0.292575 -0.213841 224 210 119
-0.110731 -0.310029 -0.212764 224 210 119
-0.262805 -0.417572 -0.184731 224 210 119
-0.198499 -0.145903 -0.215916 224 210 119
-0.259834 -0.0658254 -0.0900937 224 210 119
-0.260993 -0.198946 0.0850515 224 210 119
0.0615335 -0.0692649 -0.218757 224 210 119
-0.227789 -0.116572 -0.21348 224 210 119
0.182559 -0.380432 -0.214608 224 210 119
-0.234669 -0.344086 -0.209328 224 210 119
-0.247837 -0.0681216 -0.205427 224 210 119
-0.265748 -0.309988 -0.151875 224 210 119
-0.258566 -0.12262 -0.0465534 224 210 119
-0.258048 -0.108872 -0.0430311 224 210 119
-0.261427 -0.203758 0.114177 224 210 119
0.119074 -0.19089 -0.216957 224 210 119
-0.114704 -0.333603 -0.211718 224 210 119
-0.262747 -0.0356315 -0.0999735 224 210 119
-0.256739 -0.124775 0.132889 224 210 119
-0.265154 -0.187095 -0.179308 224 210 119
-0.26656 -0.241202 -0.142688 224 210 119
-0.266466 -0.243037 -0.147578 224 210 119
-0.261709 -0.306064 0.0980371 224 210 119
-0.253446 -0.102177 -0.200438 224 210 119
0.050457 -0.397545 -0.211665 224 210 119
0.128692 -0.411423 -0.211156 224 210 119
-0.0625015 -0.0045596 -0.214536 224 210 119
-0.26488 -0.118537 -0.177843 224 210 119
0.0881231 -0.199929 -0.215741 224 210 119
-0.263665 -0.0354672 -0.0986925 224 210 119
-0.266339 -0.339288 -0.146758 224 210 119
-0.209695 -0.201708 -0.216242 224 210 119
-0.266273 -0.401878 -0.168846 224 210 119
-0.153292 -0.431045 -0.207586 224 210 119
-0.259897 -0.260478 -0.00219936 224 210 119
-0.244884 -0.180974 -0.207963 224 210 119
-0.272452 -0.0633242 -0.142092 224 210 119
0.0978191 -0.0673687 -0.21985 224 210 119
-0.261357 -0.251028 -0.0666249 224 210 119
-0.259326 -0.165067 -0.0301934 224 210 119
-0.265436 -0.163262 -0.16532 224 210 119
0.171084 -0.246087 -0.214469 224 210 119
-0.257279 -0.0972786 0.0832672 224 210 119
-0.262139 -0.353101 -0.183384 224 210 119
0.079963 -0.026052 -0.22109 224 210 119
-0.249093 -0.0420221 -0.203619 224 210 119
-0.257105 -0.0960619 0.125241 224 210 119
-0.00482612 -0.159685 -0.215347 224 210 119
-0.0978524 -0.0363694 -0.216903 224 210 119
0.0971778 -0.105641 -0.219342 224 210 119
-0.261216 -0.073621 -0.187231 224 210 119
-0.262755 -0.441046 -0.090338 224 210 119
-0.263346 -0.0282639 -0.125171 224 210 119
-0.237838 -0.350131 -0.208551 224 210 119
-0.215864 -0.316854 -0.211577 224 210 119
0.119155 -0.0730226 -0.219958 224 210 119
0.154945 -0.0176008 -0.223 224 210 119
-0.258375 -0.067534 0.0681679 224 210 119
0.174623 -0.391366 -0.214215 224 210 119
-0.259931 -0.169942 0.0534032 224 210 119
-0.0477136 -0.0598226 -0.215677 224 210 119
0.0797077 -0.184775 -0.216813 224 210 119
-0.068721 -0.375242 -0.212154 224 210 119
-0.273737 -0.197772 -0.0853352 224 210 119
-0.140003 -0.203184 -0.216989 224 210 119
-0.261252 -0.212918 0.139649 224 210 119
-0.252541 -0.114112 -0.200726 224 210 119
0.117159 -0.0687797 -0.220012 224 210 119
0.15238 -0.286897 -0.21323 224 210 119
-0.259469 -0.161979 0.0341303 224 210 119
-0.0983329 -0.0769243 -0.217088 224 210 119
0.192585 -0.0904468 -0.220787 224 210 119
-0.209014 -0.480056 0.314174 255 178 96
-0.271875 -0.462265 0.0727835 255 178 96
-0.262762 -0.174224 0.131696 255 178 96
-0.26044 -0.331752 0.22376 255 178 96
-0.267228 -0.485317 0.193999 255 178 96
-0.256653 -0.352597 0.259991 255 178 96
-0.0531768 -0.486526 -0.136901 255 178 96
0.0919322 -0.486471 0.0603069 255 178 96
-0.157822 -0.487461 0.193335 255 178 96
-0.26883 -0.486019 0.120374 255 178 96
-0.271343 -0.448189 -0.0525807 255 178 96
-0.246756 -0.353912 0.323727 255 178 96
-0.270366 -0.252975 -0.0981036 255 178 96
-0.107359 -0.488344 0.268671 255 178 96
0.270953 -0.481582 -0.0968483 255 178 96
-0.263987 -0.305727 0.184621 255 178 96
-0.264492 -0.309386 0.166919 255 178 96
0.210255 -0.485707 -0.0511596 255 178 96
-0.259304 -0.45193 0.286973 255 178 96
0.067794 -0.477821 -0.0473826 255 178 96
-0.244686 -0.486925 0.221838 255 178 96
0.332566 -0.48252 -0.103784 255 178 96
-0.26938 -0.484389 0.179951 255 178 96
-0.255714 -0.411942 0.302078 255 178 96
0.253723 -0.486308 0.100471 255 178 96
-0.268516 -0.258678 -0.047694 255 178 96
-0.270514 -0.368003 0.0710216 255 178 96
-0.0663696 -0.486353 -0.0987085 255 178 96
-0.270591 -0.198168 0.0584959 255 178 96
-0.268378 -0.248122 -0.0423521 255 178 96
-0.2684 -0.338004 -0.0354952 255 178 96
-0.156778 -0.486729 -0.0268425 255 178 96
-0.267999 -0.331425 0.129759 255 178 96
0.10835 -0.4866 -0.117047 255 178 96
-0.238069 -0.330658 0.332819 255 178 96
-0.269841 -0.485902 0.00918807 255 178 96
-0.20396 -0.47906 0.316511 255 178 96
-0.260672 -0.193169 0.161151 255 178 96
-0.242879 -0.483215 0.277164 255 178 96
-0.260662 -0.125584 0.100878 255 178 96
-0.267992 -0.415546 0.17506 255 178 96
-0.266535 -0.234445 0.129311 255 178 96
0.332797 -0.48047 -0.0819787 255 178 96
-0.245358 -0.486602 -0.0768992 255 178 96
-0.233286 -0.486206 -0.155527 255 178 96
-0.267751 -0.25549 0.00204385 255 178 96
-0.250327 -0.198512 0.241727 255 178 96
-0.247458 -0.353173 0.322381 255 178 96
-0.269495 -0.260651 0.0949019 255 178 96
-0.0808434 -0.486748 0.108569 255 178 96
0.255596 -0.482883 -0.125837 255 178 96
-0.270708 -0.476091 0.0182924 255 178 96
-0.269114 -0.331492 -0.0680323 255 178 96
-0.176177 -0.486924 0.118183 255 178 96
-0.265739 -0.486335 0.11768 255 178 96
-0.227994 -0.380115 0.347276 255 178 96
0.0733183 -0.477343 -0.0361448 255 178 96
-0.254051 -0.260388 0.250346 255 178 96
-0.256787 -0.37732 0.277752 255 178 96
-0.267584 -0.486133 -0.145182 255 178 96
-0.0351284 -0.486462 -0.0800164 255 178 96
-0.270141 -0.486312 -0.0510494 255 178 96
-0.258688 -0.207053 0.182555 255 178 96
-0.259071 -0.297767 0.224013 255 178 96
-0.270263 -0.174334 0.0766143 255 178 96
0.110735 -0.487171 0.180964 255 178 96
-0.271311 -0.475654 -0.0461496 255 178 96
0.0985419 -0.486491 -0.115314 255 178 96
-0.134349 -0.486634 0.0755906 255 178 96
-0.258202 -0.323514 0.240728 255 178 96
-0.252963 -0.327137 0.283331 255 178 96
-0.112135 -0.486211 -0.12165 255 178 96
0.0247066 -0.48668 0.133759 255 178 96
-0.257299 -0.37432 0.268083 255 178 96
-0.26907 -0.48634 -0.0140667 255 178 96
-0.272968 -0.48624 -0.125284 255 178 96
0.266332 -0.48629 0.0947959 255 178 96
-0.132823 -0.487585 0.223453 255 178 96
-0.271595 -0.331453 -0.123949 255 178 96
0.377545 -0.477628 -0.0654028 255 178 96
-0.197638 -0.486818 0.084738 255 178 96
-0.250696 -0.4867 -0.0151968 255 178 96
-0.000332028 -0.470307 0.112626 255 178 96
-0.267487 -0.259026 -0.0031503 255 178 96
-0.269883 -0.18381 -0.055682 255 178 96
0.093016 -0.486433 0.113527 255 178 96
0.262744 -0.485722 -0.0291864 255 178 96
-0.263731 -0.288492 0.175755 255 178 96
-0.194823 -0.487377 0.178149 255 178 96
0.348201 -0.48125 -0.0949529 255 178 96
-0.270723 -0.37581 0.0576553 255 178 96
-0.261611 -0.348353 0.217072 255 178 96
-0.270943 -0.46313 0.0155821 255 178 96
-0.0412353 -0.474149 -0.143132 255 178 96
-0.262984 -0.381991 0.211216 255 178 96
-0.157846 -0.486648 -0.0673041 255 178 96
-0.270195 -0.184746 0.0870278 255 178 96
-0.252842 -0.363515 0.310154 255 178 96
-0.244076 -0.487028 0.216007 255 178 96
-0.271268 -0.41737 0.00822174 255 178 96
0.13333 -0.4864 0.125791 255 178 96
-0.254254 -0.183186 0.211744 255 178 96
-0.262949 -0.253403 0.166249 255 178 96
-0.0968772 -0.486766 -0.0432261 255 178 96
0.0956591 -0.478899 -0.0672945 255 178 96
-0.26986 -0.19137 0.00525508 255 178 96
-0.257 -0.459919 0.297932 255 178 96
-0.265753 -0.478505 0.242145 255 178 96
-0.269803 -0.182791 -0.0394722 255 178 96
0.0580594 -0.486696 0.146178 255 178 96
0.319039 -0.48216 -0.09611 255 178 96
0.225891 -0.48623 0.00357623 255 178 96
-0.25398 -0.486932 0.0952649 255 178 96
-0.258286 -0.41958 0.282554 255 178 96
-0.268586 -0.287027 -0.0531866 255 178 96
-0.273487 -0.437742 -0.139523 255 178 96
-0.267764 -0.248215 -0.00326225 255 178 96
-0.269057 -0.335415 0.0304053 255 178 96
-0.255924 -0.291665 0.247287 255 178 96
-0.249581 -0.320898 0.309284 255 178 96
-0.207175 -0.486559 -0.0845163 255 178 96
0.0219287 -0.479756 -0.140972 255 178 96
-0.269748 -0.415088 -0.0849761 255 178 96
0.0998394 -0.487592 0.213208 255 178 96
0.0611289 -0.489594 0.267307 255 178 96
-0.0987283 -0.486712 -0.0537181 255 178 96
-0.271782 -0.443959 -0.0914155 255 178 96
0.283019 -0.485848 0.00253764 255 178 96
0.14057 -0.476929 -0.0180543 255 178 96
-0.26437 -0.307291 0.170072 255 178 96
-0.154416 -0.486958 0.133909 255 178 96
-0.223485 -0.481959 0.302041 255 178 96
-0.264889 -0.350795 0.177916 255 178 96
0.0594716 -0.486675 0.0171741 255 178 96
-0.265396 -0.261953 0.143797 255 178 96
-0.102926 -0.486619 -0.0654376 255 178 96
-0.272982 -0.465308 -0.106682 255 178 96
-0.259539 -0.281558 0.209074 255 178 96
-0.024785 -0.487591 0.22162 255 178 96
0.0375639 -0.486912 0.162188 255 178 96
-0.216187 -0.487023 0.138594 255 178 96
-0.270873 -0.384557 -0.127249 255 178 96
-0.264852 -0.410214 0.196214 255 178 96
-0.270002 -0.42231 -0.0526187 255 178 96
-0.24601 -0.486918 0.107929 255 178 96
0.0877222 -0.486463 0.120178 255 178 96
-0.157425 -0.486729 -0.0262196 255 178 96
-0.249738 -0.301336 0.29664 255 178 96
-0.269629 -0.348555 0.00690767 255 178 96
-0.262706 -0.486636 0.0230209 255 178 96
-0.272408 -0.467603 0.159913 255 178 96
-0.258074 -0.32998 0.243382 255 178 96
-0.269399 -0.322175 0.0852636 255 178 96
-0.188792 -0.486323 -0.161729 255 178 96
-0.0403875 -0.486674 0.0257947 255 178 96
-0.224672 -0.461504 0.326211 255 178 96
-0.270945 -0.470788 0.0340484 255 178 96
-0.268957 -0.31088 0.0722208 255 178 96
-0.268698 -0.22568 0.00170687 255 178 96
-0.269135 -0.324356 0.10986 255 178 96
-0.116704 -0.486577 0.0616755 255 178 96
-0.260823 -0.302709 0.209414 255 178 96
-0.269802 -0.246026 -0.0810513 255 178 96
-0.0231567 -0.487587 0.220467 255 178 96
-0.258125 -0.384697 0.266202 255 178 96
-0.115969 -0.48676 -0.0322587 255 178 96
0.151551 -0.487142 0.187555 255 178 96
0.144448 -0.477537 -0.0323452 255 178 96
-0.260274 -0.40157 0.251543 255 178 96
-0.0389019 -0.486565 0.0667842 255 178 96
-0.268915 -0.211684 -0.0219399 255 178 96
-0.0175914 -0.486731 -0.0425574 255 178 96
-0.262952 -0.291753 0.189433 255 178 96
-0.271632 -0.433053 0.0506446 255 178 96
-0.269392 -0.486098 0.0130128 255 178 96
-0.241607 -0.486151 -0.146647 255 178 96
-0.248575 -0.273 0.285561 255 178 96
-0.270118 -0.369754 0.0225338 255 178 96
0.30247 -0.485909 0.0244208 255 178 96
0.188388 -0.486311 0.0913211 255 178 96
-0.263281 -0.23437 0.156035 255 178 96
-0.270183 -0.486245 -0.0292927 255 178 96
-0.0165883 -0.487066 0.163734 255 178 96
0.199385 -0.477829 -0.0317846 255 178 96
-0.249162 -0.288513 0.290425 255 178 96
-0.272844 -0.46439 0.123679 255 178 96
-0.269278 -0.345032 0.0268093 255 178 96
-0.241372 -0.487103 0.145435 255 178 96
-0.175687 -0.486155 -0.131002 255 178 96
-0.269692 -0.211655 -0.0668341 255 178 96
0.24593 -0.486315 0.0210517 255 178 96
-0.0988375 -0.487612 0.224368 255 178 96
0.0146069 -0.4862 -0.0880389 255 178 96
-0.269885 -0.362033 0.0272492 255 178 96
-0.24901 -0.469848 0.296694 255 178 96
-0.262396 -0.486655 -0.049093 255 178 96
-0.262244 -0.163292 0.126922 255 178 96
-0.249795 -0.195492 0.243402 255 178 96
-0.264798 -0.391113 0.186797 255 178 96
0.0700536 -0.486521 0.110638 255 178 96
0.368157 -0.478273 -0.0689824 255 178 96
0.200031 -0.482091 -0.120236 255 178 96
-0.254086 -0.158847 0.197975 255 178 96
-0.265542 -0.290277 0.150042 255 178 96
-0.232208 -0.432108 0.337161 255 178 96
-0.183168 -0.486155 -0.131285 255 178 96
-0.252526 -0.16066 0.214636 255 178 96
-0.254232 -0.188423 0.214541 255 178 96
-0.107106 -0.486758 -0.019544 255 178 96
-0.27166 -0.463247 -0.0804248 255 178 96
-0.226106 -0.486154 -0.144618 255 178 96
-0.205071 -0.487463 0.206606 255 178 96
0.139933 -0.487411 0.205631 255 178 96
-0.26812 -0.417395 0.175036 255 178 96
-0.267588 -0.294365 0.131539 255 178 96
-0.23585 -0.486821 0.0672242 255 178 96
-0.218437 -0.487468 0.206801 255 178 96
-0.125736 -0.486886 0.127553 255 178 96
0.0533986 -0.486643 0.0347549 255 178 96
-0.227147 -0.449989 0.328635 255 178 96
-0.250775 -0.311781 0.293657 255 178 96
-0.260582 -0.284631 0.202776 255 178 96
-0.253103 -0.197805 0.225875 255 178 96
-0.243326 -0.309016 0.320957 255 178 96
-0.270481 -0.140988 0.0458369 255 178 96
0.0416453 -0.486568 0.0721845 255 178 96
-0.262951 -0.481746 0.253337 255 178 96
-0.269398 -0.197526 -0.0269735 255 178 96
0.293277 -0.485771 0.00146896 255 178 96
-0.269392 -0.340196 0.011854 255 178 96
0.150371 -0.479434 -0.0727778 255 178 96
-0.269182 -0.334762 0.0434293 255 178 96
-0.0166625 -0.488852 0.260075 255 178 96
-0.256685 -0.234938 0.219534 255 178 96
-0.253655 -0.2598 0.252307 255 178 96
-0.266946 -0.26076 0.130253 255 178 96
-0.262994 -0.237503 0.160548 255 178 96
-0.270915 -0.473017 -0.0153125 255 178 96
0.26177 -0.486042 0.00715019 255 178 96
-0.252215 -0.441854 0.314757 255 178 96
-0.265229 -0.453321 0.243027 255 178 96
-0.254401 -0.425352 0.310739 255 178 96
0.0390889 -0.478722 -0.12737 255 178 96
-0.267966 -0.144706 0.0751732 255 178 96
-0.181116 -0.486361 -0.154087 255 178 96
-0.269713 -0.204369 -0.0577829 255 178 96
-0.213881 -0.484642 0.30545 255 178 96
0.0200773 -0.473878 0.0372462 255 178 96
-0.271371 -0.435928 -0.00358564 255 178 96
-0.256597 -0.375007 0.278508 255 178 96
-0.0326143 -0.486858 0.140665 255 178 96
0.168058 -0.478946 -0.0609709 255 178 96
-0.0214206 -0.486696 0.0227623 255 178 96
-0.253629 -0.307669 0.267186 255 178 96
-0.271591 -0.422292 -0.125727 255 178 96
-0.26807 -0.392357 0.153941 255 178 96
0.148009 -0.476876 -0.0159115 255 178 96
-0.0613836 -0.467822 -0.146743 255 178 96
-0.270686 -0.183067 -0.087023 255 178 96
0.235245 -0.486429 0.147813 255 178 96
-0.272673 -0.475274 0.141833 255 178 96
-0.270663 -0.447739 0.175607 255 178 96
-0.268871 -0.254447 0.115019 255 178 96
0.108137 -0.486913 0.163388 255 178 96
-0.169192 -0.488628 0.297598 255 178 96
-0.25751 -0.12938 0.129709 255 178 96
0.0323187 -0.487222 0.185483 255 178 96
-0.25639 -0.200796 0.202873 255 178 96
-0.254394 -0.409504 0.309759 255 178 96
0.215663 -0.481978 -0.130561 255 178 96
0.345965 -0.480875 -0.0964498 255 178 96
-0.142177 -0.487815 0.260448 255 178 96
-0.254417 -0.409467 0.309625 255 178 96
0.16729 -0.486781 0.166509 255 178 96
-0.248842 -0.486899 0.159849 255 178 96
-0.0311669 -0.48685 0.139732 255 178 96
-0.198317 -0.487824 0.279858 255 178 96
0.138115 -0.485858 -0.076505 255 178 96
0.10293 -0.486437 0.0599275 255 178 96
-0.222342 -0.487052 0.145859 255 178 96
-0.262792 -0.353816 0.206903 255 178 96
-0.269086 -0.33802 0.029057 255 178 96
-0.257992 -0.413711 0.282458 255 178 96
-0.271867 -0.486238 -0.0739559 255 178 96
-0.273094 -0.462248 0.148207 255 178 96
-0.255801 -0.397958 0.300186 255 178 96
0.100498 -0.488996 0.258812 255 178 96
0.0921788 -0.473406 0.0605193 255 178 96
-0.261296 -0.378467 0.23217 255 178 96
-0.236933 -0.487038 0.242234 255 178 96
0.0189558 -0.487082 0.172388 255 178 96
-0.22891 -0.487386 0.232116 255 178 96
-0.201338 -0.488142 0.29567 255 178 96
-0.2688 -0.32741 0.0235375 255 178 96
-0.269491 -0.218399 0.107083 255 178 96
-0.268191 -0.486293 -0.11987 255 178 96
-0.2679 -0.394926 0.157468 255 178 96
-0.254511 -0.486482 0.183698 255 178 96
-0.252044 -0.202303 0.233978 255 178 96
-0.109567 -0.486762 -0.0278464 255 178 96
-0.24427 -0.486787 0.0498679 255 178 96
0.186523 -0.486328 0.0616821 255 178 96
-0.171395 -0.486719 -0.0386205 255 178 96
-0.245466 -0.487026 0.190195 255 178 96
0.23666 -0.486118 -0.00172056 255 178 96
-0.26984 -0.403909 -0.0868229 255 178 96
-0.271075 -0.48614 -0.154907 255 178 96
0.237187 -0.486316 0.122072 255 178 96
-0.271325 -0.431832 -0.00791683 255 178 96
-0.205788 -0.487672 0.278491 255 178 96
-0.227683 -0.486702 -0.0379472 255 178 96
-0.0349144 -0.486721 0.0119421 255 178 96
-0.248116 -0.403451 0.326855 255 178 96
-0.270703 -0.319792 -0.0998849 255 178 96
-0.278075 -0.474459 -0.148618 255 178 96
-0.25326 -0.386876 0.313129 255 178 96
-0.271138 -0.463031 0.00423658 255 178 96
0.0651567 -0.487075 0.176582 255 178 96
-0.271253 -0.18999 -0.111013 255 178 96
-0.269316 -0.44967 0.19943 255 178 96
-0.244165 -0.459051 0.315369 255 178 96
-0.269853 -0.149243 0.0652092 255 178 96
-0.264037 -0.486576 0.025099 255 178 96
-0.261366 -0.406097 0.243227 255 178 96
0.195794 -0.486642 0.159766 255 178 96
-0.150778 -0.486608 0.0601685 255 178 96
-0.266546 -0.463815 0.240355 255 178 96
-0.262839 -0.285993 0.187801 255 178 96
0.184094 -0.485703 -0.116149 255 178 96
-0.269329 -0.201642 -0.0365856 255 178 96
-0.244875 -0.433158 0.327464 255 178 96
-0.262514 -0.348199 0.20822 255 178 96
-0.0817194 -0.489128 0.282725 255 178 96
-0.26883 -0.302771 -0.0637231 255 178 96
0.0762991 -0.486511 0.0663464 255 178 96
-0.248835 -0.291917 0.297549 255 178 96
0.0383481 -0.485991 -0.0974812 255 178 96
-0.266308 -0.317413 0.146663 255 178 96
-0.260098 -0.306454 0.217211 255 178 96
-0.252328 -0.155414 0.213929 255 178 96
-0.269678 -0.406712 -0.0694665 255 178 96
0.114713 -0.486321 -0.03298 255 178 96
-0.247423 -0.433881 0.323898 255 178 96
-0.269329 -0.486422 -0.0484669 255 178 96
0.0442648 -0.486568 0.0798357 255 178 96
-0.259992 -0.314764 0.222354 255 178 96
-0.269235 -0.313114 0.0845668 255 178 96
-0.268922 -0.236442 0.0217058 255 178 96
0.108775 -0.473676 0.0565862 255 178 96
-0.258844 -0.378154 0.253654 255 178 96
-0.270345 -0.391107 0.125724 255 178 96
-0.244207 -0.486524 0.247061 255 178 96
0.037765 -0.486753 0.147997 255 178 96
0.0967267 -0.487032 0.17047 255 178 96
-0.248554 -0.276806 0.287489 255 178 96
0.183626 -0.486323 0.12329 255 178 96
-0.264246 -0.357671 0.191775 255 178 96
-0.257226 -0.273202 0.227999 255 178 96
0.0594752 -0.487977 0.236099 255 178 96
0.110481 -0.486292 -0.037465 255 178 96
-0.263351 -0.466015 0.266939 255 178 96
-0.268164 -0.254603 -0.0404406 255 178 96
-0.270057 -0.418954 0.149377 255 178 96
-0.266896 -0.178024 0.109578 255 178 96
-0.1893 -0.486321 -0.168028 255 178 96
-0.256543 -0.132792 0.138101 255 178 96
-0.0160761 -0.477382 -0.124666 255 178 96
-0.258014 -0.413587 0.282138 255 178 96
-0.272081 -0.425745 0.080554 255 178 96
-0.0976125 -0.486897 0.138436 255 178 96
-0.271046 -0.478294 0.0373438 255 178 96
-0.27854 -0.486148 -0.146861 255 178 96
-0.271553 -0.459202 -0.0101217 255 178 96
-0.268293 -0.437172 0.191263 255 178 96
-0.247604 -0.396034 0.327566 255 178 96
-0.255664 -0.349196 0.268998 255 178 96
-0.270046 -0.169451 -0.0483009 255 178 96
-0.270189 -0.482 0.013454 255 178 96
-0.261593 -0.343031 0.215405 255 178 96
-0.243391 -0.487134 0.187151 255 178 96
-0.260915 -0.348146 0.225522 255 178 96
-0.263147 -0.235839 0.158166 255 178 96
-0.270797 -0.379272 0.0742865 255 178 96
0.12142 -0.486757 0.154907 255 178 96
0.0782717 -0.486194 -0.0589743 255 178 96
0.35219 -0.480317 -0.0813111 255 178 96
-0.254049 -0.350058 0.289205 255 178 96
-0.258222 -0.420554 0.283726 255 178 96
0.29903 -0.4833 -0.117803 255 178 96
0.174856 -0.486359 0.0299801 255 178 96
-0.26109 -0.406902 0.246268 255 178 96
-0.2357 -0.456797 0.324621 255 178 96
-0.270294 -0.157415 0.0620858 255 178 96
-0.177121 -0.487584 0.249352 255 178 96
-0.269971 -0.471188 0.207701 255 178 96
-0.135037 -0.486699 0.0161594 255 178 96
-0.164942 -0.486884 0.111567 255 178 96
-0.260714 -0.413399 0.255185 255 178 96
0.186307 -0.486698 0.163421 255 178 96
-0.263967 -0.312308 0.188419 255 178 96
0.128396 -0.486503 0.139274 255 178 96
-0.254043 -0.172092 0.207034 255 178 96
-0.271554 -0.27622 -0.119927 255 178 96
-0.25563 -0.311143 0.253567 255 178 96
0.0743008 -0.486601 -0.0247284 255 178 96
-0.248749 -0.486127 -0.163585 255 178 96
-0.268504 -0.315888 0.0260539 255 178 96
-0.260589 -0.475146 0.277412 255 178 96
-0.255828 -0.167006 0.182272 255 178 96
-0.257919 -0.249854 0.211721 255 178 96
-0.271425 -0.442088 0.0126108 255 178 96
-0.269816 -0.337501 -0.0813987 255 178 96
-0.254709 -0.24088 0.239149 255 178 96
-0.153745 -0.488357 0.280925 255 178 96
-0.19386 -0.486732 0.013413 255 178 96
-0.270276 -0.159462 -0.0384903 255 178 96
-0.272474 -0.455964 0.146205 255 178 96
-0.265311 -0.307776 0.155591 255 178 96
-0.244072 -0.347019 0.327288 255 178 96
-0.272562 -0.471762 0.0869959 255 178 96
0.361976 -0.478802 -0.0439754 255 178 96
0.0422848 -0.486667 0.0369265 255 178 96
-0.270716 -0.202306 -0.0963819 255 178 96
-0.246802 -0.240818 0.277308 255 178 96
0.135854 -0.486392 0.124491 255 178 96
-0.215784 -0.486723 -0.0176978 255 178 96
-0.26912 -0.323014 0.109798 255 178 96
-0.242267 -0.452001 0.32241 255 178 96
-0.265324 -0.463008 0.248393 255 178 96
0.0132193 -0.487296 0.188608 255 178 96
-0.265497 -0.459424 0.244714 255 178 96
-0.239837 -0.385756 0.336871 255 178 96
-0.169207 -0.486158 -0.13072 255 178 96
-0.22772 -0.407749 0.344695 255 178 96
0.13034 -0.475089 0.0248898 255 178 96
-0.264377 -0.380602 0.190864 255 178 96
-0.207683 -0.48764 0.278655 255 178 96
0.243751 -0.479341 -0.0571802 255 178 96
-0.254027 -0.212062 0.228668 255 178 96
0.12009 -0.475312 0.0182969 255 178 96
-0.249647 -0.234371 0.263227 255 178 96
-0.269975 -0.473555 0.200787 255 178 96
-0.27069 -0.319575 -0.0997079 255 178 96
-0.271519 -0.451245 -0.00590451 255 178 96
-0.256601 -0.407688 0.294626 255 178 96
0.254971 -0.479294 -0.0530419 255 178 96
-0.260804 -0.48662 0.12805 255 178 96
0.142737 -0.487453 0.20974 255 178 96
-0.259923 -0.234098 0.187231 255 178 96
-0.0877462 -0.486937 0.147427 255 178 96
-0.103158 -0.487626 0.227429 255 178 96
-0.110591 -0.486666 -0.0605666 255 178 96
-0.225869 -0.47877 0.301915 255 178 96
-0.266418 -0.381782 0.164947 255 178 96
0.199196 -0.485776 -0.0497785 255 178 96
-0.235834 -0.355097 0.338622 255 178 96
0.0764635 -0.486951 0.166435 255 178 96
-0.228724 -0.458125 0.331051 255 178 96
0.000573307 -0.486791 -0.00824754 255 178 96
-0.0717382 -0.486582 0.0450309 255 178 96
0.0966876 -0.486401 -0.0334081 255 178 96
-0.234003 -0.487352 0.180201 255 178 96
0.113055 -0.488009 0.234989 255 178 96
-0.269118 -0.404804 0.149476 255 178 96
-0.104106 -0.489526 0.297961 255 178 96
0.216519 -0.486332 0.0675746 255 178 96
-0.045624 -0.486853 0.135318 255 178 96
-0.265093 -0.319028 0.161238 255 178 96
-0.191584 -0.488329 0.297483 255 178 96
0.018767 -0.486575 0.088261 255 178 96
0.165896 -0.486439 0.13856 255 178 96
-0.266597 -0.485697 0.164915 255 178 96
0.244849 -0.483741 -0.125094 255 178 96
-0.270754 -0.343172 -0.104582 255 178 96
-0.269594 -0.19536 -0.00324338 255 178 96
-0.271274 -0.442514 -0.0349938 255 178 96
-0.252026 -0.146728 0.212598 255 178 96
-0.0231623 -0.487264 0.179916 255 178 96
-0.149537 -0.487606 0.234407 255 178 96
-0.268322 -0.266323 -0.0449496 255 178 96
0.0480299 -0.48717 0.183296 255 178 96
-0.269981 -0.232287 0.0654194 255 178 96
-0.268936 -0.239256 -0.0518271 255 178 96
-0.224532 -0.487455 0.237669 255 178 96
-0.233828 -0.353115 0.341007 255 178 96
0.0631077 -0.48652 -0.121023 255 178 96
-0.268917 -0.275129 -0.0589914 255 178 96
0.0624941 -0.486672 0.00824026 255 178 96
-0.25431 -0.328102 0.270496 255 178 96
0.153544 -0.486338 0.063875 255 178 96
-0.266217 -0.486421 0.0764555 255 178 96
-0.245984 -0.449108 0.321187 255 178 96
0.149882 -0.475144 0.0261377 255 178 96
-0.26826 -0.485492 0.167935 255 178 96
-0.267623 -0.447588 0.214255 255 178 96
-0.277513 -0.473581 -0.145833 255 178 96
-0.249439 -0.486462 -0.0997559 255 178 96
-0.259093 -0.332851 0.237117 255 178 96
-0.269267 -0.343433 0.0220947 255 178 96
-0.279391 -0.483799 -0.154764 255 178 96
-0.180627 -0.487577 0.256827 255 178 96
-0.269361 -0.280723 0.102771 255 178 96
-0.269801 -0.190125 -0.00263872 255 178 96
-0.270097 -0.256192 -0.0906947 255 178 96
-0.255578 -0.333615 0.259778 255 178 96
0.200715 -0.486182 -0.00859723 255 178 96
0.323209 -0.482829 -0.109312 255 178 96
-0.246784 -0.233694 0.274886 255 178 96
-0.269525 -0.483362 0.180766 255 178 96
-0.247898 -0.264767 0.285173 255 178 96
-0.270993 -0.366999 -0.125259 255 178 96
0.0473529 -0.486465 -0.0470682 255 178 96
0.119871 -0.38608 0.0505492 255 139 72
0.399296 -0.335133 0.00960682 255 139 72
0.112349 -0.349457 0.182175 255 139 72
0.346457 -0.323421 0.0776217 255 139 72
0.0194883 -0.389954 -0.0275375 255 139 72
0.270746 -0.321183 0.0381677 255 139 72
0.367483 -0.364325 0.110171 255 139 72
0.366832 -0.331528 0.108809 255 139 72
0.153553 -0.327341 0.0671247 255 139 72
0.268807 -0.329242 0.135323 255 139 72
0.340529 -0.369625 0.147118 255 139 72
-0.0118154 -0.334241 0.08909 255 139 72
0.20897 -0.40993 0.20516 255 139 72
0.37275 -0.326522 0.028147 255 139 72
0.0193611 -0.373991 0.101111 255 139 72
0.215667 -0.400348 0.206181 255 139 72
0.188801 -0.371921 0.209546 255 139 72
0.118176 -0.337821 0.0014471 255 139 72
0.0275005 -0.343781 0.15712 255 139 72
0.13841 -0.37736 0.097515 255 139 72
0.194221 -0.340581 0.170288 255 139 72
0.331231 -0.336228 0.160195 255 139 72
0.0408608 -0.366502 0.0187781 255 139 72
0.0795416 -0.330702 0.0514343 255 139 72
0.0452122 -0.366582 0.0180282 255 139 72
0.152489 -0.338264 0.138062 255 139 72
0.2158 -0.417172 0.203597 255 139 72
0.319395 -0.325926 0.108338 255 139 72
0.182004 -0.332846 0.105177 255 139 72
0.298621 -0.330398 0.149684 255 139 72
0.287303 -0.412878 0.182327 255 139 72
0.400807 -0.33372 0.0148158 255 139 72
0.185263 -0.390185 -0.0693953 255 139 72
0.248742 -0.303642 0.0560955 255 139 72
0.402632 -0.412139 0.0285127 255 139 72
0.121969 -0.370428 -0.00471874 255 139 72
0.351666 -0.32144 0.0578287 255 139 72
0.313195 -0.302635 0.0657602 255 139 72
0.0364432 -0.348986 0.0665405 255 139 72
0.047997 -0.347226 0.184462 255 139 72
0.0398562 -0.421674 0.069787 255 139 72
0.316603 -0.296569 0.0547487 255 139 72
0.127554 -0.355937 0.205145 255 139 72
0.316436 -0.298189 0.0472012 255 139 72
0.188923 -0.375968 0.209386 255 139 72
-0.0949996 -0.367131 0.0402474 255 139 72
0.299415 -0.327411 0.125741 255 139 72
0.348279 -0.420968 0.110134 255 139 72
0.25852 -0.397205 -0.0231527 255 139 72
0.0756483 -0.357194 0.201164 255 139 72
-0.0214915 -0.364903 0.00793367 255 139 72
0.198735 -0.348408 0.202848 255 139 72
0.323575 -0.325775 0.106635 255 139 72
0.227312 -0.378398 0.0349416 255 139 72
0.0899112 -0.36305 -0.102685 255 139 72
0.374061 -0.32394 0.0548085 255 139 72
0.285139 -0.350041 0.199842 255 139 72
0.232101 -0.34994 0.0701451 255 139 72
0.344958 -0.371539 0.139948 255 139 72
0.196814 -0.333687 0.0615216 255 139 72
0.387277 -0.336825 0.0842107 255 139 72
0.277016 -0.32374 0.0550051 255 139 72
0.388169 -0.335059 0.00855823 255 139 72
0.23086 -0.33264 0.105717 255 139 72
0.0808551 -0.370425 -0.0562486 255 139 72
0.365058 -0.34775 0.12019 255 139 72
0.24874 -0.317509 0.0403468 255 139 72
0.229349 -0.310239 0.0943266 255 139 72
0.339311 -0.319582 0.0350469 255 139 72
0.354342 -0.352629 0.0271 255 139 72
0.312338 -0.351277 0.0122668 255 139 72
0.190788 -0.344151 0.189979 255 139 72
0.111618 -0.334621 0.0669313 255 139 72
0.0897008 -0.338596 0.142584 255 139 72
0.345924 -0.410542 0.117041 255 139 72
0.350652 -0.418361 0.106912 255 139 72
0.365243 -0.379687 0.105438 255 139 72
0.252482 -0.353993 -0.00907285 255 139 72
0.164678 -0.338 0.135131 255 139 72
0.147274 -0.340152 0.155144 255 139 72
0.247244 -0.342341 0.194336 255 139 72
0.256443 -0.387156 0.205958 255 139 72
0.388623 -0.363399 0.0749713 255 139 72
0.271561 -0.320942 0.0280955 255 139 72
-0.041504 -0.362606 -0.0300355 255 139 72
0.207872 -0.357093 0.0658119 255 139 72
0.0761795 -0.328924 0.0640998 255 139 72
0.232529 -0.352916 0.208373 255 139 72
0.308742 -0.335198 0.0457584 255 139 72
0.285177 -0.342024 0.0927295 255 139 72
0.413324 -0.341738 0.000371844 255 139 72
0.187396 -0.381019 -0.00799136 255 139 72
0.345169 -0.385599 0.131793 255 139 72
0.158346 -0.38385 -0.0458221 255 139 72
0.312726 -0.363792 0.0291814 255 139 72
0.144373 -0.375812 0.0806362 255 139 72
0.349166 -0.321723 0.0456434 255 139 72
0.35941 -0.370129 0.118976 255 139 72
0.170106 -0.373323 0.0249862 255 139 72
0.333959 -0.386676 0.145952 255 139 72
0.321891 -0.309803 0.033675 255 139 72
0.116081 -0.346875 0.174011 255 139 72
0.23668 -0.323036 0.0585509 255 139 72
0.0612239 -0.380858 0.161488 255 139 72
0.342969 -0.33053 0.130116 255 139 72
0.27415 -0.335458 0.175533 255 139 72
0.14029 -0.323316 0.0249746 255 139 72
0.371553 -0.42164 0.0784136 255 139 72
0.0343863 -0.336049 0.102082 255 139 72
0.213368 -0.327795 0.0886197 255 139 72
0.275516 -0.299304 0.0844688 255 139 72
0.236569 -0.348155 0.0713388 255 139 72
0.0162095 -0.346266 0.101406 255 139 72
0.231869 -0.3409 0.187889 255 139 72
0.0504475 -0.364124 0.208258 255 139 72
0.100512 -0.414517 0.0739602 255 139 72
0.0914425 -0.340702 0.144295 255 139 72
0.290001 -0.311317 0.0881418 255 139 72
0.26568 -0.337898 0.180505 255 139 72
0.329082 -0.33111 0.141963 255 139 72
0.334343 -0.346709 0.163479 255 139 72
0.164492 -0.396928 0.206257 255 139 72
0.302191 -0.315959 0.0844109 255 139 72
0.256984 -0.359942 0.0987038 255 139 72
0.125406 -0.373369 0.0625943 255 139 72
0.218767 -0.395126 0.206835 255 139 72
0.308603 -0.30698 0.0731283 255 139 72
0.344481 -0.323149 0.0341023 255 139 72
0.163229 -0.356088 0.205321 255 139 72
0.296912 -0.415802 0.172879 255 139 72
0.31973 -0.3306 0.036647 255 139 72
0.378698 -0.438393 0.06796 255 139 72
0.0949981 -0.376934 0.107608 255 139 72
0.338684 -0.383855 0.141886 255 139 72
0.313131 -0.306806 0.0693562 255 139 72
0.237731 -0.338305 0.0594836 255 139 72
0.110521 -0.350867 0.186654 255 139 72
-0.0189087 -0.334333 0.0881675 255 139 72
-0.0123199 -0.370894 -0.0923648 255 139 72
0.309867 -0.349512 0.0456261 255 139 72
0.148797 -0.363552 0.208112 255 139 72
0.21019 -0.377097 0.0485397 255 139 72
0.336308 -0.386997 0.143084 255 139 72
0.106555 -0.369225 0.0227573 255 139 72
0.304709 -0.333632 0.164647 255 139 72
0.295506 -0.406229 0.177995 255 139 72
0.353876 -0.321816 0.0481395 255 139 72
0.155078 -0.330224 0.0915222 255 139 72
0.385413 -0.329996 0.0814077 255 139 72
0.189519 -0.376844 0.0177931 255 139 72
-0.0697127 -0.368174 0.0471825 255 139 72
0.360887 -0.348498 0.0232989 255 139 72
0.405306 -0.334425 0.0319171 255 139 72
0.246207 -0.325973 0.115555 255 139 72
0.30781 -0.367293 0.0262927 255 139 72
0.3037 -0.350922 0.187844 255 139 72
0.349802 -0.347258 0.145743 255 139 72
0.324805 -0.393757 0.152899 255 139 72
0.416728 -0.375644 -0.00161997 255 139 72
0.225146 -0.334503 0.153369 255 139 72
0.354415 -0.326261 0.106902 255 139 72
0.0970173 -0.408813 0.0843822 255 139 72
0.354966 -0.322038 0.0610876 255 139 72
0.107948 -0.360283 0.207166 255 139 72
0.0824056 -0.358245 0.206072 255 139 72
0.37312 -0.323432 0.0609436 255 139 72
0.358278 -0.329011 0.115165 255 139 72
0.301282 -0.387379 -0.0355282 255 139 72
0.157228 -0.348612 0.170754 255 139 72
0.106426 -0.343885 -0.00313561 255 139 72
0.164767 -0.32487 0.0403712 255 139 72
0.165602 -0.32369 0.0393017 255 139 72
0.26803 -0.326455 0.0722659 255 139 72
0.385283 -0.376706 0.0731379 255 139 72
0.236005 -0.335173 0.113776 255 139 72
0.165247 -0.372445 0.0396536 255 139 72
0.385938 -0.413233 0.0580636 255 139 72
0.262624 -0.3215 0.0415038 255 139 72
0.375803 -0.406516 0.0732309 255 139 72
0.358123 -0.324065 0.0902729 255 139 72
0.056075 -0.38387 0.208615 255 139 72
0.318126 -0.300198 0.0448299 255 139 72
0.256351 -0.327708 0.117167 255 139 72
0.0965488 -0.354402 0.204541 255 139 72
0.11581 -0.376138 0.171032 255 139 72
0.273406 -0.385079 0.203048 255 139 72
0.135271 -0.403889 0.0468562 255 139 72
0.364887 -0.333242 0.0186215 255 139 72
0.22482 -0.397444 -0.0407439 255 139 72
0.179286 -0.339139 0.147866 255 139 72
0.127142 -0.376515 -0.0180514 255 139 72
0.334164 -0.344471 0.163489 255 139 72
0.316704 -0.327807 0.127019 255 139 72
0.151584 -0.402987 0.20428 255 139 72
0.305391 -0.329829 0.0542188 255 139 72
0.319018 -0.350709 0.0395627 255 139 72
0.32365 -0.344745 0.0408841 255 139 72
0.138995 -0.324314 0.039362 255 139 72
0.359919 -0.352397 0.024774 255 139 72
0.397249 -0.328467 0.0422573 255 139 72
0.124993 -0.34199 0.167187 255 139 72
0.259622 -0.397281 -0.0296676 255 139 72
0.209004 -0.328516 0.111482 255 139 72
0.331569 -0.3098 0.0404741 255 139 72
0.27443 -0.372232 0.0576092 255 139 72
0.26529 -0.388112 0.0104312 255 139 72
0.133953 -0.391577 0.00990717 255 139 72
0.325568 -0.315585 0.0301486 255 139 72
0.236747 -0.311954 0.0983593 255 139 72
0.293375 -0.373043 0.191908 255 139 72
0.265028 -0.341986 0.192837 255 139 72
0.112684 -0.347282 0.194096 255 139 72
0.251513 -0.320671 0.111028 255 139 72
0.0367548 -0.344401 0.0856173 255 139 72
0.297236 -0.378814 0.186509 255 139 72
0.408885 -0.337176 0.00876941 255 139 72
0.355348 -0.356412 0.0237637 255 139 72
0.423248 -0.34238 -0.0118636 255 139 72
0.344839 -0.424236 0.114765 255 139 72
0.419099 -0.372014 -0.0111082 255 139 72
0.222945 -0.33819 0.173709 255 139 72
0.188868 -0.339761 0.158708 255 139 72
0.252567 -0.332035 0.00290584 255 139 72
0.221522 -0.395914 -0.0630257 255 139 72
0.242817 -0.380623 0.0606512 255 139 72
-0.00652341 -0.373657 0.104134 255 139 72
0.365524 -0.386775 0.100869 255 139 72
0.288175 -0.31227 0.0418332 255 139 72
0.305031 -0.365732 0.0386318 255 139 72
0.350501 -0.327921 0.116549 255 139 72
0.372426 -0.331077 0.101748 255 139 72
0.391281 -0.328896 0.021959 255 139 72
0.173219 -0.343119 0.182892 255 139 72
0.252911 -0.310421 0.0439581 255 139 72
0.133656 -0.3903 -0.0254976 255 139 72
0.201292 -0.357533 -0.0211239 255 139 72
0.319541 -0.308216 0.0653947 255 139 72
0.404041 -0.373306 0.0315085 255 139 72
0.286014 -0.323604 0.0441825 255 139 72
0.0860276 -0.397077 0.0496554 255 139 72
0.28613 -0.294357 0.0741751 255 139 72
0.201592 -0.41151 0.205343 255 139 72
0.00493515 -0.351086 0.090911 255 139 72
0.418345 -0.339358 -0.00139663 255 139 72
0.291323 -0.3625 0.19623 255 139 72
0.39089 -0.422418 0.0499545 255 139 72
0.293375 -0.308117 0.084252 255 139 72
0.21341 -0.392094 -0.0289462 255 139 72
0.193932 -0.379147 0.0803343 255 139 72
0.187584 -0.389581 -0.0721755 255 139 72
0.300437 -0.339406 0.18581 255 139 72
0.290438 -0.342397 0.194215 255 139 72
0.40697 -0.336286 0.0130452 255 139 72
-0.019543 -0.385017 -0.0616335 255 139 72
0.222114 -0.393894 -0.0283662 255 139 72
0.381577 -0.420257 0.0637647 255 139 72
-0.0390831 -0.360033 -0.0626625 255 139 72
0.376237 -0.323358 0.072697 255 139 72
0.332907 -0.323796 0.0821789 255 139 72
0.374219 -0.333436 0.0144825 255 139 72
0.0149725 -0.343984 0.078551 255 139 72
0.320538 -0.354536 0.0453565 255 139 72
0.273415 -0.341774 0.192175 255 139 72
0.357555 -0.351076 0.132204 255 139 72
0.320333 -0.325462 0.101316 255 139 72
0.0435554 -0.34249 0.0992827 255 139 72
0.330102 -0.347861 0.0389001 255 139 72
0.148383 -0.374225 0.152933 255 139 72
0.165353 -0.334626 -0.0171019 255 139 72
0.105616 -0.409083 0.0432871 255 139 72
0.136328 -0.379826 0.140987 255 139 72
0.31772 -0.336014 0.0481702 255 139 72
0.258929 -0.408852 0.201513 255 139 72
0.212289 -0.379218 0.0876989 255 139 72
0.252027 -0.33216 0.153637 255 139 72
0.127127 -0.335102 0.092999 255 139 72
0.261345 -0.319982 0.0256944 255 139 72
0.0537418 -0.365473 -0.035549 255 139 72
0.224836 -0.364074 0.210242 255 139 72
0.139486 -0.334834 0.118724 255 139 72
0.15443 -0.363827 0.164333 255 139 72
0.0881104 -0.339291 0.064441 255 139 72
0.263749 -0.400726 0.202915 255 139 72
0.242998 -0.305623 0.0555565 255 139 72
0.118653 -0.336759 0.121136 255 139 72
0.176248 -0.315759 0.0791776 255 139 72
0.331182 -0.382581 0.151146 255 139 72
0.313562 -0.323762 0.0877077 255 139 72
0.355944 -0.330224 0.0272307 255 139 72
0.189044 -0.350367 0.0539302 255 139 72
0.249003 -0.334638 -0.00160828 255 139 72
-0.102351 -0.358484 0.00156199 255 139 72
0.124756 -0.320823 0.0163835 255 139 72
0.0231454 -0.350778 0.195256 255 139 72
0.261166 -0.397131 -0.0345596 255 139 72
0.183474 -0.373901 0.0406748 255 139 72
0.39 -0.325488 0.0626284 255 139 72
0.32667 -0.427931 0.137068 255 139 72
0.393362 -0.360262 0.0642174 255 139 72
0.377015 -0.323662 0.079363 255 139 72
0.220345 -0.337391 0.167021 255 139 72
0.200322 -0.326804 0.105318 255 139 72
0.101387 -0.335638 0.0287895 255 139 72
0.362478 -0.399096 0.0980812 255 139 72
0.175405 -0.382134 0.208389 255 139 72
0.313446 -0.344518 0.0642173 255 139 72
0.220212 -0.342529 -0.0106425 255 139 72
