# .PCD v0.7 - Point Cloud Data file format
VERSION 0.7
FIELDS x y z rgb
SIZE 4 4 4 4
TYPE F F F F
COUNT 1 1 1 1
WIDTH 832
HEIGHT 1
VIEWPOINT 0 0 0 1 0 0 0
POINTS 832
DATA ascii
-0.1274053156 -0.1747660637 -0.1947282553 2.898180898e-39
-0.1230891123 -0.2792721093 -0.2026643306 2.898180898e-39
-0.1202566251 -0.3734317422 0.2480717301 2.898180898e-39
-0.1115718558 -0.4608259499 0.234530583 2.898180898e-39
-0.1161175892 -0.3030879498 0.2680438459 2.898180898e-39
-0.112084873 -0.4248147607 0.2914025486 2.898180898e-39
-0.09564440697 -0.1786649823 -0.1967838258 2.898180898e-39
-0.0731966719 -0.276358366 -0.1970984489 2.898180898e-39
-0.06582597643 -0.1782397926 -0.1871888638 2.898180898e-39
-0.05049350113 -0.1994104087 -0.1976446956 2.898180898e-39
-0.1503338665 -0.4323260486 0.1816807836 2.898180898e-39
-0.141975075 -0.4806635082 0.1078656912 2.898180898e-39
-0.1457995176 -0.3675731122 0.1905192584 2.898180898e-39
-0.1370494068 -0.4756920338 0.2323003113 2.898180898e-39
-0.1544667035 -0.4072332084 0.1644586474 2.898180898e-39
-0.1461499482 -0.477253139 0.1039459854 2.898180898e-39
-0.1487074494 -0.3286580145 0.1841700971 2.898180898e-39
-0.1379177272 -0.4555104077 0.2211071104 2.898180898e-39
-0.1480753273 -0.199352622 0.2141086906 2.898180898e-39
-0.1517410725 -0.3063977063 0.242569074 2.898180898e-39
-0.1622057408 -0.188250199 0.275927335 2.898180898e-39
-0.153399244 -0.2374012768 0.2815165818 2.898180898e-39
-0.1343240589 -0.1894181967 -0.1733272672 6.490113838e-41
-0.1369364262 -0.3390273154 -0.1671195477 6.490113838e-41
-0.1322759688 -0.1688893139 -0.1516155899 6.490113838e-41
-0.1340608001 -0.2400470078 -0.1568206996 6.490113838e-41
-0.1200890616 -0.201074928 -0.2022102475 6.490113838e-41
-0.1242127046 -0.3597703576 -0.1953616887 6.490113838e-41
-0.1191409752 -0.1458822489 -0.1799115539 6.490113838e-41
-0.1184134707 -0.2562659681 -0.1888753921 6.490113838e-41
0.111987114 -0.4830089808 0.2281971574 6.490113838e-41
0.1005802527 -0.486317575 0.08122465014 6.490113838e-41
0.0479817912 -0.4829523265 0.1889152974 6.490113838e-41
0.1564339399 -0.4846065342 0.1716877073 6.490113838e-41
-0.1488015056 -0.3718200624 0.2016063929 6.490113838e-41
-0.1481921226 -0.4585095346 0.1840745658 6.490113838e-41
-0.1547735631 -0.2880398631 0.2157479823 6.490113838e-41
-0.1485481113 -0.4216855168 0.2399498522 6.490113838e-41
-0.1456958055 -0.1775286496 0.2976474762 6.490113838e-41
-0.1410885602 -0.2735207677 0.3191989958 6.490113838e-41
-0.1498569548 -0.1681371182 0.3285470009 6.490113838e-41
-0.1498060822 -0.2157226205 0.337483108 6.490113838e-41
0.1354956627 -0.4020587504 -0.2120534927 6.490113838e-41
0.1390899569 -0.4791878164 -0.2151087075 6.490113838e-41
0.1756248623 -0.3354074061 -0.2160258591 6.490113838e-41
0.2139028907 -0.4452585876 -0.2121855915 6.490113838e-41
-0.05487804115 -0.2326520979 -0.2111796588 6.490113838e-41
-0.01424698718 -0.3614031971 -0.2098416686 6.490113838e-41
0.01773976535 -0.1909501851 -0.2116929144 6.490113838e-41
0.0399023965 -0.2674858868 -0.2115693539 6.490113838e-41
0.120635964 -0.4851686358 -0.05270137265 6.490113838e-41
0.0831079483 -0.4876920283 -0.1713670194 6.490113838e-41
0.01749469526 -0.4848651588 -0.1044319272 6.490113838e-41
0.170778811 -0.4849623442 -0.1297742128 6.490113838e-41
-0.1309857816 -0.2162808478 -0.1610463113 6.490113838e-41
-0.1340154707 -0.342276901 -0.147458449 6.490113838e-41
-0.1331413388 -0.179226011 -0.1389377117 6.490113838e-41
-0.1312943399 -0.2600033283 -0.1386874318 6.490113838e-41
-0.1455693543 -0.3500926793 0.2818426788 6.490113838e-41
-0.1389271617 -0.4447354078 0.2852476537 6.490113838e-41
-0.1545045525 -0.2889641523 0.3006270826 6.490113838e-41
-0.1386688501 -0.3920893967 0.3205297887 6.490113838e-41
-0.01291221566 -0.2208520472 -0.2187141031 6.490113838e-41
0.02514827624 -0.3459347785 -0.2187789083 6.490113838e-41
0.06300035864 -0.195212245 -0.2152846456 6.490113838e-41
0.08173763752 -0.2576117218 -0.2180384994 6.490113838e-41
-0.08299746364 -0.2486268282 -0.2103747874 6.490113838e-41
-0.08484963328 -0.4165114462 -0.2090091556 6.490113838e-41
-0.0824804008 -0.1613721848 -0.2002586722 6.490113838e-41
-0.08178761601 -0.3222521245 -0.2059170604 6.490113838e-41
0.1226531789 -0.4889487624 -0.005282837898 6.490113838e-41
0.08539900929 -0.4879100025 -0.1505098641 6.490113838e-41
0.0256802924 -0.4845462441 -0.0677022934 6.490113838e-41
0.1535230428 -0.4871079326 -0.09013529122 6.490113838e-41
-0.05113244057 -0.1915807277 -0.2148646563 6.490113838e-41
-0.01875694282 -0.3294997215 -0.2134507596 6.490113838e-41
-0.01249846257 -0.1649158597 -0.2109431177 6.490113838e-41
0.01102746092 -0.2309367359 -0.2123673707 6.490113838e-41
-0.08045897633 -0.1695488691 -0.2222101688 6.490113838e-41
-0.05784708261 -0.2856191099 -0.2169484794 6.490113838e-41
-0.04922538251 -0.1628353447 -0.2084890902 6.490113838e-41
-0.03552009165 -0.1945596337 -0.2153309584 6.490113838e-41
-0.1373398155 -0.3099927306 0.2471899241 6.490113838e-41
-0.1307399124 -0.4247563779 0.2502302825 6.490113838e-41
-0.1356751919 -0.2312512994 0.2736356556 6.490113838e-41
-0.1297000349 -0.3598111272 0.2874684036 6.490113838e-41
-0.136010319 -0.2050056458 -0.148031503 6.490113838e-41
-0.1400543451 -0.3101155162 -0.1249281317 6.490113838e-41
-0.1407170445 -0.1781935394 -0.09442894161 6.490113838e-41
-0.1422184408 -0.237878859 -0.1023734659 6.490113838e-41
0.1214729473 -0.4820252061 0.3350147605 6.490113838e-41
0.1233144999 -0.4874154329 0.1992248744 6.490113838e-41
0.05371440947 -0.4808564782 0.3285001218 6.490113838e-41
0.1853562444 -0.4854022563 0.280041039 6.490113838e-41
-0.1628391594 -0.3668109477 0.1976099759 6.490113838e-41
-0.1634630263 -0.4636099935 0.1736297905 6.490113838e-41
-0.1668995023 -0.2827475071 0.2328313142 6.490113838e-41
-0.157280311 -0.4229916632 0.2553695142 6.490113838e-41
-0.1457570791 -0.2526484728 0.2044953704 6.490113838e-41
-0.1418051571 -0.3985389471 0.2163210064 6.490113838e-41
-0.151858151 -0.1835213304 0.2469158471 6.490113838e-41
-0.1444916576 -0.3027387857 0.2546676397 6.490113838e-41
0.1582569629 -0.4844889641 0.1541343033 6.490113838e-41
0.1323713064 -0.4870805442 -0.02888045087 6.490113838e-41
0.06091287732 -0.4830758572 0.09557762742 6.490113838e-41
0.2129660994 -0.4848282337 0.05621106923 6.490113838e-41
-0.1260299534 -0.3498084247 0.2638422847 6.490113838e-41
-0.1250071973 -0.4518572092 0.2587766647 6.490113838e-41
-0.1315412968 -0.2727015615 0.2870647907 6.490113838e-41
-0.1229173467 -0.4031999409 0.3045239151 6.490113838e-41
-0.1341150701 -0.1628349125 -0.1491234004 6.490113838e-41
-0.1320278049 -0.263515383 -0.1135287881 6.490113838e-41
-0.1334974617 -0.1669355482 -0.07255975902 6.490113838e-41
-0.1304685771 -0.192481935 -0.09354248643 6.490113838e-41
0.04209954664 -0.1861524582 -0.2221216857 6.490113838e-41
0.07615606487 -0.3120751977 -0.2210348845 6.490113838e-41
0.09076876938 -0.157861501 -0.2192901522 6.490113838e-41
0.1045716181 -0.220428139 -0.2198066413 6.490113838e-41
0.06196010858 -0.3562449217 -0.2070049345 6.490113838e-41
0.07272236049 -0.4623931646 -0.2101185918 6.490113838e-41
0.1118394211 -0.2672868967 -0.202568084 6.490113838e-41
0.1211705208 -0.4141793251 -0.2029301673 6.490113838e-41
-0.1480067223 -0.1918096542 -0.1428835839 6.490113838e-41
-0.1478079706 -0.2780177593 -0.1221506596 6.490113838e-41
-0.145182699 -0.1647017151 -0.1167129427 6.490113838e-41
-0.1442985088 -0.2186426222 -0.1179561019 6.490113838e-41
-0.08336309344 -0.3424567878 -0.2084230334 6.490113838e-41
-0.0660475716 -0.4582535028 -0.2102772146 6.490113838e-41
-0.05637310445 -0.2578865588 -0.2079639733 6.490113838e-41
-0.02869470231 -0.403401792 -0.2032174766 6.490113838e-41
0.248862952 -0.4413905442 -0.2097695023 6.490113838e-41
0.2274556756 -0.4840100706 -0.1977452785 6.490113838e-41
0.2231909782 -0.3752144873 -0.2142714411 6.490113838e-41
0.2799395323 -0.481121242 -0.2086486369 6.490113838e-41
0.02507463843 -0.3617130816 -0.2146167755 6.490113838e-41
0.03273908421 -0.4597013891 -0.2144751847 6.490113838e-41
0.05272857472 -0.2817285955 -0.2120210826 6.490113838e-41
0.06065419316 -0.4134458303 -0.2097521424 6.490113838e-41
-0.1277953386 -0.1769336164 -0.115754962 6.490113838e-41
-0.1286535263 -0.274988234 -0.0899900347 6.490113838e-41
-0.1288023293 -0.175226301 -0.06456260383 6.490113838e-41
-0.1275755912 -0.2041301131 -0.07762233913 6.490113838e-41
0.04519308731 -0.4044367373 0.1921546459 6.490113838e-41
0.04730281979 -0.4543587565 0.2004392296 6.490113838e-41
0.03678156063 -0.3807145953 0.2147745192 6.490113838e-41
0.0619032979 -0.4140053391 0.2082549483 6.490113838e-41
-0.14199166 -0.3543392718 0.1954491585 6.490113838e-41
-0.1398931444 -0.4588647187 0.1884355545 6.490113838e-41
-0.1417213082 -0.2786912024 0.2285913974 6.490113838e-41
-0.1361965388 -0.4111328721 0.2461017072 6.490113838e-41
-0.114424862 -0.1706678867 0.2090224773 3.015101038e-39
-0.1186463013 -0.278183192 0.2424564809 3.015101038e-39
-0.1246053204 -0.1587372571 0.276897043 3.015101038e-39
-0.1154190823 -0.2153110206 0.27885589 3.015101038e-39
-0.1435524374 -0.215834707 -0.106143713 3.015101038e-39
-0.1399493963 -0.351521045 -0.09002672136 3.015101038e-39
-0.1456297189 -0.1750738323 -0.07805526257 3.015101038e-39
-0.1426825821 -0.2643476725 -0.07819080353 3.015101038e-39
0.3067564368 -0.4420540333 -0.2011714876 3.015101038e-39
0.2831017077 -0.4841268361 -0.1906065047 3.015101038e-39
0.2959690988 -0.380828619 -0.197582826 3.015101038e-39
0.3276562989 -0.4808948338 -0.1947572231 3.015101038e-39
-0.09467133135 -0.1455281675 -0.2144369781 3.015101038e-39
-0.09213820845 -0.26934129 -0.2101036161 3.015101038e-39
-0.08724606782 -0.137201786 -0.1932069957 3.015101038e-39
-0.08519072831 -0.1815914661 -0.2038845122 3.015101038e-39
-0.1443860233 -0.4225564003 -0.01552349702 3.015101038e-39
-0.1364010721 -0.4797976315 -0.05815044418 3.015101038e-39
-0.1392066032 -0.3517056406 0.02089607716 3.015101038e-39
-0.1336399466 -0.4710555971 0.05410348997 3.015101038e-39
-0.005819616839 -0.3931940198 0.1847730428 3.015101038e-39
0.002466088161 -0.4372087419 0.1930138916 3.015101038e-39
-0.01045785658 -0.3905617595 0.2237201333 3.015101038e-39
0.01929650828 -0.3912781775 0.2053006142 3.015101038e-39
-0.1173046306 -0.3510604203 -0.2188202441 3.015101038e-39
-0.1185423806 -0.4613671005 -0.2193060517 3.015101038e-39
-0.1137539372 -0.2576568425 -0.2133131176 3.015101038e-39
-0.1134436801 -0.4138554633 -0.2087889761 3.015101038e-39
-0.1091442332 -0.2899090052 -0.2234196663 3.015101038e-39
-0.1134419218 -0.4294300973 -0.2183974087 3.015101038e-39
-0.1091079637 -0.215998739 -0.1949772984 3.015101038e-39
-0.1076095775 -0.3617734909 -0.1927007139 3.015101038e-39
-0.1365815401 -0.1895474195 -0.1059565395 3.015101038e-39
-0.1368896812 -0.3228833079 -0.07019791007 3.015101038e-39
-0.1368249357 -0.1704879105 -0.02520224079 3.015101038e-39
-0.1356877238 -0.2315523326 -0.03582385555 3.015101038e-39
-0.1324064732 -0.3111765981 0.2316953689 3.015101038e-39
-0.1255506575 -0.4365556836 0.2275416255 3.015101038e-39
-0.1320342869 -0.2203156352 0.2570278943 3.015101038e-39
-0.1247502789 -0.3761818707 0.2748351693 3.015101038e-39
-0.1256887615 -0.1983690858 -0.1334814578 3.015101038e-39
-0.1309483945 -0.3239010274 -0.1268885434 3.015101038e-39
-0.1284865588 -0.1582325995 -0.1174937785 3.015101038e-39
-0.1277417541 -0.2441220582 -0.1205714494 3.015101038e-39
-0.1258514225 -0.2623846829 0.1696516126 3.015101038e-39
-0.1227707043 -0.3850206137 0.182953611 3.015101038e-39
-0.1318623275 -0.2075327635 0.195216015 3.015101038e-39
-0.1251317114 -0.3034400046 0.2018277645 3.015101038e-39
0.1073808745 -0.2011402547 -0.2175561339 3.015101038e-39
0.1463356912 -0.31710729 -0.2151319981 3.015101038e-39
0.1479146034 -0.1670626104 -0.2146823853 3.015101038e-39
0.1648988128 -0.2323276997 -0.2166793048 3.015101038e-39
0.139976427 -0.4869593084 -0.1581910551 3.015101038e-39
0.09667938948 -0.4882879853 -0.1950117648 3.015101038e-39
0.05995611101 -0.4849717617 -0.1686442047 3.015101038e-39
0.1954235137 -0.4863937497 -0.1886857599 3.015101038e-39
-0.1414966434 -0.1742694378 -0.1694270223 3.015101038e-39
-0.1451173872 -0.2624418736 -0.1529338509 3.015101038e-39
-0.1409104913 -0.1526468694 -0.1427315474 3.015101038e-39
-0.1413160712 -0.2029268742 -0.1492358446 3.015101038e-39
-0.007664142177 -0.2450401783 -0.2015566528 3.015101038e-39
0.01382224634 -0.3843155205 -0.2037750483 3.015101038e-39
0.02161200717 -0.1724217832 -0.2021600157 3.015101038e-39
0.03087020107 -0.2937029302 -0.2023708522 3.015101038e-39
-0.1522154957 -0.1507840604 0.3822388649 3.015101038e-39
-0.1439624876 -0.2572511137 0.3898167014 3.015101038e-39
-0.1523662359 -0.1426939368 0.3908054531 3.015101038e-39
-0.1633861065 -0.1982747614 0.3970147967 3.015101038e-39
-0.1346696168 -0.1744808555 0.1107039154 3.015101038e-39
-0.1340655088 -0.295848459 0.1393489242 3.015101038e-39
-0.1425377727 -0.1525968015 0.1762350947 3.015101038e-39
-0.1366256028 -0.2125938833 0.1736118346 3.015101038e-39
0.1419866234 -0.4859886169 0.0316209197 3.015101038e-39
0.1148070395 -0.4878856242 -0.09780703485 3.015101038e-39
0.0640193522 -0.4849984646 -0.02335461974 3.015101038e-39
0.1794339269 -0.485997051 -0.04622405395 3.015101038e-39
-0.1398219466 -0.3914476335 0.1630256623 3.015101038e-39
-0.1344744116 -0.4718352258 0.1374724358 3.015101038e-39
-0.1360152513 -0.3103605211 0.1908849329 3.015101038e-39
-0.1297296584 -0.4403792322 0.2322514057 3.015101038e-39
-0.149986729 -0.4275456369 0.03919125348 3.015101038e-39
-0.1433745474 -0.4796436727 -0.04681848362 3.015101038e-39
-0.1388601214 -0.3508442044 0.05234669149 3.015101038e-39
-0.1426995099 -0.4767335653 0.09420873225 3.015101038e-39
-0.1507802457 -0.300301373 0.2155923247 3.015101038e-39
-0.1464716643 -0.4300689101 0.2154081613 3.015101038e-39
-0.1517772973 -0.2096633017 0.2577623725 3.015101038e-39
-0.1444774866 -0.3587297201 0.2713044882 3.015101038e-39
-0.1377976388 -0.167357713 0.2464472353 3.015101038e-39
-0.1356205344 -0.2705079019 0.2654725611 3.015101038e-39
-0.1443974227 -0.1556024253 0.27542606 3.015101038e-39
-0.1361216158 -0.2040697336 0.2795494497 3.015101038e-39
0.1858096868 -0.3796189427 -0.2139199525 3.015101038e-39
0.187724188 -0.4702288508 -0.2156619579 3.015101038e-39
0.2029118091 -0.3047151566 -0.2157623321 3.015101038e-39
0.2201745212 -0.4296618998 -0.2098484784 3.015101038e-39
0.1795166135 -0.2258111835 -0.2125622034 3.015101038e-39
0.1907942444 -0.3600709438 -0.2145620883 3.015101038e-39
0.1927157193 -0.1683729291 -0.2133524269 3.015101038e-39
0.1939377189 -0.2768327594 -0.2125796974 3.015101038e-39
-0.1346130371 -0.2072356343 -0.08735065162 3.015101038e-39
-0.1364935637 -0.2897595465 -0.06773528457 3.015101038e-39
-0.1402677596 -0.1743538082 -0.06449533999 3.015101038e-39
-0.1407766491 -0.2318513393 -0.06458003819 3.015101038e-39
0.1593770236 -0.4817147255 0.3351661265 3.015101038e-39
0.167817831 -0.4881149232 0.2297739536 3.015101038e-39
0.09864519536 -0.4796725214 0.3373654783 3.015101038e-39
0.2073441446 -0.4844023585 0.2925535142 3.015101038e-39
-0.09780364484 -0.3133705258 -0.2229403853 3.015101038e-39
-0.09363050759 -0.4450683594 -0.2264379561 3.015101038e-39
-0.09317351878 -0.2325149477 -0.2175126821 3.015101038e-39
-0.09211017936 -0.3836902976 -0.2170943022 3.015101038e-39
0.1481588185 -0.4846276343 0.1987618506 3.015101038e-39
0.1396044195 -0.4877176285 0.00923859328 3.015101038e-39
0.07433670759 -0.4821318686 0.1439485252 3.015101038e-39
0.2006477118 -0.4846665859 0.117111817 3.015101038e-39
0.0935812965 -0.203734383 -0.2012653649 3.015101038e-39
0.1237634271 -0.3632640839 -0.1997656375 3.015101038e-39
0.1306378245 -0.1567127407 -0.1959301084 3.015101038e-39
0.1350277215 -0.2573975921 -0.2000490576 3.015101038e-39
0.09066988528 -0.1722921729 -0.2138373703 3.015101038e-39
0.1287936419 -0.2974108756 -0.2107075751 3.015101038e-39
0.132657066 -0.1449838579 -0.2073601484 3.015101038e-39
0.1494498104 -0.2048602253 -0.2104802579 3.015101038e-39
0.05456537008 -0.3521982729 -0.2239662409 3.015101038e-39
0.06651417911 -0.4618386626 -0.2275913954 3.015101038e-39
0.1132530421 -0.2638686895 -0.2229529917 3.015101038e-39
0.1274919063 -0.4132520556 -0.2224732339 3.015101038e-39
-0.1326700896 -0.1494519114 0.2625210881 5.962428276e-39
-0.1288313568 -0.2242721021 0.2823632956 5.962428276e-39
-0.1337564588 -0.1470025033 0.2968220711 5.962428276e-39
-0.1314417273 -0.1700239778 0.2933301926 5.962428276e-39
0.1609491706 -0.2325737178 -0.2073475122 5.962428276e-39
0.1903797239 -0.3722857833 -0.21037893 5.962428276e-39
0.2193432748 -0.1766075045 -0.210620001 5.962428276e-39
0.2383205146 -0.286423564 -0.2074277252 5.962428276e-39
-0.1456373185 -0.4005803466 -0.02452718094 5.962428276e-39
-0.1528111398 -0.4707201123 -0.03438260034 5.962428276e-39
-0.1524699032 -0.3242858946 -0.01308588311 5.962428276e-39
-0.14973405 -0.4431132674 0.00939036347 5.962428276e-39
0.09825857729 -0.1796832979 -0.2153913975 5.962428276e-39
0.1430500895 -0.3332482278 -0.2129110545 5.962428276e-39
0.1709778607 -0.1367504597 -0.2141960859 5.962428276e-39
0.1888759285 -0.2280753553 -0.2154902369 5.962428276e-39
0.1325731874 -0.4864762425 0.02754440159 5.962428276e-39
0.1118493453 -0.4874881506 -0.1423061639 5.962428276e-39
0.05729429424 -0.4852233827 -0.03561032191 5.962428276e-39
0.1695521027 -0.4863179624 -0.05454675481 5.962428276e-39
0.09912941605 -0.1934004873 -0.2063668817 5.962428276e-39
0.1423981637 -0.3536858261 -0.2069734186 5.962428276e-39
0.1724810749 -0.1253196001 -0.2065103054 5.962428276e-39
0.1910646856 -0.2459484935 -0.2074563056 5.962428276e-39
0.00860805437 -0.1882111877 -0.2005449384 5.962428276e-39
0.04797203094 -0.3341629505 -0.1978015751 5.962428276e-39
0.08316440135 -0.1533629298 -0.1966157556 5.962428276e-39
0.1064489111 -0.227232784 -0.1984839588 5.962428276e-39
-0.152550593 -0.1732446253 -0.1449502409 5.962428276e-39
-0.1577613801 -0.2636939883 -0.1280122846 5.962428276e-39
-0.1508457363 -0.1464329362 -0.120726496 5.962428276e-39
-0.1513405293 -0.2056433856 -0.1227604598 5.962428276e-39
-0.07136591524 -0.3224433661 -0.2079496831 5.962428276e-39
-0.04453895241 -0.4425699115 -0.2114073783 5.962428276e-39
-0.01909549348 -0.2561778426 -0.2063650489 5.962428276e-39
0.005146401003 -0.3811023235 -0.2041875869 5.962428276e-39
0.1688420326 -0.2269521654 -0.2125963122 5.962428276e-39
0.2065469772 -0.3803838789 -0.2096824795 5.962428276e-39
0.2329846472 -0.1575631499 -0.213003844 5.962428276e-39
0.2545823455 -0.2816469967 -0.2148439586 5.962428276e-39
0.1705730557 -0.1942259073 -0.2247890234 5.962428276e-39
0.200305298 -0.3418413699 -0.2228912413 5.962428276e-39
0.2291936129 -0.1338524073 -0.2249793112 5.962428276e-39
0.2431537509 -0.2468002439 -0.2256119847 5.962428276e-39
-0.1256799102 -0.2473396659 -0.108142674 5.962428276e-39
-0.1244636998 -0.3290145099 -0.09647250175 5.962428276e-39
-0.1274082363 -0.2070612758 -0.09397247434 5.962428276e-39
-0.1285798401 -0.269303143 -0.09055833519 5.962428276e-39
0.1844932586 -0.2079014033 -0.2082401961 5.962428276e-39
0.2263952196 -0.3414375186 -0.2058377862 5.962428276e-39
0.22745803 -0.1473359615 -0.2114923 5.962428276e-39
0.2527256012 -0.2508841157 -0.2083840668 5.962428276e-39
-0.03611307591 -0.3035395741 -0.2239993811 5.962428276e-39
-0.007349239662 -0.4315468967 -0.2229905128 5.962428276e-39
0.00122766383 -0.2178372145 -0.2244894207 5.962428276e-39
0.02852837741 -0.3616456389 -0.2186103463 5.962428276e-39
-0.1373422146 -0.3497073054 -0.2172778845 5.962428276e-39
-0.1379940212 -0.4403267801 -0.2148047835 5.962428276e-39
-0.1311069429 -0.2952367663 -0.2118216306 5.962428276e-39
-0.1311890632 -0.3920724392 -0.2117821127 5.962428276e-39
-0.1321171969 -0.3997150958 0.1097192168 5.962428276e-39
-0.1268922687 -0.4744097292 0.07087750733 5.962428276e-39
-0.1242226139 -0.3106541634 0.1386684924 5.962428276e-39
-0.1239827052 -0.4464560449 0.1730083823 5.962428276e-39
-0.127738595 -0.1617015898 0.1289691478 5.962428276e-39
-0.1253632009 -0.2905475199 0.1583398581 5.962428276e-39
-0.1363740414 -0.1388516724 0.2024053484 5.962428276e-39
-0.1285861284 -0.2042490542 0.1981530935 5.962428276e-39
-0.1317501664 -0.1429207176 0.3568411767 5.962428276e-39
-0.1260812283 -0.2533123493 0.367657274 5.962428276e-39
-0.140273422 -0.1179531738 0.3762428164 5.962428276e-39
-0.1389454454 -0.1941917241 0.3834964335 5.962428276e-39
0.05252914503 -0.1664679945 -0.2085285336 5.962428276e-39
0.1087666303 -0.288113147 -0.2041882575 5.962428276e-39
0.1265571564 -0.1338043064 -0.2082515806 5.962428276e-39
0.154421553 -0.203104645 -0.2083228827 5.962428276e-39
0.1304233223 -0.1840872765 -0.2173314542 5.962428276e-39
0.1703856587 -0.3074277043 -0.2169764042 5.962428276e-39
0.2006276995 -0.1427319497 -0.2182672471 5.962428276e-39
0.2230285704 -0.2251854539 -0.2160556763 5.962428276e-39
-0.135602504 -0.2420350611 -0.06123269722 5.962428276e-39
-0.1367190778 -0.3252221346 -0.04347865656 5.962428276e-39
-0.141864866 -0.2017040253 -0.03718459234 5.962428276e-39
-0.1414865106 -0.26560691 -0.0324184075 5.962428276e-39
-0.09381534159 -0.306327939 -0.1999529451 5.962428276e-39
-0.06697160751 -0.425042212 -0.2017598301 5.962428276e-39
-0.03497460485 -0.2480320334 -0.1938248873 5.962428276e-39
-0.02234424837 -0.3504427671 -0.1950022876 5.962428276e-39
-0.1415589303 -0.3017360866 0.2004349083 5.962428276e-39
-0.1368640512 -0.4289623499 0.204069674 5.962428276e-39
-0.1424143016 -0.2132646143 0.2258672267 5.962428276e-39
-0.1391468793 -0.3604993522 0.2401954383 5.962428276e-39
-0.1402957588 -0.3973541558 -0.1420281827 5.962428276e-39
-0.1351170391 -0.4624126852 -0.1358920187 5.962428276e-39
-0.134843573 -0.3416699469 -0.125599876 5.962428276e-39
-0.1304151118 -0.4290814102 -0.114313066 5.962428276e-39
0.07838054746 -0.4079378247 0.1864148676 5.962428276e-39
0.07272002846 -0.4527118206 0.1973440051 5.962428276e-39
0.06131830812 -0.403008461 0.2254214138 5.962428276e-39
0.09630891681 -0.4114227295 0.2134491056 5.962428276e-39
0.1544153988 -0.4847310781 -0.003564115614 5.962428276e-39
0.1263257712 -0.4866612852 -0.1432728469 5.962428276e-39
0.0582286641 -0.484708339 -0.05137196556 5.962428276e-39
0.2080849856 -0.4843475223 -0.08520340919 5.962428276e-39
0.1495874077 -0.1693592072 -0.2082145661 5.962428276e-39
0.1846554875 -0.3029446602 -0.2061788291 5.962428276e-39
0.2141383141 -0.1299276054 -0.2096544206 5.962428276e-39
0.2339817435 -0.2120469511 -0.2080717087 5.962428276e-39
0.1720529646 -0.2380473912 -0.217401728 5.962428276e-39
0.205373317 -0.3820657134 -0.2174557894 5.962428276e-39
0.2066450417 -0.1690585315 -0.2207676172 5.962428276e-39
0.2249272168 -0.2911277115 -0.2186750621 5.962428276e-39
-0.1386285275 -0.1273170263 -0.2283011377 5.962428276e-39
-0.1365549713 -0.2372587919 -0.2207235098 5.962428276e-39
-0.1303004324 -0.1188925952 -0.2081641406 5.962428276e-39
-0.1210440621 -0.1552553624 -0.2205718756 5.962428276e-39
-0.1017755643 -0.1287563145 -0.2253402174 5.962428276e-39
-0.06650771201 -0.2351029217 -0.225386858 5.962428276e-39
-0.06230214238 -0.1146589294 -0.2195907831 5.962428276e-39
-0.03868035227 -0.1543990076 -0.2239034772 5.962428276e-39
-0.1323055476 -0.1735713482 0.1526409686 5.962428276e-39
-0.1346824765 -0.2961846888 0.1694093198 5.962428276e-39
-0.1417776793 -0.133920446 0.1855925322 5.962428276e-39
-0.1375711709 -0.2158921361 0.1870651841 5.962428276e-39
0.1205585375 -0.2679887414 -0.224375993 5.962428276e-39
0.1557813138 -0.3475103378 -0.2204592228 5.962428276e-39
0.1864681393 -0.2282764316 -0.2222104669 5.962428276e-39
0.2060198188 -0.2956425548 -0.217196092 5.962428276e-39
-0.1372915953 -0.4059611261 0.08199551702 8.906165387e-39
-0.1383760422 -0.4744494259 0.0588757433 8.906165387e-39
-0.1386004388 -0.3387909234 0.1013864279 8.906165387e-39
-0.1401102543 -0.4532727599 0.1250441819 8.906165387e-39
-0.1339704394 -0.1348007917 -0.1759036034 8.906165387e-39
-0.1379548758 -0.2574400306 -0.1551788598 8.906165387e-39
-0.1356565207 -0.1143485755 -0.1388257146 8.906165387e-39
-0.1354819238 -0.1802375913 -0.1469353139 8.906165387e-39
0.1564269513 -0.1747087389 -0.1980186701 8.906165387e-39
0.2061763704 -0.2911901176 -0.1965803206 8.906165387e-39
0.2293885052 -0.1413016468 -0.1989630163 8.906165387e-39
0.2548508346 -0.211230725 -0.1966443658 8.906165387e-39
0.1706650257 -0.4875273108 0.07484883815 8.906165387e-39
0.142705664 -0.4886243939 -0.07612717152 8.906165387e-39
0.0710394308 -0.4856489301 0.03179373965 8.906165387e-39
0.2036448121 -0.487870872 -0.004636853933 8.906165387e-39
-0.05959504843 -0.1402677596 -0.2214608788 8.906165387e-39
-0.02497046627 -0.2885851562 -0.2182798237 8.906165387e-39
0.004172591493 -0.09334596992 -0.2234723866 8.906165387e-39
0.01849300787 -0.1919623762 -0.2229726613 8.906165387e-39
-0.1238304749 -0.2982549667 0.1856126487 8.906165387e-39
-0.1199996546 -0.4148107767 0.1915810406 8.906165387e-39
-0.1305013299 -0.2273156345 0.2022375315 8.906165387e-39
-0.1254824698 -0.3401819766 0.2098003328 8.906165387e-39
0.2212519199 -0.3852993846 -0.1969590783 8.906165387e-39
0.2305278778 -0.467551887 -0.1936246008 8.906165387e-39
0.2405050695 -0.315834105 -0.1970751137 8.906165387e-39
0.2628919482 -0.4294480085 -0.1948080957 8.906165387e-39
-0.03943572193 -0.3316720724 -0.2091870755 8.906165387e-39
-0.01459606923 -0.4500906169 -0.2079381794 8.906165387e-39
0.02983798459 -0.2507483959 -0.2082996517 8.906165387e-39
0.05281062424 -0.3956809044 -0.2034067363 8.906165387e-39
0.07142722607 -0.2759128809 -0.2173683941 8.906165387e-39
0.1196098328 -0.4214007258 -0.2148240209 8.906165387e-39
0.1571139246 -0.1996025443 -0.2141476572 8.906165387e-39
0.1818265915 -0.3388328552 -0.214310348 8.906165387e-39
-0.1260588616 -0.3657084703 -0.186370939 8.906165387e-39
-0.1296085715 -0.4611462951 -0.1835112572 8.906165387e-39
-0.1258576661 -0.2825788558 -0.1769283414 8.906165387e-39
-0.124130033 -0.4146082699 -0.1685741246 8.906165387e-39
0.09511255473 -0.2361136079 -0.201112017 8.906165387e-39
0.1295638084 -0.3865635991 -0.204015255 8.906165387e-39
0.1633967757 -0.1571962535 -0.2024129778 8.906165387e-39
0.1810213178 -0.2894099355 -0.2020982355 8.906165387e-39
-0.1211167648 -0.2110788077 -0.05683945492 8.906165387e-39
-0.1221116856 -0.3527680039 -0.03909635916 8.906165387e-39
-0.1274528652 -0.1518202126 -0.03047403321 8.906165387e-39
-0.1265076846 -0.2622812986 -0.02212040871 8.906165387e-39
-0.03237470984 -0.3390350938 -0.2138313204 8.906165387e-39
-0.007513174787 -0.4508175552 -0.2148437053 8.906165387e-39
0.0369534269 -0.2560617626 -0.2129967362 8.906165387e-39
0.05726765096 -0.3972693682 -0.2105649263 8.906165387e-39
0.02780196629 -0.3308011293 -0.2166081369 8.906165387e-39
0.06518772244 -0.4496511817 -0.2149192244 8.906165387e-39
0.1117257327 -0.2503192723 -0.2097316384 8.906165387e-39
0.1393242925 -0.3910994232 -0.2097440958 8.906165387e-39
-0.1327760071 -0.3417705297 -0.1920520365 8.906165387e-39
-0.1351635009 -0.4524099529 -0.1890698373 8.906165387e-39
-0.1289656758 -0.2607891858 -0.1825481057 8.906165387e-39
-0.1256119013 -0.3973806798 -0.1798749864 8.906165387e-39
-0.1497318 -0.1037114114 -0.2127178609 8.906165387e-39
-0.1259865165 -0.2256572545 -0.2152127177 8.906165387e-39
-0.09571475536 -0.08074262738 -0.2105810344 8.906165387e-39
-0.06943641603 -0.1333749145 -0.2149801254 8.906165387e-39
0.1784182042 -0.2100997865 -0.2237644494 8.906165387e-39
0.2169603556 -0.3452894986 -0.2184397131 8.906165387e-39
0.2434688061 -0.1469971985 -0.2250887156 8.906165387e-39
0.2672229409 -0.2530302405 -0.2231192589 8.906165387e-39
0.2376288772 -0.1837300658 -0.2073790133 8.906165387e-39
0.2623085082 -0.3244345784 -0.2105706781 8.906165387e-39
0.2668340802 -0.1255922318 -0.2118510604 8.906165387e-39
0.2737638056 -0.2352772355 -0.2127081603 8.906165387e-39
-0.1305320114 -0.1106532738 0.3307506442 8.906165387e-39
-0.1221427843 -0.2443265319 0.3445338607 8.906165387e-39
-0.1323500425 -0.07476036251 0.359434247 8.906165387e-39
-0.1322346181 -0.1696778238 0.3657458723 8.906165387e-39
-0.1538497657 -0.3575493097 -0.1869418323 8.906165387e-39
-0.1522945017 -0.4456706643 -0.1862442046 8.906165387e-39
-0.1492381543 -0.2957707644 -0.1761913598 8.906165387e-39
-0.1481369585 -0.3983091712 -0.1755174547 8.906165387e-39
-0.145859912 -0.2143870294 -0.008977599442 8.906165387e-39
-0.1416429281 -0.3666594326 0.004093805328 8.906165387e-39
-0.1484520733 -0.1481463313 0.01934888214 8.906165387e-39
-0.1433773488 -0.2730092704 0.02450677007 8.906165387e-39
-0.09036045521 -0.1141038612 -0.2065830082 8.906165387e-39
-0.07002507895 -0.2300708592 -0.2056466639 8.906165387e-39
-0.06189833581 -0.08764275163 -0.1997656971 8.906165387e-39
-0.04535467178 -0.1507116556 -0.2080919743 8.906165387e-39
0.1653321385 -0.483381182 0.2592751086 8.906165387e-39
0.1565810591 -0.4861100614 0.1488709003 8.906165387e-39
0.09463496506 -0.4823096097 0.2605900466 8.906165387e-39
0.2063461989 -0.4835529625 0.215702951 8.906165387e-39
-0.1222351566 -0.2594457567 -0.1440321803 8.906165387e-39
-0.1233371273 -0.3720282018 -0.1259538829 8.906165387e-39
-0.123098962 -0.2087818086 -0.1136299372 8.906165387e-39
-0.1228511557 -0.2938831151 -0.1131902188 8.906165387e-39
-0.1238275692 -0.2008521855 0.007109014317 8.906165387e-39
-0.1209868267 -0.3377240896 0.03117106296 8.906165387e-39
-0.1253707409 -0.1626551151 0.06784196198 8.906165387e-39
-0.1212309971 -0.253890872 0.06943912804 8.906165387e-39
0.03543848172 -0.3077744246 -0.2299135029 8.906165387e-39
0.05517330021 -0.4366998076 -0.2289144099 8.906165387e-39
0.07457920909 -0.2255380154 -0.2269162238 8.906165387e-39
0.08594057709 -0.3695739806 -0.2272829413 8.906165387e-39
0.06369174272 -0.262437284 -0.2086036354 8.906165387e-39
0.0964018181 -0.4073057771 -0.2073008567 8.906165387e-39
0.1119116992 -0.1697365642 -0.2061000764 8.906165387e-39
0.1258615404 -0.3122429252 -0.2076570094 8.906165387e-39
-0.1314810365 -0.2391539216 0.1417949796 8.906165387e-39
-0.1320230067 -0.4003484547 0.1479071379 8.906165387e-39
-0.143174991 -0.1630427241 0.1568969488 8.906165387e-39
-0.1356236488 -0.3005049825 0.1685672551 8.906165387e-39
-0.02999692969 -0.1196840629 -0.2212799489 8.906165387e-39
0.01262066513 -0.2364307046 -0.2221245766 8.906165387e-39
0.05022413284 -0.1082885265 -0.2174816132 8.906165387e-39
0.07360770553 -0.1484721601 -0.222391516 8.906165387e-39
0.1935978979 -0.268981576 -0.2142110765 8.906165387e-39
0.2233088017 -0.3858856261 -0.210157305 8.906165387e-39
0.2476467788 -0.207274586 -0.2159377486 8.906165387e-39
0.2711922824 -0.3068419397 -0.2124608159 8.906165387e-39
0.1980963647 -0.4839530587 0.2198807895 8.906165387e-39
0.2023084015 -0.4881557226 0.05554661527 8.906165387e-39
0.1313506961 -0.4821642339 0.1976275742 8.906165387e-39
0.249615863 -0.4842411876 0.1533700675 8.906165387e-39
-0.132941559 -0.3195000291 0.1698533446 8.906165387e-39
-0.1244023666 -0.4312485158 0.1754336655 8.906165387e-39
-0.1350994706 -0.244620502 0.1904697567 8.906165387e-39
-0.1287045181 -0.3642438948 0.2048774511 8.906165387e-39
0.004050374031 -0.3766360283 0.1346999109 1.184631237e-38
0.01156387478 -0.4307730198 0.1507638991 1.184631237e-38
0.001998431981 -0.3717146516 0.168518886 1.184631237e-38
0.02969496325 -0.3811211586 0.1565884203 1.184631237e-38
-0.1347360909 -0.2064799368 0.05161995441 1.184631237e-38
-0.1332222074 -0.3558803797 0.06647587568 1.184631237e-38
-0.1410761476 -0.1418578923 0.07295441628 1.184631237e-38
-0.1355213672 -0.2657437027 0.08117818832 1.184631237e-38
-0.03346590698 -0.3184182346 -0.2047891915 1.184631237e-38
-0.002236461267 -0.4373532236 -0.2041826844 1.184631237e-38
0.03723840415 -0.2536360025 -0.2006825358 1.184631237e-38
0.05396199226 -0.3720936179 -0.1989080459 1.184631237e-38
0.02262890898 -0.1497752964 -0.2074538469 1.184631237e-38
0.08321099728 -0.2476678789 -0.2070646137 1.184631237e-38
0.1120768785 -0.1413455456 -0.2071676999 1.184631237e-38
0.1513629109 -0.1621134728 -0.2079492807 1.184631237e-38
-0.0342432335 -0.3278757632 -0.2052967995 1.184631237e-38
-0.001164257526 -0.4481472075 -0.2071752697 1.184631237e-38
0.04104593396 -0.254368484 -0.2044900209 1.184631237e-38
0.06886231899 -0.3868412971 -0.2041305304 1.184631237e-38
0.1672008187 -0.1603067517 -0.2206934392 1.184631237e-38
0.2141180485 -0.31420362 -0.2184521556 1.184631237e-38
0.2376659214 -0.1076927185 -0.2232109308 1.184631237e-38
0.2572489977 -0.2135966271 -0.2244478464 1.184631237e-38
-0.1451783627 -0.3769080341 -0.1438583434 1.184631237e-38
-0.1416056603 -0.4390749633 -0.1273556799 1.184631237e-38
-0.142510131 -0.3464846313 -0.1115997136 1.184631237e-38
-0.1297672987 -0.3961613476 -0.1113727242 1.184631237e-38
-0.01113104634 -0.2933307886 -0.2034215778 1.184631237e-38
0.009391257539 -0.4252870679 -0.2064951807 1.184631237e-38
0.04708399996 -0.2152154744 -0.2024295181 1.184631237e-38
0.05666661263 -0.3485211134 -0.2026811093 1.184631237e-38
-0.1344118714 -0.3435428143 0.1307813227 1.184631237e-38
-0.1303210706 -0.4469951093 0.1312927008 1.184631237e-38
-0.1399808228 -0.2613042593 0.1402786076 1.184631237e-38
-0.1333348155 -0.3959310949 0.1661282331 1.184631237e-38
-0.00719046779 -0.3092566431 -0.2096426189 1.184631237e-38
0.0212784186 -0.4358863831 -0.2072200775 1.184631237e-38
0.06460223347 -0.2307153642 -0.2076051086 1.184631237e-38
0.08158522099 -0.3666607141 -0.2065272629 1.184631237e-38
0.2006434351 -0.2417863905 -0.2145723701 1.184631237e-38
0.2264090925 -0.3854617774 -0.2131486386 1.184631237e-38
0.2348118126 -0.16035676 -0.218776986 1.184631237e-38
0.2476926148 -0.2915877998 -0.2167637646 1.184631237e-38
-0.1517899483 -0.1823703647 0.04010141641 1.184631237e-38
-0.1498912424 -0.3410997689 0.06553792953 1.184631237e-38
-0.1533690393 -0.1313426942 0.07806952298 1.184631237e-38
-0.1491599828 -0.2410928607 0.08164899796 1.184631237e-38
-0.1462502033 -0.188251406 -0.04348610714 1.184631237e-38
-0.1422319561 -0.3451831043 -0.02348107845 1.184631237e-38
-0.1494239718 -0.1272486746 -0.00931808725 1.184631237e-38
-0.1470010877 -0.2474294603 -0.00682938844 1.184631237e-38
0.05241683871 -0.3236653209 -0.2120915353 1.184631237e-38
0.07856901735 -0.4416844845 -0.2106890976 1.184631237e-38
0.1236270219 -0.2440600097 -0.2086107582 1.184631237e-38
0.1315327287 -0.3847791255 -0.2099356949 1.184631237e-38
0.1992096603 -0.248203665 -0.2048046291 1.184631237e-38
0.2219842374 -0.395418793 -0.203278318 1.184631237e-38
0.2284202129 -0.1597809792 -0.2079741359 1.184631237e-38
0.2370192707 -0.2990999222 -0.2066952288 1.184631237e-38
-0.1255077273 -0.3902084827 -0.1140737534 1.184631237e-38
-0.1272216588 -0.4488599002 -0.09707060456 1.184631237e-38
-0.1316401064 -0.3580393791 -0.08228746057 1.184631237e-38
-0.1188802645 -0.4123353362 -0.0774782449 1.184631237e-38
0.1277071834 -0.3077616692 -0.2093586475 1.184631237e-38
0.1438719928 -0.4353151917 -0.2092854679 1.184631237e-38
0.1573757976 -0.224847734 -0.2084160298 1.184631237e-38
0.1634746492 -0.3623025715 -0.2083791047 1.184631237e-38
-0.1034918502 -0.1036039516 0.348674953 1.184631237e-38
-0.09546395391 -0.2099351883 0.3592480719 1.184631237e-38
-0.1053868905 -0.08424626291 0.3751496971 1.184631237e-38
-0.1121282205 -0.1526428461 0.3757829964 1.184631237e-38
-0.1115726605 -0.1285478175 -0.1404600292 1.184631237e-38
-0.1145325229 -0.2102331221 -0.114109531 1.184631237e-38
-0.114835225 -0.117501758 -0.08407120407 1.184631237e-38
-0.1146960482 -0.1543224901 -0.1056606472 1.184631237e-38
-0.1310886145 -0.3477284312 -0.09464806318 1.184631237e-38
-0.1368625164 -0.4331468642 -0.08583241701 1.184631237e-38
-0.1368765086 -0.276180774 -0.0690972954 1.184631237e-38
-0.1338910758 -0.3841128945 -0.05734929815 1.184631237e-38
-0.1363377869 -0.1802356839 0.02680199966 1.184631237e-38
-0.1327892989 -0.3375678658 0.0511405468 1.184631237e-38
-0.1389924884 -0.1267317832 0.08989492804 1.184631237e-38
-0.1330073178 -0.2378842533 0.08872282505 1.184631237e-38
-0.1484388262 -0.3815417886 0.04673068225 1.184631237e-38
-0.1484929919 -0.4662551582 0.02562183887 1.184631237e-38
-0.1529370397 -0.2913113236 0.06504754722 1.184631237e-38
-0.1473329961 -0.4305620193 0.0907509923 1.184631237e-38
0.170236513 -0.319265455 -0.2102980465 1.184631237e-38
0.1945523918 -0.4342248738 -0.2092553228 1.184631237e-38
0.200827837 -0.240678668 -0.2124868929 1.184631237e-38
0.226111263 -0.3672866225 -0.2058627009 1.184631237e-38
0.1418527365 -0.3336007893 -0.2235732079 1.184631237e-38
0.1556742042 -0.4461283386 -0.2271408141 1.184631237e-38
0.1877024472 -0.2477919459 -0.2247292101 1.184631237e-38
0.1986594647 -0.3858469427 -0.2231980264 1.184631237e-38
-0.1347964853 -0.2661662102 -0.1488262713 1.184631237e-38
-0.1403898001 -0.3654888868 -0.1364791244 1.184631237e-38
-0.1346657574 -0.2037877589 -0.1221329272 1.184631237e-38
-0.1371771693 -0.2952420413 -0.121643886 1.184631237e-38
-0.1464451253 -0.3720867932 -0.1223496646 1.184631237e-38
-0.1470170766 -0.4357998073 -0.1053000838 1.184631237e-38
-0.1476632208 -0.3286263645 -0.08671997488 1.184631237e-38
-0.139650628 -0.3939997852 -0.07475244999 1.184631237e-38
0.2300162613 -0.260553956 -0.2202162743 1.184631237e-38
0.2454307526 -0.3976116478 -0.2206594646 1.184631237e-38
0.2521145046 -0.1837175637 -0.2248470783 1.184631237e-38
0.2643314004 -0.311206907 -0.222566694 1.184631237e-38
-0.1277397722 -0.3659720421 0.06679001451 1.184631237e-38
-0.127712816 -0.4578419328 0.05568677187 1.184631237e-38
-0.1347907931 -0.2832158208 0.08295467496 1.184631237e-38
-0.128112331 -0.4122085273 0.1035974324 1.184631237e-38
-0.06267362088 -0.1432907879 -0.2223779857 1.184631237e-38
-0.02194626071 -0.2531735599 -0.2234239876 1.184631237e-38
0.01636550762 -0.1339906454 -0.2163967192 1.184631237e-38
0.04793789983 -0.1687112004 -0.2205130458 1.184631237e-38
0.04576930404 -0.2912534475 -0.2038030177 1.184631237e-38
0.08239540458 -0.4241125584 -0.1998868883 1.184631237e-38
0.1253463626 -0.2115873992 -0.1996613592 1.184631237e-38
0.1493685842 -0.3475752473 -0.1990773827 1.184631237e-38
-0.0006013605744 -0.3778576255 0.09690122306 1.184631237e-38
0.002823762596 -0.433019042 0.1173586398 1.184631237e-38
-0.007629228756 -0.3772061765 0.1448245347 1.184631237e-38
0.02595333196 -0.3814996183 0.1347444504 1.184631237e-38
0.06385228783 -0.3958419561 0.06663186103 1.184631237e-38
0.07321216911 -0.449813664 0.06759919971 1.184631237e-38
0.07260457426 -0.3832601309 0.08769662678 1.184631237e-38
0.09376369417 -0.4081516862 0.07687252015 1.184631237e-38
-0.1440911889 -0.3678686321 0.1180582494 1.478322936e-38
-0.1362025738 -0.4579711258 0.1094759107 1.478322936e-38
-0.1382311434 -0.2731153965 0.1343730539 1.478322936e-38
-0.1357224882 -0.4175182581 0.1598054022 1.478322936e-38
-0.1337541789 -0.3210885525 0.1290986687 1.478322936e-38
-0.1307888031 -0.4397996962 0.1364812255 1.478322936e-38
-0.1383745372 -0.2354847491 0.1630377471 1.478322936e-38
-0.1294164658 -0.3784023821 0.1889157444 1.478322936e-38
-0.1161792949 -0.1496427655 0.07183149457 1.478322936e-38
-0.1150448695 -0.3013009727 0.1006456465 1.478322936e-38
-0.1188563183 -0.1054230407 0.1452798247 1.478322936e-38
-0.1143571362 -0.2044790983 0.1397760957 1.478322936e-38
-0.1153892502 -0.2750721872 -0.1878225952 1.478322936e-38
-0.1193625554 -0.3730452061 -0.1810347438 1.478322936e-38
-0.1149161682 -0.228605628 -0.1587568969 1.478322936e-38
-0.1168811396 -0.3041780591 -0.1686169356 1.478322936e-38
-0.1238612011 -0.3498356342 -0.08816459775 1.478322936e-38
-0.125025779 -0.4381003976 -0.07639975846 1.478322936e-38
-0.1291043758 -0.2869954109 -0.06104410812 1.478322936e-38
-0.1259346306 -0.3875625134 -0.04587103054 1.478322936e-38
-0.1309838593 -0.1137344465 0.1928835809 1.478322936e-38
-0.1307894886 -0.2375971973 0.2204399407 1.478322936e-38
-0.1367872208 -0.0954471603 0.2591384053 1.478322936e-38
-0.1344217956 -0.1608986259 0.2555528581 1.478322936e-38
-0.1218931451 -0.1055671424 -0.231577158 1.478322936e-38
-0.1240778044 -0.2314595878 -0.2308983505 1.478322936e-38
-0.1220935062 -0.07692816854 -0.2156379372 1.478322936e-38
-0.1207915768 -0.1409293115 -0.2281918228 1.478322936e-38
-0.0270268973 -0.1082160324 -0.2212689221 1.478322936e-38
0.01567167044 -0.2226643562 -0.2222751677 1.478322936e-38
0.05171318352 -0.08181730658 -0.2196664214 1.478322936e-38
0.07104498148 -0.1365828961 -0.2254232764 1.478322936e-38
0.1886739582 -0.4866499305 0.09698688984 1.478322936e-38
0.1693556458 -0.4876480401 -0.1027010381 1.478322936e-38
0.08581859618 -0.4847688675 0.03978594765 1.478322936e-38
0.2359869331 -0.4858404398 -0.004854254425 1.478322936e-38
-0.1422125101 -0.1855309308 0.0406058915 1.478322936e-38
-0.1447248459 -0.3377940655 0.06476990879 1.478322936e-38
-0.1507841349 -0.1357365996 0.08770621568 1.478322936e-38
-0.1464999765 -0.241312921 0.09293048084 1.478322936e-38
0.2459724396 -0.2600305974 -0.2233723998 1.478322936e-38
0.2651512027 -0.3789624572 -0.2211394012 1.478322936e-38
0.2737151086 -0.1910482943 -0.225228101 1.478322936e-38
0.2822281122 -0.3016046584 -0.2234782875 1.478322936e-38
-0.1338936388 -0.2057094872 -0.007910568267 1.478322936e-38
-0.128308937 -0.3397165537 0.004337785766 1.478322936e-38
-0.1363503337 -0.1594077051 0.01537527516 1.478322936e-38
-0.1336776912 -0.2566111982 0.01967254281 1.478322936e-38
0.2335770726 -0.2347788513 -0.2150877118 1.478322936e-38
0.254702121 -0.3503125608 -0.2094778568 1.478322936e-38
0.2614552677 -0.1678899825 -0.2182318866 1.478322936e-38
0.268137753 -0.2760517895 -0.2170299441 1.478322936e-38
-0.1460332274 -0.2190576494 0.09540112317 1.478322936e-38
-0.1426558048 -0.3758456409 0.1077931821 1.478322936e-38
-0.1554248035 -0.1471820921 0.1115746051 1.478322936e-38
-0.1489217281 -0.2788353264 0.1234245002 1.478322936e-38
0.2070450634 -0.4866889417 0.08634732664 1.478322936e-38
0.1740460247 -0.4886538088 -0.07061676681 1.478322936e-38
0.08098792285 -0.4855279326 0.05469153076 1.478322936e-38
0.2451324612 -0.4863094985 0.002128645778 1.478322936e-38
-0.1291961521 -0.3152092993 -0.1580064744 1.478322936e-38
-0.1293140948 -0.4305916727 -0.1462270021 1.478322936e-38
-0.1276271939 -0.2542893887 -0.1372563243 1.478322936e-38
-0.12669231 -0.3588654995 -0.1362425238 1.478322936e-38
-0.1383978873 -0.193567425 0.001156052575 1.478322936e-38
-0.1369756758 -0.3760516644 0.02341570519 1.478322936e-38
-0.1425225735 -0.128998518 0.0666615814 1.478322936e-38
-0.1380995363 -0.2648946643 0.07180994749 1.478322936e-38
-0.1329559684 -0.316123575 -0.1882645488 1.478322936e-38
-0.131392926 -0.4171161354 -0.1752617806 1.478322936e-38
-0.1282620132 -0.2600099444 -0.1591819078 1.478322936e-38
-0.1261013895 -0.3549284935 -0.1602528244 1.478322936e-38
-0.1141771451 -0.0923024267 -0.2224779427 1.478322936e-38
-0.1177678481 -0.2217245102 -0.211008504 1.478322936e-38
-0.1164516434 -0.0704959482 -0.1933921129 1.478322936e-38
-0.1120234653 -0.129734844 -0.2069351524 1.478322936e-38
-0.1305130273 -0.3472650349 -0.07848091424 1.478322936e-38
-0.1411549449 -0.43122679 -0.06471550465 1.478322936e-38
-0.1398372352 -0.2822949588 -0.05198211595 1.478322936e-38
-0.1392120421 -0.3762426972 -0.03972618654 1.478322936e-38
0.05404749513 -0.1271125674 -0.2055370212 1.478322936e-38
0.1079931632 -0.2438086271 -0.2020714581 1.478322936e-38
0.1326790452 -0.09912826866 -0.201098159 1.478322936e-38
0.1605714113 -0.159142822 -0.2041851282 1.478322936e-38
0.1854005605 -0.4867370427 0.08114488423 1.478322936e-38
0.1627996713 -0.4876100421 -0.09402644634 1.478322936e-38
0.08728710562 -0.4849005938 0.02240740322 1.478322936e-38
0.2233224511 -0.4858362079 -0.01778876036 1.478322936e-38
-0.1317761689 -0.09672884643 0.3546924889 1.478322936e-38
-0.1242639944 -0.1557522714 0.3682743013 1.478322936e-38
-0.1329589486 -0.08372060955 0.381921351 1.478322936e-38
-0.1332213879 -0.1189462915 0.3851361871 1.478322936e-38
-0.03148736805 -0.1309725791 -0.2032452226 1.478322936e-38
0.001279970631 -0.264659971 -0.2015736699 1.478322936e-38
0.03808978572 -0.09636680782 -0.199661836 1.478322936e-38
0.05646508932 -0.1729403138 -0.2031420618 1.478322936e-38
-0.1435324401 -0.1199905872 0.1267699599 1.478322936e-38
-0.1439715177 -0.2268599272 0.1479195058 1.478322936e-38
-0.1475856602 -0.09786657989 0.1749110818 1.478322936e-38
-0.1471115202 -0.1601629555 0.1696462482 1.478322936e-38
0.1201533973 -0.3059678674 -0.2010281533 1.478322936e-38
0.1406387091 -0.4335064888 -0.2003798932 1.478322936e-38
0.1766575277 -0.2270333171 -0.2009925097 1.478322936e-38
0.1918540001 -0.3627301455 -0.198201701 1.478322936e-38
0.1865684539 -0.4868865311 0.03303551301 1.478322936e-38
0.1697554141 -0.4884471595 -0.1345125288 1.478322936e-38
0.1340687275 -0.484352082 -0.01786389202 1.478322936e-38
0.2125489563 -0.4860891998 -0.03982732818 1.478322936e-38
0.139550209 -0.3420181572 -0.2062799782 1.478322936e-38
0.1565473229 -0.4522285461 -0.2111617476 1.478322936e-38
0.1876247227 -0.2660444677 -0.2073489428 1.478322936e-38
0.205055654 -0.3942150772 -0.2041671276 1.478322936e-38
0.1190652028 -0.3968429863 0.1677587479 1.478322936e-38
0.1173076481 -0.4459341466 0.1786733866 1.478322936e-38
0.1089073643 -0.3900136054 0.2080276906 1.478322936e-38
0.1350248009 -0.3999831676 0.1952707469 1.478322936e-38
-0.1173807308 -0.2005293667 0.03491026163 1.478322936e-38
-0.1167774573 -0.3588459194 0.04994505644 1.478322936e-38
-0.1258866638 -0.1332716197 0.06054890901 1.478322936e-38
-0.1223518327 -0.2632615566 0.06628985703 1.478322936e-38
0.1644243896 -0.3165854216 -0.2081018537 1.478322936e-38
0.184594363 -0.4339250922 -0.2080842555 1.478322936e-38
0.2080141008 -0.2385597229 -0.2098986208 1.478322936e-38
0.2232974768 -0.3650640249 -0.2043015063 1.478322936e-38
-0.1546764523 -0.2921505868 -0.1560905427 1.478322936e-38
-0.1547355056 -0.3656548262 -0.1373425573 1.478322936e-38
-0.1474783868 -0.2543745637 -0.1227664053 1.478322936e-38
-0.144957751 -0.3113878369 -0.1254804879 1.478322936e-38
-0.1364104599 -0.343028903 -0.1346317232 1.771655483e-38
-0.1328789741 -0.412325263 -0.1097764373 1.771655483e-38
-0.1325457394 -0.3142009974 -0.08749167621 1.771655483e-38
-0.1211368963 -0.3599157631 -0.08922357857 1.771655483e-38
0.09257884324 -0.09841284901 -0.2000461966 1.771655483e-38
0.1313445717 -0.2383000851 -0.1949303001 1.771655483e-38
0.1577449292 -0.07111908495 -0.1968214959 1.771655483e-38
0.1800616831 -0.1477022022 -0.2001256198 1.771655483e-38
0.206659466 -0.4875155091 -0.005984786898 1.771655483e-38
0.1894656569 -0.4886386693 -0.1536779255 1.771655483e-38
0.1311706454 -0.4842330217 -0.06448920071 1.771655483e-38
0.2354571819 -0.4866963923 -0.08548393846 1.771655483e-38
0.1720480919 -0.3077399731 -0.2120983452 1.771655483e-38
0.1867620349 -0.4309824109 -0.2136737704 1.771655483e-38
0.1941610575 -0.228338927 -0.2138596475 1.771655483e-38
0.2013498694 -0.3573635221 -0.2129600197 1.771655483e-38
-0.1158656254 -0.1018820032 -0.157687217 1.771655483e-38
-0.1198394671 -0.201407373 -0.1188703924 1.771655483e-38
-0.1201501563 -0.09243177623 -0.07259187102 1.771655483e-38
-0.1144778505 -0.130556047 -0.09344366193 1.771655483e-38
-0.1287345737 -0.2857935727 -0.168817237 1.771655483e-38
-0.1320868134 -0.3862096369 -0.1536735743 1.771655483e-38
-0.1279082894 -0.2216484249 -0.1362573057 1.771655483e-38
-0.1281183511 -0.3158268631 -0.1375900358 1.771655483e-38
-0.1412737966 -0.2552936375 0.07244445384 1.771655483e-38
-0.1415733546 -0.4018909037 0.08526948094 1.771655483e-38
-0.1455650181 -0.1855222881 0.1118927896 1.771655483e-38
-0.1426594853 -0.3117722869 0.1254507899 1.771655483e-38
0.2055643052 -0.3098258078 -0.2060362399 1.771655483e-38
0.2267886847 -0.4203177094 -0.201782003 1.771655483e-38
0.2347204089 -0.2506074905 -0.2025025338 1.771655483e-38
0.2459726483 -0.3494777083 -0.1982299387 1.771655483e-38
-0.1526794285 -0.1017828882 0.08171809465 1.771655483e-38
-0.1513866484 -0.2201418281 0.1131037027 1.771655483e-38
-0.1505991966 -0.0875075087 0.1593720615 1.771655483e-38
-0.1501193047 -0.143269673 0.1469198167 1.771655483e-38
-0.1363705993 -0.1103434414 0.2792116106 1.771655483e-38
-0.1280769557 -0.2125532627 0.302347064 1.771655483e-38
-0.140739128 -0.09347436577 0.3140742183 1.771655483e-38
-0.1357005984 -0.1496467739 0.3186979592 1.771655483e-38
0.2131717354 -0.4845857322 -0.01159380376 1.771655483e-38
0.1825776398 -0.4876332283 -0.1530339569 1.771655483e-38
