# .PCD v0.7 - Point Cloud Data file format
VERSION 0.7
FIELDS x y z rgb
SIZE 4 4 4 4
TYPE F F F F
COUNT 1 1 1 1
WIDTH 835
HEIGHT 1
VIEWPOINT 0 0 0 1 0 0 0
POINTS 835
DATA ascii
0.09424503148 -0.4852362573 0.1902784407 1.478322936e-38
0.07859956473 -0.4878893793 -0.015737243 1.478322936e-38
0.02365295961 -0.4819137752 0.1285231709 1.478322936e-38
0.1516213268 -0.4845566154 0.1131690443 1.478322936e-38
-0.09230274707 -0.4823276997 0.1355645657 1.478322936e-38
-0.09367249161 -0.485278666 -0.06599962711 1.478322936e-38
-0.1418886185 -0.4827709198 0.06872092187 1.478322936e-38
-0.01901645772 -0.4835900366 0.07250899822 1.478322936e-38
0.01983018965 -0.3431926966 0.3153653741 1.478322936e-38
0.02962739766 -0.3703286946 0.3325943649 1.478322936e-38
0.00414885208 -0.3445619047 0.3571453989 1.478322936e-38
0.05385943502 -0.3502191007 0.3459608555 1.478322936e-38
0.09121614695 -0.3395181894 -0.3189012706 1.478322936e-38
0.1175509319 -0.3843327165 -0.309868902 1.478322936e-38
0.1199155822 -0.3460862935 -0.2917668223 1.478322936e-38
0.148965627 -0.3494931161 -0.3031517565 1.478322936e-38
0.009662939236 -0.4816140831 0.3708506823 1.478322936e-38
-0.01094173081 -0.4878333211 0.2118255347 1.478322936e-38
-0.05879739672 -0.4810831547 0.3565785587 1.478322936e-38
0.09535309672 -0.4846511781 0.3303722143 1.478322936e-38
0.2161895186 -0.4869190156 -0.143108353 1.478322936e-38
0.1773578525 -0.4880053997 -0.3027493358 1.478322936e-38
0.09639181942 -0.4853633046 -0.2368915379 1.478322936e-38
0.2479496598 -0.4865090549 -0.2381735742 1.478322936e-38
-0.1094587669 -0.3894936442 -0.416726172 1.478322936e-38
-0.1008991972 -0.4535107613 -0.41528368 1.478322936e-38
-0.0865027681 -0.3489370346 -0.4127840698 1.478322936e-38
-0.072361812 -0.4106936455 -0.4170142412 1.478322936e-38
-0.05882662535 -0.4773814678 0.3744492531 1.478322936e-38
-0.07598021626 -0.485380888 0.230336234 1.478322936e-38
-0.1130506769 -0.4789376259 0.3613059223 1.478322936e-38
0.01348606125 -0.4832650721 0.3636313677 1.478322936e-38
0.1795935631 -0.4852285683 0.0230140388 1.478322936e-38
0.1543839425 -0.4871820807 -0.1704521179 1.478322936e-38
0.09702830762 -0.4861935377 -0.03747694567 1.478322936e-38
0.2276878208 -0.484903723 -0.07378546894 1.478322936e-38
0.1539682746 -0.3351517022 0.1042244136 1.478322936e-38
0.1619969606 -0.3526224792 0.1288374364 1.478322936e-38
0.1358035505 -0.3453069925 0.1567174345 1.478322936e-38
0.1858552247 -0.3401383162 0.1317001879 1.478322936e-38
0.2069150805 -0.4862538874 -0.06675720215 1.478322936e-38
0.1756090969 -0.4876795411 -0.2629032731 1.478322936e-38
0.124032706 -0.4854419231 -0.1642756015 1.478322936e-38
0.2487900257 -0.4868153334 -0.1837390661 1.478322936e-38
0.1315347999 -0.485396415 0.1047324538 1.478322936e-38
0.1146802157 -0.4872812629 -0.1020829082 1.478322936e-38
0.07536312938 -0.4846602678 0.04092923179 1.478322936e-38
0.1871443391 -0.4864872694 0.02906841598 1.478322936e-38
0.1804088354 -0.3383669257 -0.3011722863 1.478322936e-38
0.1937552094 -0.3743925393 -0.2860947847 1.478322936e-38
0.1780499667 -0.3421940506 -0.2561177015 1.478322936e-38
0.2109078467 -0.3488142788 -0.2759454846 1.478322936e-38
0.1936336756 -0.3669099212 0.08668012917 1.478322936e-38
0.1976200342 -0.403249681 0.09595270455 1.478322936e-38
0.175186649 -0.3747915328 0.1348671615 1.478322936e-38
0.2191797793 -0.3714188635 0.1114288867 1.478322936e-38
0.1195193902 -0.2628946304 0.2731235921 1.478322936e-38
0.1328056604 -0.2951349616 0.2813559771 1.478322936e-38
0.1212149635 -0.2665477693 0.2898134887 1.478322936e-38
0.1534948945 -0.2739237249 0.2825101018 1.478322936e-38
-0.1192437634 -0.422427088 -0.3232462108 1.478322936e-38
-0.1243904158 -0.4741373062 -0.337117672 1.478322936e-38
-0.1167557761 -0.369238168 -0.3218644857 1.478322936e-38
-0.1024878994 -0.4578456581 -0.3070350289 1.478322936e-38
0.1083614975 -0.4882048666 -0.1975845993 1.478322936e-38
0.07983777672 -0.4899185598 -0.3541858792 1.478322936e-38
0.02473669872 -0.4851851761 -0.2890331745 1.478322936e-38
0.1541997641 -0.4876647592 -0.3015724719 1.478322936e-38
0.04576613754 -0.4853260219 -0.1176942587 1.478322936e-38
0.03036091849 -0.4870848954 -0.3001284897 1.478322936e-38
-0.0310038086 -0.4836510122 -0.2103972733 1.478322936e-38
0.1214243099 -0.4849790931 -0.2255325019 1.478322936e-38
-0.04425146431 -0.4854081273 -0.1682802588 1.478322936e-38
-0.05000242591 -0.4857370257 -0.3339545131 1.478322936e-38
-0.09114935994 -0.4839541316 -0.258772403 1.478322936e-38
0.03821365535 -0.4857845902 -0.2677618265 1.478322936e-38
-0.0926515609 -0.3054485619 -0.4172594845 1.478322936e-38
-0.09396053106 -0.4153900743 -0.4210231006 1.478322936e-38
-0.0724677667 -0.2441837192 -0.4201886356 1.478322936e-38
-0.07378198206 -0.3471710384 -0.4273118377 1.478322936e-38
-0.1585758179 -0.4097904563 -0.1951476783 1.478322936e-38
-0.1628954113 -0.4763369262 -0.2119657397 1.478322936e-38
-0.1603689939 -0.3322103024 -0.1595311165 1.478322936e-38
-0.1556444019 -0.4652541876 -0.1288106441 1.478322936e-38
0.04364077747 -0.4808433056 0.3104017973 1.478322936e-38
0.03862600401 -0.4867356718 0.1343311667 1.478322936e-38
-0.0319969058 -0.4814507067 0.2798129022 1.478322936e-38
0.1279739141 -0.4844274819 0.255113095 1.478322936e-38
-0.1386863291 -0.2460623384 0.3993021548 1.478322936e-38
-0.1312004924 -0.3795038164 0.398352772 1.478322936e-38
-0.1388464868 -0.2110106349 0.4081602097 1.478322936e-38
-0.1420181245 -0.3100170493 0.4103719294 1.478322936e-38
0.08949050307 -0.4825964868 0.2512485981 1.478322936e-38
0.09825768322 -0.4874327183 0.05670168996 1.478322936e-38
-0.006774982437 -0.4841663837 0.208834663 1.478322936e-38
0.1850507706 -0.4846507311 0.172057271 1.478322936e-38
0.1517913789 -0.4843087494 0.03387091309 1.478322936e-38
0.1250021756 -0.4875091314 -0.1501263827 1.478322936e-38
0.05491470918 -0.484903723 -0.03324015066 1.478322936e-38
0.2152411491 -0.4846237004 -0.07162258029 1.478322936e-38
-0.06548556685 -0.4838859737 -0.07887689769 1.478322936e-38
-0.06026949733 -0.4855444729 -0.2651171088 1.478322936e-38
-0.1166143194 -0.4832333922 -0.1620227247 1.478322936e-38
0.03355109692 -0.4855623841 -0.1812711954 1.478322936e-38
-0.008937930688 -0.486060828 -0.1342055649 1.478322936e-38
-0.00779469125 -0.4881482422 -0.3185199201 1.478322936e-38
-0.06806451082 -0.4836940169 -0.2323531508 1.478322936e-38
0.08960095793 -0.4863321781 -0.2518854439 1.478322936e-38
0.1343792379 -0.3968513012 0.1450928003 1.771655483e-38
0.1391876191 -0.4431254864 0.1582351625 1.771655483e-38
0.1247840226 -0.3978084624 0.183534652 1.771655483e-38
0.1582582593 -0.3959924877 0.1735620201 1.771655483e-38
-0.09497413039 -0.479670763 0.2847873569 1.771655483e-38
-0.1004840061 -0.4861263633 0.1042365134 1.771655483e-38
-0.1571626663 -0.4789103866 0.2468346953 1.771655483e-38
-0.007869528607 -0.4838523269 0.2496337742 1.771655483e-38
0.1054543182 -0.4868960083 -0.1568084508 1.771655483e-38
0.07967228442 -0.4893040955 -0.3368709683 1.771655483e-38
0.0006717629731 -0.4839460254 -0.2531393468 1.771655483e-38
0.1741773635 -0.4865684211 -0.27009058 1.771655483e-38
0.0316163525 -0.4798212945 0.3464613855 1.771655483e-38
0.02232806571 -0.4866049886 0.1796271056 1.771655483e-38
-0.04272131622 -0.4792812169 0.3322013319 1.771655483e-38
0.1148022264 -0.4837351143 0.3068779409 1.771655483e-38
0.1402482539 -0.4837839305 0.03121755831 1.771655483e-38
0.1209355891 -0.48640275 -0.1497780681 1.771655483e-38
0.05007610843 -0.4827579856 -0.039619077 1.771655483e-38
0.2093436271 -0.4838026464 -0.07014688849 1.771655483e-38
-0.06970220804 -0.4829591513 0.206178993 1.771655483e-38
-0.07006181777 -0.4860801697 -0.003243736923 1.771655483e-38
-0.1049884185 -0.4811809063 0.1332289577 1.771655483e-38
0.01996006444 -0.4837399423 0.1444105059 1.771655483e-38
0.1528901905 -0.3840955794 0.1347063035 1.771655483e-38
0.160721615 -0.421779871 0.1475675404 1.771655483e-38
0.1389692724 -0.3847398162 0.1731378883 1.771655483e-38
0.1783301085 -0.3837310076 0.157098785 1.771655483e-38
-0.09764706343 -0.4237581193 -0.2881169319 1.771655483e-38
-0.09333496541 -0.4625959396 -0.2978536487 1.771655483e-38
-0.09021129459 -0.4108458161 -0.2720580101 1.771655483e-38
-0.06211784482 -0.4442436695 -0.2705780864 1.771655483e-38
-0.008128048852 -0.4851566851 0.1124754399 1.771655483e-38
-0.02694301493 -0.4873003066 -0.09470549226 1.771655483e-38
-0.08921005577 -0.4825718403 0.04845415801 1.771655483e-38
0.05663704127 -0.4856536686 0.0287651848 1.771655483e-38
-0.1356142312 -0.4085546136 -0.385682404 1.771655483e-38
-0.1250967085 -0.4567423463 -0.3920828104 1.771655483e-38
-0.1151952967 -0.3637200296 -0.3906604946 1.771655483e-38
-0.1041868553 -0.4288659394 -0.3937550187 1.771655483e-38
-0.004573369399 -0.4859297276 0.06297294796 1.771655483e-38
-0.01385599934 -0.4864619672 -0.1206662059 1.771655483e-38
-0.08699350804 -0.4840546846 0.006007963791 1.771655483e-38
0.06510991603 -0.4858448207 -0.01411459222 1.771655483e-38
0.1133342832 -0.3435236812 -0.3138473332 1.771655483e-38
0.1256795824 -0.3692718148 -0.3019661903 1.771655483e-38
0.1138281897 -0.3512369692 -0.2744577527 1.771655483e-38
0.1527366936 -0.3494262397 -0.2932809889 1.771655483e-38
0.02928035334 -0.2210939229 -0.4195437729 1.771655483e-38
0.04570798576 -0.2732853889 -0.4279137552 1.771655483e-38
0.0540939644 -0.1891744733 -0.4216665924 1.771655483e-38
0.05892077461 -0.2269816995 -0.4234560728 1.771655483e-38
0.04838765413 -0.481836915 0.2976217568 1.771655483e-38
0.04429094866 -0.4872159064 0.1195094585 1.771655483e-38
-0.007081774995 -0.4812347591 0.2582539022 1.771655483e-38
0.1236756667 -0.4843708575 0.245094344 1.771655483e-38
0.1606192142 -0.4881801903 -0.1142878681 1.771655483e-38
0.1247534454 -0.4874744117 -0.2919446528 1.771655483e-38
0.04920242727 -0.485904187 -0.209759444 1.771655483e-38
0.2105337679 -0.4867274761 -0.2289028466 1.771655483e-38
0.02655279823 -0.4127766192 0.1712657213 1.771655483e-38
0.02653923817 -0.4554582834 0.1832879484 1.771655483e-38
0.0161594525 -0.4028541148 0.2098772079 1.771655483e-38
0.0514279753 -0.4199490249 0.1961904019 1.771655483e-38
0.0931000039 -0.4850051701 0.1496229172 1.771655483e-38
0.07779745013 -0.4864723086 -0.04575033113 1.771655483e-38
-0.002156080678 -0.4826311469 0.09708793461 1.771655483e-38
0.1761297733 -0.4850923717 0.06576123834 1.771655483e-38
0.1557531506 -0.3780422211 0.1080839038 1.771655483e-38
0.1651954502 -0.4323291481 0.1242614388 1.771655483e-38
0.1546866298 -0.3694652915 0.1439321935 1.771655483e-38
0.1716940105 -0.3894008994 0.1390166581 1.771655483e-38
0.1858984679 -0.485711813 -0.05770250037 1.771655483e-38
0.1548121125 -0.4870620966 -0.2603720427 1.771655483e-38
0.1056231633 -0.4846673012 -0.1550975889 1.771655483e-38
0.2374731749 -0.4866026044 -0.176863879 1.771655483e-38
-0.05149225891 -0.4844449461 -0.03673839197 1.771655483e-38
-0.05244342983 -0.4863947928 -0.2234036326 1.771655483e-38
-0.0937949121 -0.4840539694 -0.1132729203 1.771655483e-38
0.02240782604 -0.4860058725 -0.1229288578 1.771655483e-38
0.2022209018 -0.4857859015 -0.01939412951 1.771655483e-38
0.1798876524 -0.4877947867 -0.1869413555 1.771655483e-38
0.1383534372 -0.4848587215 -0.082746014 1.771655483e-38
0.240618363 -0.4857620001 -0.1070186794 1.771655483e-38
0.220848307 -0.2108271569 -0.3634664118 1.771655483e-38
0.2337424457 -0.2519814372 -0.3653717041 1.771655483e-38
0.2286225855 -0.189901948 -0.354000628 1.771655483e-38
0.2438363433 -0.2213978767 -0.3614185452 1.771655483e-38
-0.1364255548 -0.3064794838 0.3591166437 1.771655483e-38
-0.135152325 -0.4231658578 0.3642066717 1.771655483e-38
-0.1430890858 -0.2596999705 0.3665550053 1.771655483e-38
-0.1364563257 -0.351415813 0.3719462752 1.771655483e-38
-0.1374248266 -0.3960342705 -0.4085006416 1.771655483e-38
-0.1377023906 -0.4569596052 -0.4080099463 1.771655483e-38
-0.1213059947 -0.3473705351 -0.4052488506 1.771655483e-38
-0.1150161996 -0.4217531681 -0.4089694321 1.771655483e-38
0.1591428518 -0.488378942 -0.05314118788 1.771655483e-38
0.1278021932 -0.487631619 -0.2856251001 1.771655483e-38
0.06456923485 -0.4855343997 -0.169802025 1.771655483e-38
0.2049213201 -0.4866309166 -0.1878231913 1.771655483e-38
-0.1656598747 -0.4044193923 0.2190841734 1.771655483e-38
-0.1604696959 -0.456522882 0.2068831623 1.771655483e-38
-0.1708720475 -0.374969244 0.2480365187 1.771655483e-38
-0.1522307992 -0.4200521708 0.2581787407 1.771655483e-38
0.08924807608 -0.3306957781 -0.3352363408 1.771655483e-38
0.1041357592 -0.3435549438 -0.3268734813 1.771655483e-38
0.0998365432 -0.3366494179 -0.2960458398 1.771655483e-38
0.1346271783 -0.3330310285 -0.3184329271 1.771655483e-38
0.07830807567 -0.4872602522 -0.1950064749 1.771655483e-38
0.05652518943 -0.4890407324 -0.347605437 1.771655483e-38
0.01866929419 -0.4840224683 -0.2741523385 1.771655483e-38
0.1359284818 -0.4864849448 -0.2884550989 1.771655483e-38
-0.1627144814 -0.3634800613 0.1831804812 1.771655483e-38
-0.1576248556 -0.4357710183 0.1925314665 1.771655483e-38
-0.1641002744 -0.3339311779 0.2228339911 1.771655483e-38
-0.1575468332 -0.3795873821 0.2220813483 1.771655483e-38
-0.1237977669 -0.3767486811 0.2104044706 1.771655483e-38
-0.1101510599 -0.4389303625 0.2159977853 1.771655483e-38
-0.1180628911 -0.3644685745 0.2523801327 1.771655483e-38
-0.0939354077 -0.3941653073 0.2524393797 1.771655483e-38
-0.1230274513 -0.4180836976 -0.2862870991 1.771655483e-38
-0.1275850236 -0.4663647711 -0.3041273654 1.771655483e-38
-0.1199777648 -0.3760982156 -0.2780515552 1.771655483e-38
-0.1238656268 -0.4476599097 -0.2615835369 1.771655483e-38
0.05297457427 -0.4820845127 0.2333269715 1.771655483e-38
0.05489773303 -0.486766845 0.05639499426 1.771655483e-38
-0.0009330715984 -0.4816393256 0.1912494004 1.771655483e-38
0.1206890494 -0.4834202826 0.1756782383 1.771655483e-38
0.08278357983 -0.4852913022 0.121152088 2.06466517e-38
0.06888455153 -0.4870105982 -0.08084698021 2.06466517e-38
-0.01291766204 -0.4827573299 0.06677490473 2.06466517e-38
0.163164854 -0.4842805564 0.02932212688 2.06466517e-38
0.009693099186 -0.4804248214 0.31100595 2.06466517e-38
-0.008181596175 -0.4866048396 0.1497117281 2.06466517e-38
-0.06472799182 -0.4795100391 0.2865501344 2.06466517e-38
0.1037396342 -0.4835391045 0.2586730421 2.06466517e-38
0.07293231785 -0.4842941463 0.02758469433 2.06466517e-38
0.05646409839 -0.4860845208 -0.1735466868 2.06466517e-38
-0.01757655479 -0.4830202758 -0.04952166602 2.06466517e-38
0.1562865078 -0.4838915765 -0.08207909763 2.06466517e-38
-0.1277048886 -0.4837991595 0.04342868924 2.06466517e-38
-0.1197756901 -0.485922426 -0.145823583 2.06466517e-38
-0.1625870019 -0.4837241173 -0.03328971937 2.06466517e-38
-0.05874942243 -0.4849511087 -0.02709789574 2.06466517e-38
0.1577189267 -0.4863626957 -0.04815205559 2.06466517e-38
0.126349479 -0.4874373972 -0.2385381162 2.06466517e-38
0.06882955134 -0.4854587615 -0.1250792295 2.06466517e-38
0.2067276686 -0.4852637351 -0.1565862596 2.06466517e-38
0.009152164683 -0.4843387008 0.04913274199 2.06466517e-38
-0.004267064855 -0.4864788353 -0.1443353593 2.06466517e-38
-0.06916278601 -0.4840323627 -0.02415820584 2.06466517e-38
0.0962895453 -0.4848658144 -0.04009215161 2.06466517e-38
0.0404895246 -0.2244367599 -0.4368775189 2.06466517e-38
0.06625514477 -0.2529902458 -0.4474920034 2.06466517e-38
0.07227473706 -0.2038366795 -0.4379086196 2.06466517e-38
0.08321604878 -0.2309935987 -0.4433735013 2.06466517e-38
0.0006368979812 -0.4851541519 0.07470565289 2.06466517e-38
-0.01929997839 -0.4869644344 -0.1241384149 2.06466517e-38
-0.0825008899 -0.4837706983 0.009216584265 2.06466517e-38
0.08177895844 -0.4852820933 -0.01111073047 2.06466517e-38
-0.08664622903 -0.483976841 -0.1135414839 2.06466517e-38
-0.07676330209 -0.4854318202 -0.2900183797 2.06466517e-38
-0.110929735 -0.4830282927 -0.2049637884 2.06466517e-38
-0.004765739664 -0.485607326 -0.2149587721 2.06466517e-38
0.08943940699 -0.3381264806 -0.3173512518 2.06466517e-38
0.1095697284 -0.3529906571 -0.303851068 2.06466517e-38
0.09660810977 -0.3423594832 -0.2733704448 2.06466517e-38
0.1356416792 -0.3413912356 -0.2972923815 2.06466517e-38
0.06451170892 -0.3869485259 0.1837038845 2.06466517e-38
0.06248354167 -0.4311986864 0.200861454 2.06466517e-38
0.04905035347 -0.3841524422 0.2310706526 2.06466517e-38
0.08642704785 -0.3841796219 0.2132188678 2.06466517e-38
0.1170837954 -0.3449859321 -0.2772119939 2.06466517e-38
0.1346719414 -0.3660230935 -0.2554534078 2.06466517e-38
0.1167752296 -0.351926893 -0.229000181 2.06466517e-38
0.1575422734 -0.3481558263 -0.2485261858 2.06466517e-38
0.00680789724 -0.4099921286 0.2027590424 2.06466517e-38
0.009597735479 -0.4541316628 0.2097167373 2.06466517e-38
0.001368192956 -0.4001395106 0.2396773696 2.06466517e-38
0.02862882614 -0.4152056575 0.2285576612 2.06466517e-38
0.1335821301 -0.4883173108 -0.1270148903 2.06466517e-38
0.09984303266 -0.4881385863 -0.2833488286 2.06466517e-38
0.04227602482 -0.4855298102 -0.2020638883 2.06466517e-38
0.184430629 -0.4880912602 -0.2231758535 2.06466517e-38
0.1883015335 -0.2318808734 -0.3623585701 2.06466517e-38
0.2046638131 -0.274605602 -0.3725984097 2.06466517e-38
0.2048510909 -0.2058606595 -0.3653418124 2.06466517e-38
0.2078411579 -0.2398512959 -0.3733769059 2.06466517e-38
0.03963216394 -0.4842070043 0.04773170501 2.06466517e-38
0.02583743073 -0.486600399 -0.1169890761 2.06466517e-38
-0.03040403686 -0.482118994 -0.0002286676317 2.06466517e-38
0.1142343134 -0.4843893647 -0.02591810375 2.06466517e-38
-0.01715813391 -0.4806837738 0.3137800694 2.06466517e-38
-0.03737456352 -0.4863270223 0.2056816667 2.06466517e-38
-0.0769963935 -0.4784145355 0.3025126457 2.06466517e-38
0.06655398756 -0.4838138819 0.28588745 2.06466517e-38
0.08344990015 -0.372651577 0.1320290715 2.06466517e-38
0.09111991525 -0.4316094518 0.1464253068 2.06466517e-38
0.08104046434 -0.3691785038 0.1718904227 2.06466517e-38
0.1063548923 -0.3803113103 0.1609325856 2.06466517e-38
0.03639110923 -0.3589944243 0.1878321618 2.06466517e-38
0.04201045632 -0.3942369223 0.2168810368 2.06466517e-38
0.03604303673 -0.3560106754 0.2427357733 2.06466517e-38
0.07246409357 -0.3583076 0.2255538106 2.06466517e-38
0.09596695006 -0.3715543747 0.1235094517 2.06466517e-38
0.09751783311 -0.4105366468 0.1400584877 2.06466517e-38
0.08264747262 -0.3727180064 0.1756104678 2.06466517e-38
0.1266794205 -0.3698370159 0.1528514177 2.06466517e-38
0.1454638094 -0.3238539398 -0.3036901951 2.06466517e-38
0.1589349508 -0.3437111974 -0.2878630757 2.06466517e-38
0.1468398422 -0.3274236917 -0.2619117796 2.06466517e-38
0.1826756597 -0.3333678842 -0.2811507285 2.06466517e-38
-0.007162218913 -0.4819030166 0.2775411308 2.06466517e-38
-0.01293272711 -0.4871700704 0.1156945229 2.06466517e-38
-0.05364343524 -0.4808127582 0.2384673059 2.06466517e-38
0.06996088475 -0.4831975102 0.2284722477 2.06466517e-38
-0.0267593991 -0.4819224775 0.126926288 2.06466517e-38
-0.04062808305 -0.4857278168 -0.04572432116 2.06466517e-38
-0.1076181754 -0.4826081395 0.07193530351 2.06466517e-38
0.05839217082 -0.482334137 0.05975598842 2.06466517e-38
-0.1394178569 -0.4128094614 -0.3036179245 2.06466517e-38
-0.1404807419 -0.4629832208 -0.2997480631 2.06466517e-38
-0.129695639 -0.3742185235 -0.2885131538 2.06466517e-38
-0.132406339 -0.438708663 -0.2797705233 2.06466517e-38
-0.03894174844 -0.2361204624 -0.4135539234 2.06466517e-38
-0.01982543059 -0.3363832235 -0.4227778614 2.06466517e-38
-0.007449312136 -0.19937554 -0.4167827666 2.06466517e-38
-0.005087705329 -0.2531517744 -0.4223443568 2.06466517e-38
0.04462732375 -0.4837278426 0.1464724094 2.06466517e-38
0.03204068914 -0.4866282046 -0.06638889015 2.06466517e-38
-0.02467515878 -0.4812488556 0.07977054268 2.06466517e-38
0.1123628616 -0.4843395054 0.06546128541 2.06466517e-38
-0.1408982128 -0.3827359974 0.1978190839 2.06466517e-38
-0.1321158707 -0.4458439648 0.2106115669 2.06466517e-38
-0.1385580152 -0.3545629382 0.2276287079 2.06466517e-38
-0.1304118633 -0.4010524452 0.2368145585 2.06466517e-38
0.02676191926 -0.4840992093 -0.01960467547 2.06466517e-38
0.008611951023 -0.486551553 -0.2042987794 2.06466517e-38
-0.05421416461 -0.4836066067 -0.09569860995 2.06466517e-38
0.1013528928 -0.4843306839 -0.1179395169 2.06466517e-38
0.1037757471 -0.486264497 -0.1322477013 2.06466517e-38
0.07333483547 -0.4876862764 -0.2970494032 2.06466517e-38
0.009843355045 -0.4840962887 -0.2142176032 2.06466517e-38
0.1568282843 -0.4857259989 -0.2315617502 2.06466517e-38
-0.1501970887 -0.4171647727 -0.2614433467 2.06466517e-38
-0.1492763609 -0.4650376737 -0.2663602233 2.06466517e-38
-0.1341166943 -0.3872249424 -0.2470917702 2.06466517e-38
-0.1344708949 -0.4461430013 -0.2377634048 2.06466517e-38
0.05142915249 -0.4841992855 0.1583220959 2.06466517e-38
0.03731764853 -0.4869373441 -0.01499274373 2.06466517e-38
-0.02558244206 -0.4829942882 0.1118136644 2.06466517e-38
0.1239266545 -0.4837651253 0.09422196448 2.06466517e-38
0.1903402209 -0.3297213614 0.1811417043 2.06466517e-38
0.1976849139 -0.4235003889 0.1865111887 2.06466517e-38
0.1944083571 -0.2988100052 0.2031956166 2.06466517e-38
0.2037720829 -0.3582699895 0.2014891952 2.06466517e-38
-0.1100191846 -0.4847913384 -0.006765261292 2.348204041e-38
-0.1063402519 -0.4858059883 -0.1803064644 2.348204041e-38
-0.1581864953 -0.4827410579 -0.07855734229 2.348204041e-38
-0.0318319127 -0.485149622 -0.08938845992 2.348204041e-38
-0.1651160419 -0.3309602439 0.3401762843 2.348204041e-38
-0.1579869837 -0.4383898973 0.3438077569 2.348204041e-38
-0.1679158658 -0.2723374665 0.3488689363 2.348204041e-38
-0.1607508808 -0.3745348752 0.3626203537 2.348204041e-38
-0.06701987237 -0.4783141017 0.2977280915 2.348204041e-38
-0.06884788722 -0.4849554598 0.1002340019 2.348204041e-38
-0.137845993 -0.4785974622 0.2460883856 2.348204041e-38
0.0128494557 -0.4831710756 0.2520362735 2.348204041e-38
-0.02001799829 -0.4786130488 0.3198291659 2.348204041e-38
-0.03051321022 -0.4863312542 0.1598242074 2.348204041e-38
-0.1022572145 -0.4784286618 0.2998555899 2.348204041e-38
0.07046412677 -0.4828940034 0.2851083875 2.348204041e-38
-0.05425521731 -0.4803530574 0.2590923309 2.348204041e-38
-0.0564019084 -0.4857684374 0.05682925135 2.348204041e-38
-0.09583327919 -0.4792596698 0.1986188889 2.348204041e-38
0.02514977753 -0.4834384918 0.2035419941 2.348204041e-38
0.09954497963 -0.4866788983 -0.1172829121 2.348204041e-38
0.06443119049 -0.488126725 -0.2776898444 2.348204041e-38
-0.008296707645 -0.4837418795 -0.1839904785 2.348204041e-38
0.1537646949 -0.48591277 -0.2090394348 2.348204041e-38
-0.1115955338 -0.3635386825 -0.3821432889 2.348204041e-38
-0.09602474421 -0.4031108022 -0.3782377541 2.348204041e-38
-0.08571910113 -0.3374431729 -0.3657512665 2.348204041e-38
-0.06583958864 -0.3609232306 -0.3788441718 2.348204041e-38
-0.1263146102 -0.4822157621 0.04200880229 2.348204041e-38
-0.1292619556 -0.4827842116 -0.186837092 2.348204041e-38
-0.1643144041 -0.4832485318 -0.05005146936 2.348204041e-38
-0.08250195533 -0.48466748 -0.02964434028 2.348204041e-38
-0.1237488613 -0.3083927631 -0.4098345041 2.348204041e-38
-0.1139818206 -0.3602793515 -0.4095639586 2.348204041e-38
-0.1025931612 -0.2868658304 -0.400767833 2.348204041e-38
-0.08765389025 -0.3196153045 -0.4109396935 2.348204041e-38
-0.1609022915 -0.2245032191 0.3617667854 2.348204041e-38
-0.152917996 -0.3719069064 0.3569513261 2.348204041e-38
-0.1669816673 -0.162497744 0.3650819659 2.348204041e-38
-0.1663739383 -0.2903237939 0.3740919828 2.348204041e-38
0.1018150449 -0.3188231289 0.09066268057 2.348204041e-38
0.1090965718 -0.3401334882 0.1126367748 2.348204041e-38
0.09130358696 -0.3253730237 0.1427399367 2.348204041e-38
0.1370853335 -0.3221980035 0.1142350435 2.348204041e-38
-0.1560334265 -0.340598315 0.3244737387 2.348204041e-38
-0.145226866 -0.4456584156 0.3264646232 2.348204041e-38
-0.1548528373 -0.2661089897 0.3304008245 2.348204041e-38
-0.1484761834 -0.388414979 0.3460790217 2.348204041e-38
0.1430713236 -0.3760931492 0.1811984032 2.348204041e-38
0.1340046972 -0.4652259052 0.1702560931 2.348204041e-38
0.134381175 -0.3067029715 0.1936673522 2.348204041e-38
0.1418918073 -0.4214142263 0.1942070574 2.348204041e-38
0.1441746354 -0.3655503392 0.1756746322 2.348204041e-38
0.1364486217 -0.4593139291 0.1720505059 2.348204041e-38
0.1379024386 -0.2961619496 0.1924857199 2.348204041e-38
0.1409533173 -0.4092622995 0.1948433071 2.348204041e-38
-0.002511510625 -0.341086328 -0.3039690554 2.348204041e-38
0.007653478533 -0.361291647 -0.2861101627 2.348204041e-38
-0.0009930022061 -0.3479161859 -0.2522023916 2.348204041e-38
0.04496060312 -0.334728539 -0.2813479304 2.348204041e-38
0.1434443444 -0.2112886459 -0.3742855489 2.348204041e-38
0.1568804979 -0.2736815214 -0.3790026307 2.348204041e-38
0.1566303521 -0.1869190335 -0.3749022782 2.348204041e-38
0.16135934 -0.2303504944 -0.382352978 2.348204041e-38
0.1631162763 -0.3249461055 0.163213104 2.348204041e-38
0.1573408693 -0.4351333976 0.166778788 2.348204041e-38
0.1624889374 -0.2669022977 0.1830683053 2.348204041e-38
0.1651119739 -0.3658596873 0.180050239 2.348204041e-38
0.156547755 -0.3390367329 0.1628033519 2.348204041e-38
0.1530035734 -0.4488061666 0.1610111743 2.348204041e-38
0.1509497613 -0.2641715109 0.1762065887 2.348204041e-38
0.1572615802 -0.3826346099 0.1829975545 2.348204041e-38
-0.1563019156 -0.3213282824 0.1705639064 2.348204041e-38
-0.1457489282 -0.3686108291 0.1956389993 2.348204041e-38
-0.156826973 -0.3194605112 0.2238437384 2.348204041e-38
-0.1314731389 -0.3300385475 0.2101547569 2.348204041e-38
-0.1015040055 -0.4016608298 -0.3075715005 2.348204041e-38
-0.1051406935 -0.4416978657 -0.2962508798 2.348204041e-38
-0.08957404643 -0.3762734234 -0.2885175347 2.348204041e-38
-0.07020615041 -0.415307045 -0.2935518026 2.348204041e-38
0.1189981773 -0.2707808614 0.2117621899 2.348204041e-38
0.1216259077 -0.2981899083 0.225840047 2.348204041e-38
0.1088229939 -0.2737226784 0.2453892976 2.348204041e-38
0.1448202878 -0.2849821448 0.2285077572 2.348204041e-38
-0.1009987071 -0.3714623749 -0.3284347355 2.348204041e-38
-0.09404521435 -0.4296880662 -0.3183000088 2.348204041e-38
-0.08663793653 -0.3475067317 -0.3028633893 2.348204041e-38
-0.07725461572 -0.3895376623 -0.3109108806 2.348204041e-38
-0.02984101139 -0.4807593226 0.2583767474 2.348204041e-38
-0.04011997581 -0.4859170616 0.102708593 2.348204041e-38
-0.08600685745 -0.4799471498 0.2216808796 2.348204041e-38
0.03927272558 -0.4834053516 0.210060671 2.348204041e-38
-0.1506560296 -0.3665466011 0.06464850903 2.348204041e-38
-0.1472145617 -0.4530268908 0.06450773776 2.348204041e-38
-0.155824393 -0.303188473 0.1043401808 2.348204041e-38
-0.1489856094 -0.4055624902 0.1187297702 2.348204041e-38
0.1536990851 -0.334577471 0.1812266707 2.348204041e-38
0.1483925581 -0.4274092317 0.1831642389 2.348204041e-38
0.1453816444 -0.2926104069 0.1978799254 2.348204041e-38
0.1556805968 -0.3656133115 0.2011466622 2.348204041e-38
0.003409016877 -0.3264750242 -0.2929231822 2.348204041e-38
0.01106305979 -0.3595267236 -0.2793777585 2.348204041e-38
0.006662422791 -0.3318955898 -0.2493717968 2.348204041e-38
0.03338959441 -0.3334876299 -0.2712205946 2.348204041e-38
0.01144582406 -0.3919937909 0.201673463 2.348204041e-38
0.02383660153 -0.450941354 0.2133062929 2.348204041e-38
0.01862533763 -0.3720955849 0.2287736088 2.348204041e-38
0.03489940986 -0.4069263637 0.2230547667 2.348204041e-38
-0.1053415164 -0.3445797265 -0.04453150555 2.348204041e-38
-0.09695551544 -0.4283737242 -0.03125658631 2.348204041e-38
-0.1088235304 -0.3077914119 -0.02323303372 2.348204041e-38
-0.1037463918 -0.370220989 -0.01452770829 2.348204041e-38
0.1228536442 -0.2996972203 0.1079211831 2.348204041e-38
0.1280481219 -0.3491128087 0.1215469241 2.348204041e-38
0.1069758907 -0.3083353341 0.1409339756 2.348204041e-38
0.142553255 -0.3189377189 0.1245220602 2.348204041e-38
-0.0798888877 -0.3516957164 -0.01071001217 2.348204041e-38
-0.07530935109 -0.4278664887 -0.003077078611 2.348204041e-38
-0.08280947804 -0.3194628358 0.004433002323 2.348204041e-38
-0.07083731145 -0.3709999919 0.007966930047 2.348204041e-38
0.0008321311325 -0.3922459185 0.187341094 2.348204041e-38
0.0104279276 -0.4713433087 0.1841496378 2.348204041e-38
0.004189850762 -0.3230764568 0.1950625181 2.348204041e-38
0.008115081117 -0.4338291585 0.203420043 2.348204041e-38
0.01230323873 -0.3249310553 0.1534580588 2.348204041e-38
0.02197340876 -0.4042052925 0.1650618613 2.348204041e-38
0.0127054397 -0.3069991171 0.1776744127 2.348204041e-38
0.02600992844 -0.338368386 0.1706929803 2.348204041e-38
-0.152106151 -0.3444366157 0.02448517457 2.346801622e-38
-0.1495915055 -0.4408431649 0.02399245091 2.346801622e-38
-0.1570925564 -0.2784044147 0.04749248177 2.346801622e-38
-0.1499789804 -0.3841623962 0.06221158803 2.346801622e-38
-0.1160477325 -0.3697748184 -0.3157990575 2.346801622e-38
-0.1228035167 -0.4323279262 -0.3043836057 2.346801622e-38
-0.1181600317 -0.3284788132 -0.2912914157 2.346801622e-38
-0.1181595698 -0.3933826089 -0.2854450345 2.346801622e-38
0.1089714095 -0.3194232881 0.1712290198 2.346801622e-38
0.1071062237 -0.4204673767 0.1749562621 2.346801622e-38
0.104206875 -0.2712698877 0.1848914623 2.346801622e-38
0.1088454276 -0.3512677252 0.1854998767 2.346801622e-38
0.01057894714 -0.3338910043 -0.2712887824 2.346801622e-38
0.0198784247 -0.3573766649 -0.2481851578 2.346801622e-38
0.01520725247 -0.3357702792 -0.2108734697 2.346801622e-38
0.04910387844 -0.3331004977 -0.2392829657 2.346801622e-38
0.02769991942 -0.3612936735 0.1027759165 2.346801622e-38
0.02870531008 -0.4039622545 0.1254909933 2.346801622e-38
0.01473630778 -0.359487325 0.1582533419 2.346801622e-38
0.05062768608 -0.3681819141 0.146665588 2.346801622e-38
-0.08756965399 -0.2224250138 -0.414005816 2.346801622e-38
-0.05949164927 -0.328068763 -0.4168561101 2.346801622e-38
-0.04705311358 -0.1910963207 -0.4143624604 2.346801622e-38
-0.04483987391 -0.2306693792 -0.4198150635 2.346801622e-38
-0.1358451843 -0.4840139151 -0.05570215359 2.346801622e-38
-0.1393464357 -0.4828259349 -0.2252909541 2.346801622e-38
-0.1690167189 -0.48391518 -0.1250956208 2.346801622e-38
-0.06973943859 -0.485304445 -0.124899447 2.346801622e-38
-0.1531357169 -0.3572499454 -0.4235370755 2.346801622e-38
-0.1540194154 -0.4694655538 -0.4247056544 2.346801622e-38
-0.1470333636 -0.2591517866 -0.4186552763 2.346801622e-38
-0.1477457732 -0.4181731641 -0.421415329 2.346801622e-38
0.1001110375 -0.305798769 0.2056237161 2.346801622e-38
0.09961617738 -0.4052000642 0.2099669278 2.346801622e-38
0.09676089138 -0.2641787827 0.2226269245 2.346801622e-38
0.1052894816 -0.3367527425 0.2229247093 2.346801622e-38
-0.1198223904 -0.2663475573 -0.3860048354 2.346801622e-38
-0.1195601597 -0.3651595414 -0.3909767866 2.346801622e-38
-0.1097775176 -0.2365048826 -0.38139534 2.346801622e-38
-0.1109828725 -0.2981731594 -0.3918780684 2.346801622e-38
-0.1558200121 -0.3248564601 0.01556380838 2.346801622e-38
-0.1471411437 -0.3831980228 0.03807438537 2.346801622e-38
-0.15839912 -0.3123650253 0.08277897537 2.346801622e-38
-0.143000856 -0.3361523151 0.07475468516 2.346801622e-38
-0.1396543384 -0.2746793926 0.2775960863 2.346801622e-38
-0.1365427375 -0.3603267074 0.2959070206 2.346801622e-38
-0.1427067518 -0.2337509692 0.3072949052 2.346801622e-38
-0.1368562728 -0.304022491 0.3159212768 2.346801622e-38
-0.1529142559 -0.3456881642 0.01495372225 2.346801622e-38
-0.1481305957 -0.4271068871 0.02179399319 2.346801622e-38
-0.1588687003 -0.2966623604 0.04469051957 2.346801622e-38
-0.1493304372 -0.368160516 0.05917926133 2.346801622e-38
-0.06273464113 -0.3307565451 0.1663178802 2.346801622e-38
-0.04567164183 -0.3584133387 0.1921101362 2.346801622e-38
-0.06089294702 -0.3303675056 0.2199652046 2.346801622e-38
-0.03315768391 -0.3360477984 0.2093244046 2.346801622e-38
-0.1022456959 -0.3518365622 -0.08176787198 2.346801622e-38
-0.09629722685 -0.3897847831 -0.05430546775 2.346801622e-38
-0.1020461544 -0.3461407423 -0.01986063272 2.346801622e-38
-0.07690716535 -0.3558899164 -0.03435071185 2.346801622e-38
-0.1182186976 -0.3585138023 -0.3009334505 2.346801622e-38
-0.1179355755 -0.4233822823 -0.2766077518 2.346801622e-38
-0.1169319376 -0.3336200416 -0.2613680065 2.346801622e-38
-0.109888725 -0.3791832328 -0.2624517381 2.346801622e-38
0.1172914803 -0.3391026556 0.1780872345 2.346801622e-38
0.1117185578 -0.4436164498 0.1775259376 2.346801622e-38
0.1120662764 -0.2729183435 0.1884629875 2.346801622e-38
0.115030393 -0.3814013302 0.191416949 2.346801622e-38
-0.09021077305 -0.3270021081 -0.2949563563 2.346801622e-38
-0.08009081334 -0.350709796 -0.269250989 2.346801622e-38
-0.08763463795 -0.3279980123 -0.2439500988 2.346801622e-38
-0.055329144 -0.3260847628 -0.2686560452 2.346801622e-38
0.1582321972 -0.3401845396 0.1555664986 2.346801622e-38
0.1497127116 -0.4483346045 0.1538933814 2.346801622e-38
0.1500962973 -0.267570287 0.1695881039 2.346801622e-38
0.1579150707 -0.3862308264 0.1685415357 2.346801622e-38
0.1435335875 -0.2849327028 0.2045963407 2.346801622e-38
0.1452776492 -0.3106279373 0.2209516466 2.346801622e-38
0.1306310147 -0.2874162197 0.2426446974 2.346801622e-38
0.1697534025 -0.2992459536 0.2267516106 2.346801622e-38
-0.1421249956 -0.2967612147 0.1604809463 2.346801622e-38
-0.1360444278 -0.4213341773 0.1768958569 2.346801622e-38
-0.1456581801 -0.2258233428 0.2102744877 2.346801622e-38
-0.1409467906 -0.3378964365 0.2175684273 2.346801622e-38
-0.1215670034 -0.3664637208 -0.07005754113 2.346801622e-38
-0.1179573163 -0.4443257749 -0.06257535517 2.346801622e-38
-0.1215918288 -0.3073792458 -0.02578938752 2.346801622e-38
-0.1198582426 -0.4024782479 -0.0007586386055 2.346801622e-38
-0.1223313734 -0.339291811 -0.1214255095 2.346801622e-38
-0.1210832521 -0.4253219664 -0.09912545979 2.346801622e-38
-0.1233518794 -0.3031130433 -0.06466780603 2.346801622e-38
-0.121542342 -0.3670341671 -0.05896815285 2.346801622e-38
-0.03320163488 -0.328537792 0.1843076497 2.346801622e-38
-0.02221076377 -0.3533951044 0.201836437 2.346801622e-38
-0.04029019177 -0.3373988569 0.2276957631 2.346801622e-38
-0.004634002224 -0.3340152204 0.2054688632 2.346801622e-38
-0.1373182833 -0.3644286692 -0.2992416322 2.346801622e-38
-0.1346099526 -0.4266293049 -0.2777481973 2.346801622e-38
-0.1354091763 -0.3452810943 -0.256144762 2.346801622e-38
-0.1259747893 -0.3803126514 -0.2575184107 2.346801622e-38
-0.1195457205 -0.2429973185 -0.4383750558 2.346801622e-38
-0.1241381988 -0.3483893871 -0.4370384514 2.346801622e-38
-0.1090709046 -0.2226586342 -0.4215478599 2.346801622e-38
-0.1186720952 -0.2670739293 -0.4353857934 2.346801622e-38
-0.1396452338 -0.2952440977 0.1400598884 2.346801622e-38
-0.135525465 -0.4207287729 0.1522625834 2.346801622e-38
-0.1415277869 -0.2239024043 0.1879633218 2.346801622e-38
-0.1342664957 -0.3457760811 0.197717756 2.346801622e-38
-0.1300817877 -0.3066613972 0.1433011442 2.346801622e-38
-0.1237686202 -0.4286600053 0.1579223424 2.346801622e-38
-0.1325408816 -0.2388022244 0.1904485077 2.346801622e-38
-0.1277368069 -0.3561001122 0.2037796676 2.346801622e-38
0.02801416628 -0.3567522466 0.1155077815 2.346801622e-38
0.03390054777 -0.4391137362 0.1225590408 2.346801622e-38
0.03111163713 -0.3171283007 0.1353856474 2.346801622e-38
0.03343006968 -0.3843862414 0.1385104358 2.346801622e-38
0.06867283583 -0.2698565423 0.25877437 2.346801622e-38
0.0764837563 -0.3180320859 0.2764721215 2.346801622e-38
0.0638827011 -0.2647390664 0.2839703262 2.346801622e-38
0.07890858501 -0.2883006334 0.2860661745 2.346801622e-38
0.06952226162 -0.3612632155 0.161655724 2.346801622e-38
0.07349703461 -0.4539590776 0.1662611514 2.346801622e-38
0.07046324015 -0.3183997571 0.1721979082 2.346801622e-38
0.07244493812 -0.3990056515 0.1801739037 2.346801622e-38
-0.1499884129 -0.2997871041 0.0468423143 2.346801622e-38
-0.1496609151 -0.4253456295 0.05626054108 2.346801622e-38
-0.1566881537 -0.2395118177 0.1019754261 2.346801622e-38
-0.1495718807 -0.3490600884 0.1148298383 2.346801622e-38
-0.1399192661 -0.2628549635 0.3041832745 2.345219836e-38
-0.1368312538 -0.3540304601 0.3189204037 2.345219836e-38
-0.1437698156 -0.229129225 0.3299157917 2.345219836e-38
-0.1403539926 -0.2946678698 0.3394261599 2.345219836e-38
-0.1653755605 -0.2909993529 0.2163458914 2.345219836e-38
-0.1509021968 -0.3415383101 0.2293152809 2.345219836e-38
-0.1621586978 -0.2663325965 0.2691941559 2.345219836e-38
-0.1514397562 -0.308767736 0.2695072889 2.345219836e-38
-0.1418085247 -0.2171383202 -0.4135396779 2.345219836e-38
-0.1471898407 -0.3584426343 -0.4103816748 2.345219836e-38
-0.1340914816 -0.1764823198 -0.4016284645 2.345219836e-38
-0.1412328929 -0.2588707507 -0.4100826979 2.345219836e-38
-0.1476944089 -0.3717702925 0.1388141215 2.345219836e-38
-0.1448054016 -0.4673560262 0.1119288802 2.345219836e-38
-0.1432950497 -0.2819935083 0.1668539196 2.345219836e-38
-0.1416832954 -0.4275168478 0.1997957081 2.345219836e-38
-0.1444160342 -0.3349052072 -0.2107768804 2.345219836e-38
-0.1416597813 -0.4047308564 -0.179559961 2.345219836e-38
-0.1422260702 -0.3135820925 -0.1476783156 2.345219836e-38
-0.1342809498 -0.3544663489 -0.1587740928 2.345219836e-38
-0.1440246403 -0.3472215235 0.1221843809 2.345219836e-38
-0.1360970885 -0.4513867199 0.1223464906 2.345219836e-38
-0.1429504007 -0.2670357525 0.1628533453 2.345219836e-38
-0.1379152238 -0.4055070877 0.1945575327 2.345219836e-38
-0.151753664 -0.2872427702 0.01982676797 2.345219836e-38
-0.1498145759 -0.3834347725 0.04035570472 2.345219836e-38
-0.154654637 -0.2495365739 0.0839618668 2.345219836e-38
-0.148780629 -0.3120486736 0.0876994729 2.345219836e-38
-0.1492828876 -0.3515691161 -0.2270851433 2.345219836e-38
-0.1526773423 -0.4310379624 -0.2002400309 2.345219836e-38
-0.1528952867 -0.3177103698 -0.1864623129 2.345219836e-38
-0.1499775201 -0.3771591485 -0.1887692362 2.345219836e-38
0.02226375975 -0.3019881248 0.2026392668 2.345219836e-38
0.02770879865 -0.3571556211 0.2105685323 2.345219836e-38
0.01736358553 -0.295979917 0.2243086547 2.345219836e-38
0.03381539136 -0.3157302141 0.2127477527 2.345219836e-38
-0.1357708573 -0.39282462 -0.2393740714 2.345219836e-38
-0.1413348019 -0.4692834914 -0.2436394393 2.345219836e-38
-0.1392067373 -0.3174466193 -0.2015032768 2.345219836e-38
-0.1391199678 -0.445336014 -0.1811924577 2.345219836e-38
-0.1277815998 -0.3401150107 -0.1890184134 2.345219836e-38
-0.1283884943 -0.4266549051 -0.165785864 2.345219836e-38
-0.1231350526 -0.3011985719 -0.1486301422 2.345219836e-38
-0.1215321049 -0.3648182452 -0.1464706361 2.345219836e-38
-0.09147423506 -0.2567709982 -0.4133223295 2.345219836e-38
-0.09457977116 -0.3669567704 -0.4159555137 2.345219836e-38
-0.0804714933 -0.1970574856 -0.412071079 2.345219836e-38
-0.09296780825 -0.3032537997 -0.4180415273 2.345219836e-38
-0.0883005932 -0.2317747176 -0.4166266024 2.345219836e-38
-0.08921325952 -0.3299869001 -0.4185452759 2.345219836e-38
-0.07041104138 -0.1954535544 -0.411634624 2.345219836e-38
-0.08361167461 -0.2493954599 -0.4175834656 2.345219836e-38
-0.09450128675 -0.3211007714 -0.2859868705 2.345219836e-38
-0.08831878006 -0.3588918447 -0.2661060393 2.345219836e-38
-0.09447576106 -0.3199142814 -0.2419515848 2.345219836e-38
-0.07500133663 -0.325730145 -0.2547114789 2.345219836e-38
-0.1665998548 -0.3716192544 -0.3220397234 2.345219836e-38
-0.1684654802 -0.4566737413 -0.3261691034 2.345219836e-38
-0.159750402 -0.299082458 -0.290699929 2.345219836e-38
-0.1621630937 -0.4214842916 -0.279473871 2.345219836e-38
-0.1436423063 -0.3153001368 0.1097853333 2.345219836e-38
-0.1413546652 -0.4312123358 0.1181517988 2.345219836e-38
-0.1476112902 -0.2544125915 0.156056568 2.345219836e-38
-0.1395819783 -0.3680237234 0.1756416857 2.345219836e-38
-0.1616224647 -0.3386901915 -0.2087687403 2.345219836e-38
-0.1555397063 -0.3888723254 -0.18474105 2.345219836e-38
-0.1550841331 -0.3195841312 -0.1593437195 2.345219836e-38
-0.1418220848 -0.3512060046 -0.1716209054 2.345219836e-38
-0.1419172138 -0.2887616754 0.2072541118 2.345219836e-38
-0.1406511515 -0.3882596493 0.2238029689 2.345219836e-38
-0.1474949569 -0.2419268489 0.2542279661 2.345219836e-38
-0.138808921 -0.3163694739 0.260440737 2.345219836e-38
-0.1470524073 -0.2460068464 0.3391293883 2.345219836e-38
-0.1388218552 -0.3302490115 0.3500203192 2.345219836e-38
-0.1530568004 -0.209887594 0.3592367768 2.345219836e-38
-0.1477019489 -0.2815869451 0.371506393 2.345219836e-38
-0.1328175813 -0.323923111 0.1519699097 2.345219836e-38
-0.1228351071 -0.4316033423 0.1512909681 2.345219836e-38
-0.1278308481 -0.2536958456 0.2004366517 2.345219836e-38
-0.1210757568 -0.3742752373 0.2171885669 2.345219836e-38
-0.1377529651 -0.2362011373 -0.435885191 2.345219836e-38
-0.1429515034 -0.3652577102 -0.4329336286 2.345219836e-38
-0.1287848949 -0.2131938636 -0.417288363 2.345219836e-38
-0.1378341615 -0.267701596 -0.4306564033 2.345219836e-38
-0.1534572393 -0.3376332521 0.1655370742 2.345219836e-38
-0.1495081335 -0.4438785315 0.1736347377 2.345219836e-38
-0.1565048993 -0.2674381137 0.2022830397 2.345219836e-38
-0.1501093507 -0.3829019964 0.2153495103 2.345219836e-38
0.06492194533 -0.2836222351 0.1667952985 2.345219836e-38
0.0669291988 -0.4058191776 0.1705661714 2.345219836e-38
0.05996830016 -0.2247494757 0.1770720929 2.345219836e-38
0.07199073583 -0.3191350102 0.1774134785 2.345219836e-38
-0.130401507 -0.2740532756 0.1947312653 2.345219836e-38
-0.1261611581 -0.3526546657 0.2132821232 2.345219836e-38
-0.1378711611 -0.2475647926 0.224733308 2.345219836e-38
-0.1309263408 -0.2916065454 0.2255365998 2.345219836e-38
0.01378094219 -0.3164066076 0.1807841212 2.345219836e-38
0.02369913086 -0.4271082282 0.1828886122 2.345219836e-38
0.02106795087 -0.2642112672 0.1908329576 2.345219836e-38
0.03065178357 -0.3551150262 0.1889408678 2.345219836e-38
-0.06617435068 -0.3471668959 0.1673831195 2.345219836e-38
-0.06280424446 -0.4525848627 0.161907509 2.345219836e-38
-0.0627085641 -0.2762513459 0.1949728131 2.345219836e-38
-0.06029456854 -0.3960689008 0.2044405043 2.345219836e-38
-0.1616705954 -0.2574349046 0.344328016 2.345219836e-38
-0.1542980969 -0.361615628 0.3448058069 2.345219836e-38
-0.1576601863 -0.2270608544 0.3531501591 2.345219836e-38
-0.1608110964 -0.2964885533 0.356226176 2.345219836e-38
-0.04009991884 -0.3452923596 0.1602636278 2.345219836e-38
-0.03505284339 -0.4488874972 0.1619966775 2.345219836e-38
-0.03523018956 -0.2787705064 0.1701729745 2.345219836e-38
-0.03345714509 -0.387024343 0.1721168309 2.345219836e-38
-0.1255429089 -0.3078336418 -0.2740042806 2.345219836e-38
-0.1297583431 -0.395660162 -0.2646275759 2.345219836e-38
-0.1277575791 -0.2737478912 -0.2526268959 2.345219836e-38
-0.1264483929 -0.3377198577 -0.2530045211 2.345219836e-38
-0.06736399978 -0.3527595401 0.1708768904 2.345219836e-38
-0.06140333414 -0.4582198858 0.1652243882 2.345219836e-38
-0.06270393729 -0.277092278 0.1734307855 2.345219836e-38
-0.05090980232 -0.4013870955 0.1727379709 2.345219836e-38
0.09241439402 -0.283359468 0.1856484264 2.345219836e-38
0.09374462068 -0.3892578483 0.1893634647 2.345219836e-38
0.09503410012 -0.2453489304 0.1991907954 2.345219836e-38
0.09875462204 -0.314686358 0.1939596385 2.345219836e-38
-0.1630979329 -0.3070070744 -0.3048966825 2.345219836e-38
-0.1595378369 -0.4322817028 -0.2929749787 2.345219836e-38
-0.1620588005 -0.2577860653 -0.2589741647 2.345219836e-38
-0.1597420275 -0.3652022779 -0.2517527938 2.345219836e-38
-0.1400578767 -0.3367251754 -0.3510721326 2.343458544e-38
-0.1379311085 -0.437754035 -0.355860889 2.343458544e-38
-0.134425655 -0.2409491837 -0.3365936279 2.343458544e-38
-0.1304458082 -0.3939903677 -0.3283660412 2.343458544e-38
-0.1482414901 -0.3006436229 -0.320502311 2.343458544e-38
-0.1542922705 -0.4172751904 -0.31424281 2.343458544e-38
-0.1518502384 -0.2406438291 -0.2846637368 2.343458544e-38
-0.1511380523 -0.3509665728 -0.2741649151 2.343458544e-38
-0.146377787 -0.2531060576 -0.4179487228 2.343458544e-38
-0.1525139809 -0.3753596544 -0.4139892757 2.343458544e-38
-0.1377548873 -0.2096747607 -0.4058815241 2.343458544e-38
-0.144035235 -0.3048586845 -0.4108775556 2.343458544e-38
-0.118517004 -0.2404051721 -0.4136071205 2.343458544e-38
-0.1213641986 -0.3797653615 -0.4163232744 2.343458544e-38
-0.109486334 -0.1760948598 -0.4168663919 2.343458544e-38
-0.1162021533 -0.2850091159 -0.4234448373 2.343458544e-38
0.2161773592 -0.2282543778 0.1879120916 2.343458544e-38
0.2193291634 -0.2968719602 0.188768819 2.343458544e-38
0.2147214115 -0.2005447596 0.2026402801 2.343458544e-38
0.2227339596 -0.2581925988 0.1951678544 2.343458544e-38
0.007806764916 -0.3113794625 -0.2571031451 2.343458544e-38
0.01750680245 -0.340492785 -0.2359766066 2.343458544e-38
0.01062236167 -0.3091968894 -0.2087411135 2.343458544e-38
0.04031485692 -0.3134269714 -0.2328666747 2.343458544e-38
0.02270686254 -0.2818893492 0.2188813984 2.343458544e-38
0.02728888206 -0.3432256281 0.2308315039 2.343458544e-38
0.0226384569 -0.2629488707 0.242849499 2.343458544e-38
0.02976647951 -0.2990206182 0.2340420932 2.343458544e-38
-0.1306231469 -0.3228695393 -0.3205504715 2.343458544e-38
-0.1331040859 -0.4294652641 -0.3169191182 2.343458544e-38
-0.1297985017 -0.2515365183 -0.3071386218 2.343458544e-38
-0.1288618743 -0.3743494451 -0.3024620414 2.343458544e-38
-0.09744244069 -0.2694907486 -0.06826533377 2.343458544e-38
-0.09421262145 -0.3388666809 -0.05054840073 2.343458544e-38
-0.09496939927 -0.2329342067 -0.03825001791 2.343458544e-38
-0.09172703326 -0.2847355008 -0.04180094227 2.343458544e-38
-0.08207684755 -0.2576146722 0.002133222297 2.343458544e-38
-0.08148577064 -0.3248118162 0.02007707208 2.343458544e-38
-0.08246382326 -0.2274701595 0.02916812897 2.343458544e-38
-0.07960850745 -0.2774593234 0.02898162603 2.343458544e-38
-0.1172101274 -0.3065302372 -0.2026179284 2.343458544e-38
-0.1201141402 -0.3960718215 -0.1810058504 2.343458544e-38
-0.1173765436 -0.2644398212 -0.163214162 2.343458544e-38
-0.1136092469 -0.331020385 -0.1690241694 2.343458544e-38
-0.04506710172 -0.3525118828 0.1680721492 2.343458544e-38
-0.03758980334 -0.4427255988 0.1669164896 2.343458544e-38
-0.04031760991 -0.2968778908 0.1761919111 2.343458544e-38
-0.03419536352 -0.3862626553 0.177604273 2.343458544e-38
-0.145748347 -0.291084975 -0.2934570014 2.343458544e-38
-0.1477298439 -0.3768165112 -0.2759970725 2.343458544e-38
-0.1496241838 -0.2618704736 -0.254891932 2.343458544e-38
-0.1462445408 -0.3198682368 -0.2641817331 2.343458544e-38
-0.09615863115 -0.2486864626 -0.07222039998 2.343458544e-38
-0.09420023113 -0.3196012676 -0.04419451579 2.343458544e-38
-0.09476970881 -0.2224608362 -0.01838258281 2.343458544e-38
-0.09279987216 -0.2668394148 -0.02660075575 2.343458544e-38
-0.09762874991 -0.2692317963 0.2173952609 2.343458544e-38
-0.09118722379 -0.3335087299 0.2243462205 2.343458544e-38
-0.09583865851 -0.2321814299 0.2352713346 2.343458544e-38
-0.09087391943 -0.2869205773 0.2359587401 2.343458544e-38
-0.1564952135 -0.3210269511 -0.2306159735 2.343458544e-38
-0.1566320211 -0.4367338419 -0.2160795629 2.343458544e-38
-0.1545627266 -0.2702780962 -0.1770495325 2.343458544e-38
-0.1553460211 -0.3710182309 -0.1739507169 2.343458544e-38
-0.1269109994 -0.2554346323 -0.2735665143 2.343458544e-38
-0.1315878332 -0.3887310028 -0.2614392042 2.343458544e-38
-0.1320910901 -0.2070141733 -0.2320196927 2.343458544e-38
-0.125819996 -0.3078233302 -0.2403002977 2.343458544e-38
-0.1290326416 -0.2374142706 0.3247168362 2.343458544e-38
-0.1280461103 -0.3931793272 0.3269448578 2.343458544e-38
-0.129261896 -0.1864037514 0.3447820246 2.343458544e-38
-0.1310132742 -0.3015121818 0.3517018855 2.343458544e-38
-0.03220257908 -0.2806228101 0.2229083478 2.343458544e-38
-0.02074094675 -0.3124647737 0.2330126017 2.343458544e-38
-0.03255183995 -0.2666187584 0.2492359281 2.343458544e-38
-0.01432140358 -0.2878556848 0.238506034 2.343458544e-38
-0.1539734751 -0.2205970287 -0.4087198973 2.343458544e-38
-0.1585166901 -0.3527349532 -0.4063750803 2.343458544e-38
-0.1502237618 -0.1730441749 -0.3999128342 2.343458544e-38
-0.1550046951 -0.2583080232 -0.4069296122 2.343458544e-38
-0.1577824205 -0.3396319151 -0.2120211124 2.343458544e-38
-0.1574769616 -0.4394204915 -0.2088195384 2.343458544e-38
-0.1595663428 -0.2592641711 -0.1718715131 2.343458544e-38
-0.1566487104 -0.3929960728 -0.1550441831 2.343458544e-38
-0.1172739044 -0.2566083968 -0.2139806449 2.343458544e-38
-0.1153787449 -0.3808675408 -0.2029774338 2.343458544e-38
-0.1150035039 -0.2158673704 -0.1808218658 2.343458544e-38
