# .PCD v0.7 - Point Cloud Data file format
VERSION 0.7
FIELDS x y z rgb
SIZE 4 4 4 4
TYPE F F F F
COUNT 1 1 1 1
WIDTH 837
HEIGHT 1
VIEWPOINT 0 0 0 1 0 0 0
POINTS 837
DATA ascii
-0.03652745485 -0.3274959028 0.3131377995 3.015101038e-39
-0.3865371346 -0.3606606722 0.1471606046 3.015101038e-39
-0.3878006637 -0.3056013882 0.1285869628 3.015101038e-39
-0.3894433379 -0.2885040939 0.15266487 3.015101038e-39
-0.3813384473 -0.3258602619 0.1599749625 3.015101038e-39
-0.02572854236 -0.409358114 0.306876719 3.015101038e-39
-0.03981115669 -0.3155319095 0.3011713624 3.015101038e-39
-0.02418996394 -0.2529757917 0.3039227128 3.015101038e-39
-0.02190554142 -0.3587841094 0.3081375957 3.015101038e-39
-0.05946461484 -0.4349651933 0.2827306092 3.015101038e-39
-0.07198143005 -0.3452346027 0.2819851637 3.015101038e-39
-0.0650254488 -0.2725174129 0.2854913175 3.015101038e-39
-0.05378843099 -0.3880305886 0.2910401225 3.015101038e-39
-0.07840817422 -0.4415048659 0.2890817821 3.015101038e-39
-0.08534163237 -0.3581550121 0.2914531231 3.015101038e-39
-0.08405683935 -0.2893763781 0.2918269038 3.015101038e-39
-0.07116766274 -0.3921591341 0.3004052639 3.015101038e-39
0.1502415389 -0.3855733573 -0.2758277953 3.015101038e-39
0.1350132823 -0.3047760129 -0.277952075 3.015101038e-39
0.1606456488 -0.2825629115 -0.2717202604 3.015101038e-39
0.1477672309 -0.3236805201 -0.2700962126 3.015101038e-39
-0.01647832058 -0.4767399132 -0.3328652978 3.015101038e-39
-0.005813797936 -0.4257802963 -0.3363956213 3.015101038e-39
0.01068245806 -0.3399176896 -0.3292258978 3.015101038e-39
0.01873263158 -0.4489548206 -0.3187176883 3.015101038e-39
-0.08133516461 -0.3612865806 0.2812285125 3.015101038e-39
-0.07444691658 -0.241404295 0.2737659812 3.015101038e-39
-0.06616345048 -0.1853700131 0.2723754346 3.015101038e-39
-0.06202692538 -0.2850789726 0.2779488266 3.015101038e-39
0.161179468 -0.3431689441 -0.3573363125 3.015101038e-39
0.1752215177 -0.166074127 -0.3654413521 3.015101038e-39
0.1677187085 -0.1055522859 -0.3607409894 3.015101038e-39
0.1808200479 -0.2350019813 -0.3504734337 3.015101038e-39
0.1243034303 -0.3939135075 -0.2357142568 3.015101038e-39
0.1218441427 -0.3170211017 -0.2575314343 3.015101038e-39
0.1324858963 -0.2878379822 -0.2284913659 3.015101038e-39
0.1221240312 -0.3378971219 -0.219968468 3.015101038e-39
-0.03331989795 -0.4470899999 0.2747029364 3.015101038e-39
-0.03656151891 -0.3536641002 0.2654312253 3.015101038e-39
-0.02679422125 -0.2806760967 0.2666313052 3.015101038e-39
-0.01998860389 -0.3937807083 0.2715950608 3.015101038e-39
0.130674243 -0.3469863534 -0.3273842931 3.015101038e-39
0.137258634 -0.1795175225 -0.3376093507 3.015101038e-39
0.1363634616 -0.1278245449 -0.3298434913 3.015101038e-39
0.1437216103 -0.2465859652 -0.3292328119 3.015101038e-39
-0.05716622248 -0.4491094947 -0.3239024282 3.015101038e-39
-0.06025149301 -0.3460703492 -0.3187199235 3.015101038e-39
-0.02683804743 -0.2476208359 -0.3259567916 3.015101038e-39
-0.02057408914 -0.380849272 -0.3136431873 3.015101038e-39
0.1268654913 -0.3795177937 -0.2784700096 3.015101038e-39
0.1238152236 -0.3166263998 -0.290784657 3.015101038e-39
0.1346037537 -0.2914782166 -0.2788303494 3.015101038e-39
0.1341623962 -0.3397515714 -0.2736175954 3.015101038e-39
-0.3398484588 -0.4208653867 0.1378916651 3.015101038e-39
-0.3379499316 -0.3707921803 0.1266010255 3.015101038e-39
-0.3263147175 -0.349924773 0.1389123946 3.015101038e-39
-0.3335957825 -0.3851420283 0.1486676931 3.015101038e-39
-0.08925874531 -0.4521010816 -0.3423852921 3.015101038e-39
-0.09556750208 -0.3830217123 -0.3434645236 3.015101038e-39
-0.07782095671 -0.3095112443 -0.3510594368 3.015101038e-39
-0.06819998473 -0.4155422449 -0.3468623757 3.015101038e-39
-0.05159433559 -0.4378304482 0.2798465192 3.015101038e-39
-0.05814934149 -0.3503014147 0.2765644789 3.015101038e-39
-0.0442821607 -0.2857779562 0.2754799724 3.015101038e-39
-0.04060264304 -0.3854221106 0.2816109359 3.015101038e-39
0.09024059027 -0.4444282651 -0.310875237 3.015101038e-39
0.08026268333 -0.3970893025 -0.3179909885 3.015101038e-39
0.1015604138 -0.3537473083 -0.3091917336 3.015101038e-39
0.09250050038 -0.4069142044 -0.2978464365 3.015101038e-39
-0.08770660311 -0.4081776142 -0.3453136384 3.015101038e-39
-0.08284510672 -0.2915022373 -0.3501919508 3.015101038e-39
-0.04494170845 -0.2184973806 -0.3540317416 3.015101038e-39
-0.0423803106 -0.3359148502 -0.3505637646 3.015101038e-39
0.1864174008 -0.3513762057 -0.2453716248 3.015101038e-39
0.1774287075 -0.3023756742 -0.262919575 3.015101038e-39
0.1866511852 -0.2813234925 -0.240744859 3.015101038e-39
0.1758118868 -0.307464987 -0.2251190692 3.015101038e-39
-0.02716633864 -0.3649678528 -0.3357695639 3.015101038e-39
-0.01558998972 -0.2212911397 -0.3396011889 3.015101038e-39
0.003139867447 -0.1676875651 -0.3374349475 3.015101038e-39
0.006575899199 -0.2808348536 -0.3338514566 3.015101038e-39
-0.3966115415 -0.4229189157 0.1199998409 3.015101038e-39
-0.3937013149 -0.3729917705 0.1000543311 3.015101038e-39
-0.3878154457 -0.3400982022 0.1222255081 3.015101038e-39
-0.3817733824 -0.3882612884 0.1336579025 3.015101038e-39
-0.1361943781 -0.2731680274 0.2946193516 3.015101038e-39
-0.1433131397 -0.17491588 0.2921715677 3.015101038e-39
-0.129291296 -0.145893544 0.2941966951 3.015101038e-39
-0.113597095 -0.207380861 0.2917705178 3.015101038e-39
-0.01441823784 -0.4742721915 -0.3737518787 3.015101038e-39
-0.004296445753 -0.411637485 -0.378271997 3.015101038e-39
-0.009218554944 -0.3319534659 -0.3771147728 3.015101038e-39
0.003564018756 -0.4432952106 -0.3593057692 3.015101038e-39
-0.04928560182 -0.3885793388 0.3105716407 3.015101038e-39
-0.04946720973 -0.2753023505 0.3106002808 3.015101038e-39
-0.03594265878 -0.2179598063 0.3019907475 3.015101038e-39
-0.03407778591 -0.3227567673 0.3133447468 3.015101038e-39
-0.2964423895 -0.3400226235 0.1588288993 3.015101038e-39
-0.3143987954 -0.3104470372 0.1396615654 3.015101038e-39
-0.282733053 -0.3150681555 0.1647427976 3.015101038e-39
-0.2978105247 -0.3177043796 0.1721979678 3.015101038e-39
0.1374430209 -0.2811769247 -0.316311121 3.015101038e-39
0.142167896 -0.1313520521 -0.3234449625 3.015101038e-39
0.1445733458 -0.0754564628 -0.3129625618 3.015101038e-39
0.1492803395 -0.1884660721 -0.3054884076 3.015101038e-39
0.08659876138 -0.3132447302 -0.3336507082 3.015101038e-39
0.09614187479 -0.1653707922 -0.3230764866 3.015101038e-39
0.1080372781 -0.1137831733 -0.3299354017 3.015101038e-39
0.1086299419 -0.2267104834 -0.3300610185 3.015101038e-39
0.1514514387 -0.3924277425 -0.2486757189 3.015101038e-39
0.147910282 -0.3217606843 -0.2721265852 3.015101038e-39
0.1560104787 -0.2868869007 -0.2429793477 3.015101038e-39
0.1499451399 -0.3385199904 -0.2266639769 3.015101038e-39
-0.09225089103 -0.4696449339 -0.3025960028 3.015101038e-39
-0.09758216143 -0.4038050771 -0.3123267591 3.015101038e-39
-0.08426994085 -0.3121817112 -0.3162725866 3.015101038e-39
-0.08093845099 -0.4311809838 -0.3078456223 3.015101038e-39
0.06387482584 -0.308275193 0.341029942 3.015101038e-39
0.05155614763 -0.2298747003 0.3352335691 3.015101038e-39
0.0739254728 -0.2026015818 0.3259073496 3.015101038e-39
0.07184240222 -0.2637827992 0.3421181738 3.015101038e-39
0.1067427769 -0.2706269622 -0.3388804495 5.962428276e-39
0.1210800707 -0.1492518038 -0.3431755006 5.962428276e-39
0.1193843633 -0.1323914975 -0.3276484311 5.962428276e-39
0.1235727966 -0.1913368553 -0.3195143044 5.962428276e-39
-0.2710834146 -0.4373244047 0.1976885349 5.962428276e-39
-0.2968102992 -0.4094756246 0.1897760332 5.962428276e-39
-0.2791325152 -0.3841824234 0.2034882456 5.962428276e-39
-0.2914077044 -0.40931499 0.2088266462 5.962428276e-39
-0.05666789785 -0.4772125185 -0.3272227645 5.962428276e-39
-0.06854073703 -0.404738009 -0.3264414668 5.962428276e-39
-0.06693825126 -0.3100492656 -0.337826699 5.962428276e-39
-0.06053548306 -0.4445112646 -0.3258236349 5.962428276e-39
-0.02062757127 -0.4780431092 -0.3469896019 5.962428276e-39
-0.03460164741 -0.4397114217 -0.353906244 5.962428276e-39
-0.007713433355 -0.3747660518 -0.349942416 5.962428276e-39
-0.01173671056 -0.4607658088 -0.3338522315 5.962428276e-39
-0.1157365516 -0.2625811398 0.3025873899 5.962428276e-39
-0.1209441572 -0.1631276757 0.2921905816 5.962428276e-39
-0.1170430407 -0.1320609301 0.2993108034 5.962428276e-39
-0.0970980227 -0.1972482651 0.3064596057 5.962428276e-39
-0.1076530591 -0.4670757651 -0.3237457573 5.962428276e-39
-0.115928486 -0.3948318958 -0.3270270824 5.962428276e-39
-0.09018754214 -0.3019373417 -0.3329884112 5.962428276e-39
-0.09448622912 -0.4247495234 -0.323125124 5.962428276e-39
0.01075992174 -0.3748086095 0.3328924775 5.962428276e-39
0.002925889567 -0.257485956 0.3354426622 5.962428276e-39
0.01907240972 -0.20123595 0.3230443895 5.962428276e-39
0.02306359261 -0.3018158674 0.3306106925 5.962428276e-39
0.209646523 -0.461409837 -0.1896691024 5.962428276e-39
0.2105800658 -0.3946040273 -0.2159129381 5.962428276e-39
0.2062741965 -0.3383574486 -0.1872117519 5.962428276e-39
0.2091756314 -0.4178381562 -0.1710297763 5.962428276e-39
-0.1230933592 -0.4765140116 -0.3149939775 5.962428276e-39
-0.1398752183 -0.4321010709 -0.3245477378 5.962428276e-39
-0.1117738858 -0.3541200161 -0.3251748979 5.962428276e-39
-0.1118458211 -0.4615901709 -0.3188717663 5.962428276e-39
0.0989697203 -0.2662850022 0.2928023934 5.962428276e-39
0.08732774109 -0.1903329939 0.2897264957 5.962428276e-39
0.09936740249 -0.1629220694 0.2950922549 5.962428276e-39
0.1041718423 -0.2208080441 0.2946174443 5.962428276e-39
0.04435017332 -0.2704164386 -0.3391866684 5.962428276e-39
0.04621842876 -0.1694375277 -0.3404751122 5.962428276e-39
0.0650017783 -0.1398302317 -0.3434635997 5.962428276e-39
0.06674850732 -0.1955779344 -0.3357462883 5.962428276e-39
0.1027444825 -0.4218112826 -0.2432155162 5.962428276e-39
0.09979366511 -0.3623215854 -0.2607263923 5.962428276e-39
0.1158664376 -0.3252645731 -0.2440594286 5.962428276e-39
0.1079205722 -0.3696393371 -0.2259147763 5.962428276e-39
0.1506582052 -0.3201292157 -0.341001153 5.962428276e-39
0.1598054767 -0.1919102222 -0.3378039002 5.962428276e-39
0.1603550315 -0.1616647393 -0.3375468552 5.962428276e-39
0.1692159921 -0.232826218 -0.3398516476 5.962428276e-39
-0.1158230007 -0.4809243381 -0.3006498516 5.962428276e-39
-0.1450923979 -0.4495273232 -0.3098875582 5.962428276e-39
-0.1406518668 -0.3857185245 -0.3131821454 5.962428276e-39
-0.1297855079 -0.4715316594 -0.312276125 5.962428276e-39
-0.00674553588 -0.4134277105 0.3179311752 5.962428276e-39
-0.01481444202 -0.3071466088 0.318716079 5.962428276e-39
-0.0004546316341 -0.2472917885 0.3146006763 5.962428276e-39
0.0007115481421 -0.3469361663 0.3201514482 5.962428276e-39
0.1495083272 -0.4153002501 -0.186222434 5.962428276e-39
0.1456283927 -0.3256981969 -0.212670967 5.962428276e-39
0.1532373875 -0.2850752771 -0.1908456534 5.962428276e-39
0.1537058204 -0.3495368063 -0.179477334 5.962428276e-39
-0.1443187147 -0.478487283 -0.3479562104 5.962428276e-39
-0.1559366435 -0.4272637963 -0.3403575718 5.962428276e-39
-0.1589694619 -0.3637499809 -0.3611879349 5.962428276e-39
-0.1557426751 -0.4586519599 -0.3478901982 5.962428276e-39
0.1679133326 -0.4572888315 -0.2069659531 5.962428276e-39
0.1867159903 -0.372962594 -0.2280049026 5.962428276e-39
0.1658267528 -0.2849069834 -0.2006087154 5.962428276e-39
0.1763396263 -0.412483573 -0.1919800043 5.962428276e-39
-0.03238655999 -0.3864320219 -0.3289861977 5.962428276e-39
-0.01766041666 -0.252869159 -0.3381793201 5.962428276e-39
-0.02017135918 -0.1908154041 -0.3331772983 5.962428276e-39
-0.01206020173 -0.3045571744 -0.32427755 5.962428276e-39
-0.3943449259 -0.3753516972 0.1137607396 5.962428276e-39
-0.394587338 -0.3083451986 0.1083110273 5.962428276e-39
-0.3876877725 -0.2831887901 0.1216705143 5.962428276e-39
-0.3835605681 -0.3281188309 0.1305314004 5.962428276e-39
0.1019780412 -0.2860854864 0.3222112358 5.962428276e-39
0.08574660867 -0.2146903723 0.3176265657 5.962428276e-39
0.1020951495 -0.2003953457 0.310161978 5.962428276e-39
0.1060665101 -0.2376766354 0.3264671862 5.962428276e-39
-0.05503592268 -0.4028767049 -0.3267752826 5.962428276e-39
-0.0513702631 -0.2534051239 -0.3361416757 5.962428276e-39
-0.04752389342 -0.1803759485 -0.3336095512 5.962428276e-39
-0.03446578979 -0.3105238974 -0.3285584748 5.962428276e-39
-0.03884745389 -0.4833547473 -0.3252557814 5.962428276e-39
-0.03813435137 -0.429828465 -0.3231324852 5.962428276e-39
-0.04268529266 -0.3476609588 -0.3436271548 5.962428276e-39
-0.03112708218 -0.458501935 -0.3268784881 5.962428276e-39
-0.1499498934 -0.3948892653 -0.332950443 5.962428276e-39
-0.1430965066 -0.2785984576 -0.3277099729 5.962428276e-39
-0.1137200519 -0.2042837143 -0.3368726671 5.962428276e-39
-0.1073955745 -0.3280393779 -0.3353228569 5.962428276e-39
-0.01619458571 -0.329985708 -0.3524271846 5.962428276e-39
-0.0001547904685 -0.1955090016 -0.3465209007 5.962428276e-39
0.03970155865 -0.1456684321 -0.3448936045 5.962428276e-39
0.04029336572 -0.2580815256 -0.3473091722 5.962428276e-39
0.1372660697 -0.3829422295 -0.2170350105 5.962428276e-39
0.1226321906 -0.317054987 -0.2332131118 5.962428276e-39
0.1524183154 -0.2994377613 -0.2154142857 5.962428276e-39
0.1393370479 -0.3255577981 -0.2033047527 5.962428276e-39
-0.09269690514 -0.4134971499 -0.3138071597 5.962428276e-39
-0.09071196616 -0.2937764823 -0.317928791 5.962428276e-39
-0.07489353418 -0.2329048663 -0.3192729354 5.962428276e-39
-0.07276663184 -0.3361174464 -0.3123341203 5.962428276e-39
0.03268213198 -0.4251153767 0.305693239 5.962428276e-39
0.01167919487 -0.3912073374 0.3024751544 5.962428276e-39
0.03395568952 -0.3567220569 0.3079535365 5.962428276e-39
0.02723595127 -0.3925393522 0.3133514524 5.962428276e-39
0.1697523743 -0.3382383287 0.2949619889 5.962428276e-39
0.1750535816 -0.236415416 0.2835980058 5.962428276e-39
0.1686021239 -0.185648784 0.2875031531 5.962428276e-39
0.1714902669 -0.2668838203 0.2989904583 5.962428276e-39
-0.3831870854 -0.3610554338 0.1125258356 5.962428276e-39
-0.3838982582 -0.3040681481 0.09291285276 5.962428276e-39
-0.3733220696 -0.2926017344 0.1206864268 5.962428276e-39
-0.3703321815 -0.3202208877 0.1273645461 5.962428276e-39
0.0768468827 -0.4188626707 0.2945522964 5.962428276e-39
0.05465203524 -0.3790641725 0.2926226556 5.962428276e-39
0.08607654274 -0.3485262394 0.3072030842 5.962428276e-39
0.06900814176 -0.3798250854 0.3153167963 5.962428276e-39
-0.1265641153 -0.4511683881 -0.3188655078 5.962428276e-39
-0.1226158738 -0.3599573076 -0.3325824738 5.962428276e-39
-0.1209683269 -0.2748942673 -0.3383547068 5.962428276e-39
-0.1141603962 -0.3949351609 -0.337156564 5.962428276e-39
0.1140456647 -0.3888042271 -0.2264046222 8.906165387e-39
0.100538969 -0.3162226975 -0.2383873463 8.906165387e-39
0.1262577176 -0.2987081409 -0.2205804586 8.906165387e-39
0.1131940931 -0.3306911588 -0.2091600448 8.906165387e-39
0.06284493208 -0.4544195533 -0.2679228485 8.906165387e-39
0.05168863386 -0.4198783338 -0.2835229933 8.906165387e-39
0.07342182845 -0.3848832548 -0.271746248 8.906165387e-39
0.05938797444 -0.4277811944 -0.2524809539 8.906165387e-39
0.1715400815 -0.3730358779 0.2924135327 8.906165387e-39
0.1612291932 -0.2884205878 0.2863041759 8.906165387e-39
0.1625544578 -0.2412679493 0.2849240601 8.906165387e-39
0.167376399 -0.3146664202 0.2950582206 8.906165387e-39
0.1245967448 -0.2933439612 0.2895118892 8.906165387e-39
0.1096598953 -0.2339632064 0.2790519893 8.906165387e-39
0.1339078248 -0.2128841728 0.2901279926 8.906165387e-39
0.1223575622 -0.2582639456 0.3025102615 8.906165387e-39
0.1874854267 -0.4227352142 -0.2113838494 8.906165387e-39
0.18997401 -0.3472610116 -0.2367104441 8.906165387e-39
0.190634802 -0.3072152138 -0.2055080384 8.906165387e-39
0.1837877184 -0.3640372455 -0.1878229678 8.906165387e-39
-0.04931982979 -0.4747846425 0.3128986657 8.906165387e-39
-0.07251232862 -0.4511902928 0.3160784543 8.906165387e-39
-0.06459459662 -0.3903794587 0.319963187 8.906165387e-39
-0.06437832117 -0.4665123522 0.3156137168 8.906165387e-39
0.1521193683 -0.4103433788 -0.1926288158 8.906165387e-39
0.149009198 -0.3211931288 -0.2181138247 8.906165387e-39
0.1534771919 -0.2800859213 -0.1910575628 8.906165387e-39
0.1532147378 -0.3449939191 -0.1826789975 8.906165387e-39
0.1387128383 -0.4492176175 0.2979678214 8.906165387e-39
0.1427532732 -0.3882308304 0.2836443484 8.906165387e-39
0.1418518722 -0.3242518008 0.3058977127 8.906165387e-39
0.1396355629 -0.4076188505 0.3152708411 8.906165387e-39
-0.04058797657 -0.4739611745 -0.3533090055 8.906165387e-39
-0.05697997287 -0.4253567159 -0.3628804386 8.906165387e-39
-0.05781817436 -0.3628232479 -0.3630895019 8.906165387e-39
-0.05201730505 -0.4481989443 -0.3500118852 8.906165387e-39
0.06409302354 -0.3855466843 0.300578773 8.906165387e-39
0.04078500345 -0.3187824786 0.30353567 8.906165387e-39
0.06610368937 -0.2893672287 0.3020077944 8.906165387e-39
0.06852463633 -0.3375875652 0.3070736229 8.906165387e-39
0.03972477466 -0.3456486464 0.2661957741 8.906165387e-39
0.03132581711 -0.2713379264 0.2662610412 8.906165387e-39
0.05699516833 -0.242100969 0.267521143 8.906165387e-39
0.04149749503 -0.2918096483 0.278350234 8.906165387e-39
0.1699216515 -0.2836718261 -0.3499335349 8.906165387e-39
0.1827077568 -0.146630913 -0.3570135236 8.906165387e-39
0.1781497151 -0.1085663065 -0.3415845037 8.906165387e-39
0.1863152385 -0.1944649667 -0.3290534914 8.906165387e-39
0.1807716638 -0.3604508042 0.3106109202 8.906165387e-39
0.1727357358 -0.2707272768 0.3032615483 8.906165387e-39
0.1705272645 -0.2215592712 0.3128796518 8.906165387e-39
0.1750556231 -0.3043799698 0.3183977902 8.906165387e-39
-0.2567769587 -0.3645698428 0.1642440706 8.906165387e-39
-0.2804860175 -0.3328906298 0.1452421844 8.906165387e-39
-0.2410830706 -0.3343085647 0.1740923077 8.906165387e-39
-0.2613173127 -0.3402742743 0.1871976703 8.906165387e-39
-0.1436613798 -0.423674196 -0.3185449243 8.906165387e-39
-0.1495783925 -0.3337053657 -0.3160413802 8.906165387e-39
-0.1363556236 -0.2566917837 -0.3291971087 8.906165387e-39
-0.138438642 -0.3732203841 -0.3322938681 8.906165387e-39
0.006304344162 -0.3750154376 0.3344448507 8.906165387e-39
-0.0006598057225 -0.2570871115 0.3362316787 8.906165387e-39
0.008418655023 -0.1983062476 0.3285578489 8.906165387e-39
0.01860595495 -0.3027855456 0.3348811269 8.906165387e-39
0.1564303637 -0.3901601434 -0.1751545221 8.906165387e-39
0.1516466439 -0.3139862716 -0.1917452663 8.906165387e-39
0.1594785303 -0.2896609008 -0.175016433 8.906165387e-39
0.1592989862 -0.3283760846 -0.1570245922 8.906165387e-39
0.1631760448 -0.454095751 0.3012593985 8.906165387e-39
0.1539167017 -0.4344516098 0.2892796695 8.906165387e-39
0.1547584981 -0.3795189559 0.3068689704 8.906165387e-39
0.1540380716 -0.4276804924 0.3211741149 8.906165387e-39
-0.03119999729 -0.3722758293 -0.3078031838 8.906165387e-39
-0.03072615899 -0.2021777183 -0.3139374852 8.906165387e-39
-0.01790705323 -0.1440849304 -0.3107663691 8.906165387e-39
-0.01217944454 -0.2560438514 -0.3071034551 8.906165387e-39
-0.1708439142 -0.3871602416 -0.2873000801 8.906165387e-39
-0.1622507125 -0.2575449347 -0.2944041491 8.906165387e-39
-0.1347366273 -0.203460604 -0.2964317501 8.906165387e-39
-0.1264050901 -0.3074559867 -0.2877701819 8.906165387e-39
-0.004731768742 -0.3320697546 0.3150967956 8.906165387e-39
-0.009316239506 -0.2040781826 0.3157587945 8.906165387e-39
0.004121052101 -0.1415719837 0.3037477136 8.906165387e-39
0.01271536201 -0.2491127253 0.3087820113 8.906165387e-39
0.1558383256 -0.4154326916 0.2962186038 8.906165387e-39
0.1625528336 -0.3367342949 0.2858042717 8.906165387e-39
0.1494696289 -0.2727983892 0.3052289188 8.906165387e-39
0.1569039375 -0.3640257418 0.3067381084 8.906165387e-39
-0.2221659869 -0.4012386799 0.1808609217 8.906165387e-39
-0.2284263819 -0.3522243798 0.1618107259 8.906165387e-39
-0.2151995003 -0.33980757 0.1860298663 8.906165387e-39
-0.2236760855 -0.3639966846 0.2041468769 8.906165387e-39
-0.06305817515 -0.2943788767 0.3136927187 8.906165387e-39
-0.05873597413 -0.1975400299 0.303719461 8.906165387e-39
-0.05739615113 -0.1555663645 0.3080132008 8.906165387e-39
-0.0509593077 -0.2335646302 0.3118225634 8.906165387e-39
0.1785487682 -0.4455647171 0.2790387571 8.906165387e-39
0.1789238602 -0.4099546969 0.2728306949 8.906165387e-39
0.1778764576 -0.3463991284 0.2825861573 8.906165387e-39
0.1864667982 -0.4125215411 0.2955363095 8.906165387e-39
-0.05365607888 -0.4691024423 0.2791704535 8.906165387e-39
-0.07405224442 -0.4392051697 0.2757357657 8.906165387e-39
-0.06334075332 -0.3651492298 0.2907222509 8.906165387e-39
-0.05300834402 -0.4591484964 0.2912819088 8.906165387e-39
0.08204437047 -0.3792767525 0.2822847664 8.906165387e-39
0.0660808906 -0.2988062203 0.2788455188 8.906165387e-39
0.08607021719 -0.2742559016 0.2910697162 8.906165387e-39
0.0827858001 -0.3237838745 0.2953723073 8.906165387e-39
-0.118204087 -0.4197586179 -0.3438763916 8.906165387e-39
-0.1181548238 -0.293964088 -0.3520807028 8.906165387e-39
-0.117791459 -0.2273019254 -0.3470815122 8.906165387e-39
-0.1121633053 -0.3478326201 -0.342227459 8.906165387e-39
0.003875777125 -0.4340071678 0.3006005585 8.906165387e-39
-0.009064089507 -0.343321979 0.3047310114 8.906165387e-39
0.007800197229 -0.2700543404 0.3009391725 8.906165387e-39
0.008414214477 -0.3801599443 0.3000419438 8.906165387e-39
0.08052785695 -0.3121194243 -0.3246589005 8.906165387e-39
0.09098709375 -0.1729879081 -0.3292343915 8.906165387e-39
0.09449506551 -0.1280868202 -0.323826462 8.906165387e-39
0.09700473398 -0.2135942876 -0.3183836043 8.906165387e-39
0.1004021391 -0.4624961615 -0.2092716843 8.906165387e-39
0.1137289256 -0.3987298608 -0.2323808074 8.906165387e-39
0.1028011814 -0.3496018052 -0.2056200504 8.906165387e-39
0.1047056764 -0.4304692447 -0.1900532544 8.906165387e-39
0.09460228682 -0.2863652408 0.3531666398 8.906165387e-39
0.07548519224 -0.2072018683 0.3479427397 8.906165387e-39
0.09783180803 -0.1754630655 0.3430062234 8.906165387e-39
0.100124225 -0.2423144579 0.3533202112 8.906165387e-39
0.1708325893 -0.2941008806 -0.2422206253 1.184631237e-38
0.1731841862 -0.1869526803 -0.2564932704 1.184631237e-38
0.1729490757 -0.1594856381 -0.2406042069 1.184631237e-38
0.1741959751 -0.2255695462 -0.2325329632 1.184631237e-38
0.03220134974 -0.289858222 0.3077918291 1.184631237e-38
0.01595668495 -0.2278992832 0.3059771955 1.184631237e-38
0.03652830049 -0.203900978 0.3031821847 1.184631237e-38
0.03981058672 -0.245028615 0.3069687486 1.184631237e-38
0.0722649619 -0.447368741 -0.2084271312 1.184631237e-38
0.05991261452 -0.3877520859 -0.226547882 1.184631237e-38
0.08556908369 -0.3666329086 -0.2098280042 1.184631237e-38
0.06128212065 -0.4020518363 -0.1897960603 1.184631237e-38
0.1550944 -0.2913127542 -0.3127504289 1.184631237e-38
0.1652880907 -0.1397071034 -0.3205733895 1.184631237e-38
0.1662893891 -0.07918086648 -0.3071256578 1.184631237e-38
0.1709795892 -0.1997014284 -0.3021449745 1.184631237e-38
-0.006566613447 -0.3503390253 0.3128768206 1.184631237e-38
-0.01012601797 -0.23532179 0.315269202 1.184631237e-38
0.0002937596291 -0.1791832596 0.303029716 1.184631237e-38
0.007030770183 -0.27574265 0.3104580939 1.184631237e-38
0.163315028 -0.2356835753 -0.3088439107 1.184631237e-38
0.1671401709 -0.1495658457 -0.3111866713 1.184631237e-38
0.1596038938 -0.1089698449 -0.296405673 1.184631237e-38
0.1663667113 -0.1738480926 -0.2871961296 1.184631237e-38
0.0714250952 -0.3619603813 -0.1922303438 1.184631237e-38
0.06049443781 -0.3178671598 -0.2091121972 1.184631237e-38
0.09537541121 -0.3098400235 -0.196445927 1.184631237e-38
0.07260429114 -0.3203945756 -0.1743619889 1.184631237e-38
0.1830018312 -0.4763489962 0.3056386113 1.184631237e-38
0.1616292298 -0.4678074419 0.2872341275 1.184631237e-38
0.1804245114 -0.414350152 0.3157177269 1.184631237e-38
0.1641682833 -0.4698463678 0.3263412118 1.184631237e-38
0.1819516569 -0.4687879682 -0.1462471038 1.184631237e-38
0.1915312409 -0.4113786817 -0.1850444227 1.184631237e-38
0.1797646433 -0.3443425596 -0.1332497448 1.184631237e-38
0.1843181998 -0.4394774437 -0.1258533895 1.184631237e-38
0.1071914956 -0.466041863 -0.2375674397 1.184631237e-38
0.1234691888 -0.4214360416 -0.2660202682 1.184631237e-38
0.1162241101 -0.3660691082 -0.230402872 1.184631237e-38
0.1181191802 -0.4425911307 -0.2139217705 1.184631237e-38
0.1232171208 -0.3878554106 -0.182933718 1.184631237e-38
0.1242852658 -0.3303980529 -0.2094729692 1.184631237e-38
0.139388144 -0.30459553 -0.1847265661 1.184631237e-38
0.125807032 -0.3308926821 -0.1642635912 1.184631237e-38
0.1632890403 -0.2605300844 -0.3220983744 1.184631237e-38
0.1666993797 -0.1352636814 -0.3233946264 1.184631237e-38
0.1752912849 -0.08839105815 -0.3123607039 1.184631237e-38
0.179481715 -0.1816836298 -0.3112214506 1.184631237e-38
0.08289890736 -0.3834743798 -0.2008454204 1.184631237e-38
0.07761221379 -0.3271351159 -0.2154785842 1.184631237e-38
0.102002345 -0.3149087429 -0.2035304159 1.184631237e-38
0.08722063154 -0.3342230618 -0.1853270829 1.184631237e-38
-0.04537920281 -0.4685037732 0.2928746641 1.184631237e-38
-0.0504960008 -0.4190294147 0.294259578 1.184631237e-38
-0.04951788858 -0.342133224 0.296276629 1.184631237e-38
-0.04150152206 -0.4397172034 0.3017768562 1.184631237e-38
0.188183859 -0.4522137344 -0.1749593914 1.184631237e-38
0.1917414963 -0.3816721439 -0.2060881406 1.184631237e-38
0.1854232401 -0.3301167488 -0.1828287691 1.184631237e-38
0.1896078736 -0.4050343037 -0.1666497886 1.184631237e-38
-0.2222971171 -0.3273384571 0.1049412191 1.184631237e-38
-0.2261564285 -0.2808833122 0.08450892568 1.184631237e-38
-0.2062986791 -0.2677559853 0.1067300737 1.184631237e-38
-0.2134456933 -0.2948248684 0.1135604084 1.184631237e-38
0.1882800758 -0.3166173697 -0.1960481852 1.184631237e-38
0.1938806772 -0.2192284018 -0.2128701955 1.184631237e-38
0.1877127141 -0.1910941303 -0.190767318 1.184631237e-38
0.1901631504 -0.2501132488 -0.183125779 1.184631237e-38
0.06068038195 -0.4430646598 0.3078874946 1.184631237e-38
0.03418205678 -0.4196301699 0.2970696986 1.184631237e-38
0.06707960367 -0.3857361376 0.305676192 1.184631237e-38
0.05795110017 -0.4190200865 0.3131467104 1.184631237e-38
0.08241298795 -0.3535865247 0.2495275438 1.184631237e-38
0.06997332722 -0.3009151816 0.2410645485 1.184631237e-38
0.1000892594 -0.2839066386 0.256550014 1.184631237e-38
0.08050722629 -0.3074682355 0.2694111764 1.184631237e-38
0.1707735658 -0.2203821987 -0.3424777687 1.184631237e-38
0.1746078134 -0.0851264149 -0.3466727436 1.184631237e-38
0.1694293618 -0.01811497472 -0.3290290833 1.184631237e-38
0.1779855043 -0.1276259273 -0.3127769828 1.184631237e-38
0.1492145211 -0.267929852 -0.3343336582 1.184631237e-38
0.1541991979 -0.1062053591 -0.3320173025 1.184631237e-38
0.1558154374 -0.04216482863 -0.3297480643 1.184631237e-38
0.1655191928 -0.1600759029 -0.3229449689 1.184631237e-38
0.1405805349 -0.2595783472 -0.3415263891 1.184631237e-38
0.1503681391 -0.09786035866 -0.3479986489 1.184631237e-38
0.1481323093 -0.03489334881 -0.3375204206 1.184631237e-38
0.157389313 -0.1529927701 -0.3259518445 1.184631237e-38
0.1224894375 -0.4112741351 -0.2136956155 1.184631237e-38
0.1353738308 -0.3401567042 -0.2452879101 1.184631237e-38
0.1337272674 -0.2912799418 -0.2065507174 1.184631237e-38
0.128124088 -0.3540683687 -0.1944458932 1.184631237e-38
0.08282631636 -0.4516921341 0.3057003915 1.184631237e-38
0.05771704018 -0.420969367 0.2978669703 1.184631237e-38
0.09066747129 -0.3618948162 0.314350158 1.184631237e-38
0.07885107398 -0.4237259328 0.3170274198 1.184631237e-38
0.07687185705 -0.3629724383 -0.221902281 1.184631237e-38
0.06558737904 -0.3094816804 -0.2400570959 1.184631237e-38
0.1021937206 -0.3028928936 -0.2229830474 1.184631237e-38
0.0761686638 -0.3145118654 -0.2045935988 1.184631237e-38
0.1531285495 -0.4463920593 -0.1637266427 1.184631237e-38
0.1559780687 -0.3813005686 -0.1884145886 1.184631237e-38
0.155960083 -0.3437831402 -0.1510686576 1.184631237e-38
0.1496573091 -0.3998638093 -0.1353975385 1.184631237e-38
0.1021563113 -0.2935913503 0.2847426236 1.184631237e-38
0.1053062603 -0.1966886967 0.2727286518 1.184631237e-38
0.1009423211 -0.1570376307 0.2905368209 1.184631237e-38
0.1103646904 -0.235554114 0.2916731238 1.184631237e-38
-0.2264008522 -0.341384083 0.1482151896 1.184631237e-38
-0.2440377027 -0.319530189 0.1325967908 1.184631237e-38
-0.2071611136 -0.3247011006 0.1591727138 1.184631237e-38
-0.2295318097 -0.3201664388 0.1741430163 1.184631237e-38
-0.01521624252 -0.3388955891 -0.3540576696 1.184631237e-38
0.004446163774 -0.1917940378 -0.3615458012 1.184631237e-38
0.007436752319 -0.1446341276 -0.3442212939 1.184631237e-38
0.006911097094 -0.2487888187 -0.3386287689 1.184631237e-38
0.001709918492 -0.43924734 0.3013500571 1.184631237e-38
-0.01092844456 -0.3867795467 0.3015255928 1.184631237e-38
0.006030170247 -0.3313739002 0.3125380576 1.184631237e-38
-0.002468412742 -0.403503865 0.3115139306 1.184631237e-38
0.09807619452 -0.4566736221 0.2997150719 1.184631237e-38
0.06603936851 -0.4397385418 0.2789166272 1.184631237e-38
0.1038125381 -0.3990249038 0.3115799427 1.184631237e-38
0.08487332612 -0.4320376813 0.3174284399 1.184631237e-38
0.1331021488 -0.4274770319 0.2009950876 1.184631237e-38
0.1218395531 -0.3747321665 0.1888166964 1.184631237e-38
0.1413321793 -0.3441340625 0.2051017433 1.184631237e-38
0.1330475509 -0.3939628899 0.215436995 1.184631237e-38
0.155662775 -0.4515307248 0.1837088466 1.478322936e-38
0.1559811085 -0.3785745203 0.1706160903 1.478322936e-38
0.1520029902 -0.3121268153 0.2006982118 1.478322936e-38
0.1497781724 -0.4124945998 0.2099031359 1.478322936e-38
0.1627924144 -0.2872405052 0.2706847489 1.478322936e-38
0.1560106277 -0.2018917501 0.2616245747 1.478322936e-38
0.1698306054 -0.1665454507 0.2814705074 1.478322936e-38
0.1685987711 -0.2413892299 0.2858684063 1.478322936e-38
0.06969145685 -0.458121717 -0.2452924997 1.478322936e-38
0.05953924358 -0.4008416235 -0.2621715963 1.478322936e-38
0.0636979118 -0.3638611436 -0.2526549399 1.478322936e-38
0.0622234121 -0.4184678197 -0.2386138886 1.478322936e-38
-0.1084768027 -0.339158088 -0.3337253034 1.478322936e-38
-0.09849637002 -0.2056146711 -0.3371836841 1.478322936e-38
-0.06568273902 -0.1497934908 -0.3358994722 1.478322936e-38
-0.05898839608 -0.2554605007 -0.3288018107 1.478322936e-38
0.02588752657 -0.4598209858 0.2915770113 1.478322936e-38
0.01945555583 -0.3988577425 0.2902647853 1.478322936e-38
0.02859541774 -0.3301452994 0.304220438 1.478322936e-38
0.02380864695 -0.4202761352 0.304893434 1.478322936e-38
0.1623395979 -0.4558032155 0.3021864295 1.478322936e-38
0.1533623487 -0.4299075603 0.2951071858 1.478322936e-38
0.1574677527 -0.3759873807 0.3211501539 1.478322936e-38
0.1509050131 -0.4239835143 0.3261202872 1.478322936e-38
-0.1849737912 -0.451517731 -0.32371521 1.478322936e-38
-0.1885670424 -0.3974720836 -0.3372007608 1.478322936e-38
-0.1704439372 -0.3633225858 -0.3278380632 1.478322936e-38
-0.1904833019 -0.4199952185 -0.3216743767 1.478322936e-38
0.1422811151 -0.4681868255 0.304974854 1.478322936e-38
0.1258338392 -0.4354679585 0.2930609286 1.478322936e-38
0.1378945857 -0.3779680729 0.3211449385 1.478322936e-38
0.1338298917 -0.4439062774 0.323954463 1.478322936e-38
-0.207686916 -0.4543151557 0.1663492769 1.478322936e-38
-0.2320990562 -0.4199783206 0.1512802541 1.478322936e-38
-0.2016069889 -0.3974503279 0.1799774319 1.478322936e-38
-0.2210232466 -0.4240874052 0.1859939098 1.478322936e-38
0.1443245411 -0.2866875827 -0.3349490464 1.478322936e-38
0.163240239 -0.13887541 -0.3391954005 1.478322936e-38
0.1594717205 -0.08830548823 -0.330499351 1.478322936e-38
0.1588004231 -0.1968330443 -0.3157821894 1.478322936e-38
-0.2432655245 -0.4794656634 0.1123529673 1.478322936e-38
-0.3013894856 -0.4760685563 0.08726043999 1.478322936e-38
-0.2669950426 -0.466697216 0.175061211 1.478322936e-38
-0.3009610474 -0.4735747278 0.1414412707 1.478322936e-38
-0.1249658242 -0.168612197 0.2943885028 1.478322936e-38
-0.1329460144 -0.1074272096 0.2857766449 1.478322936e-38
-0.1133565828 -0.1131204739 0.2908883989 1.478322936e-38
-0.1074067131 -0.1370423287 0.2964272201 1.478322936e-38
0.02505746484 -0.2723355889 0.3026546538 1.478322936e-38
0.0154029578 -0.1636919826 0.2977037728 1.478322936e-38
0.03088171408 -0.1180315092 0.2969175279 1.478322936e-38
0.03983212262 -0.2000454962 0.3042425811 1.478322936e-38
0.1032665297 -0.4002248049 0.1858039498 1.478322936e-38
0.08641702682 -0.3298107684 0.1814314276 1.478322936e-38
0.1154081523 -0.2943606973 0.1950473338 1.478322936e-38
0.09919923544 -0.3485414684 0.2021230012 1.478322936e-38
0.1049482748 -0.477245152 0.2633161545 1.478322936e-38
0.0261837393 -0.4786423743 0.2176800668 1.478322936e-38
0.08752367646 -0.4719281793 0.3053837717 1.478322936e-38
0.03313345462 -0.4751295745 0.3042755723 1.478322936e-38
0.03694314882 -0.2403748482 0.3146533966 1.478322936e-38
0.02263558283 -0.1566793025 0.312158674 1.478322936e-38
0.05108350515 -0.1356964558 0.3074143827 1.478322936e-38
0.05305336416 -0.1893296689 0.3141254187 1.478322936e-38
-0.1981369406 -0.3813678324 0.182048291 1.478322936e-38
-0.2201195359 -0.3485583067 0.1662346125 1.478322936e-38
-0.1803852022 -0.3447313309 0.1882060766 1.478322936e-38
-0.2090312541 -0.3492789268 0.2043912262 1.478322936e-38
0.1632435322 -0.2608751953 -0.3184474111 1.478322936e-38
0.1704199016 -0.126554057 -0.3251477778 1.478322936e-38
0.1685352921 -0.0675637573 -0.3087795079 1.478322936e-38
0.1731823534 -0.1765138954 -0.2972123325 1.478322936e-38
0.1294402331 -0.3793379366 -0.1737616062 1.478322936e-38
0.1268768311 -0.2985442579 -0.2007788271 1.478322936e-38
0.1387711167 -0.2670871019 -0.1739821434 1.478322936e-38
0.1332402974 -0.3115120232 -0.15771541 1.478322936e-38
0.08021742851 -0.4653094411 -0.2071656734 1.478322936e-38
0.0939636454 -0.4181702733 -0.2351776659 1.478322936e-38
0.07642902434 -0.3495723903 -0.2076673806 1.478322936e-38
0.09265037626 -0.4401664138 -0.1980727166 1.478322936e-38
-0.1938947141 -0.3697557151 -0.3289819062 1.478322936e-38
-0.1964963824 -0.3339191079 -0.3248864412 1.478322936e-38
-0.1715775132 -0.3087399304 -0.3298097253 1.478322936e-38
-0.1943379045 -0.3400808871 -0.3273770511 1.478322936e-38
-0.01874339767 -0.3258458078 -0.333647877 1.478322936e-38
-0.000401112251 -0.1628190577 -0.3293372989 1.478322936e-38
0.009104315192 -0.09490597248 -0.3335396647 1.478322936e-38
0.01483982056 -0.2299099118 -0.3350007832 1.478322936e-38
-0.06483142078 -0.2727404833 -0.333643198 1.478322936e-38
-0.06006091833 -0.1593767852 -0.3333643973 1.478322936e-38
-0.04012855142 -0.1245602295 -0.3319277763 1.478322936e-38
-0.03485558927 -0.1988342851 -0.3263325989 1.478322936e-38
0.06775892526 -0.3551968634 -0.1713530719 1.478322936e-38
0.06788861752 -0.2833069265 -0.182690993 1.478322936e-38
0.07252850384 -0.2564261556 -0.1649127454 1.478322936e-38
0.07292854041 -0.301412344 -0.152544722 1.478322936e-38
-0.238249734 -0.3343837261 0.1410284787 1.478322936e-38
-0.2504845262 -0.2996301651 0.1309246421 1.478322936e-38
-0.2167360485 -0.2882278562 0.1443720013 1.478322936e-38
-0.2258165777 -0.3099133372 0.1552610397 1.478322936e-38
-0.1485662013 -0.4344610274 0.1663457602 1.478322936e-38
-0.1721115708 -0.3929702044 0.1566783488 1.478322936e-38
-0.1447156221 -0.3626899421 0.1718412191 1.478322936e-38
-0.1467209756 -0.3964682221 0.1843593121 1.478322936e-38
0.0283016488 -0.4695741236 0.2966913283 1.478322936e-38
0.007238080725 -0.4428906441 0.2873042226 1.478322936e-38
0.01336185262 -0.3724419773 0.3052082956 1.478322936e-38
0.01470999233 -0.4602386355 0.3085362911 1.478322936e-38
0.01316646487 -0.3329382241 -0.2955708206 1.478322936e-38
0.01522945985 -0.171383217 -0.3056867123 1.478322936e-38
0.02645106614 -0.1251031756 -0.2964262068 1.478322936e-38
0.030590754 -0.2253398746 -0.2925436497 1.478322936e-38
-0.3414855897 -0.3676722944 0.04368622601 1.478322936e-38
-0.3419252634 -0.3241887987 0.02468117885 1.478322936e-38
-0.3271528184 -0.302588135 0.04684174061 1.478322936e-38
-0.3343011439 -0.3266828656 0.05422633141 1.478322936e-38
0.01175184548 -0.3072734475 0.311691314 1.478322936e-38
0.006671197712 -0.1905243397 0.3117192388 1.478322936e-38
0.0177495908 -0.1398735791 0.3058416843 1.478322936e-38
0.02813153341 -0.2248371691 0.3114598095 1.478322936e-38
0.1116124541 -0.2502816319 -0.3520007133 1.478322936e-38
0.1154346615 -0.09579139203 -0.3545693457 1.478322936e-38
0.1222059131 -0.03935731947 -0.349517554 1.478322936e-38
0.1252507716 -0.1462323368 -0.3383072019 1.478322936e-38
0.05868599564 -0.3282649219 -0.3451978564 1.478322936e-38
0.07517573237 -0.1662200242 -0.3461145759 1.478322936e-38
0.07581611723 -0.1021021828 -0.3410541415 1.478322936e-38
0.07400617748 -0.2293605655 -0.3383800983 1.478322936e-38
-0.4108302891 -0.3814401627 0.03449172527 1.771655483e-38
-0.4022784233 -0.3410601914 0.02757416479 1.771655483e-38
-0.3982545435 -0.3266383708 0.04926455021 1.771655483e-38
-0.3971425593 -0.3426332176 0.05076687783 1.771655483e-38
0.126710996 -0.4377219379 0.1669885367 1.771655483e-38
0.1191796809 -0.3738955259 0.1558681279 1.771655483e-38
0.1213496774 -0.3259421587 0.1798396558 1.771655483e-38
0.1150214821 -0.3968482316 0.1875623018 1.771655483e-38
-0.06190386042 -0.1455659121 0.317545712 1.771655483e-38
-0.07248456031 -0.06494002044 0.305264622 1.771655483e-38
-0.0450861752 -0.057565175 0.3145735264 1.771655483e-38
-0.03972554952 -0.09933882952 0.3147295415 1.771655483e-38
-0.009073212743 -0.4662739336 0.2879798412 1.771655483e-38
-0.01785316505 -0.4267556667 0.2807779014 1.771655483e-38
-0.007627900224 -0.3517915606 0.2961869538 1.771655483e-38
0.003796197474 -0.4514012337 0.2945446074 1.771655483e-38
0.1734666675 -0.3485339582 -0.1614373624 1.771655483e-38
0.1771368682 -0.2108574063 -0.169833824 1.771655483e-38
0.1721574068 -0.1609480679 -0.1509924084 1.771655483e-38
0.1768742204 -0.2566613257 -0.1471526772 1.771655483e-38
-0.09951391071 -0.146367088 0.2752763629 1.771655483e-38
-0.1060260907 -0.07752040029 0.2649367154 1.771655483e-38
-0.07329318672 -0.09162317216 0.2664270103 1.771655483e-38
-0.08018195629 -0.1036026552 0.269459784 1.771655483e-38
0.1942989677 -0.4520535171 -0.01372988988 1.771655483e-38
0.2063986808 -0.3533312976 -0.03639591858 1.771655483e-38
0.188167572 -0.2715334892 -0.01385705173 1.771655483e-38
0.2020884603 -0.4015398026 0.0005299188197 1.771655483e-38
-0.1866525263 -0.4341954291 -0.2748576105 1.771655483e-38
-0.1807457209 -0.3806760609 -0.2873540819 1.771655483e-38
-0.1703876406 -0.3392542005 -0.2832597196 1.771655483e-38
-0.1731949151 -0.3984791636 -0.2730641365 1.771655483e-38
0.1763185859 -0.423867166 -0.05539977551 1.771655483e-38
0.1804879159 -0.3113647997 -0.07869128138 1.771655483e-38
0.1665544957 -0.231672436 -0.04514482245 1.771655483e-38
0.1783572733 -0.3608148992 -0.03835219145 1.771655483e-38
0.1753399223 -0.2908943295 0.3147797585 1.771655483e-38
0.1697580069 -0.1766173989 0.3038008511 1.771655483e-38
0.172401756 -0.1225275919 0.3078632057 1.771655483e-38
0.1753560007 -0.2319652736 0.3167821467 1.771655483e-38
0.07008769363 -0.2451104075 0.2974237204 1.771655483e-38
0.06304052472 -0.1414748579 0.2933757901 1.771655483e-38
0.08620793372 -0.110261023 0.2965085506 1.771655483e-38
0.0896819979 -0.179907769 0.3021531701 1.771655483e-38
0.1534401029 -0.1424009353 -0.3187515438 1.771655483e-38
0.1405673623 -0.04129476845 -0.3144215345 1.771655483e-38
0.1534775794 0.007531449199 -0.3106423318 1.771655483e-38
0.1742351502 -0.05312260985 -0.3001013994 1.771655483e-38
-0.09289244562 -0.314411968 -0.3201232851 1.771655483e-38
-0.08946881443 -0.1685519069 -0.3229624331 1.771655483e-38
-0.07220081985 -0.1146851107 -0.3242511749 1.771655483e-38
-0.06627439708 -0.2212655842 -0.3121485114 1.771655483e-38
-0.389585495 -0.3832153976 0.01963471808 1.771655483e-38
-0.3905017078 -0.3376556635 0.007939051837 1.771655483e-38
-0.3758192658 -0.3196380734 0.03524126112 1.771655483e-38
-0.3805055022 -0.3434386253 0.04485457391 1.771655483e-38
-0.09551755339 -0.1400458217 0.3208668828 1.771655483e-38
-0.1094574183 -0.05720892549 0.3136979043 1.771655483e-38
-0.07521729916 -0.04545221105 0.3179647326 1.771655483e-38
-0.07150931656 -0.09410542995 0.3180968761 1.771655483e-38
0.006026301533 -0.3295535147 -0.2995956242 1.771655483e-38
0.01411639899 -0.1862569302 -0.3070178032 1.771655483e-38
0.02499343082 -0.1364256442 -0.3060683012 1.771655483e-38
0.02982015908 -0.2337789834 -0.296902895 1.771655483e-38
-0.3495976627 -0.4420958161 0.04592447728 1.771655483e-38
-0.3508733213 -0.406406939 0.02782574855 1.771655483e-38
-0.3450455368 -0.3767429888 0.07007326931 1.771655483e-38
-0.3486579955 -0.4084268212 0.08441687375 1.771655483e-38
0.1624131948 -0.2542073727 -0.2143823504 1.771655483e-38
0.1623564661 -0.1529961079 -0.2270357609 1.771655483e-38
0.1633214355 -0.1140456721 -0.2031892687 1.771655483e-38
0.1658689976 -0.1851854473 -0.1947623491 1.771655483e-38
0.1413362622 -0.3615142107 -0.09277569503 1.771655483e-38
0.1499465108 -0.220582068 -0.1100960821 1.771655483e-38
0.1403966397 -0.1548244506 -0.07940029353 1.771655483e-38
0.1419860721 -0.2663966417 -0.06976548582 1.771655483e-38
0.1870708615 -0.2915503383 0.2706432343 1.771655483e-38
0.1827693731 -0.2115692347 0.2563073039 1.771655483e-38
0.1801456362 -0.1726333499 0.2768078446 1.771655483e-38
0.1840541959 -0.2459163517 0.2874778509 1.771655483e-38
-0.1893173307 -0.4528728127 0.1616060436 1.771655483e-38
-0.2237300426 -0.4366735518 0.1456597 1.771655483e-38
-0.1673060954 -0.4238933921 0.1887735277 1.771655483e-38
-0.2114944458 -0.4314958751 0.1934101135 1.771655483e-38
0.1886250973 -0.4134806693 0.1595982462 1.771655483e-38
0.1851308495 -0.3043795526 0.146152094 1.771655483e-38
0.1855223924 -0.2302194238 0.1841331422 1.771655483e-38
0.1830351502 -0.3543683887 0.1842592061 1.771655483e-38
-0.2630879581 -0.3323509693 0.1013687402 1.771655483e-38
-0.2713386118 -0.3059607446 0.08726110309 1.771655483e-38
-0.2383606583 -0.3024480641 0.1063898504 1.771655483e-38
-0.2556480765 -0.3089532554 0.1210448891 1.771655483e-38
0.1866428554 -0.4239203334 0.026817156 1.771655483e-38
0.2034395486 -0.3223035038 0.004839299247 1.771655483e-38
0.1830501258 -0.2451936752 0.02780605666 1.771655483e-38
0.1951227933 -0.364204973 0.04468424618 1.771655483e-38
0.2135088295 -0.211491853 -0.2725380957 1.771655483e-38
0.206821695 -0.1000427827 -0.2776848674 1.771655483e-38
0.2152967751 -0.03777935728 -0.2688960731 1.771655483e-38
0.2234900594 -0.1261245757 -0.2586196363 1.771655483e-38
-0.3052739203 -0.38357234 0.09194351733 1.771655483e-38
-0.3103784919 -0.3438429534 0.08489692211 1.771655483e-38
-0.3013294339 -0.3219332993 0.1020458713 1.771655483e-38
-0.3042493463 -0.3477413952 0.1202027351 1.771655483e-38
0.1821654588 -0.2758971155 -0.2446428537 1.771655483e-38
0.1890748739 -0.1355676502 -0.2593214214 1.771655483e-38
0.1878795922 -0.07951680571 -0.2363931984 1.771655483e-38
0.1858813316 -0.1906854063 -0.230642423 1.771655483e-38
-0.07370510697 -0.3183239698 -0.3338895738 1.771655483e-38
-0.07022374868 -0.1460180581 -0.3342127204 1.771655483e-38
-0.05379518494 -0.07856530696 -0.335072577 1.771655483e-38
-0.03930415213 -0.2140108943 -0.3242568076 1.771655483e-38
-0.06487862766 -0.1977699548 0.3131691217 1.771655483e-38
-0.07340012491 -0.09481097013 0.3071839809 1.771655483e-38
-0.04664088041 -0.06697773188 0.3082539439 1.771655483e-38
-0.04133873433 -0.1322824508 0.3083094656 1.771655483e-38
-0.1783336848 -0.4715013802 -0.2641239762 1.771655483e-38
-0.1973178834 -0.4090510607 -0.2636283636 1.771655483e-38
-0.1811800152 -0.3667491376 -0.2731149197 1.771655483e-38
-0.1982733756 -0.4319932163 -0.2624207735 1.771655483e-38
-0.2602916956 -0.4588656425 -0.2620465457 1.771655483e-38
-0.2711755335 -0.405223757 -0.2657882869 1.771655483e-38
-0.2618262172 -0.3703639209 -0.270555824 1.771655483e-38
-0.2752625942 -0.4239912927 -0.2618121505 1.771655483e-38
-0.3137515485 -0.3951211572 0.01666921936 1.771655483e-38
-0.3202707767 -0.3410696685 0.007811481133 1.771655483e-38
-0.30929932 -0.3175544441 0.02226502635 1.771655483e-38
-0.311214596 -0.3473709226 0.03522453457 1.771655483e-38
-0.05642522126 -0.2078375965 0.3079955578 2.06466517e-38
-0.06802603602 -0.110668838 0.2997573018 2.06466517e-38
-0.04178903624 -0.08489797264 0.3012011647 2.06466517e-38
-0.03552331775 -0.14893426 0.3048538864 2.06466517e-38
0.1162077785 -0.2594276369 0.3397072554 2.06466517e-38
0.1091963053 -0.1454344988 0.3316822946 2.06466517e-38
0.1072726771 -0.1016420871 0.3299759924 2.06466517e-38
0.1227312833 -0.1942899376 0.3432512879 2.06466517e-38
0.193684265 -0.4123188257 0.05275883526 2.06466517e-38
0.2026563585 -0.2962883413 0.03689735383 2.06466517e-38
0.1918586791 -0.2188224047 0.04994193465 2.06466517e-38
0.1934310943 -0.3395142853 0.0619373098 2.06466517e-38
-0.2123895139 -0.3598558009 -0.2781399786 2.06466517e-38
-0.2074341625 -0.3075802624 -0.2833675146 2.06466517e-38
-0.1750963032 -0.310721904 -0.28159374 2.06466517e-38
-0.2017589658 -0.318631053 -0.2585993409 2.06466517e-38
0.1428143829 -0.3554578424 -0.1419951469 2.06466517e-38
0.1412728876 -0.2898942828 -0.154876247 2.06466517e-38
0.1447244734 -0.2751839459 -0.1340972781 2.06466517e-38
0.1393045783 -0.3055353463 -0.112985298 2.06466517e-38
0.161039263 -0.4557962716 -0.08379113674 2.06466517e-38
0.1634949595 -0.403983891 -0.1036703438 2.06466517e-38
0.152267471 -0.3605779409 -0.07720752805 2.06466517e-38
0.1557248384 -0.4286892712 -0.06167088449 2.06466517e-38
-0.05526988208 -0.1881464571 0.3278737068 2.06466517e-38
-0.06685054302 -0.09680137038 0.3166925907 2.06466517e-38
-0.03832658753 -0.06952421367 0.3206902742 2.06466517e-38
-0.03185331076 -0.139175415 0.3222807944 2.06466517e-38
-0.3018887937 -0.4689469039 0.04042748362 2.06466517e-38
-0.3376762867 -0.4347566664 0.02585137822 2.06466517e-38
-0.3351611495 -0.4052358568 0.065364182 2.06466517e-38
-0.3414831161 -0.4440222085 0.05582198501 2.06466517e-38
-0.2367511392 -0.4865214527 -0.2913213074 2.06466517e-38
-0.2873287499 -0.4755966365 -0.2576379478 2.06466517e-38
-0.2715216577 -0.4752118587 -0.2249813229 2.06466517e-38
-0.3094809651 -0.4759765565 -0.2592193782 2.06466517e-38
-0.213089928 -0.4860299826 -0.312702328 2.06466517e-38
-0.2731947303 -0.4787701964 -0.2984365523 2.06466517e-38
-0.2419863343 -0.47693488 -0.2638471127 2.06466517e-38
-0.2780631781 -0.4790005684 -0.2948505282 2.06466517e-38
-0.2564885914 -0.331602484 0.1161169112 2.06466517e-38
-0.2666871548 -0.2928418517 0.1043834835 2.06466517e-38
-0.2356757671 -0.2887659073 0.1275341362 2.06466517e-38
-0.2444798201 -0.3047302067 0.1398358643 2.06466517e-38
-0.3047954738 -0.4727959037 -0.2563112676 2.06466517e-38
-0.3238728344 -0.4418191612 -0.2491717041 2.06466517e-38
-0.3274980783 -0.4257898033 -0.2371083349 2.06466517e-38
-0.3380373716 -0.4531967938 -0.2273797244 2.06466517e-38
-0.3627633154 -0.3549251556 0.03917099535 2.06466517e-38
-0.3617042005 -0.3094578683 0.02302345075 2.06466517e-38
-0.3558744192 -0.2942032218 0.05035876483 2.06466517e-38
-0.3641143143 -0.3125460148 0.06011857092 2.06466517e-38
-0.3102650642 -0.4816889465 -0.2581144869 2.06466517e-38
-0.3288171291 -0.4705050886 -0.2516805232 2.06466517e-38
-0.3518042564 -0.4703673124 -0.2001532465 2.06466517e-38
-0.3511432707 -0.468064487 -0.2329681665 2.06466517e-38
0.1403256357 -0.3642675877 -0.1318035275 2.06466517e-38
0.1374948323 -0.2990791798 -0.1510720104 2.06466517e-38
0.1431796402 -0.2807235122 -0.124934949 2.06466517e-38
0.1370930076 -0.3084672689 -0.1020056084 2.06466517e-38
0.1469256878 -0.162999317 -0.3314602375 2.06466517e-38
0.1478539258 -0.06962890923 -0.337921828 2.06466517e-38
0.1583148688 -0.04628364742 -0.3141059875 2.06466517e-38
0.167478174 -0.07948586345 -0.3026557565 2.06466517e-38
0.1886841804 -0.3126485646 -0.135987699 2.06466517e-38
0.1946729124 -0.2042771131 -0.1586302817 2.06466517e-38
0.1849378496 -0.1506884545 -0.1238105595 2.06466517e-38
0.1860970855 -0.2361657321 -0.1218911111 2.06466517e-38
0.1929523498 -0.4534079432 -0.07689008862 2.06466517e-38
0.1936881095 -0.3922350705 -0.09982445091 2.06466517e-38
0.1867932826 -0.3462175727 -0.06084742397 2.06466517e-38
0.1935050488 -0.4191375077 -0.05673430115 2.06466517e-38
0.1924793422 -0.4456626475 0.1369234174 2.06466517e-38
0.2082447559 -0.3512845933 0.1141150743 2.06466517e-38
0.1966947913 -0.2699608505 0.1486811489 2.06466517e-38
0.1941640526 -0.3966265917 0.1553342044 2.06466517e-38
