# .PCD v0.7 - Point Cloud Data file format
VERSION 0.7
FIELDS x y z rgb
SIZE 4 4 4 4
TYPE F F F F
COUNT 1 1 1 1
WIDTH 838
HEIGHT 1
VIEWPOINT 0 0 0 1 0 0 0
POINTS 838
DATA ascii
-0.04441230744 -0.4830784202 -0.3134629726 8.906165387e-39
-0.05914512277 -0.4865653515 -0.2065193355 8.906165387e-39
0.02233815566 -0.4851861 -0.251514554 8.906165387e-39
-0.01259770244 -0.466548562 0.4077891409 8.906165387e-39
0.07854287326 -0.4747511148 0.3719770908 8.906165387e-39
0.05324585363 -0.4771450162 0.4371468723 8.906165387e-39
0.1298675984 -0.4778125286 0.4213075042 8.906165387e-39
-0.1285057664 -0.4750704169 0.3521989286 8.906165387e-39
-0.03616499901 -0.4789128304 0.318607986 8.906165387e-39
-0.0766210258 -0.48281461 0.4008170962 8.906165387e-39
0.009233415127 -0.4773096442 0.39022246 8.906165387e-39
0.002711998299 -0.4539980888 -0.2757090032 8.906165387e-39
0.02644950897 -0.4312459826 -0.2872186303 8.906165387e-39
0.02618031949 -0.4384765029 -0.2246158719 8.906165387e-39
0.05656340346 -0.472512126 -0.2454231977 8.906165387e-39
-0.1461947262 -0.4619320035 -0.3132264316 8.906165387e-39
-0.1221764237 -0.4435067177 -0.3171462119 8.906165387e-39
-0.1252341568 -0.4696310163 -0.2726840377 8.906165387e-39
-0.07328875363 -0.4828584194 -0.2996405065 8.906165387e-39
0.1896881014 -0.4787850976 -0.2020433098 8.906165387e-39
0.2756841183 -0.4930388331 -0.2377763093 8.906165387e-39
0.2795179486 -0.487447381 -0.08918556571 8.906165387e-39
0.3056537211 -0.4850627184 -0.1730518192 8.906165387e-39
-0.1101359576 -0.4276128411 -0.2258384973 8.906165387e-39
-0.1143437177 -0.2859635353 -0.2197472751 8.906165387e-39
-0.1045223176 -0.3831421733 -0.2088267654 8.906165387e-39
-0.1101094633 -0.4738964438 -0.1979758292 8.906165387e-39
-0.1074058115 -0.4068395495 -0.2242346257 8.906165387e-39
-0.1165218949 -0.2744374275 -0.2208750099 8.906165387e-39
-0.1102885902 -0.3632670641 -0.2013095617 8.906165387e-39
-0.1187420487 -0.4636212587 -0.1946652085 8.906165387e-39
-0.1372582316 -0.4386943579 0.4309586585 8.906165387e-39
-0.1272407472 -0.3541605473 0.449914515 8.906165387e-39
-0.1377424598 -0.4183900356 0.454036206 8.906165387e-39
-0.1163386106 -0.467125237 0.4397021234 8.906165387e-39
-0.005603849888 -0.4733550549 -0.2601970732 8.906165387e-39
0.06147570163 -0.4846771359 -0.2890081704 8.906165387e-39
0.03188028559 -0.4841460586 -0.1889927387 8.906165387e-39
0.09246961772 -0.4861419797 -0.2203575224 8.906165387e-39
-0.07427456975 -0.4784476757 -0.2804695368 8.906165387e-39
-0.01801702753 -0.4907708168 -0.3206862807 8.906165387e-39
-0.03177578002 -0.4878079891 -0.2127842903 8.906165387e-39
0.03922675177 -0.4894317985 -0.2642730772 8.906165387e-39
-0.1306098998 -0.3130530417 -0.2477471083 1.184631237e-38
-0.123221159 -0.2571419179 -0.2506188452 1.184631237e-38
-0.110954389 -0.2860625982 -0.2250445485 1.184631237e-38
-0.1230039895 -0.3572292924 -0.2371206731 1.184631237e-38
-0.1439215839 -0.2721840739 -0.2210689634 1.184631237e-38
-0.1452604234 -0.2384301722 -0.2159572989 1.184631237e-38
-0.1355339438 -0.2501448989 -0.177284658 1.184631237e-38
-0.1545116603 -0.3171191514 -0.1906553805 1.184631237e-38
-0.1608298272 -0.4429665208 -0.2341737151 1.184631237e-38
-0.1692437232 -0.3352589011 -0.2213153094 1.184631237e-38
-0.1591596454 -0.4099736214 -0.2108103335 1.184631237e-38
-0.1569163054 -0.4806730747 -0.1952765733 1.184631237e-38
-0.07057253271 -0.4736597538 0.291543901 1.184631237e-38
0.006939608604 -0.4797497392 0.2549078166 1.184631237e-38
-0.03943433613 -0.4792073369 0.3538013399 1.184631237e-38
0.05080610514 -0.4791756272 0.3328503966 1.184631237e-38
-0.171656549 -0.3879719973 0.4662232399 1.184631237e-38
-0.1620288938 -0.3245310783 0.478178978 1.184631237e-38
-0.1580304205 -0.3713545799 0.4824402928 1.184631237e-38
-0.1428050697 -0.4460867047 0.470588088 1.184631237e-38
-0.1382365078 -0.3104768395 0.3797199726 1.184631237e-38
-0.1401793659 -0.2761878967 0.3763589263 1.184631237e-38
-0.1432616562 -0.2915878892 0.4075544775 1.184631237e-38
-0.1468076855 -0.3559471965 0.3964277804 1.184631237e-38
0.05580953881 -0.4797236323 -0.2412453443 1.184631237e-38
0.1405632794 -0.4932445884 -0.2828211784 1.184631237e-38
0.1236875206 -0.489136517 -0.1422748715 1.184631237e-38
0.1927063018 -0.4878439903 -0.2135195583 1.184631237e-38
-0.1388490945 -0.4114873409 -0.2341050655 1.184631237e-38
-0.1487495154 -0.2802379727 -0.2211701274 1.184631237e-38
-0.141693607 -0.3646329045 -0.2128979564 1.184631237e-38
-0.1531751007 -0.4641439915 -0.2027891725 1.184631237e-38
-0.1541759968 -0.2910423577 -0.1497144103 1.184631237e-38
-0.1500186026 -0.2664684951 -0.1585281491 1.184631237e-38
-0.1416755468 -0.2806229293 -0.1236143708 1.184631237e-38
-0.1595643461 -0.3513157964 -0.1319078058 1.184631237e-38
-0.049731493 -0.4018346667 0.4599559903 1.184631237e-38
-0.05227702111 -0.3282709122 0.4636279345 1.184631237e-38
-0.05214817822 -0.3834765553 0.4729270339 1.184631237e-38
-0.02887020633 -0.451290071 0.459880352 1.184631237e-38
0.322380662 -0.4738801122 0.03660688177 1.184631237e-38
0.4119498134 -0.4865774512 -0.02930123731 1.184631237e-38
0.3628283739 -0.4828810692 0.149725765 1.184631237e-38
0.4002910554 -0.4804956913 0.07669298351 1.184631237e-38
0.2845587432 -0.4782879949 -0.1035679132 1.184631237e-38
0.3666450679 -0.4897126555 -0.142209366 1.184631237e-38
0.355973959 -0.4857862592 0.001976478845 1.184631237e-38
0.3656487167 -0.480858326 -0.06418818235 1.184631237e-38
-0.1428278536 -0.3852010369 0.4828617573 1.184631237e-38
-0.1305965036 -0.3467994928 0.4826275706 1.184631237e-38
-0.1318200678 -0.3721473813 0.4969272017 1.184631237e-38
-0.1216705889 -0.4300144315 0.4874945283 1.184631237e-38
-0.1202500463 -0.4570025206 0.397577703 1.184631237e-38
-0.111647442 -0.3994973302 0.4122439921 1.184631237e-38
-0.1159243882 -0.4443182349 0.4309955239 1.184631237e-38
-0.07290937006 -0.4716620445 0.4146340191 1.184631237e-38
-0.1473536044 -0.3414469957 0.3434377611 1.184631237e-38
-0.1567440331 -0.2266215235 0.3455827534 1.184631237e-38
-0.1477590501 -0.2866877615 0.3678981662 1.184631237e-38
-0.1568031609 -0.4081597328 0.3569458425 1.184631237e-38
-0.1493126452 -0.3166658282 0.4309759736 1.184631237e-38
-0.14613837 -0.221507147 0.4296650589 1.184631237e-38
-0.1535945237 -0.2690694928 0.4479212463 1.184631237e-38
-0.1580404639 -0.3822039366 0.4410401583 1.184631237e-38
-0.180306986 -0.3496761322 0.3288809359 1.184631237e-38
-0.1803159267 -0.2420335561 0.3323529065 1.184631237e-38
-0.1784054637 -0.2992412746 0.3514975905 1.184631237e-38
-0.1901401877 -0.416698873 0.3372380435 1.184631237e-38
0.1304036826 -0.4760259986 0.3528165221 1.184631237e-38
0.2460256368 -0.4853008986 0.2884377539 1.184631237e-38
0.1853703409 -0.4798972607 0.3984287381 1.184631237e-38
0.2542990148 -0.474113524 0.3558569551 1.184631237e-38
-0.1240537316 -0.4678095579 0.3966809511 1.184631237e-38
-0.1092767417 -0.4492998719 0.4049923122 1.184631237e-38
-0.1111281365 -0.470895052 0.4342927635 1.184631237e-38
-0.05206549913 -0.4765565395 0.4207005501 1.184631237e-38
-0.1268112361 -0.4314658642 0.3743183911 1.184631237e-38
-0.119205296 -0.3648551106 0.3867441416 1.184631237e-38
-0.1273055077 -0.406732142 0.4167901576 1.184631237e-38
-0.09169663489 -0.4569841623 0.3967572749 1.184631237e-38
-0.1310267001 -0.3439577818 0.446442306 1.184631237e-38
-0.1148431152 -0.3133225143 0.4420466721 1.184631237e-38
-0.1301932037 -0.3286665082 0.4648617506 1.184631237e-38
-0.1197187006 -0.3892100453 0.448430717 1.184631237e-38
-0.03972996771 -0.4654140472 0.2000587434 1.184631237e-38
-0.05262119323 -0.3845260739 0.2109460533 1.184631237e-38
-0.04996679723 -0.4367538691 0.2378525436 1.184631237e-38
-0.03150171787 -0.4762766361 0.2201295495 1.184631237e-38
-0.1516456306 -0.3840863109 -0.245241344 1.184631237e-38
-0.1465979069 -0.3327915072 -0.2390740067 1.184631237e-38
-0.1407262236 -0.3683300614 -0.2161709964 1.184631237e-38
-0.1462994963 -0.4368771315 -0.2222149372 1.184631237e-38
-0.137172401 -0.4043582082 -0.1977075189 1.184631237e-38
-0.1522191465 -0.260388732 -0.1877202243 1.184631237e-38
-0.1446488947 -0.3529500365 -0.1780703962 1.184631237e-38
-0.1554849595 -0.4625362158 -0.1673954427 1.184631237e-38
-0.1259461492 -0.2790859342 0.4344521761 1.184631237e-38
-0.1240857542 -0.2132123411 0.4374853671 1.184631237e-38
-0.1300093383 -0.2538846731 0.4462564588 1.184631237e-38
-0.1308567226 -0.3447830081 0.4437769651 1.184631237e-38
-0.1508571208 -0.4832559228 -0.2192153931 1.184631237e-38
-0.08738712966 -0.4902095795 -0.2737579644 1.184631237e-38
-0.1455394626 -0.49282974 -0.1113101095 1.184631237e-38
-0.02481270581 -0.4838520288 -0.1910811812 1.184631237e-38
0.0002051927149 -0.4689614177 0.1452638954 1.184631237e-38
-0.003158949316 -0.3745576143 0.1567421407 1.184631237e-38
0.002123234794 -0.4329637289 0.1956768632 1.184631237e-38
0.01948150992 -0.4813586473 0.1737847328 1.184631237e-38
0.3608897328 -0.475259006 0.06053220108 1.184631237e-38
0.4290386736 -0.4867269993 0.002776473761 1.184631237e-38
0.3926691413 -0.4828942418 0.1653371304 1.184631237e-38
0.4226716161 -0.4802917838 0.1051272303 1.184631237e-38
0.08618003875 -0.4756777287 0.3421703279 1.184631237e-38
0.2103596926 -0.4843658805 0.284172684 1.184631237e-38
0.1529417336 -0.4813921452 0.3905655742 1.184631237e-38
0.2174108028 -0.4786915183 0.3493615389 1.184631237e-38
-0.06726509333 -0.3916527629 -0.2410710752 1.184631237e-38
-0.07115422189 -0.2740436494 -0.2437968552 1.184631237e-38
-0.06488806009 -0.34731704 -0.2334418446 1.184631237e-38
-0.0760357976 -0.4550554752 -0.2293673456 1.184631237e-38
0.02615780011 -0.4719721079 0.1992077678 1.184631237e-38
0.03970810771 -0.4449493289 0.1826167703 1.184631237e-38
0.04688551277 -0.4602483511 0.259301275 1.184631237e-38
0.07621781528 -0.4777352214 0.2144452631 1.184631237e-38
-0.1261093616 -0.4682472944 -0.1569706202 1.184631237e-38
-0.128725931 -0.3616200686 -0.1450457871 1.184631237e-38
-0.1383541971 -0.4488229752 -0.1200601906 1.184631237e-38
-0.1060676426 -0.4842413068 -0.1201671958 1.184631237e-38
-0.1213737577 -0.4623990655 0.1503267884 1.478322936e-38
-0.1470383257 -0.349429369 0.1485009193 1.478322936e-38
-0.1473061889 -0.4309901595 0.1877844632 1.478322936e-38
-0.1185063571 -0.4783411026 0.1595101207 1.478322936e-38
-0.1465657353 -0.4454346299 -0.2107310295 1.478322936e-38
-0.1614858061 -0.3103360236 -0.1947498173 1.478322936e-38
-0.1445248276 -0.4101930857 -0.1936329156 1.478322936e-38
-0.1394772381 -0.4829257727 -0.1789609939 1.478322936e-38
-0.0632410422 -0.4311413765 0.3869233429 1.478322936e-38
-0.04611059278 -0.3862636685 0.3981857598 1.478322936e-38
-0.05707398802 -0.4209480882 0.4109043479 1.478322936e-38
-0.0216008611 -0.4563373327 0.4001171291 1.478322936e-38
-0.1479841471 -0.475112021 0.2696893811 1.478322936e-38
-0.1262036413 -0.4767948985 0.2579311132 1.478322936e-38
-0.1494283676 -0.4804870486 0.3318412006 1.478322936e-38
-0.08461556584 -0.4782685041 0.3185388148 1.478322936e-38
0.125913173 -0.4796277881 -0.1328603029 1.478322936e-38
0.2247760296 -0.4895564318 -0.1620725989 1.478322936e-38
0.1865957975 -0.4870516658 -0.05151786655 1.478322936e-38
0.2466007024 -0.4884712696 -0.112495333 1.478322936e-38
-0.1204751879 -0.3615528941 0.4412162304 1.478322936e-38
-0.1136241853 -0.3042370081 0.4434672892 1.478322936e-38
-0.1225223243 -0.3315227628 0.4548192024 1.478322936e-38
-0.1093192846 -0.4194304943 0.442956388 1.478322936e-38
-0.1131828129 -0.3408259749 -0.1750916988 1.478322936e-38
-0.1296521723 -0.2355912477 -0.1744221747 1.478322936e-38
-0.1176212281 -0.2998840213 -0.1599076986 1.478322936e-38
-0.1288227886 -0.4241998196 -0.1600022316 1.478322936e-38
0.05190544575 -0.4745442271 0.1902639121 1.478322936e-38
0.1033649072 -0.473408401 0.1622021049 1.478322936e-38
0.09176257253 -0.475746274 0.249011606 1.478322936e-38
0.1257022917 -0.4790738821 0.2009308487 1.478322936e-38
-0.01701218262 -0.3980882168 0.1981876045 1.478322936e-38
-0.0101031065 -0.2891055346 0.1975991428 1.478322936e-38
-0.0007801316679 -0.3529660702 0.2104120255 1.478322936e-38
-0.005074445158 -0.4449136257 0.198468864 1.478322936e-38
-0.1402457654 -0.1972109973 -0.1352712661 1.478322936e-38
-0.1433047205 -0.1961119771 -0.1418128759 1.478322936e-38
-0.1299122721 -0.1818289757 -0.1067339927 1.478322936e-38
-0.148191765 -0.2366363406 -0.1180752665 1.478322936e-38
0.2230112851 -0.4739906788 0.1728725582 1.478322936e-38
0.2888448536 -0.4839769602 0.1432512999 1.478322936e-38
0.2634332776 -0.4757669568 0.2367449105 1.478322936e-38
0.3019062579 -0.4711114168 0.1989163458 1.478322936e-38
0.004626175389 -0.4718942642 0.3628731966 1.478322936e-38
0.09623915702 -0.4823172092 0.3261536062 1.478322936e-38
0.04415854439 -0.4805481434 0.3988478184 1.478322936e-38
0.1150865108 -0.479569912 0.3789675534 1.478322936e-38
-0.03781331331 -0.4033654928 0.1426429898 1.478322936e-38
-0.04579784721 -0.2947853804 0.137607187 1.478322936e-38
-0.04609100521 -0.3637724519 0.1782323718 1.478322936e-38
-0.04414321482 -0.4491147995 0.1549731791 1.478322936e-38
-0.005119599402 -0.407217443 0.192300275 1.478322936e-38
0.004681617022 -0.3046800196 0.1961844712 1.478322936e-38
0.01097299531 -0.3717736602 0.2127439678 1.478322936e-38
0.01176931709 -0.4515355229 0.1947240382 1.478322936e-38
-0.1463708282 -0.4592346549 0.3175419271 1.478322936e-38
-0.1419859827 -0.4261529446 0.3332516849 1.478322936e-38
-0.1439804137 -0.4455560446 0.3681540191 1.478322936e-38
-0.1033415943 -0.4686325192 0.3541170061 1.478322936e-38
-0.1278140992 -0.2295328677 0.3837092221 1.478322936e-38
-0.1274922192 -0.1932352483 0.3819106519 1.478322936e-38
-0.1301368177 -0.2180238515 0.4064031839 1.478322936e-38
-0.1290139854 -0.2840641141 0.401355505 1.478322936e-38
-0.1522512883 -0.4725110531 0.3018959761 1.478322936e-38
-0.1426980644 -0.4545710087 0.309578836 1.478322936e-38
-0.1509661078 -0.4666627645 0.356520474 1.478322936e-38
-0.09862734377 -0.4756082892 0.3469336927 1.478322936e-38
0.05981833488 -0.4832547903 -0.1669781357 1.478322936e-38
0.1522272378 -0.4915477633 -0.1995968223 1.478322936e-38
0.1041811183 -0.4902772307 -0.04750263691 1.478322936e-38
0.188733086 -0.4897590876 -0.1178360134 1.478322936e-38
-0.1065393537 -0.2483603507 -0.06659214199 1.478322936e-38
-0.1051049083 -0.21758838 -0.07380959392 1.478322936e-38
-0.1001129746 -0.2183247358 -0.03227877244 1.478322936e-38
-0.1155302376 -0.2958703637 -0.05225944147 1.478322936e-38
-0.1415028423 -0.477177918 0.2610274255 1.478322936e-38
-0.08091809601 -0.4811139107 0.2280226052 1.478322936e-38
-0.1260573119 -0.4833828211 0.3361205161 1.478322936e-38
-0.03348650038 -0.4773138762 0.3217689097 1.478322936e-38
0.05610099062 -0.4100761414 0.1550034881 1.478322936e-38
0.05846527591 -0.3101179898 0.1607056558 1.478322936e-38
0.07000741363 -0.3764258623 0.1876875609 1.478322936e-38
0.06501786411 -0.4473589063 0.1687277406 1.478322936e-38
-0.1500001848 -0.4830315113 -0.1989627779 1.478322936e-38
-0.06086247414 -0.4901031256 -0.2631140351 1.478322936e-38
-0.1114130467 -0.4918749928 -0.1120253801 1.478322936e-38
0.001078585163 -0.4865071177 -0.1883847564 1.478322936e-38
0.03079270571 -0.3827386498 0.2062502801 1.478322936e-38
0.03934856504 -0.2979010642 0.2037691921 1.478322936e-38
0.04656456411 -0.3550400734 0.2274008691 1.478322936e-38
0.04776545241 -0.4311873317 0.2089558691 1.478322936e-38
-0.1436167061 -0.3743036389 -0.2165889442 1.478322936e-38
-0.1553803533 -0.2447986603 -0.2071834654 1.478322936e-38
-0.1451210231 -0.3313968778 -0.2065751702 1.478322936e-38
-0.1524786353 -0.4438781142 -0.2004609406 1.478322936e-38
-0.03200437874 -0.4717916846 0.2907389998 1.478322936e-38
0.003534892574 -0.4805742502 0.2709642649 1.478322936e-38
-0.01688625291 -0.4782518744 0.3343387842 1.478322936e-38
0.042540811 -0.4782096148 0.3262650967 1.478322936e-38
0.103011176 -0.4118530154 0.195920527 1.478322936e-38
0.1063944176 -0.3118335605 0.2048683017 1.478322936e-38
0.1200783998 -0.3811224103 0.2110358924 1.478322936e-38
0.1258613169 -0.4527523518 0.2002012581 1.478322936e-38
-0.02863360569 -0.392500639 0.1875404716 1.478322936e-38
-0.02551051974 -0.2849308252 0.1882426441 1.478322936e-38
-0.01428678259 -0.3489214778 0.2031618804 1.478322936e-38
-0.01839889959 -0.4401985407 0.1919038296 1.478322936e-38
-0.09208904207 -0.2511477172 -0.0879702419 1.478322936e-38
-0.09152746201 -0.2434260249 -0.09244830906 1.478322936e-38
-0.08831238747 -0.2324436307 -0.04464486986 1.478322936e-38
-0.09926730394 -0.2823991776 -0.06812731177 1.478322936e-38
0.2586963177 -0.4760476351 -0.02683393098 1.478322936e-38
0.3450653255 -0.4880201817 -0.08039008081 1.478322936e-38
0.3106715381 -0.4830220342 0.07361754775 1.478322936e-38
0.3544341326 -0.4811437726 0.001010913402 1.478322936e-38
-0.01729445159 -0.3886559606 0.1902401447 1.478322936e-38
-0.01749566197 -0.2838513255 0.1887638867 1.478322936e-38
-0.01060642302 -0.3424609303 0.2157340944 1.478322936e-38
-0.005400847644 -0.4381002188 0.2028408498 1.478322936e-38
0.289478153 -0.4458855391 0.1949934512 1.478322936e-38
0.3042325377 -0.3628888726 0.1977651119 1.478322936e-38
0.3018091023 -0.4150713682 0.221880883 1.478322936e-38
0.3038781881 -0.4601854682 0.2141346633 1.478322936e-38
0.1955308169 -0.4802208543 -0.1153114885 1.478322936e-38
0.2904699743 -0.4896321893 -0.1630786657 1.478322936e-38
0.2660312355 -0.4884446859 -0.007408535108 1.478322936e-38
0.3164983988 -0.4879125953 -0.08834490925 1.478322936e-38
0.1433078647 -0.442700386 0.1828779131 1.771655483e-38
0.1550922543 -0.3710637689 0.1982159615 1.771655483e-38
0.1613256037 -0.4123794436 0.2192184329 1.771655483e-38
0.1766336858 -0.4624726772 0.2001449168 1.771655483e-38
0.1184797436 -0.4260923266 0.1638429612 1.771655483e-38
0.1230181009 -0.3210510015 0.1764235497 1.771655483e-38
0.1304453611 -0.3876125216 0.1877922714 1.771655483e-38
0.1454132497 -0.460842669 0.1775432378 1.771655483e-38
0.1392400861 -0.4275408983 0.1846296787 1.771655483e-38
0.1586075723 -0.3705591559 0.1892959327 1.771655483e-38
0.1629843712 -0.4070870876 0.2157340944 1.771655483e-38
0.1778835654 -0.4481445551 0.1924271733 1.771655483e-38
-0.09692069888 -0.4520946145 0.2975743115 1.771655483e-38
-0.1037149429 -0.3907803297 0.3145785034 1.771655483e-38
-0.1029369831 -0.4311524034 0.3319400847 1.771655483e-38
-0.07672853768 -0.4680031538 0.3230481446 1.771655483e-38
-0.1017227173 -0.381305933 0.3879061341 1.771655483e-38
-0.07750426978 -0.3437861204 0.3979641497 1.771655483e-38
-0.08470355719 -0.3763426542 0.4001835883 1.771655483e-38
-0.07101698965 -0.4141181111 0.3888916075 1.771655483e-38
-0.06075107306 -0.3726169467 0.1485459208 1.771655483e-38
-0.05962180346 -0.2879114747 0.1462377757 1.771655483e-38
-0.05770131946 -0.3378117681 0.1655980051 1.771655483e-38
-0.06339216232 -0.427525878 0.1487945169 1.771655483e-38
-0.04727565497 -0.4682502747 0.2959434986 1.771655483e-38
-0.007585380226 -0.4757428765 0.2744526267 1.771655483e-38
-0.02228457853 -0.4717425108 0.3394838572 1.771655483e-38
0.03285635635 -0.4734481573 0.3237814903 1.771655483e-38
-0.152480334 -0.2542625666 0.4275439382 1.771655483e-38
-0.146100685 -0.2037757486 0.4224132895 1.771655483e-38
-0.1390591562 -0.2305537909 0.4289638996 1.771655483e-38
-0.1465628892 -0.3093096018 0.4347584546 1.771655483e-38
-0.1380011886 -0.4100549221 0.07148621976 1.771655483e-38
-0.1512879133 -0.2916786075 0.07961498201 1.771655483e-38
-0.1469319314 -0.3726582527 0.1066639572 1.771655483e-38
-0.1545042247 -0.4631643295 0.09060932696 1.771655483e-38
0.1343818903 -0.4082462788 0.1474400312 1.771655483e-38
0.1474983096 -0.3548496962 0.1501462609 1.771655483e-38
0.1507501006 -0.3877008557 0.1777177751 1.771655483e-38
0.1556522846 -0.4449765682 0.1572352797 1.771655483e-38
0.00606636703 -0.4833545089 -0.1765592247 1.771655483e-38
0.09043119848 -0.495125711 -0.2388908267 1.771655483e-38
0.05044901371 -0.4920558333 -0.1021465063 1.771655483e-38
0.1291084886 -0.4912053347 -0.1734806597 1.771655483e-38
0.2367030829 -0.4065725207 0.207922712 1.771655483e-38
0.2487643063 -0.3076651692 0.2088142931 1.771655483e-38
0.2590139508 -0.3753851056 0.2255041003 1.771655483e-38
0.2584745288 -0.4463405609 0.2195615172 1.771655483e-38
0.2120604068 -0.4045428634 0.2090409249 1.771655483e-38
0.22369802 -0.3176627159 0.2138427496 1.771655483e-38
0.2296350449 -0.3737369776 0.2343370914 1.771655483e-38
0.2367802411 -0.4475086331 0.2179596722 1.771655483e-38
-0.1410170197 -0.4137884974 0.2929767966 1.771655483e-38
-0.1540925354 -0.3588741422 0.2967834473 1.771655483e-38
-0.143027395 -0.3948617578 0.3157522976 1.771655483e-38
-0.1259681433 -0.4455656409 0.306083858 1.771655483e-38
0.1756504029 -0.4103434086 0.1816698611 1.771655483e-38
0.1880708784 -0.3071039319 0.1867254078 1.771655483e-38
0.1973096281 -0.3812856078 0.2036022991 1.771655483e-38
0.2082829773 -0.4469103813 0.1912246644 1.771655483e-38
0.1696670204 -0.4027532339 0.1884582192 1.771655483e-38
0.1801753491 -0.3246520162 0.1968409717 1.771655483e-38
0.1855000556 -0.3775173426 0.2162771821 1.771655483e-38
0.1972620487 -0.4425614476 0.195408687 1.771655483e-38
-0.07000414282 -0.2333596647 -0.04441181943 1.771655483e-38
-0.05561515689 -0.2296878099 -0.05673562735 1.771655483e-38
-0.0433704108 -0.2352246344 -0.03587798402 1.771655483e-38
-0.05849315971 -0.2775124311 -0.04509142041 1.771655483e-38
-0.1149198413 -0.3369451761 0.4063363969 1.771655483e-38
-0.09813867509 -0.2902528346 0.4067306519 1.771655483e-38
-0.09769746661 -0.3253284097 0.4221502244 1.771655483e-38
-0.08326402307 -0.3860987425 0.4176049531 1.771655483e-38
-0.1329231411 -0.2336967587 -0.08261340111 1.771655483e-38
-0.1296825558 -0.2228459865 -0.08233956993 1.771655483e-38
-0.1196774393 -0.2268332243 -0.05365318432 1.771655483e-38
-0.1370447874 -0.281692028 -0.07048128545 1.771655483e-38
0.3224001825 -0.4746387601 0.04774777964 1.771655483e-38
0.3832472265 -0.4884762168 0.005723766983 1.771655483e-38
0.3526320159 -0.4816408753 0.140093267 1.771655483e-38
0.3741181195 -0.4815226197 0.08793395758 1.771655483e-38
-0.1210537851 -0.4793538451 0.2277540565 1.771655483e-38
-0.07174681127 -0.4823329449 0.1864841282 1.771655483e-38
-0.1198830605 -0.4834728837 0.3033274114 1.771655483e-38
-0.03266055137 -0.4799331427 0.2820493877 1.771655483e-38
-0.07400137186 -0.4737275243 0.2629360855 1.771655483e-38
-0.04716067761 -0.4796811342 0.2253865004 1.771655483e-38
-0.06264751405 -0.4818240404 0.3200174272 1.771655483e-38
0.00510821864 -0.4766670465 0.2953482866 1.771655483e-38
-0.1319091767 -0.2866782546 0.05025998875 1.771655483e-38
-0.1389242262 -0.1902143657 0.04987325147 1.771655483e-38
-0.1383672953 -0.2393873185 0.07647849619 1.771655483e-38
-0.1418851763 -0.3506274223 0.05971980467 1.771655483e-38
0.2451017052 -0.4814885259 -0.02329470403 1.771655483e-38
0.3322997093 -0.4900294542 -0.08709186316 1.771655483e-38
0.3048380911 -0.4863916636 0.08621054888 1.771655483e-38
0.3440377414 -0.481731236 0.003243923187 1.771655483e-38
0.172484085 -0.3749733567 0.1763668954 1.771655483e-38
0.1820986271 -0.3126267791 0.1781571507 1.771655483e-38
0.1933123916 -0.3445293307 0.1988260001 1.771655483e-38
0.1929351836 -0.4250247478 0.1789944619 1.771655483e-38
-0.1690040678 -0.2864993215 0.06426773965 1.771655483e-38
-0.1672120243 -0.2210185379 0.07012882829 1.771655483e-38
-0.1629116982 -0.2545159459 0.1003845334 1.771655483e-38
-0.1715086251 -0.3619595766 0.08698184788 1.771655483e-38
-0.08800651878 -0.4654657245 0.2821786404 1.771655483e-38
-0.06419878453 -0.4507853389 0.2842707932 1.771655483e-38
-0.07301884145 -0.4570008516 0.3304670453 1.771655483e-38
-0.02644304559 -0.4697645307 0.3214574456 1.771655483e-38
0.1590200812 -0.3773723841 0.1523206532 1.771655483e-38
0.1681509018 -0.3009263277 0.1588305533 1.771655483e-38
0.1824410707 -0.3461942673 0.179450646 1.771655483e-38
0.1793588102 -0.4280407429 0.1593929678 1.771655483e-38
-0.1362498403 -0.2991749048 0.3561608791 1.771655483e-38
-0.1328735203 -0.2386567444 0.3518036604 1.771655483e-38
-0.1240388006 -0.2610985637 0.3629592657 1.771655483e-38
-0.1336103082 -0.3587350249 0.3658682704 1.771655483e-38
-0.07399819791 -0.3931387663 -0.2056143582 1.771655483e-38
-0.06343046576 -0.3477596045 -0.2064714879 1.771655483e-38
-0.05334065109 -0.3733032346 -0.1908359379 1.771655483e-38
-0.06334629655 -0.4354994297 -0.1979745328 1.771655483e-38
0.01822670549 -0.4812228084 -0.1447329372 1.771655483e-38
0.09814432263 -0.4894958138 -0.1782696545 1.771655483e-38
0.05537712201 -0.4891870618 -0.04808895662 1.771655483e-38
0.1312515736 -0.4885692 -0.1069457382 1.771655483e-38
-0.137567535 -0.396720171 0.1043079197 1.771655483e-38
-0.1541715115 -0.2630113363 0.1068176329 1.771655483e-38
-0.1469939202 -0.3430398703 0.1293977052 1.771655483e-38
-0.1524976641 -0.451063931 0.1184192449 1.771655483e-38
-0.1270611286 -0.3502904773 0.1243834794 2.06466517e-38
-0.1433225572 -0.2335242331 0.1206213236 2.06466517e-38
-0.1399929672 -0.3006260395 0.1521898061 2.06466517e-38
-0.1490504444 -0.4236084223 0.1345151812 2.06466517e-38
-0.1212787032 -0.3198099136 -0.1450013667 2.06466517e-38
-0.1207883805 -0.2990145683 -0.1509696692 2.06466517e-38
-0.114828825 -0.3121002913 -0.1257063895 2.06466517e-38
-0.1274853796 -0.3709779382 -0.1374654621 2.06466517e-38
-0.0286565423 -0.4701885581 0.2823041379 2.06466517e-38
0.001938225701 -0.4750054479 0.2567506433 2.06466517e-38
-0.004102993757 -0.4690976143 0.3291432261 2.06466517e-38
0.04968010634 -0.4757071137 0.3093827069 2.06466517e-38
-0.04065520316 -0.4055805206 -0.01435101032 2.06466517e-38
-0.04053043574 -0.3751494288 -0.03592292592 2.06466517e-38
-0.04133107513 -0.3954829574 0.01745946333 2.06466517e-38
-0.03217986226 -0.4402344823 -0.003557089716 2.06466517e-38
-0.1202866584 -0.4762610197 0.2202731073 2.06466517e-38
-0.05194527656 -0.4839938283 0.1668636501 2.06466517e-38
-0.09851790965 -0.4823185205 0.3031435609 2.06466517e-38
-0.003008514643 -0.4789699316 0.2796953917 2.06466517e-38
0.327034831 -0.4777670503 0.04159284756 2.06466517e-38
0.4011424184 -0.4897691607 -0.008924931288 2.06466517e-38
0.3582182825 -0.4833849669 0.1501044333 2.06466517e-38
0.3849521279 -0.4837024808 0.08226877451 2.06466517e-38
-0.1240473539 -0.4785887599 0.1160724759 2.06466517e-38
-0.1123048961 -0.4849982858 0.05789306387 2.06466517e-38
-0.1439821869 -0.4840845466 0.1945464611 2.06466517e-38
-0.05201423168 -0.4829021692 0.1626635492 2.06466517e-38
-0.1477261633 -0.303883791 0.152609989 2.06466517e-38
-0.1574399322 -0.2148885876 0.1511693448 2.06466517e-38
-0.1513877809 -0.2610206306 0.1805275381 2.06466517e-38
-0.1605952531 -0.3702507019 0.1645019352 2.06466517e-38
-0.06329578906 -0.2521598339 0.004629164934 2.06466517e-38
-0.05234070867 -0.2496581972 -0.01462487876 2.06466517e-38
-0.04468300939 -0.2505868673 0.01512690634 2.06466517e-38
-0.0565969795 -0.2771781087 -0.004672557116 2.06466517e-38
-0.1444022208 -0.4339470267 0.0284104161 2.06466517e-38
-0.1584962457 -0.3596829772 0.03539664671 2.06466517e-38
-0.1452410221 -0.4072042108 0.07183133066 2.06466517e-38
-0.1397788674 -0.4696922898 0.05539219454 2.06466517e-38
0.04227285087 -0.4768006802 0.2836775482 2.06466517e-38
0.1291455775 -0.4849327207 0.2452407181 2.06466517e-38
0.07240581512 -0.480174005 0.3411703408 2.06466517e-38
0.1358531415 -0.4782690406 0.3171651363 2.06466517e-38
0.24708426 -0.249496147 0.1873293668 2.06466517e-38
0.2648057938 -0.2283986956 0.1810070574 2.06466517e-38
0.2729310393 -0.2356756777 0.1968545914 2.06466517e-38
0.2706649899 -0.2984123826 0.1913750321 2.06466517e-38
-0.1556312889 -0.3456063271 0.10523431 2.06466517e-38
-0.1686976552 -0.2122654617 0.1083419621 2.06466517e-38
-0.1599927694 -0.2903969288 0.1404195726 2.06466517e-38
-0.166458562 -0.4272609949 0.1231735498 2.06466517e-38
-0.130238682 -0.349422276 0.1896788478 2.06466517e-38
-0.150764212 -0.2345891297 0.1917660534 2.06466517e-38
-0.138574332 -0.2983109355 0.2144412398 2.06466517e-38
-0.1567820609 -0.4226638079 0.1936798245 2.06466517e-38
-0.03135465831 -0.4825048447 -0.1701093316 2.06466517e-38
0.069411695 -0.4900951385 -0.2099143267 2.06466517e-38
0.020232182 -0.4895752072 -0.05117847025 2.06466517e-38
0.1073838174 -0.487719059 -0.1282555908 2.06466517e-38
-0.1263868511 -0.3894871473 0.07039642334 2.06466517e-38
-0.1432602108 -0.2692196965 0.06904534996 2.06466517e-38
-0.1416362971 -0.3365938067 0.09672759473 2.06466517e-38
-0.1457359493 -0.4458676577 0.08311119676 2.06466517e-38
0.0409260951 -0.4775152802 0.267685771 2.06466517e-38
0.1524690688 -0.4873633981 0.1968065798 2.06466517e-38
0.08489964902 -0.4821752906 0.3385986686 2.06466517e-38
0.1610981673 -0.4795780778 0.2957026064 2.06466517e-38
-0.05603590608 -0.2711233497 0.002145014703 2.06466517e-38
-0.04291819036 -0.2892521024 -0.02471478283 2.06466517e-38
-0.03992623836 -0.2814754248 0.02126119286 2.06466517e-38
-0.04501949251 -0.2915298641 -0.005742505193 2.06466517e-38
-0.004392303526 -0.3593912721 0.2112558782 2.06466517e-38
0.006719768047 -0.2804614902 0.2047049552 2.06466517e-38
0.01480349898 -0.3276067376 0.2227535248 2.06466517e-38
0.007348047569 -0.4107782245 0.2088684589 2.06466517e-38
-0.1278760582 -0.2819436491 0.1300247312 2.06466517e-38
-0.1328532547 -0.2280075699 0.125746578 2.06466517e-38
-0.1299154162 -0.2435645312 0.1591350138 2.06466517e-38
-0.1422738582 -0.3386905193 0.1428978145 2.06466517e-38
-0.1531867087 -0.4804103971 0.1214085817 2.06466517e-38
-0.1068686843 -0.4882795811 0.06866650283 2.06466517e-38
-0.1564123183 -0.4856831431 0.2238890827 2.06466517e-38
-0.06432085484 -0.4828892946 0.1837247163 2.06466517e-38
0.006730914116 -0.4821996093 -0.1401165724 2.06466517e-38
0.06808251143 -0.4901773334 -0.172823742 2.06466517e-38
0.02123225108 -0.4887493849 -0.04483793676 2.06466517e-38
0.1119235978 -0.4878653884 -0.1079911888 2.06466517e-38
-0.05258200318 -0.3977481127 0.3296225667 2.06466517e-38
-0.03040214255 -0.3774505854 0.3217755556 2.06466517e-38
-0.03290953487 -0.3831397295 0.3516066968 2.06466517e-38
-0.01425649971 -0.4243071079 0.3375363946 2.06466517e-38
0.1730808914 -0.4787159562 -0.04787255824 2.06466517e-38
0.2669317126 -0.491317451 -0.1128501147 2.06466517e-38
0.2384523004 -0.4855669737 0.06118873134 2.06466517e-38
0.2972003818 -0.4858224392 -0.01812155172 2.06466517e-38
-0.1337960809 -0.2536505461 0.1442698538 2.06466517e-38
-0.1396885663 -0.2110336423 0.1398143321 2.06466517e-38
-0.1313875765 -0.2208693027 0.17640239 2.06466517e-38
-0.1451794654 -0.3124381602 0.1551549137 2.06466517e-38
0.009327877313 -0.4769303799 0.250051409 2.06466517e-38
0.1092822179 -0.4863777161 0.1867440492 2.06466517e-38
0.05121117458 -0.4817941189 0.3323207498 2.06466517e-38
0.1386803538 -0.4812357426 0.2914329171 2.06466517e-38
0.07587324083 -0.3643387556 0.1728117019 2.06466517e-38
0.08418221772 -0.3252800107 0.1635268629 2.06466517e-38
0.09716491401 -0.3460422754 0.1983063221 2.06466517e-38
0.09733399004 -0.4051319361 0.1743872911 2.06466517e-38
-0.139160499 -0.2499955893 0.3703714907 2.06466517e-38
-0.1331370473 -0.2148473412 0.3635494113 2.06466517e-38
-0.1290236413 -0.2360616624 0.3906255066 2.06466517e-38
-0.1418102831 -0.3080653548 0.3826439083 2.06466517e-38
0.1532089859 -0.3807413578 0.1728779227 2.06466517e-38
0.1712786853 -0.3014631271 0.1723916829 2.06466517e-38
0.1830791086 -0.3571729064 0.1920556128 2.06466517e-38
0.1928578615 -0.4298245311 0.1684194952 2.06466517e-38
-0.1307161748 -0.2754577398 0.1491205096 2.06466517e-38
-0.1356453449 -0.2214313 0.1472740769 2.06466517e-38
-0.1260721833 -0.2380537391 0.1813911498 2.06466517e-38
-0.1426364332 -0.3348261118 0.1598800421 2.06466517e-38
0.07030278444 -0.4774131179 0.2501706183 2.06466517e-38
0.1738276184 -0.4884582758 0.1855590492 2.06466517e-38
0.1227091327 -0.4805420637 0.3296118677 2.06466517e-38
0.1910961568 -0.4789238572 0.2764320672 2.06466517e-38
-0.1216093749 -0.3175681233 -0.1337415129 2.06466517e-38
-0.1138619334 -0.2966546118 -0.1353141516 2.06466517e-38
-0.1085796356 -0.3080811501 -0.1100532264 2.06466517e-38
-0.11885719 -0.3772770762 -0.1208781004 2.06466517e-38
0.326648891 -0.4737510085 0.04301609471 2.348204041e-38
0.395176053 -0.488226831 -0.0129302796 2.348204041e-38
0.3649413586 -0.479801774 0.1320862323 2.348204041e-38
0.4008244276 -0.4796670675 0.07333014905 2.348204041e-38
0.03017425165 -0.3360555768 0.1935567707 2.348204041e-38
0.03602993488 -0.2629872262 0.1844369322 2.348204041e-38
0.05323943123 -0.2996149957 0.2004285306 2.348204041e-38
0.04187701643 -0.3937728405 0.1927624047 2.348204041e-38
-0.0650292635 -0.4795885086 0.1726394594 2.348204041e-38
0.03517793864 -0.4890599251 0.1154751331 2.348204041e-38
-0.02007648721 -0.4853275418 0.2738697231 2.348204041e-38
0.07996053994 -0.480518043 0.2169974148 2.348204041e-38
-0.1294352561 -0.4756717682 -0.2131340206 2.348204041e-38
-0.104968071 -0.4594909549 -0.2109609097 2.348204041e-38
-0.1215691417 -0.4858730435 -0.1596144587 2.348204041e-38
-0.059118554 -0.4853196144 -0.1822314113 2.348204041e-38
-0.1185746491 -0.4720499516 0.2113203406 2.348204041e-38
-0.1086772829 -0.448898077 0.1985170692 2.348204041e-38
-0.11843279 -0.4669681191 0.2667900622 2.348204041e-38
-0.06129845232 -0.4784315825 0.2470929921 2.348204041e-38
-0.1292449683 -0.2907957435 0.2500047982 2.348204041e-38
-0.1398525089 -0.2208379954 0.2452433109 2.348204041e-38
-0.128202945 -0.2484646738 0.2665778697 2.348204041e-38
-0.147042796 -0.3608350158 0.2589422166 2.348204041e-38
0.2147478312 -0.3569866419 0.1922331303 2.348204041e-38
0.2273670286 -0.2797129452 0.1964184642 2.348204041e-38
0.2366776019 -0.3273823261 0.2117940634 2.348204041e-38
0.2395212799 -0.4081870317 0.1989979744 2.348204041e-38
0.005859643221 -0.341052711 0.179694742 2.348204041e-38
0.01534406096 -0.2347255498 0.1767823249 2.348204041e-38
0.02838207409 -0.2943274379 0.1861803383 2.348204041e-38
0.01768704131 -0.4028273821 0.1792632937 2.348204041e-38
0.004000365734 -0.3566198945 0.186174795 2.348204041e-38
0.01494853199 -0.2450511009 0.1839275509 2.348204041e-38
0.02330414206 -0.3094130754 0.1973534673 2.348204041e-38
0.01702561602 -0.4107977152 0.1846797019 2.348204041e-38
-0.07914281636 -0.3558844328 0.176937595 2.348204041e-38
-0.06806336343 -0.2547568679 0.1781589985 2.348204041e-38
-0.05706810951 -0.312507987 0.1824965775 2.348204041e-38
-0.06612043828 -0.4176091552 0.1718170792 2.348204041e-38
0.122740753 -0.2893324494 0.1619411856 2.348204041e-38
0.1325215995 -0.2456811368 0.1595888734 2.348204041e-38
0.1502755433 -0.2609071732 0.1754713356 2.348204041e-38
0.1504396051 -0.3314727545 0.1667473167 2.348204041e-38
-0.1242232621 -0.4058964849 0.29953897 2.348204041e-38
-0.1305691004 -0.3377763629 0.3047426045 2.348204041e-38
-0.1257116348 -0.3822790384 0.317922473 2.348204041e-38
-0.1228258163 -0.4425330758 0.3092279434 2.348204041e-38
-0.03277663141 -0.4035186172 0.1044061929 2.348204041e-38
-0.03170898557 -0.3622823358 0.09463775158 2.348204041e-38
-0.01571855694 -0.3866847157 0.128834486 2.348204041e-38
-0.01890403405 -0.4345611334 0.1031162888 2.348204041e-38
-0.1291206181 -0.280281961 0.1937732548 2.348204041e-38
-0.1372244954 -0.2044816762 0.1900428683 2.348204041e-38
-0.1304972619 -0.2343151271 0.2135078907 2.348204041e-38
-0.1468789279 -0.3473744392 0.1992195398 2.348204041e-38
0.2682898045 -0.3793571591 0.1794082671 2.348204041e-38
0.2676951885 -0.2922458947 0.1833696812 2.348204041e-38
0.2749069929 -0.3433785439 0.2022083104 2.348204041e-38
0.2663521767 -0.421797514 0.1956775784 2.348204041e-38
-0.07886942476 -0.3029320836 0.1726878136 2.348204041e-38
-0.07831406593 -0.2334702611 0.1662106961 2.348204041e-38
-0.05968618393 -0.2617692351 0.1872975528 2.348204041e-38
-0.07524110377 -0.3747121692 0.1737354845 2.348204041e-38
0.02062578127 -0.3450005054 0.1898202896 2.348204041e-38
0.02776059881 -0.2439484447 0.1877077371 2.348204041e-38
0.03565297276 -0.3054668307 0.2032442242 2.348204041e-38
0.03112961352 -0.3997807503 0.1889116019 2.348204041e-38
-0.1098704338 -0.2705029845 0.06535860896 2.348204041e-38
-0.1140026599 -0.2041902542 0.06759701669 2.348204041e-38
-0.1115817875 -0.2276436836 0.09075371921 2.348204041e-38
-0.1180544049 -0.3254659772 0.07405485213 2.348204041e-38
0.1242341176 -0.3795973659 0.1859013736 2.348204041e-38
0.1337720007 -0.292552501 0.1849496961 2.348204041e-38
0.145590961 -0.3463281989 0.1977156103 2.348204041e-38
0.1443092972 -0.4306200743 0.1852830201 2.348204041e-38
-0.1024846435 -0.4043951631 0.302592665 2.348204041e-38
-0.09650461376 -0.3448468447 0.3040887415 2.348204041e-38
-0.08111558855 -0.3888111115 0.3096339107 2.348204041e-38
-0.07260174304 -0.4384481907 0.3004155159 2.348204041e-38
-0.02269109711 -0.2412616014 0.1908587664 2.348204041e-38
-0.02854287252 -0.1995823532 0.1764128357 2.348204041e-38
-0.009252771735 -0.216223225 0.1953498274 2.348204041e-38
-0.01201084629 -0.2865100503 0.1905892789 2.348204041e-38
-0.1255780756 -0.4775134325 -0.1413603872 2.348204041e-38
-0.1108191758 -0.4608150125 -0.1420501471 2.348204041e-38
-0.1391573846 -0.4861223698 -0.09194505215 2.348204041e-38
-0.07962263376 -0.483622551 -0.1195071638 2.348204041e-38
0.01107795723 -0.3929306865 0.1423369199 2.348204041e-38
0.02149197832 -0.3626208901 0.1244249195 2.348204041e-38
0.03224878386 -0.3765366077 0.1604257375 2.348204041e-38
0.03185472265 -0.4230730534 0.1392321438 2.348204041e-38
0.2042259723 -0.3014140129 0.184426263 2.348204041e-38
0.2096256912 -0.2061091363 0.1847797036 2.348204041e-38
0.2263777256 -0.2589973211 0.2009237111 2.348204041e-38
0.2288445383 -0.3807079792 0.1830493212 2.348204041e-38
0.2412700057 -0.3095760643 0.2149708569 2.348204041e-38
0.2525859475 -0.2360511422 0.2102780044 2.348204041e-38
0.2695810199 -0.2733660638 0.2197924852 2.348204041e-38
0.2683364749 -0.3792473674 0.2107042372 2.348204041e-38
-0.1198930442 -0.2483405322 0.07055321336 2.348204041e-38
-0.1197592467 -0.221738115 0.07157935202 2.348204041e-38
-0.1128911972 -0.2243953198 0.1110212803 2.348204041e-38
-0.1225810498 -0.2891609669 0.08864423633 2.348204041e-38
0.1289582253 -0.3241266608 0.204006955 2.348204041e-38
0.1416098773 -0.2480663955 0.2074695379 2.348204041e-38
0.1585083455 -0.2901112437 0.2027745843 2.348204041e-38
0.1555682123 -0.382979691 0.1992730647 2.348204041e-38
0.1712993979 -0.4818339944 0.003097064793 2.348204041e-38
0.2524847388 -0.4899300337 -0.06229647622 2.348204041e-38
0.227989018 -0.4876182675 0.08837664127 2.348204041e-38
0.2947280109 -0.4856417775 0.01881292835 2.348204041e-38
0.1103060693 -0.3450189233 0.1918570995 2.348204041e-38
0.1168178171 -0.2651876211 0.1952566355 2.348204041e-38
0.1326954812 -0.3088337481 0.2057391256 2.348204041e-38
0.1286971569 -0.406753242 0.1968273669 2.348204041e-38
-0.1249277592 -0.3583595157 -0.128986612 2.348204041e-38
-0.1248954535 -0.2914491296 -0.1215428859 2.348204041e-38
-0.1162462831 -0.3301208019 -0.1106447875 2.348204041e-38
-0.1279323399 -0.4255476594 -0.1110826284 2.348204041e-38
-0.1176647246 -0.2658140659 0.06703996658 2.348204041e-38
-0.1238402575 -0.2286395729 0.06892122328 2.348204041e-38
-0.1182136387 -0.2358117402 0.08465255797 2.348204041e-38
-0.1257996261 -0.3124842048 0.07462151349 2.348204041e-38
-0.08197618276 -0.4056278467 -0.08572766185 2.348204041e-38
-0.08535587788 -0.3502646089 -0.08445240557 2.348204041e-38
-0.07865540683 -0.3838726282 -0.07088826597 2.348204041e-38
-0.08189123869 -0.4487790465 -0.07848830521 2.348204041e-38
0.1751690209 -0.325842917 0.2041156739 2.346801622e-38
0.1836175472 -0.2228416055 0.2011045218 2.346801622e-38
0.2091024667 -0.2773082852 0.1999807358 2.346801622e-38
0.2061655521 -0.4024996161 0.1899184585 2.346801622e-38
0.1298957914 -0.3216189444 0.198378399 2.346801622e-38
0.1402982324 -0.2212368101 0.2049121708 2.346801622e-38
0.1632489115 -0.2772096395 0.2028481513 2.346801622e-38
0.1615246534 -0.3923499584 0.1984841824 2.346801622e-38
0.2346037626 -0.3240187764 0.1987053901 2.346801622e-38
0.2491762489 -0.2588376701 0.1952618212 2.346801622e-38
0.2600770891 -0.2964757681 0.2100530863 2.346801622e-38
0.2649751306 -0.3784760833 0.198750481 2.346801622e-38
-0.1384536773 -0.2806373835 0.03035044298 2.346801622e-38
-0.1450934112 -0.221562475 0.03600491956 2.346801622e-38
-0.1424930543 -0.2387767732 0.06380259991 2.346801622e-38
-0.1484385431 -0.3420069814 0.04464881495 2.346801622e-38
0.1879187524 -0.286634326 0.195153296 2.346801622e-38
0.204989329 -0.253510803 0.1868373752 2.346801622e-38
0.2187757343 -0.265042007 0.2024459839 2.346801622e-38
0.2216907293 -0.3308640122 0.1950109154 2.346801622e-38
-0.1295864433 -0.4615311027 -0.08819268644 2.346801622e-38
-0.1275636703 -0.4077674747 -0.06905534118 2.346801622e-38
-0.129953891 -0.4452796578 -0.04634205252 2.346801622e-38
-0.101984784 -0.4803472161 -0.06115270779 2.346801622e-38
-0.06055708975 -0.4654077291 0.1936227679 2.346801622e-38
-0.06150057912 -0.4397002459 0.1860805005 2.346801622e-38
-0.05354504287 -0.4562164545 0.2374247313 2.346801622e-38
-0.012726143 -0.4742840528 0.2227762043 2.346801622e-38
0.3162447214 -0.4718475342 0.04913212731 2.346801622e-38
0.3620698452 -0.4793417454 0.0177478753 2.346801622e-38
0.3441984355 -0.472979784 0.1193172038 2.346801622e-38
0.3721417487 -0.4755659103 0.07709868252 2.346801622e-38
0.1021685004 -0.2171826959 0.2080501467 2.346801622e-38
0.1099248528 -0.2174077779 0.1943556964 2.346801622e-38
0.1288176775 -0.2129034996 0.221894294 2.346801622e-38
0.117593199 -0.249921456 0.2099781483 2.346801622e-38
-0.09293330461 -0.3950358033 -0.09219842404 2.346801622e-38
-0.09461013973 -0.3426743746 -0.08913752437 2.346801622e-38
-0.08752477914 -0.373822093 -0.06251420081 2.346801622e-38
-0.09110926092 -0.4402178526 -0.07455733418 2.346801622e-38
0.1053348035 -0.4821768403 0.04452672973 2.346801622e-38
0.2042597383 -0.4907498956 -0.04028360173 2.346801622e-38
0.1761544794 -0.4868571758 0.1219551563 2.346801622e-38
0.2473888546 -0.4862821102 0.04956163093 2.346801622e-38
-0.08008830249 -0.4799735546 -0.1290655583 2.346801622e-38
-0.01059255004 -0.4860447645 -0.1606593579 2.346801622e-38
-0.04694695771 -0.4889233708 -0.05272313952 2.346801622e-38
0.04501290247 -0.4838722348 -0.09982463717 2.346801622e-38
-0.1225290895 -0.3886677623 -0.130465284 2.346801622e-38
-0.1273296773 -0.2577844858 -0.1215365082 2.346801622e-38
-0.113637656 -0.3390793204 -0.1282779425 2.346801622e-38
-0.1240855306 -0.446726203 -0.1191204786 2.346801622e-38
-0.12687774 -0.3156729639 -0.1094987392 2.346801622e-38
-0.1078453511 -0.2988584936 -0.1155366302 2.346801622e-38
-0.09219667315 -0.3078843653 -0.1058713943 2.346801622e-38
-0.1054573804 -0.3560763001 -0.1074313968 2.346801622e-38
0.02605470642 -0.3564967513 0.1069398224 2.346801622e-38
0.03595628589 -0.3463136554 0.08544893563 2.346801622e-38
0.05782041699 -0.3507161736 0.130402565 2.346801622e-38
0.04501948133 -0.3838779926 0.1074968427 2.346801622e-38
-0.1051255912 -0.4506046176 -0.09559957683 2.346801622e-38
-0.1017690599 -0.3526852131 -0.08284926414 2.346801622e-38
-0.09363813698 -0.4167993069 -0.06949219108 2.346801622e-38
-0.08433299512 -0.4796446562 -0.07085149735 2.346801622e-38
-0.08267381787 -0.3158016205 -0.02005806379 2.346801622e-38
-0.06689567119 -0.3089447916 -0.03715071827 2.346801622e-38
-0.05519514531 -0.3136923909 -0.00321791321 2.346801622e-38
-0.06162140518 -0.3565684557 -0.02113424614 2.346801622e-38
-0.1523821056 -0.4696667194 -0.1007756293 2.346801622e-38
-0.1436831355 -0.4450455904 -0.09495650232 2.346801622e-38
-0.154525131 -0.4594606161 -0.04159756377 2.346801622e-38
-0.1144925803 -0.4818708301 -0.06634763628 2.346801622e-38
-0.1503920108 -0.315289557 0.2959264219 2.346801622e-38
-0.1403529644 -0.2760817111 0.293168962 2.346801622e-38
-0.1243441701 -0.2955554128 0.3019928634 2.346801622e-38
-0.1426629722 -0.3670691252 0.2992717326 2.346801622e-38
-0.1264417619 -0.4718471766 0.1900471449 2.346801622e-38
-0.1261855215 -0.4568805099 0.1798046082 2.346801622e-38
-0.1294647306 -0.4693164825 0.2540786862 2.346801622e-38
-0.07327644527 -0.4785953164 0.2295615971 2.346801622e-38
-0.1500397176 -0.2354564667 0.2325177193 2.346801622e-38
-0.1520996541 -0.1999847591 0.2258971632 2.346801622e-38
-0.1487954706 -0.2141042054 0.2519932091 2.346801622e-38
-0.1675696671 -0.2802214324 0.2357445955 2.346801622e-38
0.1010153443 -0.4764990807 0.2661515772 2.346801622e-38
0.1674099267 -0.4847188592 0.2396136224 2.346801622e-38
0.143352896 -0.4765355587 0.3043219745 2.346801622e-38
0.1878253371 -0.4744072556 0.2746801376 2.346801622e-38
-0.1270090193 -0.3093797565 0.05207024887 2.346801622e-38
-0.1295519918 -0.2916252017 0.0429126583 2.346801622e-38
-0.1276338398 -0.2994686663 0.08915376663 2.346801622e-38
-0.1327716857 -0.3517360687 0.0665589273 2.346801622e-38
-0.1380357295 -0.4784550667 -0.1434266418 2.346801622e-38
-0.06074240804 -0.4888489842 -0.193279177 2.346801622e-38
-0.1067013294 -0.4879341125 -0.04836455733 2.346801622e-38
-0.006761800498 -0.4858887196 -0.1141468436 2.346801622e-38
-0.07807613164 -0.402772963 -0.08371761441 2.346801622e-38
-0.07067818195 -0.3462406397 -0.08623622358 2.346801622e-38
-0.05322080851 -0.382512331 -0.08001932502 2.346801622e-38
-0.06224053353 -0.4408010244 -0.08431121707 2.346801622e-38
-0.1062228829 -0.4730059505 0.1874387264 2.346801622e-38
-0.09943927824 -0.4604990482 0.1791151613 2.346801622e-38
-0.1122836024 -0.4734150171 0.2500924468 2.346801622e-38
-0.05739039183 -0.4790902734 0.2261942625 2.346801622e-38
0.1203536466 -0.4024190307 0.3206342757 2.346801622e-38
0.1472905576 -0.3699987531 0.3172118962 2.346801622e-38
0.1498432159 -0.3911219239 0.3243229091 2.346801622e-38
0.1560565233 -0.4260117412 0.3217268884 2.346801622e-38
0.01748175547 -0.3450636268 0.06218877807 2.346801622e-38
0.03043100052 -0.3405974507 0.04708455876 2.346801622e-38
0.03982866555 -0.3431651592 0.08939671516 2.346801622e-38
0.04463873431 -0.3709918857 0.0654501766 2.346801622e-38
0.02966240421 -0.3766547441 0.1237481087 2.346801622e-38
0.04047665745 -0.3560636044 0.1043284982 2.346801622e-38
0.05089753866 -0.3619150519 0.1508130729 2.346801622e-38
0.04777473956 -0.404147923 0.124097541 2.346801622e-38
0.06596855819 -0.4753809571 0.2050671577 2.346801622e-38
0.1003533006 -0.4791226983 0.1826679856 2.346801622e-38
0.09111681581 -0.4776751399 0.26700297 2.346801622e-38
0.1416799128 -0.47872293 0.2267395854 2.346801622e-38
0.2125160843 -0.4774481654 0.04041051492 2.346801622e-38
0.2962043583 -0.4915024042 -0.01414024644 2.346801622e-38
0.2667175829 -0.4848873019 0.1239806414 2.346801622e-38
0.312414825 -0.4821072221 0.06745427847 2.346801622e-38
-0.08481479436 -0.4784579873 0.1391319036 2.346801622e-38
-0.02049886435 -0.4855388403 0.07322664559 2.346801622e-38
-0.06277164072 -0.4830192924 0.2401776612 2.346801622e-38
0.04612708837 -0.4816696048 0.1863460094 2.346801622e-38
-0.1456253082 -0.2175261527 0.3050530255 2.345219836e-38
-0.1358639598 -0.1917986721 0.3046345413 2.345219836e-38
-0.1251366735 -0.2120413035 0.3194799721 2.345219836e-38
-0.1391504258 -0.2777315378 0.3132477403 2.345219836e-38
0.1625734419 -0.4820209742 0.1691221893 2.345219836e-38
0.2696154118 -0.4889981747 0.105316624 2.345219836e-38
0.2101876885 -0.4844948053 0.2774434984 2.345219836e-38
0.2825866342 -0.4819984436 0.2024367005 2.345219836e-38
0.0522063747 -0.4846932292 -0.01851110347 2.345219836e-38
0.1483007073 -0.4908930659 -0.08458632231 2.345219836e-38
0.1004425958 -0.4893677831 0.07760210335 2.345219836e-38
0.2103901953 -0.4891140461 -0.002178233117 2.345219836e-38
-0.06262489408 -0.4043056965 0.215659678 2.345219836e-38
-0.04219405353 -0.380626142 0.1971448213 2.345219836e-38
-0.03647492826 -0.390470624 0.2412287593 2.345219836e-38
-0.02398817614 -0.4302815795 0.2138175368 2.345219836e-38
-0.1440285742 -0.3223721385 -0.07903987169 2.345219836e-38
-0.1271544546 -0.290606916 -0.07474090159 2.345219836e-38
-0.1241420954 -0.3111169338 -0.05939612538 2.345219836e-38
-0.1328268051 -0.3756030202 -0.06953148544 2.345219836e-38
0.08001166582 -0.4765918851 -0.05689043552 2.345219836e-38
0.1642865092 -0.486199677 -0.09857721627 2.345219836e-38
0.1179167479 -0.4865841269 0.01028328389 2.345219836e-38
0.1889002472 -0.4856782556 -0.03519209847 2.345219836e-38
-0.01064460725 -0.3345441222 0.3345053792 2.345219836e-38
0.009076546878 -0.2968046665 0.3225704134 2.345219836e-38
0.02431457676 -0.3246966004 0.326853931 2.345219836e-38
