# .PCD v0.7 - Point Cloud Data file format
VERSION 0.7
FIELDS x y z rgb
SIZE 4 4 4 4
TYPE F F F F
COUNT 1 1 1 1
WIDTH 828
HEIGHT 1
VIEWPOINT 0 0 0 1 0 0 0
POINTS 828
DATA ascii
-0.1973814219 -0.4858216941 0.05235779285 5.962428276e-39
-0.05978544429 -0.4895499647 -0.0556236282 5.962428276e-39
0.1168449968 -0.4855422676 -0.1046953425 5.962428276e-39
-0.231320262 -0.4832047224 -0.1059905365 5.962428276e-39
-0.01306858659 -0.43736431 -0.1379594207 5.962428276e-39
0.002895832062 -0.4215058982 -0.1151817068 5.962428276e-39
0.02588645741 -0.4404007196 -0.06735821068 5.962428276e-39
-0.03327863663 -0.4748247862 -0.05767569691 5.962428276e-39
-0.02621971071 -0.4328782558 -0.0540888533 5.962428276e-39
0.008217845112 -0.40864259 -0.09129212797 5.962428276e-39
0.04233109578 -0.4582753778 -0.1151561514 5.962428276e-39
-0.05364378914 -0.4414655566 -0.1054648831 5.962428276e-39
0.01194005087 -0.4179241657 -0.1345903277 1.184631237e-38
0.02416178212 -0.401363492 -0.1113004461 1.184631237e-38
0.05405994877 -0.4201407433 -0.05841612816 1.184631237e-38
-0.006082553416 -0.4703522325 -0.07107385248 1.184631237e-38
-0.005761336535 -0.4111779332 -0.04761821777 1.184631237e-38
0.01840611175 -0.3900586069 -0.08550831676 1.184631237e-38
0.05869595334 -0.4450199902 -0.1059215143 1.184631237e-38
-0.02747873031 -0.4154947996 -0.09966424853 1.184631237e-38
0.2966959774 -0.1661511213 -0.1513536274 1.184631237e-38
0.3029155731 -0.0331710726 -0.1346868575 1.184631237e-38
0.2902093828 -0.1067590117 -0.1233165488 1.184631237e-38
0.2919169962 -0.3100901544 -0.1305456161 1.184631237e-38
0.3013111055 -0.1339352429 -0.1080002114 1.184631237e-38
0.2983582318 -0.06408905983 -0.08403623849 1.184631237e-38
0.2973994017 -0.2331410199 -0.1389593184 1.184631237e-38
0.2980012298 -0.1895051897 -0.1173011884 1.184631237e-38
0.3264386952 -0.1716490239 -0.08331529051 1.184631237e-38
0.324210763 -0.07366865128 -0.06214363128 1.184631237e-38
0.3206192553 -0.1242378652 0.01019512303 1.184631237e-38
0.3105484247 -0.2954494357 0.001910882071 1.184631237e-38
0.3246937394 -0.146494031 0.01403659023 1.184631237e-38
0.3241900206 -0.09272356331 0.03247508034 1.184631237e-38
0.3330808282 -0.219747901 -0.01953707263 1.184631237e-38
0.3266990781 -0.1868018806 0.00107568875 1.184631237e-38
-0.1067486852 -0.480496496 -0.2606187165 1.184631237e-38
-0.01026114076 -0.4782172143 -0.215723604 1.184631237e-38
0.1300241202 -0.4854699075 0.04356687889 1.184631237e-38
-0.04631883278 -0.4834417999 0.1413415223 1.184631237e-38
-0.1832707971 -0.4867823422 0.06481320411 1.184631237e-38
-0.03719342127 -0.4884745479 -0.05451014638 1.184631237e-38
0.1254718453 -0.4851514995 -0.1417261958 1.184631237e-38
-0.2107173502 -0.4835434258 -0.1304822862 1.184631237e-38
-0.05781117827 -0.4316823184 -0.2258633673 1.184631237e-38
-0.0124164708 -0.4126487374 -0.2113553882 1.184631237e-38
-0.01656534895 -0.440618515 -0.1657172143 1.184631237e-38
-0.07962129265 -0.4723061919 -0.1653701961 1.184631237e-38
-0.07440589368 -0.4282481074 -0.15853104 1.184631237e-38
-0.05024839193 -0.4025588334 -0.1800735593 1.184631237e-38
0.009904172271 -0.4622021914 -0.2052598 1.184631237e-38
-0.09568993747 -0.4382314384 -0.2068465948 1.184631237e-38
-0.2167919427 -0.4803976119 -0.230427891 1.184631237e-38
-0.09687004983 -0.4826723337 -0.2107854784 1.184631237e-38
0.05464005843 -0.4882539809 -0.0158916004 1.184631237e-38
-0.1713582277 -0.484126687 0.08125846833 1.184631237e-38
-0.2804549634 -0.4840631783 0.006933126599 1.184631237e-38
-0.133845374 -0.4909950495 -0.09538733959 1.184631237e-38
0.1635856032 -0.4856754243 -0.1506165266 1.184631237e-38
-0.3008651435 -0.4838379025 -0.1428574324 1.184631237e-38
0.29734236 -0.1873069108 -0.2547433972 1.184631237e-38
0.3046529889 -0.02457619831 -0.2469749749 1.184631237e-38
0.283433497 -0.1261962354 -0.2516979277 1.184631237e-38
0.2863722742 -0.3365010619 -0.2571028769 1.184631237e-38
0.2880632281 -0.1631855518 -0.2479324639 1.184631237e-38
0.2806473374 -0.05713032931 -0.2376615703 1.184631237e-38
0.2916362286 -0.2750259638 -0.2588098049 1.184631237e-38
0.2862400413 -0.2216852605 -0.2504450381 1.184631237e-38
0.3222594857 -0.1340256482 -0.09628460556 1.184631237e-38
0.3270404637 -0.03507782519 -0.0869532302 1.184631237e-38
0.3199135959 -0.0829987973 -0.04480443895 1.184631237e-38
0.3163427114 -0.3025826812 -0.04560650885 1.184631237e-38
0.3232163191 -0.1101768762 -0.03009441122 1.184631237e-38
0.3240951002 -0.05742019787 -0.007928516716 1.184631237e-38
0.330943495 -0.200877592 -0.06595849246 1.184631237e-38
0.3226220608 -0.1625395268 -0.03623186797 1.184631237e-38
-0.05128815025 -0.4812110662 -0.04827404767 1.184631237e-38
0.02584586665 -0.4830596447 0.03620233387 1.184631237e-38
0.1391138881 -0.4878412485 0.1613113582 1.184631237e-38
-0.004715729505 -0.4828477204 0.2047028244 1.184631237e-38
-0.09608377516 -0.4844211042 0.1777617931 1.184631237e-38
-0.005411595106 -0.4873733222 0.1131589636 1.184631237e-38
0.15907076 -0.484022975 0.07461838424 1.184631237e-38
-0.15250054 -0.4822932184 0.07059004903 1.184631237e-38
0.02343145385 -0.4774166942 0.04673825204 1.184631237e-38
0.03555383161 -0.4600285292 0.1142392084 1.184631237e-38
0.1016194373 -0.4772196412 0.1671341062 1.184631237e-38
0.01391039416 -0.479088068 0.181314379 1.184631237e-38
-0.01199772954 -0.4714463055 0.1678206027 1.184631237e-38
0.04387649521 -0.4482486844 0.1432688683 1.184631237e-38
0.1323482394 -0.479408294 0.1241551265 1.184631237e-38
-0.06962040812 -0.480374217 0.124162659 1.184631237e-38
0.3281272352 -0.1825787574 -0.2253645062 1.184631237e-38
0.3284468949 -0.06071801484 -0.2148955464 1.184631237e-38
0.3100524843 -0.131047532 -0.2077126801 1.184631237e-38
0.3221932948 -0.2791162431 -0.2147539258 1.184631237e-38
0.320748657 -0.1626413912 -0.1976135969 1.184631237e-38
0.3165614307 -0.08059462905 -0.1684862077 1.184631237e-38
0.3213373721 -0.2407037765 -0.2150176167 1.184631237e-38
0.312838167 -0.2043498605 -0.2031513751 1.184631237e-38
0.3083178401 -0.1027925014 -0.1463493705 1.184631237e-38
0.3140587509 0.006729830056 -0.1272068322 1.184631237e-38
0.3004237711 -0.04874743894 -0.09307727218 1.184631237e-38
0.3045948148 -0.3348172903 -0.09561410546 1.184631237e-38
0.3084295988 -0.07020756602 -0.0806203261 1.184631237e-38
0.317705512 -0.01867583767 -0.04778449982 1.184631237e-38
0.3162877858 -0.1715132743 -0.1129360422 1.184631237e-38
0.3079347908 -0.1266363263 -0.08174338937 1.184631237e-38
0.3075342774 -0.1761894971 -0.2402761877 1.184631237e-38
0.3118317127 -0.003627125174 -0.234686017 1.184631237e-38
0.2870621085 -0.1068701744 -0.2371488512 1.184631237e-38
0.2941204906 -0.3331902027 -0.2383178771 1.184631237e-38
0.3022860587 -0.1373393685 -0.2222686708 1.184631237e-38
0.2902787328 -0.03807476535 -0.1987284124 1.184631237e-38
0.298058778 -0.2629342377 -0.2361058593 1.184631237e-38
0.3015955389 -0.1969506592 -0.2234521508 1.184631237e-38
-0.03821587563 -0.4202197194 -0.2521572411 1.184631237e-38
0.004307612777 -0.3910756111 -0.2341423333 1.184631237e-38
0.01063418761 -0.4188947678 -0.1787509024 1.184631237e-38
-0.05958710238 -0.468397826 -0.202028811 1.184631237e-38
-0.06700759381 -0.4069987535 -0.1843771935 1.184631237e-38
-0.04180155322 -0.3844259083 -0.2142958045 1.184631237e-38
0.04008395597 -0.4465951324 -0.2320993245 1.184631237e-38
-0.08850958198 -0.4218001962 -0.2335904241 1.184631237e-38
-0.1991662383 -0.4810660481 -0.201113075 1.184631237e-38
-0.06104432419 -0.4856797755 -0.1855588853 1.184631237e-38
0.1117353588 -0.4895570576 0.09218399227 1.184631237e-38
-0.1114983857 -0.4849770963 0.1711917222 1.184631237e-38
-0.2531771958 -0.4879522026 0.09901708364 1.184631237e-38
-0.1015334278 -0.4899736643 0.008870661259 1.184631237e-38
0.1420743614 -0.4868748784 -0.05151552707 1.184631237e-38
-0.2869419456 -0.4848999381 -0.07044485956 1.184631237e-38
-0.04763336852 -0.4799517691 0.003288719803 1.184631237e-38
0.01436823234 -0.4724861979 0.0745754391 1.184631237e-38
0.08020693064 -0.4831137061 0.1690261662 1.184631237e-38
-0.01643037796 -0.4824971259 0.2123746276 1.184631237e-38
-0.06838301569 -0.4766290784 0.1918429732 1.184631237e-38
-0.004760134965 -0.4733091593 0.1448997259 1.184631237e-38
0.09102162719 -0.48120296 0.116461955 1.184631237e-38
-0.1266279817 -0.481461376 0.1242288798 1.184631237e-38
-0.06212523207 -0.4215453863 -0.1280092895 1.184631237e-38
-0.03635202348 -0.3938156366 -0.1015143618 1.184631237e-38
-0.01164700091 -0.4113393128 -0.05378553271 1.184631237e-38
-0.08051249385 -0.4580783248 -0.06902403384 1.184631237e-38
-0.07162901759 -0.4102228582 -0.04730542749 1.184631237e-38
-0.03624856472 -0.3862357438 -0.08627583832 1.184631237e-38
-0.01117440686 -0.4478499293 -0.09402931482 1.184631237e-38
-0.09171184897 -0.405736208 -0.1063037589 1.184631237e-38
-0.135546878 -0.4808647633 -0.1290356517 1.184631237e-38
-0.05623927712 -0.4812152088 -0.06458649039 1.184631237e-38
0.01070393994 -0.4835073352 0.06119551137 1.184631237e-38
-0.08056603372 -0.4829936326 0.1225354597 1.184631237e-38
-0.1825984865 -0.4822663069 0.07744062692 1.184631237e-38
-0.07936455309 -0.4843067527 -0.003384787589 1.184631237e-38
0.03724557534 -0.4825953841 -0.03003694117 1.184631237e-38
-0.2185630649 -0.4819218814 -0.0281255655 1.184631237e-38
-0.172592029 -0.4794176221 -0.1908821762 1.184631237e-38
-0.08593852818 -0.4764016867 -0.1380621195 1.184631237e-38
-0.007748842239 -0.4806513488 0.0163221322 1.184631237e-38
-0.1312210113 -0.4822080135 0.09428182244 1.184631237e-38
-0.2196665108 -0.4816910923 0.0438625887 1.184631237e-38
-0.1028510034 -0.4778397977 -0.05150412023 1.184631237e-38
0.05777346715 -0.4816796482 -0.09018205851 1.184631237e-38
-0.2423374355 -0.4825262725 -0.07869053632 1.184631237e-38
0.3033962846 -0.2414332628 -0.2413187623 1.184631237e-38
0.316611737 -0.04863671213 -0.223582834 1.184631237e-38
0.2987073064 -0.1780857444 -0.2346571982 1.184631237e-38
0.2914451659 -0.3907431364 -0.2414776683 1.184631237e-38
0.2951458693 -0.2207631469 -0.2371069491 1.184631237e-38
0.2819971144 -0.1042828858 -0.234503299 1.184631237e-38
0.2974480391 -0.3191261888 -0.2413682938 1.184631237e-38
0.2892718911 -0.2906400263 -0.2407752573 1.184631237e-38
0.3262601793 -0.03557942808 -0.161295265 1.184631237e-38
0.3252176344 0.03113256022 -0.1549921334 1.184631237e-38
0.3243149817 -0.0002800226212 -0.1076841429 1.184631237e-38
0.3226157129 -0.1992161274 -0.116053246 1.184631237e-38
0.3300839365 -0.005873993039 -0.1115998402 1.184631237e-38
0.3317443132 0.02515770122 -0.07065822929 1.184631237e-38
0.3324641287 -0.082860291 -0.1259970665 1.184631237e-38
0.3301753402 -0.03509723395 -0.09025715292 1.184631237e-38
-0.1738573164 -0.4805213809 -0.1952693164 1.184631237e-38
-0.06618816406 -0.4828498662 -0.1585282683 1.184631237e-38
0.0905611515 -0.4882951975 0.1229820698 1.184631237e-38
-0.08790561557 -0.4847217798 0.1996106207 1.184631237e-38
-0.2248279899 -0.4882901609 0.1342152506 1.184631237e-38
-0.09222460538 -0.4888350964 0.04304695129 1.184631237e-38
0.1231404543 -0.4870346189 -0.003836322576 1.184631237e-38
-0.2749609649 -0.4836015403 -0.03330033273 1.184631237e-38
0.04542502388 -0.469794631 -0.03908038139 1.184631237e-38
0.07412438095 -0.404841125 -0.01476766542 1.184631237e-38
0.09854918718 -0.4077599645 0.09921051562 1.184631237e-38
0.04310589656 -0.436463058 0.1095276251 1.184631237e-38
0.03994062915 -0.3969949484 0.1208716035 1.184631237e-38
0.07628668845 -0.3796820045 0.06156135723 1.184631237e-38
0.09114804864 -0.4302535951 0.05547983572 1.184631237e-38
0.005743768066 -0.400095433 0.05854003876 1.184631237e-38
0.3332443833 -0.1026524752 -0.2134073377 1.184631237e-38
0.3374124765 0.0347414203 -0.2066438198 1.184631237e-38
0.3181323111 -0.03942545876 -0.1952160895 1.184631237e-38
0.3290016353 -0.2486575544 -0.1998488009 1.184631237e-38
0.3339333534 -0.05494295806 -0.1794131696 1.184631237e-38
0.3311322927 0.01585193723 -0.1528066993 1.184631237e-38
0.3321453631 -0.1842913926 -0.1923678517 1.184631237e-38
0.3264379501 -0.1196735799 -0.1853471398 1.184631237e-38
-0.09960661829 -0.4778969288 -0.1263145506 1.184631237e-38
-0.07086315751 -0.4701195359 -0.07857628912 1.184631237e-38
-0.03220361471 -0.4768069386 -0.01022358611 1.184631237e-38
-0.09847171605 -0.4796927571 0.06620810926 1.184631237e-38
-0.1274890304 -0.4757056534 0.002235120162 1.184631237e-38
-0.06806271523 -0.4579185545 -0.04051571339 1.184631237e-38
0.008600402623 -0.4798618257 -0.0638275221 1.184631237e-38
-0.1535196006 -0.4773847461 -0.05262177438 1.184631237e-38
0.1300188601 -0.2876767218 -0.2541804612 1.184631237e-38
0.1247779876 -0.06196586788 -0.2501180768 1.184631237e-38
0.1419735253 -0.2161416709 -0.2404145896 1.184631237e-38
0.1102732867 -0.399037987 -0.256164223 1.184631237e-38
0.06610921025 -0.2599529028 -0.2465691566 1.184631237e-38
0.07451921701 -0.1446584165 -0.2554645836 1.184631237e-38
0.0941850096 -0.3635093868 -0.2492807209 1.184631237e-38
0.06356732547 -0.3178986907 -0.2571395934 1.184631237e-38
0.2334641665 -0.2646123469 -0.2380518913 1.184631237e-38
0.2441078573 -0.07088205963 -0.2250295579 1.184631237e-38
0.2419194728 -0.2044686824 -0.2256778181 1.184631237e-38
0.223003909 -0.3832418621 -0.2359476984 1.184631237e-38
0.1941055208 -0.2373628616 -0.2332545519 1.184631237e-38
0.1927919388 -0.151120767 -0.2323974371 1.184631237e-38
0.2098234445 -0.3279120922 -0.2415337563 1.184631237e-38
0.1895620823 -0.2910386622 -0.242284447 1.184631237e-38
0.3155919611 -0.05632601306 -0.1102902964 1.184631237e-38
0.3221670389 0.05254955962 -0.06613280624 1.184631237e-38
0.3146269023 -0.01784318499 -0.02018623799 1.184631237e-38
0.3209551871 -0.4219489694 -0.01689295843 1.184631237e-38
0.3222761154 -0.04044318572 -0.007901292294 1.184631237e-38
0.3213808537 0.01219052821 0.02094705775 1.184631237e-38
0.3243573904 -0.1347678751 -0.03227461874 1.184631237e-38
0.3273586631 -0.07826790214 0.001917680725 1.184631237e-38
0.3317019045 -0.1487912387 -0.2143467367 1.184631237e-38
0.3371605277 0.009350113571 -0.2035851181 1.184631237e-38
0.321524024 -0.07610762119 -0.1990615129 1.184631237e-38
0.3208538294 -0.3290852904 -0.1986759603 1.184631237e-38
0.3306696713 -0.09795796126 -0.1843633056 1.184631237e-38
0.3186247349 -0.01558319665 -0.1536354423 1.184631237e-38
0.3275692761 -0.2354884744 -0.2003688812 1.184631237e-38
0.3326180279 -0.1666770577 -0.1862636507 1.184631237e-38
-0.01163426042 -0.4736213982 -0.1512546837 1.184631237e-38
-0.001800335944 -0.4377131462 -0.1125288233 1.184631237e-38
0.02273170277 -0.4452526867 -0.02488857508 1.184631237e-38
-0.02382014692 -0.4752381742 0.02226808481 1.184631237e-38
-0.02128537744 -0.4472192526 -0.01144263893 1.184631237e-38
0.008993249387 -0.4142736495 -0.05020732433 1.184631237e-38
0.02978165075 -0.4673487842 -0.07912292331 1.184631237e-38
-0.06140731648 -0.4477760196 -0.06819152832 1.184631237e-38
0.129188776 -0.2744134367 -0.2541661263 1.184631237e-38
0.1325660497 -0.07020585239 -0.252610743 1.184631237e-38
0.135028705 -0.2037208527 -0.2416460812 1.184631237e-38
0.1137833595 -0.4009208977 -0.2553295493 1.184631237e-38
0.0786819756 -0.2480222434 -0.2457658947 1.184631237e-38
0.08995574713 -0.1517185867 -0.2499365807 1.184631237e-38
0.1066599488 -0.3485474586 -0.2461712658 1.184631237e-38
0.07690489292 -0.3084255159 -0.2531499565 1.184631237e-38
0.2901808619 -0.1181923449 -0.08983821422 1.184631237e-38
0.2908039689 0.03621790931 -0.06045204401 1.184631237e-38
0.285687536 -0.06229940802 -0.03636589646 1.184631237e-38
0.2866685092 -0.3091675043 -0.03234429657 1.184631237e-38
0.3008629382 -0.08733276278 -0.008324705064 1.184631237e-38
0.3000425696 -0.0298503302 0.01150573418 1.184631237e-38
0.2966621816 -0.201600045 -0.04683723301 1.184631237e-38
0.2909801602 -0.137959227 -0.01366320625 1.184631237e-38
-0.04732340574 -0.4765969217 -0.04662805051 1.771655483e-38
0.01561475173 -0.4669725597 0.004952736199 1.771655483e-38
0.07448747754 -0.4764934778 0.13455607 1.771655483e-38
-0.01439763606 -0.4795019627 0.1803865731 1.771655483e-38
-0.04174080864 -0.4686105847 0.1453609467 1.771655483e-38
0.0262898095 -0.449503541 0.09721875936 1.771655483e-38
0.1017807424 -0.4788159728 0.05752091482 1.771655483e-38
-0.07918407768 -0.4783445299 0.06233003736 1.771655483e-38
0.3171433806 -0.002456665039 -0.1278186738 1.771655483e-38
0.3301058114 0.06692609191 -0.09627149254 1.771655483e-38
0.3166162372 0.02521138266 -0.05498860776 1.771655483e-38
0.3201464713 -0.1595624536 -0.04226326942 1.771655483e-38
0.3309186101 0.01641057059 -0.0436938405 1.771655483e-38
0.3295827508 0.04888850823 -0.0006823837757 1.771655483e-38
0.3252043128 -0.0630383119 -0.06418914348 1.771655483e-38
0.3200177848 -0.01324917935 -0.000710112974 1.771655483e-38
0.3178860247 -0.1069076806 -0.2380733788 1.771655483e-38
0.3248232007 0.03057841584 -0.2337395251 1.771655483e-38
0.3031431139 -0.04496106505 -0.221778512 1.771655483e-38
0.3122630119 -0.2602244914 -0.2246467769 1.771655483e-38
0.3162177801 -0.05990561098 -0.2085105777 1.771655483e-38
0.3147229254 -0.0007191374898 -0.1635374725 1.771655483e-38
0.3134906292 -0.1834250689 -0.2231464982 1.771655483e-38
0.3177837133 -0.103452459 -0.198890686 1.771655483e-38
0.304367274 -0.14527677 -0.2219201922 1.771655483e-38
0.313098222 0.04171210155 -0.2111393809 1.771655483e-38
0.2906064987 -0.068062976 -0.2120472193 1.771655483e-38
0.2915154397 -0.3320717514 -0.2099103034 1.771655483e-38
0.3061125278 -0.08192140609 -0.1901523471 1.771655483e-38
0.2990964949 -0.006282687187 -0.1546958387 1.771655483e-38
0.2996927798 -0.2352056056 -0.2106072903 1.771655483e-38
0.3070035875 -0.1508971453 -0.1895639002 1.771655483e-38
0.2825215459 -0.1854227781 -0.217095077 1.771655483e-38
0.2921078205 -0.006617415696 -0.2068398297 1.771655483e-38
0.2826845944 -0.1246181279 -0.2079486251 1.771655483e-38
0.2676706612 -0.398878634 -0.208474189 1.771655483e-38
0.2739747167 -0.1536131054 -0.2063693702 1.771655483e-38
0.2640283704 -0.05229224637 -0.189111501 1.771655483e-38
0.2760267258 -0.2794867456 -0.2134815156 1.771655483e-38
0.2741052508 -0.2249854207 -0.2071704566 1.771655483e-38
0.292861104 -0.003714557737 -0.1059606299 1.771655483e-38
0.2987317443 0.06570437551 -0.08389791101 1.771655483e-38
0.2980830371 0.02387489751 -0.04693756998 1.771655483e-38
0.2876306474 -0.3578388095 -0.04304223508 1.771655483e-38
0.2961831689 0.02083032206 -0.03505014628 1.771655483e-38
0.2930407524 0.05542555079 0.008256137371 1.771655483e-38
0.300234884 -0.05014571175 -0.04739951342 1.771655483e-38
0.2922784984 -0.005206994712 -0.002293888479 1.771655483e-38
-0.3117864728 -0.4799917936 -0.2342169583 1.771655483e-38
-0.2345528454 -0.4855540097 -0.2249877453 1.771655483e-38
-0.1273637116 -0.4866818786 -0.0700809285 1.771655483e-38
-0.2925248742 -0.4848664403 0.06800703704 1.771655483e-38
-0.3866333067 -0.4871509075 -0.01704707742 1.771655483e-38
-0.2772935331 -0.4909618795 -0.1158412322 1.771655483e-38
-0.01606750861 -0.4876441658 -0.204112947 1.771655483e-38
-0.3840836883 -0.4828392863 -0.1680912971 1.771655483e-38
-0.0396296829 -0.4755840302 -0.103519462 1.771655483e-38
0.004951458424 -0.4416779876 -0.03814484179 1.771655483e-38
0.03835752979 -0.437749207 0.1071502045 1.771655483e-38
-0.01260149479 -0.4700314701 0.1403564215 1.771655483e-38
-0.01445369795 -0.4240553677 0.1356124282 1.771655483e-38
0.01603678986 -0.404073894 0.0879797861 1.771655483e-38
0.01390507445 -0.4642315507 0.05542203784 1.771655483e-38
-0.05152480304 -0.4279886484 0.05762871727 1.771655483e-38
-0.08759659529 -0.4277358353 -0.1527038217 1.771655483e-38
-0.05520199239 -0.3983576596 -0.1387624741 1.771655483e-38
-0.05175462738 -0.4162713587 -0.08618683368 1.771655483e-38
-0.09865614772 -0.4678816497 -0.08140895516 1.771655483e-38
-0.09899378568 -0.4101054668 -0.07895199955 1.771655483e-38
-0.07182195783 -0.3871650994 -0.1167287901 1.771655483e-38
-0.03814900294 -0.442366153 -0.1299217939 1.771655483e-38
-0.1240421385 -0.4122565985 -0.1214378253 1.771655483e-38
-0.3111341 -0.4791885614 -0.1750594079 1.771655483e-38
-0.1904461533 -0.4819888473 -0.1786602139 1.771655483e-38
-0.04944584519 -0.4895367622 0.0756187588 1.771655483e-38
-0.2340484262 -0.4846645594 0.1937130392 1.771655483e-38
-0.3478126228 -0.48655954 0.1044286191 1.771655483e-38
-0.2236339301 -0.4924268723 -9.865686297e-05 1.771655483e-38
0.05804831907 -0.4875769317 -0.1163353249 1.771655483e-38
-0.3674218357 -0.4842747748 -0.07472605258 1.771655483e-38
0.3328673244 -0.03425963968 -0.09011776 1.771655483e-38
0.3321018815 0.06339396536 -0.07352674752 1.771655483e-38
0.3407303691 0.009938117117 -0.04696056992 1.771655483e-38
0.322350949 -0.2792593241 -0.04516068101 1.771655483e-38
0.3279204667 -0.005248859525 -1.703388989e-05 1.771655483e-38
0.3253507614 0.05310817435 0.02193377353 1.771655483e-38
0.3341604769 -0.09139157832 -0.03167321533 1.771655483e-38
0.3242202401 -0.05011788011 0.003132084385 1.771655483e-38
-0.2963460088 -0.4796838164 -0.2600827813 1.771655483e-38
-0.2319164723 -0.4667689502 -0.2606069446 1.771655483e-38
-0.1678249985 -0.476080209 -0.1515398324 1.771655483e-38
-0.2895671427 -0.4800153673 -0.03807553649 1.771655483e-38
-0.3604171872 -0.479483068 -0.1146227345 1.771655483e-38
-0.2932676673 -0.4683145881 -0.1925141215 1.771655483e-38
-0.009455706924 -0.4837479591 -0.2238147259 1.771655483e-38
-0.356036514 -0.4803229868 -0.1962599456 1.771655483e-38
0.3102042973 -0.02286117151 -0.1073819622 1.771655483e-38
0.319311589 0.0758754015 -0.08431921154 1.771655483e-38
0.3089166582 0.02488670871 -0.07377951592 1.771655483e-38
0.3036815226 -0.2941338718 -0.0595510453 1.771655483e-38
0.308126539 0.01871439442 -0.02389335632 1.771655483e-38
0.2996005118 0.05888034776 0.007212668657 1.771655483e-38
0.3085154891 -0.09171084315 -0.0476764068 1.771655483e-38
0.303063482 -0.02626671828 0.0005235634744 1.771655483e-38
0.2816597521 -0.06362779438 -0.1167602018 1.771655483e-38
0.2901781499 0.029317718 -0.06136637181 1.771655483e-38
0.2901908159 -0.02150783502 0.02084342763 1.771655483e-38
0.2837206721 -0.2431949675 0.01845224202 1.771655483e-38
0.288284272 -0.0513535589 0.03179126233 1.771655483e-38
0.2943634987 -0.008191160858 0.06588488072 1.771655483e-38
0.298838675 -0.1090220213 -0.0006296690553 1.771655483e-38
0.2927963734 -0.07076083869 0.03303115815 1.771655483e-38
0.08051274717 -0.254622817 -0.2524304092 1.771655483e-38
0.07593679428 -0.05723080784 -0.2513487637 1.771655483e-38
0.0850315541 -0.1885462105 -0.2344872355 1.771655483e-38
0.05586097762 -0.3950701058 -0.2533152401 1.771655483e-38
0.02224163339 -0.2286003679 -0.2515033484 1.771655483e-38
0.02095961198 -0.1329533756 -0.2600602806 1.771655483e-38
0.04580265656 -0.33617118 -0.2477908134 1.771655483e-38
0.02133253589 -0.290848583 -0.2541789412 1.771655483e-38
-0.1345331073 -0.4732899368 -0.06643177569 1.771655483e-38
-0.1184964925 -0.452016294 -0.0309946239 1.771655483e-38
-0.08469025046 -0.458986342 0.04352618754 1.771655483e-38
-0.1356268525 -0.4734942317 0.08933261037 1.771655483e-38
-0.1467428505 -0.4481580555 0.06323562562 1.771655483e-38
-0.1201686412 -0.4258618355 0.01832582615 1.771655483e-38
-0.08851742744 -0.4800390005 -0.0003256872296 1.771655483e-38
-0.1683396548 -0.4428124428 0.01099795848 1.771655483e-38
0.04028341547 -0.2214287817 -0.2559700012 1.771655483e-38
0.03607495502 -0.008056856692 -0.249050945 1.771655483e-38
0.05535441265 -0.1437432021 -0.2399093509 1.771655483e-38
0.006902154535 -0.3823700249 -0.2494314015 1.771655483e-38
-0.03121881373 -0.1906744987 -0.2477312088 1.771655483e-38
-0.02366789058 -0.08270287514 -0.2636298239 1.771655483e-38
-0.01131840795 -0.3195393085 -0.2473514974 1.771655483e-38
-0.02653306536 -0.2639650106 -0.2508973777 1.771655483e-38
-0.2171763033 -0.4766763449 -0.1703952253 1.771655483e-38
-0.2092466354 -0.463078469 -0.1392291784 1.771655483e-38
-0.164443925 -0.4761943817 -0.0772035718 1.771655483e-38
-0.2243991345 -0.480381161 0.0309389513 1.771655483e-38
-0.2708004117 -0.4765712321 -0.03956378996 1.771655483e-38
-0.1982338428 -0.4522636235 -0.08863711357 1.771655483e-38
-0.1421736479 -0.4812406301 -0.1277944744 1.771655483e-38
-0.2719171643 -0.4729896188 -0.1019778177 1.771655483e-38
-0.04703360796 -0.4726911783 -0.04242300987 1.771655483e-38
-0.02706007287 -0.4246127307 0.01092881337 1.771655483e-38
0.0162490271 -0.4184199274 0.1372919679 1.771655483e-38
-0.04636667669 -0.4591225684 0.16611287 1.771655483e-38
-0.03639025241 -0.4073103368 0.1615866125 1.771655483e-38
-0.01555770636 -0.3873365223 0.1126104817 1.771655483e-38
-0.01531286538 -0.4519822598 0.1046099588 1.771655483e-38
-0.06470414251 -0.3943738043 0.09540760517 1.771655483e-38
0.2815615833 -0.1220351607 -0.2352209091 1.771655483e-38
0.2922775447 0.0325380303 -0.2359423041 1.771655483e-38
0.2979306877 -0.05681174248 -0.2258855402 1.771655483e-38
0.2658599019 -0.2875602245 -0.2366343737 1.771655483e-38
0.2301474661 -0.09033060819 -0.2409720123 1.771655483e-38
0.22432594 -0.008003234863 -0.2463358343 1.771655483e-38
0.2585478127 -0.2182635963 -0.236884594 1.771655483e-38
0.2461735755 -0.1451945603 -0.2459337413 1.771655483e-38
-0.3091432154 -0.4800852239 -0.1873287261 1.771655483e-38
-0.2047070563 -0.4788112044 -0.1707898974 1.771655483e-38
-0.1075076088 -0.4870246649 0.1002882197 1.771655483e-38
-0.2424525917 -0.4845069945 0.2176892757 1.771655483e-38
-0.3564759195 -0.4857907295 0.1384569257 1.771655483e-38
-0.2558763623 -0.4886650145 0.01788186468 1.771655483e-38
-0.07106658816 -0.4871246517 -0.08830752224 1.771655483e-38
-0.3632873595 -0.4832943678 -0.04965490848 1.771655483e-38
-0.3141945899 -0.4782485664 -0.2006054223 1.771655483e-38
-0.2196245044 -0.4807872772 -0.1995144188 1.771655483e-38
-0.1168977022 -0.4865274727 0.05658996105 1.771655483e-38
-0.2593865395 -0.483294189 0.1694976091 1.771655483e-38
-0.3615374267 -0.4865459502 0.08023306727 1.771655483e-38
-0.2674413323 -0.4900506735 -0.02200751379 1.771655483e-38
-0.08301173151 -0.4880624712 -0.1237491146 1.771655483e-38
-0.3646011949 -0.4841029346 -0.08904002607 1.771655483e-38
-0.3319553733 -0.4801649749 -0.216827333 1.771655483e-38
-0.2747835815 -0.482060194 -0.2046377957 1.771655483e-38
-0.2050204575 -0.4843091369 -0.08193612099 1.771655483e-38
-0.3155969679 -0.4832246006 0.04749186337 1.771655483e-38
-0.377414912 -0.4857060313 -0.04000007361 1.771655483e-38
-0.3007338941 -0.4831291437 -0.117536284 1.771655483e-38
-0.08547047526 -0.4874624014 -0.1754378676 1.771655483e-38
-0.3808408678 -0.4828250706 -0.1387661099 1.771655483e-38
0.2827593386 -0.02945996076 -0.2371937633 1.771655483e-38
0.3053641319 0.07078041136 -0.2445228398 1.771655483e-38
0.3000971675 0.03102527931 -0.2309139669 1.771655483e-38
0.2743053734 -0.1988846213 -0.23772192 1.771655483e-38
0.2253177017 0.02955995873 -0.2415672839 1.771655483e-38
0.213302359 0.06510843337 -0.2261685729 1.771655483e-38
0.2519418001 -0.05805746466 -0.2428918481 1.771655483e-38
0.2607140243 0.007168546319 -0.2342443466 1.771655483e-38
0.3452934027 -0.03535304219 -0.04571941495 1.771655483e-38
0.3373555243 0.0396223776 0.02030228078 1.771655483e-38
0.3223292232 -0.00409142673 0.121949099 1.771655483e-38
0.3419995904 -0.3348629475 0.1295465827 1.771655483e-38
0.3446727395 -0.02763638087 0.1274740398 1.771655483e-38
0.3430408835 0.02292500809 0.1796341836 1.771655483e-38
0.351922214 -0.1192181259 0.1063268632 1.771655483e-38
0.3463671803 -0.05191171914 0.1253044009 1.771655483e-38
0.2888532281 -0.05030729622 -0.2469270527 1.771655483e-38
0.3030041754 0.0699826479 -0.254624784 1.771655483e-38
0.2980461419 0.01039964333 -0.2376755774 1.771655483e-38
0.283208698 -0.2138464153 -0.2435807288 1.771655483e-38
0.2477880269 0.006157591939 -0.2471274734 1.771655483e-38
0.2372600287 0.0571465306 -0.2307342589 1.771655483e-38
0.2713321745 -0.1281414479 -0.2511746287 1.771655483e-38
0.2720662057 -0.01574337296 -0.2462440133 1.771655483e-38
-0.1127104014 -0.4752082825 -0.0865636915 1.771655483e-38
-0.07650049776 -0.4481235743 -0.05124770105 1.771655483e-38
-0.03870283812 -0.4567206204 0.05591919273 1.771655483e-38
-0.09093883634 -0.4743491411 0.1064589098 1.771655483e-38
-0.1054337174 -0.4465136826 0.0697607249 1.771655483e-38
-0.07776044309 -0.4237761796 0.03001574427 1.771655483e-38
-0.04697507992 -0.4776915908 0.01187798753 1.771655483e-38
-0.127622813 -0.4433182478 0.01628001034 1.771655483e-38
-0.1417389661 -0.4720104933 -0.05052684247 1.771655483e-38
-0.1134406924 -0.4361146688 -0.01233912632 1.771655483e-38
-0.0897821933 -0.4383592606 0.05412342399 1.771655483e-38
-0.1311485171 -0.4708363414 0.0904590115 1.771655483e-38
-0.1347046047 -0.4206057191 0.07487917691 1.771655483e-38
-0.1086665839 -0.4007038176 0.04137955606 1.771655483e-38
-0.0904301703 -0.4710118473 0.02234094217 1.771655483e-38
-0.1619744301 -0.4246945679 0.02547728643 1.771655483e-38
0.1983679086 -0.1588454247 -0.2642928064 1.771655483e-38
0.1955118626 -0.009560685605 -0.2704139948 1.771655483e-38
0.208767131 -0.09946994483 -0.2494274378 1.771655483e-38
0.1680759639 -0.3147781193 -0.2641118765 1.771655483e-38
0.142091319 -0.1364776343 -0.2614401877 1.771655483e-38
0.1334505677 -0.05763122439 -0.2626316249 1.771655483e-38
0.1597353369 -0.2485868782 -0.2769218385 1.771655483e-38
0.1561941653 -0.1925222874 -0.2699714005 1.771655483e-38
-0.08734988421 -0.3297915161 -0.263271749 1.771655483e-38
-0.09426087141 -0.1387747526 -0.2377417684 1.771655483e-38
-0.0818656981 -0.261253953 -0.2372035384 1.771655483e-38
-0.1133118272 -0.4351802468 -0.2444411218 1.771655483e-38
-0.1443534642 -0.3034623861 -0.2340309024 1.771655483e-38
-0.1317466944 -0.2218146324 -0.2449937165 1.771655483e-38
-0.0961637795 -0.3963548541 -0.2443163395 1.771655483e-38
-0.1501092911 -0.3592270613 -0.2507944405 1.771655483e-38
0.345186621 -0.01683179289 -0.03620111197 1.771655483e-38
0.343008846 0.06395544112 0.04884195328 1.771655483e-38
0.3391924798 0.004603844136 0.08990211785 1.771655483e-38
0.3351425231 -0.4582502544 0.1220345795 1.771655483e-38
0.3348115683 -0.001585122198 0.1112910733 1.771655483e-38
0.3282327652 0.04390509054 0.1530928165 1.771655483e-38
0.3458611369 -0.0874633044 0.1064496189 1.771655483e-38
0.34790802 -0.03880754486 0.1166326478 1.771655483e-38
-0.1379826367 -0.4726740718 0.01534241345 1.771655483e-38
-0.1162848026 -0.4348078668 0.05139071494 1.771655483e-38
-0.08591232449 -0.4367337525 0.1116478816 1.771655483e-38
-0.1396966875 -0.4552857876 0.1440138817 1.771655483e-38
-0.1409289986 -0.4195381701 0.1307724118 1.771655483e-38
-0.1138345003 -0.4031813145 0.09736584127 1.771655483e-38
-0.0648875609 -0.4762870669 0.08319306374 1.771655483e-38
-0.168374747 -0.4305275381 0.08560787141 1.771655483e-38
0.2891930044 0.07493127882 -0.2615119219 2.348204041e-38
0.3620643616 0.08037576079 -0.1505202353 2.348204041e-38
0.3364548683 0.07194748521 -0.2068985701 2.348204041e-38
0.163104251 -0.4817574322 -0.1762851477 2.348204041e-38
0.2096176296 0.0767710954 -0.2133506536 2.348204041e-38
0.1463876963 0.07838746905 -0.1035249308 2.348204041e-38
0.2736948133 0.07446211576 -0.0784887597 2.348204041e-38
0.3283156157 0.07795682549 -0.05379642546 2.348204041e-38
0.1933824122 -0.1744781733 -0.2566322982 2.348204041e-38
0.1892267913 -0.02436893992 -0.2644262016 2.348204041e-38
0.2047582716 -0.1212941259 -0.2351036966 2.348204041e-38
0.1644344926 -0.3366213441 -0.2547091842 2.348204041e-38
0.1282113045 -0.1521149725 -0.2594645917 2.348204041e-38
0.1240984797 -0.06663648039 -0.2673583925 2.348204041e-38
0.1516350359 -0.2655334175 -0.2606900036 2.348204041e-38
0.1424016058 -0.2070704848 -0.2646512091 2.348204041e-38
0.2562312484 -0.03003987297 -0.2444024086 2.348204041e-38
0.2939324081 0.07158319652 -0.2502738237 2.348204041e-38
0.2918973863 0.03295184299 -0.241581887 2.348204041e-38
0.1963969916 -0.4389514625 -0.2684368491 2.348204041e-38
0.1656575501 0.03157782927 -0.2571471632 2.348204041e-38
0.1212350279 0.07142826915 -0.2530841231 2.348204041e-38
0.2071100026 -0.07092868537 -0.2484278381 2.348204041e-38
0.2265471369 0.007179219276 -0.2466460466 2.348204041e-38
-0.3694062233 -0.4808242321 -0.3019578755 2.348204041e-38
-0.2852706015 -0.4864071608 -0.3046249449 2.348204041e-38
-0.1936781853 -0.4878306091 -0.08552522212 2.348204041e-38
-0.3606857657 -0.4846397042 0.04562194645 2.348204041e-38
-0.4312359989 -0.4894450605 -0.04548434168 2.348204041e-38
-0.352493912 -0.4914894104 -0.1696096361 2.348204041e-38
-0.04948902875 -0.4871926904 -0.2636405826 2.348204041e-38
-0.4251587391 -0.4832957685 -0.2161904275 2.348204041e-38
-0.05556118861 -0.2796663046 -0.2616018951 2.348204041e-38
-0.05261094868 -0.1059443504 -0.2542997003 2.348204041e-38
-0.04423137754 -0.2301574647 -0.2585255802 2.348204041e-38
-0.09080992639 -0.4012839496 -0.2551413476 2.348204041e-38
-0.1460814178 -0.2546292245 -0.2497009337 2.348204041e-38
-0.1353324503 -0.1809333712 -0.255928129 2.348204041e-38
-0.1011924446 -0.3437808156 -0.2507767975 2.348204041e-38
-0.1387249231 -0.3115286827 -0.2651896775 2.348204041e-38
-0.07296100259 -0.2724238634 -0.2778529525 2.348204041e-38
-0.07403567433 -0.06855353713 -0.2668716908 2.348204041e-38
-0.06494445354 -0.2049116045 -0.258926481 2.348204041e-38
-0.1023847237 -0.41140306 -0.269708693 2.348204041e-38
-0.1589369774 -0.2456082702 -0.25619784 2.348204041e-38
-0.1468258947 -0.1540793478 -0.2659337819 2.348204041e-38
-0.1189776808 -0.3559168279 -0.2585754395 2.348204041e-38
-0.1522559822 -0.3165659904 -0.2762471139 2.348204041e-38
0.2574288547 0.07581564784 -0.2398747206 2.348204041e-38
0.3471815586 0.08110283315 -0.1074131355 2.348204041e-38
0.3193972409 0.06944583356 -0.1624435186 2.348204041e-38
-0.06774634868 -0.481356591 -0.182102859 2.348204041e-38
0.1834521592 0.07830931246 -0.1602224708 2.348204041e-38
0.1301157176 0.07849779725 -0.04519362748 2.348204041e-38
0.2534800768 0.07446864247 0.001822745427 2.348204041e-38
0.2949226797 0.07787327468 0.009305808693 2.348204041e-38
-0.2398031205 -0.479002893 -0.2135754228 2.348204041e-38
-0.1505785882 -0.4692206681 -0.1531292498 2.348204041e-38
-0.1156639457 -0.4753623009 0.06143514067 2.348204041e-38
-0.1937134415 -0.4812216759 0.1502185315 2.348204041e-38
-0.2772138715 -0.4780994356 0.1142297015 2.348204041e-38
-0.1946835518 -0.4756614566 0.005140049383 2.348204041e-38
-0.1308071166 -0.4827210009 -0.05478912592 2.348204041e-38
-0.2863634527 -0.4814190567 -0.04560755938 2.348204041e-38
-0.2621798515 -0.478962183 -0.1251585782 2.348204041e-38
-0.1819483787 -0.4625686705 -0.08758597076 2.348204041e-38
-0.167092368 -0.4671932757 0.1028221399 2.348204041e-38
-0.2182739973 -0.4769030213 0.1661656797 2.348204041e-38
-0.2554264963 -0.4546683133 0.1414929926 2.348204041e-38
-0.2015296072 -0.4375022948 0.07545374334 2.348204041e-38
-0.1800968498 -0.4812610447 0.0421539098 2.348204041e-38
-0.2642060518 -0.4595201612 0.0556191653 2.348204041e-38
-0.2630454004 -0.4780263305 -0.0774692148 2.348204041e-38
-0.1831838638 -0.463804841 -0.07084449381 2.348204041e-38
-0.1312738955 -0.4719973803 0.1282137185 2.348204041e-38
-0.2148659527 -0.4763315022 0.1797498763 2.348204041e-38
-0.2681117356 -0.4599888623 0.1530956328 2.348204041e-38
-0.1974847168 -0.4410095513 0.09042014927 2.348204041e-38
-0.150274843 -0.4813207984 0.04711169004 2.348204041e-38
-0.2660816908 -0.4670377076 0.06746199727 2.348204041e-38
-0.4048655629 -0.4745546579 -0.2421664596 2.348204041e-38
-0.3977391124 -0.4567739367 -0.2056851983 2.348204041e-38
-0.3382582366 -0.4769693911 -0.1753388047 2.348204041e-38
-0.4244796634 -0.4825102687 -0.08247482777 2.348204041e-38
-0.454780817 -0.4726569355 -0.1367386878 2.348204041e-38
-0.4199229181 -0.4380690157 -0.202865392 2.348204041e-38
-0.2305680066 -0.4856108129 -0.2481745481 2.348204041e-38
-0.4492039979 -0.4722809792 -0.1987090409 2.348204041e-38
-0.3554089069 -0.4789622426 -0.2477592528 2.348204041e-38
-0.2830804884 -0.4734150171 -0.2436103225 2.348204041e-38
-0.1926835328 -0.4817739427 -0.09618211538 2.348204041e-38
-0.3440389633 -0.483193934 0.04150482267 2.348204041e-38
-0.4263783395 -0.4867710769 -0.03038877621 2.348204041e-38
-0.3511904776 -0.4824884534 -0.1472831666 2.348204041e-38
-0.08274272829 -0.4870617986 -0.2464857697 2.348204041e-38
-0.4146506488 -0.4818580747 -0.1855204403 2.348204041e-38
0.2185495943 -0.03375696391 -0.2385289967 2.348204041e-38
0.2483390719 0.06005413458 -0.2489202917 2.348204041e-38
0.2588042319 0.0250527747 -0.2445465326 2.348204041e-38
0.1684895754 -0.1668179482 -0.2510238588 2.348204041e-38
0.1185642928 0.01661115885 -0.2547584176 2.348204041e-38
0.07718975842 0.05732468888 -0.2570776939 2.348204041e-38
0.1615424454 -0.06568431854 -0.2489545643 2.348204041e-38
0.1613632888 -0.001230504364 -0.2517698109 2.348204041e-38
-0.3872574866 -0.4438408911 -0.2986028194 2.348204041e-38
-0.3827478588 -0.2948154509 -0.2885423601 2.348204041e-38
-0.3833271861 -0.3894346058 -0.2751531601 2.348204041e-38
-0.4276682734 -0.4736659825 -0.2472552657 2.348204041e-38
-0.432710886 -0.4314247966 -0.2556640506 2.348204041e-38
-0.4206602573 -0.3588478863 -0.2741540074 2.348204041e-38
-0.3430683613 -0.4785373807 -0.2959536612 2.348204041e-38
-0.4334223866 -0.4389583766 -0.2799981833 2.348204041e-38
0.1976556033 -0.03106382862 -0.2273904383 2.348204041e-38
0.2327048928 0.06734675169 -0.2341021001 2.348204041e-38
0.2202907056 0.02970699593 -0.2163017392 2.348204041e-38
0.1568363756 -0.2345971018 -0.2415618896 2.348204041e-38
0.09572347999 0.02233309671 -0.242896229 2.348204041e-38
0.06242664531 0.05958649144 -0.2411060035 2.348204041e-38
0.1329860389 -0.06278646737 -0.2345730066 2.348204041e-38
0.1345725358 -0.006297554821 -0.2403742969 2.348204041e-38
-0.1272001714 -0.4880251586 -0.04158936441 2.348204041e-38
0.05506203696 -0.4593138099 0.05370119214 2.348204041e-38
0.03319136426 -0.3917552531 0.4002461135 2.348204041e-38
-0.0334649086 -0.4144690037 0.4207732975 2.348204041e-38
-0.03427503258 -0.3935063481 0.4258357584 2.348204041e-38
-0.02151868865 -0.3908937573 0.3720503747 2.348204041e-38
0.05685581639 -0.450314641 0.3038034439 2.348204041e-38
-0.05302239582 -0.4255213737 0.3581045866 2.348204041e-38
0.1644477993 -0.1075203121 -0.2578239441 2.348204041e-38
0.1643620282 0.03354957327 -0.2610420287 2.348204041e-38
0.1887270212 -0.04503453523 -0.2372846603 2.348204041e-38
0.1224566996 -0.2628440559 -0.2600964308 2.348204041e-38
0.06949819624 -0.0740493536 -0.2591104805 2.348204041e-38
0.07103402913 -0.009953368455 -0.258489877 2.348204041e-38
0.1084999889 -0.193242386 -0.2661470771 2.348204041e-38
0.09816779196 -0.120390743 -0.2670033872 2.348204041e-38
0.1157489866 -0.1458892673 -0.261071384 2.348204041e-38
0.114917472 -0.06145767123 -0.257555306 2.348204041e-38
0.1429354846 -0.1103482097 -0.2449451089 2.348204041e-38
0.08079984784 -0.2815448642 -0.258099705 2.348204041e-38
0.02036936954 -0.1287215948 -0.2564308941 2.348204041e-38
0.02761125937 -0.07507517934 -0.2539964318 2.348204041e-38
0.05613318458 -0.2173354626 -0.2618283033 2.348204041e-38
0.04304130003 -0.1668966562 -0.2649428248 2.348204041e-38
-0.3079745471 -0.4088168144 -0.261819154 2.348204041e-38
-0.2999368012 -0.2139073312 -0.2600418925 2.348204041e-38
-0.308888644 -0.3367877901 -0.2612335384 2.348204041e-38
-0.3513284028 -0.4625624418 -0.2438613772 2.348204041e-38
-0.3564482629 -0.4032150209 -0.2485021949 2.348204041e-38
-0.3453868628 -0.3065720797 -0.2544438541 2.348204041e-38
-0.2862953544 -0.4701906741 -0.2712139785 2.348204041e-38
-0.3579114079 -0.4324040115 -0.2585854828 2.348204041e-38
0.2384729832 0.07497693598 -0.2619083822 2.348204041e-38
0.3289001882 0.08023568988 -0.1456466913 2.348204041e-38
0.2849446237 0.07205823064 -0.2077127397 2.348204041e-38
0.02644481137 -0.4797791541 -0.1801800728 2.348204041e-38
0.1708514988 0.07812131941 -0.1677272916 2.348204041e-38
0.1357540935 0.07797920704 -0.04765722901 2.348204041e-38
0.2293517143 0.07303708792 -0.008823711425 2.348204041e-38
0.2799726427 0.07803159952 0.006228527054 2.348204041e-38
-0.1720648259 -0.490129739 0.01193488948 2.348204041e-38
-0.03360912949 -0.4427527785 0.1269632876 2.348204041e-38
-0.04231083393 -0.3759957552 0.4211752415 2.348204041e-38
-0.1143485457 -0.3961544037 0.4387594759 2.348204041e-38
-0.1315947771 -0.37363711 0.4400131106 2.348204041e-38
-0.1076899767 -0.3720153868 0.4003992677 2.348204041e-38
-0.02314477414 -0.4327911735 0.3468474448 2.348204041e-38
-0.1557535082 -0.380885601 0.3887449503 2.348204041e-38
-0.1548142731 -0.3696159422 -0.2577963471 2.348204041e-38
-0.1315656304 -0.3426411152 -0.234931469 2.348204041e-38
-0.123088792 -0.3679529727 -0.1903485656 2.348204041e-38
-0.1742940992 -0.4210639298 -0.2219038606 2.348204041e-38
-0.2027905285 -0.3598034382 -0.1941898167 2.348204041e-38
-0.1938260198 -0.3444331288 -0.2404732704 2.348204041e-38
-0.1436302066 -0.4076681733 -0.2336391211 2.348204041e-38
-0.2218278199 -0.3686767817 -0.2368951738 2.348204041e-38
-0.2847152054 -0.4774067998 -0.08738861978 2.348204041e-38
-0.2275030911 -0.4601041675 -0.05498503149 2.348204041e-38
-0.2108614594 -0.4692488909 0.05881451815 2.348204041e-38
-0.2572749853 -0.4799905717 0.1276353598 2.348204041e-38
-0.2976972163 -0.4513636529 0.08657834679 2.348204041e-38
-0.2438797504 -0.429618746 0.03434937075 2.348204041e-38
-0.1986184865 -0.480212152 0.01115559414 2.348204041e-38
-0.2997085452 -0.4543169737 0.02128437907 2.348204041e-38
-0.2094934285 -0.4223642647 -0.2696126699 2.348204041e-38
-0.1908344477 -0.3826680183 -0.2564578652 2.348204041e-38
-0.182107538 -0.4272834957 -0.2146149576 2.348204041e-38
-0.2272972316 -0.4691280723 -0.216968298 2.348204041e-38
-0.2594290078 -0.4159387052 -0.2011010349 2.348204041e-38
-0.2388594002 -0.392228514 -0.2529973388 2.348204041e-38
-0.1868606806 -0.4691820443 -0.2459146976 2.348204041e-38
-0.2736598551 -0.4261707067 -0.2404724061 2.348204041e-38
-0.164451465 -0.4867216051 0.01001309976 2.348204041e-38
0.003369778395 -0.4589170218 0.1319367141 2.348204041e-38
-0.0004148185253 -0.3769777119 0.444347173 2.348204041e-38
-0.08165692538 -0.3908682168 0.4544526339 2.348204041e-38
-0.08898525685 -0.3801973462 0.460444957 2.348204041e-38
-0.07924311608 -0.3772957623 0.4285179973 2.348204041e-38
0.01873331144 -0.4324812889 0.350767076 2.348204041e-38
-0.09242226928 -0.4017020464 0.3854467869 2.348204041e-38
-0.3917293251 -0.4801260531 -0.263769567 2.348204041e-38
-0.3379717767 -0.4832316339 -0.2406596541 2.348204041e-38
-0.2502879798 -0.4850064218 -0.1190318391 2.348204041e-38
-0.391835928 -0.4848495722 0.02596897073 2.348204041e-38
-0.450049758 -0.489592135 -0.06697489321 2.348204041e-38
-0.3987350464 -0.485776931 -0.1778969169 2.348204041e-38
-0.1268607974 -0.4871756136 -0.2634255886 2.348204041e-38
-0.4478161335 -0.4834508896 -0.1992969811 2.348204041e-38
-0.238627851 -0.4751029015 -0.05096387118 2.348204041e-38
-0.1757313013 -0.4159035087 -0.002480205148 2.348204041e-38
-0.1505916268 -0.3995422423 0.1854063869 2.348204041e-38
-0.2165071964 -0.4332820475 0.1974751949 2.348204041e-38
-0.2177917063 -0.386530906 0.2073624134 2.348204041e-38
-0.1928263605 -0.3807586432 0.1448447406 2.348204041e-38
-0.1558666378 -0.447584331 0.1397559494 2.348204041e-38
-0.2459620982 -0.3826357424 0.1408980191 2.348204041e-38
0.1218215227 -0.02660531923 -0.2165430486 2.348204041e-38
0.1306797713 0.03874095157 -0.2062102556 2.348204041e-38
0.1671619266 0.01915929839 -0.2243137062 2.348204041e-38
0.04181612656 -0.2719673216 -0.218650043 2.348204041e-38
-0.004363439977 -0.004982810467 -0.2287352979 2.348204041e-38
-0.01653162763 0.03147637472 -0.2329069376 2.348204041e-38
0.03685669228 -0.04357060045 -0.2176963091 2.348204041e-38
0.05044579133 -0.005410660058 -0.2209586203 2.348204041e-38
-0.225645557 -0.4728470445 -0.08371456712 2.348204041e-38
-0.149509415 -0.4255042672 -0.05045392364 2.348204041e-38
-0.1407398731 -0.4275930822 0.08712232113 2.348204041e-38
-0.1976609081 -0.4636879563 0.1168816462 2.348204041e-38
-0.204787001 -0.406832993 0.1136098653 2.348204041e-38
-0.1776231676 -0.3951267898 0.05873466283 2.348204041e-38
-0.1575772464 -0.4686256945 0.04732567444 2.348204041e-38
-0.2241273969 -0.3956292272 0.04837822169 2.348204041e-38
-0.1442390829 -0.4876157045 0.02154938318 2.348204041e-38
-0.007057778537 -0.4316525161 0.1299056709 2.348204041e-38
-0.01823041588 -0.349017024 0.4136828482 2.348204041e-38
-0.0786242038 -0.3766162694 0.4386299551 2.348204041e-38
-0.08691536635 -0.3524642885 0.4336392879 2.348204041e-38
-0.07461423427 -0.3472254872 0.3950520754 2.348204041e-38
-0.02268311009 -0.388140589 0.3449802697 2.348204041e-38
-0.0962228775 -0.3576610088 0.3916447461 2.348204041e-38
-0.4136516452 -0.4389912486 -0.2775208056 2.348204041e-38
-0.409229219 -0.2403077036 -0.2704540193 2.348204041e-38
-0.4176592827 -0.368135035 -0.2654149234 2.348204041e-38
-0.4520936608 -0.4721526802 -0.2180260122 2.348204041e-38
-0.4456801414 -0.4186379313 -0.2418394983 2.348204041e-38
-0.4363003671 -0.3321091235 -0.2476457357 2.348204041e-38
-0.4024384618 -0.4785716534 -0.277302891 2.348204041e-38
-0.447496593 -0.439326942 -0.2543614209 2.348204041e-38
0.2745761871 0.07314430177 -0.1839855313 2.348204041e-38
0.3471584618 0.08089897037 -0.09848921746 2.348204041e-38
0.3460879028 0.06985020638 -0.1461909413 2.348204041e-38
0.04064648226 -0.4803575873 -0.1587390006 2.348204041e-38
0.1884563267 0.07689161599 -0.1550469995 2.348204041e-38
0.109415397 0.07583975792 -0.06228753179 2.348204041e-38
0.2336126417 0.07489965856 -0.02762027085 2.348204041e-38
0.3055253327 0.0784420073 -0.01828361303 2.348204041e-38
-0.1603616923 -0.3118901551 -0.2214532793 2.345219836e-38
-0.1589001715 -0.1138029695 -0.2142196298 2.345219836e-38
-0.1466785222 -0.2339382619 -0.2143478096 2.345219836e-38
-0.1871836036 -0.4322654903 -0.215261817 2.345219836e-38
-0.2295486033 -0.2872151732 -0.2061058283 2.345219836e-38
-0.2265926898 -0.1873231679 -0.2158447802 2.345219836e-38
-0.1988061517 -0.3920379579 -0.2081429958 2.345219836e-38
-0.2431014478 -0.3461361825 -0.2145783007 2.345219836e-38
-0.212186262 -0.4885545373 0.01018565148 2.345219836e-38
-0.02274030447 -0.4272936881 0.09529270977 2.345219836e-38
-0.047069408 -0.3283580244 0.4656725824 2.345219836e-38
-0.120007664 -0.3617224693 0.4814698398 2.345219836e-38
-0.1308356822 -0.3428251445 0.4805180728 2.345219836e-38
-0.110545516 -0.3333513439 0.4540072083 2.345219836e-38
-0.02894677036 -0.3911886215 0.3796980679 2.345219836e-38
-0.1258101463 -0.3359737992 0.418764174 2.345219836e-38
0.2922108471 0.07440324128 -0.1632199287 2.345219836e-38
0.3781279624 0.08091020584 -0.001722056419 2.345219836e-38
0.3643529117 0.07281148434 -0.07427828014 2.345219836e-38
0.09764118493 -0.4841960371 -0.129247874 2.345219836e-38
0.2293976098 0.07801923156 -0.07276555896 2.345219836e-38
0.1790603697 0.07721161842 0.03946171328 2.345219836e-38
0.2722003162 0.07346580923 0.1167937368 2.345219836e-38
0.3428571224 0.07819417119 0.1192493439 2.345219836e-38
-0.01236321777 -0.1130596697 -0.2769297659 2.345219836e-38
-0.01315674558 -0.02869622409 -0.2637613118 2.345219836e-38
0.0302314572 -0.07329244912 -0.2626886368 2.345219836e-38
-0.05733998865 -0.2803428769 -0.2646356225 2.345219836e-38
-0.1051120013 -0.1030315086 -0.2636774778 2.345219836e-38
-0.1024766639 -0.04339244962 -0.2649786472 2.345219836e-38
-0.0587496534 -0.1945116818 -0.272577107 2.345219836e-38
-0.08363036811 -0.1476367712 -0.2678352892 2.345219836e-38
-0.2969307303 -0.4280408919 -0.2705167234 2.345219836e-38
-0.294426173 -0.3868138492 -0.2654522955 2.345219836e-38
-0.2857277989 -0.4326302111 -0.2426717281 2.345219836e-38
-0.3229183853 -0.4672812521 -0.2291672826 2.345219836e-38
-0.3522927761 -0.4302225113 -0.2218181193 2.345219836e-38
-0.337915659 -0.3948423564 -0.2553966939 2.345219836e-38
-0.2299225181 -0.4770700037 -0.2647598088 2.345219836e-38
-0.3583494127 -0.4215568006 -0.2614109814 2.345219836e-38
0.03825802729 -0.1062709093 -0.2643038034 2.345219836e-38
0.03263032809 0.02823549137 -0.2512470782 2.345219836e-38
0.06096633151 -0.03280083463 -0.2637682259 2.345219836e-38
-0.02583053708 -0.3014814258 -0.2623558939 2.345219836e-38
-0.07708753645 -0.07863219082 -0.2608734965 2.345219836e-38
-0.08948230743 -0.002538677305 -0.2643589377 2.345219836e-38
-0.02736426517 -0.1823728085 -0.2602536082 2.345219836e-38
-0.04453451559 -0.1171694547 -0.2664267719 2.345219836e-38
