# .PCD v0.7 - Point Cloud Data file format
VERSION 0.7
FIELDS x y z rgb
SIZE 4 4 4 4
TYPE F F F F
COUNT 1 1 1 1
WIDTH 832
HEIGHT 1
VIEWPOINT 0 0 0 1 0 0 0
POINTS 832
DATA ascii
-0.13516213 -0.3410135806 0.1441509277 1.771655483e-38
-0.1377908587 -0.2531273663 0.2030949295 1.771655483e-38
-0.1374862492 -0.3923850656 0.2194999605 1.771655483e-38
-0.1292786449 -0.459823817 0.2018732131 1.771655483e-38
-0.1269616485 -0.4155982733 0.1643620878 1.771655483e-38
-0.1323387176 -0.3691085875 0.2126233876 1.771655483e-38
-0.1263257414 -0.4276009202 0.2403082103 1.771655483e-38
0.1738135517 -0.2971384823 0.1923533231 1.771655483e-38
0.149761349 -0.2378002256 0.1838681251 1.771655483e-38
0.1804403216 -0.229618445 0.191384986 1.771655483e-38
0.1710540801 -0.2483911514 0.2098460644 1.771655483e-38
0.09814690799 -0.4023159444 0.2051243484 1.771655483e-38
0.09476732463 -0.3044866323 0.1968918145 1.771655483e-38
0.1023643166 -0.2654337287 0.2108573616 1.771655483e-38
0.1038024276 -0.3342107534 0.2162179351 1.771655483e-38
-0.1389501095 -0.454493314 -0.2464212626 1.771655483e-38
-0.1412213743 -0.3515947759 -0.2737383544 1.771655483e-38
-0.1401221454 -0.2849468589 -0.22370103 1.771655483e-38
-0.1425511688 -0.3890862465 -0.2046288401 1.771655483e-38
0.06619364023 -0.4452649057 0.1690146178 1.771655483e-38
0.06645785272 -0.3217230439 0.172412619 1.771655483e-38
0.06806036085 -0.2657028139 0.1744768173 1.771655483e-38
0.08285449445 -0.3815756738 0.1739579141 1.771655483e-38
-0.1350169182 -0.4409918785 -0.3726285696 1.771655483e-38
-0.1402970105 -0.3322090507 -0.3768267035 1.771655483e-38
-0.1279810369 -0.267870456 -0.3726463318 1.771655483e-38
-0.1316585243 -0.3773371577 -0.3759649396 1.771655483e-38
0.09478224069 -0.4887221754 0.1664318293 1.771655483e-38
0.1457890421 -0.4908084571 0.01595699042 1.771655483e-38
0.2390113175 -0.4836983681 0.1154991537 1.771655483e-38
0.193762064 -0.4866062403 0.1775270551 1.771655483e-38
0.04596956447 -0.4450207055 0.1824356765 1.771655483e-38
0.04485938698 -0.4034612477 0.1666626185 1.771655483e-38
0.06025111675 -0.3848021626 0.1817151606 1.771655483e-38
0.05104205757 -0.408667773 0.1992869377 1.771655483e-38
-0.134973973 -0.4828448296 -0.172198236 1.771655483e-38
-0.1388520896 -0.4317966998 -0.1935727447 1.771655483e-38
-0.1325792968 -0.3592381179 -0.1426185519 1.771655483e-38
-0.1195111275 -0.4840854108 -0.08720037341 1.771655483e-38
0.2061107606 -0.3697428405 -0.2843062282 1.771655483e-38
0.1628450602 -0.3391557634 -0.2871015072 1.771655483e-38
0.2236418128 -0.3376770616 -0.2741363943 1.771655483e-38
0.2023385316 -0.3354626596 -0.2567559183 1.771655483e-38
-0.1401515752 -0.4549525678 -0.3116677999 1.771655483e-38
-0.1485426575 -0.411655724 -0.3160302639 1.771655483e-38
-0.1408737153 -0.3742235601 -0.2924924493 1.771655483e-38
-0.1469437182 -0.427851975 -0.2739916444 1.771655483e-38
0.08686649799 -0.4884550869 -0.3590710759 1.771655483e-38
0.02584555931 -0.4897430837 -0.35308671 1.771655483e-38
0.162488237 -0.4885008037 -0.3141263127 1.771655483e-38
0.09615188837 -0.4892239571 -0.2139520496 1.771655483e-38
-0.147168085 -0.3702055216 -0.3697148561 1.771655483e-38
-0.150367409 -0.2191385627 -0.3716202378 1.771655483e-38
-0.141463697 -0.1646431088 -0.3643253446 1.771655483e-38
-0.1393197328 -0.2719052434 -0.3690077066 1.771655483e-38
0.2657137513 -0.4918585718 -0.05225457996 1.771655483e-38
0.2609918714 -0.4898158908 -0.1480377167 1.771655483e-38
0.3492757082 -0.4867467284 -0.02265909314 1.771655483e-38
0.312094599 -0.4897231758 0.06021160632 1.771655483e-38
0.06151770055 -0.4498095214 0.1379556507 1.771655483e-38
0.06109130383 -0.4030624032 0.122347936 1.771655483e-38
0.07625155896 -0.3759405613 0.1412773579 1.771655483e-38
0.06713996083 -0.4072945714 0.1571152061 1.771655483e-38
-0.07654424012 -0.4500553906 0.1964929551 1.771655483e-38
-0.07359851897 -0.3968037665 0.1737921089 1.771655483e-38
-0.06505769491 -0.3705365658 0.2004455477 1.771655483e-38
-0.07360881567 -0.4080955088 0.2226074189 1.771655483e-38
0.01501274109 -0.4373536408 0.1440931559 2.06466517e-38
0.01402186975 -0.3688236773 0.1314459443 2.06466517e-38
0.0187416859 -0.337706387 0.1446731836 2.06466517e-38
0.01842988282 -0.3839701116 0.1522028446 2.06466517e-38
-0.03749485686 -0.4450195432 -0.01383604482 2.06466517e-38
-0.03843214735 -0.3660958707 -0.02258044295 2.06466517e-38
-0.03478388116 -0.3291756511 -0.005540836602 2.06466517e-38
-0.03902311996 -0.394263804 -0.002745468169 2.06466517e-38
-0.06899665296 -0.4701387584 -0.3064669967 2.06466517e-38
-0.07899749279 -0.4388478398 -0.3100873828 2.06466517e-38
-0.06477765739 -0.3981265724 -0.2961984277 2.06466517e-38
-0.05319357291 -0.4633094966 -0.2854587436 2.06466517e-38
-0.163579911 -0.4036796689 0.311602354 2.06466517e-38
-0.1603927761 -0.2694886625 0.297455132 2.06466517e-38
-0.1577952951 -0.2249013186 0.3147284389 2.06466517e-38
-0.1531327516 -0.3255237341 0.3191305995 2.06466517e-38
-0.1536829621 -0.40110448 0.3153842092 2.06466517e-38
-0.148933664 -0.2572001517 0.2991455197 2.06466517e-38
-0.1466089785 -0.2296357453 0.3220250607 2.06466517e-38
-0.145197317 -0.3107070625 0.3232192993 2.06466517e-38
0.03985496238 -0.4639063179 0.1420654207 2.06466517e-38
0.04753908515 -0.4138723314 0.1341549605 2.06466517e-38
0.04309203476 -0.366307795 0.1501083523 2.06466517e-38
0.04935344681 -0.430224359 0.1532662511 2.06466517e-38
0.2619046867 -0.4090695679 0.09244629741 2.06466517e-38
0.2509177923 -0.3749369085 0.07130396366 2.06466517e-38
0.2906621993 -0.3702929616 0.08937594295 2.06466517e-38
0.2673038542 -0.3784986436 0.1171066016 2.06466517e-38
0.264397651 -0.4896090031 -0.0622369349 2.06466517e-38
0.2494373471 -0.4889852703 -0.1429576278 2.06466517e-38
0.3435342312 -0.4863212407 -0.0227698423 2.06466517e-38
0.3036943078 -0.4891511202 0.06563700736 2.06466517e-38
0.1787966639 -0.4908359647 -0.2609111369 2.06466517e-38
0.1127703711 -0.4906603098 -0.2702863812 2.06466517e-38
0.2537227571 -0.4886380136 -0.1961647272 2.06466517e-38
0.1894667894 -0.4887255132 -0.1032156348 2.06466517e-38
0.2946714163 -0.4907177389 -0.1242859438 2.06466517e-38
0.2636201382 -0.4894670844 -0.1799585968 2.06466517e-38
0.3534036875 -0.4868099988 -0.05918131396 2.06466517e-38
0.3208138943 -0.489980787 0.02485126629 2.06466517e-38
0.2996590137 -0.3256376088 0.09473624825 2.06466517e-38
0.2937794924 -0.2944297194 0.07003413141 2.06466517e-38
0.3170598745 -0.2876344323 0.08931873739 2.06466517e-38
0.2967834771 -0.3016340733 0.1137968153 2.06466517e-38
-0.08463293314 -0.4437980056 0.2111297399 2.06466517e-38
-0.08672125638 -0.394059509 0.1768136173 2.06466517e-38
-0.08029071987 -0.3658616543 0.2175056785 2.06466517e-38
-0.08644011617 -0.4016204476 0.2356254011 2.06466517e-38
0.2444292605 -0.4902008474 -0.1964233816 2.06466517e-38
0.1733681113 -0.4896496832 -0.2199001312 2.06466517e-38
0.3137835264 -0.4872337282 -0.1211526841 2.06466517e-38
0.2652646303 -0.4885828495 -0.02764285915 2.06466517e-38
-0.1164665818 -0.4757378101 -0.2792462111 2.06466517e-38
-0.1247281581 -0.4608088136 -0.2926976085 2.06466517e-38
-0.1122190654 -0.4192486107 -0.2605136931 2.06466517e-38
-0.1192780584 -0.4778903127 -0.2120047063 2.06466517e-38
0.2130950987 -0.4528210163 0.09325912595 2.06466517e-38
0.1977946609 -0.3950529099 0.08195023984 2.06466517e-38
0.2325253785 -0.3765609264 0.09730151296 2.06466517e-38
0.223421514 -0.4059126675 0.1071183681 2.06466517e-38
0.08892288804 -0.4510468543 0.08938041329 2.06466517e-38
0.0846221298 -0.4050831199 0.07262900472 2.06466517e-38
0.109611854 -0.3872410655 0.08912511915 2.06466517e-38
0.09731846303 -0.4100626707 0.1070694774 2.06466517e-38
-0.1407607943 -0.3394215703 -0.3569195271 2.06466517e-38
-0.1452695727 -0.2147127539 -0.3658718467 2.06466517e-38
-0.1324361861 -0.2007037401 -0.3509811759 2.06466517e-38
-0.1336185634 -0.2420962751 -0.346783936 2.06466517e-38
-0.1522790641 -0.4571398199 0.2139428407 2.06466517e-38
-0.1476528496 -0.3884329796 0.1857693642 2.06466517e-38
-0.1516231 -0.346082896 0.2225321084 2.06466517e-38
-0.1470156014 -0.4118520021 0.2372625023 2.06466517e-38
-0.009336981922 -0.4555163682 0.184770599 2.06466517e-38
-0.009385000914 -0.3549798131 0.1811006069 2.06466517e-38
-0.01111325249 -0.2807664871 0.1920852363 2.06466517e-38
-0.006180491298 -0.401251018 0.1949415058 2.06466517e-38
-0.1237658709 -0.4691419303 -0.1222817004 2.06466517e-38
-0.1236470938 -0.4161779284 -0.150397718 2.06466517e-38
-0.1239036918 -0.3572611213 -0.1063430756 2.06466517e-38
-0.1287354827 -0.4346200824 -0.07544539869 2.06466517e-38
-0.1515925676 -0.4687937796 0.05438300967 2.06466517e-38
-0.1447769552 -0.4205971062 -0.00561397709 2.06466517e-38
-0.1513614058 -0.3483091891 0.08982186764 2.06466517e-38
-0.1471788734 -0.4383281171 0.1426561028 2.06466517e-38
-0.1498947293 -0.4562436044 0.2009267211 2.06466517e-38
-0.1486366838 -0.3528410196 0.1523697972 2.06466517e-38
-0.1537235677 -0.2598959506 0.2277147621 2.06466517e-38
-0.1503871083 -0.4002981782 0.253305614 2.06466517e-38
-0.1533676684 -0.3526888788 0.3084689379 2.06466517e-38
-0.1500905603 -0.228113234 0.2889188528 2.06466517e-38
-0.1493847221 -0.2146010846 0.3121910691 2.06466517e-38
-0.1485463977 -0.2770182788 0.3145977259 2.06466517e-38
0.0656035617 -0.4878909886 -0.3282904029 2.06466517e-38
-0.001376345754 -0.4884853661 -0.3131089807 2.06466517e-38
0.1615997106 -0.4858100414 -0.2669240832 2.06466517e-38
0.07168187201 -0.4879222512 -0.1423457265 2.06466517e-38
0.1673307568 -0.350366056 -0.2861799002 2.06466517e-38
0.1465585679 -0.3226135969 -0.2909244895 2.06466517e-38
0.179961592 -0.3181081712 -0.2718373537 2.06466517e-38
0.1696183681 -0.322892338 -0.2558973432 2.06466517e-38
0.1587262303 -0.4243828058 0.1009523124 2.06466517e-38
0.1545593888 -0.3771757185 0.07647418976 2.06466517e-38
0.1772919148 -0.3623008728 0.1012516022 2.06466517e-38
0.1621230394 -0.3842318952 0.1188531667 2.06466517e-38
-0.0838534385 -0.4868896604 -0.3911376595 2.06466517e-38
-0.127332747 -0.4874412715 -0.3785226941 2.06466517e-38
-0.02666230872 -0.4864014089 -0.3649438024 2.06466517e-38
-0.1128502935 -0.4887360036 -0.2614525557 2.06466517e-38
-0.06758312881 -0.4870557785 -0.3020742536 2.06466517e-38
-0.1325541139 -0.4884426594 -0.2778909206 2.06466517e-38
0.006100326777 -0.486073643 -0.2457721978 2.06466517e-38
-0.09220615029 -0.4880637527 -0.1544575989 2.06466517e-38
0.04667639732 -0.4711689651 -0.2512969971 2.06466517e-38
0.01899724826 -0.4520981908 -0.2502582371 2.06466517e-38
0.05809223279 -0.4271973968 -0.2336160541 2.06466517e-38
0.05495598912 -0.4548710585 -0.2145930827 2.06466517e-38
-0.1251126826 -0.4372494519 -0.3077596426 2.06466517e-38
-0.1316717267 -0.3662861586 -0.3195343614 2.06466517e-38
-0.1227339506 -0.3263735771 -0.2954586148 2.06466517e-38
-0.1215190738 -0.3907696605 -0.2903528214 2.06466517e-38
-0.1366239488 -0.4484467208 -0.3225687742 2.06466517e-38
-0.1395925581 -0.3642782569 -0.316095531 2.06466517e-38
-0.1330181062 -0.3038670421 -0.3058925271 2.06466517e-38
-0.1308905333 -0.406011045 -0.3002164364 2.06466517e-38
-0.1133563817 -0.4858829081 0.2612237334 2.06466517e-38
-0.0941914618 -0.4866505563 0.1525461972 2.06466517e-38
-0.008867178112 -0.4814543128 0.2509613037 2.06466517e-38
-0.05555632338 -0.4827144444 0.3094177246 2.06466517e-38
-0.1350773722 -0.4410862625 -0.3508805633 2.348204041e-38
-0.1449674368 -0.3397221863 -0.3524675369 2.348204041e-38
-0.1325363815 -0.2797345221 -0.3481224775 2.348204041e-38
-0.1359229237 -0.3791425824 -0.3501793742 2.348204041e-38
0.1661396772 -0.419529438 0.1363103539 2.348204041e-38
0.1591569334 -0.3759969771 0.1133435518 2.348204041e-38
0.1837188601 -0.3608273864 0.1362473667 2.348204041e-38
0.1658272743 -0.378174156 0.1597279459 2.348204041e-38
-0.1171369106 -0.4849907458 0.2926619053 2.348204041e-38
-0.09348291159 -0.4865208268 0.1583815217 2.348204041e-38
-0.005969397724 -0.4810830355 0.2734906673 2.348204041e-38
-0.05689863488 -0.482713908 0.3346569538 2.348204041e-38
0.1689323932 -0.4874701798 0.06544253975 2.348204041e-38
0.1862147748 -0.4883660078 -0.03259864822 2.348204041e-38
0.3033695519 -0.4835092425 0.02739254385 2.348204041e-38
0.2523403764 -0.4871467948 0.1243406832 2.348204041e-38
0.03255237639 -0.3568379581 0.2982816696 2.348204041e-38
0.03535966575 -0.2843569815 0.2836214304 2.348204041e-38
0.03732150048 -0.2583315372 0.3000484109 2.348204041e-38
0.03008808754 -0.3062624633 0.3143084049 2.348204041e-38
-0.1162094623 -0.3350150287 -0.3633189201 2.348204041e-38
-0.1316891909 -0.246702373 -0.3606523871 2.348204041e-38
-0.1081387401 -0.2384604812 -0.3579897285 2.348204041e-38
-0.1173907965 -0.2711342573 -0.3509252667 2.348204041e-38
0.2018023282 -0.4375843406 0.09701603651 2.348204041e-38
0.186892733 -0.3833404779 0.07596597821 2.348204041e-38
0.2229432762 -0.3720860183 0.09496791661 2.348204041e-38
0.20639503 -0.3879752755 0.1142767668 2.348204041e-38
0.02979163826 -0.3826491535 0.140103668 2.348204041e-38
0.02793749236 -0.3222219646 0.1256654561 2.348204041e-38
0.03883549571 -0.3060383797 0.141154319 2.348204041e-38
0.03126169369 -0.3384636045 0.1547875702 2.348204041e-38
0.07880374789 -0.3712801039 -0.3151392937 2.348204041e-38
0.0441194661 -0.3196102083 -0.3110803962 2.348204041e-38
0.09643297642 -0.3189918697 -0.311054945 2.348204041e-38
0.08245112747 -0.32815063 -0.2993247509 2.348204041e-38
-0.004916697741 -0.4869389534 0.2205091864 2.348204041e-38
0.04313381389 -0.4869022667 0.07253692299 2.348204041e-38
0.1449238956 -0.4826689363 0.1800756902 2.348204041e-38
0.08349663764 -0.4854861796 0.2653960586 2.348204041e-38
-0.1486361027 -0.3787375391 -0.3337603211 2.348204041e-38
-0.1533918083 -0.2201722115 -0.3363988996 2.348204041e-38
-0.143113941 -0.2019992918 -0.3277032971 2.348204041e-38
-0.1432081014 -0.2661062479 -0.326774776 2.348204041e-38
0.1752953529 -0.3584981859 0.2162882239 2.348204041e-38
0.1614932865 -0.3117564321 0.2037163973 2.348204041e-38
0.1902650446 -0.3066888154 0.2142361701 2.348204041e-38
0.1734543592 -0.3263345957 0.2302085906 2.348204041e-38
0.04346342757 -0.4346829951 0.1424459666 2.348204041e-38
0.03937968612 -0.39150545 0.1208031625 2.348204041e-38
0.05969717354 -0.3695331216 0.1389493048 2.348204041e-38
0.05104983225 -0.3929366469 0.1604786217 2.348204041e-38
-0.1007483155 -0.3254075348 0.3027555943 2.348204041e-38
-0.09841921926 -0.2963352501 0.2805877328 2.348204041e-38
-0.08850164711 -0.2931254804 0.3108257651 2.348204041e-38
-0.1007832587 -0.3087864518 0.3217967153 2.348204041e-38
0.02910422161 -0.4886682034 0.2131107897 2.348204041e-38
0.07802452892 -0.4893989563 0.06243038923 2.348204041e-38
0.2008820474 -0.4832036793 0.1550286263 2.348204041e-38
0.1400324851 -0.4855715334 0.2466831356 2.348204041e-38
0.01745279878 -0.3564576507 0.3165610433 2.348204041e-38
0.01500747725 -0.2920909822 0.3093136549 2.348204041e-38
0.01906020194 -0.2587665915 0.3214401603 2.348204041e-38
0.01686979085 -0.3122845888 0.3274119496 2.348204041e-38
0.04098898917 -0.3745152056 -0.2842656374 2.348204041e-38
0.01746439561 -0.3447519839 -0.2883016467 2.348204041e-38
0.06672298163 -0.3428928256 -0.2770754099 2.348204041e-38
0.03987392411 -0.3522413671 -0.2597966194 2.348204041e-38
0.1992835104 -0.4886829257 -0.02876032889 2.348204041e-38
0.2090935707 -0.4888534248 -0.124585107 2.348204041e-38
0.2847785652 -0.4857254922 -0.01823140681 2.348204041e-38
0.2598707676 -0.4883116484 0.06569455564 2.348204041e-38
0.05643187463 -0.4465558231 0.1084734946 2.348204041e-38
0.05654016882 -0.3966366649 0.08841817081 2.348204041e-38
0.06812730432 -0.3700094819 0.1083274335 2.348204041e-38
0.06452552229 -0.4028920531 0.1216130108 2.348204041e-38
-0.1409038603 -0.4422751665 0.2427587062 2.348204041e-38
-0.1356423646 -0.3666366041 0.2155746818 2.348204041e-38
-0.1433315724 -0.3274028003 0.2487024516 2.348204041e-38
-0.1411145926 -0.3916603029 0.260127604 2.348204041e-38
0.03511178493 -0.4889837205 -0.3526851535 2.348204041e-38
-0.05269252136 -0.4882638156 -0.3209449649 2.348204041e-38
0.140094012 -0.4856358171 -0.2958959341 2.348204041e-38
0.05043077841 -0.4885049164 -0.1938712746 2.348204041e-38
-0.08302116394 -0.4868039787 0.3035656214 2.348204041e-38
-0.06771333516 -0.4862507284 0.1923506111 2.348204041e-38
0.08567743003 -0.4819423258 0.2707431912 2.348204041e-38
0.01209143177 -0.4847617149 0.325568676 2.348204041e-38
-0.08569197357 -0.430018276 -0.3199817538 2.348204041e-38
-0.1081650108 -0.3637657166 -0.321379602 2.348204041e-38
-0.07744635642 -0.3399278522 -0.3157080412 2.348204041e-38
-0.08281026781 -0.3764129281 -0.3041093946 2.348204041e-38
-0.08954167366 -0.423489511 -0.3367508054 2.348204041e-38
-0.1062930375 -0.3532080352 -0.3377630711 2.348204041e-38
-0.07246126235 -0.3439222574 -0.3318879604 2.348204041e-38
-0.08361808956 -0.3733151555 -0.3274014592 2.348204041e-38
0.1396980882 -0.4126555622 0.1036536694 2.348204041e-38
0.130400613 -0.3621775806 0.08416784555 2.348204041e-38
0.1633931994 -0.3564730585 0.1036199033 2.348204041e-38
0.1419276595 -0.3698115349 0.1253224313 2.348204041e-38
0.3083577752 -0.3216563165 0.08398313075 2.348204041e-38
0.2950215638 -0.2896111906 0.06507496536 2.348204041e-38
0.3192082942 -0.2821859419 0.07936745137 2.348204041e-38
0.3018235266 -0.2960387766 0.09663152695 2.348204041e-38
0.1166629195 -0.3947798312 -0.2708095908 2.348204041e-38
0.08846837282 -0.3549265862 -0.2712863982 2.348204041e-38
0.1329619288 -0.3500609696 -0.2635947466 2.348204041e-38
0.1070786268 -0.3606402874 -0.2418179214 2.348204041e-38
0.1622742862 -0.4885526001 -0.01643371582 2.348204041e-38
0.1506998688 -0.4885491729 -0.1312512159 2.348204041e-38
0.2900640965 -0.484595865 -0.0299256146 2.348204041e-38
0.2372243851 -0.4880292714 0.07632472366 2.348204041e-38
-0.1431580484 -0.3101164401 0.3008090258 2.348204041e-38
-0.1413835436 -0.2579300106 0.2761099935 2.348204041e-38
-0.140101999 -0.2419990152 0.3037013412 2.348204041e-38
-0.1431972235 -0.2754351497 0.3142718673 2.348204041e-38
-0.08460877836 -0.4591409862 -0.2035399079 2.348204041e-38
-0.09713558853 -0.4080433249 -0.2120310366 2.348204041e-38
-0.08633571863 -0.373940438 -0.1987300366 2.348204041e-38
-0.0866137445 -0.4219689369 -0.1918178499 2.348204041e-38
0.2952995598 -0.3246718347 0.09400299191 2.348204041e-38
0.2839529812 -0.2950659394 0.07418952882 2.348204041e-38
0.3076845109 -0.2871970236 0.09152176976 2.348204041e-38
0.2904745936 -0.3009340763 0.1136365086 2.348204041e-38
0.0323658213 -0.2629221976 -0.2384128571 2.348204041e-38
0.01033620164 -0.223908022 -0.2398969084 2.348204041e-38
0.03851939738 -0.210142225 -0.2315528989 2.348204041e-38
0.02595525607 -0.2334776521 -0.2210256457 2.348204041e-38
0.15049164 -0.4896956086 -0.2122928649 2.346801622e-38
0.08165629208 -0.4898596704 -0.2174771428 2.346801622e-38
0.228314355 -0.4873707891 -0.1359658241 2.346801622e-38
0.1655287743 -0.4884296656 -0.04574861005 2.346801622e-38
-0.1469659954 -0.4431334138 0.2283899039 2.346801622e-38
-0.1469972581 -0.3631554246 0.210960269 2.346801622e-38
-0.1536425948 -0.3235459328 0.2371771187 2.346801622e-38
-0.1511785388 -0.3884018958 0.2443448454 2.346801622e-38
0.01265918836 -0.4866396487 0.1815768182 2.346801622e-38
0.06390374154 -0.4878044724 0.03828626871 2.346801622e-38
0.1523670554 -0.4837191105 0.1406197548 2.346801622e-38
0.09297835827 -0.4863237739 0.2396210581 2.346801622e-38
0.1396405101 -0.3980907202 0.08068811893 2.346801622e-38
0.1313198805 -0.3624398708 0.06004733592 2.346801622e-38
0.1603833884 -0.3544594049 0.07912565768 2.346801622e-38
0.1463249624 -0.3638561368 0.09757886827 2.346801622e-38
-0.1353883147 -0.4279677868 0.1674433947 2.346801622e-38
-0.1332333386 -0.3206957579 0.1180244088 2.346801622e-38
-0.1361256838 -0.2585649192 0.1897525936 2.346801622e-38
-0.136384517 -0.3490917683 0.2122288048 2.346801622e-38
-0.004253331572 -0.4297407269 0.2171262652 2.346801622e-38
-0.004392161965 -0.3661397994 0.2062858343 2.346801622e-38
-0.004983916879 -0.3262377977 0.2207589298 2.346801622e-38
0.0007365830243 -0.3870730698 0.2270990461 2.346801622e-38
-0.146324411 -0.3603623807 0.2957620025 2.346801622e-38
-0.1420930624 -0.2757528126 0.2820583582 2.346801622e-38
-0.1491349488 -0.2405762672 0.3030877709 2.346801622e-38
-0.13894324 -0.3120666146 0.3056579232 2.346801622e-38
-0.09170800447 -0.3331282437 -0.3020746708 2.346801622e-38
-0.1024987102 -0.2198322564 -0.3098329902 2.346801622e-38
-0.09033122659 -0.1989475638 -0.2926155329 2.346801622e-38
-0.09010069072 -0.2514053881 -0.2945343256 2.346801622e-38
-0.02817094699 -0.4892343879 -0.3528074622 2.346801622e-38
-0.1008207947 -0.4888842702 -0.3353000879 2.346801622e-38
0.05351638421 -0.4870463908 -0.3310889006 2.346801622e-38
-0.03545747325 -0.4895910025 -0.2635651827 2.346801622e-38
0.05633796379 -0.3842850327 -0.2901318669 2.346801622e-38
0.02985989675 -0.3332168758 -0.2913118005 2.346801622e-38
0.07880390435 -0.3284252584 -0.2820698321 2.346801622e-38
0.06494341046 -0.3411899209 -0.2698719501 2.346801622e-38
-0.1134056151 -0.4414052963 -0.3060440421 2.346801622e-38
-0.1269422621 -0.3756259978 -0.3072453737 2.346801622e-38
-0.1069119871 -0.3436384201 -0.3008178473 2.346801622e-38
-0.1076239347 -0.3961886466 -0.2945263386 2.346801622e-38
0.02192911133 -0.3610168993 0.2921314836 2.346801622e-38
0.02390900441 -0.2600840032 0.2846643925 2.346801622e-38
0.02521510236 -0.2248874009 0.2983373404 2.346801622e-38
0.02612829395 -0.2929571271 0.2972354293 2.346801622e-38
0.1575042456 -0.343945086 0.1454019547 2.346801622e-38
0.1509728283 -0.3086779714 0.1197945029 2.346801622e-38
0.1772692353 -0.3111892939 0.1399372369 2.346801622e-38
0.1543335766 -0.3172535896 0.1637693793 2.346801622e-38
0.112884894 -0.3748322725 -0.2535892129 2.346801622e-38
0.0946945399 -0.3295804262 -0.267180115 2.346801622e-38
0.1224969923 -0.3225233853 -0.2486233562 2.346801622e-38
0.1046872139 -0.3397425115 -0.2243018001 2.346801622e-38
0.103830263 -0.4216017425 0.1388988197 2.346801622e-38
0.1021585464 -0.3778028488 0.1158808023 2.346801622e-38
0.1155364662 -0.3543004096 0.1389306784 2.346801622e-38
0.103520453 -0.3816799521 0.1551598012 2.346801622e-38
-0.1646792442 -0.440523535 -0.3210670948 2.346801622e-38
-0.1625695974 -0.2755488455 -0.3175287247 2.346801622e-38
-0.1550906748 -0.1952793151 -0.3127245903 2.346801622e-38
-0.1549100876 -0.3468602896 -0.31822294 2.346801622e-38
0.1870304495 -0.4886910319 -0.07559247315 2.346801622e-38
0.1719762087 -0.4897166491 -0.1365099251 2.346801622e-38
0.2623644769 -0.4864297509 -0.0386544764 2.346801622e-38
0.2119697928 -0.4881978035 0.03630339354 2.346801622e-38
0.08385506272 -0.3771410882 -0.2483959347 2.346801622e-38
0.06290689111 -0.3394603431 -0.2529129684 2.346801622e-38
0.09244564176 -0.3306829035 -0.2409479022 2.346801622e-38
0.08160898089 -0.3475513458 -0.2263252586 2.346801622e-38
0.03820871562 -0.3726976812 0.2001513541 2.346801622e-38
0.04509849101 -0.2748372257 0.1815322042 2.346801622e-38
0.03731511533 -0.2379821539 0.2050596178 2.346801622e-38
0.04270105809 -0.2993429303 0.2211054415 2.346801622e-38
0.05324416608 -0.4886578023 -0.2963616252 2.346801622e-38
-0.00294829905 -0.4892941117 -0.2843689919 2.346801622e-38
0.1357139349 -0.4866153002 -0.2364465445 2.346801622e-38
0.05010049418 -0.4874413908 -0.1279502809 2.346801622e-38
0.1205431521 -0.3322745264 0.1424516439 2.346801622e-38
0.1247454882 -0.2916810513 0.1242125481 2.346801622e-38
0.1319858432 -0.2721710503 0.1422682256 2.346801622e-38
0.126184687 -0.3034995198 0.1525283903 2.346801622e-38
-0.1622161418 -0.3544201553 -0.3049591184 2.346801622e-38
-0.1646430343 -0.2275922745 -0.3075003028 2.346801622e-38
-0.1563867331 -0.2258547097 -0.2892764211 2.346801622e-38
-0.1603730768 -0.2599876225 -0.2872155309 2.346801622e-38
0.05328127369 -0.4183258712 -0.2713234723 2.346801622e-38
0.03518945724 -0.3427905738 -0.2735708058 2.346801622e-38
0.0576749593 -0.3165571392 -0.2675618231 2.346801622e-38
0.06090885028 -0.3652812839 -0.2682471871 2.346801622e-38
0.009380638599 -0.4873935878 0.1191395372 2.346801622e-38
0.05035774782 -0.4878564775 -0.009725062177 2.346801622e-38
0.1349098831 -0.4834178984 0.08437868953 2.346801622e-38
0.097601749 -0.4881928563 0.1746463627 2.346801622e-38
-0.1183954775 -0.3731619716 -0.3176449537 2.346801622e-38
-0.1252440661 -0.2508348823 -0.3206748962 2.346801622e-38
-0.1194903553 -0.2250265032 -0.3065695763 2.346801622e-38
-0.1194955409 -0.2876967788 -0.3034214377 2.346801622e-38
-0.05405805632 -0.3499439061 0.1759542376 2.346801622e-38
-0.049527172 -0.2551617324 0.1597933471 2.346801622e-38
-0.05252327397 -0.232046783 0.1832083315 2.346801622e-38
-0.04897173867 -0.2825974226 0.1940652132 2.346801622e-38
0.03737526387 -0.3808701336 -0.2937008739 2.346801622e-38
0.01056830958 -0.3410412669 -0.2932427526 2.346801622e-38
0.06332459301 -0.3414646089 -0.28860569 2.346801622e-38
0.03944477811 -0.348718375 -0.2738424838 2.346801622e-38
0.1304025948 -0.4887493253 -0.1485951543 2.346801622e-38
0.08993677795 -0.4883542359 -0.183579281 2.346801622e-38
0.213604033 -0.4866903126 -0.09439921379 2.346801622e-38
0.1499389857 -0.4882452786 -0.01695812121 2.346801622e-38
0.06413957477 -0.3526054323 0.2195418328 2.346801622e-38
0.05144633353 -0.3098723292 0.2111144513 2.346801622e-38
0.08305762708 -0.2994968295 0.2203602046 2.346801622e-38
0.06822157651 -0.3233786225 0.233239308 2.346801622e-38
-0.07537283003 -0.4536344409 0.2240002304 2.346801622e-38
-0.07161173224 -0.3834274709 0.2025924176 2.346801622e-38
-0.07274587452 -0.3334378302 0.231165722 2.346801622e-38
-0.07318751514 -0.4084894955 0.2471893579 2.346801622e-38
-0.05643479154 -0.2600195706 -0.02632720023 2.346801622e-38
-0.05780013278 -0.2162631303 -0.04344163463 2.346801622e-38
-0.05308439955 -0.2052953094 -0.01721536182 2.346801622e-38
-0.06299601495 -0.2256521434 0.0007311291993 2.346801622e-38
-0.06175637618 -0.3353691995 0.1852732301 2.346801622e-38
-0.06003994122 -0.2265458256 0.1567993015 2.346801622e-38
-0.06019758061 -0.203379035 0.1916344911 2.346801622e-38
-0.06121566519 -0.2538007796 0.2077750266 2.346801622e-38
-0.09155765176 -0.2983753979 -0.01707325876 2.345219836e-38
-0.09264048934 -0.233201772 -0.03104544245 2.345219836e-38
-0.08553035557 -0.21691899 -0.007435165346 2.345219836e-38
-0.09540531039 -0.248937279 0.003294311464 2.345219836e-38
-0.03805519268 -0.4883406162 -0.3461017609 2.345219836e-38
-0.1003692746 -0.4887372851 -0.3240286708 2.345219836e-38
0.01802664995 -0.4867224395 -0.3059810996 2.345219836e-38
-0.06053933874 -0.4889667332 -0.2209229022 2.345219836e-38
-0.03789911047 -0.3663416207 0.1731631607 2.345219836e-38
-0.0317167826 -0.253041029 0.1654100865 2.345219836e-38
-0.03617739305 -0.201047495 0.1790990978 2.345219836e-38
-0.03603972122 -0.2890352607 0.184734717 2.345219836e-38
0.08567809314 -0.487511754 -0.2442930341 2.345219836e-38
0.0281034559 -0.4892785847 -0.2374533415 2.345219836e-38
0.1694482267 -0.4862191081 -0.1921434551 2.345219836e-38
0.0900542289 -0.4875868261 -0.09364832938 2.345219836e-38
-0.06794457138 -0.2991501987 0.0178941898 2.345219836e-38
-0.06812697649 -0.2273123115 0.009445395321 2.345219836e-38
-0.06433428824 -0.1966318786 0.02894113213 2.345219836e-38
-0.06678768992 -0.2561149001 0.02485945076 2.345219836e-38
-0.1640477777 -0.4065421224 0.278945446 2.345219836e-38
-0.1622368842 -0.281399399 0.2549886703 2.345219836e-38
-0.1639162749 -0.2147947699 0.2883572578 2.345219836e-38
-0.1611954421 -0.3311679065 0.2938038111 2.345219836e-38
0.1086566746 -0.4893060923 -0.2218125015 2.345219836e-38
0.04835070297 -0.4903939366 -0.2222538739 2.345219836e-38
0.1777440608 -0.4869868159 -0.157486245 2.345219836e-38
0.1156314015 -0.4881051779 -0.06690426916 2.345219836e-38
0.04468553513 -0.4870263338 0.02864419296 2.345219836e-38
0.06240057945 -0.4874582291 -0.06251092255 2.345219836e-38
0.1412629485 -0.4843375385 0.01243399829 2.345219836e-38
0.1083948016 -0.4853492975 0.09242218733 2.345219836e-38
0.003793127835 -0.4207369089 0.1717390716 2.345219836e-38
-9.815394878e-05 -0.2803609669 0.1648442745 2.345219836e-38
0.003935411572 -0.225494951 0.1722571254 2.345219836e-38
0.01071105525 -0.3395730555 0.1760585755 2.345219836e-38
-0.08368468285 -0.4065568149 0.1815502048 2.345219836e-38
-0.07941755652 -0.2816723287 0.1723794788 2.345219836e-38
-0.07675099373 -0.2220680267 0.188130334 2.345219836e-38
-0.07814899087 -0.3246847093 0.1912404597 2.345219836e-38
-0.07796436548 -0.2782865763 -0.03654561192 2.345219836e-38
-0.08211253583 -0.2177331448 -0.05044015124 2.345219836e-38
-0.06970621645 -0.2093557417 -0.02769948542 2.345219836e-38
-0.08268395066 -0.2352784723 -0.01694711484 2.345219836e-38
-0.04498020187 -0.4264541864 0.009937100112 2.345219836e-38
-0.04770735279 -0.3391778767 0.002685807645 2.345219836e-38
-0.04548247531 -0.3017285168 0.02087650076 2.345219836e-38
-0.05175156519 -0.3690388203 0.01904992014 2.345219836e-38
-0.1243901253 -0.4404805899 -0.06937903166 2.345219836e-38
-0.127376467 -0.3495379984 -0.08727305382 2.345219836e-38
-0.1218503416 -0.3067420125 -0.06261754036 2.345219836e-38
-0.1352208555 -0.3782565594 -0.05976805091 2.345219836e-38
0.03656664491 -0.4096225202 -0.24664855 2.345219836e-38
0.01894697919 -0.3485313058 -0.2472871095 2.345219836e-38
0.05693940818 -0.3359242678 -0.2427413762 2.345219836e-38
0.05042137206 -0.3626054525 -0.2378464341 2.345219836e-38
-0.1560161263 -0.4265045822 0.1566681266 2.345219836e-38
-0.1577200592 -0.3123775423 0.1202358902 2.345219836e-38
-0.158627212 -0.232030347 0.1678666174 2.345219836e-38
-0.1566205621 -0.3480956554 0.1894575655 2.345219836e-38
-0.1581166089 -0.4235689044 -0.292658329 2.345219836e-38
-0.1585164815 -0.2672436237 -0.2910449505 2.345219836e-38
-0.1479094326 -0.199258849 -0.2858457565 2.345219836e-38
-0.1524534672 -0.3257662952 -0.2879380584 2.345219836e-38
0.09669295698 -0.4892910123 -0.1983611882 2.345219836e-38
0.02526216023 -0.4894515574 -0.2114794552 2.345219836e-38
0.1792786419 -0.4859750867 -0.1396969855 2.345219836e-38
0.09529101104 -0.4879128337 -0.05658911169 2.345219836e-38
0.103603825 -0.4895726144 -0.01580133475 2.345219836e-38
0.1070162877 -0.4890212715 -0.1189322919 2.345219836e-38
0.1962635964 -0.4860587716 -0.01007260382 2.345219836e-38
0.1461659074 -0.4881211817 0.07563459873 2.345219836e-38
-0.1322070062 -0.3064186573 -0.2673003674 2.345219836e-38
-0.1380417794 -0.2378994375 -0.2799168229 2.345219836e-38
-0.1282533258 -0.2262212038 -0.2637424171 2.345219836e-38
-0.1403704435 -0.2551540434 -0.253983438 2.345219836e-38
-0.07933475077 -0.4058715701 0.1834013462 2.345219836e-38
-0.07192583382 -0.2659894526 0.17893143 2.345219836e-38
-0.07344029844 -0.1949247867 0.1886530817 2.345219836e-38
-0.07620562613 -0.3223615289 0.1947834045 2.345219836e-38
-0.08555902541 -0.3040046394 0.1781579703 2.345219836e-38
-0.09133782983 -0.2037409693 0.1670044959 2.345219836e-38
-0.07415162027 -0.2032091618 0.1861716211 2.345219836e-38
-0.08594946563 -0.2334349453 0.1877844036 2.345219836e-38
0.02720507793 -0.488373071 -0.03132659197 2.345219836e-38
0.03094993904 -0.4903597832 -0.1186671257 2.345219836e-38
0.1467943341 -0.4852949679 -0.04334042966 2.345219836e-38
0.08902975172 -0.4876898527 0.03838779032 2.345219836e-38
-0.1199345738 -0.4135557413 0.1843322664 2.345219836e-38
-0.1173394173 -0.2627167106 0.1738091707 2.345219836e-38
-0.1184372008 -0.1963329315 0.1882382929 2.345219836e-38
-0.1184761375 -0.3254170716 0.1920834631 2.345219836e-38
-0.1489091069 -0.422637403 -0.09975675493 2.345219836e-38
-0.1515597105 -0.3349871337 -0.1198999062 2.345219836e-38
-0.1441107988 -0.2949628532 -0.08832682669 2.345219836e-38
-0.1543398201 -0.3567127883 -0.08464901149 2.345219836e-38
-0.06690813601 -0.4209744036 -0.03567652777 2.345219836e-38
-0.06932033598 -0.3360779583 -0.04615822062 2.345219836e-38
-0.06937637925 -0.3013502359 -0.02596998587 2.345219836e-38
-0.07164120674 -0.362239629 -0.02110028267 2.345219836e-38
-0.1381734461 -0.3551942706 0.2624908686 2.345219836e-38
-0.1376758367 -0.2501612902 0.2452033609 2.345219836e-38
-0.1352869272 -0.2065451145 0.2754670978 2.345219836e-38
-0.1373181194 -0.2850371897 0.2766168714 2.345219836e-38
0.06513568759 -0.4879603386 -0.1300795078 2.345219836e-38
0.03659083694 -0.4882061481 -0.1817116588 2.345219836e-38
0.1638990343 -0.4855730832 -0.1007396728 2.345219836e-38
0.103667289 -0.4876970053 0.01202637702 2.345219836e-38
-0.1123452038 -0.4102574587 -0.3073890805 2.345219836e-38
-0.1174544394 -0.290486455 -0.312983036 2.345219836e-38
-0.1144105941 -0.2507810295 -0.2996215224 2.345219836e-38
-0.1145740151 -0.3294084072 -0.2916235924 2.345219836e-38
-0.05443317816 -0.4864651561 0.09996363521 2.345219836e-38
-0.02735143527 -0.4868647456 -0.02186417207 2.345219836e-38
0.08460026979 -0.4828363657 0.07704313099 2.345219836e-38
0.02771197259 -0.4860918224 0.1637932658 2.345219836e-38
0.07495991141 -0.3384586871 0.1282038689 2.345219836e-38
0.07884312421 -0.2950673699 0.1109030694 2.345219836e-38
0.08388129622 -0.283739686 0.1237744242 2.345219836e-38
0.07525146008 -0.3093772531 0.1341163069 2.345219836e-38
0.0200718753 -0.3825552464 -0.2410684824 2.345219836e-38
0.01469175145 -0.31792593 -0.2457730472 2.345219836e-38
0.02928592451 -0.2982759178 -0.2397304028 2.345219836e-38
0.01868730038 -0.3331702352 -0.2343678921 2.345219836e-38
0.06166251749 -0.4872332513 -0.07163134962 2.345219836e-38
0.04372256994 -0.4870649874 -0.1500287056 2.345219836e-38
0.1514557749 -0.4843885601 -0.0554789342 2.345219836e-38
0.08759666234 -0.4867069721 0.03488399833 2.345219836e-38
-0.1416395605 -0.3463410437 -0.2808872163 2.343458544e-38
-0.1449907571 -0.2293841094 -0.2893747687 2.343458544e-38
-0.1291851997 -0.2214637548 -0.2732875049 2.343458544e-38
-0.1349749714 -0.2615980804 -0.2679224312 2.343458544e-38
-0.1533904225 -0.3605111837 0.2390816063 2.343458544e-38
-0.1548245847 -0.2899749577 0.2110928148 2.343458544e-38
-0.155446887 -0.2504258454 0.2521077991 2.343458544e-38
-0.1551295519 -0.3059946299 0.2602069974 2.343458544e-38
-0.08232690394 -0.3182303607 -0.04738406092 2.343458544e-38
-0.08436273038 -0.2605957091 -0.0583165139 2.343458544e-38
-0.08080029488 -0.2344291359 -0.04101777449 2.343458544e-38
-0.08501300216 -0.2763171494 -0.03799190372 2.343458544e-38
-0.152794525 -0.4843080342 0.1876231879 2.343458544e-38
-0.1227296442 -0.4859095216 0.07108745724 2.343458544e-38
-0.05869286135 -0.480399698 0.1732001007 2.343458544e-38
-0.09131005406 -0.4836207628 0.2407645732 2.343458544e-38
0.01988633722 -0.4874120653 -0.05480603129 2.343458544e-38
0.01473033428 -0.4886879325 -0.131731391 2.343458544e-38
0.1155726761 -0.4842292666 -0.05959647149 2.343458544e-38
0.06309483945 -0.4867244065 0.02809549868 2.343458544e-38
-0.03530191258 -0.4863299131 0.09047488123 2.343458544e-38
-0.009581390768 -0.4861891568 -0.007709933445 2.343458544e-38
0.07203877717 -0.4825766385 0.0698126182 2.343458544e-38
0.03954343498 -0.4872919023 0.1607092172 2.343458544e-38
-0.1537073255 -0.3915570676 -0.2702148557 2.343458544e-38
-0.1574091017 -0.2641609311 -0.2731516361 2.343458544e-38
-0.1484101713 -0.2143747807 -0.2628359795 2.343458544e-38
-0.1527326107 -0.3056503236 -0.2644509077 2.343458544e-38
-0.01398935542 -0.4880110323 -0.03138004988 2.343458544e-38
-0.01439191774 -0.4878605902 -0.1411627233 2.343458544e-38
0.09911319613 -0.4851092398 -0.05124986172 2.343458544e-38
0.04130021855 -0.4866268337 0.04122139513 2.343458544e-38
-0.1372353882 -0.4869581759 0.1656251848 2.343458544e-38
-0.09762212634 -0.4879406989 0.05131226033 2.343458544e-38
-0.01996173337 -0.4845788777 0.1458219588 2.343458544e-38
-0.06122168526 -0.486680299 0.2193323821 2.343458544e-38
0.01037749648 -0.4868798256 -0.2558560371 2.343458544e-38
-0.06434348226 -0.4878872633 -0.2307002693 2.343458544e-38
0.1056991741 -0.4855253398 -0.2143383026 2.343458544e-38
0.01356706023 -0.4875626862 -0.1400222778 2.343458544e-38
-0.1585947871 -0.3737384677 0.1460616142 2.343458544e-38
-0.1635155231 -0.2441534549 0.1185698062 2.343458544e-38
-0.1620592922 -0.2118343115 0.1479508579 2.343458544e-38
-0.1608001888 -0.2835298777 0.157193467 2.343458544e-38
-0.154240042 -0.4534349442 0.1222104728 2.343458544e-38
-0.1517862827 -0.3449454606 0.07795614004 2.343458544e-38
-0.1515347064 -0.2635157108 0.1342287511 2.343458544e-38
-0.151330024 -0.3941882253 0.150502339 2.343458544e-38
-0.1512167901 -0.3239358068 0.1917576343 2.343458544e-38
-0.1554712206 -0.2115116417 0.145867154 2.343458544e-38
-0.1547090709 -0.1998106837 0.1971620023 2.343458544e-38
-0.1529493928 -0.2417186201 0.2165976614 2.343458544e-38
-0.1167254895 -0.342860043 -0.0458586067 2.343458544e-38
-0.1211745292 -0.2734008133 -0.05770316347 2.343458544e-38
-0.1163294613 -0.2400492579 -0.0401626043 2.343458544e-38
-0.1202838421 -0.2936340272 -0.03903434798 2.343458544e-38
-0.1594991386 -0.4226797819 -0.2074064314 2.343458544e-38
-0.1620344967 -0.307877183 -0.2173049897 2.343458544e-38
-0.1602533907 -0.240629971 -0.195778355 2.343458544e-38
-0.1616572142 -0.3566381633 -0.1946612 2.343458544e-38
0.0582449995 -0.4885458052 -0.173586756 2.343458544e-38
0.001656595618 -0.4894529283 -0.1782620996 2.343458544e-38
0.1161305159 -0.4863838255 -0.1195015684 2.343458544e-38
0.05364280194 -0.488052249 -0.04651739448 2.343458544e-38
-0.001763474196 -0.4876412451 -0.2711333334 2.343458544e-38
-0.0666424036 -0.4879976809 -0.2429711074 2.343458544e-38
0.06746073067 -0.4867303371 -0.2254391909 2.343458544e-38
-0.006939224899 -0.4874309897 -0.1587579995 2.343458544e-38
0.04399301484 -0.4870203435 -0.1026308015 2.343458544e-38
0.03336685151 -0.4882336259 -0.160360828 2.343458544e-38
0.09844511747 -0.4831883609 -0.08052647859 2.343458544e-38
0.06854968518 -0.4869945347 -0.004879746586 2.343458544e-38
-0.0592947416 -0.3347021937 0.1976347417 2.343458544e-38
-0.06750422716 -0.3169355392 0.1771218032 2.343458544e-38
-0.03754490241 -0.3135267198 0.204189539 2.343458544e-38
-0.06119799986 -0.3240900636 0.2240235358 2.343458544e-38
-0.1499915421 -0.379114151 0.07365172356 2.343458544e-38
-0.1489379108 -0.3004591763 0.05374448746 2.343458544e-38
-0.1488281637 -0.2598281503 0.08250939101 2.343458544e-38
-0.1493898779 -0.3193233907 0.0844598338 2.343458544e-38
-0.07052707672 -0.2853969336 -0.1953328252 2.343458544e-38
-0.07216817141 -0.2270766348 -0.2044980824 2.343458544e-38
-0.06488651037 -0.2029415071 -0.1890720129 2.343458544e-38
-0.07651142776 -0.2477081716 -0.1850541085 2.343458544e-38
-0.07198727131 -0.3903856575 0.02551460266 2.343458544e-38
-0.07308149338 -0.2993689179 0.01604223251 2.343458544e-38
-0.06946358085 -0.2595027089 0.02946576476 2.343458544e-38
-0.07352642715 -0.3249139786 0.02934596688 2.343458544e-38
-0.008437093347 -0.4866140187 -0.04762761295 2.343458544e-38
-0.02274115756 -0.4873675406 -0.1236295402 2.343458544e-38
0.08752901852 -0.4836944342 -0.05607564002 2.343458544e-38
0.03143174946 -0.4847958982 0.01176067814 2.343458544e-38
-0.08011898398 -0.4854165018 0.1369597018 2.343458544e-38
-0.04578679428 -0.4854646027 0.02647887543 2.343458544e-38
0.01218630373 -0.48363626 0.1272474229 2.343458544e-38
-0.01729649678 -0.4859284759 0.2012246698 2.343458544e-38
-0.0249488242 -0.3493640721 0.2147252262 2.343458544e-38
-0.02622212842 -0.2896100879 0.2055272311 2.343458544e-38
-0.02941771224 -0.2566404045 0.2180143148 2.343458544e-38
-0.03049566969 -0.3070863783 0.2257719785 2.343458544e-38
-0.0844528079 -0.4311790168 -0.2566558719 2.343458544e-38
-0.09593147039 -0.3582702279 -0.2576631904 2.343458544e-38
-0.08276969194 -0.3268733621 -0.2517702878 2.343458544e-38
-0.08576731384 -0.3767361641 -0.2520517111 2.343458544e-38
0.01918365434 -0.4892606139 -0.2508080006 2.343458544e-38
-0.03773476556 -0.4886399806 -0.2301938832 2.343458544e-38
0.07127347589 -0.4866391122 -0.1772419214 2.343458544e-38
0.01253418997 -0.4875482023 -0.09289029241 2.343458544e-38
-0.1439213753 -0.3388924897 -0.0799536854 2.343458544e-38
-0.1480539441 -0.2425622046 -0.09898387641 2.343458544e-38
-0.1370296925 -0.2371702492 -0.07185344398 2.343458544e-38
-0.1459306479 -0.2681829333 -0.05443358049 2.343458544e-38
-0.1540462971 -0.416010946 -0.2518725991 2.343458544e-38
-0.1539757848 -0.2720565796 -0.2588896453 2.343458544e-38
-0.1492611915 -0.1950078011 -0.2394803911 2.343458544e-38
-0.1535202265 -0.3307352364 -0.2284475267 2.343458544e-38
-0.1551625878 -0.3946709037 0.113961786 2.343458544e-38
-0.1562615782 -0.261469841 0.08204239607 2.343458544e-38
-0.1582779735 -0.2057818025 0.1233333498 2.343458544e-38
-0.1549858153 -0.2975945473 0.1413371265 2.343458544e-38
-0.06971043348 -0.4853760302 0.08860913664 2.343458544e-38
-0.03691987321 -0.4860103428 -0.03018604591 2.343458544e-38
0.04271186888 -0.4832924306 0.06916642934 2.343458544e-38
0.0006993040442 -0.486309737 0.1659733653 2.343458544e-38
-0.07279410958 -0.4130528867 -0.2143588811 2.343458544e-38
-0.09057976305 -0.3624008298 -0.2232733369 2.343458544e-38
-0.06369125843 -0.3442851305 -0.2085242867 2.343458544e-38
-0.07693387568 -0.3709652722 -0.2045512795 2.343458544e-38
-0.1639322639 -0.3744873106 -0.1893620193 2.341805152e-38
-0.1683666259 -0.2275748849 -0.2040721923 2.341805152e-38
-0.1603228301 -0.1756245196 -0.1638773978 2.341805152e-38
-0.1660481393 -0.2772370279 -0.1540717185 2.341805152e-38
-0.02568164095 -0.4885139465 -0.276784718 2.341805152e-38
-0.08975492418 -0.489779681 -0.2454509586 2.341805152e-38
0.02377122454 -0.4864431024 -0.2027442008 2.341805152e-38
-0.04514272884 -0.4879747927 -0.1243288741 2.341805152e-38
-0.1499247402 -0.3831947744 -0.2627076507 2.341805152e-38
-0.1607420892 -0.3066758513 -0.2643970847 2.341805152e-38
-0.1443801224 -0.2687260807 -0.2547202706 2.341805152e-38
-0.1499839127 -0.3314793408 -0.2566070557 2.341805152e-38
-0.1701984107 -0.3743837774 -0.125550285 2.341805152e-38
-0.1759116203 -0.2417406142 -0.1477231979 2.341805152e-38
-0.1669506282 -0.2039280981 -0.114026852 2.341805152e-38
-0.1739936471 -0.2813253105 -0.09606869519 2.341805152e-38
-0.08256076276 -0.3604220152 -0.266749084 2.341805152e-38
-0.1005649418 -0.2767674625 -0.2708609104 2.341805152e-38
-0.08366620541 -0.2341584414 -0.2631562352 2.341805152e-38
-0.07908688486 -0.3007314801 -0.2661222816 2.341805152e-38
-0.1474728882 -0.4260118306 -0.1255587935 2.341805152e-38
-0.1492894441 -0.3049914539 -0.1474372745 2.341805152e-38
-0.1428678483 -0.2462073565 -0.1143663749 2.341805152e-38
-0.149277702 -0.3441340327 -0.1057087183 2.341805152e-38
-0.02795038745 -0.4862552881 -0.03608571738 2.341805152e-38
-0.04023681954 -0.4866106212 -0.1136061177 2.341805152e-38
0.0587173216 -0.4827382565 -0.04798609391 2.341805152e-38
0.01136184111 -0.486590445 0.03094918281 2.341805152e-38
-0.1351694912 -0.3341279626 -0.1644182205 2.341805152e-38
-0.1333756 -0.2220351994 -0.1874039322 2.341805152e-38
-0.1273420006 -0.2134296298 -0.1328797638 2.341805152e-38
-0.1328995675 -0.2553906143 -0.1209292561 2.341805152e-38
-0.0846375227 -0.4869473875 0.02300161123 2.341805152e-38
-0.07806326449 -0.4875702858 -0.1045010164 2.341805152e-38
0.04287775606 -0.4839396477 -0.009301444516 2.341805152e-38
-0.01083015278 -0.4865693748 0.08989103884 2.341805152e-38
-0.1100303978 -0.485380441 0.08337689936 2.341805152e-38
-0.089368999 -0.4862807095 -0.01778708771 2.341805152e-38
0.00386287272 -0.4833835363 0.06251410395 2.341805152e-38
-0.03857247159 -0.4871031344 0.1569928229 2.341805152e-38
-0.1108260751 -0.4322248697 -0.1860184222 2.341805152e-38
-0.1275284737 -0.3752950132 -0.1958710253 2.341805152e-38
-0.1044016629 -0.3600874841 -0.1827241927 2.341805152e-38
-0.1145960838 -0.3875238895 -0.173212111 2.341805152e-38
-0.1637994498 -0.4129162729 -0.2372935861 2.341805152e-38
-0.1656191796 -0.2730249166 -0.240397796 2.341805152e-38
-0.160708338 -0.2074361444 -0.2274439186 2.341805152e-38
-0.164166227 -0.3229339421 -0.2238153666 2.341805152e-38
-0.1431164145 -0.4850718975 0.1233813316 2.341805152e-38
-0.114490509 -0.4873543382 -0.00651464425 2.341805152e-38
-0.01741238311 -0.4837571681 0.09915356338 2.341805152e-38
-0.06708359718 -0.4855903685 0.1860779077 2.341805152e-38
-0.145478785 -0.3544178605 0.06060473621 2.341805152e-38
-0.1461968869 -0.2868613303 0.0363131538 2.341805152e-38
-0.1447434425 -0.2552430332 0.06744900346 2.341805152e-38
-0.1460962296 -0.3037556112 0.07718202472 2.341805152e-38
-0.1190841645 -0.4289872944 -0.2123874277 2.341805152e-38
-0.1260947883 -0.3584803343 -0.2370099276 2.341805152e-38
-0.1175954491 -0.3241873085 -0.2001440972 2.341805152e-38
-0.1215117276 -0.3718824685 -0.1872658432 2.341805152e-38
-0.04402234778 -0.4865511954 -0.09589479864 2.341805152e-38
-0.05824602768 -0.4879514873 -0.1665459573 2.341805152e-38
0.02698012814 -0.4832642972 -0.09564085305 2.341805152e-38
-0.00668887049 -0.4870942235 -0.02805162221 2.341805152e-38
-0.1402139366 -0.4854346216 0.10127078 2.341805152e-38
-0.106693387 -0.4865085185 -0.01928037032 2.341805152e-38
-0.02442768589 -0.4834446907 0.08162154257 2.341805152e-38
-0.06404720247 -0.4866410196 0.1798465252 2.341805152e-38
-0.1540406346 -0.2899107635 -0.189821437 2.341805152e-38
-0.1574589014 -0.2283466905 -0.2083446234 2.341805152e-38
-0.1492729634 -0.2175586075 -0.1816200912 2.341805152e-38
-0.1602069736 -0.2434118837 -0.1680323482 2.341805152e-38
-0.02484911308 -0.4887783229 -0.2520757318 2.341805152e-38
-0.09759373963 -0.4889830351 -0.2211978734 2.341805152e-38
0.03659679741 -0.4861654639 -0.1805737466 2.341805152e-38
-0.04234499112 -0.4880936444 -0.09718147665 2.341805152e-38
-0.1363168657 -0.4109191597 -0.2324680239 2.341805152e-38
-0.1360959411 -0.286126852 -0.242781952 2.341805152e-38
-0.1335295737 -0.2182503045 -0.2229855061 2.341805152e-38
-0.1398935914 -0.327708751 -0.2250843346 2.341805152e-38
-0.02998020127 -0.4896749854 -0.2321302146 2.341805152e-38
-0.08905524015 -0.4897689521 -0.2096052617 2.341805152e-38
0.01725529507 -0.4875357449 -0.1588915288 2.341805152e-38
-0.03637598082 -0.4878149629 -0.07686509192 2.341805152e-38
-0.07860560715 -0.3533472419 -0.1959751397 2.341805152e-38
-0.09656123817 -0.3262862861 -0.2036330998 2.341805152e-38
-0.06006198004 -0.3191363215 -0.1909348667 2.341805152e-38
-0.08438013494 -0.3332482874 -0.1799675673 2.341805152e-38
-0.1494054794 -0.3711836338 0.04757621139 2.341805152e-38
-0.1495023817 -0.2841622233 0.03024680167 2.341805152e-38
-0.1498207897 -0.2462550104 0.05927557498 2.341805152e-38
-0.1535960287 -0.3047498167 0.06950510293 2.341805152e-38
-0.08633968234 -0.4860239029 -0.05654307455 2.341805152e-38
-0.1052801758 -0.487115413 -0.1448581815 2.341805152e-38
0.01184945181 -0.4822311401 -0.07888948917 2.341805152e-38
-0.04097840562 -0.4863268733 0.01653957367 2.341805152e-38
-0.1376992613 -0.3736180067 -0.1868056506 2.341805152e-38
-0.1382598281 -0.267723918 -0.2026314437 2.341805152e-38
-0.1346433312 -0.2163571417 -0.1792399585 2.341805152e-38
-0.1388153285 -0.3044004738 -0.1685767919 2.341805152e-38
-0.1113476902 -0.3689562678 -0.1866150051 2.341805152e-38
-0.1188441813 -0.3034481406 -0.1940994859 2.341805152e-38
-0.1067207605 -0.272972405 -0.1818942577 2.341805152e-38
-0.1106185168 -0.3234041631 -0.1826724708 2.341805152e-38
-0.04874457046 -0.4887362123 -0.1474429816 2.341805152e-38
-0.07550506294 -0.4890612662 -0.1902278066 2.341805152e-38
0.004240393639 -0.4854652882 -0.1266676784 2.341805152e-38
-0.04101309553 -0.4877557755 -0.04617935047 2.341805152e-38
-0.1411135346 -0.4858352244 0.06068660319 2.341805152e-38
-0.1173853129 -0.4871919453 -0.05314062908 2.341805152e-38
-0.07297675312 -0.4812203348 0.05807771534 2.341805152e-38
-0.09792004526 -0.4860619605 0.1488436908 2.341805152e-38
-0.1419886053 -0.486612767 -0.05715439469 2.341805152e-38
-0.1306660622 -0.4862592518 -0.158264786 2.341805152e-38
-0.0846491009 -0.4812494218 -0.05483520404 2.341805152e-38
-0.1080157161 -0.48555094 0.07092111558 2.341805152e-38
-0.1353459209 -0.4155094326 -0.2042361349 2.341805152e-38
-0.1427881122 -0.303062588 -0.2212018371 2.341805152e-38
-0.1368295699 -0.2330290675 -0.1946080923 2.341805152e-38
-0.1371470988 -0.3487924039 -0.1881696731 2.341805152e-38
-0.1367367208 -0.4870818555 -0.06989775598 2.341805152e-38
-0.1334043592 -0.4876872897 -0.1479539573 2.341805152e-38
-0.1022606194 -0.4819993079 -0.06546340883 2.341805152e-38
-0.1293674707 -0.4865923226 0.02204141766 2.341805152e-38
-0.1592926532 -0.4860831201 0.03856462985 2.341805152e-38
