# .PCD v0.7 - Point Cloud Data file format
VERSION 0.7
FIELDS x y z rgb
SIZE 4 4 4 4
TYPE F F F F
COUNT 1 1 1 1
WIDTH 832
HEIGHT 1
VIEWPOINT 0 0 0 1 0 0 0
POINTS 832
DATA ascii
-0.004593383055 -0.1431532055 -0.184783861 1.478322936e-38
0.007752515376 -0.01693915576 -0.1867386848 1.478322936e-38
0.001662335591 -0.2241739631 -0.1862130016 1.478322936e-38
-0.05735366791 -0.03866125271 -0.1911872476 1.478322936e-38
-0.03711332008 -0.09487552196 -0.187863037 1.478322936e-38
-0.02248566784 -0.01028262079 -0.1893031448 1.478322936e-38
-0.02425206825 -0.1785011888 -0.1866221279 1.478322936e-38
-0.05924836174 -0.1166654378 -0.2018540651 1.478322936e-38
-0.05541859195 -0.1874492168 -0.1972697526 1.478322936e-38
-0.04313791543 -0.04019423574 -0.1899083257 1.478322936e-38
-0.04423404858 -0.2709446251 -0.1929200441 1.478322936e-38
-0.06943169981 -0.01892053336 -0.1737124175 1.478322936e-38
-0.04585110769 -0.08067159355 -0.1754455715 1.478322936e-38
-0.03185950965 -0.002375543118 -0.1743474901 1.478322936e-38
-0.03214434907 -0.1668165028 -0.1721186191 1.478322936e-38
-0.04581633583 -0.1164602935 -0.2018318027 1.478322936e-38
-0.03967337683 -0.1847032607 -0.1990238577 1.478322936e-38
-0.02560420521 -0.04756721854 -0.1989396214 1.478322936e-38
-0.03060457297 -0.2614270747 -0.197951287 1.478322936e-38
-0.120210439 -0.2374353111 -0.1916084588 1.478322936e-38
-0.1228962541 -0.3155425191 -0.1925901622 1.478322936e-38
-0.0977562815 -0.1531239152 -0.1867715865 1.478322936e-38
-0.1048647389 -0.3714862466 -0.187536478 1.478322936e-38
0.01758580841 0.021978423 -0.2070711553 1.478322936e-38
0.03239196539 -0.02745451778 -0.205488503 1.478322936e-38
0.06171568856 0.03974236548 -0.1952949464 1.478322936e-38
0.04601270333 -0.09703735262 -0.2015763819 1.478322936e-38
-0.07132191211 0.03951121867 -0.1873315275 1.478322936e-38
-0.03553567454 0.00226842612 -0.1940659881 1.478322936e-38
-0.005016050767 0.0487042591 -0.1905735433 1.478322936e-38
-0.02377313003 -0.04801274091 -0.1931652725 1.478322936e-38
0.09413287789 -0.008595444262 -0.1960876584 1.478322936e-38
0.1076620519 -0.05824985355 -0.1913113445 1.478322936e-38
0.1383876652 0.004687815905 -0.189748615 1.478322936e-38
0.1228915006 -0.1279590726 -0.191858843 1.478322936e-38
-0.06752236933 -0.1258910596 -0.1907505095 1.478322936e-38
-0.06010176986 -0.1951210499 -0.1884392649 1.478322936e-38
-0.04562507942 -0.04839608073 -0.1840128601 1.478322936e-38
-0.04648056626 -0.2749087512 -0.1868218333 1.478322936e-38
-0.07664123178 -0.02874389663 -0.1795743555 1.478322936e-38
-0.0557019338 -0.08458682895 -0.1835939437 1.478322936e-38
-0.04057931527 -0.004202030599 -0.1789300442 1.478322936e-38
-0.04509811476 -0.1623589396 -0.1838401407 1.478322936e-38
0.05295651406 -0.1236970946 -0.1891227067 1.478322936e-38
0.05572491884 -0.20807603 -0.1833913177 1.478322936e-38
0.07333976775 -0.04855971038 -0.1819391698 1.478322936e-38
0.06780660897 -0.2906898558 -0.1880032271 1.478322936e-38
0.03780166805 0.02794146538 -0.2035390437 1.478322936e-38
0.05275181308 -0.02259721234 -0.1986847371 1.478322936e-38
0.08919475228 0.04037777334 -0.1943601817 1.478322936e-38
0.07254375517 -0.09081128985 -0.1975900084 1.478322936e-38
0.08873851597 0.06800547987 -0.1975774169 1.478322936e-38
0.107761696 0.01995240897 -0.2130677402 1.478322936e-38
0.1455557197 0.06305905432 -0.1987374574 1.478322936e-38
0.1320029795 0.01202764362 -0.2085633278 1.478322936e-38
-0.03120598197 -0.08003687859 -0.1982854605 1.478322936e-38
-0.02273889631 -0.1590034366 -0.1980727613 1.478322936e-38
-0.009941366501 -0.02003412694 -0.1939273626 1.478322936e-38
-0.01373561379 -0.2405001223 -0.1937724501 1.478322936e-38
-0.2708450854 0.07234413177 -0.2477751523 1.478322936e-38
-0.2343409657 0.0722572431 -0.2564907372 1.478322936e-38
-0.2058467418 0.07434029132 -0.2076417208 1.478322936e-38
-0.1979747415 0.06970144063 -0.2457981259 1.478322936e-38
-0.1887653321 -0.4772282541 -0.3401560783 1.478322936e-38
-0.2248773873 -0.4816463292 -0.3120289743 1.478322936e-38
-0.182922557 -0.4800383747 -0.2382676154 1.478322936e-38
-0.1256762594 -0.4834240675 -0.3213696182 1.478322936e-38
0.09364346415 0.050489299 -0.2143288404 1.478322936e-38
0.1017795652 -0.003885231912 -0.2188268155 1.478322936e-38
0.1358824819 0.05791135877 -0.2120197862 1.478322936e-38
0.1219032258 -0.05766797066 -0.2162507176 1.478322936e-38
-0.06736212969 0.02368152142 -0.1853612661 1.478322936e-38
-0.03387934715 -0.01643344015 -0.1878474951 1.478322936e-38
-0.006849156693 0.03762631863 -0.1869400442 1.478322936e-38
-0.02198976092 -0.08210986853 -0.1885900795 1.478322936e-38
0.05489780754 -0.1141953096 -0.1925216019 1.478322936e-38
0.05725475773 -0.2011419237 -0.188783288 1.478322936e-38
0.07375217974 -0.04277487099 -0.1876559258 1.478322936e-38
0.0701393038 -0.2897351384 -0.1922981441 1.478322936e-38
0.0765658766 -0.0807557106 -0.1892296374 1.478322936e-38
0.07758583128 -0.1638914049 -0.1823813766 1.478322936e-38
0.09443607926 -0.02429519966 -0.1827241033 1.478322936e-38
0.09438721091 -0.2459515035 -0.1840533465 1.478322936e-38
0.09701251984 0.003046497703 -0.1948193461 1.478322936e-38
0.1097125933 -0.05675970018 -0.1846088618 1.478322936e-38
0.1347668171 0.01457454264 -0.1856634617 1.478322936e-38
0.120461151 -0.1439387798 -0.1886372417 1.478322936e-38
0.1328043491 -0.2866354883 -0.1965975463 1.478322936e-38
0.1282118857 -0.3625509143 -0.1955223829 1.478322936e-38
0.1263269335 -0.191480577 -0.1889890283 1.478322936e-38
0.1280413568 -0.4132494628 -0.1884104908 1.478322936e-38
-0.0730426088 -0.1098830551 -0.1811792254 1.478322936e-38
-0.05719599873 -0.1902223229 -0.1865187883 1.478322936e-38
-0.04583454132 -0.04781449586 -0.180639118 1.478322936e-38
-0.04632129148 -0.2694581449 -0.1825542152 1.478322936e-38
-0.04089337215 0.01099612564 -0.2008719593 1.478322936e-38
-0.01220187824 -0.02861251682 -0.1973232031 1.478322936e-38
0.01188242435 0.01193063706 -0.1931855977 1.478322936e-38
-0.002421872225 -0.09281181544 -0.1989870369 1.478322936e-38
0.004951563664 -0.123805657 -0.2117660195 1.478322936e-38
0.01220009942 -0.2043185383 -0.2055478543 1.478322936e-38
0.02953522466 -0.05423342809 -0.2060199827 1.478322936e-38
0.02112831175 -0.2811043262 -0.2093192786 1.478322936e-38
-0.008080115542 -0.1045354679 -0.204745248 1.771655483e-38
0.002265000949 -0.1769625247 -0.2025307566 1.771655483e-38
0.01835698076 -0.05209503695 -0.2017266303 1.771655483e-38
0.009309995919 -0.2536727488 -0.2044063956 1.771655483e-38
-0.1126918122 -0.2015434057 -0.2109245658 1.771655483e-38
-0.1063847989 -0.266037792 -0.2103157789 1.771655483e-38
-0.0856769681 -0.1422166526 -0.210631609 1.771655483e-38
-0.09233839065 -0.3256773949 -0.2106009871 1.771655483e-38
0.1825344265 -0.3037391603 -0.1875844598 1.771655483e-38
0.1724341512 -0.3633460701 -0.1929776371 1.771655483e-38
0.1847458482 -0.2358925939 -0.1894632578 1.771655483e-38
0.1956364214 -0.4029558003 -0.1855206788 1.771655483e-38
0.03424883261 -0.01669032127 -0.20245184 1.771655483e-38
0.05131104216 -0.07490626723 -0.1926140487 1.771655483e-38
0.08039501309 0.004519768059 -0.1905197948 1.771655483e-38
0.06793820113 -0.1588603258 -0.1938175559 1.771655483e-38
-0.2827018797 0.07499016076 -0.2760567665 1.771655483e-38
-0.2343574315 0.08180741221 -0.2951788008 1.771655483e-38
-0.2113400251 0.07655894011 -0.2275483608 1.771655483e-38
-0.1882516891 0.0797014311 -0.2701233923 1.771655483e-38
-0.08021713048 -0.1661626697 -0.196643278 1.771655483e-38
-0.0718170926 -0.2410415709 -0.1988190562 1.771655483e-38
-0.05713940784 -0.09158490598 -0.1956868023 1.771655483e-38
-0.06054640561 -0.318244189 -0.2023729384 1.771655483e-38
0.1068398952 -0.08825659007 -0.194241032 1.771655483e-38
0.113077119 -0.1490079165 -0.1936639994 1.771655483e-38
0.1350602508 -0.03459340706 -0.1930791438 1.771655483e-38
0.1264515966 -0.2285675406 -0.1964058876 1.771655483e-38
0.04221149907 -0.09396086633 -0.1884111315 1.771655483e-38
0.05064862967 -0.168816492 -0.184367761 1.771655483e-38
0.06816421449 -0.04176247865 -0.1842471957 1.771655483e-38
0.06484866142 -0.2336348593 -0.1865918934 1.771655483e-38
0.1124979481 -0.08274004608 -0.1959307641 1.771655483e-38
0.1209856793 -0.1448618174 -0.1915666908 1.771655483e-38
0.1396977156 -0.03445579112 -0.1902588904 1.771655483e-38
0.1335165948 -0.2282995582 -0.1919631809 1.771655483e-38
0.09596979618 -0.03766961396 -0.1853545904 1.771655483e-38
0.112567395 -0.08927708119 -0.1832467616 1.771655483e-38
0.1388231069 -0.006585329771 -0.1823895127 1.771655483e-38
0.1305298656 -0.1713837534 -0.1845885515 1.771655483e-38
0.02283946052 -0.1666476727 -0.1918713897 1.771655483e-38
0.02755622007 -0.2189131379 -0.1854370385 1.771655483e-38
0.05046760291 -0.1192736626 -0.1870322675 1.771655483e-38
0.04201344773 -0.2821988165 -0.1905173659 1.771655483e-38
-0.1870932579 -0.4779248834 -0.2635247707 1.771655483e-38
-0.2109217942 -0.4834976792 -0.2336531281 1.771655483e-38
-0.1819563359 -0.4595411122 -0.2070567608 1.771655483e-38
-0.137478739 -0.4835113287 -0.2314007431 1.771655483e-38
0.1383239478 0.01009653509 -0.2025722563 1.771655483e-38
0.1574478149 -0.04379919916 -0.1954220831 1.771655483e-38
0.1819348931 0.01915168017 -0.1970668733 1.771655483e-38
0.1707861722 -0.1171441823 -0.1999899298 1.771655483e-38
0.0914940834 -0.0318781212 -0.2258418202 1.771655483e-38
0.1039067209 -0.08200964332 -0.2200426012 1.771655483e-38
0.1305877715 -0.00920882076 -0.2099788189 1.771655483e-38
0.1169102937 -0.1530979276 -0.2190217078 1.771655483e-38
-0.2367623895 0.07671583444 -0.3083162308 1.771655483e-38
-0.1878542453 0.08292088658 -0.3297144771 1.771655483e-38
-0.196625948 0.0814852342 -0.2533587813 1.771655483e-38
-0.1609212905 0.07989513129 -0.307015866 1.771655483e-38
0.1502918005 0.01964770257 -0.1967545748 1.771655483e-38
0.1643928885 -0.02255380526 -0.1945082843 1.771655483e-38
0.1883379668 0.007716491818 -0.1863729954 1.771655483e-38
0.1767278761 -0.07163939625 -0.1890581697 1.771655483e-38
0.1433270872 -0.02788378298 -0.1988734752 1.771655483e-38
0.1601948738 -0.08265325427 -0.1915531904 1.771655483e-38
0.1854587048 -0.005330510437 -0.1913788319 1.771655483e-38
0.1703683138 -0.1572392732 -0.195472613 1.771655483e-38
0.02124240436 -0.3062060475 -0.2177435756 1.771655483e-38
0.007926682942 -0.3609340489 -0.2046591192 1.771655483e-38
0.02872274257 -0.2259196341 -0.2017930895 1.771655483e-38
0.0243605841 -0.4027865529 -0.2016857415 1.771655483e-38
0.02169202827 -0.2835716605 -0.2103834897 1.771655483e-38
0.01148614287 -0.3545621336 -0.1995568126 1.771655483e-38
0.03086795472 -0.1913469136 -0.1944428086 1.771655483e-38
0.02512948401 -0.4041494131 -0.1970826387 1.771655483e-38
0.1295203716 -0.06368207186 -0.1973672807 1.771655483e-38
0.1440828592 -0.1312624514 -0.1913877428 1.771655483e-38
0.1612711549 -0.01809538901 -0.18973203 1.771655483e-38
0.153686896 -0.2159055173 -0.1926293373 1.771655483e-38
0.1277273297 -0.0469927825 -0.1894644797 1.771655483e-38
0.1451625675 -0.09837007523 -0.1855802983 1.771655483e-38
0.1653856635 -0.01499774307 -0.1846033037 1.771655483e-38
0.1575098634 -0.1764076054 -0.1906333268 1.771655483e-38
-0.1046926007 -0.2236293256 -0.2010139078 1.771655483e-38
-0.09594579786 -0.2939903438 -0.2051866949 1.771655483e-38
-0.08589797467 -0.1466431618 -0.1981192231 1.771655483e-38
-0.08646241575 -0.3566786349 -0.197790578 1.771655483e-38
0.1382136196 -0.08724900335 -0.196746096 1.771655483e-38
0.1485023201 -0.1495912671 -0.1996510625 1.771655483e-38
0.1641180813 -0.03994138911 -0.2008038461 1.771655483e-38
0.1579982042 -0.2287428677 -0.1989368349 1.771655483e-38
0.08623776585 -0.09780497104 -0.1838781983 1.771655483e-38
0.09264227003 -0.1690784991 -0.1826702803 1.771655483e-38
0.1181023493 -0.04518387839 -0.1844242811 1.771655483e-38
0.1104106382 -0.2366606891 -0.1839205772 1.771655483e-38
-0.07100580633 -0.1295068562 -0.2011127174 1.771655483e-38
-0.06195975468 -0.2018212974 -0.2015198767 1.771655483e-38
-0.04735993594 -0.07159409672 -0.2004642487 1.771655483e-38
-0.0506214276 -0.2780417204 -0.2027616054 1.771655483e-38
0.0880401656 -0.2857339084 -0.2036435306 1.771655483e-38
0.06969663501 -0.3568782806 -0.2076579928 1.771655483e-38
0.0914619416 -0.1994068921 -0.2028463781 1.771655483e-38
0.08948476613 -0.4033394158 -0.1981026083 1.771655483e-38
0.1459871233 -0.08464442939 -0.2069302201 1.771655483e-38
0.1562280059 -0.1638282686 -0.2059330791 1.771655483e-38
0.1685893685 -0.03462332115 -0.203021884 1.771655483e-38
0.1649669111 -0.2534570396 -0.2060137987 1.771655483e-38
0.1723491997 0.03484340012 -0.1950755119 1.771655483e-38
0.1814125776 -0.009437225759 -0.1985293925 1.771655483e-38
0.2115481198 0.01510301977 -0.1920366436 1.771655483e-38
0.1939552277 -0.0472581014 -0.1934108436 1.771655483e-38
0.03161033243 -0.1538831443 -0.1921970397 1.771655483e-38
0.04088898376 -0.2248952687 -0.1920091808 1.771655483e-38
0.06077624485 -0.09220344573 -0.1862264574 1.771655483e-38
0.05439918861 -0.298817575 -0.1916668266 1.771655483e-38
0.1440813094 -0.09414461255 -0.1826173812 1.771655483e-38
0.1538818181 -0.1574147642 -0.1847986728 1.771655483e-38
0.1723747253 -0.04265748337 -0.1852443516 1.771655483e-38
0.1632608622 -0.2367395163 -0.187139526 1.771655483e-38
-0.05979372934 -0.2006502002 -0.2033229768 1.771655483e-38
-0.0513674356 -0.2658003867 -0.207954362 1.771655483e-38
-0.03190237656 -0.134265855 -0.2034746855 1.771655483e-38
-0.03342399374 -0.3363226652 -0.2072162181 1.771655483e-38
0.2044378519 -0.0009011700749 -0.2068926841 1.771655483e-38
0.2140478045 -0.04610047862 -0.198184818 1.771655483e-38
0.236517325 -0.004266865551 -0.1939671934 1.771655483e-38
0.2232198566 -0.1059982404 -0.2006477714 1.771655483e-38
0.1199237108 -0.09682733566 -0.1971846968 2.06466517e-38
0.1347315311 -0.1646010876 -0.1972244084 2.06466517e-38
0.158252269 -0.0433039777 -0.1959222108 2.06466517e-38
0.1461470723 -0.2374455929 -0.1977360398 2.06466517e-38
-0.08757180721 -0.1622144878 -0.198173672 2.06466517e-38
-0.07793348283 -0.2302922308 -0.1972385347 2.06466517e-38
-0.06207657605 -0.1019872203 -0.1991464794 2.06466517e-38
-0.06727455556 -0.2979876399 -0.1999305189 2.06466517e-38
0.1609614193 -0.08670256287 -0.204992041 2.06466517e-38
0.169967562 -0.1345432252 -0.2114338577 2.06466517e-38
0.1973463148 -0.04707517847 -0.209195435 2.06466517e-38
0.1818052083 -0.1974477321 -0.2108297944 2.06466517e-38
0.2516373992 -0.3087079525 -0.2025357634 2.06466517e-38
0.2454535961 -0.3620166779 -0.2070457637 2.06466517e-38
0.2632365525 -0.2328614593 -0.1958517879 2.06466517e-38
0.2681026161 -0.3937022984 -0.2008640021 2.06466517e-38
-0.06045050174 -0.1163621545 -0.2003533095 2.06466517e-38
-0.04940685257 -0.1810678095 -0.2003643513 2.06466517e-38
-0.03508376703 -0.06875391304 -0.1988166869 2.06466517e-38
-0.04065645486 -0.2530499101 -0.1996310651 2.06466517e-38
0.1947341412 -0.08684752882 -0.1914080381 2.06466517e-38
0.1909656823 -0.1383770704 -0.2008200586 2.06466517e-38
0.2200205624 -0.04652918875 -0.1919969916 2.06466517e-38
0.2082232982 -0.2125391364 -0.2001099586 2.06466517e-38
-0.1147149056 -0.1785139441 -0.2102212161 2.06466517e-38
-0.1045611054 -0.235747546 -0.2076876014 2.06466517e-38
-0.08369400352 -0.1117444336 -0.2107856572 2.06466517e-38
-0.08950607479 -0.2978779972 -0.2065567225 2.06466517e-38
0.08739443868 -0.1138165742 -0.1943399608 2.06466517e-38
0.08660326153 -0.1923134625 -0.1934354901 2.06466517e-38
0.1180237308 -0.05521397293 -0.1872533262 2.06466517e-38
0.1047041789 -0.2653613389 -0.1928774118 2.06466517e-38
0.2797756493 -0.2899407148 -0.2098647505 2.06466517e-38
0.2801912129 -0.3430967629 -0.2107897103 2.06466517e-38
0.2935744524 -0.2160131335 -0.2001997232 2.06466517e-38
0.2978830934 -0.3810350001 -0.2030375451 2.06466517e-38
-0.02260427922 -0.1189435869 -0.2002867609 2.06466517e-38
-0.009966612794 -0.185878545 -0.2046275884 2.06466517e-38
-0.002577341627 -0.07070845366 -0.2040133327 2.06466517e-38
-0.001139140921 -0.2759950459 -0.2057532072 2.06466517e-38
0.3169857264 -0.01882845908 -0.2046421617 2.06466517e-38
0.3332566619 -0.05029572174 -0.1954542845 2.06466517e-38
0.3403476179 0.006357491016 -0.1924575269 2.06466517e-38
0.3487254083 -0.1102471426 -0.1968712807 2.06466517e-38
-0.02724998444 -0.1714297235 -0.1839862168 2.06466517e-38
-0.02356534824 -0.2432047427 -0.186536327 2.06466517e-38
-0.01115642674 -0.09992167354 -0.1813149005 2.06466517e-38
-0.01334582549 -0.3231109381 -0.1874450296 2.06466517e-38
0.2088091969 -0.03626835719 -0.1947617531 2.06466517e-38
0.2160107344 -0.05739842728 -0.1887812465 2.06466517e-38
0.2375898361 -0.04085491598 -0.1799969971 2.06466517e-38
0.2311431319 -0.1055149883 -0.1912040263 2.06466517e-38
0.1871584356 -0.2878776491 -0.2044664919 2.06466517e-38
0.1704055965 -0.3411213458 -0.2022915781 2.06466517e-38
0.1909551173 -0.2279355228 -0.1939338595 2.06466517e-38
0.1936566681 -0.3724416792 -0.1989569962 2.06466517e-38
0.3169586062 -0.1000930592 -0.1964254528 2.06466517e-38
0.3340978026 -0.1475889981 -0.1949189752 2.06466517e-38
0.3439272046 -0.05283182114 -0.1959427893 2.06466517e-38
0.342980504 -0.2137317061 -0.1939097941 2.06466517e-38
-0.07806667686 -0.173001349 -0.2232710868 2.06466517e-38
-0.07334448397 -0.2375607193 -0.2177142352 2.06466517e-38
-0.05678853765 -0.109704718 -0.2186717391 2.06466517e-38
-0.0607752353 -0.3144075572 -0.2167896032 2.06466517e-38
-0.2675876021 0.07690507919 -0.3413393199 2.06466517e-38
-0.2200571597 0.08003810793 -0.3573270142 2.06466517e-38
-0.2232347578 0.07640210539 -0.2829461396 2.06466517e-38
-0.1768719405 0.07942277938 -0.3324514031 2.06466517e-38
0.190804556 -0.3003426194 -0.2062816173 2.06466517e-38
0.1837304533 -0.3627195954 -0.2070503086 2.06466517e-38
0.2014021724 -0.2315787673 -0.1979902834 2.06466517e-38
0.2035654336 -0.4059111476 -0.2005658597 2.06466517e-38
0.02121716738 -0.1721320003 -0.2066922188 2.06466517e-38
0.03174910694 -0.2415247858 -0.2061704695 2.06466517e-38
0.04733866081 -0.1105331257 -0.2014086843 2.06466517e-38
0.03944392502 -0.3262015283 -0.2084121257 2.06466517e-38
0.2335903794 -0.0246248655 -0.2152020335 2.06466517e-38
0.2416902035 -0.06046893448 -0.2039638311 2.06466517e-38
0.2584489286 -0.0229117237 -0.2008375078 2.06466517e-38
0.2521324158 -0.1266598701 -0.2103309035 2.06466517e-38
0.2229675949 -0.2974406779 -0.216245681 2.06466517e-38
0.2126967907 -0.3551535904 -0.2163024992 2.06466517e-38
0.2325033695 -0.2250529826 -0.2015706003 2.06466517e-38
0.2344501913 -0.3884864151 -0.2130165845 2.06466517e-38
0.1589220613 -0.0428090468 -0.2066023946 2.06466517e-38
0.165792495 -0.09368180484 -0.2028678209 2.06466517e-38
0.1913763881 -0.01922801137 -0.1908007264 2.06466517e-38
0.1825667471 -0.170160532 -0.1998585761 2.06466517e-38
-0.02850534022 -0.2414038181 -0.2175359875 2.06466517e-38
-0.03111714125 -0.3221036494 -0.2137988508 2.06466517e-38
-0.01251344103 -0.1581893116 -0.2094094157 2.06466517e-38
-0.01215577405 -0.398468256 -0.2079699934 2.06466517e-38
-0.02099453658 -0.287197113 -0.1998406351 2.06466517e-38
-0.03902874514 -0.3583510518 -0.1897280365 2.06466517e-38
-0.02104745992 -0.2084985822 -0.1860276014 2.06466517e-38
-0.01866238937 -0.4098249972 -0.1860888153 2.06466517e-38
0.1987352967 -0.04266871139 -0.218095988 2.06466517e-38
0.1994928122 -0.09469029307 -0.2191215754 2.06466517e-38
0.226512596 -0.01969152689 -0.2121315002 2.06466517e-38
0.2144349068 -0.167476669 -0.2179975212 2.06466517e-38
0.03267731145 -0.1650997847 -0.2103941739 2.06466517e-38
0.03519883379 -0.2392956614 -0.2021589428 2.06466517e-38
0.05410883576 -0.09900061041 -0.201515168 2.06466517e-38
0.04728355259 -0.324914217 -0.2083984911 2.06466517e-38
-0.2421787679 0.07752042264 -0.3217469752 2.06466517e-38
-0.1858252436 0.08248545974 -0.3476138115 2.06466517e-38
-0.186430037 0.08030452579 -0.2789189517 2.06466517e-38
-0.1476254314 0.0792601034 -0.3321567774 2.06466517e-38
0.2001046985 -0.07045290619 -0.1786382794 2.06466517e-38
0.2007027119 -0.118288964 -0.182680577 2.06466517e-38
0.2269649804 -0.03460102156 -0.1802919358 2.06466517e-38
0.2180186063 -0.1925712675 -0.1872433275 2.06466517e-38
-0.06167054176 -0.21993047 -0.1903034002 2.06466517e-38
-0.0605221279 -0.2503581643 -0.1825772971 2.06466517e-38
-0.0341860652 -0.1911096871 -0.1910994947 2.06466517e-38
-0.04162630439 -0.2854849696 -0.1827833802 2.06466517e-38
-0.194924131 -0.4811242223 -0.3201979995 2.06466517e-38
-0.2138399929 -0.4860244393 -0.2919671237 2.06466517e-38
-0.1891674548 -0.4800792933 -0.2238259166 2.06466517e-38
-0.1253986508 -0.4852413833 -0.2982346714 2.06466517e-38
0.2163323611 -0.1111407652 -0.1880809963 2.06466517e-38
0.2252107412 -0.1758479774 -0.1932873428 2.06466517e-38
0.2449436188 -0.05736979097 -0.1890384555 2.06466517e-38
0.2414999008 -0.247473985 -0.1908433586 2.06466517e-38
-0.2171039879 0.07609880716 -0.2033699006 2.06466517e-38
-0.1782560796 0.08099233359 -0.237277627 2.06466517e-38
-0.1469756216 0.07475560158 -0.1849781126 2.06466517e-38
-0.1331448406 0.07772233337 -0.2194752246 2.06466517e-38
0.05520442873 -0.2742438912 -0.2036356777 2.348204041e-38
0.04531159997 -0.3588961065 -0.1991540492 2.348204041e-38
0.06571662426 -0.1951644868 -0.1900216043 2.348204041e-38
0.0670510307 -0.4210267961 -0.1912062913 2.348204041e-38
0.04093948379 -0.1705262065 -0.1934590936 2.348204041e-38
0.04200776666 -0.2333392799 -0.1934988797 2.348204041e-38
0.06528430432 -0.1153961122 -0.1890365332 2.348204041e-38
0.05709887296 -0.3113794923 -0.1936139315 2.348204041e-38
0.2223275751 -0.04828162119 -0.1896443963 2.348204041e-38
0.2271373719 -0.09479112178 -0.1892114282 2.348204041e-38
0.2509777844 -0.0204808712 -0.1899721175 2.348204041e-38
0.2455009371 -0.1648387015 -0.1933537722 2.348204041e-38
-0.07126879692 -0.281116575 -0.2269853503 2.348204041e-38
-0.07266090065 -0.3375155628 -0.2158790529 2.348204041e-38
-0.0490256846 -0.2133550048 -0.2155557126 2.348204041e-38
-0.05045374483 -0.3823649287 -0.2122127712 2.348204041e-38
0.3111212254 -0.1309751272 -0.1955159456 2.348204041e-38
0.3334853947 -0.1709613949 -0.2035760432 2.348204041e-38
0.3462926447 -0.1078981012 -0.2117258459 2.348204041e-38
0.3479483724 -0.2234992683 -0.1951464415 2.348204041e-38
-0.08566179127 -0.2317534983 -0.199560836 2.348204041e-38
-0.07812844217 -0.3035277128 -0.201422587 2.348204041e-38
-0.07182429731 -0.1632404029 -0.1971072853 2.348204041e-38
-0.0715989396 -0.3727112412 -0.1924999654 2.348204041e-38
0.1715904474 -0.1373201311 -0.178966254 2.348204041e-38
0.1696647704 -0.197791025 -0.1855323017 2.348204041e-38
0.1990635991 -0.09142198414 -0.1781039983 2.348204041e-38
0.1852540821 -0.2628747821 -0.1829396635 2.348204041e-38
0.1114723608 -0.1430750042 -0.1986971051 2.348204041e-38
0.1139967814 -0.214432776 -0.198662594 2.348204041e-38
0.1433189958 -0.08753754199 -0.1960513145 2.348204041e-38
0.1297656596 -0.2898647189 -0.200407356 2.348204041e-38
0.08073416352 -0.2700630128 -0.1827438772 2.348204041e-38
0.07503710687 -0.3495806754 -0.1956574768 2.348204041e-38
0.09426679462 -0.1808538437 -0.1891770959 2.348204041e-38
0.09386942536 -0.4003269374 -0.1860252619 2.348204041e-38
0.2166042179 -0.04703561962 -0.1858067811 2.348204041e-38
0.2289514989 -0.09204863012 -0.1832740456 2.348204041e-38
0.240058437 -0.01581279188 -0.1780755371 2.348204041e-38
0.2403662652 -0.1686256528 -0.1867000312 2.348204041e-38
0.3626510799 -0.1206438094 -0.1788447946 2.348204041e-38
0.3786113858 -0.1425701082 -0.1773402542 2.348204041e-38
0.3861706853 -0.09313123673 -0.1836313903 2.348204041e-38
0.3891347349 -0.1953702718 -0.1742876321 2.348204041e-38
0.2091476768 -0.1203432679 -0.203192845 2.348204041e-38
0.2184153795 -0.1761656404 -0.2067944556 2.348204041e-38
0.2364774942 -0.07529863715 -0.2013342679 2.348204041e-38
0.2295734137 -0.245393455 -0.1994225234 2.348204041e-38
0.3202038407 -0.1290591061 -0.1971667409 2.348204041e-38
0.3339572847 -0.1756809652 -0.1944141984 2.348204041e-38
0.3503895402 -0.1012569666 -0.200233534 2.348204041e-38
0.3445908427 -0.2291666269 -0.1930286139 2.348204041e-38
-0.07957629114 -0.2127350271 -0.1941932142 2.348204041e-38
-0.07048266381 -0.2887980342 -0.1960486621 2.348204041e-38
-0.05979579687 -0.1420965642 -0.1939376295 2.348204041e-38
-0.06254355609 -0.362209022 -0.1922357529 2.348204041e-38
0.2046791911 -0.282299459 -0.1923945993 2.348204041e-38
0.203187868 -0.3595697284 -0.1996840835 2.348204041e-38
0.211943686 -0.2002239972 -0.1894901395 2.348204041e-38
0.2220306695 -0.4028916955 -0.1925888956 2.348204041e-38
-0.04483027756 -0.1786684096 -0.2153269351 2.348204041e-38
-0.03868078068 -0.2463601232 -0.2170804292 2.348204041e-38
-0.02140597999 -0.1181659102 -0.2181075215 2.348204041e-38
-0.02322022431 -0.3207113743 -0.2175271064 2.348204041e-38
0.1203960031 -0.1797085255 -0.205379799 2.348204041e-38
0.1226162016 -0.2499892712 -0.2101347893 2.348204041e-38
0.1462283283 -0.1212934181 -0.2058059871 2.348204041e-38
0.1413724124 -0.3280991912 -0.2068812847 2.348204041e-38
0.2151869684 -0.3101992905 -0.2205996066 2.348204041e-38
0.2032707632 -0.3632961512 -0.2204280198 2.348204041e-38
0.2159661949 -0.2414910495 -0.2062607855 2.348204041e-38
0.2270229906 -0.3940682113 -0.2149503231 2.348204041e-38
-0.02108602971 -0.1688634306 -0.2171195596 2.348204041e-38
-0.01477064565 -0.2411565483 -0.2112230361 2.348204041e-38
0.00289083668 -0.1076588854 -0.2097666562 2.348204041e-38
-0.003791600699 -0.3298673928 -0.213626951 2.348204041e-38
0.03059247322 -0.1729852855 -0.2031897902 2.348204041e-38
0.03692376241 -0.2419429421 -0.1979888082 2.348204041e-38
0.05310767516 -0.1124237627 -0.1976990253 2.348204041e-38
0.04621233791 -0.3254626393 -0.2034441531 2.348204041e-38
0.306545496 -0.2925778627 -0.1921150684 2.348204041e-38
0.3023110628 -0.3428634703 -0.1908639967 2.348204041e-38
0.3081899285 -0.2205242217 -0.1905221194 2.348204041e-38
0.3249434233 -0.3763972223 -0.1797471195 2.348204041e-38
0.1267136037 -0.1410687268 -0.2095898092 2.348204041e-38
0.1306270361 -0.2182792127 -0.2107375115 2.348204041e-38
0.1533354372 -0.08416898549 -0.2040967792 2.348204041e-38
0.1406078488 -0.3042374253 -0.2082065344 2.348204041e-38
0.1140552685 -0.1523540616 -0.1988692433 2.348204041e-38
0.1147424057 -0.2244409621 -0.1988680959 2.348204041e-38
0.1358597279 -0.1039158553 -0.196069926 2.348204041e-38
0.1293286383 -0.3032803833 -0.1981440187 2.348204041e-38
0.3404710889 -0.106221512 -0.2071568519 2.348204041e-38
0.3684534132 -0.1300492883 -0.2055261582 2.348204041e-38
0.3815763593 -0.05933151767 -0.213424772 2.348204041e-38
0.3763436377 -0.1939018071 -0.2018868625 2.348204041e-38
0.2274370939 -0.06986040622 -0.183429718 2.348204041e-38
0.2313982397 -0.1257653236 -0.1846776605 2.348204041e-38
0.246559605 -0.03180945665 -0.1770268977 2.348204041e-38
0.2470091432 -0.2033047974 -0.1846796125 2.348204041e-38
-0.1271181107 -0.4803542495 -0.2867298424 2.348204041e-38
-0.1473882049 -0.4891705215 -0.2585223615 2.348204041e-38
-0.1150945574 -0.4796495736 -0.1933304369 2.348204041e-38
-0.06053090468 -0.4854516387 -0.2626204789 2.348204041e-38
0.3380089402 -0.1550876051 -0.175487563 2.348204041e-38
0.3449504077 -0.2023904175 -0.1757787615 2.348204041e-38
0.3620361686 -0.1207161024 -0.1808835417 2.348204041e-38
0.3588319421 -0.2467740476 -0.1761758924 2.348204041e-38
0.2608891428 -0.05023283884 -0.1923417449 2.348204041e-38
0.2637568712 -0.08233614266 -0.1843767166 2.348204041e-38
0.2923223078 -0.04145054892 -0.1774830073 2.348204041e-38
0.2804329991 -0.1358440965 -0.185458824 2.348204041e-38
0.2465388179 -0.08541569114 -0.1913803369 2.348204041e-38
0.2549709976 -0.1381129771 -0.1888180673 2.348204041e-38
0.2704223692 -0.05086488277 -0.1827110201 2.348204041e-38
0.268779248 -0.2187918127 -0.1900046766 2.348204041e-38
-0.07745328546 -0.2118640244 -0.2090816498 2.348204041e-38
-0.06759356707 -0.281608969 -0.2112637758 2.348204041e-38
-0.04797398672 -0.1400706768 -0.2081334293 2.348204041e-38
-0.04950410873 -0.3569160104 -0.210631758 2.348204041e-38
0.3303881288 -0.1407919973 -0.194308877 2.348204041e-38
0.3407129645 -0.1858671308 -0.1964902729 2.348204041e-38
0.3543895185 -0.09796548635 -0.20095855 2.348204041e-38
0.3473548591 -0.2338395119 -0.1900424063 2.348204041e-38
-0.09892959148 -0.2259453237 -0.2095781416 2.348204041e-38
-0.09302103519 -0.3010707498 -0.2048485726 2.348204041e-38
-0.08022072166 -0.1425011903 -0.2019657791 2.348204041e-38
-0.08612418175 -0.364267081 -0.1959584206 2.348204041e-38
0.1329251081 -0.1619693935 -0.1664240509 2.346801622e-38
0.1323847324 -0.23609218 -0.1764609069 2.346801622e-38
0.1533807367 -0.09384411573 -0.1711176038 2.346801622e-38
0.1516515762 -0.3183521926 -0.1706909835 2.346801622e-38
0.2791635692 -0.1277722865 -0.2146391273 2.346801622e-38
0.2992466092 -0.1748982072 -0.2144783735 2.346801622e-38
0.2975908518 -0.08127515018 -0.2176353186 2.346801622e-38
0.3022581041 -0.2410676777 -0.2102307826 2.346801622e-38
0.2408085018 -0.1212081164 -0.1956988722 2.346801622e-38
0.2592589557 -0.1929745674 -0.1935439855 2.346801622e-38
0.2674662471 -0.07272268087 -0.1896906942 2.346801622e-38
0.2662658691 -0.2632741332 -0.188626796 2.346801622e-38
0.262422204 -0.08147758991 -0.1871825755 2.346801622e-38
0.2705729306 -0.1402755827 -0.1833342463 2.346801622e-38
0.2846155167 -0.03511661664 -0.1736849695 2.346801622e-38
0.2864976227 -0.2278476655 -0.1808990091 2.346801622e-38
0.09223058075 -0.1712044179 -0.1990264803 2.346801622e-38
0.09428552538 -0.2512981892 -0.2050399929 2.346801622e-38
0.1144641191 -0.1011982113 -0.1960392594 2.346801622e-38
0.1071925312 -0.3361471593 -0.2011962235 2.346801622e-38
0.2715186477 -0.3001926243 -0.2072016895 2.346801622e-38
0.2677566707 -0.3551917374 -0.2060875595 2.346801622e-38
0.2850573957 -0.2228650749 -0.1918019652 2.346801622e-38
0.2879461944 -0.3909997344 -0.1985291243 2.346801622e-38
0.2765455246 -0.08915960789 -0.1879982948 2.346801622e-38
0.285984993 -0.146247372 -0.1837201118 2.346801622e-38
0.2930155694 -0.04659665748 -0.1733600795 2.346801622e-38
0.2990314662 -0.2305859923 -0.1795918196 2.346801622e-38
-0.05399856344 -0.2209408879 -0.1946664751 2.346801622e-38
-0.05217768997 -0.2987442017 -0.1999412328 2.346801622e-38
-0.03117764182 -0.163921982 -0.1964275837 2.346801622e-38
-0.03086327575 -0.3728311062 -0.1978149414 2.346801622e-38
0.3653064668 -0.1195380613 -0.1822198629 2.346801622e-38
0.3830506206 -0.1441604942 -0.1799242496 2.346801622e-38
0.3979359567 -0.07963696122 -0.1876070797 2.346801622e-38
0.3889638186 -0.1996228993 -0.1818645 2.346801622e-38
-0.02913717926 -0.1998104453 -0.2100149542 2.346801622e-38
-0.03015588596 -0.2755418122 -0.2074460536 2.346801622e-38
-0.008107418194 -0.1362711638 -0.2070792168 2.346801622e-38
-0.01246438175 -0.3515299857 -0.2085216343 2.346801622e-38
0.3637418747 -0.09020201117 -0.1935808808 2.346801622e-38
0.3909617364 -0.09721931815 -0.1913427711 2.346801622e-38
0.40091151 -0.0570447892 -0.201410234 2.346801622e-38
0.3983771503 -0.1677527279 -0.1912553608 2.346801622e-38
0.209491834 -0.2780523598 -0.1986436546 2.346801622e-38
0.1995626241 -0.3410359919 -0.2003102303 2.346801622e-38
0.2266239226 -0.1965889931 -0.1858044714 2.346801622e-38
0.2248989791 -0.3779988587 -0.1966954768 2.346801622e-38
0.2548979819 -0.09412952513 -0.2066397071 2.346801622e-38
0.2692300081 -0.131995514 -0.2032198012 2.346801622e-38
0.2806055844 -0.04420512542 -0.2018498778 2.346801622e-38
0.278836906 -0.2089066505 -0.198901698 2.346801622e-38
0.1785271913 -0.1814841032 -0.1989932358 2.346801622e-38
0.1817582399 -0.2601289749 -0.1990076303 2.346801622e-38
0.1970719844 -0.1036604345 -0.1932844073 2.346801622e-38
0.1992955208 -0.3305503726 -0.1928658634 2.346801622e-38
0.2829606235 -0.0615914166 -0.202869162 2.346801622e-38
0.3003186285 -0.09949024767 -0.1966118962 2.346801622e-38
0.3052800894 -0.02648699656 -0.1926258653 2.346801622e-38
0.3066489398 -0.1642571986 -0.1955165565 2.346801622e-38
0.1493089944 -0.1461454332 -0.2064365745 2.346801622e-38
0.1575379074 -0.2241676152 -0.2084637582 2.346801622e-38
0.1767965406 -0.07932903618 -0.2058511972 2.346801622e-38
0.1701326221 -0.3012815416 -0.206020534 2.346801622e-38
0.2991436422 -0.3107536137 -0.2029549479 2.346801622e-38
0.2960639894 -0.3603462875 -0.2029911131 2.346801622e-38
0.3045390546 -0.2349776328 -0.2002619505 2.346801622e-38
0.3120929897 -0.3922164142 -0.1969387531 2.346801622e-38
0.005104343407 -0.1801552474 -0.2084962428 2.346801622e-38
0.01164352614 -0.247872293 -0.2057043314 2.346801622e-38
0.03082802333 -0.1216140389 -0.204039529 2.346801622e-38
0.02517769858 -0.3264823556 -0.2076120526 2.346801622e-38
0.1489045024 -0.202491045 -0.2017621994 2.346801622e-38
0.1514617354 -0.275785923 -0.1983926445 2.346801622e-38
0.1659508497 -0.1334417164 -0.1911065131 2.346801622e-38
0.1692053676 -0.3476574719 -0.1912504435 2.346801622e-38
0.3779815137 -0.1900667995 -0.1669409871 2.346801622e-38
0.3829118609 -0.219604522 -0.184906587 2.346801622e-38
0.3865046799 -0.1593246162 -0.188308388 2.346801622e-38
0.3992395699 -0.246797204 -0.1764673889 2.346801622e-38
0.284273684 -0.1101519167 -0.1961544156 2.346801622e-38
0.3002006114 -0.1580525637 -0.1943464577 2.346801622e-38
0.3112183511 -0.05942217261 -0.1931245923 2.346801622e-38
0.3100698292 -0.2329225838 -0.1920400411 2.346801622e-38
-0.01475439966 -0.1604075134 -0.1920655817 2.346801622e-38
-0.009542284533 -0.2296074033 -0.189600423 2.346801622e-38
0.008641654626 -0.1048858166 -0.1883551031 2.346801622e-38
6.524752825e-05 -0.3023399711 -0.1915909052 2.346801622e-38
0.2554591298 -0.2778093219 -0.1992072165 2.346801622e-38
0.2524877191 -0.3315978348 -0.2097446024 2.346801622e-38
0.2616647482 -0.2037109733 -0.1989071071 2.346801622e-38
0.2772246897 -0.3591664135 -0.1976902932 2.346801622e-38
0.3096111715 -0.2946486175 -0.2107132226 2.346801622e-38
0.3076655269 -0.3425675035 -0.2122441977 2.346801622e-38
0.3035739362 -0.2229928672 -0.2092149109 2.346801622e-38
0.3295944035 -0.374070406 -0.197516039 2.346801622e-38
0.1697550118 -0.1669957638 -0.2102816552 2.346801622e-38
0.1768434644 -0.2465580404 -0.2166662812 2.346801622e-38
0.1906185746 -0.09177720547 -0.205720067 2.346801622e-38
0.1943452805 -0.3279983401 -0.2062090486 2.346801622e-38
-0.1728989929 0.07742682844 -0.2565620542 2.346801622e-38
-0.1390091777 0.08096686751 -0.2971788645 2.346801622e-38
-0.1149622947 0.07494387776 -0.2223838121 2.346801622e-38
-0.09148176014 0.07405463606 -0.27203089 2.346801622e-38
0.2573182881 -0.2637295425 -0.1900287569 2.346801622e-38
0.2570731044 -0.3306722939 -0.1925985813 2.346801622e-38
0.2726996243 -0.191917479 -0.187202096 2.346801622e-38
0.2733722329 -0.3790819645 -0.1912140101 2.346801622e-38
0.2886490226 -0.1267960817 -0.2011847049 2.346801622e-38
0.3047231734 -0.1778522432 -0.1989745796 2.346801622e-38
0.3102813661 -0.07974904776 -0.1989906728 2.346801622e-38
0.3101881444 -0.2412586212 -0.1936467439 2.346801622e-38
0.1940519363 -0.1611324698 -0.1967143863 2.346801622e-38
0.1938406527 -0.234121114 -0.2077207565 2.346801622e-38
0.2062210292 -0.1034765765 -0.203714177 2.346801622e-38
0.2089536786 -0.3116286695 -0.2036571354 2.346801622e-38
0.1195811257 -0.1910790205 -0.2100873888 2.346801622e-38
0.1216769293 -0.2681936026 -0.2112787813 2.346801622e-38
0.1385644674 -0.1190854162 -0.2020047158 2.346801622e-38
0.1351852417 -0.3502810597 -0.2067791522 2.346801622e-38
0.2838142216 -0.2609326839 -0.1931148916 2.346801622e-38
0.2871448398 -0.3217487931 -0.1979407817 2.346801622e-38
0.2992769778 -0.1761472225 -0.1869388223 2.346801622e-38
0.305836767 -0.3568114936 -0.1873595715 2.346801622e-38
0.08643794805 -0.2134777904 -0.1892228872 2.346801622e-38
0.08392976969 -0.2845175862 -0.2005420178 2.346801622e-38
0.106252268 -0.146111995 -0.2065805495 2.346801622e-38
0.09498871863 -0.339043349 -0.2038595676 2.346801622e-38
0.3751013279 -0.1548509598 -0.1823215187 2.345219836e-38
0.3793503344 -0.1933604479 -0.1913463622 2.345219836e-38
0.3861505389 -0.1360831559 -0.1988620907 2.345219836e-38
0.3931515515 -0.2312592268 -0.1852077544 2.345219836e-38
0.3015105724 -0.1341015995 -0.1860630512 2.345219836e-38
0.3151373565 -0.1787593365 -0.1883589029 2.345219836e-38
0.3270837963 -0.09474717081 -0.1914748996 2.345219836e-38
0.3270382285 -0.2365776002 -0.1848990768 2.345219836e-38
0.297170788 -0.1342553049 -0.1804855913 2.345219836e-38
0.3096341491 -0.1847757399 -0.1766876727 2.345219836e-38
0.3224905133 -0.07641575485 -0.179008171 2.345219836e-38
0.3204338849 -0.2524008751 -0.1748985946 2.345219836e-38
0.2959515452 -0.1016335338 -0.1939524114 2.345219836e-38
0.3154847026 -0.1364473403 -0.1899728924 2.345219836e-38
0.3240234256 -0.04461166263 -0.1914704889 2.345219836e-38
0.325183332 -0.2098488808 -0.1885149181 2.345219836e-38
0.2613546252 -0.1530686915 -0.1795106381 2.345219836e-38
0.2662500143 -0.2151095271 -0.1805709004 2.345219836e-38
0.2770349383 -0.09581740946 -0.1798766404 2.345219836e-38
0.2787549794 -0.2763555944 -0.1780635267 2.345219836e-38
0.3362292945 -0.1880821139 -0.1733496785 2.345219836e-38
0.3405410051 -0.2297451198 -0.1789209992 2.345219836e-38
0.3527415991 -0.1482185721 -0.1868766397 2.345219836e-38
0.3567749858 -0.2696773112 -0.1748638153 2.345219836e-38
0.3988832831 -0.07163195312 -0.1779471338 2.345219836e-38
0.4244501591 -0.08128605038 -0.1667256206 2.345219836e-38
0.4295352995 -0.03784148395 -0.1759583652 2.345219836e-38
0.4289227426 -0.1474847496 -0.172181204 2.345219836e-38
0.1774210483 -0.181621626 -0.2050891221 2.345219836e-38
0.1786459684 -0.2578933537 -0.2046183497 2.345219836e-38
0.2009058595 -0.1143445224 -0.1951859295 2.345219836e-38
0.1981387436 -0.3297170997 -0.1992825568 2.345219836e-38
-0.1258963495 -0.4782305062 -0.3201522827 2.345219836e-38
-0.1586219519 -0.488071233 -0.3028179109 2.345219836e-38
-0.1126891151 -0.482236594 -0.2285170257 2.345219836e-38
-0.0649587065 -0.4837859571 -0.3069577217 2.345219836e-38
0.2471771389 -0.1504056007 -0.202884987 2.345219836e-38
0.2582134306 -0.2200886905 -0.2048532516 2.345219836e-38
0.2665926814 -0.1020009965 -0.2025354207 2.345219836e-38
0.2663661242 -0.2813214064 -0.2007434666 2.345219836e-38
0.1667776853 -0.2869711816 -0.2068569809 2.345219836e-38
0.1551001072 -0.3625957966 -0.2178848684 2.345219836e-38
0.169992581 -0.2119285762 -0.2129308134 2.345219836e-38
0.1791722178 -0.4085662961 -0.207566157 2.345219836e-38
0.2079112083 -0.1850010753 -0.1971189678 2.345219836e-38
0.2179621458 -0.2637467682 -0.2004360557 2.345219836e-38
0.2189083099 -0.133556813 -0.1968522072 2.345219836e-38
0.2281389982 -0.3394127488 -0.2035229951 2.345219836e-38
0.05506976694 -0.199903667 -0.2068405747 2.345219836e-38
0.0548463352 -0.2698329091 -0.206972301 2.345219836e-38
0.07101996988 -0.1376403719 -0.2020386159 2.345219836e-38
0.06623467058 -0.3500918746 -0.2071017623 2.345219836e-38
0.2889098525 -0.2692700028 -0.1827750653 2.345219836e-38
0.2917106748 -0.3366595805 -0.1923416257 2.345219836e-38
0.306304872 -0.1868537068 -0.1831975728 2.345219836e-38
0.3075710833 -0.3782161772 -0.1854337901 2.345219836e-38
0.09322027862 -0.3004841208 -0.2171037793 2.345219836e-38
0.07498056442 -0.3596657813 -0.2106691152 2.345219836e-38
0.09421824664 -0.214749217 -0.2150965631 2.345219836e-38
0.09531142563 -0.4004528224 -0.2047161311 2.345219836e-38
0.3199646771 -0.1233379245 -0.1854534149 2.345219836e-38
0.3432606757 -0.1605699062 -0.1888622046 2.345219836e-38
0.3461708128 -0.07943937182 -0.1890136749 2.345219836e-38
0.3518664539 -0.2262852788 -0.1803163141 2.345219836e-38
0.2609962225 -0.1917887628 -0.1848014891 2.345219836e-38
0.2671979666 -0.2613588572 -0.1950477362 2.345219836e-38
0.2851811349 -0.1349226236 -0.1912545264 2.345219836e-38
0.2808939517 -0.3142998517 -0.1908187717 2.345219836e-38
0.2834978402 -0.1585435122 -0.1940884143 2.345219836e-38
0.2939940095 -0.2278159261 -0.1943980306 2.345219836e-38
0.3019308746 -0.1249043122 -0.1935646385 2.345219836e-38
0.3050327301 -0.2825546563 -0.1897539496 2.345219836e-38
0.2839197516 -0.3162118495 -0.1958931088 2.345219836e-38
0.2687709928 -0.3467155993 -0.193888858 2.345219836e-38
0.2930271029 -0.2739593685 -0.1915053874 2.345219836e-38
0.2993570566 -0.3684683442 -0.1869960725 2.345219836e-38
-0.01208432391 -0.2394600511 -0.2186751217 2.345219836e-38
-0.02053099684 -0.3046717048 -0.2148474455 2.345219836e-38
0.002455856418 -0.1649678648 -0.2216095328 2.345219836e-38
-0.00363765331 -0.357206285 -0.2138712406 2.345219836e-38
0.4467630386 -0.07546289265 -0.199055329 2.345219836e-38
0.4651499391 -0.09289579093 -0.1974130571 2.345219836e-38
0.4718371928 -0.0658659488 -0.1961455494 2.345219836e-38
0.4705486298 -0.1408717483 -0.1958215088 2.345219836e-38
0.07393714041 -0.240721494 -0.2141323835 2.345219836e-38
0.07339753211 -0.3170781732 -0.2148068696 2.345219836e-38
0.09194667637 -0.1684752852 -0.2054046094 2.345219836e-38
0.08316557854 -0.3890007138 -0.2126278132 2.345219836e-38
-0.006215440109 -0.2787705362 -0.2192129195 2.345219836e-38
-0.01534548122 -0.3524115086 -0.2159691304 2.345219836e-38
-0.003850968089 -0.1983342767 -0.2112639099 2.345219836e-38
-0.001251834794 -0.4093742073 -0.2102874815 2.345219836e-38
0.2889357507 -0.1751386225 -0.178076148 2.345219836e-38
0.298220396 -0.2537949383 -0.1843495667 2.345219836e-38
0.3038462102 -0.1242420524 -0.1831325144 2.345219836e-38
0.3089729846 -0.3087181151 -0.1800931245 2.345219836e-38
0.2371787578 -0.266574949 -0.1952635348 2.345219836e-38
0.2375964075 -0.3202329576 -0.2034953833 2.345219836e-38
0.2577980459 -0.1826986223 -0.2005545795 2.345219836e-38
0.2607676387 -0.3570412397 -0.1982496679 2.345219836e-38
0.4554812014 -0.1441425383 -0.1999490559 2.345219836e-38
0.473685205 -0.1576563418 -0.2052456439 2.345219836e-38
0.4852927625 -0.1330608279 -0.1911349744 2.345219836e-38
0.4587964416 -0.207811594 -0.2019423991 2.345219836e-38
0.1425237507 -0.2212891877 -0.2111239135 2.345219836e-38
0.1435799897 -0.2978992462 -0.2163176984 2.345219836e-38
0.1542055905 -0.1396298558 -0.2088150531 2.345219836e-38
0.1555795968 -0.3655590415 -0.2093437314 2.345219836e-38
-0.04108541831 -0.2331438661 -0.2133845836 2.345219836e-38
-0.04138343781 -0.3114432395 -0.2118939608 2.345219836e-38
-0.02041504718 -0.1682131886 -0.2087289393 2.345219836e-38
-0.02009249479 -0.3762438893 -0.2110196799 2.345219836e-38
0.2720151842 -0.1509183347 -0.1993122548 2.345219836e-38
0.2816112936 -0.2248601317 -0.2054228038 2.345219836e-38
0.2894849181 -0.109709315 -0.2002146095 2.345219836e-38
0.2883205414 -0.2859282196 -0.202693671 2.345219836e-38
0.08690940589 -0.2610018253 -0.205411911 2.345219836e-38
0.08059599251 -0.3470368385 -0.2233469486 2.345219836e-38
0.09357387573 -0.1763868034 -0.2148859501 2.345219836e-38
0.09661581367 -0.4019727409 -0.212411359 2.345219836e-38
0.255600512 -0.1679784358 -0.1974170208 2.345219836e-38
0.2657260299 -0.2515469491 -0.2041842043 2.345219836e-38
0.2671214938 -0.1164281592 -0.1976554692 2.345219836e-38
0.2722736299 -0.3285426497 -0.2012882531 2.345219836e-38
0.1854354441 -0.2654197514 -0.2075940371 2.345219836e-38
0.1768491417 -0.3233978748 -0.2151903212 2.345219836e-38
0.2018631846 -0.1997283995 -0.2024619877 2.345219836e-38
0.2025746256 -0.3575161994 -0.2143560797 2.345219836e-38
0.4427175522 -0.08646073937 -0.209630236 2.343458544e-38
0.461548388 -0.1066892967 -0.2002187222 2.343458544e-38
0.4662559927 -0.08012595773 -0.2049958259 2.343458544e-38
0.463236481 -0.1545144916 -0.2028789967 2.343458544e-38
0.01565762609 -0.2355473042 -0.2229710519 2.343458544e-38
0.009484627284 -0.3120386899 -0.2191818953 2.343458544e-38
0.03543449938 -0.1603829563 -0.2104248703 2.343458544e-38
0.02504788898 -0.3805634379 -0.2165049613 2.343458544e-38
-0.005416038446 -0.2485578358 -0.1946859956 2.343458544e-38
-0.01337003428 -0.3297797441 -0.1921245903 2.343458544e-38
0.004574204795 -0.1699792743 -0.1877126247 2.343458544e-38
0.003183291527 -0.3919965625 -0.1921449453 2.343458544e-38
0.2922727466 -0.1450446695 -0.2096903622 2.343458544e-38
0.3107988536 -0.2151858211 -0.2167605311 2.343458544e-38
0.3097747862 -0.1067819297 -0.2175281048 2.343458544e-38
0.316816926 -0.2728351951 -0.2105038762 2.343458544e-38
0.2004412115 -0.2631057203 -0.2112654001 2.343458544e-38
0.1963856816 -0.3188342154 -0.2165954262 2.343458544e-38
0.2181350142 -0.1974443048 -0.2029869556 2.343458544e-38
0.2179702222 -0.3569422364 -0.2155657262 2.343458544e-38
0.3555670381 -0.07568734139 -0.1939263046 2.343458544e-38
0.3856288195 -0.07858088613 -0.1862364411 2.343458544e-38
0.3960824311 -0.06281255186 -0.1977517307 2.343458544e-38
0.3929838538 -0.1447754204 -0.1915590763 2.343458544e-38
0.1193990484 -0.1958831102 -0.2175872773 2.343458544e-38
0.123313114 -0.2730857432 -0.2208323628 2.343458544e-38
0.1377286911 -0.123680912 -0.2121612877 2.343458544e-38
0.1343402863 -0.3527753651 -0.2166793793 2.343458544e-38
0.0236782562 -0.2439239919 -0.2244990915 2.343458544e-38
0.01874330826 -0.3154572248 -0.2197461277 2.343458544e-38
0.02887726761 -0.1780862808 -0.2174338847 2.343458544e-38
0.03012369014 -0.3842626512 -0.2195161581 2.343458544e-38
0.3144774735 -0.2807615101 -0.2258433402 2.343458544e-38
0.3093685508 -0.3099327087 -0.2198390067 2.343458544e-38
0.3261817992 -0.2392342389 -0.2190009654 2.343458544e-38
0.3312699497 -0.3402813375 -0.2152802199 2.343458544e-38
0.2082360983 -0.2128422558 -0.2034237236 2.343458544e-38
0.2130286992 -0.2955866456 -0.2087304592 2.343458544e-38
0.2164950222 -0.1477632821 -0.2064374387 2.343458544e-38
0.2277822644 -0.3580058515 -0.2073577642 2.343458544e-38
-0.08905305713 -0.4714157581 -0.3397000134 2.343458544e-38
-0.1163177267 -0.4881325066 -0.3176129758 2.343458544e-38
-0.06370206922 -0.476426214 -0.2466673851 2.343458544e-38
-0.02934762836 -0.4829556048 -0.3284772038 2.343458544e-38
0.2999429703 -0.1669504493 -0.2100655586 2.343458544e-38
0.307030797 -0.2418089509 -0.216742605 2.343458544e-38
0.3070464432 -0.114277333 -0.2098902464 2.343458544e-38
0.3128454685 -0.3001764119 -0.2081955373 2.343458544e-38
0.1850082427 -0.2440773547 -0.202491343 2.343458544e-38
0.1803428084 -0.3145286143 -0.2100575566 2.343458544e-38
0.1957501769 -0.1835997105 -0.2040764391 2.343458544e-38
0.2033542395 -0.3619466126 -0.2099648565 2.343458544e-38
0.3832829595 -0.199295342 -0.2012193203 2.343458544e-38
0.3878894448 -0.2416355312 -0.2124827653 2.343458544e-38
0.3949012756 -0.1801974922 -0.2182484716 2.343458544e-38
0.4098470211 -0.2685436606 -0.2021304369 2.343458544e-38
0.1043863371 -0.2255268097 -0.2279456705 2.343458544e-38
0.1004005596 -0.3055703938 -0.2320370078 2.343458544e-38
0.1162634566 -0.142634809 -0.2243060172 2.343458544e-38
0.113723956 -0.3755823076 -0.2282455415 2.343458544e-38
-0.1377617121 -0.4761824012 -0.3003814816 2.343458544e-38
-0.1707099229 -0.4873237014 -0.2663524151 2.343458544e-38
-0.1213295981 -0.4777190387 -0.1971132904 2.343458544e-38
-0.06565794349 -0.4829754233 -0.2642474771 2.343458544e-38
0.0357221067 -0.1884600073 -0.2282324284 2.343458544e-38
0.03727843612 -0.2570061684 -0.2218071669 2.343458544e-38
0.05491974205 -0.1282327026 -0.2216317058 2.343458544e-38
0.04757633805 -0.3420972526 -0.2249962837 2.343458544e-38
-0.1078274921 -0.4796897769 -0.2781952024 2.343458544e-38
-0.140835315 -0.4909982681 -0.2359512746 2.343458544e-38
-0.08942386508 -0.4777273834 -0.1736399233 2.343458544e-38
-0.03634382784 -0.4850005209 -0.2434853315 2.343458544e-38
0.1901493371 -0.2027264833 -0.2077823877 2.343458544e-38
0.1892359704 -0.2706022263 -0.2097502947 2.343458544e-38
0.2066939324 -0.1580114067 -0.2104529291 2.343458544e-38
0.2117669135 -0.3226258457 -0.2067375034 2.343458544e-38
0.2533610165 -0.2131793797 -0.2158780247 2.343458544e-38
0.2658166885 -0.2921255231 -0.2256619483 2.343458544e-38
0.2498724312 -0.1610427201 -0.2307982892 2.343458544e-38
0.2734686732 -0.3488092124 -0.222026825 2.343458544e-38
-0.2116317004 0.07878764719 -0.3548701704 2.343458544e-38
-0.1636857837 0.08334491402 -0.3752781451 2.343458544e-38
-0.1508991122 0.07862632722 -0.2907021642 2.343458544e-38
-0.1008451357 0.07994034141 -0.3548815548 2.343458544e-38
0.146769926 -0.2342689633 -0.2092277557 2.343458544e-38
0.1436496079 -0.3217925429 -0.2116767615 2.343458544e-38
0.1588662565 -0.1495594829 -0.2024123073 2.343458544e-38
0.1643958092 -0.3880101144 -0.2026517838 2.343458544e-38
0.1356196404 -0.2334987819 -0.1995305121 2.343458544e-38
