# .PCD v0.7 - Point Cloud Data file format
VERSION 0.7
FIELDS x y z rgb
SIZE 4 4 4 4
TYPE F F F F
COUNT 1 1 1 1
WIDTH 851
HEIGHT 1
VIEWPOINT 0 0 0 1 0 0 0
POINTS 851
DATA ascii
0.07748094946 -0.3097952306 0.1970569342 3.015101038e-39
0.07396163046 -0.1504660547 0.2243068665 3.015101038e-39
0.07919409126 -0.2303207964 0.2266769856 3.015101038e-39
0.08132021129 -0.2835327685 0.216026783 3.015101038e-39
0.08415749669 -0.3929293752 0.2267239541 3.015101038e-39
0.07765557617 -0.2090757787 0.2326596826 3.015101038e-39
0.07870088518 -0.3251618445 0.2461007684 3.015101038e-39
0.1889393032 -0.2178851068 0.09426434338 3.015101038e-39
0.2037998587 -0.3299827874 0.09687875211 3.015101038e-39
0.2011549771 -0.1522728354 0.09943428636 3.015101038e-39
0.2108492404 -0.2572498024 0.09811392426 3.015101038e-39
0.1322880685 -0.2628263533 0.1056870297 3.015101038e-39
0.1398721039 -0.3772778809 0.1052445471 3.015101038e-39
0.1306384355 -0.1770270616 0.1136784106 3.015101038e-39
0.1405058652 -0.3017204702 0.1078794897 3.015101038e-39
0.07424839586 -0.1834729165 0.1809490323 3.015101038e-39
0.07384578884 -0.3026394844 0.1851661205 3.015101038e-39
0.07005318999 -0.1204586402 0.1902819276 3.015101038e-39
0.06516057998 -0.2239677906 0.1941431165 3.015101038e-39
0.1740623116 -0.2074138224 0.09368982911 3.015101038e-39
0.1814087927 -0.3305674195 0.09921186417 3.015101038e-39
0.1770906001 -0.134422496 0.1027501971 3.015101038e-39
0.1847377867 -0.2539560795 0.1004978567 3.015101038e-39
0.1781428158 -0.2217542678 0.1085556075 3.015101038e-39
0.193836078 -0.3383516669 0.1121519208 3.015101038e-39
0.1910195798 -0.1576861739 0.1173649207 3.015101038e-39
0.2036115825 -0.2635768354 0.1171579212 3.015101038e-39
0.1771976948 -0.2442009747 0.1069282368 3.015101038e-39
0.1926993132 -0.3610479534 0.1097199768 3.015101038e-39
0.1912306547 -0.1730533987 0.1166173443 3.015101038e-39
0.2035423368 -0.2882678807 0.1150589883 3.015101038e-39
0.08766613901 -0.1585912108 0.1035303399 3.015101038e-39
0.1169492826 -0.2497040927 0.10277123 3.015101038e-39
0.1179522276 -0.1430291235 0.1081745028 3.015101038e-39
0.1245404109 -0.1703171134 0.1040515229 3.015101038e-39
0.07443782687 -0.1700665504 0.1699041724 3.015101038e-39
0.07578249276 -0.2753167748 0.1855801195 3.015101038e-39
0.07384768873 -0.1452909559 0.192845434 3.015101038e-39
0.07042048126 -0.2027242184 0.1959125847 3.015101038e-39
0.09753589332 -0.168574363 0.1370596737 3.015101038e-39
0.1017358378 -0.2337763608 0.160271585 3.015101038e-39
0.09568560123 -0.1516599059 0.1770711243 3.015101038e-39
0.09507533163 -0.1766792238 0.158243373 3.015101038e-39
0.1502052695 -0.1834838837 0.1095423251 3.015101038e-39
0.1569777131 -0.2881858945 0.108481735 3.015101038e-39
0.1504296362 -0.1379541606 0.1173486114 3.015101038e-39
0.1603308022 -0.2187176794 0.1114413068 3.015101038e-39
0.08088429272 -0.2095031887 0.228332147 3.015101038e-39
0.08464866877 -0.319234848 0.2394483835 3.015101038e-39
0.07982414216 -0.1560844779 0.2449176013 3.015101038e-39
0.08006677777 -0.2463570237 0.2559346557 3.015101038e-39
0.0930781886 -0.2360139787 0.2622533143 3.015101038e-39
0.09571436793 -0.308211863 0.2802986503 3.015101038e-39
0.0881184116 -0.2048596889 0.2831874192 3.015101038e-39
0.09123434871 -0.2586095333 0.296865195 3.015101038e-39
0.1285597533 -0.2008799314 0.1526406556 3.015101038e-39
0.130396992 -0.2690477967 0.1570010334 3.015101038e-39
0.1269556731 -0.1689145267 0.1639367789 3.015101038e-39
0.1312604249 -0.224103272 0.1542007625 3.015101038e-39
0.07666707039 -0.2635206878 0.2342350781 3.015101038e-39
0.07988541573 -0.3840774894 0.2484329194 3.015101038e-39
0.07635720819 -0.1907046735 0.2532146573 3.015101038e-39
0.0748648867 -0.3051842749 0.2674667835 3.015101038e-39
0.07222165167 -0.1583342999 0.1422287077 3.015101038e-39
0.07199866325 -0.2836347818 0.1806106865 3.015101038e-39
0.06802351028 -0.1159397066 0.2066264153 3.015101038e-39
0.06644886732 -0.1972605586 0.2062609643 3.015101038e-39
0.08580241352 -0.1418440193 0.1018024832 3.015101038e-39
0.0867511034 -0.247815311 0.1132071614 3.015101038e-39
0.08668268472 -0.1265218258 0.1281878501 3.015101038e-39
0.08737449348 -0.1656848788 0.1143745556 3.015101038e-39
0.08386798948 -0.250038892 0.3118736744 3.015101038e-39
0.08974292874 -0.3058379889 0.3292016387 3.015101038e-39
0.07733646035 -0.213009268 0.328853339 3.015101038e-39
0.07611914724 -0.2741079628 0.3433817327 3.015101038e-39
0.1017196253 -0.2429170012 0.2526716888 3.015101038e-39
0.1085253507 -0.3046449423 0.2670817673 3.015101038e-39
0.09925615042 -0.2091165781 0.2740444541 3.015101038e-39
0.1011553332 -0.2645958364 0.281326443 3.015101038e-39
0.1023765951 -0.1521890163 0.09484771639 3.015101038e-39
0.1115876809 -0.2541434765 0.096565485 3.015101038e-39
0.1131860092 -0.141375944 0.1041709036 3.015101038e-39
0.1116801202 -0.174025774 0.09852074832 3.015101038e-39
0.1847777963 -0.3599752486 0.09399051964 3.015101038e-39
0.185297519 -0.4303854704 0.09517079592 3.015101038e-39
0.1833804995 -0.2828969359 0.105059728 3.015101038e-39
0.1981412768 -0.3944223821 0.09959939122 3.015101038e-39
0.102241382 -0.2381808162 0.2402769327 3.015101038e-39
0.1078668982 -0.3011661768 0.2439128906 3.015101038e-39
0.1025170311 -0.2041981071 0.2454538047 3.015101038e-39
0.1105012149 -0.256428659 0.2510726154 3.015101038e-39
0.17843844 -0.19461146 0.1126019061 5.962428276e-39
0.1971140653 -0.3074552417 0.1128248274 5.962428276e-39
0.1932064593 -0.1487479508 0.1171085909 5.962428276e-39
0.202521801 -0.2302003503 0.1172671467 5.962428276e-39
0.1122800484 -0.2830432653 0.3812839091 5.962428276e-39
0.1140467748 -0.3159031272 0.3870819807 5.962428276e-39
0.09861470759 -0.2661693394 0.3922593892 5.962428276e-39
0.1245062277 -0.3083148003 0.3931006789 5.962428276e-39
0.1476854831 -0.1754789352 0.1015821919 5.962428276e-39
0.1617714167 -0.2705547512 0.1057981029 5.962428276e-39
0.1599090695 -0.1624887884 0.1087840945 5.962428276e-39
0.1696673781 -0.2027568221 0.1058013141 5.962428276e-39
0.1683754772 -0.3451200128 0.1068849266 5.962428276e-39
0.1695274562 -0.4391675591 0.1100351214 5.962428276e-39
0.1649926901 -0.262689501 0.1191342175 5.962428276e-39
0.1729286313 -0.3907184005 0.1129526868 5.962428276e-39
0.08689282089 -0.2177091837 0.239018172 5.962428276e-39
0.08973082155 -0.3233886957 0.2478440851 5.962428276e-39
0.08454472572 -0.1725420654 0.2515380085 5.962428276e-39
0.08476815373 -0.2527237833 0.261977911 5.962428276e-39
0.08677561581 -0.2743265629 0.2466239482 5.962428276e-39
0.0902755484 -0.3817783296 0.260443598 5.962428276e-39
0.08196689188 -0.2022513747 0.2685218751 5.962428276e-39
0.08075813949 -0.3228784502 0.2787852883 5.962428276e-39
0.08406793326 -0.2358712554 0.2742152512 5.962428276e-39
0.08471103758 -0.3069742322 0.2922095358 5.962428276e-39
0.07799036056 -0.2008807659 0.296431452 5.962428276e-39
0.07955444604 -0.2590520382 0.309869349 5.962428276e-39
0.1218851879 -0.2358346283 0.2393625081 5.962428276e-39
0.1214913577 -0.3070978224 0.2541291118 5.962428276e-39
0.1189256087 -0.1981114745 0.2581966221 5.962428276e-39
0.1185838506 -0.2562582791 0.2645396292 5.962428276e-39
0.08223066479 -0.1345668882 0.095257245 5.962428276e-39
0.0828133449 -0.2409052849 0.1036410928 5.962428276e-39
0.08439964801 -0.1187455207 0.1210066155 5.962428276e-39
0.08503943682 -0.1647780538 0.1047686338 5.962428276e-39
0.08340946585 -0.1797211915 0.1490877271 5.962428276e-39
0.08137026429 -0.3007884324 0.1731526703 5.962428276e-39
0.07959187776 -0.1213759258 0.1975748986 5.962428276e-39
0.07808059454 -0.2159921676 0.2012432814 5.962428276e-39
0.1478760988 -0.2862145603 0.3013394177 5.962428276e-39
0.1584579051 -0.3249622583 0.3033420146 5.962428276e-39
0.1428190917 -0.2621567845 0.3094020784 5.962428276e-39
0.15814282 -0.3073159754 0.3102301061 5.962428276e-39
0.09474943578 -0.2349406481 0.3093032539 5.962428276e-39
0.1038326919 -0.2942057848 0.3188424706 5.962428276e-39
0.09224837273 -0.2028797418 0.3196247518 5.962428276e-39
0.09895858914 -0.2594552934 0.329785645 5.962428276e-39
0.07338491082 -0.1318706274 0.1038328484 5.962428276e-39
0.07367004454 -0.2349318862 0.1162426099 5.962428276e-39
0.07239852846 -0.1179885566 0.1343158633 5.962428276e-39
0.0744086951 -0.1579213589 0.1161369011 5.962428276e-39
0.09617107362 -0.1527450085 0.1730512083 5.962428276e-39
0.09066998214 -0.2330973148 0.2001570463 5.962428276e-39
0.08900754899 -0.1214938089 0.2134724706 5.962428276e-39
0.08621732146 -0.1725651771 0.2104577869 5.962428276e-39
0.08909212053 -0.189437896 0.2308856994 5.962428276e-39
0.08579435199 -0.2723110318 0.2441684306 5.962428276e-39
0.08402997255 -0.1520219147 0.2433657944 5.962428276e-39
0.08399286866 -0.2160935104 0.2510688603 5.962428276e-39
0.1853452772 -0.220092237 0.08822799474 5.962428276e-39
0.1996411383 -0.3284707963 0.09128203988 5.962428276e-39
0.1975872368 -0.1532306522 0.09192463756 5.962428276e-39
0.2094145864 -0.2587092817 0.09036573768 5.962428276e-39
0.1257653981 -0.1665566862 0.1137923747 5.962428276e-39
0.1383848339 -0.2271770984 0.1126197353 5.962428276e-39
0.1344238967 -0.1406150907 0.1196238473 5.962428276e-39
0.1387088597 -0.1859668344 0.110683389 5.962428276e-39
0.08197321743 -0.1613411307 0.1391499788 5.962428276e-39
0.08184608817 -0.2504352331 0.1735328287 5.962428276e-39
0.07693372667 -0.150097698 0.2046035677 5.962428276e-39
0.07828307897 -0.1832889616 0.1937752068 5.962428276e-39
0.08889245242 -0.1976343244 0.2444963008 5.962428276e-39
0.09007606655 -0.2761322558 0.2569142878 5.962428276e-39
0.08638712764 -0.1627525091 0.2555223405 5.962428276e-39
0.09079805762 -0.2252091169 0.2649528086 5.962428276e-39
0.1694617867 -0.2879401445 0.09274593741 5.962428276e-39
0.1711565256 -0.3992481828 0.09551314265 5.962428276e-39
0.165077284 -0.2024049312 0.1004988253 5.962428276e-39
0.1735645533 -0.3281860054 0.09434340894 5.962428276e-39
0.1791201979 -0.348117888 0.09576331079 5.962428276e-39
0.1823383272 -0.4415576756 0.09713191539 5.962428276e-39
0.1776462793 -0.2609828413 0.105796285 5.962428276e-39
0.1848664582 -0.3933294713 0.1062659174 5.962428276e-39
0.1062848791 -0.2364662886 0.369971931 5.962428276e-39
0.1116621122 -0.2797039449 0.3720151782 5.962428276e-39
0.1003096774 -0.2082283199 0.3753431141 5.962428276e-39
0.1114686951 -0.2570936382 0.3815586567 5.962428276e-39
0.1893395782 -0.1951436251 0.1031936184 5.962428276e-39
0.206939593 -0.3077534735 0.1039353609 5.962428276e-39
0.2006570846 -0.1404300332 0.1082494184 5.962428276e-39
0.2088989913 -0.2353819609 0.1087596193 5.962428276e-39
0.1138302013 -0.2234670967 0.290517658 5.962428276e-39
0.1239641905 -0.2851222157 0.2963359654 5.962428276e-39
0.1181661487 -0.1923824251 0.2964161038 5.962428276e-39
0.1224942505 -0.2489158809 0.3026661277 5.962428276e-39
0.1678377837 -0.2514722049 0.2800326049 5.962428276e-39
0.1721544415 -0.299664259 0.2884266973 5.962428276e-39
0.1701330543 -0.2130546272 0.2871285975 5.962428276e-39
0.1716653109 -0.2740031779 0.2911559045 5.962428276e-39
0.1665004492 -0.3426625431 0.1088364273 5.962428276e-39
0.1693033725 -0.4393648803 0.1137294248 5.962428276e-39
0.1653589308 -0.2591014206 0.121361725 5.962428276e-39
0.1745892614 -0.3904772699 0.1168741733 5.962428276e-39
0.06249855459 -0.1309248954 0.1254017502 5.962428276e-39
0.09166543931 -0.1786182225 0.1303634048 5.962428276e-39
0.08477465808 -0.1181235686 0.1374432743 5.962428276e-39
0.1017187685 -0.1379669905 0.1297390908 5.962428276e-39
0.1708983183 -0.3704003692 0.1015494391 5.962428276e-39
0.171971187 -0.4388960898 0.1050643623 5.962428276e-39
0.1704862863 -0.2864612639 0.1118664593 5.962428276e-39
0.1810786575 -0.4061361253 0.108367227 5.962428276e-39
0.1854052097 -0.2462766469 0.1035788432 5.962428276e-39
0.1994478256 -0.3598344922 0.105249688 5.962428276e-39
0.1992611438 -0.1730740964 0.1124288291 5.962428276e-39
0.2122360766 -0.2912817597 0.1097292304 5.962428276e-39
0.1978549659 -0.2488677502 0.09623386711 5.962428276e-39
0.2105311155 -0.3616303802 0.09823321551 5.962428276e-39
0.2093015313 -0.17825827 0.1017259136 5.962428276e-39
0.2167097777 -0.2888666391 0.1008013934 5.962428276e-39
0.07485640794 -0.1949069202 0.2919358909 5.962428276e-39
0.07053725421 -0.2600063384 0.3092437088 5.962428276e-39
0.06499682367 -0.172973007 0.3108746409 5.962428276e-39
0.07948842645 -0.2196292877 0.3148162961 5.962428276e-39
0.126224786 -0.139459163 0.1404076368 5.962428276e-39
0.1300756633 -0.1996814609 0.1497811675 5.962428276e-39
0.1245793104 -0.1169731468 0.1600168049 5.962428276e-39
0.1351478398 -0.1504727304 0.1475584358 5.962428276e-39
0.1513000876 -0.2235094309 0.2775024474 8.906165387e-39
0.1537753791 -0.2821367681 0.2836558223 8.906165387e-39
0.1479016989 -0.1947705746 0.2845891714 8.906165387e-39
0.1559488475 -0.2460465133 0.2893654704 8.906165387e-39
0.1009983644 -0.2115164548 0.2367458642 8.906165387e-39
0.1042985916 -0.2898706496 0.2438657284 8.906165387e-39
0.1001822874 -0.1701394022 0.2467629462 8.906165387e-39
0.1056462675 -0.2347893715 0.2542731464 8.906165387e-39
0.07795259356 -0.203629002 0.2667014599 8.906165387e-39
0.08017225564 -0.3122659326 0.2843702435 8.906165387e-39
0.07538087666 -0.1469099075 0.2871218622 8.906165387e-39
0.07349564135 -0.2439367175 0.2983198762 8.906165387e-39
0.09225391597 -0.147259444 0.1710505486 8.906165387e-39
0.08559573442 -0.2220233977 0.1907238662 8.906165387e-39
0.08419831097 -0.1201695651 0.1982054561 8.906165387e-39
0.08451150358 -0.1610277593 0.1946033239 8.906165387e-39
0.1966015399 -0.1848847717 0.1115357652 8.906165387e-39
0.2155453265 -0.2867276669 0.1120549887 8.906165387e-39
0.2102086544 -0.1382664144 0.1168865934 8.906165387e-39
0.2280923128 -0.2148823142 0.1159430966 8.906165387e-39
0.1713580638 -0.2701387703 0.1119485423 8.906165387e-39
0.1822603345 -0.3772569299 0.112885505 8.906165387e-39
0.1792126447 -0.1925045103 0.1199362949 8.906165387e-39
0.1897280365 -0.310664326 0.1174090356 8.906165387e-39
0.1372772157 -0.2348300219 0.3905394077 8.906165387e-39
0.1387600154 -0.2676003873 0.3941052556 8.906165387e-39
0.125888437 -0.2162295282 0.3996250927 8.906165387e-39
0.1454724222 -0.2592284381 0.3983839154 8.906165387e-39
0.1453445554 -0.2354618609 0.2817001045 8.906165387e-39
0.150332436 -0.2800017595 0.2956857383 8.906165387e-39
0.1416105777 -0.2084104121 0.3049896061 8.906165387e-39
0.1515158713 -0.2509092391 0.3039681911 8.906165387e-39
0.1539367884 -0.2274966687 0.3293007314 8.906165387e-39
0.1584031135 -0.2837406993 0.3279027641 8.906165387e-39
0.1488995701 -0.1941960156 0.3287800252 8.906165387e-39
0.157179296 -0.2572692931 0.3367024958 8.906165387e-39
0.07773548365 -0.1777409613 0.3145882487 8.906165387e-39
0.08318974823 -0.2475066185 0.3282211125 8.906165387e-39
0.07047747821 -0.147058174 0.3269465864 8.906165387e-39
0.082765311 -0.2033245265 0.3359542489 8.906165387e-39
0.1178955659 -0.1610036194 0.2079848051 8.906165387e-39
0.1221849173 -0.2293717563 0.2110039741 8.906165387e-39
0.1201169789 -0.1342513561 0.2178430855 8.906165387e-39
0.1352678984 -0.1737038493 0.2155872881 8.906165387e-39
0.1191405505 -0.1788429916 0.2042300999 8.906165387e-39
0.1186820418 -0.2506835163 0.2158282697 8.906165387e-39
0.1160854995 -0.1530015171 0.2264636606 8.906165387e-39
0.1301472038 -0.1987905502 0.2229303122 8.906165387e-39
0.1498243064 -0.2296205163 0.3198586106 8.906165387e-39
0.1525955647 -0.2778188884 0.3248043656 8.906165387e-39
0.1414360553 -0.2007271498 0.3278962076 8.906165387e-39
0.1514549553 -0.2586085498 0.3295191228 8.906165387e-39
0.1789683253 -0.3388694525 0.1072053909 8.906165387e-39
0.1820803434 -0.3937222362 0.1099292114 8.906165387e-39
0.1855286956 -0.2553981543 0.1206998974 8.906165387e-39
0.1996245682 -0.3623177707 0.1143725887 8.906165387e-39
0.1670949012 -0.3403977752 0.108892642 8.906165387e-39
0.1719578058 -0.4352886081 0.1119989604 8.906165387e-39
0.1677693427 -0.2614726126 0.1213270649 8.906165387e-39
0.181502372 -0.3794839084 0.1156473607 8.906165387e-39
0.1009063274 -0.1735273749 0.2274811119 8.906165387e-39
0.09849885106 -0.2465496659 0.2316988707 8.906165387e-39
0.09521389008 -0.1484878212 0.2343886346 8.906165387e-39
0.09979236871 -0.1948720217 0.2374995649 8.906165387e-39
0.1617083997 -0.361330837 0.1019470841 8.906165387e-39
0.1664159 -0.4491807818 0.1076781079 8.906165387e-39
0.1658705324 -0.2772896886 0.1130873337 8.906165387e-39
0.1812214851 -0.4055434465 0.1095762774 8.906165387e-39
0.1685343981 -0.3374226391 0.1044436693 8.906165387e-39
0.1732734293 -0.4406793118 0.1089210212 8.906165387e-39
0.1700584739 -0.2429968715 0.1149464399 8.906165387e-39
0.175255388 -0.3879113197 0.1188053638 8.906165387e-39
0.1680262089 -0.3869036436 0.09159468114 8.906165387e-39
0.1703291982 -0.4496035278 0.09395672381 8.906165387e-39
0.1746341884 -0.3121590912 0.1012322754 8.906165387e-39
0.1831695884 -0.4156158566 0.09782479703 8.906165387e-39
0.1811841428 -0.3363239467 0.09761470556 8.906165387e-39
0.1914262921 -0.407732904 0.0994522199 8.906165387e-39
0.193654567 -0.254883498 0.1079264358 8.906165387e-39
0.1993440092 -0.3657131195 0.1047853753 8.906165387e-39
0.07614472508 -0.2006733418 0.3796494007 8.906165387e-39
0.07950452715 -0.2484689653 0.3881718516 8.906165387e-39
0.07201720029 -0.1764717102 0.3889596164 8.906165387e-39
0.07653019577 -0.224303171 0.3961660266 8.906165387e-39
0.115405187 -0.1358650178 0.1521724313 8.906165387e-39
0.1286237091 -0.198379755 0.1566028595 8.906165387e-39
0.1222145483 -0.1144930571 0.1628693938 8.906165387e-39
0.1377950311 -0.1483874619 0.1559276879 8.906165387e-39
0.1031352654 -0.132329762 0.1057646647 8.906165387e-39
0.1098922789 -0.2598953545 0.1107633486 8.906165387e-39
0.109676674 -0.08883123845 0.1152826324 8.906165387e-39
0.1091940403 -0.1713138521 0.1122021452 8.906165387e-39
0.09299794585 -0.1255979687 0.09552320838 8.906165387e-39
0.1349827796 -0.2189702392 0.09950280935 8.906165387e-39
0.1287900805 -0.1173525155 0.1036856622 8.906165387e-39
0.1461037248 -0.1388342977 0.09985291213 8.906165387e-39
0.1663762033 -0.1396149695 0.1010048762 8.906165387e-39
0.1818561256 -0.2446662188 0.1017291993 8.906165387e-39
0.1832476556 -0.1125325412 0.1054100022 8.906165387e-39
0.2003280669 -0.1766183078 0.1052799448 8.906165387e-39
0.08918277919 -0.1342477798 0.1705076694 8.906165387e-39
0.09032903612 -0.2043938637 0.1792214215 8.906165387e-39
0.0876807943 -0.1231600493 0.1869019568 8.906165387e-39
0.09121071547 -0.1417592764 0.18204166 8.906165387e-39
0.2400113791 -0.2599119842 0.1065824926 8.906165387e-39
0.2557368577 -0.3555209637 0.1033735052 8.906165387e-39
0.2526392043 -0.1941023469 0.1063633859 8.906165387e-39
0.2671228647 -0.293241173 0.1100467816 8.906165387e-39
0.09926505387 -0.2019726336 0.2430387884 8.906165387e-39
0.09936700016 -0.3101163805 0.2544925809 8.906165387e-39
0.09712920338 -0.154082641 0.2560050786 8.906165387e-39
0.09774743021 -0.2376627624 0.266944319 8.906165387e-39
0.112943612 -0.2013483196 0.2301415801 8.906165387e-39
0.116250135 -0.2834504843 0.2410204858 8.906165387e-39
0.1107906699 -0.1677312106 0.2421280742 8.906165387e-39
0.1117363945 -0.228040427 0.2500418723 8.906165387e-39
0.2342610359 -0.2125910372 0.1013206393 8.906165387e-39
0.2502235472 -0.3071854115 0.1012263298 8.906165387e-39
0.2474204004 -0.1685207784 0.105438523 8.906165387e-39
0.2605022192 -0.2448304296 0.1055810302 8.906165387e-39
0.09430353343 -0.181779474 0.2114433348 8.906165387e-39
0.09080138803 -0.2700777352 0.2227708995 8.906165387e-39
0.0896646902 -0.1491664797 0.2266129702 8.906165387e-39
0.08639677614 -0.2135841995 0.2325515002 8.906165387e-39
0.1030054912 -0.1057358608 0.1132128313 8.906165387e-39
0.1357726604 -0.1797612906 0.1138158515 8.906165387e-39
0.128706336 -0.09321976453 0.123569347 8.906165387e-39
0.149384141 -0.1170195714 0.1177443862 8.906165387e-39
0.1525277197 -0.140030548 0.1073459089 1.184631237e-38
0.1681752354 -0.2571485937 0.1095036641 1.184631237e-38
0.1665129364 -0.09850313514 0.1123434305 1.184631237e-38
0.176531896 -0.1726022214 0.1098011136 1.184631237e-38
0.06717470288 -0.1912929416 0.2860196233 1.184631237e-38
0.07113371044 -0.2614279091 0.3018344939 1.184631237e-38
0.06169550121 -0.157551527 0.3019250631 1.184631237e-38
0.06994102895 -0.2231052816 0.312046349 1.184631237e-38
0.07591174543 -0.1668422818 0.1824070364 1.184631237e-38
0.07336500287 -0.2844972908 0.1966283023 1.184631237e-38
0.07154488564 -0.1191492602 0.204240948 1.184631237e-38
0.07114583999 -0.2076437175 0.2072113752 1.184631237e-38
0.2305511534 -0.2137700617 0.09913548827 1.184631237e-38
0.2529699802 -0.3172387183 0.09674405307 1.184631237e-38
0.2512358427 -0.167440787 0.1018431038 1.184631237e-38
0.2681819499 -0.2442528605 0.1025249735 1.184631237e-38
0.1270789504 -0.209393084 0.3208808303 1.184631237e-38
0.137383014 -0.2624913752 0.3279425502 1.184631237e-38
0.1272750944 -0.1775567085 0.3289850056 1.184631237e-38
0.1307731122 -0.2294532359 0.3338727355 1.184631237e-38
0.1134142876 -0.1992716491 0.370955199 1.184631237e-38
0.1229515523 -0.2626364231 0.374525696 1.184631237e-38
0.111064218 -0.1620008349 0.3735010922 1.184631237e-38
0.1156731695 -0.2271166444 0.3823667467 1.184631237e-38
0.09148555994 -0.1735853553 0.368189007 1.184631237e-38
0.09626778215 -0.2361378074 0.3745550215 1.184631237e-38
0.08987062424 -0.148319751 0.3761753738 1.184631237e-38
0.09017476439 -0.1999403536 0.3836907446 1.184631237e-38
0.08504644036 -0.181312412 0.3145955503 1.184631237e-38
0.08734464645 -0.2529631257 0.3289936483 1.184631237e-38
0.07724173367 -0.1491507292 0.328759551 1.184631237e-38
0.0891162008 -0.208485499 0.3396189511 1.184631237e-38
0.1902616024 -0.3699684441 0.0972269699 1.184631237e-38
0.1898837388 -0.4376761019 0.1005282253 1.184631237e-38
0.1881074756 -0.2885733843 0.1086736917 1.184631237e-38
0.2016249597 -0.4041199982 0.1036890671 1.184631237e-38
0.1700916141 -0.2710447609 0.09838404506 1.184631237e-38
0.1835125089 -0.3872461617 0.09849344939 1.184631237e-38
0.1813017875 -0.197822094 0.1060406715 1.184631237e-38
0.1904649585 -0.3175359964 0.1039048359 1.184631237e-38
0.3618933558 -0.2549100816 0.1068464592 1.184631237e-38
0.3757532239 -0.3190427423 0.1125215888 1.184631237e-38
0.3798410892 -0.1963094771 0.1133122519 1.184631237e-38
0.3872075975 -0.2753866315 0.1055076867 1.184631237e-38
0.3114455938 -0.2209904492 0.1089498475 1.184631237e-38
0.3233326972 -0.3131213188 0.112683937 1.184631237e-38
0.3207087219 -0.1646867245 0.1183203161 1.184631237e-38
0.3318443298 -0.2621849179 0.1173470691 1.184631237e-38
0.1173515096 -0.2165929079 0.3238282204 1.184631237e-38
0.1244095191 -0.2696535587 0.3323942125 1.184631237e-38
0.1182039455 -0.1832804978 0.3311493397 1.184631237e-38
0.1205940023 -0.2424362302 0.3366509378 1.184631237e-38
0.3652947843 -0.2630906701 0.1034250632 1.184631237e-38
0.3752349913 -0.326877147 0.1094041094 1.184631237e-38
0.3788050115 -0.1968117356 0.1048627123 1.184631237e-38
0.3834632337 -0.2902180254 0.1040122211 1.184631237e-38
0.3238758445 -0.1921325028 0.09463021904 1.184631237e-38
0.3404100537 -0.2888152301 0.102865234 1.184631237e-38
0.3401640356 -0.1326685846 0.1005292833 1.184631237e-38
0.3549248576 -0.2281439006 0.09705378115 1.184631237e-38
0.06994117051 -0.07306323946 0.100099504 1.184631237e-38
0.111863263 -0.1139834374 0.1016619876 1.184631237e-38
0.09962558746 -0.06712853909 0.1070203036 1.184631237e-38
0.1241620779 -0.07210928202 0.101672478 1.184631237e-38
0.258158356 -0.2076115608 0.1084205955 1.184631237e-38
0.2779527009 -0.3262558579 0.1081003398 1.184631237e-38
0.2733961642 -0.1338764876 0.112025477 1.184631237e-38
0.2900398374 -0.2547430992 0.1082022563 1.184631237e-38
0.1738408208 -0.2481671572 0.1110210642 1.184631237e-38
0.1885482818 -0.3665926158 0.1106285006 1.184631237e-38
0.2073282748 -0.1582831442 0.1149601638 1.184631237e-38
0.2144477069 -0.3040516376 0.1116720662 1.184631237e-38
0.351025641 -0.2273998857 0.08927115053 1.184631237e-38
0.3646771312 -0.314833492 0.09627472609 1.184631237e-38
0.3676487505 -0.1664873064 0.09745772183 1.184631237e-38
0.3757852912 -0.2639476657 0.09264381975 1.184631237e-38
0.2217253596 -0.1994803995 0.1026082858 1.184631237e-38
0.2434837222 -0.3116104603 0.1013645083 1.184631237e-38
0.2373785824 -0.1429101527 0.10900148 1.184631237e-38
0.254280448 -0.2442551851 0.1060429737 1.184631237e-38
0.1621204913 -0.3345289826 0.08915295452 1.184631237e-38
0.1740051657 -0.3842663169 0.09020847082 1.184631237e-38
0.2091575563 -0.2419821024 0.1022160426 1.184631237e-38
0.2187602222 -0.3530507982 0.09397871047 1.184631237e-38
0.3544988334 -0.2221264243 0.09002061933 1.184631237e-38
0.3689928651 -0.3074280322 0.09740945697 1.184631237e-38
0.3732132316 -0.1711100936 0.09568909556 1.184631237e-38
0.3795721829 -0.2546959221 0.09115900844 1.184631237e-38
0.197564736 -0.333291322 0.112160556 1.184631237e-38
0.2125768811 -0.3844233751 0.110756591 1.184631237e-38
0.213314414 -0.255562067 0.1212246418 1.184631237e-38
0.2299309969 -0.348973453 0.1170724332 1.184631237e-38
0.06182363257 -0.05445908755 0.1111918613 1.184631237e-38
0.0966193676 -0.1241349205 0.1190072 1.184631237e-38
0.08110967278 -0.04444385692 0.1229448169 1.184631237e-38
0.1021623686 -0.06550757587 0.1204974502 1.184631237e-38
0.2383668125 -0.2017578036 0.09723013639 1.184631237e-38
0.2627435327 -0.3027068079 0.09648314863 1.184631237e-38
0.2638234198 -0.1408537924 0.09823462367 1.184631237e-38
0.2856940925 -0.2288177609 0.09868583083 1.184631237e-38
0.07650437951 -0.09267984331 0.08947551996 1.184631237e-38
0.1029503495 -0.1952234656 0.0947059691 1.184631237e-38
0.09271556139 -0.05792593211 0.09659708291 1.184631237e-38
0.1060547605 -0.1168318242 0.09556614608 1.184631237e-38
0.2691423595 -0.2016710937 0.1050368026 1.184631237e-38
0.2895510197 -0.3068482876 0.1078107208 1.184631237e-38
0.2880448103 -0.1458754539 0.1107742339 1.184631237e-38
0.303871125 -0.2497296035 0.1129704118 1.184631237e-38
0.1755286753 -0.3188039064 0.0892681703 1.184631237e-38
0.1885950267 -0.402417779 0.08781781793 1.184631237e-38
0.1891379207 -0.2307477295 0.0967663303 1.184631237e-38
0.1952453852 -0.3519894779 0.08973880112 1.184631237e-38
0.32128039 -0.2240130156 0.0884835273 1.184631237e-38
0.3369962871 -0.3067076504 0.09507486969 1.184631237e-38
0.3407635689 -0.1686058044 0.09438923001 1.184631237e-38
0.3510724008 -0.2582640648 0.08994732797 1.184631237e-38
0.1654966623 -0.1166484877 0.09962233156 1.184631237e-38
0.1945640594 -0.2006462812 0.09797883779 1.184631237e-38
0.1918179393 -0.1125451028 0.1063562855 1.184631237e-38
0.2151160389 -0.1347062886 0.09988359362 1.184631237e-38
0.1315542758 -0.2269080579 0.3480520546 1.184631237e-38
0.1377446651 -0.2679280937 0.3496299088 1.184631237e-38
0.1260154843 -0.2039973587 0.3530739844 1.184631237e-38
0.1387022138 -0.2484177947 0.3512236774 1.184631237e-38
0.2808395624 -0.1954479814 0.09658095986 1.184631237e-38
0.3010472953 -0.2585758269 0.1001182497 1.184631237e-38
0.3072242737 -0.1605580896 0.1041103452 1.184631237e-38
0.3164739013 -0.2278101742 0.09796247631 1.184631237e-38
0.1356532872 -0.1872269362 0.2276321948 1.478322936e-38
0.132195577 -0.2757814229 0.237032935 1.478322936e-38
0.1306441724 -0.1483225375 0.2398007214 1.478322936e-38
0.1292629242 -0.2205454856 0.2475321144 1.478322936e-38
0.1288921684 -0.08789560199 0.1307731271 1.478322936e-38
0.1346232593 -0.1592856646 0.1339113265 1.478322936e-38
0.1270349026 -0.05951262265 0.1459296197 1.478322936e-38
0.1318581551 -0.1053833887 0.1415754557 1.478322936e-38
0.1132464185 -0.1047126576 0.09192236513 1.478322936e-38
0.1200315729 -0.2193883508 0.09839067608 1.478322936e-38
0.1119987667 -0.06147344038 0.1049952656 1.478322936e-38
0.1144467369 -0.1398441195 0.09983947873 1.478322936e-38
0.2929011881 -0.2463383973 0.1017455831 1.478322936e-38
0.3066053689 -0.3286206126 0.1037569121 1.478322936e-38
0.3083446622 -0.1917226762 0.1112274081 1.478322936e-38
0.3197825849 -0.2849325836 0.1091029346 1.478322936e-38
0.1452817917 -0.240932852 0.3737365305 1.478322936e-38
0.1456815004 -0.2756376863 0.3742641807 1.478322936e-38
0.131173566 -0.2180370092 0.3824706674 1.478322936e-38
0.1460843831 -0.2654733062 0.3803272545 1.478322936e-38
0.2933098078 -0.2254331112 0.1018888727 1.478322936e-38
0.3070799112 -0.3240807652 0.1038180217 1.478322936e-38
0.3034872115 -0.1579035223 0.1083378866 1.478322936e-38
0.3159323335 -0.2740031481 0.1085517853 1.478322936e-38
0.2303176671 -0.1797741354 0.103439711 1.478322936e-38
0.2474133521 -0.2823354006 0.1068904549 1.478322936e-38
0.243420735 -0.1248028427 0.1129015684 1.478322936e-38
0.2581609488 -0.2173909247 0.1081429273 1.478322936e-38
0.2357476354 -0.1719932258 0.09287004918 1.478322936e-38
0.2509469986 -0.2924482822 0.09586496651 1.478322936e-38
0.2638446093 -0.1079782024 0.09922919422 1.478322936e-38
0.2777073383 -0.221062243 0.09415461123 1.478322936e-38
0.3721114397 -0.1988729537 0.09562634677 1.478322936e-38
0.3873750567 -0.2861926258 0.1025723591 1.478322936e-38
0.3894568682 -0.1465761811 0.10115733 1.478322936e-38
0.3970218003 -0.233836025 0.09654760361 1.478322936e-38
0.2750682235 -0.1870802343 0.09113875777 1.478322936e-38
0.2946748137 -0.2810769379 0.09492369741 1.478322936e-38
0.2983744442 -0.1380134076 0.097296305 1.478322936e-38
0.3147077262 -0.2297483385 0.09352062643 1.478322936e-38
0.3497158289 -0.1860858202 0.08814696223 1.478322936e-38
0.3629510403 -0.2818369269 0.09320359677 1.478322936e-38
0.3631270528 -0.134725824 0.09434652328 1.478322936e-38
0.3732826114 -0.2256505042 0.08932495117 1.478322936e-38
0.0892072469 -0.09479486942 0.1403600425 1.478322936e-38
0.08722922951 -0.1958462596 0.1590185761 1.478322936e-38
0.08530444652 -0.06634542346 0.163685143 1.478322936e-38
0.08504066616 -0.1246712208 0.164367944 1.478322936e-38
0.3556972742 -0.1922742426 0.08673644811 1.478322936e-38
0.3598663211 -0.293235302 0.09209436923 1.478322936e-38
0.3610646725 -0.1343082935 0.09268202633 1.478322936e-38
0.3668836951 -0.239217639 0.08897525817 1.478322936e-38
0.1126213744 -0.1517662704 0.2282574177 1.478322936e-38
0.1080077812 -0.2340359688 0.2362336516 1.478322936e-38
0.1079244986 -0.1238982826 0.2413940281 1.478322936e-38
0.1009259969 -0.1809777319 0.2447083145 1.478322936e-38
0.3239368796 -0.2445727885 0.09566309303 1.478322936e-38
0.3336833715 -0.3086968362 0.09878855944 1.478322936e-38
0.3337879479 -0.184063673 0.09789807349 1.478322936e-38
0.3437276185 -0.2703066766 0.09976883233 1.478322936e-38
0.08824970573 -0.08961434662 0.1614818275 1.478322936e-38
0.08475761116 -0.1671792269 0.1874142736 1.478322936e-38
0.08198310435 -0.0650999248 0.2003893256 1.478322936e-38
0.08053463697 -0.1147458553 0.1966973543 1.478322936e-38
0.08443441242 -0.1397546679 0.1565827131 1.478322936e-38
0.08448540419 -0.2756644785 0.182713747 1.478322936e-38
0.08105108142 -0.0872445032 0.2040608674 1.478322936e-38
0.08224699646 -0.1888365448 0.2050540894 1.478322936e-38
0.3034169078 -0.1717781574 0.09779348969 1.478322936e-38
0.3164227307 -0.270201087 0.1023248881 1.478322936e-38
0.315952599 -0.1220440343 0.1027087197 1.478322936e-38
0.3292278349 -0.2082552612 0.09931459278 1.478322936e-38
0.06772833318 -0.1626138836 0.2326996624 1.478322936e-38
0.06571691483 -0.2756447196 0.2419839203 1.478322936e-38
0.0614948906 -0.1333611906 0.2428494841 1.478322936e-38
0.06022141874 -0.2095061839 0.2559563816 1.478322936e-38
0.3072870076 -0.2756817937 0.109145321 1.478322936e-38
0.3201266825 -0.3373056054 0.108669959 1.478322936e-38
0.3223304152 -0.2028312981 0.1136086509 1.478322936e-38
0.3304032683 -0.3009355068 0.1130056009 1.478322936e-38
0.2206128389 -0.3846301436 0.101014778 1.478322936e-38
0.2233794332 -0.4436801076 0.1036509201 1.478322936e-38
0.2257924974 -0.307564199 0.1140779257 1.478322936e-38
0.2323455662 -0.4126076996 0.1065236926 1.478322936e-38
0.1578212678 -0.1490085572 0.0993206054 1.478322936e-38
0.1785011888 -0.269843936 0.1018718332 1.478322936e-38
0.1806292981 -0.1029076129 0.1011875495 1.478322936e-38
0.1960929185 -0.18349123 0.103684485 1.478322936e-38
0.09597394615 -0.07526962459 0.1055748537 1.478322936e-38
0.1283239722 -0.1552203745 0.1074040011 1.478322936e-38
0.1199570298 -0.06334591657 0.1145925 1.478322936e-38
0.1382785887 -0.08465637267 0.1123089194 1.478322936e-38
0.2942251563 -0.2576937973 0.1116830036 1.478322936e-38
0.310218066 -0.3346570134 0.1106361449 1.478322936e-38
0.307934165 -0.1845517755 0.1148330048 1.478322936e-38
0.3206628859 -0.2923034728 0.1178608164 1.478322936e-38
0.1189000607 -0.1536485106 0.1754532456 1.478322936e-38
0.1221684664 -0.2340893447 0.1839358509 1.478322936e-38
0.1173325181 -0.122857362 0.1921855509 1.478322936e-38
0.1220175326 -0.1724957228 0.1887712628 1.478322936e-38
0.09391829371 -0.1124379486 0.1656255871 1.478322936e-38
0.08931621164 -0.1777285635 0.1973902434 1.478322936e-38
0.08644353598 -0.1028336138 0.2154521495 1.478322936e-38
0.09436938167 -0.1248702109 0.2024070919 1.478322936e-38
0.1003745422 -0.1041978523 0.09021849185 1.478322936e-38
0.1052153558 -0.2329723835 0.09679130465 1.478322936e-38
0.09885952622 -0.05270801112 0.1045581624 1.478322936e-38
0.1019309685 -0.1481197625 0.10002359 1.478322936e-38
0.3560609519 -0.2018181384 0.08460536599 1.478322936e-38
0.3686397374 -0.2634438276 0.08772441745 1.478322936e-38
0.3742358387 -0.1630804837 0.09025625885 1.478322936e-38
0.3824114799 -0.2276917398 0.08338763565 1.478322936e-38
0.136541158 -0.185805738 0.2252100855 1.478322936e-38
0.1340331733 -0.2747830153 0.2323139906 1.478322936e-38
0.1321922392 -0.1461018324 0.2362751812 1.478322936e-38
0.1300192177 -0.2178644836 0.2436876446 1.478322936e-38
0.0844457075 -0.06191076711 0.1098780334 1.478322936e-38
0.1087153554 -0.1120201945 0.1131389514 1.478322936e-38
0.09652554989 -0.05524408817 0.1255337 1.478322936e-38
0.1140311062 -0.06170932949 0.1166788116 1.478322936e-38
0.3448822498 -0.1791647375 0.1016333401 1.478322936e-38
0.3582180738 -0.2503565252 0.1074433699 1.478322936e-38
0.3595838249 -0.136450693 0.1061391756 1.478322936e-38
0.3740422726 -0.2104922533 0.1015571058 1.478322936e-38
0.08559376746 -0.1843252182 0.3690945208 1.478322936e-38
0.08808654547 -0.2343921959 0.3790944815 1.478322936e-38
0.0803065896 -0.1614255607 0.3775237799 1.478322936e-38
0.08688125014 -0.2102964818 0.3832922876 1.478322936e-38
0.113260895 -0.168242842 0.2286136001 1.771655483e-38
0.1141326055 -0.2505880892 0.2453368157 1.771655483e-38
0.1103591025 -0.1383005679 0.2469250262 1.771655483e-38
0.1162538081 -0.1987994313 0.2519381046 1.771655483e-38
0.2288307995 -0.1943437606 0.1051885858 1.771655483e-38
0.2452733219 -0.3070039451 0.1064537391 1.771655483e-38
0.2444452643 -0.1319373548 0.1136212572 1.771655483e-38
0.2576596439 -0.2390426993 0.1109983772 1.771655483e-38
0.289555192 -0.2461562455 0.08964760602 1.771655483e-38
0.3056689501 -0.3318777978 0.09204636514 1.771655483e-38
0.3046143949 -0.1777905822 0.09200547636 1.771655483e-38
0.3210975826 -0.2793924212 0.08954290301 1.771655483e-38
0.08301325142 -0.09264168888 0.1914470643 1.771655483e-38
0.07740043104 -0.1524848491 0.2097672075 1.771655483e-38
0.07608775049 -0.07947655767 0.2218486518 1.771655483e-38
0.07858625799 -0.110280022 0.2154090703 1.771655483e-38
0.09485790879 -0.07178451121 0.1319687515 1.771655483e-38
0.1417849511 -0.1085511222 0.1318195462 1.771655483e-38
0.1325941682 -0.06408429891 0.1420433074 1.771655483e-38
0.1673730016 -0.07223507762 0.1336759776 1.771655483e-38
0.09171169251 -0.07456707954 0.1409267187 1.771655483e-38
0.09418158233 -0.1340292841 0.1541127414 1.771655483e-38
0.08838461339 -0.05438079312 0.160534665 1.771655483e-38
0.09693796933 -0.0864161998 0.1580352485 1.771655483e-38
0.2563704848 -0.1649812162 0.1070094183 1.771655483e-38
0.2751427889 -0.2699807584 0.1107747108 1.771655483e-38
0.279473573 -0.122661151 0.1161506623 1.771655483e-38
0.2939348817 -0.2143188119 0.1134358421 1.771655483e-38
0.3821876943 -0.167475462 0.1043129861 1.771655483e-38
0.3931224644 -0.2541609406 0.1116672382 1.771655483e-38
0.3969889283 -0.1167470664 0.1072826758 1.771655483e-38
0.4105636775 -0.1958803684 0.1023710445 1.771655483e-38
0.09668400884 -0.07014903426 0.1754443645 1.771655483e-38
0.09712896496 -0.1235466599 0.1874658614 1.771655483e-38
0.09026215225 -0.06195547059 0.1995815635 1.771655483e-38
0.09385114163 -0.09090135992 0.1929811388 1.771655483e-38
0.2700302601 -0.1682163477 0.09945795685 1.771655483e-38
0.2849184573 -0.2705790699 0.1032634899 1.771655483e-38
0.311760664 -0.1112862602 0.1045895815 1.771655483e-38
0.3278777897 -0.2180438638 0.1023727059 1.771655483e-38
0.3518706262 -0.1829050183 0.09533521533 1.771655483e-38
0.3642708063 -0.2588323057 0.1021575406 1.771655483e-38
0.3683580458 -0.1409559101 0.1006552577 1.771655483e-38
0.3818694353 -0.2126860023 0.09542243183 1.771655483e-38
0.07754632831 -0.1279790998 0.1838546693 1.771655483e-38
0.07581532747 -0.2585215569 0.197733447 1.771655483e-38
0.07318425179 -0.07021734118 0.2051293552 1.771655483e-38
0.06933911145 -0.1712683439 0.2057381272 1.771655483e-38
0.08161553741 -0.116837576 0.2186409086 1.771655483e-38
0.07523641735 -0.1999598742 0.2300405949 1.771655483e-38
0.07351437211 -0.08957742155 0.2376142889 1.771655483e-38
0.0728963241 -0.1351194531 0.2402234077 1.771655483e-38
0.102509737 -0.06270071864 0.1237061173 1.771655483e-38
0.1087965593 -0.1061486304 0.1415397078 1.771655483e-38
0.1045016795 -0.04983472079 0.1560344845 1.771655483e-38
0.1168639585 -0.06585274637 0.1398832202 1.771655483e-38
0.09532661736 -0.1549541354 0.2335745692 1.771655483e-38
0.0971981883 -0.2799709439 0.2586054504 1.771655483e-38
0.09232541174 -0.1058812439 0.2607617974 1.771655483e-38
0.09471203387 -0.211176306 0.270891577 1.771655483e-38
0.07928331941 -0.153141886 0.2868241072 1.771655483e-38
0.08145394176 -0.2513006032 0.3006975055 1.771655483e-38
0.07246712595 -0.1268988401 0.3002929389 1.771655483e-38
0.07797126472 -0.1932142377 0.3118835092 1.771655483e-38
0.1757886112 -0.1250104606 0.117460072 1.771655483e-38
0.2003797442 -0.2204756439 0.1132365763 1.771655483e-38
0.197525844 -0.09885744005 0.1185689792 1.771655483e-38
0.2213169187 -0.1611523181 0.1185334027 1.771655483e-38
0.09344936162 -0.0765472427 0.1569847167 1.771655483e-38
0.09565260261 -0.1107910201 0.1697552651 1.771655483e-38
0.09161115438 -0.07290303707 0.1801826358 1.771655483e-38
0.1036740392 -0.07327283174 0.1701953709 1.771655483e-38
0.2047230899 -0.3028116524 0.1154290363 1.771655483e-38
0.2138781697 -0.384562999 0.1131954864 1.771655483e-38
0.2130162269 -0.2362098396 0.1189829782 1.771655483e-38
0.227950111 -0.3303947151 0.1211042479 1.771655483e-38
0.1093150675 -0.1265413761 0.2258976102 1.771655483e-38
0.1007850319 -0.2198003531 0.2384756058 1.771655483e-38
0.1000952125 -0.09958153218 0.2443703562 1.771655483e-38
0.09333902597 -0.1517287493 0.2491270006 1.771655483e-38
0.1059405655 -0.09350016713 0.1038220599 1.771655483e-38
0.1175597161 -0.2071283162 0.1112917587 1.771655483e-38
0.1076281667 -0.04479528964 0.1166317016 1.771655483e-38
0.1130357236 -0.127504617 0.1117415726 1.771655483e-38
0.08463292569 -0.1670911312 0.3434287906 1.771655483e-38
0.08876010031 -0.2275089473 0.3556556106 1.771655483e-38
0.08137122542 -0.136003986 0.3555903137 1.771655483e-38
0.08305533975 -0.1939234436 0.3618700206 1.771655483e-38
0.2580738366 -0.1621900052 0.1093844026 1.771655483e-38
0.2847640812 -0.2255427837 0.1094678789 1.771655483e-38
0.2885914445 -0.1320057511 0.1103806272 1.771655483e-38
0.3030236959 -0.1841019988 0.1108050495 1.771655483e-38
0.08918321133 -0.08814422041 0.1481731087 1.771655483e-38
0.08526737988 -0.2003492862 0.1762575805 1.771655483e-38
0.08377388865 -0.05247733369 0.1822773218 1.771655483e-38
0.08361064643 -0.1230238974 0.1848472953 1.771655483e-38
0.2528784573 -0.1622707248 0.1038411334 1.771655483e-38
0.26818946 -0.2896358669 0.103209056 1.771655483e-38
0.267005235 -0.1010423005 0.1078464165 1.771655483e-38
0.2806788385 -0.2101198137 0.1052670851 1.771655483e-38
0.09466918558 -0.1120637804 0.2015434057 1.771655483e-38
0.0912669152 -0.2361389101 0.2161924541 1.771655483e-38
0.08876794577 -0.06980776042 0.2201607525 1.771655483e-38
0.08661385626 -0.1569806337 0.228923291 1.771655483e-38
0.3261916935 -0.1643890142 0.1029712483 1.771655483e-38
0.3385237753 -0.2578594983 0.1091549471 1.771655483e-38
0.3438471854 -0.1092218682 0.1058432758 1.771655483e-38
0.3491238058 -0.2071326971 0.1021955833 1.771655483e-38
0.07993261516 -0.07436735928 0.1111469269 1.771655483e-38
0.09971483052 -0.1716293693 0.1170713082 1.771655483e-38
0.0895806253 -0.05566648394 0.1226592064 1.771655483e-38
0.09823792428 -0.09474983066 0.1223839521 1.771655483e-38
0.1947962493 -0.1548775136 0.1026264653 1.771655483e-38
0.2190424353 -0.2790233195 0.1048517674 1.771655483e-38
0.2417934686 -0.1074590981 0.1072339565 1.771655483e-38
0.2609482408 -0.1996069849 0.1057294458 1.771655483e-38
0.1693205237 -0.1344790161 0.09557271004 1.771655483e-38
0.1917180121 -0.2518162727 0.09931761771 1.771655483e-38
0.1970133483 -0.09025342762 0.09945113212 1.771655483e-38
0.2165558636 -0.1696345806 0.1006686762 1.771655483e-38
0.08049876243 -0.05992119387 0.1080701798 1.771655483e-38
0.09460909665 -0.1441638172 0.1158254519 1.771655483e-38
0.0881165266 -0.05051600188 0.1274831146 1.771655483e-38
0.09826877713 -0.07288841903 0.117693603 1.771655483e-38
0.09239669144 -0.1506009698 0.2256189883 1.771655483e-38
0.09435417503 -0.2844637036 0.2456044257 1.771655483e-38
0.09062975645 -0.09594794363 0.2462887615 1.771655483e-38
0.09020631015 -0.2088833451 0.2595683336 1.771655483e-38
0.09625839442 -0.1116361842 0.2197270542 2.06466517e-38
0.08809487522 -0.2025611401 0.2332664281 2.06466517e-38
0.08729112148 -0.08124367148 0.2405837774 2.06466517e-38
0.08524623513 -0.1390469819 0.2440047115 2.06466517e-38
0.2540499568 -0.1709768474 0.07595539838 2.06466517e-38
0.2761633396 -0.2686165571 0.07751406729 2.06466517e-38
0.2799976468 -0.1111900359 0.07913289964 2.06466517e-38
0.2927230895 -0.2010122538 0.07432073355 2.06466517e-38
0.09259540588 -0.09551116824 0.1764204651 2.06466517e-38
0.08819872141 -0.2280112803 0.1893691421 2.06466517e-38
0.08611756563 -0.03485962749 0.1945197582 2.06466517e-38
0.08396750689 -0.1420246959 0.2005953789 2.06466517e-38
0.3193577528 -0.1573298424 0.09149511904 2.06466517e-38
0.3311903179 -0.2655086219 0.097968027 2.06466517e-38
0.3344568312 -0.09215094149 0.09655682743 2.06466517e-38
0.3476010859 -0.2112523615 0.09328895062 2.06466517e-38
0.2341048121 -0.1203584895 0.09433058649 2.06466517e-38
0.2515637577 -0.2325382531 0.09914120287 2.06466517e-38
0.2556763887 -0.07409103215 0.1027958468 2.06466517e-38
0.2693500519 -0.1725715995 0.09965940565 2.06466517e-38
0.3431540728 -0.1294424236 0.09042528272 2.06466517e-38
0.3666891158 -0.2313567102 0.09651391208 2.06466517e-38
0.3886732757 -0.08268409222 0.09247273952 2.06466517e-38
0.4041032791 -0.1697998941 0.08661323786 2.06466517e-38
0.3042342067 -0.2497832179 0.0901125297 2.06466517e-38
0.3126313388 -0.3250188529 0.09660633653 2.06466517e-38
0.3259017766 -0.1705952287 0.1008550525 2.06466517e-38
0.3369675875 -0.2780589461 0.09587878734 2.06466517e-38
0.1735538393 -0.1209188998 0.1036255285 2.06466517e-38
0.1861365587 -0.2345474064 0.1064011157 2.06466517e-38
0.1839081198 -0.06639203429 0.1096617654 2.06466517e-38
0.1993120909 -0.1651703715 0.1046513766 2.06466517e-38
0.4302946627 -0.05524134263 0.2243413329 2.06466517e-38
0.4381883442 -0.09490834177 0.2286029905 2.06466517e-38
0.4355688691 -0.05534369498 0.2363004237 2.06466517e-38
0.4402748942 -0.05758261308 0.2292063236 2.06466517e-38
0.3840242028 -0.299361676 0.1077231467 2.06466517e-38
0.3842576146 -0.3437935114 0.1130402237 2.06466517e-38
0.3866149485 -0.2105271965 0.1126416922 2.06466517e-38
0.3925923109 -0.3215636313 0.1111465991 2.06466517e-38
0.2831426561 -0.2639019787 0.09773925692 2.06466517e-38
0.2990745008 -0.3457097411 0.09916649014 2.06466517e-38
0.2996351421 -0.1901311278 0.1056241989 2.06466517e-38
0.3131007552 -0.3015777171 0.1035249606 2.06466517e-38
0.2066037059 -0.2672303915 0.1009154022 2.06466517e-38
0.2226362973 -0.3774867058 0.09961074591 2.06466517e-38
0.2264913321 -0.1877979636 0.1035498828 2.06466517e-38
0.244154036 -0.3060835004 0.1044318303 2.06466517e-38
0.05747323856 -0.02019648254 0.106097661 2.06466517e-38
0.08028461784 -0.1022968739 0.1168835089 2.06466517e-38
0.07497517765 -0.007870793343 0.1179355755 2.06466517e-38
0.08812969923 -0.03725332022 0.1156430915 2.06466517e-38
0.08805239201 -0.06124543026 0.09490180761 2.06466517e-38
0.09841962159 -0.1821157336 0.1063193083 2.06466517e-38
0.08732495457 -0.01736471057 0.1108782217 2.06466517e-38
0.0954657495 -0.09261079878 0.1061350107 2.06466517e-38
0.08962239325 -0.1674631834 0.3327544332 2.06466517e-38
0.09528198093 -0.2387761474 0.3430810869 2.06466517e-38
0.08638815582 -0.1326373518 0.344676733 2.06466517e-38
0.08648794889 -0.1941815466 0.3551656306 2.06466517e-38
0.07307244837 -0.1444006562 0.3449940979 2.06466517e-38
0.07767809182 -0.2094056308 0.3551322222 2.06466517e-38
0.06817110628 -0.1165491045 0.3548414111 2.06466517e-38
0.07206268609 -0.1670235693 0.3583441377 2.06466517e-38
0.3068743348 -0.1399926543 0.1064976752 2.06466517e-38
0.3298430443 -0.2279550135 0.1151392236 2.06466517e-38
0.3534273207 -0.109918423 0.113287501 2.06466517e-38
0.357660532 -0.174151957 0.1071680933 2.06466517e-38
0.3625342548 -0.2614237368 0.100866653 2.06466517e-38
0.3672423959 -0.3174440861 0.1095249429 2.06466517e-38
0.3763853014 -0.1913298666 0.1098760813 2.06466517e-38
0.3822546005 -0.2808949053 0.1015029922 2.06466517e-38
0.2093888819 -0.2793354392 0.1175086424 2.06466517e-38
0.2235873193 -0.3558716178 0.1104501262 2.06466517e-38
0.2238779068 -0.1938240528 0.1193674803 2.06466517e-38
0.2345973849 -0.3122719824 0.1160895005 2.06466517e-38
0.2581984997 -0.1229803488 0.1041705161 2.06466517e-38
0.2769019902 -0.2200043499 0.1068647876 2.06466517e-38
0.3063718081 -0.08772781491 0.1091011316 2.06466517e-38
0.317173183 -0.1597955525 0.1055982858 2.06466517e-38
0.4270644784 -0.06447718292 0.235659793 2.06466517e-38
0.4385853112 -0.08938243985 0.2381314933 2.06466517e-38
0.4366571009 -0.06046004966 0.2426408976 2.06466517e-38
0.4411673248 -0.06145331264 0.2342992723 2.06466517e-38
0.3241071105 -0.2821390331 0.09311504662 2.06466517e-38
0.3315978348 -0.3421928585 0.09594773501 2.06466517e-38
0.3593623042 -0.2030234933 0.0999552086 2.06466517e-38
0.3663145304 -0.3103794754 0.09588684142 2.06466517e-38
0.0876050368 -0.1215588227 0.2434886694 2.06466517e-38
0.08703283221 -0.2022736967 0.2564114928 2.06466517e-38
0.08417759836 -0.1038854346 0.2596555948 2.06466517e-38
0.07887788117 -0.1523801982 0.260289669 2.06466517e-38
0.3305348456 -0.1538712382 0.09478501976 2.06466517e-38
0.3464671373 -0.2693265676 0.1009843051 2.06466517e-38
0.3489501178 -0.09436613321 0.09516487271 2.06466517e-38
0.3626264334 -0.1970227361 0.09460546821 2.06466517e-38
0.09536465257 -0.02261899412 0.1212800145 2.06466517e-38
0.1025269181 -0.1148994863 0.1403158307 2.06466517e-38
0.09263211489 -0.00765439868 0.1444283575 2.06466517e-38
0.09978438914 -0.05632808805 0.1434969306 2.06466517e-38
0.07846383005 -0.03555499762 0.102880612 2.06466517e-38
0.1027815416 -0.1177408397 0.1114951149 2.06466517e-38
0.08700215816 -0.01797369123 0.1149428859 2.06466517e-38
0.107314311 -0.0536458008 0.1113649532 2.06466517e-38
0.1766289175 -0.1201720536 0.09024657309 2.06466517e-38
0.1985739917 -0.2363318503 0.09441731125 2.06466517e-38
0.2244748771 -0.08064243197 0.09585180879 2.06466517e-38
0.2468182594 -0.1622387171 0.0924115628 2.06466517e-38
0.2025491893 -0.313605696 0.09817605466 2.06466517e-38
0.2172494233 -0.3684495091 0.09557788819 2.06466517e-38
0.2256426662 -0.2324204147 0.1013066694 2.06466517e-38
0.2438865155 -0.3286740482 0.09795579314 2.06466517e-38
0.2387164831 -0.1209668964 0.1046009362 2.06466517e-38
0.2639495432 -0.2071840465 0.106261909 2.06466517e-38
0.291256845 -0.09957336634 0.1065171286 2.06466517e-38
0.3064135313 -0.1527402997 0.1049914286 2.06466517e-38
0.08467618376 -0.08419752121 0.3364602029 2.06466517e-38
0.08185534179 -0.135105893 0.3587768078 2.06466517e-38
0.0723926276 -0.08912941813 0.3543317318 2.06466517e-38
0.07300440967 -0.1063141078 0.3588737845 2.06466517e-38
