# .PCD v0.7 - Point Cloud Data file format
VERSION 0.7
FIELDS x y z rgb
SIZE 4 4 4 4
TYPE F F F F
COUNT 1 1 1 1
WIDTH 831
HEIGHT 1
VIEWPOINT 0 0 0 1 0 0 0
POINTS 831
DATA ascii
-0.2032479346 -0.2416378856 0.1449315101 2.898180898e-39
-0.2095800936 -0.3650923967 0.1452412307 2.898180898e-39
-0.1982847154 -0.361640811 -0.09249109775 2.898180898e-39
-0.1928916425 -0.4587149024 -0.08915285021 2.898180898e-39
-0.2007658333 -0.2803706527 -0.08207393438 2.898180898e-39
-0.1953919381 -0.4127799869 -0.07515618205 2.898180898e-39
-0.1369679868 -0.3948333263 0.03432863206 2.898180898e-39
-0.1318429559 -0.4410054684 0.04690780491 2.898180898e-39
-0.1369844079 -0.3548327088 0.06052030995 2.898180898e-39
-0.11980322 -0.4046111703 0.06027007103 2.898180898e-39
0.1155642346 -0.006621815264 0.08889278769 2.898180898e-39
0.1293347925 -0.04872205108 0.1022482812 2.898180898e-39
0.139138937 -0.01075421274 0.1315882206 2.898180898e-39
0.1540683508 -0.03355576843 0.1128471866 2.898180898e-39
0.3941191435 -0.3806250095 -0.2198026031 2.898180898e-39
0.3766776025 -0.4344408512 -0.2181532979 2.898180898e-39
0.4081927538 -0.3248740435 -0.227391839 2.898180898e-39
0.3872386515 -0.3914549947 -0.2123989463 2.898180898e-39
0.4111835659 0.004061549902 -0.2268074602 2.898180898e-39
0.4267253876 -0.09478951991 -0.2244480699 2.898180898e-39
0.4272716641 0.02675671875 -0.2338624001 2.898180898e-39
0.4086042047 -0.02602674812 -0.2159015387 2.898180898e-39
0.2246123701 -0.4743357301 -0.1406695396 2.898180898e-39
0.1551478207 -0.4829953909 -0.08902834356 2.898180898e-39
0.2400146872 -0.4817057848 -0.03257536888 2.898180898e-39
0.2644202113 -0.4797654748 -0.09212435037 2.898180898e-39
-0.2215139121 -0.2650610209 0.2134128064 2.898180898e-39
-0.2187395245 -0.3742100596 0.2230850011 2.898180898e-39
-0.2221694589 -0.2007113397 0.2323903888 2.898180898e-39
-0.2222340256 -0.3071908355 0.2326593846 2.898180898e-39
-0.1970890611 -0.417345047 -0.05609380081 2.898180898e-39
-0.2094971985 -0.4568439722 -0.03229875863 2.898180898e-39
-0.2118462026 -0.3739366531 -0.02529364079 2.898180898e-39
-0.1820132285 -0.4333118796 -0.02278475463 2.898180898e-39
-0.2160859406 -0.4200744629 -0.2185155004 2.898180898e-39
-0.2084166706 -0.4800457954 -0.2164891958 2.898180898e-39
-0.2094349265 -0.3561004996 -0.2056069523 2.898180898e-39
-0.1863585711 -0.4748309255 -0.2042953372 2.898180898e-39
0.06087112427 -0.4799310565 -0.08951605856 2.898180898e-39
-0.02975321189 -0.4847069979 -0.01223786455 2.898180898e-39
0.03028374538 -0.483928442 0.05904611945 2.898180898e-39
0.09655435383 -0.4868887067 -0.01391449664 2.898180898e-39
0.1072136611 -0.04481349885 0.07950808108 2.898180898e-39
0.1168417707 -0.06449689716 0.09512604028 2.898180898e-39
0.1181964874 -0.05049873143 0.1165036634 2.898180898e-39
0.1379422396 -0.05632735789 0.09931448102 2.898180898e-39
0.3819948137 -0.3896125555 -0.2279626578 2.898180898e-39
0.369481951 -0.4661099315 -0.2261917144 2.898180898e-39
0.3891952336 -0.3026085198 -0.2339797169 2.898180898e-39
0.3823245764 -0.4205704927 -0.2166420966 2.898180898e-39
0.2164641917 0.07816229761 -0.01992980763 2.898180898e-39
0.2929593921 0.07786753774 -0.06105660275 2.898180898e-39
0.276067704 0.08160962164 0.03808864579 2.898180898e-39
0.3100309968 0.08046859503 -0.005890018307 2.898180898e-39
-0.1387325525 -0.4769393206 -0.1839834154 2.898180898e-39
-0.1887122542 -0.4842837453 -0.1230697483 2.898180898e-39
-0.1484166384 -0.4825066924 -0.06245642528 2.898180898e-39
-0.06295359135 -0.4864335656 -0.1064532399 2.898180898e-39
0.4034465551 -0.3899388313 -0.2238014638 2.898180898e-39
0.3894374967 -0.4624672532 -0.2278844863 2.898180898e-39
0.4131419957 -0.3143289387 -0.235480547 2.898180898e-39
0.4040808082 -0.4221963882 -0.2189617604 2.898180898e-39
0.08878225833 -0.005666688085 0.05651581287 2.898180898e-39
0.09557170421 -0.06545712799 0.074378483 2.898180898e-39
0.1078824103 -0.003306940198 0.08255934715 2.898180898e-39
0.1169644669 -0.03877289593 0.08193334192 2.898180898e-39
0.09032335132 0.08033157885 0.03120406345 2.898180898e-39
0.1524838507 0.07881107926 -0.003556367941 2.898180898e-39
0.1476889253 0.07970389724 0.09036882222 2.898180898e-39
0.1920760721 0.07896782458 0.04008477181 2.898180898e-39
-0.1911295801 -0.2243459523 0.1953222305 2.898180898e-39
-0.1923567653 -0.3354447484 0.2122775912 2.898180898e-39
-0.1869648099 -0.1481354237 0.2180325389 2.898180898e-39
-0.1912232339 -0.2625174522 0.2153274268 2.898180898e-39
-0.2030180395 -0.4056215286 -0.1761318296 2.898180898e-39
-0.1918382496 -0.4743871093 -0.168673262 2.898180898e-39
-0.2027829438 -0.3339726627 -0.1662627161 2.898180898e-39
-0.183206901 -0.4541794062 -0.1542460173 2.898180898e-39
0.08178916574 0.07976099849 0.03890857473 2.898180898e-39
0.1371679008 0.07940250635 0.006390436087 2.898180898e-39
0.1413884014 0.08092036843 0.09570934623 2.898180898e-39
0.1863774806 0.07829421759 0.04737755656 2.898180898e-39
0.1250200868 -0.04413450509 0.0515049845 2.898180898e-39
0.1355225146 -0.06230047345 0.06636374444 2.898180898e-39
0.1425004303 -0.04696989805 0.07936690003 2.898180898e-39
0.1664784402 -0.0612758249 0.06542059779 2.898180898e-39
-0.1515060365 -0.2843818367 0.2363063246 2.898180898e-39
-0.1536971629 -0.3174539208 0.2696963549 2.898180898e-39
-0.1407413334 -0.2705892324 0.2819111943 2.898180898e-39
-0.1272397786 -0.2903865874 0.2720035613 2.898180898e-39
-0.02759154886 -0.4779835939 -0.1009661406 2.898180898e-39
-0.1255941689 -0.4840646386 -0.02753853425 2.898180898e-39
-0.0520943366 -0.4825423956 0.07216235995 2.898180898e-39
0.06141746044 -0.4850610495 -0.03143303469 2.898180898e-39
-0.1996768266 -0.3784783483 0.02037211135 2.898180898e-39
-0.2087565809 -0.4330322146 0.04123780131 2.898180898e-39
-0.2127225548 -0.3429217935 0.05705270171 2.898180898e-39
-0.2006584555 -0.3929528594 0.0614291057 2.898180898e-39
0.01430978533 -0.4764172435 -0.1399734318 2.898180898e-39
-0.08842600137 -0.483737886 -0.06612963974 2.898180898e-39
-0.01328680385 -0.4822104573 0.0418740809 2.898180898e-39
0.09356690198 -0.4859243035 -0.06698444486 2.898180898e-39
-0.1619302034 -0.3247433305 0.2080526352 2.898180898e-39
-0.1617284417 -0.3543986082 0.2358133942 2.898180898e-39
-0.1582382023 -0.3143856525 0.250145793 2.898180898e-39
-0.1316674501 -0.32855165 0.2400212884 2.898180898e-39
0.2644661367 -0.474560678 -0.1797990352 2.898180898e-39
0.187546432 -0.4842374921 -0.1453080624 2.898180898e-39
0.2990983129 -0.480915308 -0.07798793912 2.898180898e-39
0.3101444244 -0.4796763659 -0.1414063126 2.898180898e-39
-0.1277210265 -0.4136021733 -0.0434160307 2.898180898e-39
-0.1212886497 -0.4582864046 -0.02072571963 2.898180898e-39
-0.1331865489 -0.3772710562 0.002497798763 2.898180898e-39
-0.1014129445 -0.4208287001 -0.004766563885 2.898180898e-39
0.1322087944 -0.4751666188 -0.08649332076 6.490113838e-41
0.03595119342 -0.4827376604 -0.02430332452 6.490113838e-41
0.1260382533 -0.4821976423 0.04168558866 6.490113838e-41
0.1936194152 -0.4845365882 -0.03872271627 6.490113838e-41
-0.2043027878 -0.3710318804 -0.05724676326 6.490113838e-41
-0.1989452541 -0.4353194237 -0.03907064348 6.490113838e-41
-0.2069787085 -0.3336794674 -0.02784964815 6.490113838e-41
-0.1834730357 -0.3841893077 -0.02431084961 6.490113838e-41
0.363630265 -0.4202343225 -0.2393149734 6.490113838e-41
0.3466472924 -0.471612215 -0.2347492427 6.490113838e-41
0.3812282681 -0.3677348495 -0.2414915562 6.490113838e-41
0.3782097697 -0.4468088746 -0.2264657766 6.490113838e-41
-0.1999384463 -0.3290724456 0.08635628223 6.490113838e-41
-0.2007585317 -0.3867822886 0.1062075868 6.490113838e-41
-0.211118117 -0.2976714373 0.1240767092 6.490113838e-41
-0.1921892315 -0.3391240239 0.120275341 6.490113838e-41
0.2437519878 -0.4768927693 -0.2004796863 6.490113838e-41
0.1676946431 -0.4850791097 -0.161755845 6.490113838e-41
0.2811392546 -0.482283473 -0.08020525426 6.490113838e-41
0.2980068326 -0.4823954105 -0.1616496891 6.490113838e-41
0.07196982205 0.07821300626 -0.0006922893226 6.490113838e-41
0.1118898019 0.07845968008 -0.03270713612 6.490113838e-41
0.1108238697 0.07517434657 0.05671144277 6.490113838e-41
0.157482475 0.0794082582 0.009571960196 6.490113838e-41
-0.1823424399 -0.3814156055 -0.0476879254 6.490113838e-41
-0.1762559265 -0.4500994086 -0.03109700978 6.490113838e-41
-0.1889536977 -0.3291096985 -0.0134607004 6.490113838e-41
-0.1757863313 -0.4038654566 -0.006166952662 6.490113838e-41
-0.1575101018 -0.3676282167 0.2161210775 6.490113838e-41
-0.1570720375 -0.4172488451 0.2439527512 6.490113838e-41
-0.1525324732 -0.3446938694 0.2669481039 6.490113838e-41
-0.1350205541 -0.3832399845 0.2539946437 6.490113838e-41
0.4085851014 -0.2989501953 -0.2335903049 6.490113838e-41
0.4009226263 -0.4233508706 -0.2332319766 6.490113838e-41
0.4052846432 -0.2626034617 -0.2601146698 6.490113838e-41
0.4043147564 -0.3677589595 -0.2218505144 6.490113838e-41
-0.1266748905 -0.331281513 0.2248819172 6.490113838e-41
-0.1261563748 -0.389631927 0.2467812449 6.490113838e-41
-0.1253620982 -0.3023982644 0.2568694651 6.490113838e-41
-0.1130183339 -0.3502176404 0.2491598576 6.490113838e-41
-0.1505543441 -0.3357126117 0.173958838 6.490113838e-41
-0.1515720487 -0.3740243316 0.2030563205 6.490113838e-41
-0.1597840488 -0.3266735673 0.2183934897 6.490113838e-41
-0.1400532275 -0.3461007476 0.2049204409 6.490113838e-41
-0.116920881 -0.3517055809 0.2397449911 6.490113838e-41
-0.1158767492 -0.3871764541 0.2728500664 6.490113838e-41
-0.1020739973 -0.337577641 0.2933294773 6.490113838e-41
-0.08584406227 -0.3541607857 0.2778608799 6.490113838e-41
0.4290818572 -0.07562351227 -0.2315993607 6.490113838e-41
0.4249227047 -0.1844555736 -0.2258398384 6.490113838e-41
0.4268388748 -0.045225963 -0.2487365901 6.490113838e-41
0.4229272306 -0.1170436591 -0.2228964567 6.490113838e-41
-0.1300853342 -0.3576098084 0.1960458905 6.490113838e-41
-0.1388160139 -0.3981900811 0.2220562547 6.490113838e-41
-0.1319132149 -0.328913033 0.2414553165 6.490113838e-41
-0.1092092842 -0.3617059588 0.2334449589 6.490113838e-41
0.4252455533 -0.1402445436 -0.2335706502 6.490113838e-41
0.4289673865 -0.280505687 -0.2284603566 6.490113838e-41
0.4352137148 -0.08669786155 -0.2439764142 6.490113838e-41
0.438596338 -0.212962538 -0.221089825 6.490113838e-41
-0.1480965018 -0.335545063 0.2385296971 6.490113838e-41
-0.1423031092 -0.381516397 0.2619113028 6.490113838e-41
-0.1412581801 -0.3079992533 0.2834411263 6.490113838e-41
-0.1303362697 -0.3472248912 0.277726382 6.490113838e-41
0.3976779878 -0.02546014637 -0.2201026678 6.490113838e-41
0.4082878828 -0.1355669945 -0.220359087 6.490113838e-41
0.4184222817 0.009169310331 -0.2373616546 6.490113838e-41
0.3977839649 -0.06199929118 -0.2174493968 6.490113838e-41
0.3294166625 0.08295814693 -0.1102154404 6.490113838e-41
0.3952106237 0.07932250202 -0.1545775682 6.490113838e-41
0.3882150352 0.08471493423 -0.01240361016 6.490113838e-41
0.404048413 0.09058180451 -0.07915452868 6.490113838e-41
-0.2032750845 0.08167928457 0.1662290543 6.490113838e-41
-0.1901873499 0.04110619426 0.1732038558 6.490113838e-41
-0.202196449 0.07820393145 0.2331713736 6.490113838e-41
-0.1794806868 0.07010729611 0.2316771597 6.490113838e-41
-0.1939662099 0.03107221425 0.04522076622 6.490113838e-41
-0.1916292459 -0.07675334811 0.05744823813 6.490113838e-41
-0.2012709975 0.04748180509 0.08574339002 6.490113838e-41
-0.1999751627 -0.01920498908 0.09685663879 6.490113838e-41
-0.185440585 0.06606072187 0.03055068478 6.490113838e-41
-0.1865764111 0.006042212248 0.05022966117 6.490113838e-41
-0.1911839694 0.06782375276 0.09951924533 6.490113838e-41
-0.1789043546 0.03965391219 0.09503406286 6.490113838e-41
-0.1590420157 0.04561166465 0.01404290274 6.490113838e-41
-0.1643418819 -0.03389326483 0.03481388092 6.490113838e-41
-0.1630261242 0.057425946 0.05500572175 6.490113838e-41
-0.1530944258 0.01005768776 0.05543154851 6.490113838e-41
-0.1470086873 -0.3769781291 0.001076007262 6.490113838e-41
-0.1338332444 -0.4266700149 0.02065402269 6.490113838e-41
-0.1467862576 -0.3295927346 0.04422207922 6.490113838e-41
-0.1381405294 -0.3953410387 0.04407921433 6.490113838e-41
0.4446767569 -0.1413636357 -0.1727378219 6.490113838e-41
0.4397039115 -0.2491491884 -0.1801963151 6.490113838e-41
0.4454849958 -0.09700015932 -0.197809279 6.490113838e-41
0.4203234911 -0.1989942193 -0.1728596687 6.490113838e-41
0.2382224351 0.07915045321 -0.01824741438 6.490113838e-41
0.3103869557 0.0788872391 -0.06419958174 6.490113838e-41
0.2960512638 0.08181396127 0.03392458707 6.490113838e-41
0.3272447586 0.08096666634 -0.003697936423 6.490113838e-41
0.05293364078 0.08094364405 0.008649599738 6.490113838e-41
0.1038002148 0.07912290096 -0.02794530988 6.490113838e-41
0.09114617854 0.0786203742 0.08460258693 6.490113838e-41
0.1380889565 0.08027026057 0.04077351093 6.490113838e-41
-0.1634238213 -0.325887084 0.1833061725 6.490113838e-41
-0.1637705117 -0.3706088066 0.2182800472 6.490113838e-41
-0.1722904593 -0.3060189486 0.2299006134 6.490113838e-41
-0.1543247104 -0.3345713615 0.2255387902 6.490113838e-41
0.3425182402 0.08146321774 -0.2257280648 6.490113838e-41
0.3893636465 0.07243235409 -0.2523758113 6.490113838e-41
0.3893027008 0.07763755322 -0.1561513692 6.490113838e-41
0.4050855041 0.07586161792 -0.2122498602 6.490113838e-41
-0.208292827 -0.359798491 0.1067549661 6.490113838e-41
-0.2037648857 -0.4182279706 0.1310487688 6.490113838e-41
-0.2146796882 -0.3228181005 0.1492516249 6.490113838e-41
-0.2028312087 -0.367102474 0.1473901421 6.490113838e-41
0.4114148617 -0.3116667867 -0.2485417724 6.490113838e-41
0.400755316 -0.4302834272 -0.2527271509 6.490113838e-41
0.4165600538 -0.2433328927 -0.2536735237 6.490113838e-41
0.4121329784 -0.3675630689 -0.2422775328 6.490113838e-41
-0.09758062661 -0.4789898396 -0.1796030998 6.490113838e-41
-0.1282903254 -0.4868012071 -0.1316475719 6.490113838e-41
-0.10351789 -0.4857179523 -0.06836875528 6.490113838e-41
-0.023728095 -0.4848451018 -0.1218390763 6.490113838e-41
-0.1968414783 -0.3267715573 0.1210847795 6.490113838e-41
-0.1994819194 -0.3828071356 0.1449819654 6.490113838e-41
-0.2061879784 -0.3017505109 0.1625137478 6.490113838e-41
-0.1921449751 -0.3372990489 0.1550626457 6.490113838e-41
0.3627756536 0.03938578069 -0.2341880947 3.015101038e-39
0.3786028326 -0.002206847072 -0.2404972315 3.015101038e-39
0.3853964806 0.04411150515 -0.2242195904 3.015101038e-39
0.3942838013 0.03138595819 -0.241601944 3.015101038e-39
-0.1913976371 0.06651751697 0.1908633113 3.015101038e-39
-0.1907450408 -0.006955862045 0.2129675001 3.015101038e-39
-0.1873092353 0.06930039823 0.228975296 3.015101038e-39
-0.1872846782 0.04420211911 0.2315616608 3.015101038e-39
-0.1814053357 -0.3168913424 0.185931161 3.015101038e-39
-0.1826353669 -0.3621783257 0.2158195674 3.015101038e-39
-0.185888201 -0.3039366007 0.2344843894 3.015101038e-39
-0.1682050973 -0.3290897608 0.227139309 3.015101038e-39
-0.2112194449 -0.3896824718 -0.237706095 3.015101038e-39
-0.2008534968 -0.4713848829 -0.2213008255 3.015101038e-39
-0.2125984132 -0.3113674223 -0.2178867757 3.015101038e-39
-0.2027647495 -0.4422194958 -0.2113896757 3.015101038e-39
-0.2134972513 -0.01038628817 0.1742303371 3.015101038e-39
-0.216210112 -0.1233785227 0.1875787377 3.015101038e-39
-0.2197135687 0.01405495405 0.2025685459 3.015101038e-39
-0.2281530201 -0.05007601529 0.2006443143 3.015101038e-39
-0.1340358853 -0.3672541678 0.004888254683 3.015101038e-39
-0.1376920491 -0.4218720198 0.02521089464 3.015101038e-39
-0.1418181956 -0.3396484852 0.05197937414 3.015101038e-39
-0.1262877733 -0.3838931918 0.04608813673 3.015101038e-39
-0.2418823093 -0.3766152561 -0.2448765039 3.015101038e-39
-0.2281960547 -0.4567967057 -0.2380568385 3.015101038e-39
-0.2358936816 -0.3017677069 -0.240342319 3.015101038e-39
-0.2220757455 -0.4351269603 -0.2265162617 3.015101038e-39
-0.2328742146 0.01727469265 0.1736677736 3.015101038e-39
-0.2373016328 -0.09284412116 0.1942188442 3.015101038e-39
-0.2400880307 0.05016282201 0.207292974 3.015101038e-39
-0.2458258867 -0.0178097263 0.214312017 3.015101038e-39
0.2274629623 0.07838502526 -0.0682650581 3.015101038e-39
0.2990339398 0.07937145233 -0.1144698709 3.015101038e-39
0.2732076347 0.08035753667 0.006485206075 3.015101038e-39
0.3059670925 0.07350771129 -0.04055567086 3.015101038e-39
-0.218351528 -0.02143347263 0.1645163745 3.015101038e-39
-0.2092435658 -0.09566640854 0.1811259687 3.015101038e-39
-0.2084537446 -0.01975293458 0.1933941543 3.015101038e-39
-0.2119979858 -0.03618483245 0.1883396208 3.015101038e-39
0.1919343323 -0.4788680673 -0.1690223515 3.015101038e-39
0.1032731757 -0.4850393534 -0.09566495568 3.015101038e-39
0.217795521 -0.4819504619 -0.02730744332 3.015101038e-39
0.2359551638 -0.4812192917 -0.1056594029 3.015101038e-39
0.4085462391 -0.1553981751 -0.2253859937 3.015101038e-39
0.4013000727 -0.2808932066 -0.2250400782 3.015101038e-39
0.4053535759 -0.09492343664 -0.2422946692 3.015101038e-39
0.4094476402 -0.2202733755 -0.2157669365 3.015101038e-39
-0.2189418375 -0.05376187712 0.2010588944 3.015101038e-39
-0.2199291289 -0.158941254 0.2139900029 3.015101038e-39
-0.2203439474 -0.02252541482 0.2296952307 3.015101038e-39
-0.2248292863 -0.08561487496 0.2217968702 3.015101038e-39
0.05964135379 -0.4790432453 -0.1775033027 3.015101038e-39
-0.02926596627 -0.4827516079 -0.1075867862 3.015101038e-39
0.04323453829 -0.4835218787 -0.01933360472 3.015101038e-39
0.1146063209 -0.4857649207 -0.118171066 3.015101038e-39
-0.213783443 0.006232246757 0.1874646395 3.015101038e-39
-0.2182028741 -0.1064424664 0.2019055188 3.015101038e-39
-0.2164164037 0.0350369364 0.2250479162 3.015101038e-39
-0.2221045792 -0.0288522318 0.2174735516 3.015101038e-39
-0.1859255284 0.03735730052 -0.07744479924 3.015101038e-39
-0.1847342104 -0.05198414624 -0.05159620568 3.015101038e-39
-0.1928180456 0.06165958941 -0.02575623989 3.015101038e-39
-0.1803915501 0.001856595278 -0.03117747977 3.015101038e-39
0.3978362978 0.08284585178 -0.1813001484 3.015101038e-39
0.4497146308 0.07737345994 -0.233461678 3.015101038e-39
0.4487968385 0.08292229474 -0.1200713962 3.015101038e-39
0.4332780838 0.07416291535 -0.1546917707 3.015101038e-39
0.04808657616 0.08236658573 0.03219012916 3.015101038e-39
0.09838064015 0.07956402004 -0.01950309798 3.015101038e-39
0.08643276989 0.07847394049 0.07715839893 3.015101038e-39
0.1327881068 0.07939046621 0.04889357835 3.015101038e-39
-0.004683003761 0.08245117962 0.01657441817 3.015101038e-39
0.06374777853 0.07936482131 -0.02882784978 3.015101038e-39
0.03974968567 0.078766644 0.09279418737 3.015101038e-39
0.1076084673 0.07981528342 0.04616544396 3.015101038e-39
-0.1944339275 0.02654352784 -0.08461665362 3.015101038e-39
-0.1927654296 -0.08137010783 -0.05974182114 3.015101038e-39
-0.1908684224 0.05020608008 -0.04560600221 3.015101038e-39
-0.1857066303 -0.01909885556 -0.04814751446 3.015101038e-39
-0.1727586538 -0.2943605185 0.233436957 3.015101038e-39
-0.1691846699 -0.3227795064 0.2584037483 3.015101038e-39
-0.166947782 -0.2763850689 0.2707514763 3.015101038e-39
-0.1490537375 -0.3031811118 0.2604191899 3.015101038e-39
-0.1992491186 -0.003726705909 0.1925183237 3.015101038e-39
-0.2125806957 -0.1147353798 0.2027460933 3.015101038e-39
-0.2081423849 0.023928985 0.2187422812 3.015101038e-39
-0.2157767862 -0.04663365334 0.2212576568 3.015101038e-39
-0.1398674995 -0.2968220115 0.2442760468 3.015101038e-39
-0.1358930022 -0.3179861307 0.2680799067 3.015101038e-39
-0.1320413351 -0.2837010026 0.285212189 3.015101038e-39
-0.1165279523 -0.3100176454 0.2725018263 3.015101038e-39
-0.1725241542 0.02754442394 0.2436228544 3.015101038e-39
-0.168814078 -0.06775076687 0.2707222104 3.015101038e-39
-0.1767472774 0.03738644719 0.2828162909 3.015101038e-39
-0.1746658832 -0.01676363498 0.2929481268 3.015101038e-39
-0.2043085694 0.08223237097 0.09718766063 3.015101038e-39
-0.1720684916 0.07929651439 0.07622781396 3.015101038e-39
-0.1990083158 0.08009576797 0.1769962013 3.015101038e-39
-0.1567958593 0.08136177063 0.1403000057 3.015101038e-39
-0.06369423121 -0.4709653258 -0.1690000296 3.015101038e-39
-0.1065180227 -0.4839803576 -0.1426114738 3.015101038e-39
-0.0887901634 -0.4836077094 -0.09913016111 3.015101038e-39
-0.01089509577 -0.4855105877 -0.1423882395 3.015101038e-39
-0.2136358917 -0.06834242493 0.2304744422 3.015101038e-39
-0.2175729275 -0.1840535253 0.245971173 3.015101038e-39
-0.2198670059 -0.02695929259 0.261464119 3.015101038e-39
-0.2247015834 -0.1173351035 0.2600004971 3.015101038e-39
-0.1985487193 0.08105622232 0.1084976345 3.015101038e-39
-0.1525771022 0.08015368879 0.07992313057 3.015101038e-39
-0.1882466525 0.08068601787 0.1863799989 3.015101038e-39
-0.1325869411 0.08236096799 0.1560564339 3.015101038e-39
-0.08305050433 0.0813190192 0.1175429672 3.015101038e-39
-0.003075243672 0.07997018099 0.06249531731 3.015101038e-39
-0.02862818539 0.08023580909 0.1742147654 3.015101038e-39
0.04661114141 0.08167375624 0.12897183 3.015101038e-39
0.3181635737 -0.3679308891 -0.2185330838 3.015101038e-39
0.3132497966 -0.4495216012 -0.2207290977 3.015101038e-39
0.3350137174 -0.3001033962 -0.2186814547 3.015101038e-39
0.3419587016 -0.3992336988 -0.2106663138 3.015101038e-39
-0.1099810228 -0.4733039141 -0.2404171526 3.015101038e-39
-0.1715456098 -0.4839378595 -0.1775612533 3.015101038e-39
-0.1191302538 -0.4833081365 -0.1081823334 3.015101038e-39
-0.01196802594 -0.4842416048 -0.1842269599 3.015101038e-39
-0.1361717284 -0.4239163995 -0.2129406929 3.015101038e-39
-0.1406691372 -0.4791460037 -0.2037442774 3.015101038e-39
-0.1103039831 -0.3578915596 -0.2140897959 3.015101038e-39
-0.07936414331 -0.4726898074 -0.1984825879 3.015101038e-39
-0.2266432792 -0.3060771227 -0.1718360633 5.962428276e-39
-0.2160666287 -0.429063201 -0.1707404852 5.962428276e-39
-0.2246325612 -0.230566442 -0.1593231857 5.962428276e-39
-0.2171040177 -0.3655948341 -0.1515735388 5.962428276e-39
0.1226811484 -0.4768556356 -0.185829401 5.962428276e-39
0.03274364769 -0.4857012033 -0.1210831553 5.962428276e-39
0.1168975756 -0.4849720001 -0.01703643054 5.962428276e-39
0.1629169285 -0.4853844047 -0.1108719707 5.962428276e-39
-0.08959967643 -0.4741969109 -0.2134877294 5.962428276e-39
-0.1496403962 -0.4841618538 -0.1668631285 5.962428276e-39
-0.1003440395 -0.4826345444 -0.110025838 5.962428276e-39
-0.00641417969 -0.4837067723 -0.173056975 5.962428276e-39
-0.1855399609 -0.220338136 0.1675333828 5.962428276e-39
-0.1851141304 -0.3536795676 0.1739189178 5.962428276e-39
-0.1897715777 -0.1412462443 0.1830016226 5.962428276e-39
-0.1997959912 -0.273588419 0.1825343519 5.962428276e-39
-0.1734357178 -0.04183525592 0.2563663423 5.962428276e-39
-0.1821332574 -0.1568989307 0.2747752666 5.962428276e-39
-0.1850470901 -0.01288817078 0.2910917401 5.962428276e-39
-0.1905057281 -0.08392088115 0.2979847789 5.962428276e-39
-0.193848148 -0.1072297096 0.1574844867 5.962428276e-39
-0.2073588669 -0.2522970438 0.1733576357 5.962428276e-39
-0.2030002177 -0.05136584491 0.1949729025 5.962428276e-39
-0.2152293622 -0.1707041264 0.1993377209 5.962428276e-39
-0.2082668543 0.08361677825 0.03765971586 5.962428276e-39
-0.1725524664 0.07889008522 0.01135940291 5.962428276e-39
-0.2013504207 0.07950517535 0.1166791618 5.962428276e-39
-0.1520172805 0.08037431538 0.08839469403 5.962428276e-39
-0.01768542454 0.08189438283 -0.006664079614 5.962428276e-39
0.03159024194 0.08096009493 -0.04382744804 5.962428276e-39
0.02265166119 0.07981701195 0.08224588633 5.962428276e-39
0.08560743928 0.07992941141 0.02619603649 5.962428276e-39
-0.1601204574 0.08348947763 0.08150833845 5.962428276e-39
-0.1055073738 0.0799960196 0.02577323839 5.962428276e-39
-0.1386501938 0.08155298233 0.1803790182 5.962428276e-39
-0.07934063673 0.08220206201 0.1365879178 5.962428276e-39
-0.2051349431 -0.2214353085 0.142580241 5.962428276e-39
-0.2101401389 -0.3536267579 0.1537175775 5.962428276e-39
-0.2120969296 -0.1404752284 0.1706748903 5.962428276e-39
-0.2198292315 -0.2632613182 0.1745049953 5.962428276e-39
-0.06355817616 0.08106805384 0.07918835431 5.962428276e-39
0.004231305793 0.08062399924 0.02368266694 5.962428276e-39
-0.02503876016 0.08074456453 0.15782772 5.962428276e-39
0.04079708084 0.08242748678 0.1093070954 5.962428276e-39
-0.2087131143 -0.1325105876 0.1521726698 5.962428276e-39
-0.2096830755 -0.2547084987 0.1698866785 5.962428276e-39
-0.2123601586 -0.07192461193 0.1766247749 5.962428276e-39
-0.2211257964 -0.178329736 0.1861080378 5.962428276e-39
0.412802726 -0.1927984059 -0.2056028247 5.962428276e-39
0.4042949975 -0.3016529083 -0.2135664374 5.962428276e-39
0.409281224 -0.1492551863 -0.2433199883 5.962428276e-39
0.410074383 -0.2716313303 -0.2095238417 5.962428276e-39
-0.1522414386 -0.3141767681 0.08439245075 5.962428276e-39
-0.1552912444 -0.3742853403 0.1039075255 5.962428276e-39
-0.1541252881 -0.2914822698 0.1234009415 5.962428276e-39
-0.1442287564 -0.3357284665 0.1175890639 5.962428276e-39
-0.2025017887 -0.1818657517 0.2408968806 5.962428276e-39
-0.2083423883 -0.3129774034 0.2563636899 5.962428276e-39
-0.2077195197 -0.1151139513 0.2675765753 5.962428276e-39
-0.2170073241 -0.2305571139 0.2647713125 5.962428276e-39
-0.1902089715 0.08174993098 0.05368326232 5.962428276e-39
-0.1421925426 0.07998688519 0.01422948018 5.962428276e-39
-0.1676557362 0.07906740904 0.1049911827 5.962428276e-39
-0.1041838825 0.08070573211 0.0768057704 5.962428276e-39
0.3667497337 -0.3061262369 -0.1936612427 5.962428276e-39
0.3518365324 -0.4245350957 -0.2031700015 5.962428276e-39
0.3747824132 -0.2442079186 -0.2187148631 5.962428276e-39
0.3616844118 -0.3701781631 -0.1960184574 5.962428276e-39
-0.1983700395 -0.2816589475 -0.1017125323 5.962428276e-39
-0.1938109845 -0.4083449244 -0.084287256 5.962428276e-39
-0.2061766982 -0.1956299543 -0.07358738035 5.962428276e-39
-0.2031371444 -0.3366240859 -0.05635121837 5.962428276e-39
-0.1917187721 -0.1433796585 0.2743106186 5.962428276e-39
-0.1912039965 -0.2671410441 0.2853130996 5.962428276e-39
-0.1925991327 -0.07238435745 0.2955524325 5.962428276e-39
-0.2021111548 -0.1846702248 0.2932013869 5.962428276e-39
-0.150218159 0.07950520515 0.1706563234 5.962428276e-39
-0.07872467488 0.07972668111 0.1302781999 5.962428276e-39
-0.1206348166 0.07844251394 0.2077701092 5.962428276e-39
-0.06635524333 0.08441030979 0.1910561472 5.962428276e-39
0.2277923375 0.07968147099 -0.1008586735 5.962428276e-39
0.3003790379 0.07857909799 -0.1451796144 5.962428276e-39
0.2791891098 0.07908061147 -0.03771339729 5.962428276e-39
0.309869349 0.07261958718 -0.07620912045 5.962428276e-39
-0.1937065721 -0.387920022 -0.2109957337 5.962428276e-39
-0.1793341339 -0.4687226415 -0.2022901773 5.962428276e-39
-0.1783186048 -0.3193642497 -0.2033693045 5.962428276e-39
-0.1724587828 -0.4388797879 -0.1971899271 5.962428276e-39
-0.1824019104 -0.2982422411 -0.1402106583 5.962428276e-39
-0.1737272441 -0.4205957055 -0.130396679 5.962428276e-39
-0.1833345592 -0.2236428708 -0.1165957898 5.962428276e-39
-0.1804393083 -0.3531542122 -0.1057218835 5.962428276e-39
-0.09184914827 0.08146925271 0.08636147529 5.962428276e-39
-0.01669557765 0.07993258536 0.01747638732 5.962428276e-39
-0.0603033416 0.08047200739 0.1706870794 5.962428276e-39
0.02059001103 0.08280462027 0.1242739111 5.962428276e-39
-0.1866360456 -0.1736314446 0.2167705894 5.962428276e-39
-0.1906625181 -0.2828267217 0.2324348092 5.962428276e-39
-0.1894873828 -0.09770548344 0.2397256792 5.962428276e-39
-0.19390589 -0.2093214691 0.2400659472 5.962428276e-39
0.4097049832 -0.1662792861 -0.2036172301 5.962428276e-39
0.3983528614 -0.2526119947 -0.2072730958 5.962428276e-39
0.4134159386 -0.1474648565 -0.2369020432 5.962428276e-39
0.4053403437 -0.2329134047 -0.2063111812 5.962428276e-39
-0.1555655748 -0.2761045098 0.1200077832 5.962428276e-39
-0.1591926515 -0.3608003259 0.1405724734 5.962428276e-39
-0.1667913944 -0.2178461552 0.1537845433 5.962428276e-39
-0.1662569344 -0.3019145131 0.1506637484 5.962428276e-39
-0.1848623008 -0.1504685879 0.2201868743 5.962428276e-39
-0.194968611 -0.2803601623 0.2403702736 5.962428276e-39
-0.1928659678 -0.08544194698 0.2513962686 5.962428276e-39
-0.20728302 -0.1999884844 0.2555840313 5.962428276e-39
-0.1828431338 -0.1302658319 0.29970029 5.962428276e-39
-0.1827980876 -0.2614063025 0.3202190995 5.962428276e-39
-0.1867294461 -0.0714442879 0.3324605823 5.962428276e-39
-0.1993054003 -0.1805475652 0.3282929957 5.962428276e-39
-0.1888388246 -0.05673464388 0.14794752 5.962428276e-39
-0.2080529928 -0.1533211768 0.1672896147 5.962428276e-39
-0.2006285489 -0.04501723498 0.1918449104 5.962428276e-39
-0.2082751393 -0.09796700627 0.1936101168 5.962428276e-39
-0.1652791798 -0.08105288446 0.1240866631 5.962428276e-39
-0.1818049252 -0.1870815605 0.1395006031 5.962428276e-39
-0.1763634086 -0.05576169491 0.1577042192 5.962428276e-39
-0.1806275547 -0.1265309602 0.1617728919 5.962428276e-39
-0.1705343127 -0.2876354456 0.1562900394 5.962428276e-39
-0.1741112322 -0.3186483383 0.1811468005 5.962428276e-39
-0.1802969128 -0.2689490616 0.205991298 5.962428276e-39
-0.1676072329 -0.2922251821 0.195858106 5.962428276e-39
-0.1592898965 -0.04919897765 0.07934751362 8.906165387e-39
-0.1740410477 -0.1725512594 0.09866116196 8.906165387e-39
-0.1721993536 -0.03313435614 0.1280863285 8.906165387e-39
-0.1770191938 -0.1059360653 0.1339157671 8.906165387e-39
-0.1597849578 -0.06870467216 0.1043571308 8.906165387e-39
-0.1782793105 -0.1723906547 0.1240805909 8.906165387e-39
-0.1781406552 -0.04746372253 0.1487954259 8.906165387e-39
-0.1794486493 -0.1093944535 0.1544344723 8.906165387e-39
-0.1743131429 -0.01034452021 0.06738343835 8.906165387e-39
-0.1758683771 -0.1049579456 0.0837546587 8.906165387e-39
-0.1826703846 -0.01137851924 0.1138012409 8.906165387e-39
-0.1819172204 -0.05171279609 0.1196339056 8.906165387e-39
-0.1784329563 -0.3003596067 0.05834752694 8.906165387e-39
-0.1806890815 -0.3843438029 0.07856695354 8.906165387e-39
-0.185900867 -0.2459732592 0.1054130569 8.906165387e-39
-0.1891762465 -0.3266000152 0.1044516861 8.906165387e-39
-0.149070859 -0.05583222955 0.1133697182 8.906165387e-39
-0.1691258699 -0.1754095703 0.1322017014 8.906165387e-39
-0.1659680009 -0.0322413817 0.1563209742 8.906165387e-39
-0.1679436713 -0.1089600995 0.1601375937 8.906165387e-39
-0.1678775251 -0.04642616957 0.1003486738 8.906165387e-39
-0.1857070625 -0.1466942877 0.1278009117 8.906165387e-39
-0.1860028356 -0.03509131074 0.1537466049 8.906165387e-39
-0.1868398935 -0.08984473348 0.1569546014 8.906165387e-39
-0.1861450076 -0.03351714462 0.106571421 8.906165387e-39
-0.1966665238 -0.130611062 0.1310172081 8.906165387e-39
-0.196310252 -0.02264340222 0.1541519463 8.906165387e-39
-0.1974821687 -0.07622784376 0.1565128118 8.906165387e-39
-0.1338930726 -0.0707559064 0.1101993024 8.906165387e-39
-0.1457967609 -0.1903914511 0.1272117198 8.906165387e-39
-0.1446487308 -0.03372132033 0.1480231583 8.906165387e-39
-0.1503662318 -0.1217906848 0.153361693 8.906165387e-39
0.2051687539 0.07961159945 -0.1084597558 8.906165387e-39
0.2865347564 0.07844090462 -0.1616256386 8.906165387e-39
0.2816439867 0.08049966395 -0.04036126658 8.906165387e-39
0.3218416572 0.07105362415 -0.1018590778 8.906165387e-39
-0.1401632428 -0.1214283705 0.1258685738 8.906165387e-39
-0.1498255879 -0.1892568469 0.1492425352 8.906165387e-39
-0.1480385959 -0.09584789723 0.1571674943 8.906165387e-39
-0.1431362331 -0.1507714391 0.158554852 8.906165387e-39
-0.2003754526 -0.242175594 0.09500045329 8.906165387e-39
-0.2049479187 -0.3577185869 0.1063282788 8.906165387e-39
-0.2079511434 -0.1651957482 0.1257120818 8.906165387e-39
-0.2088613957 -0.2739928067 0.1336120367 8.906165387e-39
0.331174016 0.04301153123 -0.1849784851 8.906165387e-39
0.3410534561 -0.007378339767 -0.1902724355 8.906165387e-39
0.3541563749 0.0467929095 -0.1768416911 8.906165387e-39
0.3698269427 0.02482685447 -0.1970476657 8.906165387e-39
-0.1537590027 -0.02744723856 0.1086115316 8.906165387e-39
-0.1541325897 -0.08826126158 0.1302639395 8.906165387e-39
-0.1503348798 -0.02370599657 0.1449628323 8.906165387e-39
-0.1438671201 -0.04530631751 0.1473948359 8.906165387e-39
-0.1930112094 -0.09596671164 0.08943843096 8.906165387e-39
-0.2007900327 -0.1772996038 0.1138927639 8.906165387e-39
-0.2012616843 -0.0728975907 0.1282455921 8.906165387e-39
-0.2015529126 -0.1287732571 0.133160457 8.906165387e-39
-0.179791674 -0.04767170548 0.03689906374 8.906165387e-39
-0.1870582849 -0.1388589889 0.05785982683 8.906165387e-39
-0.1928981692 -0.03553047776 0.08522929251 8.906165387e-39
-0.1903198212 -0.08891499043 0.08958787471 8.906165387e-39
-0.1746966392 -0.1424615085 0.1162323505 8.906165387e-39
-0.1822499931 -0.2503781915 0.1388342977 8.906165387e-39
-0.1869554818 -0.08876217902 0.1476708353 8.906165387e-39
-0.1895932704 -0.1798049659 0.1573909372 8.906165387e-39
0.2195219845 -0.4569609761 -0.1735350192 8.906165387e-39
0.1782903522 -0.4801712036 -0.1747765541 8.906165387e-39
0.2346039414 -0.4382865429 -0.1561104953 8.906165387e-39
0.2489509434 -0.4769797325 -0.1652251035 8.906165387e-39
-0.1186254248 0.08138549328 0.09347072989 8.906165387e-39
-0.06598330289 0.0787948519 0.0636601001 8.906165387e-39
-0.08249734342 0.07538066804 0.1588942409 8.906165387e-39
-0.03718726337 0.08127987385 0.1257046312 8.906165387e-39
0.3357642293 -0.04248370975 -0.2340922356 8.906165387e-39
0.3408260047 -0.1713102758 -0.2366204411 8.906165387e-39
0.3507012427 -0.001579105854 -0.2572390139 8.906165387e-39
0.3507303298 -0.07156643271 -0.2368219644 8.906165387e-39
-0.1912582368 -0.2730202675 0.04282401502 8.906165387e-39
-0.1925667077 -0.3439045548 0.06122707203 8.906165387e-39
-0.2054857314 -0.2238160968 0.0814557597 8.906165387e-39
-0.1922244132 -0.293764621 0.09000339359 8.906165387e-39
-0.1645252407 -0.05314353853 -0.1043809578 8.906165387e-39
-0.1739220768 -0.1731308699 -0.08293662965 8.906165387e-39
-0.1759599149 -0.02032402903 -0.06176054105 8.906165387e-39
-0.1829241216 -0.1083454564 -0.06369505078 8.906165387e-39
-0.1598871201 -0.2433204949 0.2415738255 8.906165387e-39
-0.1613951474 -0.3367561698 0.2692248523 8.906165387e-39
-0.165767163 -0.1726970673 0.2779254913 8.906165387e-39
-0.1729704291 -0.28011325 0.2795925438 8.906165387e-39
-0.1297549307 0.08292253315 0.00991198048 8.906165387e-39
-0.09537492692 0.07862170041 -0.01458441373 8.906165387e-39
-0.120786041 0.07900226116 0.1154553145 8.906165387e-39
-0.08133037388 0.08089183271 0.07854737341 8.906165387e-39
-0.1556344032 -0.2198628485 0.2216116339 8.906165387e-39
-0.1599316746 -0.2752634883 0.2592473924 8.906165387e-39
-0.1566363424 -0.1842544973 0.2716178596 8.906165387e-39
-0.1599031687 -0.2326508015 0.2655795813 8.906165387e-39
-0.1695569158 -0.01423566043 0.06180585548 8.906165387e-39
-0.1709160954 -0.0962356478 0.07684196532 8.906165387e-39
-0.1819764674 -0.007161036134 0.1049777567 8.906165387e-39
-0.178638339 -0.04532583803 0.1056820303 8.906165387e-39
-0.1983540207 -0.2425194383 -0.09399754554 8.906165387e-39
-0.1905335784 -0.3843362331 -0.08309550583 8.906165387e-39
-0.2034778446 -0.1562083215 -0.0806279704 8.906165387e-39
-0.1999690086 -0.3101121783 -0.0700789094 8.906165387e-39
0.0008211731911 0.07997986674 0.002850491554 8.906165387e-39
0.05140393972 0.07778641582 -0.02947380766 8.906165387e-39
0.04781446606 0.07666680217 0.06269387901 8.906165387e-39
0.1026440188 0.07990074158 0.02234731801 8.906165387e-39
-0.1534984261 0.08208148181 0.03022276983 8.906165387e-39
-0.103005819 0.07881642878 0.001648322679 8.906165387e-39
-0.1231376678 0.07753010094 0.1045250297 8.906165387e-39
-0.07627607137 0.07934969664 0.07280457765 8.906165387e-39
-0.2101993412 -0.1883375347 0.01998474076 8.906165387e-39
-0.2069141567 -0.2846732736 0.0331017822 8.906165387e-39
-0.2108614147 -0.1230753213 0.04072672501 8.906165387e-39
-0.2015375793 -0.2163741589 0.05216066539 8.906165387e-39
0.3081163466 0.07911542058 -0.1592886597 8.906165387e-39
0.3540423512 0.07517817616 -0.1788629442 8.906165387e-39
0.3511420488 0.07882094383 -0.1094954163 8.906165387e-39
0.369399786 0.07239055634 -0.1486468315 8.906165387e-39
0.2431703061 -0.3991147876 -0.2227997929 8.906165387e-39
0.2255373448 -0.454416573 -0.2244911045 8.906165387e-39
0.2915727198 -0.3121774793 -0.2302291244 8.906165387e-39
0.273827374 -0.4133730531 -0.2019046992 8.906165387e-39
0.3813411593 -0.186557129 -0.2079317719 8.906165387e-39
0.3757935464 -0.3416238427 -0.2068663538 8.906165387e-39
0.388124913 -0.1020338982 -0.2287018448 8.906165387e-39
0.3955711424 -0.2657907903 -0.201943174 8.906165387e-39
-0.2317220867 -0.2209959924 0.09949797392 1.184631237e-38
-0.2279180288 -0.2873579264 0.1163880453 1.184631237e-38
-0.2346022278 -0.1878298074 0.1298671514 1.184631237e-38
-0.222638756 -0.2316959798 0.1378462315 1.184631237e-38
0.305440098 -0.05401653796 -0.2266508192 1.184631237e-38
0.3175994456 -0.168474555 -0.2279096991 1.184631237e-38
0.330542475 -0.01834416389 -0.2407541871 1.184631237e-38
0.3307696283 -0.07778924704 -0.2247498631 1.184631237e-38
-0.1679024696 -0.3480370045 -0.07264631242 1.184631237e-38
-0.1650501341 -0.4066795707 -0.04455794394 1.184631237e-38
-0.1828727126 -0.3186890483 -0.02849447727 1.184631237e-38
-0.1626225263 -0.3560658097 -0.01802238449 1.184631237e-38
0.3821159303 -0.3161706924 -0.221807301 1.184631237e-38
0.3751198649 -0.436753571 -0.2307385951 1.184631237e-38
0.39403072 -0.2405929565 -0.2258998901 1.184631237e-38
0.3874979019 -0.3622715771 -0.2175550908 1.184631237e-38
-0.1391200572 0.08152247965 0.0108818803 1.184631237e-38
-0.07202754915 0.08005698025 -0.0232633017 1.184631237e-38
-0.09934528172 0.07848854363 0.08302821964 1.184631237e-38
-0.04384320602 0.07994180918 0.04304803908 1.184631237e-38
-0.05636618286 0.08205258846 0.006882946938 1.184631237e-38
-0.003837571479 0.07976491749 -0.02653335407 1.184631237e-38
-0.01576464623 0.07848156989 0.0644633621 1.184631237e-38
0.04383102432 0.08187101781 0.0242414102 1.184631237e-38
-0.1944979727 0.08397644758 0.02075916715 1.184631237e-38
-0.1335619986 0.07804448903 -0.01463597175 1.184631237e-38
-0.1552274078 0.07892693579 0.09289862961 1.184631237e-38
-0.09668432921 0.08105358481 0.05580657348 1.184631237e-38
-0.149897784 -0.2360694259 0.1963034272 1.184631237e-38
-0.1496406943 -0.2922848463 0.2288370281 1.184631237e-38
-0.1488788724 -0.2009916455 0.2415101677 1.184631237e-38
-0.1415676028 -0.2470260561 0.2351664454 1.184631237e-38
-0.1385641545 -0.2306674123 0.2086440772 1.184631237e-38
-0.1356893629 -0.2719610333 0.2452777773 1.184631237e-38
-0.1315874308 -0.2083072364 0.2556868196 1.184631237e-38
-0.1253035665 -0.2374368012 0.2448007762 1.184631237e-38
-0.1722742766 -0.3514938951 -0.09224896878 1.184631237e-38
-0.1635864526 -0.4100111723 -0.06100017205 1.184631237e-38
-0.1933579594 -0.3026196957 -0.05143589154 1.184631237e-38
-0.1799491495 -0.3716090918 -0.03555215523 1.184631237e-38
-0.1946620494 -0.2706848681 -0.1676189452 1.184631237e-38
-0.1844155043 -0.4219440222 -0.1665239036 1.184631237e-38
-0.1930335015 -0.1819820702 -0.1556364149 1.184631237e-38
-0.191206187 -0.3588941097 -0.1460296661 1.184631237e-38
-0.2028004676 -0.1761478633 0.1306243092 1.184631237e-38
-0.2051526904 -0.2605007887 0.1555345654 1.184631237e-38
-0.2104003876 -0.120046258 0.1646035314 1.184631237e-38
-0.2111131251 -0.2021635622 0.1688955873 1.184631237e-38
-0.2019460052 -0.07531733811 -0.05148064718 1.184631237e-38
-0.2063431144 -0.1684507877 -0.02551022917 1.184631237e-38
-0.2161120474 -0.04986543208 -0.002834127285 1.184631237e-38
-0.2142080814 -0.1191059798 -0.0007921233773 1.184631237e-38
-0.170604825 -0.1769590676 0.03224635497 1.184631237e-38
-0.1706780344 -0.290268153 0.04871342331 1.184631237e-38
-0.1815104336 -0.1238730997 0.06144158915 1.184631237e-38
-0.1777545661 -0.2135932148 0.07500053942 1.184631237e-38
0.3756205738 -0.2773728967 -0.2277665883 1.184631237e-38
0.3670499921 -0.3969751596 -0.2286022156 1.184631237e-38
0.3860098422 -0.213421613 -0.2441227734 1.184631237e-38
0.3784197569 -0.3373934031 -0.2243551314 1.184631237e-38
-0.1356344521 -0.06476190686 0.01697934419 1.184631237e-38
-0.1459202766 -0.1298809648 0.04730919376 1.184631237e-38
-0.1506478488 -0.04757868499 0.07218879461 1.184631237e-38
-0.1472758353 -0.0867562592 0.0723908022 1.184631237e-38
-0.1338589489 -0.3745906949 -0.08481834084 1.184631237e-38
-0.1300982088 -0.4309664965 -0.07838027179 1.184631237e-38
-0.1346121877 -0.335113883 -0.0566845201 1.184631237e-38
-0.1177550256 -0.3910509944 -0.05741999671 1.184631237e-38
0.3326817453 -0.271756053 -0.2353180945 1.184631237e-38
0.3310171962 -0.4001441002 -0.2354537398 1.184631237e-38
0.3460468352 -0.1953316182 -0.2445448041 1.184631237e-38
0.3494538069 -0.3390874863 -0.2278884351 1.184631237e-38
-0.1827320457 -0.03773219138 -0.1386303008 1.184631237e-38
-0.185378328 -0.1555838287 -0.1127031818 1.184631237e-38
-0.1762879342 0.0004064142704 -0.1042245105 1.184631237e-38
-0.1808200926 -0.09122938663 -0.09973663837 1.184631237e-38
-0.1228037849 0.08058124781 0.00344124902 1.184631237e-38
-0.05288581923 0.07839044929 -0.02221115306 1.184631237e-38
-0.08796941489 0.0774782598 0.07980626076 1.184631237e-38
-0.01804078557 0.08181114495 0.02974865213 1.184631237e-38
-0.03174838051 -0.4731816053 -0.2551828921 1.184631237e-38
-0.08192387968 -0.4831130505 -0.2224849761 1.184631237e-38
-0.01230118237 -0.4780953526 -0.165846929 1.184631237e-38
0.05297172815 -0.4827852845 -0.227662459 1.184631237e-38
0.3082005382 -0.1103689298 -0.2249289155 1.184631237e-38
0.3139831126 -0.2439099848 -0.2338972688 1.184631237e-38
0.3435698748 -0.02557259053 -0.2414340079 1.184631237e-38
0.3442777097 -0.1561113 -0.2160548419 1.184631237e-38
0.2429400235 0.04407308996 -0.2222998738 1.184631237e-38
0.2705620527 -0.05431972444 -0.2181850076 1.184631237e-38
0.2859497964 0.05243644118 -0.2244523466 1.184631237e-38
0.2982130051 -0.0142473802 -0.2216850072 1.184631237e-38
0.03880108893 0.07969850302 -0.0647867173 1.184631237e-38
0.0950775966 0.07888944447 -0.08701307327 1.184631237e-38
0.08176951855 0.0780929327 -0.01283517946 1.184631237e-38
0.1278443038 0.07952411473 -0.05642612651 1.184631237e-38
-0.1495570689 -0.0254034549 0.02189658396 1.184631237e-38
-0.1534784585 -0.1017690897 0.03775214404 1.184631237e-38
-0.1599816233 -0.02012676746 0.06329127401 1.184631237e-38
-0.1553904861 -0.06217488647 0.06372129172 1.184631237e-38
-0.1529435515 -0.2051061094 0.2385000736 1.184631237e-38
-0.1523483098 -0.2615061998 0.2685483992 1.184631237e-38
-0.1453739107 -0.1766040623 0.2707737386 1.184631237e-38
-0.1452415884 -0.2211226523 0.2622223794 1.184631237e-38
-0.1469767541 -0.2295202017 0.2879287899 1.184631237e-38
-0.1443826854 -0.2711357474 0.3022506237 1.184631237e-38
-0.1334311217 -0.2025425881 0.3188659549 1.184631237e-38
-0.1302751005 -0.2449042201 0.3093597591 1.184631237e-38
-0.1426165402 -0.121325843 0.03130972758 1.184631237e-38
-0.146480903 -0.2147069573 0.04389705136 1.184631237e-38
-0.1452070475 -0.09761628509 0.06809022278 1.184631237e-38
-0.1411710232 -0.1696636528 0.07296004891 1.184631237e-38
-0.1506672502 -0.04375710338 0.01072914526 1.184631237e-38
-0.1565453261 -0.1494006664 0.02721326426 1.184631237e-38
-0.1593084633 -0.03026987612 0.05248740315 1.184631237e-38
-0.1609565169 -0.09046557546 0.05675348267 1.184631237e-38
-0.1888786852 -0.1359311491 0.01493111532 1.184631237e-38
-0.1896016002 -0.2458740473 0.03035067767 1.184631237e-38
-0.1998635679 -0.08870255947 0.04013106972 1.184631237e-38
-0.1910108924 -0.1759691685 0.05310819671 1.184631237e-38
0.2871298492 0.06741948426 -0.2037261724 1.184631237e-38
0.3150573373 0.0360353142 -0.2183509022 1.184631237e-38
0.3213968277 0.0706576407 -0.1945114136 1.184631237e-38
0.3427054286 0.04373416305 -0.2234330624 1.184631237e-38
-0.1579137146 -0.1735932231 0.1171101853 1.184631237e-38
-0.1643895954 -0.279389441 0.1322039813 1.184631237e-38
-0.1672911346 -0.1224184781 0.1413402259 1.184631237e-38
-0.1686336845 -0.2111460119 0.1477508396 1.184631237e-38
-0.1417364329 -0.2056710571 0.2152333409 1.478322936e-38
-0.1386031359 -0.2599534392 0.2460452616 1.478322936e-38
-0.1349898726 -0.1787030846 0.2505080402 1.478322936e-38
-0.1308579743 -0.2165116966 0.2406059653 1.478322936e-38
-0.1596384495 -0.2468969226 0.1816400439 1.478322936e-38
-0.1602699161 -0.3042550087 0.2124813497 1.478322936e-38
-0.168466717 -0.2135289609 0.2224183828 1.478322936e-38
-0.1576982886 -0.2605540454 0.2195320576 1.478322936e-38
-0.1563508958 -0.2667334676 0.1831461042 1.478322936e-38
-0.1545916945 -0.3297919035 0.2160581052 1.478322936e-38
-0.1657147557 -0.228921175 0.2277113199 1.478322936e-38
-0.1567736566 -0.2801892161 0.2268342972 1.478322936e-38
0.1386152506 0.07979619503 -0.07786379009 1.478322936e-38
0.1984886229 0.07853612304 -0.1273850203 1.478322936e-38
0.2031986862 0.0790515542 -0.04551962763 1.478322936e-38
0.2481101006 0.08095160127 -0.08366508037 1.478322936e-38
-0.2020424902 0.08307871222 -0.05862225965 1.478322936e-38
-0.1493446231 0.07980556786 -0.08361127973 1.478322936e-38
-0.1932215095 0.07934828103 0.01296297461 1.478322936e-38
-0.1348625422 0.0816617012 -0.01821309701 1.478322936e-38
-0.174558416 0.03659497201 -0.1629257053 1.478322936e-38
-0.1757411212 -0.04755137861 -0.144175455 1.478322936e-38
-0.1745066643 0.06093792617 -0.1168566048 1.478322936e-38
-0.158813104 0.0106652379 -0.1243690997 1.478322936e-38
-0.1625688523 -0.241607666 0.1528815329 1.478322936e-38
-0.1595124304 -0.2795503139 0.1879522353 1.478322936e-38
-0.1614986807 -0.2143384516 0.1956269294 1.478322936e-38
-0.1455705017 -0.2465149462 0.1840438843 1.478322936e-38
-0.1316905916 -0.02832461149 -0.008410551585 1.478322936e-38
-0.1354269683 -0.1143859625 0.01330164168 1.478322936e-38
-0.1312354803 -0.02435600013 0.03466550261 1.478322936e-38
-0.1261519045 -0.06216445565 0.03104367107 1.478322936e-38
-0.1880723834 -0.2674843669 -0.01889600232 1.478322936e-38
-0.1843694448 -0.3522093296 -0.00597507786 1.478322936e-38
-0.1939996779 -0.219450593 0.0072193495 1.478322936e-38
-0.1870665848 -0.2954260111 0.01748483442 1.478322936e-38
-0.1235809922 -0.2139571607 0.1848512739 1.478322936e-38
-0.1162397787 -0.2617389858 0.2127187848 1.478322936e-38
-0.116510652 -0.1869353801 0.2183941603 1.478322936e-38
-0.1111600921 -0.2214238346 0.2053204626 1.478322936e-38
-0.1874514669 -0.3425203562 -0.2397143245 1.478322936e-38
-0.1771434844 -0.4567648768 -0.2251904458 1.478322936e-38
-0.1902251542 -0.2549636066 -0.2237731069 1.478322936e-38
-0.1884055585 -0.4137066007 -0.2211613953 1.478322936e-38
-0.1649945825 -0.04083608836 0.007587137166 1.478322936e-38
-0.1693570167 -0.1194713265 0.03194146231 1.478322936e-38
-0.1793406308 -0.03504803777 0.06159204617 1.478322936e-38
-0.1750262231 -0.06551992148 0.05776739493 1.478322936e-38
-0.1709800363 -0.2275844812 0.1152535602 1.478322936e-38
-0.1736717224 -0.3070706725 0.1345869601 1.478322936e-38
-0.1791616529 -0.1925367862 0.1488939822 1.478322936e-38
-0.175084129 -0.2466133386 0.1466014534 1.478322936e-38
-0.1911585927 -0.1970542967 0.02323802188 1.478322936e-38
-0.191574052 -0.333227098 0.03325867653 1.478322936e-38
-0.2010373324 -0.1242984161 0.04273445532 1.478322936e-38
-0.201676026 -0.2484174371 0.05444734171 1.478322936e-38
0.2226349562 0.07774908841 -0.1200992614 1.478322936e-38
0.2799811065 0.07665045559 -0.1523490101 1.478322936e-38
0.2710764408 0.07904030383 -0.06984489411 1.478322936e-38
0.3025634587 0.06902548671 -0.1118965596 1.478322936e-38
-0.181074664 -0.364038825 -0.2191835344 1.478322936e-38
-0.1681169271 -0.4566240311 -0.2094121575 1.478322936e-38
-0.1744183451 -0.2920254171 -0.2022471279 1.478322936e-38
-0.169895336 -0.4209377766 -0.1993508488 1.478322936e-38
-0.1654942632 -0.03453440219 -0.05173924193 1.478322936e-38
-0.1704446971 -0.1181035414 -0.0193978399 1.478322936e-38
-0.1798910648 -0.01173983514 0.008783236146 1.478322936e-38
-0.1765469164 -0.07196846604 0.003489096649 1.478322936e-38
-0.1692007333 -0.2638035417 0.03375410661 1.478322936e-38
-0.1668630689 -0.3175020218 0.05017343163 1.478322936e-38
-0.1715589911 -0.2395422459 0.06560594589 1.478322936e-38
-0.1540822089 -0.280395925 0.06481608003 1.478322936e-38
-0.09535714984 0.08254948258 -0.004597011022 1.478322936e-38
-0.02054671198 0.07866963744 -0.04301561415 1.478322936e-38
-0.04996492714 0.08028449118 0.07149038464 1.478322936e-38
0.01932189241 0.0826806128 0.02765097842 1.478322936e-38
-0.2539397478 0.08250541985 -0.02436588705 1.478322936e-38
