# .PCD v0.7 - Point Cloud Data file format
VERSION 0.7
FIELDS x y z rgb
SIZE 4 4 4 4
TYPE F F F F
COUNT 1 1 1 1
WIDTH 825
HEIGHT 1
VIEWPOINT 0 0 0 1 0 0 0
POINTS 825
DATA ascii
0.1063940078 -0.1319897622 -0.2195777446 6.490113838e-41
0.1239808202 -0.3766552806 -0.2068846077 6.490113838e-41
0.1041365564 -0.3244307041 -0.2191535532 6.490113838e-41
0.05798462406 -0.3505643308 -0.2175539434 6.490113838e-41
0.08331911266 -0.2289306521 -0.2239155173 6.490113838e-41
0.08894401789 -0.435138315 -0.2318203151 6.490113838e-41
0.07369197905 -0.296911478 -0.2095563859 6.490113838e-41
0.2333144248 -0.3563135862 -0.2220177054 6.490113838e-41
0.1999299526 -0.1886123717 -0.2131500244 6.490113838e-41
0.255458504 -0.4505791366 -0.2216515392 6.490113838e-41
0.2255533636 -0.4130684435 -0.2274874449 6.490113838e-41
0.1238921136 -0.4345996082 -0.2196145058 6.490113838e-41
0.1769103408 -0.3133220673 -0.22548832 6.490113838e-41
0.191619426 -0.4823394418 -0.2119209766 6.490113838e-41
0.1702339202 -0.3901895881 -0.2153991014 6.490113838e-41
0.2098674327 -0.3174419403 -0.2163443863 6.490113838e-41
0.1841090024 -0.1586395204 -0.2182516903 6.490113838e-41
0.2104622424 -0.4266645014 -0.2135723978 6.490113838e-41
0.1956376433 -0.3920717537 -0.2211089283 6.490113838e-41
0.1057369262 -0.410528183 -0.2169025987 6.490113838e-41
0.147600472 -0.2825305462 -0.228743121 6.490113838e-41
0.1645721942 -0.4736735523 -0.2159668654 6.490113838e-41
0.1346880943 -0.3608379066 -0.2177886069 6.490113838e-41
0.145459041 -0.2053924799 -0.2271421254 6.490113838e-41
0.132917583 -0.05788252503 -0.235413909 6.490113838e-41
0.1484936178 -0.3857174814 -0.2269301116 6.490113838e-41
0.124415949 -0.3214417398 -0.2340137511 6.490113838e-41
0.02887269109 -0.3656886816 -0.2345624417 6.490113838e-41
0.05756409466 -0.1565781534 -0.2402399629 6.490113838e-41
0.07756087184 -0.4468794465 -0.2404777408 6.490113838e-41
0.05060900003 -0.2657187879 -0.2377093434 6.490113838e-41
0.2412730753 -0.3312948346 -0.2152302265 6.490113838e-41
0.2098846287 -0.1236984879 -0.2213110626 6.490113838e-41
0.2585375905 -0.4542807341 -0.2166234106 6.490113838e-41
0.2382354736 -0.4080360532 -0.2202153802 6.490113838e-41
0.1515792906 -0.4436379671 -0.216244936 6.490113838e-41
0.1956010014 -0.261015594 -0.2215480804 6.490113838e-41
0.2044803798 -0.4833919704 -0.1988843977 6.490113838e-41
0.1940768659 -0.3779182136 -0.2104423195 6.490113838e-41
0.3044456542 -0.4724889696 -0.1205884293 6.490113838e-41
0.2896770537 -0.4872654974 -0.19970119 6.490113838e-41
0.3292424083 -0.481472373 -0.1550184488 6.490113838e-41
0.2241971344 -0.4794127345 -0.2328905314 6.490113838e-41
0.1496198028 -0.4844231308 -0.1637122929 6.490113838e-41
0.3227511346 -0.4829891026 -0.06633179635 6.490113838e-41
0.2684851289 -0.4860163331 -0.001839326695 6.490113838e-41
0.2168417424 -0.4798531532 -0.06651433557 6.490113838e-41
0.106109485 -0.09323655069 -0.2368195951 6.490113838e-41
0.1060398668 0.01293954253 -0.2453284413 6.490113838e-41
0.08102685213 -0.2873561084 -0.2382103801 6.490113838e-41
0.07103774697 -0.1853877604 -0.2462623268 6.490113838e-41
-0.01372176036 -0.239141345 -0.2470916361 6.490113838e-41
-0.0002173297107 -0.03610550612 -0.2509549558 6.490113838e-41
0.02466678992 -0.3712280095 -0.2525226176 6.490113838e-41
0.01606568135 -0.1377371848 -0.2450913638 6.490113838e-41
0.09115822613 -0.08718469739 -0.2243919373 6.490113838e-41
0.08835315704 0.02061124891 -0.2374071628 6.490113838e-41
0.06946250796 -0.316570133 -0.231680423 6.490113838e-41
0.06027796119 -0.1981348991 -0.2365178615 6.490113838e-41
-0.0007286779583 -0.2599980235 -0.2413143963 6.490113838e-41
0.009800616652 -0.03792344406 -0.2424173802 6.490113838e-41
0.03139972687 -0.3909296691 -0.2423466891 6.490113838e-41
0.01588104852 -0.1549687386 -0.2386423945 6.490113838e-41
0.2769804895 -0.4747779071 -0.1511607021 6.490113838e-41
0.2739174664 -0.4884737432 -0.2151456624 6.490113838e-41
0.3204910457 -0.4829364419 -0.1811351329 6.490113838e-41
0.2011267394 -0.4802715182 -0.2526182234 6.490113838e-41
0.09884521365 -0.4847136736 -0.1954221725 6.490113838e-41
0.3019425869 -0.485217452 -0.1010225192 6.490113838e-41
0.2536644936 -0.4868474901 0.0203985516 6.490113838e-41
0.1807845235 -0.480480969 -0.09882630408 6.490113838e-41
0.09596352279 -0.2515897155 -0.2183283865 6.490113838e-41
0.06542396545 -0.0782924816 -0.2267247885 6.490113838e-41
0.09899155796 -0.4137901962 -0.2247627527 6.490113838e-41
0.07759744674 -0.3516779542 -0.2294064164 6.490113838e-41
-0.004334188998 -0.3994145393 -0.2276998609 6.490113838e-41
0.02906042337 -0.2044813931 -0.2355216593 6.490113838e-41
0.03165237978 -0.454911083 -0.2356448472 6.490113838e-41
0.01823622361 -0.3160864413 -0.2289203703 6.490113838e-41
0.2148792893 -0.2914611697 -0.2309346497 6.490113838e-41
0.1824277043 -0.09961803257 -0.2252352387 6.490113838e-41
0.2276977748 -0.4417112172 -0.2321472913 6.490113838e-41
0.2132327557 -0.3888130784 -0.2302163839 6.490113838e-41
0.1044459939 -0.4204078615 -0.2286316454 6.490113838e-41
0.140711382 -0.2213069499 -0.2365972102 6.490113838e-41
0.1648221612 -0.4791400433 -0.2278355211 6.490113838e-41
0.1325670481 -0.3462572694 -0.2337993234 6.490113838e-41
0.2658327818 -0.02905719355 -0.2223258018 6.490113838e-41
0.2320628017 -0.01039576903 -0.2283349782 6.490113838e-41
0.220703885 -0.1100115404 -0.2245340943 6.490113838e-41
0.2216913402 -0.06858050823 -0.2254888713 6.490113838e-41
0.1705256253 -0.1000574157 -0.2305345833 6.490113838e-41
0.1587663293 -0.003170587122 -0.23744376 6.490113838e-41
0.1968145967 -0.2206515372 -0.2415252775 6.490113838e-41
0.1909231991 -0.03660169616 -0.2300977856 6.490113838e-41
0.2946085632 0.002570055425 -0.2210561782 6.490113838e-41
0.2686496377 0.03800543398 -0.2131184042 6.490113838e-41
0.2517054975 -0.1059264988 -0.2166694403 6.490113838e-41
0.2611849904 -0.05179350823 -0.2173696905 6.490113838e-41
0.1986964941 -0.06840579212 -0.2255673259 6.490113838e-41
0.1729519665 0.02961289138 -0.2242155075 6.490113838e-41
0.221416533 -0.2624468505 -0.2332844138 6.490113838e-41
0.214226827 -0.002318948507 -0.2247420847 6.490113838e-41
0.1211986393 -0.1059664488 -0.2176426798 6.490113838e-41
0.1221038252 -0.02018191293 -0.2266547382 6.490113838e-41
0.1011635661 -0.2740031779 -0.219671011 6.490113838e-41
0.09331916273 -0.1838930249 -0.2248938978 6.490113838e-41
0.05614022911 -0.2330222428 -0.2299951464 6.490113838e-41
0.06780093908 -0.06257623434 -0.2287691534 6.490113838e-41
0.08841872215 -0.3718089759 -0.2325160056 6.490113838e-41
0.07493170351 -0.1427406073 -0.2258990705 6.490113838e-41
0.08539225161 -0.1948522627 -0.2203570604 6.490113838e-41
0.07301899791 -0.04783302546 -0.2298744619 6.490113838e-41
0.083313182 -0.3938269317 -0.2268654406 6.490113838e-41
0.07053750753 -0.3171856701 -0.2276226729 6.490113838e-41
0.01220658608 -0.3549670577 -0.2289427966 6.490113838e-41
0.03566870838 -0.1547752321 -0.2304586619 6.490113838e-41
0.05065912008 -0.4486807585 -0.2324609011 6.490113838e-41
0.02626122348 -0.2620413005 -0.2314202785 6.490113838e-41
0.2138380557 -0.3694636822 -0.2232676744 6.490113838e-41
0.1861869991 -0.1832811236 -0.2312783152 6.490113838e-41
0.2317338735 -0.4645551443 -0.2210337967 6.490113838e-41
0.2170630842 -0.4312089384 -0.2353744209 6.490113838e-41
0.1212580949 -0.4580283463 -0.2299374342 6.490113838e-41
0.1678300798 -0.3062063158 -0.2316128016 6.490113838e-41
0.1818794608 -0.4865418375 -0.199411273 6.490113838e-41
0.1630890071 -0.4019016027 -0.2245330364 6.490113838e-41
0.2471938729 -0.4743357003 -0.127914235 6.490113838e-41
0.2499539107 -0.4833325744 -0.2114443779 6.490113838e-41
0.2705928683 -0.4803470075 -0.1609401405 6.490113838e-41
0.1761389226 -0.4776511788 -0.2383865565 6.490113838e-41
0.1093952656 -0.4840516448 -0.1812083721 6.490113838e-41
0.27686885 -0.4853923917 -0.07983510941 6.490113838e-41
0.2099427432 -0.4865812063 -0.02644008026 6.490113838e-41
0.1632450521 -0.4807763994 -0.07395827025 6.490113838e-41
0.1722253114 -0.07121919096 -0.2129707336 6.490113838e-41
0.1594518274 0.004034027457 -0.2239909917 6.490113838e-41
0.1413969696 -0.2288936973 -0.216712296 6.490113838e-41
0.1323455274 -0.1393338293 -0.2231131494 6.490113838e-41
0.04594232887 -0.2006601989 -0.231501475 6.490113838e-41
0.05431168899 -0.02532688156 -0.2335498482 6.490113838e-41
0.0906554684 -0.3233387172 -0.2312225699 6.490113838e-41
0.07407037914 -0.1103965342 -0.2285549939 6.490113838e-41
0.3287703693 0.06369236857 -0.1704645604 6.490113838e-41
0.3219304383 0.06997225434 -0.1928926706 6.490113838e-41
0.2778587341 0.06374789029 -0.2359147221 6.490113838e-41
0.2435590327 0.05621860176 -0.2208304256 6.490113838e-41
0.2315630615 0.07007550448 -0.1882264465 6.490113838e-41
0.1807276756 0.07339920849 -0.2146331817 6.490113838e-41
0.2369186878 -0.4664618373 -0.2408592999 6.490113838e-41
0.2656641603 0.06830079108 -0.1256467104 6.490113838e-41
0.1568112671 -0.3012318015 -0.2320027053 6.490113838e-41
0.1300753802 -0.1388715804 -0.2314653546 6.490113838e-41
0.1653923094 -0.4372563958 -0.2297736853 6.490113838e-41
0.1487414688 -0.3932670057 -0.235598892 6.490113838e-41
0.074338153 -0.4165183902 -0.2294812799 6.490113838e-41
0.1012431234 -0.2686144114 -0.2375424206 6.490113838e-41
0.1128898561 -0.473307848 -0.2357782871 6.490113838e-41
0.0922383666 -0.361074388 -0.2257956564 6.490113838e-41
0.2662272155 0.01693118364 -0.2346955389 6.490113838e-41
0.2309514433 0.03710868955 -0.2355213761 6.490113838e-41
0.2188978493 -0.05691181868 -0.2207605988 6.490113838e-41
0.2138034999 -0.01389874518 -0.2222441733 6.490113838e-41
0.1766302884 -0.02610352263 -0.2316111773 6.490113838e-41
0.1431043148 0.03238010406 -0.234690696 6.490113838e-41
0.1898764372 -0.1069741026 -0.237224251 6.490113838e-41
0.1811556667 0.01934364438 -0.2332702428 6.490113838e-41
0.1131719798 -0.2339372635 -0.221258387 6.490113838e-41
0.08062429726 -0.06891632825 -0.2379104048 6.490113838e-41
0.1160392463 -0.4163551629 -0.228361994 6.490113838e-41
0.09042496979 -0.3533574939 -0.233867839 6.490113838e-41
-0.01035809889 -0.4006905258 -0.2312323749 6.490113838e-41
0.02124954201 -0.1874659359 -0.238024503 6.490113838e-41
0.04038913175 -0.4627825022 -0.2360635847 6.490113838e-41
0.01278290525 -0.303871721 -0.2393286824 6.490113838e-41
0.2381293625 -0.4742605686 -0.08178337663 6.490113838e-41
0.2242422849 -0.4861306846 -0.1801571995 6.490113838e-41
0.2729612589 -0.4796377718 -0.126194343 6.490113838e-41
0.1489238143 -0.4775868058 -0.2012787461 6.490113838e-41
0.08313521743 -0.4847110212 -0.1404261887 6.490113838e-41
0.2780852616 -0.482114017 -0.0148103321 6.490113838e-41
0.184019357 -0.4858643413 -0.005990390666 6.490113838e-41
0.1390060782 -0.4803968668 -0.03335399553 6.490113838e-41
0.07599446177 -0.05058354512 -0.203974545 6.490113838e-41
0.07498428226 0.04344081134 -0.202158168 6.490113838e-41
0.05336981267 -0.2846698165 -0.2086156458 6.490113838e-41
0.04481879622 -0.1549623013 -0.2088306248 6.490113838e-41
-0.02355773747 -0.2276573181 -0.2196073532 6.490113838e-41
-0.01915807649 -0.01301324368 -0.2152974308 6.490113838e-41
0.01453267783 -0.3654124737 -0.2185655683 6.490113838e-41
-0.0009516552091 -0.1061579958 -0.218683064 6.490113838e-41
0.2660526931 -0.4326091111 -0.2209834307 6.490113838e-41
0.2405742705 -0.2490060031 -0.2107349634 6.490113838e-41
0.2943787575 -0.4777587652 -0.2071185261 6.490113838e-41
0.2465219647 -0.4806945026 -0.2274421453 6.490113838e-41
0.153097257 -0.4834665954 -0.2287824452 6.490113838e-41
0.2563278079 -0.3881030083 -0.2288813889 6.490113838e-41
0.2382788509 -0.4871495068 -0.1069442555 6.490113838e-41
0.2064545304 -0.4797115624 -0.2090929002 6.490113838e-41
0.2722290456 -0.4439534247 -0.1903844178 6.490113838e-41
0.2456057966 -0.2771384716 -0.1922532022 6.490113838e-41
0.3018498719 -0.4750921428 -0.1821767092 6.490113838e-41
0.2503482997 -0.478890866 -0.2083376944 6.490113838e-41
0.1557888389 -0.4832292795 -0.2079778314 6.490113838e-41
0.2719599009 -0.4167244732 -0.1950259805 6.490113838e-41
0.2443488091 -0.4869888127 -0.06781621277 6.490113838e-41
0.2252624184 -0.4803601205 -0.1775782406 6.490113838e-41
0.08417746425 -0.2729002535 -0.1885200888 6.490113838e-41
0.04721207172 -0.09871172905 -0.1876173764 6.490113838e-41
0.09656056762 -0.4288058281 -0.201307416 6.490113838e-41
0.07240477204 -0.3719504476 -0.1986344159 6.490113838e-41
0.006873756647 -0.4122690558 -0.2045476735 6.490113838e-41
0.04375164956 -0.2327979207 -0.2061866075 6.490113838e-41
0.04697902501 -0.4680155516 -0.2028948665 6.490113838e-41
0.03415146843 -0.3419021666 -0.2036854178 6.490113838e-41
0.1368557513 -0.09173391014 -0.2180036008 6.490113838e-41
0.1230281889 -0.05181565508 -0.2359610498 6.490113838e-41
0.109356463 -0.1827405691 -0.2256937474 6.490113838e-41
0.1059916019 -0.1250718534 -0.2234326005 6.490113838e-41
0.053623382 -0.1704887748 -0.2354761511 6.490113838e-41
0.0552643612 -0.0634694621 -0.232409358 6.490113838e-41
0.08313144743 -0.2441213727 -0.2360546589 6.490113838e-41
0.07625226676 -0.103767395 -0.2226815969 6.490113838e-41
0.2143315524 -0.476302892 -0.1022526249 6.490113838e-41
0.2152039111 -0.4872746766 -0.1901049465 6.490113838e-41
0.2436045855 -0.4812476039 -0.1501615494 6.490113838e-41
0.1508086771 -0.4794430435 -0.2267518789 6.490113838e-41
0.06856700778 -0.4846361578 -0.1602292508 6.490113838e-41
0.235904485 -0.489056617 -0.04581457376 6.490113838e-41
0.181306079 -0.4872030914 -0.003747217357 6.490113838e-41
0.1231249273 -0.4827714562 -0.05362851173 6.490113838e-41
0.3315237164 0.06414116174 -0.05366796255 6.490113838e-41
0.3165828884 0.06652262062 -0.08408173919 6.490113838e-41
0.3016498983 0.07501151413 -0.1557142138 6.490113838e-41
0.2648690939 0.06279482692 -0.1288129389 6.490113838e-41
0.2668409646 0.07134265453 -0.05603393912 6.490113838e-41
0.2084718943 0.06990011781 -0.07615241408 6.490113838e-41
0.2670717537 -0.4750689268 -0.1288131326 6.490113838e-41
0.300742209 0.06823066622 -0.01155474875 6.490113838e-41
-0.003633484244 -0.197740823 -0.2424003482 6.490113838e-41
-0.01145026833 -0.04331937432 -0.2391848713 6.490113838e-41
-0.006196133792 -0.3912957609 -0.2408067286 6.490113838e-41
-0.0004836693406 -0.3140379488 -0.2350504696 6.490113838e-41
-0.07564362884 -0.359519124 -0.2404448688 6.490113838e-41
-0.06446070969 -0.1515025496 -0.2433796376 6.490113838e-41
-0.05028976128 -0.4293737113 -0.2455955595 6.490113838e-41
-0.06353752315 -0.2646579146 -0.2520726919 6.490113838e-41
0.2295237631 -0.01200987026 -0.2205055505 6.490113838e-41
0.1909106225 0.01867026836 -0.2324322015 6.490113838e-41
0.1892925501 -0.09412721545 -0.220900327 6.490113838e-41
0.1798556894 -0.06201034784 -0.2206679434 6.490113838e-41
0.1001118869 -0.07461162657 -0.2210806161 6.490113838e-41
0.08209250122 0.0178103745 -0.2293569148 6.490113838e-41
0.135264352 -0.208604008 -0.2291915268 6.490113838e-41
0.1243654042 -0.008528009057 -0.2357096672 6.490113838e-41
-0.03945538029 -0.2035953403 -0.2200138867 5.962428276e-39
-0.05507972464 -0.04558342695 -0.2106827646 5.962428276e-39
-0.04012281075 -0.386061281 -0.2119366229 5.962428276e-39
-0.04786143824 -0.3057114184 -0.2074915022 5.962428276e-39
-0.1006111056 -0.348520726 -0.2109135389 5.962428276e-39
-0.07922011614 -0.1656373888 -0.2166452408 5.962428276e-39
-0.07631991804 -0.42633003 -0.2157492489 5.962428276e-39
-0.08479878306 -0.2689784467 -0.2143777609 5.962428276e-39
0.2517957389 0.03262300044 -0.2189227641 5.962428276e-39
0.2196853906 0.05920461565 -0.2153336257 5.962428276e-39
0.2180603892 -0.06827656925 -0.2049811333 5.962428276e-39
0.2057671845 -0.01117317006 -0.2083619237 5.962428276e-39
0.1286462247 -0.02365234494 -0.2157775015 5.962428276e-39
0.1021504849 0.05516225845 -0.2097969502 5.962428276e-39
0.1393229216 -0.09368394315 -0.2151073813 5.962428276e-39
0.1511121243 0.03340730071 -0.2240116149 5.962428276e-39
0.2710613608 0.06256421655 -0.1826827675 5.962428276e-39
0.2641693354 0.06617904454 -0.1960140914 5.962428276e-39
0.2439238578 0.04151450098 -0.2177654505 5.962428276e-39
0.2055780888 0.05388377607 -0.2285072654 5.962428276e-39
0.1858522892 0.06391764432 -0.19147183 5.962428276e-39
0.1399607509 0.07358337194 -0.2174891531 5.962428276e-39
0.1920377165 -0.4562992454 -0.2322834432 5.962428276e-39
0.2148183584 0.06669571251 -0.1478831619 5.962428276e-39
0.2112107873 -0.3913031518 -0.2211991549 5.962428276e-39
0.1912196577 -0.1979769766 -0.2262606621 5.962428276e-39
0.2400393486 -0.4764718115 -0.2171552032 5.962428276e-39
0.2184875757 -0.4558679163 -0.2312498391 5.962428276e-39
0.1236712933 -0.4774236083 -0.2199942321 5.962428276e-39
0.1746555418 -0.3375505805 -0.223828882 5.962428276e-39
0.1788472682 -0.4872962534 -0.1734122485 5.962428276e-39
0.1729257256 -0.4385025799 -0.219787389 5.962428276e-39
0.2009000331 -0.4796535671 -0.04161670059 5.962428276e-39
0.1995724291 -0.4896267354 -0.1587008387 5.962428276e-39
0.2309985608 -0.4812060893 -0.1008790582 5.962428276e-39
0.1155630052 -0.48139745 -0.1735561639 5.962428276e-39
0.05668305978 -0.484900564 -0.1090413928 5.962428276e-39
0.2103591561 -0.4889078736 0.02932407334 5.962428276e-39
0.1662854701 -0.4864821732 0.09432676435 5.962428276e-39
0.09755155444 -0.4831070602 0.01993342862 5.962428276e-39
0.05098191649 -0.2493657172 -0.2321936488 5.962428276e-39
0.02407584339 -0.0898321569 -0.2301836014 5.962428276e-39
0.06454247236 -0.4276232719 -0.2299506962 5.962428276e-39
0.03991546109 -0.3598203361 -0.229272604 5.962428276e-39
-0.06350424886 -0.4061256051 -0.224887833 5.962428276e-39
-0.03550709412 -0.2145682871 -0.230505079 5.962428276e-39
-0.01331313699 -0.4745631814 -0.2266289294 5.962428276e-39
-0.03278047219 -0.3190346956 -0.2326238602 5.962428276e-39
0.1684122682 0.03061992675 -0.2257116735 5.962428276e-39
0.1428321302 0.0566027835 -0.2243199348 5.962428276e-39
0.1343607306 -0.06229267269 -0.222861737 5.962428276e-39
0.1182974428 -0.01255514473 -0.2238065302 5.962428276e-39
0.02596067637 -0.03641282767 -0.2282569557 5.962428276e-39
0.01410603896 0.04777104408 -0.2245656848 5.962428276e-39
0.06459312141 -0.1398027837 -0.2283209264 5.962428276e-39
0.05931361765 0.02717214078 -0.2381008863 5.962428276e-39
0.2198861092 -0.04239552468 -0.2132473141 5.962428276e-39
0.1706352234 -0.03114474565 -0.2478399426 5.962428276e-39
0.1686544567 -0.09828720242 -0.2294174135 5.962428276e-39
0.1631610841 -0.07136129588 -0.2236774862 5.962428276e-39
0.0860324949 -0.09378370643 -0.2291585654 5.962428276e-39
0.08105365932 -0.01412507147 -0.2397426367 5.962428276e-39
0.1242080629 -0.1541179568 -0.2337888181 5.962428276e-39
0.1231749952 -0.04379962385 -0.2340508252 5.962428276e-39
0.1073263437 0.008926808834 -0.2316123694 5.962428276e-39
0.1139089763 0.05868116766 -0.2258164436 5.962428276e-39
0.07365295291 -0.1775123179 -0.2290902883 5.962428276e-39
0.07758904994 -0.06843936443 -0.2360397875 5.962428276e-39
-0.02686854079 -0.1250037253 -0.2375191897 5.962428276e-39
-0.03024584427 0.03780571371 -0.2238770425 5.962428276e-39
0.01559299603 -0.3235467374 -0.2360235602 5.962428276e-39
0.009888293222 -0.006994500756 -0.2495403141 5.962428276e-39
0.1947856843 -0.02606942877 0.006290814374 5.962428276e-39
0.194985494 -0.03125429526 -0.06185442209 5.962428276e-39
0.1791364998 -0.0434759818 -0.01286847051 5.962428276e-39
0.1698627025 -0.0248789601 -0.04499492794 5.962428276e-39
0.1491273195 -0.02595468611 0.02533883601 5.962428276e-39
0.1501789689 -0.02435192838 0.009909765795 5.962428276e-39
0.1689282656 -0.06246327981 -0.01181454305 5.962428276e-39
0.1512305737 -0.01769114286 0.05141643435 5.962428276e-39
-0.005802765489 -0.1407623887 -0.2122860551 5.962428276e-39
-0.007850453258 -0.0146080628 -0.2163996547 5.962428276e-39
-0.007157910615 -0.3602490723 -0.2134239823 5.962428276e-39
-0.0216489248 -0.2605656683 -0.2106446922 5.962428276e-39
-0.09492726624 -0.3116164505 -0.2018093169 5.962428276e-39
-0.09268003702 -0.09314903617 -0.2040105313 5.962428276e-39
-0.04569358006 -0.4479008615 -0.2042721808 5.962428276e-39
-0.07508252561 -0.2081393003 -0.2140780091 5.962428276e-39
0.1691578925 -0.04640883952 -0.01744827256 5.962428276e-39
0.1690642238 0.01910094172 -0.05967783928 5.962428276e-39
0.1628897637 -0.1952222586 -0.01697454974 5.962428276e-39
0.1542630345 -0.09268240631 -0.03396821767 5.962428276e-39
0.1215235889 -0.09768299758 0.004146801308 5.962428276e-39
0.1197139621 -0.004621788859 -0.01016071159 5.962428276e-39
0.1347197294 -0.2641470432 -0.0205729939 5.962428276e-39
0.1353082508 -0.04712839425 0.0150726717 5.962428276e-39
0.1398314983 -0.4776749611 -0.1125503257 5.962428276e-39
0.1481983215 -0.4843309522 -0.170619294 5.962428276e-39
0.2010002732 -0.483117491 -0.1429590285 5.962428276e-39
0.07655766606 -0.4827929139 -0.1998244077 5.962428276e-39
-0.01211926714 -0.4863161743 -0.1497529447 5.962428276e-39
0.1249025315 -0.4869799912 -0.05825351924 5.962428276e-39
0.09554328024 -0.4862246215 0.01325727906 5.962428276e-39
0.03848632053 -0.4861162603 -0.05228500813 5.962428276e-39
0.2639583349 0.06471284479 -0.1487138569 5.962428276e-39
0.2457958013 0.0651313737 -0.1815935373 5.962428276e-39
0.2097934484 0.06011833996 -0.202169016 5.962428276e-39
0.1428559422 0.05737131089 -0.211524263 5.962428276e-39
0.114613682 0.07084380835 -0.1304760277 5.962428276e-39
0.04671418667 0.07373186201 -0.2106202394 5.962428276e-39
0.07247965038 -0.4586957395 -0.2310209274 5.962428276e-39
0.1655413806 0.06807864457 -0.08714959025 5.962428276e-39
0.002464970574 -0.0860606581 -0.2426359802 5.962428276e-39
0.0114199128 0.02876023203 -0.2513446808 5.962428276e-39
-0.01277481765 -0.3051279783 -0.2432998866 5.962428276e-39
-0.01318089664 -0.1765662581 -0.2421540916 5.962428276e-39
-0.09517432749 -0.2385533154 -0.2435474247 5.962428276e-39
-0.08851796389 -0.03011061624 -0.2390110046 5.962428276e-39
-0.05815465376 -0.378151238 -0.2423525304 5.962428276e-39
-0.07200030982 -0.1362936348 -0.2433945984 5.962428276e-39
0.097358495 0.001037955284 -0.2240462303 5.962428276e-39
0.1089747995 0.05883628875 -0.2182901055 5.962428276e-39
0.06616519392 -0.209924072 -0.2231037468 5.962428276e-39
0.06950128824 -0.07906617224 -0.2312515378 5.962428276e-39
-0.03147768602 -0.1426983923 -0.2293252349 5.962428276e-39
-0.03614991531 0.03374308348 -0.2124282867 5.962428276e-39
0.01281617396 -0.3331197798 -0.2310243547 5.962428276e-39
0.01049634069 -0.02355398983 -0.2395432591 5.962428276e-39
-0.07664068043 -0.2081781626 -0.2396917194 5.962428276e-39
-0.09059490263 -0.0486785993 -0.2284601927 5.962428276e-39
-0.07217650115 -0.411603421 -0.2323224545 5.962428276e-39
-0.08437091112 -0.3268263936 -0.2274127305 5.962428276e-39
-0.1309586018 -0.3715338409 -0.2248911858 5.962428276e-39
-0.1185229868 -0.1699187607 -0.2297375798 5.962428276e-39
-0.1031905115 -0.443508029 -0.2286887765 5.962428276e-39
-0.1183015704 -0.281697005 -0.2333367616 5.962428276e-39
-0.000939257443 -0.0697048232 -0.220988512 5.962428276e-39
0.01851134188 0.04477745295 -0.2180206776 5.962428276e-39
-0.01652631536 -0.3169037104 -0.2199675292 5.962428276e-39
-0.007277831435 -0.1759969294 -0.2159825116 5.962428276e-39
-0.09523096681 -0.2375258207 -0.2215139568 5.962428276e-39
-0.09312835336 -0.01268901303 -0.2119609863 5.962428276e-39
-0.05395714566 -0.3806906044 -0.2175012082 5.962428276e-39
-0.0702893585 -0.1253953725 -0.2244946659 5.962428276e-39
0.2342975289 0.0652738288 -0.1062937751 5.962428276e-39
0.2306503803 0.06728049368 -0.1467033178 5.962428276e-39
0.1789278239 0.0622734502 -0.1955216527 5.962428276e-39
0.1106021553 0.06156595796 -0.1835011691 5.962428276e-39
0.08443711698 0.07015875727 -0.06824145466 5.962428276e-39
-0.0006751455367 0.07305603474 -0.1512136161 5.962428276e-39
0.02687475272 -0.4742844105 -0.1972783655 5.962428276e-39
0.1409401745 0.06844579428 -0.03152002767 5.962428276e-39
0.1912310123 -0.02032101899 0.08421887457 5.962428276e-39
0.2077315599 -0.006751224399 0.0109217912 5.962428276e-39
0.1732781678 -0.06808910519 0.06242546439 5.962428276e-39
0.171435833 -0.01077597216 0.01765498705 5.962428276e-39
0.1517573446 -0.02693353593 0.1078092977 5.962428276e-39
0.1591351032 -0.008198607713 0.07907713205 5.962428276e-39
0.1896060258 -0.1025079116 0.06898298115 5.962428276e-39
0.1632800847 -0.01279171929 0.1275725812 5.962428276e-39
0.03860830888 -0.2808288932 -0.2368673086 5.962428276e-39
0.009706964716 -0.07741276175 -0.2385879755 5.962428276e-39
0.06588248909 -0.4619425833 -0.2390410304 5.962428276e-39
0.03751273081 -0.4011145532 -0.2413270772 5.962428276e-39
-0.05211794749 -0.4484682977 -0.239082709 5.962428276e-39
-0.01572421938 -0.2276197374 -0.2366129756 5.962428276e-39
-0.005002412945 -0.4841390848 -0.2212094516 5.962428276e-39
-0.02413269505 -0.3517735004 -0.2459866554 5.962428276e-39
0.08841902018 0.004491485655 -0.2164384723 5.962428276e-39
0.09489099681 0.05974686891 -0.2091754973 5.962428276e-39
0.05273444951 -0.1924690306 -0.2096963674 5.962428276e-39
0.0577124618 -0.0659603402 -0.2196293771 5.962428276e-39
-0.02642995119 -0.129885599 -0.2230579704 5.962428276e-39
-0.03050434962 0.03614328802 -0.2086723149 5.962428276e-39
0.01102736033 -0.3199055195 -0.2221624106 5.962428276e-39
0.01125056669 -0.0216624774 -0.2300207019 5.962428276e-39
0.05018247291 0.007601290941 -0.2173075527 5.962428276e-39
0.07035079598 0.06078603119 -0.1985386014 5.962428276e-39
0.02061650902 -0.239484936 -0.2115247846 5.962428276e-39
0.03182603419 -0.08559262007 -0.2140205801 5.962428276e-39
-0.06621256471 -0.1734480709 -0.2157247514 5.962428276e-39
-0.06552147865 0.03462681174 -0.2023429424 5.962428276e-39
-0.03107139096 -0.334325999 -0.2099251449 5.962428276e-39
-0.03601938859 -0.03533486649 -0.2219008356 5.962428276e-39
0.1040403098 -0.4795811474 -0.09914620966 5.962428276e-39
0.0968375802 -0.4893282056 -0.183636874 5.962428276e-39
0.1660862118 -0.4835829437 -0.1398326308 5.962428276e-39
0.0356666036 -0.4819954336 -0.2037349045 5.962428276e-39
-0.02839442343 -0.4864092171 -0.1446247399 5.962428276e-39
0.1210398227 -0.4871583283 -0.01739172265 5.962428276e-39
0.07605551183 -0.4859603643 0.05040084943 5.962428276e-39
0.01416384801 -0.4846346378 -0.01089841966 5.962428276e-39
0.2220211327 0.06630029529 -0.06187374145 5.962428276e-39
0.1964290142 0.06598717719 -0.1046429053 5.962428276e-39
0.2053008676 0.06395918876 -0.1498428434 5.962428276e-39
0.1097542942 0.06111065298 -0.1440167576 5.962428276e-39
0.1294251382 0.07138822228 -0.03969203308 5.962428276e-39
0.08240717649 0.07214785367 -0.09353038669 5.962428276e-39
0.06297071278 -0.4586899579 -0.1853988022 5.962428276e-39
0.1897772253 0.06906376034 -0.001892753877 5.962428276e-39
-0.03747067973 -0.06519724429 -0.2305995971 5.962428276e-39
-0.03246795014 0.04105407745 -0.2376075387 5.962428276e-39
-0.0476343371 -0.3030569255 -0.2312871218 5.962428276e-39
-0.04803319648 -0.165243268 -0.2337441891 5.962428276e-39
-0.1125409603 -0.2330596745 -0.2274728566 5.962428276e-39
-0.1075205356 -0.02231433615 -0.2157113701 5.962428276e-39
-0.07979086041 -0.3666284084 -0.2242796421 5.962428276e-39
-0.08894017339 -0.1267644018 -0.2252607793 5.962428276e-39
0.1392596215 -0.1073463708 0.09098023176 5.962428276e-39
0.124367103 -0.0843796581 0.06787335873 5.962428276e-39
0.1265639365 -0.2019573748 0.07798262686 5.962428276e-39
0.1136077046 -0.1435312927 0.05737589672 5.962428276e-39
0.09923501313 -0.1334273666 0.09199029207 5.962428276e-39
0.117449984 -0.07890707254 0.07799663395 5.962428276e-39
0.1191685051 -0.2654288411 0.06168920174 5.962428276e-39
0.116048336 -0.1092638746 0.1027146652 5.962428276e-39
-0.02869271114 -0.07151076198 -0.2305690795 5.962428276e-39
-0.02467878908 0.04024282843 -0.2355813682 5.962428276e-39
-0.04346616194 -0.2962519228 -0.230880633 5.962428276e-39
-0.03798522428 -0.1689139307 -0.2331800163 5.962428276e-39
-0.1141502559 -0.2320677936 -0.2333805114 5.962428276e-39
-0.1128842682 -0.02847471461 -0.2233993262 5.962428276e-39
-0.07885934412 -0.3688347042 -0.2289467752 5.962428276e-39
-0.09547248483 -0.1303605437 -0.2290358692 5.962428276e-39
0.1277049184 0.04198943079 -0.2382157892 5.962428276e-39
0.1260780543 0.06214348227 -0.2317351252 5.962428276e-39
0.09378576279 -0.04797626287 -0.2348013073 5.962428276e-39
0.09043218195 -0.004689604044 -0.2364881635 5.962428276e-39
-0.01400777325 -0.01790516451 -0.2449650019 5.962428276e-39
-0.02527749538 0.05450362712 -0.2349353433 5.962428276e-39
0.02136316337 -0.1495677233 -0.2421056032 5.962428276e-39
0.02586234733 0.04681768268 -0.2411298752 5.962428276e-39
0.02450650744 -0.3551748097 -0.2221968323 5.962428276e-39
-0.000295329839 -0.1327033937 -0.2330525964 5.962428276e-39
0.07199796289 -0.4752009213 -0.2318302691 5.962428276e-39
0.01971249282 -0.4434728026 -0.2321883142 5.962428276e-39
-0.07290072739 -0.4730036259 -0.231410861 5.962428276e-39
-0.03445180878 -0.2989200354 -0.2355488837 5.962428276e-39
-0.008750136942 -0.4848604202 -0.1607208252 5.962428276e-39
-0.04861552641 -0.4131569564 -0.2322871089 5.962428276e-39
-0.0389146097 -0.2135487199 -0.2340945601 5.962428276e-39
-0.06222483888 -0.04323869199 -0.2229417861 5.962428276e-39
-0.03078708798 -0.4212072194 -0.2350398451 5.962428276e-39
-0.03760987893 -0.3396403491 -0.2236720771 5.962428276e-39
-0.1495338976 -0.3944930434 -0.2214747667 5.962428276e-39
-0.1324402988 -0.1680373549 -0.2290361971 5.962428276e-39
-0.09973223507 -0.4761319458 -0.2250962555 5.962428276e-39
-0.1356588602 -0.2902087569 -0.2349667996 5.962428276e-39
-0.06040762737 -0.2551769316 -0.2348116785 5.962428276e-39
-0.07777512074 -0.06451047212 -0.226603061 5.962428276e-39
-0.03019697219 -0.4431569874 -0.2439398319 5.962428276e-39
-0.04940462485 -0.3760309517 -0.2249341905 5.962428276e-39
-0.1450821161 -0.4219648242 -0.2204259187 5.962428276e-39
-0.1302171499 -0.2007736266 -0.2268138975 5.962428276e-39
-0.1065972149 -0.4737928212 -0.2223549932 5.962428276e-39
-0.1381979585 -0.3342502415 -0.2342317104 5.962428276e-39
-0.02298077941 -0.1347387135 -0.2121275961 1.184631237e-38
-0.03062898666 -0.0001299455762 -0.2060598433 1.184631237e-38
-0.02878199145 -0.343316853 -0.2098446339 1.184631237e-38
-0.03461298719 -0.2496113181 -0.2018814981 1.184631237e-38
-0.1150563508 -0.2844792604 -0.2009006441 1.184631237e-38
-0.1047032028 -0.07739590108 -0.2014601827 1.184631237e-38
-0.06941610575 -0.4219086468 -0.2033963799 1.184631237e-38
-0.09606854618 -0.183887437 -0.2003149539 1.184631237e-38
0.1986485422 0.06437668949 -0.188302651 1.184631237e-38
0.1910000443 0.06971203536 -0.2179338038 1.184631237e-38
0.1435955316 0.05622068793 -0.232099086 1.184631237e-38
0.09652963281 0.05652875453 -0.2229893804 1.184631237e-38
0.02549946681 0.06550442427 -0.1809303761 1.184631237e-38
-0.03124176338 0.07069789618 -0.2392393202 1.184631237e-38
-0.009732469916 -0.4467430115 -0.2307588309 1.184631237e-38
0.07699526101 0.06945120543 -0.1462204605 1.184631237e-38
-0.06640151143 -0.1689328849 -0.2356530875 1.184631237e-38
-0.07487641275 -0.02656120807 -0.2240799665 1.184631237e-38
-0.06719984114 -0.3681068122 -0.2262324542 1.184631237e-38
-0.07932603359 -0.2876690626 -0.2252689749 1.184631237e-38
-0.1745011955 -0.318110466 -0.2178787142 1.184631237e-38
-0.1545503139 -0.1209147945 -0.2224118859 1.184631237e-38
-0.1196176857 -0.4386824965 -0.2229793519 1.184631237e-38
-0.1530772746 -0.2278548777 -0.2242822349 1.184631237e-38
0.003532133996 0.002992458642 -0.2262518555 1.184631237e-38
0.03930188343 0.05997491628 -0.2072198987 1.184631237e-38
-0.02290429175 -0.2086110711 -0.216837585 1.184631237e-38
-0.007841166109 -0.0834953934 -0.2204401791 1.184631237e-38
-0.110794723 -0.158069551 -0.2175099701 1.184631237e-38
-0.1235129982 0.02695123106 -0.2068663836 1.184631237e-38
-0.07532012463 -0.3219583035 -0.2223517001 1.184631237e-38
-0.0760910064 -0.0306603983 -0.2289497256 1.184631237e-38
0.02144959942 0.02949542552 -0.229178071 1.184631237e-38
0.05922315642 0.06152326614 -0.2074002773 1.184631237e-38
-0.0049726367 -0.1193083078 -0.2195635736 1.184631237e-38
0.01265848987 -0.03708038479 -0.2209306061 1.184631237e-38
-0.09283702075 -0.08007254452 -0.2132438272 1.184631237e-38
-0.1073866487 0.04152588546 -0.212534681 1.184631237e-38
-0.07243347168 -0.1685364246 -0.2161422968 1.184631237e-38
-0.05796449259 0.01869678497 -0.2276209444 1.184631237e-38
0.01321941987 -0.3334228098 -0.2191916257 1.184631237e-38
-0.01855015755 -0.148470521 -0.213193059 1.184631237e-38
0.02964707837 -0.4639581442 -0.2243240625 1.184631237e-38
0.001096125692 -0.4168204963 -0.2207907736 1.184631237e-38
-0.07605184615 -0.4465875626 -0.2179795951 1.184631237e-38
-0.04296933487 -0.2947721779 -0.2153275907 1.184631237e-38
-0.03568198159 -0.4840609431 -0.2109862268 1.184631237e-38
-0.05417288467 -0.3870028257 -0.2135224193 1.184631237e-38
0.1838614792 0.06626135856 0.0163663663 1.184631237e-38
0.1814779341 0.06792441756 -0.04096117243 1.184631237e-38
0.1440458298 0.06426208466 -0.1200625226 1.184631237e-38
0.05049238726 0.06583093852 -0.07839803398 1.184631237e-38
0.06807980686 0.06942146271 0.0473017171 1.184631237e-38
-0.005818881094 0.07207288593 -0.01296381559 1.184631237e-38
-0.0005222298205 -0.4575091302 -0.1396299899 1.184631237e-38
0.1426083744 0.06820590049 0.08203146607 1.184631237e-38
0.1637561172 0.006790108979 0.07459827513 1.184631237e-38
0.1679997444 0.02435817569 -0.01239471231 1.184631237e-38
0.1546133012 -0.002616710961 0.03898103908 1.184631237e-38
0.1350182295 0.01635771245 0.007079086732 1.184631237e-38
0.1197050065 0.01206923276 0.1166193858 1.184631237e-38
0.1399292201 0.01287393272 0.07525268942 1.184631237e-38
0.1730698198 -0.05192522332 0.06756984442 1.184631237e-38
0.1452903301 0.01639021933 0.1514058858 1.184631237e-38
0.1508873403 0.0657267049 -0.04268302023 1.184631237e-38
0.1236111522 0.0661746487 -0.11361292 1.184631237e-38
0.1097979695 0.06502934545 -0.1712436974 1.184631237e-38
0.01787400246 0.06333396584 -0.1250955164 1.184631237e-38
0.06070996821 0.06955420226 -0.01870191842 1.184631237e-38
0.001804405823 0.0725164786 -0.07891766727 1.184631237e-38
0.003139803186 -0.4809877872 -0.1625863016 1.184631237e-38
0.1169746965 0.06832040101 0.03831620142 1.184631237e-38
0.1187159717 0.06612522155 -0.1875828505 1.184631237e-38
0.1212786436 0.06074932963 -0.2183662504 1.184631237e-38
0.05661735684 0.06415798515 -0.2475252002 1.184631237e-38
-0.02657693624 0.05502737314 -0.2263012975 1.184631237e-38
-0.05852907524 0.06757654995 -0.1611006856 1.184631237e-38
-0.1444188207 0.07219242305 -0.236463502 1.184631237e-38
-0.07220496237 -0.4714303017 -0.2364129275 1.184631237e-38
-0.001881949604 0.0705300495 -0.1076842844 1.184631237e-38
-0.09248454869 -0.09704462439 -0.2342601717 1.184631237e-38
-0.08559434116 0.02716072649 -0.2374528944 1.184631237e-38
-0.1097453088 -0.3107895255 -0.2212348431 1.184631237e-38
-0.1111830026 -0.1982906759 -0.2378622144 1.184631237e-38
-0.1871109903 -0.2534604073 -0.2253733873 1.184631237e-38
-0.1944921613 -0.05164284259 -0.2229407728 1.184631237e-38
-0.1490348428 -0.4004689455 -0.2351583838 1.184631237e-38
-0.171292007 -0.1564660072 -0.2316849232 1.184631237e-38
0.03660754487 -0.4787324965 -0.09771549702 1.184631237e-38
0.009504884481 -0.4833128154 -0.2075539231 1.184631237e-38
0.09293434024 -0.4805721939 -0.1562292725 1.184631237e-38
-0.06824418902 -0.4773911834 -0.2102237046 1.184631237e-38
-0.1166370064 -0.4845607877 -0.1511092186 1.184631237e-38
0.02895360254 -0.4832137227 -0.007752503268 1.184631237e-38
-0.02260132134 -0.4837809801 0.03259729594 1.184631237e-38
-0.0782956779 -0.4809448123 -0.008441941813 1.184631237e-38
0.02173049748 -0.481251806 -0.07488746196 1.184631237e-38
0.004885006696 -0.4879427254 -0.1866939962 1.184631237e-38
0.08623579144 -0.4827355742 -0.1311926693 1.184631237e-38
-0.06272344291 -0.4814610779 -0.1919372678 1.184631237e-38
-0.119949162 -0.4861606658 -0.1346852481 1.184631237e-38
0.0186340455 -0.4906613529 0.01096088625 1.184631237e-38
-0.004468064755 -0.4856182337 0.08918330818 1.184631237e-38
-0.07609806955 -0.4845491946 0.0002618948929 1.184631237e-38
-0.0669914037 -0.125884369 -0.2295517176 1.184631237e-38
-0.06889781356 0.002712503076 -0.2222791314 1.184631237e-38
-0.07797418535 -0.3139223158 -0.2139458805 1.184631237e-38
-0.08043165505 -0.2220404148 -0.220752269 1.184631237e-38
-0.1660780013 -0.2619917095 -0.2166810632 1.184631237e-38
-0.1613381952 -0.06843084097 -0.2106084377 1.184631237e-38
-0.1212137341 -0.388029784 -0.2180662006 1.184631237e-38
-0.1485006809 -0.1655983031 -0.2211203426 1.184631237e-38
0.15790914 0.06711722165 -0.001169072464 1.184631237e-38
0.1573934108 0.0684498176 -0.06421879679 1.184631237e-38
0.09777028859 0.0645243451 -0.134261176 1.184631237e-38
0.02040731534 0.06497942656 -0.09318499267 1.184631237e-38
0.0141913183 0.06838233024 0.03235881403 1.184631237e-38
-0.05769717321 0.07328363508 -0.04467794299 1.184631237e-38
-0.04391441867 -0.4623797536 -0.1480598301 1.184631237e-38
0.08782496303 0.06908004731 0.06567693502 1.184631237e-38
0.1052560657 0.06685035676 -0.03841710091 1.184631237e-38
0.09895855188 0.06818196923 -0.1227300838 1.184631237e-38
0.05397126824 0.06399247795 -0.1638503373 1.184631237e-38
-0.0488380678 0.06447074562 -0.1262407899 1.184631237e-38
-0.02161317319 0.06872763485 -0.02480651066 1.184631237e-38
-0.08788192272 0.07212743908 -0.1123414636 1.184631237e-38
-0.07909657061 -0.4667260051 -0.1596277803 1.184631237e-38
0.03582460433 0.06938374788 0.03031922877 1.184631237e-38
0.1046174616 0.06671132892 -0.03360402584 1.184631237e-38
0.09378290176 0.06702487916 -0.1138785183 1.184631237e-38
0.05510617048 0.06339555234 -0.1694135964 1.184631237e-38
-0.04844250157 0.06583619863 -0.1160614491 1.184631237e-38
-0.03097901121 0.06948987395 0.004884596914 1.184631237e-38
-0.101346761 0.0718274191 -0.08103486896 1.184631237e-38
-0.07741118968 -0.4761992097 -0.1359894723 1.184631237e-38
0.02567834221 0.06899962574 0.05134869739 1.184631237e-38
-0.1139054149 -0.1669780612 -0.2478974015 1.184631237e-38
-0.1164619029 -0.02402867749 -0.2423567772 1.184631237e-38
-0.1209021509 -0.3562029004 -0.2328202277 1.184631237e-38
-0.1220233887 -0.2741380334 -0.2327242047 1.184631237e-38
-0.1978503019 -0.3108689189 -0.2328961492 1.184631237e-38
-0.1890160143 -0.120983839 -0.2293535024 1.184631237e-38
-0.1657570899 -0.4020018578 -0.2423633039 1.184631237e-38
-0.1806566566 -0.2246823013 -0.2358405143 1.184631237e-38
-0.08371758461 -0.2091142535 -0.2530012727 1.184631237e-38
-0.09486286342 -0.05511986464 -0.2433205694 1.184631237e-38
-0.08406734467 -0.3970994949 -0.2460277528 1.184631237e-38
-0.09581677616 -0.3159465194 -0.2373588979 1.184631237e-38
-0.1767201871 -0.356208384 -0.2310759276 1.184631237e-38
-0.163801387 -0.1741965413 -0.2369859815 1.184631237e-38
-0.1389738172 -0.4310718477 -0.2363414466 1.184631237e-38
-0.1634272039 -0.2781240642 -0.2378650159 1.184631237e-38
0.1488873512 0.06646620482 0.03883610293 1.184631237e-38
0.1407686919 0.06848391145 -0.03188930079 1.184631237e-38
0.1058651805 0.06400302798 -0.1103528738 1.184631237e-38
-0.0001596920192 0.06702259928 -0.05285210907 1.184631237e-38
0.01841788553 0.06856632978 0.09458218515 1.184631237e-38
-0.04112664238 0.07003489882 0.02531162277 1.184631237e-38
-0.03179511055 -0.4579668641 -0.1083016992 1.184631237e-38
0.08724266291 0.06820272654 0.1296110749 1.184631237e-38
-0.03370949998 -0.02359820902 -0.2350769341 1.184631237e-38
-0.01688795164 0.05209867656 -0.2334743738 1.184631237e-38
-0.05557828024 -0.2753346264 -0.2355224341 1.184631237e-38
-0.04811920598 -0.1254999638 -0.2426511049 1.184631237e-38
-0.1369033903 -0.199885875 -0.2303230017 1.184631237e-38
-0.1524741352 0.003408543766 -0.2199623436 1.184631237e-38
-0.09682619572 -0.3899347186 -0.2323944718 1.184631237e-38
-0.1176573932 -0.06836508214 -0.239502117 1.184631237e-38
-0.06174150482 -0.1494825482 -0.229918763 1.184631237e-38
-0.06612809002 0.001591995358 -0.225412786 1.184631237e-38
-0.06386774778 -0.3724157512 -0.2295174748 1.184631237e-38
-0.0706282407 -0.2719404697 -0.2292694151 1.184631237e-38
-0.1635504961 -0.3089736402 -0.2204231173 1.184631237e-38
-0.1551991254 -0.09654475003 -0.227323845 1.184631237e-38
-0.1187828332 -0.4396589696 -0.2200115174 1.184631237e-38
-0.1457868814 -0.212875545 -0.2280556858 1.184631237e-38
-0.04810732231 -0.03543884307 -0.2308268696 1.184631237e-38
-0.02966595441 0.05610752851 -0.2266480327 1.184631237e-38
-0.07076172531 -0.2956544757 -0.2223478407 1.184631237e-38
-0.06350466609 -0.1368345171 -0.2405273765 1.184631237e-38
-0.1544487476 -0.2140879035 -0.2265836447 1.184631237e-38
-0.1613290459 0.004823960364 -0.2213119268 1.184631237e-38
-0.1161053181 -0.3654104173 -0.2269875258 1.184631237e-38
-0.1354364008 -0.09120438993 -0.2338678241 1.184631237e-38
-0.128832534 -0.1836051345 -0.238862142 1.184631237e-38
-0.1353150308 -0.03394727409 -0.2344171554 1.184631237e-38
-0.1383858174 -0.3878782988 -0.229785651 1.184631237e-38
-0.1388069242 -0.3010441065 -0.2273633331 1.184631237e-38
-0.1952856928 -0.3370593786 -0.2243688703 1.184631237e-38
-0.1824586987 -0.1436061263 -0.2257363051 1.184631237e-38
-0.1636217684 -0.4320192039 -0.2308630943 1.184631237e-38
-0.1823623925 -0.250728637 -0.2275067717 1.184631237e-38
0.1054353863 0.0659705475 -0.1691832542 1.184631237e-38
0.1292472333 0.06944356114 -0.2058081478 1.184631237e-38
0.04688289016 0.06277284771 -0.224118188 1.184631237e-38
-0.0279895328 0.05378912389 -0.2120598257 1.184631237e-38
-0.0758022964 0.06814918667 -0.1499351561 1.184631237e-38
-0.1544110626 0.07359359413 -0.2139324993 1.184631237e-38
-0.09191314876 -0.4688206613 -0.2017630935 1.184631237e-38
-0.0155499503 0.07041112334 -0.1037032828 1.184631237e-38
0.1611232013 0.06765822321 0.05503523722 1.184631237e-38
0.1430879384 0.06881254166 -0.00494795572 1.184631237e-38
0.1135092825 0.0643729642 -0.09365003556 1.184631237e-38
0.02443113364 0.06559192389 -0.03998109326 1.184631237e-38
0.02115832269 0.06893544644 0.08069857955 1.184631237e-38
-0.03919984773 0.07246894389 0.01273470744 1.184631237e-38
-0.03298650309 -0.4459537864 -0.1227431223 1.184631237e-38
0.09444773197 0.0678248927 0.1138492003 1.184631237e-38
-0.09968416393 -0.33864218 -0.239541471 1.184631237e-38
-0.1223031133 -0.1596799791 -0.2269358486 1.184631237e-38
-0.05505363271 -0.4659081697 -0.2406935841 1.184631237e-38
-0.09571787715 -0.4180390239 -0.2282771766 1.184631237e-38
-0.165500313 -0.452608645 -0.2274557501 1.184631237e-38
-0.159229517 -0.3069701195 -0.2344772965 1.184631237e-38
-0.1233185232 -0.4851236343 -0.2103478462 1.184631237e-38
-0.1691095084 -0.3981765509 -0.2349139154 1.184631237e-38
-0.1431848258 -0.2058965564 -0.2439734191 1.184631237e-38
-0.150265187 -0.006279572845 -0.2559355497 1.184631237e-38
-0.1248083413 -0.4203320444 -0.2518917024 1.184631237e-38
-0.1399882734 -0.3291885853 -0.2401095331 1.184631237e-38
-0.22118707 -0.3736250401 -0.2394819558 1.184631237e-38
-0.2080133408 -0.1282046139 -0.2414409071 1.184631237e-38
-0.1857186407 -0.4451994002 -0.2417549342 1.184631237e-38
-0.2142185569 -0.2729008198 -0.2462004572 1.184631237e-38
0.06919761002 -0.384998858 0.4138530791 1.184631237e-38
0.05388347805 -0.3793568909 0.3583559692 1.184631237e-38
0.09211835265 -0.3866065443 0.3774551451 1.184631237e-38
0.02542184666 -0.453071326 0.2221286744 1.184631237e-38
-0.01674893126 -0.400783807 0.3905260563 1.184631237e-38
0.07248596847 -0.3795497417 0.4051201642 1.184631237e-38
0.05598442629 -0.3860011101 0.3986379206 1.184631237e-38
0.01505625062 -0.387848407 0.4003506601 1.184631237e-38
-0.1321670264 -0.2172645032 -0.2363896072 1.184631237e-38
-0.1428137273 -0.03234815598 -0.2429668903 1.184631237e-38
-0.1023135781 -0.4297042489 -0.240508005 1.184631237e-38
-0.1271414906 -0.3448155224 -0.2305266261 1.184631237e-38
-0.2049445063 -0.3973275721 -0.2324385047 1.184631237e-38
-0.193871513 -0.1643567681 -0.23336564 1.184631237e-38
-0.1649230868 -0.4808087647 -0.2127882987 1.184631237e-38
-0.1974175125 -0.2960125208 -0.2310400903 1.184631237e-38
0.02541712672 0.06600842625 -0.2057213634 1.184631237e-38
0.08600308746 0.06806852669 -0.223726362 1.184631237e-38
-0.008099574596 0.06207039207 -0.2253002971 1.184631237e-38
-0.0520128794 0.06043369323 -0.2342060357 1.184631237e-38
-0.09903731942 0.06695007533 -0.1847286671 1.184631237e-38
-0.1601250768 0.06918279082 -0.2383164018 1.184631237e-38
-0.1127590686 -0.4202379882 -0.2221418619 1.184631237e-38
-0.06399087608 0.06985443085 -0.1465100199 1.184631237e-38
-0.1545533985 -0.179540813 -0.2303446084 1.184631237e-38
-0.1626272798 -0.00978185609 -0.2320446074 1.184631237e-38
-0.1546785384 -0.3861104846 -0.2261516303 1.184631237e-38
-0.1566343009 -0.2982816994 -0.2252033502 1.184631237e-38
-0.2329132706 -0.3488927484 -0.2201371193 1.184631237e-38
-0.2231892794 -0.1300968975 -0.2248401642 1.184631237e-38
-0.2035517544 -0.4304290712 -0.2298932076 1.184631237e-38
-0.2237630635 -0.2600785196 -0.2251801789 1.184631237e-38
-0.03017116338 0.06747256964 -0.1604004502 1.771655483e-38
0.03667402267 0.06939550489 -0.2108954638 1.771655483e-38
-0.06409579515 0.0668110922 -0.2422093749 1.771655483e-38
-0.1552859545 0.0531873405 -0.220989421 1.771655483e-38
-0.1543114036 0.06806632131 -0.1275766492 1.771655483e-38
-0.2210898846 0.07191494852 -0.2135264128 1.771655483e-38
-0.1639299393 -0.4771100581 -0.2353524715 1.771655483e-38
-0.09860810637 0.06854265183 -0.08725580573 1.771655483e-38
-0.1343963295 -0.2718782425 -0.2198555022 1.771655483e-38
-0.1405197084 -0.0783399716 -0.2097917497 1.771655483e-38
-0.1162115932 -0.438601464 -0.2146271765 1.771655483e-38
-0.1265033633 -0.3729115129 -0.211792618 1.771655483e-38
-0.1925005466 -0.4093403518 -0.2047501504 1.771655483e-38
-0.1905941665 -0.212511152 -0.2036043257 1.771655483e-38
-0.1634107828 -0.4555770755 -0.2012233734 1.771655483e-38
-0.1897132844 -0.3363268971 -0.1968989819 1.771655483e-38
-0.1333437562 -0.2205612063 -0.08506023139 1.771655483e-38
-0.1469568908 -0.133035928 -0.1092072204 1.771655483e-38
-0.1466055959 -0.2763213515 -0.07889840007 1.771655483e-38
-0.1487900168 -0.2456511259 -0.09718243033 1.771655483e-38
-0.1732270122 -0.2412987053 -0.08123519272 1.771655483e-38
-0.1586004496 -0.1739625931 -0.08174886554 1.771655483e-38
-0.1591195613 -0.3425144851 -0.08649852127 1.771655483e-38
-0.1615979075 -0.2304734588 -0.06630493701 1.771655483e-38
0.00843645446 0.06911280006 -0.09568834305 1.771655483e-38
0.03315159306 0.06937436014 -0.1783089042 1.771655483e-38
-0.02275724337 0.06580469757 -0.2074710131 1.771655483e-38
-0.1340236515 0.06400949508 -0.199008584 1.771655483e-38
-0.09480911493 0.06794749945 -0.06471123546 1.771655483e-38
-0.1576008201 0.074644126 -0.1562562287 1.771655483e-38
-0.1150497347 -0.4671251178 -0.2158894837 1.771655483e-38
-0.03157928213 0.06993318349 -0.01674254239 1.771655483e-38
-0.1937564313 -0.1938708127 -0.233142525 1.771655483e-38
-0.2023252994 -0.02521329746 -0.2405302078 1.771655483e-38
-0.2013776004 -0.3835321367 -0.2295900583 1.771655483e-38
-0.1939200312 -0.2998496592 -0.2379351854 1.771655483e-38
-0.2314394563 -0.3483376801 -0.2307737023 1.771655483e-38
-0.218059361 -0.1451801062 -0.2343047857 1.771655483e-38
-0.2092351466 -0.438164264 -0.2424826175 1.771655483e-38
-0.2268482596 -0.260617882 -0.2305756211 1.771655483e-38
-0.1272601038 -0.3340668678 -0.02926575392 1.771655483e-38
-0.1507583261 -0.2746455967 -0.07641345263 1.771655483e-38
-0.1312950552 -0.3926171064 -0.04131549597 1.771655483e-38
-0.1438065767 -0.3542519212 -0.0748026222 1.771655483e-38
-0.1798139364 -0.3659809232 -0.03864796832 1.771655483e-38
-0.1616042405 -0.3059424758 -0.03097696602 1.771655483e-38
-0.1531489938 -0.4520653486 -0.03521052748 1.771655483e-38
-0.1615329683 -0.3510247469 0.004616616294 1.771655483e-38
-0.05511697754 -0.4867355824 -0.0723900646 1.771655483e-38
-0.06266146898 -0.4946606457 -0.1773104072 1.771655483e-38
0.002927316353 -0.4828428626 -0.1492058784 1.771655483e-38
-0.1213235557 -0.4837372601 -0.1953347921 1.771655483e-38
-0.1697030514 -0.4882487059 -0.1249193177 1.771655483e-38
-0.03820964321 -0.4955837429 0.01835957542 1.771655483e-38
-0.06602196395 -0.4865234196 0.09735108167 1.771655483e-38
-0.1373819411 -0.4859170318 -0.001620923169 1.771655483e-38
-0.1652861834 -0.1340970099 -0.2350383401 1.771655483e-38
-0.163002044 0.005997806787 -0.2440069467 1.771655483e-38
