# .PCD v0.7 - Point Cloud Data file format
VERSION 0.7
FIELDS x y z rgb
SIZE 4 4 4 4
TYPE F F F F
COUNT 1 1 1 1
WIDTH 823
HEIGHT 1
VIEWPOINT 0 0 0 1 0 0 0
POINTS 823
DATA ascii
-0.2280967087 -0.2308866382 -0.1713710129 5.962428276e-39
-0.2061175108 -0.3783503771 -0.1808912754 5.962428276e-39
-0.1998088956 -0.1576202661 -0.1720874012 5.962428276e-39
-0.1916435808 -0.3006792367 -0.174563542 5.962428276e-39
-0.2688649595 0.02319783717 -0.1739056706 5.962428276e-39
-0.2331648618 -0.008993588388 -0.1766905487 5.962428276e-39
-0.222195074 0.04545170814 -0.180518344 5.962428276e-39
-0.183001712 0.03025502712 -0.1781772226 5.962428276e-39
-0.1698935628 -0.3812469244 -0.1777511835 5.962428276e-39
-0.1605975032 -0.4236165285 -0.1812165082 5.962428276e-39
-0.1446326375 -0.329786092 -0.1810210645 5.962428276e-39
-0.1317127198 -0.3968464434 -0.181038186 5.962428276e-39
-0.1871761829 0.07067853957 -0.2690979242 5.962428276e-39
-0.112388812 0.07464864105 -0.2879469991 5.962428276e-39
-0.119594112 0.07291961461 -0.2346171439 5.962428276e-39
-0.04163125157 0.07211899012 -0.2730025649 5.962428276e-39
-0.2912929952 -0.1636830866 -0.3066677749 5.962428276e-39
-0.2923132777 -0.2663221657 -0.3101199865 5.962428276e-39
-0.28554371 -0.1076198518 -0.3027175069 5.962428276e-39
-0.289680481 -0.2044553161 -0.3144581914 5.962428276e-39
-0.09734223783 0.06701559573 -0.1890097558 5.962428276e-39
-0.01077427715 0.06653579324 -0.1967640221 5.962428276e-39
-0.01879257336 0.06934020668 -0.1903503388 5.962428276e-39
0.04000366107 0.07247184962 -0.2000008225 5.962428276e-39
-0.2624446154 0.00617634505 -0.1842130125 5.962428276e-39
-0.2223951221 -0.02779039741 -0.1867066175 5.962428276e-39
-0.2092751116 0.02499895543 -0.1881128252 5.962428276e-39
-0.1736588776 0.01474379003 -0.1896763444 5.962428276e-39
-0.266528219 -0.05397916585 -0.1672049165 5.962428276e-39
-0.2521257699 -0.1869050562 -0.1661892086 5.962428276e-39
-0.2416227162 0.007241934538 -0.1605918705 5.962428276e-39
-0.2322654873 -0.09142639488 -0.1640384793 5.962428276e-39
-0.1678935885 -0.3390549421 -0.174684599 5.962428276e-39
-0.1480231434 -0.4285230041 -0.1828805208 5.962428276e-39
-0.1368232667 -0.2572315335 -0.1782007664 5.962428276e-39
-0.1234276444 -0.3873027265 -0.1809316874 5.962428276e-39
-0.1967309862 -0.2856293023 -0.1821895838 5.962428276e-39
-0.1773473918 -0.40427652 -0.1917177886 5.962428276e-39
-0.1663180143 -0.2067612261 -0.1868721843 5.962428276e-39
-0.1605025679 -0.3427367806 -0.1867290884 5.962428276e-39
-0.2651414871 -0.01469752192 -0.1849579662 5.962428276e-39
-0.2370723635 -0.08198365569 -0.1826855242 5.962428276e-39
-0.2206330746 0.01203867048 -0.1870173216 5.962428276e-39
-0.2001886517 -0.01864074171 -0.1869917214 5.962428276e-39
-0.2677248716 -0.1858300567 -0.1697108448 5.962428276e-39
-0.2618019879 -0.3344719708 -0.178914398 5.962428276e-39
-0.2564923763 -0.0996292606 -0.1749035716 5.962428276e-39
-0.256403476 -0.2449741066 -0.1715325415 5.962428276e-39
-0.1045836806 -0.4115304947 -0.1769877076 5.962428276e-39
-0.09586268663 -0.465913862 -0.1892543286 5.962428276e-39
-0.09036749601 -0.3278682232 -0.1844437271 5.962428276e-39
-0.06405953318 -0.4526254237 -0.1823581755 5.962428276e-39
-0.203001678 -0.2995094359 -0.1727910787 5.962428276e-39
-0.1852157563 -0.4274433553 -0.1806216836 5.962428276e-39
-0.1797480136 -0.2083334923 -0.1759835929 5.962428276e-39
-0.1741262674 -0.3684227169 -0.178271696 5.962428276e-39
-0.1054887325 -0.4153512716 -0.1581229866 5.962428276e-39
-0.09804270416 -0.4689004421 -0.1734227985 5.962428276e-39
-0.08741346747 -0.3337229192 -0.1666753739 5.962428276e-39
-0.05500934646 -0.4573760927 -0.1642736793 5.962428276e-39
-0.201366812 -0.2416877449 -0.1785363704 5.962428276e-39
-0.1789114475 -0.3700984418 -0.1850784719 5.962428276e-39
-0.1715982556 -0.1757663339 -0.1785414517 5.962428276e-39
-0.1649673134 -0.3028191328 -0.1812755466 5.962428276e-39
-0.2940348685 -0.1012213379 -0.1818757057 5.962428276e-39
-0.266302526 -0.2098064125 -0.1906914562 5.962428276e-39
-0.2540594935 -0.05939329416 -0.1864840239 5.962428276e-39
-0.2436635047 -0.1377050579 -0.1869050115 5.962428276e-39
-0.08879653364 0.06964480132 -0.2194082737 5.962428276e-39
0.004532664549 0.07451700419 -0.2280713618 5.962428276e-39
-0.005281455349 0.07077141851 -0.2193556428 5.962428276e-39
0.07185294479 0.07321537286 -0.2324590385 5.962428276e-39
-0.159266457 0.0708123818 -0.2841301858 5.962428276e-39
-0.1068387702 0.07421611995 -0.3090573549 5.962428276e-39
-0.1107413322 0.0739588365 -0.2299461961 5.962428276e-39
-0.05691187456 0.07199471444 -0.2803913355 5.962428276e-39
-0.2600029111 -0.1036108136 -0.1971331835 5.962428276e-39
-0.256732285 -0.2582136393 -0.2004684061 5.962428276e-39
-0.2540177107 -0.02856817842 -0.1913613826 5.962428276e-39
-0.2546288073 -0.1716134399 -0.1977822632 5.962428276e-39
-0.06993371248 0.0666044578 -0.1848595291 5.962428276e-39
0.03364223987 0.06946346909 -0.1934553683 5.962428276e-39
0.03098989464 0.06869252771 -0.1867149323 5.962428276e-39
0.105741255 0.07409457117 -0.1951425374 5.962428276e-39
-0.1208461821 -0.3646677136 -0.1584204584 5.962428276e-39
-0.1050864533 -0.4404700994 -0.1692196727 5.962428276e-39
-0.1000629589 -0.269891113 -0.163573131 5.962428276e-39
-0.08549772948 -0.4086063802 -0.1619936079 5.962428276e-39
-0.2561429441 -0.1544878781 -0.1806554198 5.962428276e-39
-0.247286126 -0.3278256357 -0.1892855018 5.962428276e-39
-0.242694214 -0.07641743124 -0.1823422313 5.962428276e-39
-0.2417312413 -0.2291335613 -0.1845401824 5.962428276e-39
-0.2385491133 -0.02069301158 -0.173745349 5.962428276e-39
-0.2150728106 -0.09404535592 -0.1702199876 5.962428276e-39
-0.1967410892 0.00818952173 -0.1733385324 5.962428276e-39
-0.1766525656 -0.0247509703 -0.1746397913 5.962428276e-39
-0.2391910106 -0.01410487294 -0.1825756878 8.906165387e-39
-0.2121318579 -0.1009517461 -0.1811407954 8.906165387e-39
-0.2046528757 0.01628166437 -0.1815558374 8.906165387e-39
-0.1869968176 -0.03151255846 -0.1858958751 8.906165387e-39
-0.08036813885 -0.3917042315 -0.168818891 8.906165387e-39
-0.0724671483 -0.4627426863 -0.1806543618 8.906165387e-39
-0.06906338036 -0.3040475249 -0.1756998152 8.906165387e-39
-0.040342208 -0.4348040819 -0.1778802872 8.906165387e-39
-0.1633035988 0.07073951513 -0.2821254134 8.906165387e-39
-0.11301101 0.07388380915 -0.3146274686 8.906165387e-39
-0.121041581 0.07180444151 -0.2427854985 8.906165387e-39
-0.05108208582 0.07194227725 -0.2909950614 8.906165387e-39
-0.2467470914 -0.2056275904 -0.1681460291 8.906165387e-39
-0.2415901273 -0.3368605375 -0.17496185 8.906165387e-39
-0.2387623191 -0.1282248348 -0.1711661369 8.906165387e-39
-0.2380105108 -0.2607791722 -0.1692413092 8.906165387e-39
-0.2486987859 -0.1011866331 -0.1866936982 8.906165387e-39
-0.245695442 -0.2237342894 -0.1916748583 8.906165387e-39
-0.2366123646 -0.04143577814 -0.1840096265 8.906165387e-39
-0.2343351394 -0.1452610642 -0.1891828775 8.906165387e-39
-0.1450545192 0.0705607608 -0.29030177 8.906165387e-39
-0.08149801195 0.07641745359 -0.3100365698 8.906165387e-39
-0.08149905503 0.07373029739 -0.2464980334 8.906165387e-39
-0.02722163685 0.07199919969 -0.2915516496 8.906165387e-39
-0.1958341599 0.0710945949 -0.3137934506 8.906165387e-39
-0.1174319834 0.0750701353 -0.3303979933 8.906165387e-39
-0.1257608831 0.07355544716 -0.287340641 8.906165387e-39
-0.04346948117 0.07099989802 -0.3270758986 8.906165387e-39
-0.06182115152 0.06888427585 -0.2134488672 8.906165387e-39
0.03530154005 0.07482070476 -0.2368454933 8.906165387e-39
0.04162626714 0.07310136408 -0.1970371455 8.906165387e-39
0.09800113738 0.07336964458 -0.2209074348 8.906165387e-39
-0.1352083832 0.0709561035 -0.2901904285 8.906165387e-39
-0.07261813432 0.07330635935 -0.3266539276 8.906165387e-39
-0.08536179364 0.07405578345 -0.2458748966 8.906165387e-39
-0.0253569372 0.07122113556 -0.2952871919 8.906165387e-39
-0.2171019018 0.006719745696 -0.1966840476 8.906165387e-39
-0.1863769442 -0.04690145329 -0.1930004805 8.906165387e-39
-0.1714227647 0.03634939343 -0.2004790306 8.906165387e-39
-0.1377882212 0.007720164955 -0.2040764689 8.906165387e-39
-0.04681577906 0.0713461712 -0.2114667445 8.906165387e-39
0.03052764013 0.07412641495 -0.2485230118 8.906165387e-39
0.02168643102 0.07482368499 -0.1854790002 8.906165387e-39
0.05987235159 0.07274856418 -0.2182094902 8.906165387e-39
-0.2348245084 -0.1174214035 -0.1787622571 8.906165387e-39
-0.228758797 -0.2821289301 -0.179995507 8.906165387e-39
-0.2214564979 -0.04171010852 -0.1736591756 8.906165387e-39
-0.2207929939 -0.1906963885 -0.1776110679 8.906165387e-39
-0.2319772094 -0.1666770875 -0.1861647666 8.906165387e-39
-0.2306387872 -0.2895437181 -0.1918065697 8.906165387e-39
-0.2311028242 -0.09177178144 -0.1864857376 8.906165387e-39
-0.2300997823 -0.2172536701 -0.1870719045 8.906165387e-39
-0.2427580506 -0.1245753691 -0.1780534387 8.906165387e-39
-0.2373783588 -0.2645090818 -0.1812190115 8.906165387e-39
-0.2305458635 -0.05436065793 -0.1764187962 8.906165387e-39
-0.2270976752 -0.1842546463 -0.1780019701 8.906165387e-39
-0.1120990738 -0.4036202431 -0.180581063 8.906165387e-39
-0.09826710075 -0.4434546232 -0.1912252903 8.906165387e-39
-0.09305047989 -0.3555896282 -0.1860621125 8.906165387e-39
-0.07719551027 -0.4234431982 -0.1864658147 8.906165387e-39
-0.08845563233 0.06819724292 -0.2828454375 8.906165387e-39
-0.04101024568 0.05753094703 -0.3033659458 8.906165387e-39
-0.04552624747 0.0689914152 -0.2572763562 8.906165387e-39
-0.001401233487 0.07200563699 -0.2815077305 8.906165387e-39
-0.2095359862 -0.2330406606 -0.1735244542 8.906165387e-39
-0.1953679621 -0.3574052751 -0.1798885018 8.906165387e-39
-0.1880921572 -0.1626284271 -0.1801690757 8.906165387e-39
-0.1850141883 -0.2863898277 -0.1798731238 8.906165387e-39
-0.05914217979 0.0702977851 -0.2574500144 8.906165387e-39
-0.01331195887 0.07372009009 -0.2796427011 8.906165387e-39
-0.02701681294 0.07204265147 -0.225185439 8.906165387e-39
0.001149258926 0.07248718292 -0.2541828752 8.906165387e-39
-0.2473600507 -0.1257435381 -0.2002292275 8.906165387e-39
-0.2417392284 -0.2530275881 -0.202686429 8.906165387e-39
-0.2353648394 -0.0670157373 -0.1990990937 8.906165387e-39
-0.2348175347 -0.1779396534 -0.2018367052 8.906165387e-39
-0.2096532434 -0.01143451035 -0.1878854483 8.906165387e-39
-0.1764519513 -0.07968443632 -0.1843103468 8.906165387e-39
-0.1609414518 0.01887310296 -0.1868811548 8.906165387e-39
-0.1344659775 -0.0159156695 -0.1936125904 8.906165387e-39
-0.07757461816 0.06873417646 -0.3013670444 8.906165387e-39
-0.02957830951 0.0628086254 -0.3205809593 8.906165387e-39
-0.03060632199 0.07264251262 -0.2651489973 8.906165387e-39
0.005944691133 0.07209614664 -0.2954492867 8.906165387e-39
-0.1494416147 -0.2681319714 -0.1846364141 8.906165387e-39
-0.134654671 -0.3974841833 -0.1924207211 8.906165387e-39
-0.1212733835 -0.1758058369 -0.1885580868 8.906165387e-39
-0.1209838614 -0.3351112604 -0.1887404472 8.906165387e-39
-0.1418860704 -0.254835397 -0.1828327924 8.906165387e-39
-0.1271817237 -0.3993851542 -0.1910692155 8.906165387e-39
-0.1179314628 -0.1606546044 -0.1868210286 8.906165387e-39
-0.1129315794 -0.3314912319 -0.1875696629 8.906165387e-39
-0.2291931361 -0.2263809443 -0.1756954938 8.906165387e-39
-0.2098519504 -0.3637715578 -0.1861838102 8.906165387e-39
-0.2005978227 -0.1476953626 -0.1835220158 8.906165387e-39
-0.1945614517 -0.2914287448 -0.1838451177 8.906165387e-39
-0.09956485033 -0.4069660902 -0.1737707853 8.906165387e-39
-0.0833979398 -0.4504218698 -0.1863685846 8.906165387e-39
-0.07868538797 -0.3327946961 -0.1793327332 8.906165387e-39
-0.04948290065 -0.4382556975 -0.1791293919 8.906165387e-39
-0.1857160926 -0.2310371995 -0.1768086106 8.906165387e-39
-0.1670119464 -0.3668013513 -0.1833280176 8.906165387e-39
-0.1571419835 -0.1508115977 -0.1782838851 8.906165387e-39
-0.1528231502 -0.2984884083 -0.1795095056 8.906165387e-39
-0.2488016486 -0.09309653938 -0.1820396334 8.906165387e-39
-0.228875488 -0.2043735832 -0.186900124 8.906165387e-39
-0.21285896 -0.04584050179 -0.1850474775 8.906165387e-39
-0.1991551369 -0.1172493696 -0.1910904199 8.906165387e-39
-0.1557182968 -0.3161137998 -0.1869259626 8.906165387e-39
-0.1352952421 -0.4034827352 -0.1975623816 8.906165387e-39
-0.1250588 -0.2376182973 -0.1923112124 8.906165387e-39
-0.1151942089 -0.3613971174 -0.1948751211 8.906165387e-39
-0.2081762105 0.01838628203 -0.186375618 8.906165387e-39
-0.1824005693 -0.04423482716 -0.1856854111 8.906165387e-39
-0.1656594425 0.04214137048 -0.1914227456 8.906165387e-39
-0.1344879121 0.01735121757 -0.1940420717 8.906165387e-39
-0.1308760494 0.07109474391 -0.2984026968 8.906165387e-39
-0.05327479541 0.07367386669 -0.3306244016 8.906165387e-39
-0.06539488584 0.07493742555 -0.257824868 8.906165387e-39
-0.003833030351 0.07245350629 -0.3104892373 8.906165387e-39
-0.1897402406 -0.2036408186 -0.1722621024 8.906165387e-39
-0.1837519705 -0.3714307845 -0.1811650544 8.906165387e-39
-0.1791610569 -0.1119777858 -0.1757434607 8.906165387e-39
-0.1839210391 -0.2839194536 -0.174476102 8.906165387e-39
-0.1905718446 -0.02394387126 -0.1759235859 8.906165387e-39
-0.1581024975 -0.1240151972 -0.1780127734 8.906165387e-39
-0.1425435394 0.01324719936 -0.1774967164 8.906165387e-39
-0.1063757837 -0.04116746038 -0.183659777 8.906165387e-39
-0.1994587332 -0.2296790779 -0.1807561815 1.184631237e-38
-0.1902665794 -0.3629012704 -0.1888312995 1.184631237e-38
-0.1892044991 -0.1552174687 -0.1849179715 1.184631237e-38
-0.1908827871 -0.2871483266 -0.1832161844 1.184631237e-38
-0.2018022388 0.02690761536 -0.1835052669 1.184631237e-38
-0.1676656902 -0.03603126854 -0.1843300015 1.184631237e-38
-0.1531734914 0.05373168737 -0.1898242235 1.184631237e-38
-0.1098809838 0.02206564695 -0.1918760687 1.184631237e-38
-0.08274959028 -0.3929240108 -0.1907901168 1.184631237e-38
-0.07840503007 -0.4552830458 -0.2047874331 1.184631237e-38
-0.07578977197 -0.3199552596 -0.1975862384 1.184631237e-38
-0.06317989528 -0.4232234359 -0.1982099563 1.184631237e-38
-0.2117507607 -0.09400416166 -0.1851534396 1.184631237e-38
-0.202544868 -0.2732390761 -0.181503579 1.184631237e-38
-0.1997398883 -0.009683087468 -0.1811826229 1.184631237e-38
-0.1953444481 -0.1675695926 -0.18682684 1.184631237e-38
-0.1991223246 -0.01104491949 -0.1823828369 1.184631237e-38
-0.1612559557 -0.06570594013 -0.1812187433 1.184631237e-38
-0.1457515359 0.004241108894 -0.1823145747 1.184631237e-38
-0.1100938991 -0.008079007268 -0.1870164126 1.184631237e-38
-0.2132356912 -0.1667204052 -0.1667141914 1.184631237e-38
-0.204627648 -0.3255020976 -0.1757044047 1.184631237e-38
-0.2029869705 -0.08628286421 -0.1696627587 1.184631237e-38
-0.2020333558 -0.2349312603 -0.1721853763 1.184631237e-38
-0.1432055384 -0.2887327373 -0.1707288772 1.184631237e-38
-0.1264119595 -0.4153673947 -0.1810339242 1.184631237e-38
-0.1202999204 -0.1943307817 -0.1785943657 1.184631237e-38
-0.1136301532 -0.3609206975 -0.1776928902 1.184631237e-38
-0.1119669378 -0.353148669 -0.1685619503 1.184631237e-38
-0.09777931124 -0.4308579266 -0.1814548373 1.184631237e-38
-0.09336033463 -0.2545872629 -0.1761439145 1.184631237e-38
-0.0800056234 -0.4024654329 -0.1757245511 1.184631237e-38
-0.05820693076 -0.3681733012 -0.1711491942 1.184631237e-38
-0.04236718267 -0.4381947815 -0.1851407588 1.184631237e-38
-0.03447956592 -0.2691658437 -0.1771413684 1.184631237e-38
-0.0213557817 -0.4116275311 -0.1769227684 1.184631237e-38
0.001176766935 -0.3816300929 -0.1812478602 1.184631237e-38
0.00296869874 -0.4514480531 -0.1903300285 1.184631237e-38
0.01659645885 -0.2760734558 -0.1825627685 1.184631237e-38
0.01879906841 -0.4253387451 -0.1803020239 1.184631237e-38
-0.06595235318 -0.3801288903 -0.1845987141 1.184631237e-38
-0.04869125411 -0.4467791617 -0.1978408694 1.184631237e-38
-0.04137378559 -0.2879931629 -0.1891774833 1.184631237e-38
-0.02928000689 -0.4235670269 -0.1875557452 1.184631237e-38
-0.1061851084 -0.3404161632 -0.1838324368 1.184631237e-38
-0.08524753153 -0.4230643511 -0.1942776293 1.184631237e-38
-0.08337496966 -0.2564854026 -0.1878322959 1.184631237e-38
-0.06492044777 -0.3818611801 -0.1894756407 1.184631237e-38
-0.1975002438 -0.01185227931 -0.1813823134 1.184631237e-38
-0.1724947542 -0.06990706921 -0.1805057526 1.184631237e-38
-0.1520019025 0.0109782815 -0.1846273988 1.184631237e-38
-0.1254619658 -0.01457761228 -0.1879134774 1.184631237e-38
-0.1531994641 0.02520037442 -0.1801147908 1.184631237e-38
-0.1071166322 -0.0184532851 -0.1759649068 1.184631237e-38
-0.1013769209 0.04524625093 -0.1851427704 1.184631237e-38
-0.04920680076 0.02848067135 -0.1867497712 1.184631237e-38
-0.2013399154 -0.1939804554 -0.1751985103 1.184631237e-38
-0.192073226 -0.344794482 -0.1837885678 1.184631237e-38
-0.18638134 -0.1241077483 -0.1809255481 1.184631237e-38
-0.184973225 -0.2617742419 -0.1803445071 1.184631237e-38
-0.08623172343 -0.3378597498 -0.1683071852 1.184631237e-38
-0.07459903508 -0.4246177971 -0.1787453443 1.184631237e-38
-0.06962830573 -0.2352770865 -0.1691858768 1.184631237e-38
-0.06372662634 -0.3927023113 -0.1720285565 1.184631237e-38
-0.06747291982 -0.3402810693 -0.1762306541 1.184631237e-38
-0.05359308794 -0.4264318049 -0.1879918426 1.184631237e-38
-0.04804177955 -0.237878859 -0.179662019 1.184631237e-38
-0.03724416345 -0.3916673958 -0.1807810068 1.184631237e-38
-0.1316080093 -0.2573135495 -0.1717270762 1.184631237e-38
-0.1134943962 -0.3960166276 -0.1777104586 1.184631237e-38
-0.1033652797 -0.1646938175 -0.1754163206 1.184631237e-38
-0.1015653387 -0.3254800141 -0.1755469292 1.184631237e-38
0.01195717137 -0.3981984854 -0.1755754948 1.184631237e-38
0.009256660007 -0.4622352123 -0.1857144684 1.184631237e-38
0.02143129706 -0.2981305718 -0.1776811481 1.184631237e-38
0.02387019061 -0.4391204715 -0.1720880419 1.184631237e-38
-0.1274074912 -0.2241283059 -0.1782334149 1.184631237e-38
-0.1058392748 -0.3757596612 -0.1850852966 1.184631237e-38
-0.09842102975 -0.1308139712 -0.1850131303 1.184631237e-38
-0.09579899162 -0.2957396507 -0.1829592735 1.184631237e-38
-0.2093213797 -0.1467365324 -0.1907605529 1.184631237e-38
-0.1907045394 -0.3192846775 -0.1918466985 1.184631237e-38
-0.1838191897 -0.0712787509 -0.191416055 1.184631237e-38
-0.1761590689 -0.2166672945 -0.1941853315 1.184631237e-38
-0.136296913 -0.2435279191 -0.1852571666 1.184631237e-38
-0.123247005 -0.3923098445 -0.193727538 1.184631237e-38
-0.1070869714 -0.1503861845 -0.1872230768 1.184631237e-38
-0.1000135839 -0.3162480593 -0.1908158213 1.184631237e-38
-0.1941535771 -0.04337089509 -0.180156514 1.184631237e-38
-0.1667996198 -0.1201828867 -0.1793114394 1.184631237e-38
-0.153146863 -0.01021456718 -0.1821741313 1.184631237e-38
-0.1356852651 -0.05969426408 -0.1856082082 1.184631237e-38
-0.1107648313 -0.2597765028 -0.1941020936 1.184631237e-38
-0.0904488489 -0.3912875056 -0.1995534152 1.184631237e-38
-0.08253552765 -0.1751457304 -0.1927454174 1.184631237e-38
-0.08118534833 -0.3169362545 -0.1957414299 1.184631237e-38
-0.1113843694 -0.3436863422 -0.1905505359 1.184631237e-38
-0.09729930758 -0.4216959178 -0.2015283257 1.184631237e-38
-0.09428384155 -0.2555762529 -0.193762958 1.184631237e-38
-0.08194871247 -0.3897448182 -0.1953177601 1.184631237e-38
-0.2132267952 -0.1822654009 -0.187360689 1.184631237e-38
-0.1977155656 -0.3248178363 -0.1957957447 1.184631237e-38
-0.1857722104 -0.1179762185 -0.1929967999 1.184631237e-38
-0.1785649359 -0.2434239388 -0.1938814521 1.184631237e-38
-0.149156794 -0.002839162946 -0.1932174414 1.184631237e-38
-0.1178313792 -0.08709292859 -0.1852490008 1.184631237e-38
-0.1077851728 0.03220321983 -0.1940194219 1.184631237e-38
-0.06746576726 -0.01298704743 -0.1955588609 1.184631237e-38
-0.00174980564 -0.3883280456 -0.1810134053 1.184631237e-38
0.01276540104 -0.4402664006 -0.1890294403 1.184631237e-38
0.02835030481 -0.3002588451 -0.1853267699 1.184631237e-38
0.04026126489 -0.4194027781 -0.184715271 1.184631237e-38
-0.1114919707 -0.2845205963 -0.1886349916 1.184631237e-38
-0.09126368165 -0.4169322252 -0.1975352168 1.184631237e-38
-0.08346517384 -0.1911445558 -0.1902600527 1.184631237e-38
-0.07642541826 -0.3518284857 -0.1915329546 1.184631237e-38
-0.1937744319 -0.1818482876 -0.1875402629 1.184631237e-38
-0.175501585 -0.3261293471 -0.1943126768 1.184631237e-38
-0.1619734913 -0.1135201752 -0.1909231097 1.184631237e-38
-0.1557301879 -0.2435858846 -0.1910324246 1.184631237e-38
-0.2009967119 -0.1446195394 -0.1810422391 1.184631237e-38
-0.1938396394 -0.2939961553 -0.184378311 1.184631237e-38
-0.1839628816 -0.07121475041 -0.1808671653 1.184631237e-38
-0.1806361973 -0.2043815553 -0.1846030504 1.184631237e-38
-0.1031449139 -0.2990061045 -0.1868402511 1.184631237e-38
-0.08038631827 -0.4028143883 -0.1965765804 1.184631237e-38
-0.07298211008 -0.213810429 -0.1887471825 1.184631237e-38
-0.0605577603 -0.3469569683 -0.1914457828 1.184631237e-38
-0.02509013191 -0.3562096059 -0.1775983572 1.478322936e-38
-0.01832077652 -0.4255845845 -0.1865734011 1.478322936e-38
-0.01271166652 -0.2642930448 -0.1785995215 1.478322936e-38
-0.005671983119 -0.3904280066 -0.1793970466 1.478322936e-38
-0.1570144147 -0.01678889245 -0.1823292971 1.478322936e-38
-0.1436697543 -0.1228884906 -0.1750367582 1.478322936e-38
-0.1373304725 0.02972660214 -0.1788994074 1.478322936e-38
-0.1250095367 -0.04496769607 -0.1818691194 1.478322936e-38
-0.1008023843 -0.3000326157 -0.1823184937 1.478322936e-38
-0.0878630951 -0.3977867663 -0.1948854178 1.478322936e-38
-0.08492027223 -0.210100621 -0.186725527 1.478322936e-38
-0.07790527493 -0.3461558819 -0.1909615099 1.478322936e-38
-0.1880948991 -0.1446888 -0.1830849797 1.478322936e-38
-0.1855899394 -0.3113572598 -0.1871512532 1.478322936e-38
-0.1811190695 -0.06267601252 -0.1806553155 1.478322936e-38
-0.1794199049 -0.2118244916 -0.1863041818 1.478322936e-38
-0.1842074096 -0.1081540212 -0.1942252666 1.478322936e-38
-0.1653759181 -0.276335597 -0.192863822 1.478322936e-38
-0.1653039604 -0.02882094681 -0.193063423 1.478322936e-38
-0.1584109813 -0.1794128567 -0.1979017556 1.478322936e-38
-0.01473663002 -0.327714175 -0.1746075749 1.478322936e-38
0.009892654605 -0.4196980894 -0.183519274 1.478322936e-38
0.01095261611 -0.2291138172 -0.1775598228 1.478322936e-38
0.01340404712 -0.3708917201 -0.1791574508 1.478322936e-38
-0.1316044033 0.00452439487 -0.1743849814 1.478322936e-38
-0.1020837948 -0.07528306544 -0.1741318256 1.478322936e-38
-0.08299385011 0.02728652209 -0.1809356213 1.478322936e-38
-0.04773944244 -0.007325038314 -0.1815426499 1.478322936e-38
-0.08835954964 -0.3218247294 -0.1789369136 1.478322936e-38
-0.06840245426 -0.4119677842 -0.1908425689 1.478322936e-38
-0.04714188725 -0.2290101051 -0.1815491617 1.478322936e-38
-0.03596172854 -0.3633544445 -0.1867372245 1.478322936e-38
-0.07953666896 -0.3078239858 -0.1709966063 1.478322936e-38
-0.05830145255 -0.3977788687 -0.1806557328 1.478322936e-38
-0.05660741031 -0.2084776461 -0.1759589463 1.478322936e-38
-0.04230960831 -0.3545442224 -0.1781080067 1.478322936e-38
-0.171262145 -0.182854861 -0.1832939535 1.478322936e-38
-0.1561284214 -0.3464314342 -0.1878870577 1.478322936e-38
-0.1490155309 -0.102940172 -0.1871745288 1.478322936e-38
-0.1490258127 -0.2482155561 -0.1872399747 1.478322936e-38
-0.08776983619 -0.2602164447 -0.193698287 1.478322936e-38
-0.06983620673 -0.3889319003 -0.2007512003 1.478322936e-38
-0.05871592462 -0.1797371954 -0.1937060207 1.478322936e-38
-0.05378687754 -0.3168688416 -0.1970471889 1.478322936e-38
-0.1438395232 -0.0424144417 -0.1767953187 1.478322936e-38
-0.1191822067 -0.1322654188 -0.1770479977 1.478322936e-38
-0.1105017439 -0.005676962435 -0.1814184785 1.478322936e-38
-0.08638281375 -0.06149864197 -0.182405293 1.478322936e-38
-0.02048152871 -0.3285931051 -0.1707685143 1.478322936e-38
0.0004233495856 -0.406426847 -0.1806681156 1.478322936e-38
0.00433865143 -0.2317256033 -0.1725159436 1.478322936e-38
0.01107888669 -0.3647129834 -0.1766130328 1.478322936e-38
-0.09233687818 -0.2492336035 -0.1808745712 1.478322936e-38
-0.07320470363 -0.3897435367 -0.1893386543 1.478322936e-38
-0.06910702586 -0.1493640542 -0.1839050949 1.478322936e-38
-0.06444002688 -0.3168964982 -0.1851625443 1.478322936e-38
-0.05701465905 -0.3362621963 -0.1698447764 1.478322936e-38
-0.03948599473 -0.4168715477 -0.1829366535 1.478322936e-38
-0.004525282886 -0.2353954017 -0.1715871543 1.478322936e-38
0.005191044882 -0.3818028271 -0.1752531081 1.478322936e-38
-0.00638682954 -0.3515394628 -0.174319759 1.478322936e-38
0.0080965776 -0.4248600006 -0.1819738448 1.478322936e-38
0.01765090227 -0.2476850748 -0.1761221588 1.478322936e-38
0.02412200533 -0.3920889199 -0.1771330535 1.478322936e-38
-0.1869270056 -0.1323368698 -0.1842059642 1.478322936e-38
-0.1682779044 -0.2939255536 -0.1864678413 1.478322936e-38
-0.1641060859 -0.05406054482 -0.184770599 1.478322936e-38
-0.1577395648 -0.1939565986 -0.1878011227 1.478322936e-38
-0.1581338793 -0.1716454327 -0.1823252738 1.478322936e-38
-0.1492997855 -0.3309322894 -0.1887281835 1.478322936e-38
-0.144251734 -0.08994209766 -0.1799267977 1.478322936e-38
-0.1417061538 -0.2366565466 -0.1847210974 1.478322936e-38
-0.1978527755 -0.09609183669 -0.188321352 1.478322936e-38
-0.1834891587 -0.2542787492 -0.1895943284 1.478322936e-38
-0.1463912725 -0.02074148506 -0.1901321858 1.478322936e-38
-0.1351947635 -0.1583181024 -0.1946843266 1.478322936e-38
-0.1276828498 0.007541157305 -0.1830511689 1.478322936e-38
-0.07846570015 -0.05402429029 -0.1813907623 1.478322936e-38
-0.0429209061 0.02542231232 -0.1813432872 1.478322936e-38
-0.001401446643 0.00558783859 -0.1836723536 1.478322936e-38
-0.1382574141 -0.09275161475 -0.1691076159 1.478322936e-38
-0.1178897917 -0.2304973602 -0.1698379517 1.478322936e-38
-0.08673115075 -0.03085202724 -0.177226916 1.478322936e-38
-0.06910333037 -0.1365934014 -0.1756770909 1.478322936e-38
0.004037773237 -0.3657751977 -0.1875000447 1.478322936e-38
0.01730433106 -0.4331141412 -0.1948840469 1.478322936e-38
0.02648989297 -0.2724903226 -0.1891995668 1.478322936e-38
0.03065439127 -0.4021983147 -0.1901903301 1.478322936e-38
-0.1203236729 -0.08606315404 -0.1812270582 1.478322936e-38
-0.09403780848 -0.2427393198 -0.1812946051 1.478322936e-38
-0.09375547618 -0.01143562794 -0.1795400083 1.478322936e-38
-0.0828102231 -0.1516164094 -0.179151237 1.478322936e-38
-0.1766571552 -0.1463310122 -0.1831510067 1.478322936e-38
-0.1639134139 -0.3081647158 -0.1870439947 1.478322936e-38
-0.156738326 -0.05896923319 -0.1833206117 1.478322936e-38
-0.1496903151 -0.2059212029 -0.188933 1.478322936e-38
-0.1596263945 -0.1767326593 -0.1779902279 1.478322936e-38
-0.1426683217 -0.324042201 -0.1847024262 1.478322936e-38
-0.1343199015 -0.1014255807 -0.176914826 1.478322936e-38
-0.1316457689 -0.2362892628 -0.1803767234 1.478322936e-38
-0.1270001084 -0.05893516541 -0.1742853075 1.478322936e-38
-0.1014195457 -0.1812920868 -0.1781732589 1.478322936e-38
-0.09723860025 -0.002090111375 -0.1783895642 1.478322936e-38
-0.07371339947 -0.09184589237 -0.1790710241 1.478322936e-38
-0.005390360486 -0.333260715 -0.1716943234 1.478322936e-38
0.01844388247 -0.40537709 -0.1803595126 1.478322936e-38
0.02277089469 -0.2402478755 -0.1743871421 1.478322936e-38
0.0299197007 -0.368240118 -0.1766924709 1.478322936e-38
-0.1328307837 -0.2022931278 -0.1778327972 1.478322936e-38
-0.1170536801 -0.3531519473 -0.183845371 1.478322936e-38
-0.1120830178 -0.1097885817 -0.1830327362 1.478322936e-38
-0.1123578846 -0.2661589086 -0.1812802702 1.478322936e-38
-0.09709814191 -0.2126456201 -0.1835698783 1.478322936e-38
-0.07410783321 -0.3726890981 -0.1915759742 1.478322936e-38
-0.06798634678 -0.1280796677 -0.1907951087 1.478322936e-38
-0.06710384786 -0.2720335126 -0.1876148731 1.478322936e-38
-0.0170535557 -0.2682079673 -0.1766314209 1.478322936e-38
0.01142285299 -0.3897476196 -0.1831217855 1.478322936e-38
0.01168709155 -0.1741631031 -0.1767936796 1.478322936e-38
0.01674303785 -0.3138410449 -0.1774633527 1.478322936e-38
-0.1622286886 -0.174302578 -0.1870910078 1.478322936e-38
-0.1457355767 -0.3344308436 -0.1921025515 1.478322936e-38
-0.1396334618 -0.09136276692 -0.1888941228 1.478322936e-38
-0.1397968531 -0.2387848198 -0.1903062761 1.478322936e-38
-0.1188841164 -0.02212993056 -0.1884274632 1.478322936e-38
-0.08471614122 -0.1030735746 -0.1899533421 1.478322936e-38
-0.04796600342 0.008014447987 -0.1937745661 1.478322936e-38
-0.01458764542 -0.03083984554 -0.1932046413 1.478322936e-38
0.02366104536 -0.3461171985 -0.1835773885 1.771655483e-38
0.03848896176 -0.4125023186 -0.1843238771 1.771655483e-38
0.04571926594 -0.2490978837 -0.1827751994 1.771655483e-38
0.05210916325 -0.3786028624 -0.1858348399 1.771655483e-38
0.008322686888 -0.3481783569 -0.1809684932 1.771655483e-38
0.02424189448 -0.4251330793 -0.1869429499 1.771655483e-38
0.03352194279 -0.2452166975 -0.1811442822 1.771655483e-38
0.03584025055 -0.387203604 -0.1833604425 1.771655483e-38
-0.1387301385 -0.1783411056 -0.1844384819 1.771655483e-38
-0.1182608828 -0.3446350694 -0.1870936304 1.771655483e-38
-0.1147191152 -0.09274739772 -0.1832501888 1.771655483e-38
-0.113404125 -0.2457919717 -0.1843818426 1.771655483e-38
-0.1525626034 -0.1692332029 -0.1854313314 1.771655483e-38
-0.1453615725 -0.3287996948 -0.1943579167 1.771655483e-38
-0.1441872716 -0.08788414299 -0.1863205582 1.771655483e-38
-0.1395610124 -0.2321417332 -0.1931242049 1.771655483e-38
-0.07939961553 -0.217615962 -0.1784043908 1.771655483e-38
-0.06893642247 -0.3746908903 -0.1877972931 1.771655483e-38
-0.06413888931 -0.1151961833 -0.1855008751 1.771655483e-38
-0.06068744883 -0.2814192176 -0.1845628768 1.771655483e-38
-0.1393846124 -0.09232790023 -0.1820428669 1.771655483e-38
-0.1195158586 -0.2484934032 -0.180319488 1.771655483e-38
-0.1163762659 -0.007491454482 -0.1822509021 1.771655483e-38
-0.1110132784 -0.1572474539 -0.1838934124 1.771655483e-38
-0.119845137 -0.07002004981 -0.1848331541 1.771655483e-38
-0.09279884398 -0.2142274082 -0.1844887286 1.771655483e-38
-0.06117484346 0.0004989206791 -0.1870194823 1.771655483e-38
-0.03862389177 -0.1127434 -0.1839792728 1.771655483e-38
-0.03335393593 -0.2648347914 -0.1782738864 1.771655483e-38
-0.00922186859 -0.3578822613 -0.1851730347 1.771655483e-38
-0.005508229136 -0.1709675342 -0.1773720235 1.771655483e-38
-0.0003253822215 -0.3071248531 -0.1817064434 1.771655483e-38
-0.1016525626 -0.04849451035 -0.1743637919 1.771655483e-38
-0.0697337091 -0.1693160236 -0.1759846956 1.771655483e-38
-0.06784821302 0.004149056971 -0.1757773608 1.771655483e-38
-0.04391664639 -0.08069987595 -0.1747089326 1.771655483e-38
-0.1470910758 -0.1550972313 -0.1823894829 1.771655483e-38
-0.1275411099 -0.2972266078 -0.1844905764 1.771655483e-38
-0.1247385368 -0.08098960668 -0.1804172844 1.771655483e-38
-0.1198977455 -0.2098344564 -0.1854166389 1.771655483e-38
-0.01584868133 -0.2243749201 -0.1734931171 1.771655483e-38
0.009006385691 -0.3543522954 -0.1816346198 1.771655483e-38
0.004382386804 -0.1331589222 -0.1764839143 1.771655483e-38
0.004653420299 -0.2754345536 -0.1778277308 1.771655483e-38
-0.08811291307 0.0272506848 -0.1820499599 1.771655483e-38
-0.05551990122 -0.05982241407 -0.1827414781 1.771655483e-38
-0.01457267255 0.0476917699 -0.1865972281 1.771655483e-38
0.01490719896 0.006961017847 -0.1864924431 1.771655483e-38
-0.002140366705 -0.2844867408 -0.1870577782 1.771655483e-38
0.0171194654 -0.3796056211 -0.1904233843 1.771655483e-38
0.01888274029 -0.1768128872 -0.1817267388 1.771655483e-38
0.02461073548 -0.3352439702 -0.1888582706 1.771655483e-38
-0.1276097894 -0.1415856481 -0.1899058521 1.771655483e-38
-0.1068480164 -0.2972294092 -0.1918500364 1.771655483e-38
-0.1079526618 -0.05890466273 -0.1902292669 1.771655483e-38
-0.1008606851 -0.2008228302 -0.1904392093 1.771655483e-38
-0.1018581986 0.002947174013 -0.1905878782 1.771655483e-38
-0.06586376578 -0.1017292887 -0.1897381991 1.771655483e-38
-0.02843601257 0.040680103 -0.1932515055 1.771655483e-38
0.004962663166 -0.01504022628 -0.193386808 1.771655483e-38
-0.03555527329 0.01629476994 -0.1845695376 1.771655483e-38
0.005003784318 -0.05955481902 -0.1881320179 1.771655483e-38
0.006501077209 0.0388603732 -0.1888678968 1.771655483e-38
0.03794256225 0.001214176416 -0.1903834343 1.771655483e-38
-0.122437261 -0.1489610374 -0.1883637905 1.771655483e-38
-0.1011466235 -0.2882013023 -0.1915108562 1.771655483e-38
-0.1018697247 -0.06595386565 -0.191698119 1.771655483e-38
-0.09410851449 -0.2005975097 -0.192478627 1.771655483e-38
0.04291150346 -0.3625785708 -0.1953421086 1.771655483e-38
0.05038751662 -0.4261518717 -0.1973362863 1.771655483e-38
0.05944813415 -0.2721333504 -0.1953208894 1.771655483e-38
0.06185786054 -0.3942200541 -0.1971961856 1.771655483e-38
-0.06593429297 -0.04886944219 -0.1824690849 1.771655483e-38
-0.03401297703 -0.1901556253 -0.1852385253 1.771655483e-38
-0.004438394215 0.01095160097 -0.18339324 1.771655483e-38
0.01689969376 -0.08503948897 -0.1841606498 1.771655483e-38
-0.09939999878 0.007412135601 -0.1839632988 1.771655483e-38
-0.06798347831 -0.08002334833 -0.1826665998 1.771655483e-38
-0.02795455605 0.03576464206 -0.1899946928 1.771655483e-38
0.003320251359 -0.009529054165 -0.1894018948 1.771655483e-38
-0.07802658528 0.01351964474 -0.1979553252 1.771655483e-38
-0.03029248677 -0.04452154785 -0.2003932595 1.771655483e-38
0.002516290639 0.02801246196 -0.2023436576 1.771655483e-38
0.04196984693 0.008910194039 -0.2031834424 1.771655483e-38
0.004179847427 -0.2884167433 -0.1789156795 1.771655483e-38
0.02308082208 -0.3785786033 -0.1856752336 1.771655483e-38
0.02288271114 -0.1888828278 -0.1782610565 1.771655483e-38
0.02932073176 -0.333384037 -0.1829272956 1.771655483e-38
-0.1212652773 -0.1274344623 -0.1877492219 1.771655483e-38
-0.1018462703 -0.2900712192 -0.1900524348 1.771655483e-38
-0.1031019017 -0.04202541709 -0.1890758872 1.771655483e-38
-0.09522717446 -0.1927052438 -0.1899406165 1.771655483e-38
0.002436540555 -0.2427977324 -0.1769005656 1.771655483e-38
0.02757848613 -0.3430503011 -0.1854340881 1.771655483e-38
0.02390464768 -0.1498105973 -0.1784979552 1.771655483e-38
0.03176753595 -0.2816385329 -0.1813645512 1.771655483e-38
-0.06354153901 0.02911967784 -0.1874149442 1.771655483e-38
-0.02725339495 -0.07127636671 -0.1898602843 1.771655483e-38
0.007346079219 0.05090742558 -0.1878624409 1.771655483e-38
0.04123280197 0.006487220526 -0.1954096258 1.771655483e-38
-0.0776040256 -0.2364091873 -0.1787740588 1.771655483e-38
-0.05582806468 -0.3493598104 -0.184182182 1.771655483e-38
-0.05389653146 -0.1483775973 -0.1798547059 1.771655483e-38
-0.04707537964 -0.2831400931 -0.1818933785 1.771655483e-38
-0.04821678996 0.02851440758 -0.1786278486 1.771655483e-38
-0.001604007441 -0.05657129735 -0.1816135794 1.771655483e-38
0.004609685857 0.05030154437 -0.1844018996 1.771655483e-38
0.04803025723 0.013698183 -0.1835846007 1.771655483e-38
0.02433930524 -0.3008222282 -0.1882440448 1.771655483e-38
0.04853063077 -0.3987449706 -0.1927298009 1.771655483e-38
0.04846990108 -0.2043885887 -0.1876222491 1.771655483e-38
0.05393647775 -0.3446493745 -0.1901856214 1.771655483e-38
-0.03273332492 0.03734625131 -0.1782785058 1.771655483e-38
0.005330783781 -0.05832749233 -0.1817696244 1.771655483e-38
0.01047822274 0.05451638252 -0.1813756526 1.771655483e-38
0.04129890725 0.01480516791 -0.1825024933 1.771655483e-38
-0.1055461019 -0.1132284477 -0.1850758493 1.771655483e-38
-0.08387038857 -0.253667742 -0.184494704 1.771655483e-38
-0.08722864091 -0.03922745585 -0.1876949668 1.771655483e-38
-0.07155824453 -0.1718544364 -0.1862026602 1.771655483e-38
-0.03854389116 0.02685505897 -0.1899927706 1.771655483e-38
-0.001742784167 -0.06616388261 -0.190280661 1.771655483e-38
0.0297703445 0.04494025558 -0.191798985 1.771655483e-38
0.06547476351 0.003061085939 -0.193005532 1.771655483e-38
0.0287341997 -0.3237353563 -0.1884925514 1.771655483e-38
0.04125891998 -0.4084441364 -0.1897061169 1.771655483e-38
0.04729378968 -0.2182954252 -0.1862436086 1.771655483e-38
0.05191896483 -0.3665463924 -0.1894370615 1.771655483e-38
-0.07931979001 -0.1797834635 -0.1826503575 2.06466517e-38
-0.05684071779 -0.3438728154 -0.1881242543 2.06466517e-38
-0.05897576362 -0.09070176631 -0.1847321838 2.06466517e-38
-0.05437519401 -0.241433382 -0.1823007762 2.06466517e-38
-0.09139133245 -0.2154701948 -0.1836183369 2.06466517e-38
-0.06791484356 -0.3597877622 -0.189717114 2.06466517e-38
-0.06745360792 -0.1368246675 -0.1858778298 2.06466517e-38
-0.06496599317 -0.2687703669 -0.1879380047 2.06466517e-38
-0.0470453687 0.006351493299 -0.1866508126 2.06466517e-38
-0.01167452708 -0.08271855861 -0.1895697564 2.06466517e-38
0.0194524508 0.0292576924 -0.1905739307 2.06466517e-38
0.05607399344 -0.009988620877 -0.1914034486 2.06466517e-38
0.02077184618 -0.2823535502 -0.1862144917 2.06466517e-38
0.0439578779 -0.3763328493 -0.1919734329 2.06466517e-38
0.04563866183 -0.1908758283 -0.185362041 2.06466517e-38
0.0545621179 -0.3190796971 -0.1893158704 2.06466517e-38
-0.08931817859 -0.1323494911 -0.1919073015 2.06466517e-38
-0.07944396138 -0.3045983016 -0.1932619214 2.06466517e-38
-0.08706215769 -0.04579286277 -0.1923952401 2.06466517e-38
-0.08226503432 -0.1993374825 -0.1923633814 2.06466517e-38
-0.03836274892 0.02032970637 -0.1833785623 2.06466517e-38
0.01460964046 -0.04794831946 -0.1851480007 2.06466517e-38
0.03131886944 0.03881206363 -0.1878158897 2.06466517e-38
0.08218672872 0.01063594967 -0.186866343 2.06466517e-38
-0.09391255677 -0.1515439302 -0.1868016273 2.06466517e-38
-0.0831912905 -0.3060390651 -0.186988458 2.06466517e-38
-0.08890751004 -0.06587563455 -0.1855270118 2.06466517e-38
-0.08530262113 -0.2121302038 -0.1876531988 2.06466517e-38
0.01361925527 0.004482023418 -0.1811216027 2.06466517e-38
0.05142699927 -0.08362666517 -0.1806641519 2.06466517e-38
0.04264564812 0.03389491886 -0.1810562164 2.06466517e-38
0.07420223206 -0.01654312015 -0.1859036386 2.06466517e-38
-0.004277757369 -0.04788859189 -0.1741597652 2.06466517e-38
0.02383084409 -0.1675067246 -0.1772683114 2.06466517e-38
0.02428911999 0.003095187247 -0.1799613833 2.06466517e-38
0.04804769158 -0.08044506609 -0.1764012724 2.06466517e-38
-0.009410880506 -0.05071908608 -0.1746175885 2.06466517e-38
0.02711315081 -0.1666718423 -0.1805075258 2.06466517e-38
0.02604557388 -0.006051041186 -0.1802103966 2.06466517e-38
0.05920152739 -0.08131133765 -0.1764893085 2.06466517e-38
-0.08844065666 -0.2074395418 -0.1785568893 2.06466517e-38
-0.0772947073 -0.3605024517 -0.1840004027 2.06466517e-38
-0.0767506361 -0.1172226891 -0.1824050695 2.06466517e-38
-0.07721433043 -0.2657879889 -0.1839331537 2.06466517e-38
0.01291713584 -0.04856698215 -0.1765000224 2.06466517e-38
0.03915167227 -0.1769424975 -0.1799558103 2.06466517e-38
0.03451671079 0.005978353322 -0.1801405549 2.06466517e-38
0.06090289727 -0.08562541008 -0.1783163548 2.06466517e-38
-0.02301920019 -0.06067315862 -0.1785722375 2.06466517e-38
0.006218488794 -0.1825718284 -0.1831621081 2.06466517e-38
0.007926020771 -0.005156680942 -0.1822277904 2.06466517e-38
0.02939362638 -0.0892617777 -0.1817264557 2.06466517e-38
-0.06324696541 -0.2154361457 -0.1702284962 2.06466517e-38
-0.0519080013 -0.3649935722 -0.178304106 2.06466517e-38
-0.05086623877 -0.127049908 -0.1759480983 2.06466517e-38
-0.05634522066 -0.2704111636 -0.1755564958 2.06466517e-38
0.1014912277 -0.3639315665 -0.1753673702 2.06466517e-38
0.1152572036 -0.4248628318 -0.1769978255 2.06466517e-38
0.117912896 -0.2768602967 -0.1750478446 2.06466517e-38
0.1306137294 -0.3934679925 -0.1744656563 2.06466517e-38
-0.01036001462 0.03488533944 -0.1806207895 2.06466517e-38
0.04717508703 -0.01529049128 -0.1815415472 2.06466517e-38
0.0541087538 0.0404106304 -0.1858714372 2.06466517e-38
0.1033373028 0.03602615744 -0.1835184842 2.06466517e-38
-0.02466881461 -0.04181286693 -0.1857598424 2.06466517e-38
0.003549438203 -0.1655746251 -0.1887417585 2.06466517e-38
0.03231516853 0.008646287024 -0.1868513823 2.06466517e-38
0.05756561831 -0.07590913773 -0.1895634383 2.06466517e-38
-0.004987776745 -0.2344834208 -0.1867422462 2.06466517e-38
0.02596676163 -0.3580527008 -0.1960229725 2.06466517e-38
0.02386263199 -0.1401618421 -0.1904535145 2.06466517e-38
0.03397773579 -0.2799600065 -0.1941326708 2.06466517e-38
-0.05590541288 -0.2275776863 -0.1822702885 2.06466517e-38
-0.03249302506 -0.3287846446 -0.1883803159 2.06466517e-38
-0.03462567925 -0.1390394121 -0.1809355617 2.06466517e-38
-0.02267467231 -0.2666788101 -0.184169367 2.06466517e-38
-0.01676390134 -0.07600437105 -0.1755393296 2.06466517e-38
0.01012813393 -0.2001286745 -0.1789345145 2.06466517e-38
0.01030466147 -0.0144841224 -0.1775643975 2.06466517e-38
0.02814725786 -0.1089354753 -0.1781663299 2.06466517e-38
-0.01993946545 0.04725984484 -0.1886398643 2.06466517e-38
0.04449294508 -0.02387318015 -0.1883780062 2.06466517e-38
0.06234461442 0.0570840016 -0.1908147633 2.06466517e-38
0.1167452633 0.04170078784 -0.1901967227 2.06466517e-38
-0.06621777266 -0.1644241214 -0.1826893389 2.06466517e-38
-0.04769127071 -0.3270546198 -0.1897048205 2.06466517e-38
-0.04996683821 -0.06461699307 -0.1883224696 2.06466517e-38
-0.04342589527 -0.2227119803 -0.1856082678 2.06466517e-38
-0.01055908483 -0.2014977336 -0.1809251457 2.06466517e-38
0.0121152699 -0.358448714 -0.186615169 2.06466517e-38
0.01368508022 -0.1014985964 -0.1842035949 2.06466517e-38
0.02307743765 -0.2596775293 -0.1833489984 2.06466517e-38
-0.07428745925 -0.1367625743 -0.1832488775 2.06466517e-38
-0.05384055898 -0.2986430228 -0.1879120916 2.06466517e-38
-0.05748178437 -0.04825016111 -0.1852193028 2.06466517e-38
-0.04874507338 -0.1922917664 -0.1834865063 2.06466517e-38
-0.01111546345 -0.02340418845 -0.1830322295 2.06466517e-38
0.02613858506 -0.1579261422 -0.185099259 2.06466517e-38
0.04984203354 0.02615957707 -0.1827167422 2.06466517e-38
0.08456228673 -0.06128070503 -0.1885696948 2.06466517e-38
0.0616918616 -0.2269805372 -0.1893697232 2.06466517e-38
0.07715503126 -0.3562091887 -0.1972063184 2.06466517e-38
0.07994668186 -0.1361206174 -0.1946852952 2.06466517e-38
0.09269221127 -0.2748069763 -0.1948025972 2.06466517e-38
0.06361193955 -0.2954050601 -0.1908754408 2.06466517e-38
0.07991428673 -0.3631113768 -0.1885180026 2.06466517e-38
0.08855759352 -0.192818284 -0.1850325465 2.06466517e-38
0.1009562016 -0.3285189271 -0.1897276491 2.06466517e-38
0.07474704087 -0.2676247954 -0.1695253551 2.06466517e-38
0.09652683884 -0.3958810866 -0.1759420335 2.06466517e-38
0.09707380086 -0.1590330601 -0.174504146 2.06466517e-38
0.1009155735 -0.3170695007 -0.1708909124 2.06466517e-38
-0.05576812103 -0.1709166765 -0.1733265072 2.06466517e-38
-0.03368218616 -0.3313098252 -0.1808779985 2.06466517e-38
-0.005711877719 -0.08077248931 -0.1746704429 2.06466517e-38
0.008312951773 -0.2269317806 -0.1772332788 2.06466517e-38
0.06570531428 -0.2461389899 -0.173668623 2.06466517e-38
0.08115023375 -0.3727813065 -0.1834361255 2.06466517e-38
0.08306697011 -0.1540084779 -0.1793493927 2.06466517e-38
0.08992066979 -0.2939364314 -0.1785613447 2.06466517e-38
-0.01914068311 -0.1996270716 -0.1893499792 2.06466517e-38
0.0004237693502 -0.3493119776 -0.1956109554 2.06466517e-38
-0.0008092436474 -0.09998697042 -0.1886358857 2.06466517e-38
0.002259163419 -0.2551533878 -0.1952611208 2.06466517e-38
0.01697265171 -0.05607888475 -0.1898039579 2.06466517e-38
0.0430830121 -0.2026018202 -0.193506524 2.06466517e-38
0.03960923478 0.002530679107 -0.1931479722 2.06466517e-38
0.06927531213 -0.1021579579 -0.1925952137 2.06466517e-38
-0.007195258513 -0.09831188619 -0.1836397499 2.348204041e-38
0.01577325165 -0.2356603742 -0.1902584881 2.348204041e-38
0.01319841109 -0.02073226124 -0.1853999048 2.348204041e-38
0.03199055046 -0.1481453478 -0.1908606291 2.348204041e-38
0.0826632157 -0.2363300025 -0.1687687337 2.348204041e-38
0.09448826313 -0.3595932126 -0.1793763041 2.348204041e-38
0.09804205596 -0.1406483948 -0.1767720729 2.348204041e-38
0.1063497365 -0.2832161784 -0.1740880758 2.348204041e-38
-0.01031790487 -0.1744844615 -0.1856250018 2.348204041e-38
0.01118840743 -0.308050096 -0.1893711835 2.348204041e-38
0.008842786774 -0.09187704325 -0.1835655421 2.348204041e-38
0.02334640548 -0.2226903439 -0.1891334653 2.348204041e-38
0.002427008701 -0.05067459866 -0.1802210808 2.348204041e-38
0.03442566097 -0.1509339064 -0.1841436028 2.348204041e-38
0.03666555509 -0.01407106221 -0.183337912 2.348204041e-38
0.06502865255 -0.07395298779 -0.1811526418 2.348204041e-38
0.1497214437 -0.345416218 -0.1766128987 2.348204041e-38
0.1497361809 -0.4054423869 -0.1786416769 2.348204041e-38
0.1569100171 -0.2512075603 -0.1765921563 2.348204041e-38
0.1590099782 -0.3840797544 -0.178958714 2.348204041e-38
0.06598868966 -0.2529773712 -0.1841852665 2.348204041e-38
0.08538261056 -0.3376366496 -0.1837850064 2.348204041e-38
0.09258417785 -0.1432564557 -0.1771391034 2.348204041e-38
0.1043758243 -0.2795908451 -0.1797688752 2.348204041e-38
0.1085731164 -0.2808217108 -0.1836905628 2.348204041e-38
0.1330389977 -0.3527917266 -0.1825124621 2.348204041e-38
0.1378280073 -0.1767542809 -0.1763175577 2.348204041e-38
0.1443278044 -0.3081883788 -0.1793560833 2.348204041e-38
-0.001787459361 -0.1023502424 -0.1772498786 2.348204041e-38
0.02216036245 -0.2604365945 -0.182396695 2.348204041e-38
0.02148649655 -0.01622758061 -0.1772503555 2.348204041e-38
0.03798963875 -0.1575068831 -0.1813655794 2.348204041e-38
0.08262259513 -0.2661923468 -0.1716349125 2.348204041e-38
0.1076023057 -0.3360317647 -0.1744497269 2.348204041e-38
0.1118011326 -0.1709825695 -0.1680705845 2.348204041e-38
0.1258028746 -0.2847279608 -0.1702910513 2.348204041e-38
-0.01304252166 -0.1724573672 -0.1735274941 2.348204041e-38
-0.002943583066 -0.3181335926 -0.1776728928 2.348204041e-38
-0.006651620381 -0.08471255749 -0.1717169434 2.348204041e-38
-0.001744363573 -0.2268699855 -0.1764381081 2.348204041e-38
0.01918358356 -0.05947159231 -0.1761138588 2.348204041e-38
0.0493703261 -0.1691612601 -0.1781976223 2.348204041e-38
0.04869208112 -0.00769238919 -0.1789174974 2.348204041e-38
0.07465794683 -0.08685760945 -0.1780065149 2.348204041e-38
0.1045947745 -0.3002877831 -0.1837063432 2.348204041e-38
0.120526962 -0.3596579731 -0.1829801649 2.348204041e-38
0.1259586066 -0.2015485168 -0.176978454 2.348204041e-38
0.1306449622 -0.3289621472 -0.181370914 2.348204041e-38
0.09397725016 -0.2648195028 -0.1806768179 2.348204041e-38
0.1177302971 -0.3446119726 -0.1794124693 2.348204041e-38
0.1190833673 -0.1498829275 -0.1742363423 2.348204041e-38
0.1253135651 -0.2934573591 -0.1764380038 2.348204041e-38
0.007763333619 -0.1522477269 -0.176328063 2.348204041e-38
0.03075715899 -0.308865875 -0.1836523563 2.348204041e-38
0.02388695255 -0.06667500734 -0.1813351959 2.348204041e-38
0.03975694254 -0.2079702318 -0.1810065061 2.348204041e-38
0.1268200576 -0.3144417703 -0.1842399389 2.348204041e-38
0.1427182555 -0.3714748323 -0.1825150251 2.348204041e-38
0.1458260566 -0.2174570113 -0.180222109 2.348204041e-38
0.1453771144 -0.3489406109 -0.182994172 2.348204041e-38
0.02677273564 -0.1913190484 -0.1728263497 2.348204041e-38
0.04981107265 -0.3411376178 -0.1797230989 2.348204041e-38
0.04443215951 -0.09990654886 -0.1757219285 2.348204041e-38
0.05219203979 -0.2465381324 -0.176610738 2.348204041e-38
0.06408237666 0.03269142658 -0.1846255809 2.348204041e-38
0.1234761551 -0.01024802029 -0.1873491853 2.348204041e-38
0.107263796 0.03515446931 -0.1892784387 2.348204041e-38
0.169393301 0.0349490568 -0.1852918118 2.348204041e-38
-9.748102457e-05 -0.1305544674 -0.1789162308 2.348204041e-38
0.00961830467 -0.2844290137 -0.1869311333 2.348204041e-38
0.001903562574 -0.04922508448 -0.1820473671 2.348204041e-38
0.01130029745 -0.1880046427 -0.1880081594 2.348204041e-38
0.1126939356 -0.2513362467 -0.1780617684 2.348204041e-38
0.1363146007 -0.3320983946 -0.1791891307 2.348204041e-38
0.1352750957 -0.1385047138 -0.1761151105 2.348204041e-38
0.1427212954 -0.2791140676 -0.1762750596 2.348204041e-38
0.008329502307 -0.1021684259 -0.1899313927 2.348204041e-38
0.0288727209 -0.2440466583 -0.1948962659 2.348204041e-38
0.02849508077 -0.02417638153 -0.193012014 2.348204041e-38
0.0431773141 -0.1501310617 -0.194661051 2.348204041e-38
0.1017357931 -0.294018358 -0.1840201616 2.348204041e-38
0.1151395589 -0.3640752137 -0.1839333773 2.348204041e-38
0.1268305331 -0.1930710226 -0.1751681417 2.348204041e-38
0.1276737154 -0.3306824565 -0.1808612347 2.348204041e-38
0.08213293552 0.0188364163 -0.1862356961 2.348204041e-38
0.1226187944 -0.05636780336 -0.1856173128 2.348204041e-38
0.1184374988 0.03211981803 -0.1911956072 2.348204041e-38
