# .PCD v0.7 - Point Cloud Data file format
VERSION 0.7
FIELDS x y z rgb
SIZE 4 4 4 4
TYPE F F F F
COUNT 1 1 1 1
WIDTH 835
HEIGHT 1
VIEWPOINT 0 0 0 1 0 0 0
POINTS 835
DATA ascii
-0.1473012865 -0.3093009293 -0.3003422022 1.184631237e-38
-0.1477972567 -0.3139883876 -0.221267581 1.184631237e-38
-0.1550135016 -0.3737432957 -0.2441162765 1.184631237e-38
-0.1582551003 -0.2442305088 -0.2070982903 1.184631237e-38
-0.1528894007 -0.4360103905 -0.2031189203 1.184631237e-38
-0.1146890894 -0.4139261842 -0.2743832767 1.184631237e-38
-0.1028027758 -0.4451168478 -0.3150928319 1.184631237e-38
-0.1108539775 -0.3682875633 -0.2836535573 1.184631237e-38
-0.1099065244 -0.4694961011 -0.2590596378 1.184631237e-38
0.2952638865 -0.4817233086 0.01988171972 1.184631237e-38
0.3592786491 -0.4871584177 -0.05748016387 1.184631237e-38
0.3575931191 -0.4847545326 0.01309920289 1.184631237e-38
0.3376138508 -0.4876210392 0.08515582979 1.184631237e-38
0.3431977034 -0.4278902113 -0.3883098066 1.184631237e-38
0.351772517 -0.4581766725 -0.3794948161 1.184631237e-38
0.3430097401 -0.366548419 -0.3979175091 1.184631237e-38
0.3554173708 -0.4831874669 -0.3728170395 1.184631237e-38
0.13531214 -0.489903599 0.07808265835 1.184631237e-38
0.2360970378 -0.491786927 -0.02094428986 1.184631237e-38
0.2762672603 -0.4885908067 0.04046896845 1.184631237e-38
0.2388567328 -0.4884818494 0.1315198988 1.184631237e-38
0.04530512542 -0.4092192948 0.2925721109 1.184631237e-38
0.07055877894 -0.4252353013 0.2690615356 1.184631237e-38
0.07681696862 -0.39511621 0.2908700109 1.184631237e-38
0.0710606277 -0.4488557577 0.2911066711 1.184631237e-38
0.05944910645 -0.3749908209 -0.4184134603 1.184631237e-38
0.06523748487 -0.4355457723 -0.4234618843 1.184631237e-38
0.06816270947 -0.3180732131 -0.4204958677 1.184631237e-38
0.07059185952 -0.4810582995 -0.4146842659 1.184631237e-38
0.2230531275 -0.484660387 0.08491960168 1.184631237e-38
0.3091893792 -0.489405185 -0.03137813881 1.184631237e-38
0.3292407691 -0.4858098626 0.05985080451 1.184631237e-38
0.2894504964 -0.4881408513 0.1434815824 1.184631237e-38
-0.167245388 -0.2103097737 -0.2768983841 1.184631237e-38
-0.1529824138 -0.2309591174 -0.2862416804 1.184631237e-38
-0.1482497156 -0.2124403119 -0.2623003125 1.184631237e-38
-0.154625237 -0.2770524025 -0.2685747445 1.184631237e-38
0.09589266032 -0.3997886181 0.2983424366 1.184631237e-38
0.128064543 -0.4091219306 0.2712679803 1.184631237e-38
0.1436689794 -0.3877573609 0.2848890126 1.184631237e-38
0.128331244 -0.437094152 0.29087165 1.184631237e-38
0.1107624993 -0.4849888086 0.1847390383 1.184631237e-38
0.2188774943 -0.4897326827 0.05042972416 1.184631237e-38
0.2534587681 -0.4872432649 0.1362674534 1.184631237e-38
0.1997917891 -0.4872293174 0.2275977433 1.184631237e-38
-0.008070146665 -0.4868934751 -0.1838848591 1.184631237e-38
0.06463378668 -0.4914983809 -0.2608509958 1.184631237e-38
0.1422888935 -0.4855286181 -0.2435523719 1.184631237e-38
0.08704441041 -0.4892068505 -0.0955234915 1.184631237e-38
0.1356001496 -0.3907198012 0.2899806201 1.184631237e-38
0.1549249291 -0.4345288277 0.2940398157 1.184631237e-38
0.154791981 -0.3374989033 0.2844106853 1.184631237e-38
0.1622212231 -0.4616740048 0.2784107327 1.184631237e-38
0.05044578016 -0.2423535585 0.1815606207 1.184631237e-38
0.05488845706 -0.2834601402 0.1906942576 1.184631237e-38
0.04921606183 -0.2171278298 0.1875876635 1.184631237e-38
0.05480378866 -0.3356850743 0.1835865527 1.184631237e-38
-0.1567601264 -0.2361656129 -0.2552068532 1.184631237e-38
-0.155172646 -0.2745708525 -0.2554443777 1.184631237e-38
-0.1580323875 -0.2249760926 -0.240697071 1.184631237e-38
-0.1557867825 -0.3351126909 -0.2412556261 1.184631237e-38
0.09785982221 -0.4850527048 -0.01395565271 1.184631237e-38
0.1905952394 -0.4891374409 -0.1114950851 1.184631237e-38
0.2313657403 -0.4858629704 -0.05626375973 1.184631237e-38
0.1899987757 -0.4872250259 0.05213644356 1.184631237e-38
-0.1749514937 -0.4825465083 -0.3547686338 1.184631237e-38
-0.1029470712 -0.4883123636 -0.3873405159 1.184631237e-38
-0.01435325015 -0.4846268892 -0.4012877047 1.184631237e-38
-0.1039388776 -0.4889986217 -0.2836212814 1.184631237e-38
-0.04645238072 -0.3977004886 -0.4119887352 1.184631237e-38
-0.04147559404 -0.4542699158 -0.4205787778 1.184631237e-38
-0.01537562069 -0.3360923231 -0.4069424868 1.184631237e-38
-0.0196389351 -0.4865798354 -0.3975254893 1.184631237e-38
0.09123850614 -0.4845366478 0.2661924958 1.184631237e-38
0.1774987578 -0.488196224 0.1957067102 1.184631237e-38
0.2099057436 -0.4883042574 0.2363157868 1.184631237e-38
0.1771810055 -0.4875705838 0.2742674947 1.184631237e-38
0.06671126932 -0.2639583349 0.2725678086 1.184631237e-38
0.08201341331 -0.3019942045 0.2716707587 1.184631237e-38
0.07987716794 -0.2344672382 0.2753682733 1.184631237e-38
0.08213675767 -0.3784558773 0.2756390274 1.184631237e-38
0.05437472463 -0.2890375257 0.21722655 1.184631237e-38
0.06781165302 -0.3400472403 0.2145406902 1.184631237e-38
0.05755231529 -0.2279243767 0.2203511596 1.184631237e-38
0.06396076083 -0.4136930108 0.2141110301 1.184631237e-38
0.1225152537 -0.3173794448 0.1698367894 1.184631237e-38
0.13337484 -0.3670644462 0.171398744 1.184631237e-38
0.132966578 -0.2660936713 0.1745473146 1.184631237e-38
0.1263762414 -0.4228579402 0.1736232489 1.184631237e-38
-0.103430979 -0.2277657986 -0.1943512112 1.184631237e-38
-0.1019963697 -0.2723405063 -0.1848609298 1.184631237e-38
-0.09476251155 -0.2098660171 -0.173223123 1.184631237e-38
-0.1052862629 -0.3460231125 -0.1779204458 1.184631237e-38
0.3144845068 -0.4747715294 0.09628924727 1.184631237e-38
0.372977078 -0.4704954326 0.03632387519 1.184631237e-38
0.3654545248 -0.459102124 0.08253285289 1.184631237e-38
0.3509248197 -0.4613041878 0.113560617 1.184631237e-38
-0.1441558152 -0.3072862327 -0.2540179193 1.184631237e-38
-0.1405827999 -0.3312557042 -0.2691386044 1.184631237e-38
-0.1351162493 -0.3115448058 -0.239416793 1.184631237e-38
-0.1447044611 -0.3641792238 -0.2359636128 1.184631237e-38
-0.1007162109 -0.4171349704 -0.4250650704 1.184631237e-38
-0.1017025411 -0.4653938711 -0.4332234561 1.184631237e-38
-0.0788763091 -0.3576504588 -0.4216857851 1.184631237e-38
-0.08451169729 -0.4878836572 -0.4093885124 1.184631237e-38
-0.07657047361 -0.3172745109 0.2246727347 1.184631237e-38
-0.04497155547 -0.3321575224 0.2054285109 1.184631237e-38
-0.03819356486 -0.3180612326 0.2303164899 1.184631237e-38
-0.05961167067 -0.3581225872 0.2310519218 1.184631237e-38
0.1431254447 -0.3042559624 0.2020852864 1.184631237e-38
0.1537432671 -0.3478835225 0.1968787313 1.184631237e-38
0.1495454907 -0.2654321194 0.2064258754 1.184631237e-38
0.1422928572 -0.4095411897 0.2026011795 1.184631237e-38
0.1136029586 -0.4887394011 0.1242070645 1.478322936e-38
0.22271052 -0.4900281131 0.005224009976 1.478322936e-38
0.2524358034 -0.4866791964 0.08564797789 1.478322936e-38
0.2149311602 -0.487747401 0.1734744906 1.478322936e-38
-0.01118280366 -0.3539439738 0.3084884584 1.478322936e-38
0.01247407123 -0.3621613085 0.2872060537 1.478322936e-38
0.01527803391 -0.3416728973 0.3030520976 1.478322936e-38
-0.0002684406936 -0.3954630494 0.3132986128 1.478322936e-38
0.01843206584 -0.2101340592 0.1755365282 1.478322936e-38
0.02159206197 -0.2412316203 0.1851027757 1.478322936e-38
0.02073569596 -0.2161350846 0.2027084678 1.478322936e-38
0.02720152959 -0.2849250734 0.1897926331 1.478322936e-38
-0.132147342 -0.41770944 -0.2197521627 1.478322936e-38
-0.119332023 -0.4355832338 -0.2409092784 1.478322936e-38
-0.1174378619 -0.4043257535 -0.2279254347 1.478322936e-38
-0.1217112765 -0.4632850289 -0.2153976709 1.478322936e-38
0.08791957051 -0.2814937532 0.1324943602 1.478322936e-38
0.1088319048 -0.3086880445 0.1298066676 1.478322936e-38
0.1080365553 -0.2652205229 0.1426175088 1.478322936e-38
0.0950389877 -0.3391388655 0.141352877 1.478322936e-38
0.08146741986 -0.4859170914 0.1522164494 1.478322936e-38
0.2005028725 -0.4902105927 0.02032750286 1.478322936e-38
0.2306510806 -0.4875957668 0.1099739373 1.478322936e-38
0.1824738979 -0.4866790771 0.1975653917 1.478322936e-38
-0.1286424398 -0.2475337088 -0.2426492125 1.478322936e-38
-0.1177062616 -0.2743683457 -0.2462021858 1.478322936e-38
-0.116953969 -0.2522265017 -0.2235614359 1.478322936e-38
-0.1250076294 -0.3153063357 -0.2302296907 1.478322936e-38
0.1329960823 -0.3003835678 0.1963324249 1.478322936e-38
0.1469126344 -0.3446921408 0.1960451454 1.478322936e-38
0.1432178617 -0.2432047129 0.1937453151 1.478322936e-38
0.1371515393 -0.3978325725 0.1894066036 1.478322936e-38
-0.08201325685 -0.4838735163 -0.2671853602 1.478322936e-38
-0.007114652544 -0.4881483018 -0.333424449 1.478322936e-38
0.06924039125 -0.4852496982 -0.314224273 1.478322936e-38
-0.01092841104 -0.4877744913 -0.1782746613 1.478322936e-38
-0.02565256692 -0.4815922379 -0.2072791904 1.478322936e-38
0.0524449572 -0.489246726 -0.2877021432 1.478322936e-38
0.12809816 -0.4855444729 -0.2487950921 1.478322936e-38
0.08184631169 -0.4891678989 -0.1284262985 1.478322936e-38
-0.1559527516 -0.2457681298 -0.2322977334 1.478322936e-38
-0.1594699323 -0.2953658104 -0.235689193 1.478322936e-38
-0.1608268023 -0.2291869223 -0.2120912969 1.478322936e-38
-0.1602305472 -0.3712104261 -0.2159261256 1.478322936e-38
-0.1199083626 -0.208819598 -0.08312469721 1.478322936e-38
-0.1273521036 -0.2477673292 -0.08810684085 1.478322936e-38
-0.1190139279 -0.2087987363 -0.05800198764 1.478322936e-38
-0.125169903 -0.3122507334 -0.06560722739 1.478322936e-38
-0.08651317656 -0.1991301775 -0.004528362304 1.478322936e-38
-0.08722025901 -0.2409177423 -0.01199162193 1.478322936e-38
-0.08731067926 -0.1951522231 0.0137943197 1.478322936e-38
-0.09101648629 -0.3046501279 0.009003574029 1.478322936e-38
0.06332412362 -0.3078687191 0.1793967336 1.478322936e-38
0.07670683414 -0.3508074582 0.1788456589 1.478322936e-38
0.07106794417 -0.2577982843 0.1919632256 1.478322936e-38
0.06856909394 -0.4108764529 0.1853531301 1.478322936e-38
0.08438307047 -0.4837779105 -0.001208772883 1.478322936e-38
0.1825397313 -0.4881625772 -0.1113636419 1.478322936e-38
0.2320051193 -0.485170424 -0.04027467221 1.478322936e-38
0.1844929457 -0.4865149856 0.06891783327 1.478322936e-38
0.02353584021 -0.3691082299 0.1191269755 1.478322936e-38
0.03919155896 -0.3904344141 0.1112749577 1.478322936e-38
0.03304842114 -0.3514879644 0.1269278079 1.478322936e-38
0.03008928895 -0.4281788468 0.1261798441 1.478322936e-38
-0.1270374358 -0.4858557582 -0.2527761757 1.478322936e-38
-0.03980199248 -0.489412576 -0.3269024491 1.478322936e-38
0.04433743656 -0.4864168763 -0.3121691346 1.478322936e-38
-0.04002890736 -0.4883310497 -0.1821465194 1.478322936e-38
-0.1319048405 -0.2651651502 -0.1891428083 1.478322936e-38
-0.116741918 -0.2830584943 -0.2008969188 1.478322936e-38
-0.1060220897 -0.2722010911 -0.1735390276 1.478322936e-38
-0.1248531565 -0.3054427505 -0.1779211313 1.478322936e-38
-0.1531726122 -0.4847007692 -0.2984023988 1.478322936e-38
-0.07552453876 -0.489739269 -0.3605691493 1.478322936e-38
0.00959565863 -0.4861322343 -0.3486818373 1.478322936e-38
-0.0766928643 -0.4891133308 -0.2127147466 1.478322936e-38
0.1030321345 -0.487585485 0.3211772144 1.478322936e-38
0.2117378414 -0.4897905886 0.2531801164 1.478322936e-38
0.2300033569 -0.4871892631 0.2786127329 1.478322936e-38
0.1897137165 -0.4858017266 0.3165663183 1.478322936e-38
-0.04883374646 -0.4097658396 0.216712296 1.478322936e-38
-0.02510723844 -0.4201745689 0.1888958365 1.478322936e-38
-0.01446520537 -0.4028380215 0.2161142677 1.478322936e-38
-0.02733347379 -0.4422667921 0.2188127041 1.478322936e-38
-0.1280904114 -0.3770309389 -0.278298825 1.478322936e-38
-0.1358147562 -0.4210880101 -0.2876344621 1.478322936e-38
-0.1428491473 -0.3077932 -0.2730410993 1.478322936e-38
-0.1360604912 -0.4698054194 -0.2700420618 1.478322936e-38
-0.009837949648 -0.4860517383 -0.09392873198 1.478322936e-38
0.07985426486 -0.4902018607 -0.1953127384 1.478322936e-38
0.1444534659 -0.4862286747 -0.1298661828 1.478322936e-38
0.09262789041 -0.4878103733 -0.01422878914 1.478322936e-38
-0.06268969923 -0.3630414605 0.3295430243 1.478322936e-38
-0.02372247353 -0.3765400648 0.3314870894 1.478322936e-38
-0.01386397146 -0.36332798 0.3333054781 1.478322936e-38
-0.03173530102 -0.4063463807 0.3393592238 1.478322936e-38
-0.1296123564 -0.3865779936 -0.3538569808 1.478322936e-38
-0.1182177365 -0.4389867187 -0.3737440407 1.478322936e-38
-0.1223652214 -0.3144160211 -0.3641704023 1.478322936e-38
-0.1290251017 -0.4777648151 -0.3457090855 1.478322936e-38
-0.1118527725 -0.4826453626 -0.259575367 1.478322936e-38
-0.04091246426 -0.4883273542 -0.3211824298 1.478322936e-38
0.03318846971 -0.4841173291 -0.3133241832 1.478322936e-38
-0.03186073899 -0.4891815186 -0.1787473261 1.478322936e-38
-0.1304084659 -0.4094162583 -0.2605552673 1.478322936e-38
-0.1157960445 -0.4317910075 -0.3019178808 1.478322936e-38
-0.1143631116 -0.3855458796 -0.2734716833 1.478322936e-38
-0.1209805235 -0.4617003202 -0.2480584979 1.478322936e-38
-0.007750086486 -0.4847992361 -0.1376907676 1.478322936e-38
0.08784984797 -0.4892032743 -0.2472491413 1.478322936e-38
0.1447429657 -0.4869637787 -0.1704867482 1.478322936e-38
0.09552510828 -0.487337172 -0.06027606875 1.478322936e-38
-0.03569139913 -0.4865550697 -0.206522733 1.478322936e-38
0.05551864952 -0.4897934794 -0.3074995279 1.478322936e-38
0.1455031633 -0.485637784 -0.2638529837 1.478322936e-38
0.08375570178 -0.4878094494 -0.1253454983 1.478322936e-38
-0.1514126509 -0.3586803377 -0.2484025061 1.478322936e-38
-0.1625612378 -0.4039694965 -0.260773927 1.478322936e-38
-0.1628775597 -0.2993047833 -0.2392731458 1.478322936e-38
-0.1552080214 -0.4526485205 -0.2368775755 1.478322936e-38
0.0930127129 -0.4871253371 0.03994198889 1.478322936e-38
0.1900977194 -0.489969641 -0.07676713914 1.478322936e-38
0.2299927175 -0.4862004519 -0.009683202952 1.478322936e-38
0.1948533654 -0.4866172969 0.09559930861 1.478322936e-38
-0.00484393537 -0.3998922408 0.2542979717 1.478322936e-38
0.02998637408 -0.4104104936 0.2325305045 1.478322936e-38
0.02194836363 -0.3923216462 0.2515525222 1.478322936e-38
0.01074619591 -0.4393615425 0.2546202242 1.478322936e-38
-0.07124207914 -0.2174084485 0.1835037917 1.771655483e-38
-0.05822301656 -0.2571583092 0.1918053031 1.771655483e-38
-0.06102342531 -0.2181729078 0.1931279004 1.771655483e-38
-0.06070953608 -0.3286467791 0.194603458 1.771655483e-38
-0.1073646396 -0.3311200142 0.2288703024 1.771655483e-38
-0.09028340876 -0.3559433222 0.2105270028 1.771655483e-38
-0.0904353559 -0.3111759126 0.2326079011 1.771655483e-38
-0.09396332502 -0.4107075632 0.2366619706 1.771655483e-38
0.01403013617 -0.3949569762 0.1378764212 1.771655483e-38
0.02946380153 -0.4065158963 0.1219987571 1.771655483e-38
0.02920586243 -0.3909887671 0.1461706609 1.771655483e-38
0.02209383994 -0.4403338134 0.1426330805 1.771655483e-38
-0.09024012834 -0.228838861 -0.01619911939 1.771655483e-38
-0.09119530022 -0.2709573209 -0.02341102436 1.771655483e-38
-0.09336609393 -0.2203059196 0.002235366032 1.771655483e-38
-0.09669744968 -0.3321305215 -0.0003189556301 1.771655483e-38
0.2973082066 -0.4787209928 0.15425466 1.771655483e-38
0.3627940416 -0.4775149226 0.08357729018 1.771655483e-38
0.354198277 -0.4626380801 0.1245456934 1.771655483e-38
0.3351211548 -0.4681433439 0.1683645248 1.771655483e-38
-0.1319209933 -0.3053942919 -0.2264398485 1.771655483e-38
-0.110081479 -0.335146904 -0.2273781449 1.771655483e-38
-0.1136787459 -0.3147369027 -0.2008755654 1.771655483e-38
-0.1265500188 -0.3732737005 -0.2110144943 1.771655483e-38
0.2324463725 -0.43408373 -0.4333361089 1.771655483e-38
0.241211921 -0.4649919868 -0.4271870852 1.771655483e-38
0.2488108575 -0.381246984 -0.4301009476 1.771655483e-38
0.2469450533 -0.4853528142 -0.4155423939 1.771655483e-38
-0.0405901894 -0.298489362 0.04010183364 1.771655483e-38
-0.03977793455 -0.3343757689 0.03338284791 1.771655483e-38
-0.04438618571 -0.2577067316 0.04842427373 1.771655483e-38
-0.04040372744 -0.4025630653 0.04946572334 1.771655483e-38
0.358412385 -0.4824206829 0.05389364809 1.771655483e-38
0.4008193016 -0.4899305999 -0.01105303504 1.771655483e-38
0.3927296102 -0.4845161736 0.04394988716 1.771655483e-38
0.3785880804 -0.4863275588 0.09590732306 1.771655483e-38
-0.143473506 -0.4207234979 -0.2105591446 1.771655483e-38
-0.1307932884 -0.4445204437 -0.2227550745 1.771655483e-38
-0.142275691 -0.4009918869 -0.2171440423 1.771655483e-38
-0.1359548271 -0.4727672338 -0.197640121 1.771655483e-38
0.0005032233894 -0.2920402884 0.3014454842 1.771655483e-38
0.01923171431 -0.3066568673 0.2959631681 1.771655483e-38
0.02705677226 -0.2949698567 0.3047469258 1.771655483e-38
0.01350934431 -0.3566019833 0.310153842 1.771655483e-38
-0.04850507155 -0.3564105928 0.3250401318 1.771655483e-38
-0.02132855356 -0.3752070963 0.3091666698 1.771655483e-38
-0.02003375813 -0.3413428366 0.3255003393 1.771655483e-38
-0.02524114773 -0.4130333662 0.3311195672 1.771655483e-38
-0.04524344206 -0.3844895065 0.1567068696 1.771655483e-38
-0.0321085453 -0.4129273295 0.1435167342 1.771655483e-38
-0.03959289193 -0.3403083682 0.1596282721 1.771655483e-38
-0.03429284692 -0.4524177015 0.1622556299 1.771655483e-38
0.05961758643 -0.4856950343 0.1208231449 1.771655483e-38
0.157507062 -0.4884410799 0.003190852702 1.771655483e-38
0.188547492 -0.4862426519 0.08513522893 1.771655483e-38
0.1396140456 -0.485787183 0.1649860889 1.771655483e-38
-0.128588587 -0.2535246313 -0.1614249349 1.771655483e-38
-0.1322863251 -0.2896270454 -0.1570538878 1.771655483e-38
-0.1253205538 -0.2503896058 -0.1454944611 1.771655483e-38
-0.1318002939 -0.336312145 -0.1530228108 1.771655483e-38
0.008624937385 -0.4002546668 0.1533503681 1.771655483e-38
0.03550509363 -0.4071229696 0.1344346553 1.771655483e-38
0.03627683222 -0.3937622905 0.1615954787 1.771655483e-38
0.02290344238 -0.4362297952 0.160203144 1.771655483e-38
0.1372537613 -0.3359515667 0.2017276585 1.771655483e-38
0.1467706859 -0.3745739758 0.1979836971 1.771655483e-38
0.1442563236 -0.2940383554 0.2047459185 1.771655483e-38
0.139323324 -0.4253976047 0.2032314241 1.771655483e-38
0.05307625234 -0.4881747365 0.3139102161 1.771655483e-38
0.1505294144 -0.4908974767 0.2094121724 1.771655483e-38
0.1804653108 -0.4872597158 0.2738372386 1.771655483e-38
0.1307065487 -0.486851871 0.3250603974 1.771655483e-38
-0.13203758 -0.3001742065 -0.1812193394 1.771655483e-38
-0.1352096498 -0.3483164907 -0.1790670156 1.771655483e-38
-0.1358180642 -0.2774065435 -0.1728441715 1.771655483e-38
-0.1369691044 -0.4198028147 -0.1750120819 1.771655483e-38
-0.06229695305 -0.2985318005 0.2165841758 1.771655483e-38
-0.04934872687 -0.3291109204 0.2037412673 1.771655483e-38
-0.05284077674 -0.2787982821 0.2199633271 1.771655483e-38
-0.05972871184 -0.3705353439 0.2196357101 1.771655483e-38
0.22864452 -0.48133865 0.2073747516 1.771655483e-38
0.299970448 -0.4861571491 0.1455057114 1.771655483e-38
0.3014883995 -0.4731288552 0.1699567139 1.771655483e-38
0.285278827 -0.4693180919 0.2140925676 1.771655483e-38
-0.07870608568 -0.3503839672 -0.02678661607 1.771655483e-38
-0.06584827602 -0.3718360066 -0.05536170676 1.771655483e-38
-0.07434369624 -0.3232333362 -0.01924923994 1.771655483e-38
-0.07742795348 -0.4249975383 -0.02476983145 1.771655483e-38
-0.04714988172 -0.2593511343 -0.006582213566 1.771655483e-38
-0.02697535045 -0.2700004876 -0.02380730025 1.771655483e-38
-0.02209316008 -0.2682471871 0.003832770512 1.771655483e-38
-0.04154773802 -0.2994623482 -0.001821661368 1.771655483e-38
-0.1411913186 -0.3907919228 -0.2270296663 1.771655483e-38
-0.1441830844 -0.4315079749 -0.2554888725 1.771655483e-38
-0.1491141319 -0.3216373324 -0.2247912288 1.771655483e-38
-0.1425957084 -0.4712126851 -0.2089060843 1.771655483e-38
0.03895054758 -0.4882652164 0.09763242304 1.771655483e-38
0.1133229062 -0.4887764156 -0.04495285451 1.771655483e-38
0.1617875397 -0.4859755039 0.04609432071 1.771655483e-38
0.124738358 -0.4858022928 0.1482455432 1.771655483e-38
-0.127368629 -0.3610777557 -0.09176120162 1.771655483e-38
-0.1150951162 -0.3928343952 -0.1060597226 1.771655483e-38
-0.1282730699 -0.3235390484 -0.07438547164 1.771655483e-38
-0.1252194941 -0.4395065308 -0.07747083902 1.771655483e-38
-0.1276179254 -0.404283911 -0.1818844378 1.771655483e-38
-0.1320110261 -0.4501225352 -0.2198085636 1.771655483e-38
-0.1366873384 -0.3396938145 -0.1804682314 1.771655483e-38
-0.1338254511 -0.4755389392 -0.1612524837 1.771655483e-38
0.2825716734 -0.4841605723 0.1098230332 1.771655483e-38
0.347250551 -0.4860477448 0.02139958926 1.771655483e-38
0.356641829 -0.4855656326 0.08721442521 1.771655483e-38
0.3190726936 -0.4839010835 0.1571071446 1.771655483e-38
-0.0772895664 -0.4333805144 -0.2531352639 1.771655483e-38
-0.07982178032 -0.4656510353 -0.2993260622 1.771655483e-38
-0.08556631207 -0.3889913857 -0.2681310475 1.771655483e-38
-0.08278681338 -0.4806164503 -0.2228944749 1.771655483e-38
-0.07360232621 -0.3874567151 0.02046076395 1.771655483e-38
-0.07157337666 -0.4080985785 -0.01454031933 1.771655483e-38
-0.08017197996 -0.3570835888 0.02771953307 1.771655483e-38
-0.08155754209 -0.448669374 0.03202836215 1.771655483e-38
0.005356930196 -0.4856026471 0.1227602363 1.771655483e-38
0.1010702923 -0.4891645312 -0.018887043 1.771655483e-38
0.1506543159 -0.4841542244 0.08103868365 1.771655483e-38
0.08471339941 -0.4861077368 0.1865059286 1.771655483e-38
0.01920464262 -0.4845484197 0.1615062654 1.771655483e-38
0.1258045435 -0.4886541665 0.0265871156 1.771655483e-38
0.1565835774 -0.4844761193 0.1358501017 1.771655483e-38
0.09190010279 -0.4855892956 0.2256808877 1.771655483e-38
-0.1270636618 -0.4866684973 -0.1977862269 2.06466517e-38
-0.07237060368 -0.4906447232 -0.2824522853 2.06466517e-38
0.02389397472 -0.4884694219 -0.2536731362 2.06466517e-38
-0.06123472005 -0.4884320796 -0.122570917 2.06466517e-38
0.2119520903 -0.4386061728 0.1571384221 2.06466517e-38
0.2361198068 -0.4657491148 0.1168811023 2.06466517e-38
0.2292604744 -0.4018079937 0.1509212404 2.06466517e-38
0.2266198695 -0.4731216729 0.1667905003 2.06466517e-38
-0.1420370191 -0.3386558294 -0.03164473176 2.06466517e-38
-0.1268546879 -0.3639841676 -0.0530850403 2.06466517e-38
-0.1379141808 -0.3222239316 -0.01681484655 2.06466517e-38
-0.1386195719 -0.424179107 -0.01902201585 2.06466517e-38
-0.06053979695 -0.4843729138 0.2190270275 2.06466517e-38
0.0199416317 -0.4894327819 0.1092820615 2.06466517e-38
0.07332035899 -0.4865355492 0.201100409 2.06466517e-38
0.006515465677 -0.4854829311 0.2710041404 2.06466517e-38
-0.002006735653 -0.4836058319 0.08019370586 2.06466517e-38
0.1101189926 -0.4863462448 -0.02523103915 2.06466517e-38
0.1539954245 -0.4838126898 0.06362870336 2.06466517e-38
0.0859644413 -0.484038651 0.1494644284 2.06466517e-38
0.03613682091 -0.4839253128 -0.01475352794 2.06466517e-38
0.1221605316 -0.4881815612 -0.1145321056 2.06466517e-38
0.1730833054 -0.484531939 -0.04736204445 2.06466517e-38
0.1264434457 -0.4860250354 0.04712880403 2.06466517e-38
-0.04267571867 -0.2860792577 0.1960330606 2.06466517e-38
-0.02294391394 -0.3152596056 0.195472315 2.06466517e-38
-0.02779082954 -0.2722568512 0.2068909407 2.06466517e-38
-0.03121292405 -0.3625510633 0.2040848583 2.06466517e-38
-0.1526259482 -0.3573171198 -0.07787785679 2.06466517e-38
-0.1428661048 -0.4030433893 -0.09199517965 2.06466517e-38
-0.1505319178 -0.3039818704 -0.066956155 2.06466517e-38
-0.1495589912 -0.4519784451 -0.06174271554 2.06466517e-38
-0.1487393975 -0.2449037433 -0.08306021243 2.06466517e-38
-0.1429311037 -0.2739527822 -0.09317062795 2.06466517e-38
-0.1407376826 -0.2429795265 -0.06380652636 2.06466517e-38
-0.1498114169 -0.3099011183 -0.07344495505 2.06466517e-38
-0.04390377551 -0.4844049513 0.1760739833 2.06466517e-38
0.03350482881 -0.4880116582 0.05094964057 2.06466517e-38
0.07430064678 -0.4847504497 0.1495603919 2.06466517e-38
0.02163966373 -0.4864448011 0.229863435 2.06466517e-38
-0.1007700711 -0.3082624078 -0.03382588923 2.06466517e-38
-0.09675884992 -0.3537198007 -0.05294736847 2.06466517e-38
-0.1018355191 -0.2858255506 -0.01879282668 2.06466517e-38
-0.10252285 -0.4244842529 -0.0216325894 2.06466517e-38
-0.1454912126 -0.3087824881 -0.09441889077 2.06466517e-38
-0.1459766924 -0.3618276119 -0.105176352 2.06466517e-38
-0.1477876008 -0.2434498966 -0.08357603848 2.06466517e-38
-0.1529157907 -0.4274399579 -0.08563054353 2.06466517e-38
0.009318869561 -0.3411127031 0.1848494411 2.06466517e-38
0.01770615205 -0.3882513046 0.1797244251 2.06466517e-38
0.009559318423 -0.2812080979 0.1883666515 2.06466517e-38
0.01120561734 -0.4372009933 0.1838979572 2.06466517e-38
-0.1421693861 -0.2648686171 -0.08970821649 2.06466517e-38
-0.1455620825 -0.3099586666 -0.09398578852 2.06466517e-38
-0.1462953836 -0.2472124696 -0.06843133271 2.06466517e-38
-0.1514384747 -0.3771451414 -0.07909215242 2.06466517e-38
0.1503298879 -0.3685018122 0.2000523806 2.06466517e-38
0.157378763 -0.40871346 0.2004785538 2.06466517e-38
0.1488217711 -0.3072880208 0.1979641318 2.06466517e-38
0.1550007761 -0.4491923153 0.198344633 2.06466517e-38
-0.009266212583 -0.4846680462 -0.08754378557 2.06466517e-38
0.05709341168 -0.490442425 -0.1740523279 2.06466517e-38
0.1054993197 -0.4857135713 -0.1231685877 2.06466517e-38
0.06245601177 -0.4880078733 -0.003876056522 2.06466517e-38
-0.08112902939 -0.3284619451 0.3145731688 2.06466517e-38
-0.07573564351 -0.3626829386 0.3136794567 2.06466517e-38
-0.0777964294 -0.286787957 0.3146732748 2.06466517e-38
-0.07814848423 -0.4170857072 0.3168462217 2.06466517e-38
-0.1127483025 -0.2346779406 -0.08286465704 2.06466517e-38
-0.1103402451 -0.2603898048 -0.08822817355 2.06466517e-38
-0.1114492565 -0.241379261 -0.05043077841 2.06466517e-38
-0.1181931272 -0.2939026058 -0.0632385239 2.06466517e-38
-0.004007091746 -0.4847855568 0.02612852119 2.06466517e-38
0.08631958067 -0.4883499444 -0.07547494024 2.06466517e-38
0.1344441772 -0.4865276217 0.01500963606 2.06466517e-38
0.08019652218 -0.4866068959 0.09563660622 2.06466517e-38
-0.1414277703 -0.2575910389 -0.123349838 2.06466517e-38
-0.1476353407 -0.2966564894 -0.1146671474 2.06466517e-38
-0.1459991485 -0.253167361 -0.08687456697 2.06466517e-38
-0.1519956589 -0.3482982814 -0.1000079736 2.06466517e-38
-0.08827377856 -0.2986118793 0.02084173448 2.06466517e-38
-0.05901639163 -0.319726944 -0.007807988673 2.06466517e-38
-0.05789759755 -0.3016553819 0.02977700718 2.06466517e-38
-0.07760103792 -0.348379612 0.03256902844 2.06466517e-38
0.1243023351 -0.4419452846 0.3304499686 2.06466517e-38
0.1560111642 -0.4702009857 0.3391486704 2.06466517e-38
0.1468840539 -0.4046374559 0.324796766 2.06466517e-38
0.1569520235 -0.4656872451 0.3136581182 2.06466517e-38
-0.06724428385 -0.4847122729 0.1543270648 2.06466517e-38
0.02170860022 -0.487039566 0.03870812058 2.06466517e-38
0.08418453485 -0.4853827655 0.1377396733 2.06466517e-38
0.01382563263 -0.4868596196 0.2114619017 2.06466517e-38
-0.08289679885 -0.2749508321 -0.05960907787 2.06466517e-38
-0.08168971539 -0.3010336459 -0.07180608809 2.06466517e-38
-0.08348315954 -0.27382496 -0.03190282732 2.06466517e-38
-0.0877764225 -0.3430782557 -0.03953957558 2.06466517e-38
-0.1430312246 -0.486612767 -0.2374263257 2.06466517e-38
-0.09617491066 -0.4904229045 -0.2922998965 2.06466517e-38
-0.04057227075 -0.488896668 -0.269182086 2.06466517e-38
-0.1093183234 -0.4896511137 -0.1522031277 2.06466517e-38
0.08716776967 -0.4577988684 0.3221793175 2.06466517e-38
0.1324572265 -0.474314481 0.3062492609 2.06466517e-38
0.1415474117 -0.4434781373 0.3048600554 2.06466517e-38
0.1376623511 -0.4711619914 0.307500124 2.06466517e-38
-0.05658702552 -0.4849638939 0.3274281919 2.06466517e-38
0.02415908873 -0.488804996 0.2438212037 2.06466517e-38
0.08265340328 -0.4879080653 0.3079689145 2.06466517e-38
0.02755819261 -0.4862678051 0.3491106629 2.06466517e-38
-0.07527287304 -0.269785881 -0.04318779707 2.06466517e-38
-0.0713166371 -0.2979137897 -0.05838910863 2.06466517e-38
-0.07545802742 -0.2692101002 -0.01683824882 2.06466517e-38
-0.08102424443 -0.3465771377 -0.02767876536 2.06466517e-38
-0.07699002326 -0.2470377684 0.1853388101 2.06466517e-38
-0.06668948382 -0.2892871201 0.1907982379 2.06466517e-38
-0.0747449398 -0.2358799279 0.1989375502 2.06466517e-38
-0.07174052298 -0.3606490195 0.1994104683 2.06466517e-38
-0.110729523 -0.3150596321 -0.07695960253 2.06466517e-38
-0.1074040011 -0.3536578417 -0.08792752773 2.06466517e-38
-0.1111802831 -0.2917943001 -0.05337847769 2.06466517e-38
-0.1099015325 -0.4167431593 -0.05870112032 2.06466517e-38
-0.1220610067 -0.2671962976 -0.09718700498 2.06466517e-38
-0.1219649091 -0.309841007 -0.1045684218 2.06466517e-38
-0.1241407618 -0.2429133654 -0.08184292912 2.06466517e-38
-0.1298481971 -0.3805986643 -0.08925276995 2.06466517e-38
-0.06175525114 -0.2962677777 0.3190085888 2.06466517e-38
-0.03550140932 -0.3238947392 0.3223453462 2.06466517e-38
-0.03262298182 -0.2909576297 0.3175318837 2.06466517e-38
-0.04175929725 -0.3728302717 0.32299757 2.06466517e-38
-0.09635659307 -0.3879481852 -0.05611795932 2.348204041e-38
-0.09210859239 -0.4335517585 -0.08097305149 2.348204041e-38
-0.1037705541 -0.3376451731 -0.05231175572 2.348204041e-38
-0.1010324508 -0.4619023502 -0.04370871186 2.348204041e-38
-0.1005965024 -0.2851996422 0.22309798 2.348204041e-38
-0.08623574674 -0.3187941909 0.2206316441 2.348204041e-38
-0.1032290831 -0.2560751736 0.2258197963 2.348204041e-38
-0.09941341728 -0.3835526109 0.2321544886 2.348204041e-38
-0.06905579567 -0.392393738 0.3315440416 2.348204041e-38
-0.04875570536 -0.4221329987 0.3311201334 2.348204041e-38
-0.04623171687 -0.3696569502 0.322076261 2.348204041e-38
-0.03728802502 -0.4454884827 0.3235211372 2.348204041e-38
0.05885100365 -0.4459368289 0.3248987496 2.348204041e-38
0.09412637353 -0.467944324 0.3024733663 2.348204041e-38
0.08621759713 -0.4175982475 0.3123432696 2.348204041e-38
0.08976629376 -0.4609972835 0.3179021478 2.348204041e-38
-0.06765194982 -0.306817621 0.1939486116 2.348204041e-38
-0.06158476695 -0.3489944637 0.1915364414 2.348204041e-38
-0.07422554493 -0.2641777992 0.1965557486 2.348204041e-38
-0.06863996387 -0.4101552069 0.1976033002 2.348204041e-38
0.1403720677 -0.4402898848 0.1383700967 2.348204041e-38
0.1817753017 -0.4459634721 0.1002355814 2.348204041e-38
0.1840372384 -0.432711035 0.14540869 2.348204041e-38
0.1653414667 -0.4528701305 0.15752922 2.348204041e-38
0.223795265 -0.4786745012 0.07868409157 2.348204041e-38
0.2625849247 -0.4861412942 -0.007145097479 2.348204041e-38
0.2663973868 -0.4820899665 0.06839694083 2.348204041e-38
0.2487180829 -0.4827778935 0.127524063 2.348204041e-38
0.2150059044 -0.4788965285 0.1793324053 2.348204041e-38
0.266733855 -0.4859894216 0.0908338502 2.348204041e-38
0.2637208998 -0.4750241935 0.1573034674 2.348204041e-38
0.244389385 -0.4818160534 0.2059029192 2.348204041e-38
-0.04532309994 -0.4857135117 0.2731183767 2.348204041e-38
0.02863729 -0.4896220863 0.1601812541 2.348204041e-38
0.08207663149 -0.487046957 0.2553013861 2.348204041e-38
0.02223750204 -0.4865085483 0.3193808794 2.348204041e-38
-0.169454366 -0.3560075164 0.2438141704 2.348204041e-38
-0.1620667279 -0.401522547 0.2280480564 2.348204041e-38
-0.1711541414 -0.2963896394 0.2409382164 2.348204041e-38
-0.1667394638 -0.4477113485 0.246833086 2.348204041e-38
0.1953182518 -0.479257524 0.2075705975 2.348204041e-38
0.2543934286 -0.4878797829 0.1268513203 2.348204041e-38
0.2531586587 -0.4810590744 0.1813632995 2.348204041e-38
0.2325973809 -0.4827130437 0.2310617864 2.348204041e-38
-0.06436739862 -0.3274368048 0.2078306973 2.348204041e-38
-0.06551045179 -0.370336771 0.2010694444 2.348204041e-38
-0.07040414959 -0.2654336989 0.2077381611 2.348204041e-38
-0.06676955521 -0.4334498942 0.2097548544 2.348204041e-38
-0.05483413115 -0.4866900742 -0.09655017406 2.348204041e-38
0.0004462972283 -0.4892797768 -0.184716627 2.348204041e-38
0.06220324337 -0.4858791828 -0.1264257282 2.348204041e-38
-0.0004475824535 -0.4887394011 -0.001118719578 2.348204041e-38
0.1976086497 -0.4768644273 0.1460140347 2.348204041e-38
0.2476459444 -0.486425221 0.06899550557 2.348204041e-38
0.2532037795 -0.474565208 0.1251394451 2.348204041e-38
0.2291236818 -0.4848759174 0.1766777188 2.348204041e-38
-0.06576341391 -0.4849534631 0.1135483086 2.348204041e-38
0.03659320623 -0.4891635776 -0.006949085742 2.348204041e-38
0.1083976552 -0.4846245944 0.1006285548 2.348204041e-38
0.02553264797 -0.4866041839 0.1965823174 2.348204041e-38
-0.1514114738 -0.2145723999 0.103736788 2.348204041e-38
-0.1520526707 -0.2543596327 0.114129141 2.348204041e-38
-0.1559480131 -0.205742687 0.1245709658 2.348204041e-38
-0.1571346521 -0.3294553757 0.1233905107 2.348204041e-38
-0.1138851792 -0.4826983213 -0.3143743575 2.348204041e-38
-0.05623437837 -0.4888596237 -0.3529186845 2.348204041e-38
0.002079218626 -0.4853311181 -0.3600014746 2.348204041e-38
-0.05190350488 -0.4892329276 -0.2503945231 2.348204041e-38
-0.1400856972 -0.4619156122 -0.3652630448 2.348204041e-38
-0.1273142248 -0.4857250154 -0.398132354 2.348204041e-38
-0.08482706547 -0.4630163014 -0.4038189352 2.348204041e-38
-0.1176839024 -0.4877374768 -0.3394035697 2.348204041e-38
-0.04655045271 -0.4854938686 -0.04544342309 2.348204041e-38
0.03633899242 -0.4893968999 -0.1386941671 2.348204041e-38
0.08070918918 -0.4873136282 -0.06188389659 2.348204041e-38
0.03252459317 -0.4881306887 0.05424544215 2.348204041e-38
0.07154729962 -0.4323100746 0.1645550281 2.348204041e-38
0.1038251892 -0.4416601062 0.1444950998 2.348204041e-38
0.1030871049 -0.4255835116 0.1728651375 2.348204041e-38
0.09202319384 -0.4600633383 0.1718152314 2.348204041e-38
-0.1691403985 -0.201025784 0.1390129924 2.348204041e-38
-0.1562249064 -0.2254593372 0.1502611786 2.348204041e-38
-0.1545625329 -0.206040442 0.1592605859 2.348204041e-38
-0.1633416116 -0.2635670304 0.1587419063 2.348204041e-38
-0.1497744918 -0.354737401 -0.1638113111 2.348204041e-38
-0.1517394334 -0.4062410593 -0.1871215552 2.348204041e-38
-0.1552572846 -0.2814721763 -0.1628874689 2.348204041e-38
-0.1521989405 -0.4487865567 -0.157424733 2.348204041e-38
-0.1566073596 -0.2245176435 0.1641186923 2.348204041e-38
-0.1507879794 -0.2656955123 0.1702346057 2.348204041e-38
-0.154948175 -0.212644279 0.1750768423 2.348204041e-38
-0.1552745998 -0.3387550414 0.176750809 2.348204041e-38
-0.05915027112 -0.4842340648 -0.03889013454 2.348204041e-38
0.02031254396 -0.4884751141 -0.1223419309 2.348204041e-38
0.06925075501 -0.4873017967 -0.04678534716 2.348204041e-38
0.01515657827 -0.4878493547 0.0625666827 2.348204041e-38
-0.1420300007 -0.3751269877 -0.1563351601 2.348204041e-38
-0.1489722133 -0.4251657724 -0.1774249077 2.348204041e-38
-0.1582432985 -0.3088410199 -0.1449339539 2.348204041e-38
-0.1538260877 -0.4662787914 -0.1410180777 2.348204041e-38
-0.1499105096 -0.3290205002 0.3316747844 2.348204041e-38
-0.1424978971 -0.3523080349 0.3189485669 2.348204041e-38
-0.1448242515 -0.3015415072 0.3290780485 2.348204041e-38
-0.148065716 -0.4041562676 0.3401412666 2.348204041e-38
-0.1040808111 -0.4859611392 0.2746239603 2.348204041e-38
-0.01892644353 -0.4879811108 0.1935891658 2.348204041e-38
0.04421826452 -0.4865285158 0.2608570755 2.348204041e-38
-0.0207113903 -0.4859964848 0.3139386177 2.348204041e-38
-0.1630377769 -0.3776604831 0.06602084637 2.348204041e-38
-0.1646475196 -0.4227569103 0.05434636772 2.348204041e-38
-0.171118021 -0.3151422739 0.06520368904 2.348204041e-38
-0.1618271172 -0.4615783989 0.07325389236 2.348204041e-38
-0.1154169813 -0.4838397205 -0.2117381394 2.348204041e-38
-0.05797912925 -0.4881156981 -0.2950754464 2.348204041e-38
-0.02127017081 -0.4872194529 -0.2477392405 2.348204041e-38
-0.07058787346 -0.4884134233 -0.1296627074 2.348204041e-38
-0.178306669 -0.4140427113 -0.3101872504 2.348204041e-38
-0.1714642346 -0.4622917771 -0.3453826904 2.348204041e-38
-0.1725131571 -0.3575042784 -0.3251346648 2.348204041e-38
-0.1688022017 -0.4819464386 -0.3044538498 2.348204041e-38
-0.09644430876 -0.4853147566 -0.05218514428 2.348204041e-38
-0.01564879529 -0.4869743586 -0.1442167759 2.348204041e-38
0.03801103681 -0.4868792295 -0.04194781184 2.348204041e-38
-0.02859016694 -0.4859515131 0.0376624912 2.348204041e-38
-0.05855550244 -0.483322531 -0.03273345158 2.348204041e-38
0.0182845965 -0.4872290194 -0.1296868622 2.348204041e-38
0.05707258731 -0.486754775 -0.01975526288 2.348204041e-38
0.00400704518 -0.4849556386 0.06560601294 2.348204041e-38
-0.003664750606 -0.4376966953 -0.4177849591 2.346801622e-38
-0.008062917739 -0.4728451371 -0.4277437925 2.346801622e-38
0.01882684976 -0.3915785551 -0.4162111282 2.346801622e-38
0.01890958101 -0.4889843464 -0.3986330628 2.346801622e-38
-0.2110061049 -0.290936172 0.2121373266 2.346801622e-38
-0.1959986389 -0.3047078252 0.2014433593 2.346801622e-38
-0.1956791282 -0.2877556384 0.2230967879 2.346801622e-38
-0.2044934034 -0.337954253 0.2238608301 2.346801622e-38
0.08242328465 -0.4888683259 0.4127539992 2.346801622e-38
0.1685748398 -0.4922818244 0.367575109 2.346801622e-38
0.1806464195 -0.4858221114 0.3813424408 2.346801622e-38
0.1531287134 -0.4849152565 0.4020869732 2.346801622e-38
-0.1340531111 -0.4847618937 0.1600528508 2.346801622e-38
-0.06016089022 -0.4887680113 0.03260059655 2.346801622e-38
0.0005803145468 -0.4858615994 0.1516139805 2.346801622e-38
-0.07345437258 -0.4878148139 0.2413002551 2.346801622e-38
-0.1258428693 -0.3916646242 0.2395516634 2.346801622e-38
-0.13120763 -0.4336431623 0.209961623 2.346801622e-38
-0.1378027946 -0.3356165588 0.2335831225 2.346801622e-38
-0.1286040545 -0.4634191394 0.2470561564 2.346801622e-38
-0.131462872 -0.2852706015 0.2367949188 2.346801622e-38
-0.122635074 -0.3061165214 0.2233843803 2.346801622e-38
-0.1325440109 -0.2772764862 0.2457745373 2.346801622e-38
-0.1336053759 -0.3591074944 0.2491528392 2.346801622e-38
-0.1078712195 -0.3269059062 0.3299034536 2.346801622e-38
-0.1008950472 -0.3446395397 0.309073329 2.346801622e-38
-0.09677628428 -0.3173157573 0.3353370726 2.346801622e-38
-0.1055377424 -0.3937385976 0.3414047062 2.346801622e-38
-0.09578700364 -0.4837637842 0.003679187968 2.346801622e-38
-0.03518824652 -0.4872006178 -0.1046240777 2.346801622e-38
0.02051676065 -0.4873849452 -0.00722886622 2.346801622e-38
-0.04243430868 -0.487919122 0.08143644035 2.346801622e-38
-0.1637363732 -0.3833546042 -0.2111130357 2.346801622e-38
-0.1675662696 -0.4276283681 -0.2342087626 2.346801622e-38
-0.1768940091 -0.3302023113 -0.1983172446 2.346801622e-38
-0.171581924 -0.4662227333 -0.1848778278 2.346801622e-38
-0.1830094755 -0.4816258848 -0.3584654033 2.346801622e-38
-0.1541229784 -0.4908828735 -0.3996521831 2.346801622e-38
-0.111365065 -0.4806153476 -0.4084280729 2.346801622e-38
-0.1573229432 -0.4900812507 -0.3269846737 2.346801622e-38
0.02303999662 -0.4283567667 0.1299992651 2.346801622e-38
0.06083845347 -0.4347484708 0.107066378 2.346801622e-38
0.06692756712 -0.4223937988 0.1351340711 2.346801622e-38
0.05356819928 -0.4568971395 0.1380250752 2.346801622e-38
0.07934428006 -0.4830471277 0.256747216 2.346801622e-38
0.1607545614 -0.4867724478 0.1512021869 2.346801622e-38
0.1779496372 -0.4856483042 0.2194324881 2.346801622e-38
0.1352659464 -0.4840303659 0.2743464708 2.346801622e-38
-0.1494856477 -0.2652608752 0.2799499631 2.346801622e-38
-0.147102505 -0.298864156 0.2760252357 2.346801622e-38
-0.151709348 -0.2561773062 0.2859211266 2.346801622e-38
-0.1481853426 -0.353998214 0.298843205 2.346801622e-38
-0.1697172821 -0.2342187166 0.1846398413 2.346801622e-38
-0.1575463414 -0.2651456296 0.1841408014 2.346801622e-38
-0.1607836485 -0.2327192128 0.2002576739 2.346801622e-38
-0.1644431055 -0.3267264664 0.1996838152 2.346801622e-38
-0.1466123462 -0.4841150045 0.1438853741 2.346801622e-38
-0.08273804933 -0.4878659248 0.03151228279 2.346801622e-38
-0.02264351398 -0.4858719707 0.1245003343 2.346801622e-38
-0.08392611891 -0.4874159992 0.2084870636 2.346801622e-38
-0.1578865945 -0.403814435 -0.2951375544 2.346801622e-38
-0.1573941112 -0.4496171772 -0.3083390892 2.346801622e-38
-0.1567026079 -0.3391336203 -0.2971767187 2.346801622e-38
-0.1542177796 -0.4796743095 -0.2831021249 2.346801622e-38
-0.104118675 -0.4845288396 0.1438122392 2.346801622e-38
-0.02566503175 -0.4879240692 0.03118636645 2.346801622e-38
0.02803340554 -0.4865939021 0.1418619156 2.346801622e-38
-0.03448132798 -0.4869851768 0.2208881527 2.346801622e-38
0.1476507187 -0.4837519228 0.1311619878 2.346801622e-38
0.2415731549 -0.4883336127 0.007179690525 2.346801622e-38
0.2623670399 -0.486250937 0.08491051942 2.346801622e-38
0.2268361151 -0.4839090109 0.1715256572 2.346801622e-38
-0.1288947165 -0.4119694233 -0.3803326488 2.346801622e-38
-0.1203875467 -0.4574950635 -0.3942424655 2.346801622e-38
-0.1237601489 -0.3493235409 -0.38205567 2.346801622e-38
-0.1257928014 -0.4838561714 -0.3599026799 2.346801622e-38
0.2419471145 -0.3719629049 0.2272388339 2.346801622e-38
0.2510287464 -0.4164706767 0.2172758281 2.346801622e-38
0.236918509 -0.3053094745 0.2250691652 2.346801622e-38
0.2412292361 -0.4494126141 0.2283507288 2.346801622e-38
-0.1648406982 -0.4857908785 0.08955573291 2.346801622e-38
-0.08476744592 -0.4882704914 -0.03189799562 2.346801622e-38
-0.007529772818 -0.4865514338 0.08980263025 2.346801622e-38
-0.09676244855 -0.4878705144 0.1837944835 2.346801622e-38
-0.155161947 -0.2990972698 0.2557211518 2.346801622e-38
-0.1431968659 -0.3127357364 0.2419267893 2.346801622e-38
-0.145958215 -0.2888449728 0.2596388757 2.346801622e-38
-0.1521933377 -0.3442960382 0.264008075 2.346801622e-38
0.05818495899 -0.4804011285 0.241376549 2.346801622e-38
0.1275932491 -0.486205101 0.1409932524 2.346801622e-38
0.1475195885 -0.4836414158 0.2104383707 2.346801622e-38
0.1152678952 -0.4810693562 0.2645538151 2.346801622e-38
0.2270941436 -0.4796710908 0.1624490768 2.346801622e-38
0.2851507068 -0.4853315651 0.07273315638 2.346801622e-38
0.2817668617 -0.4771262705 0.1361690611 2.346801622e-38
0.2648507059 -0.4761456251 0.1874564439 2.346801622e-38
0.1802215278 -0.4810135365 0.1434400827 2.346801622e-38
0.2532390952 -0.4866999686 0.04615481943 2.346801622e-38
0.2679810226 -0.4852565527 0.1114697456 2.346801622e-38
0.2378381491 -0.4827559888 0.1685872972 2.346801622e-38
0.04756673425 -0.4809847474 0.2573080957 2.346801622e-38
0.116064854 -0.4870897233 0.1619114131 2.346801622e-38
0.1478476524 -0.4850219488 0.2357347906 2.346801622e-38
0.1005749926 -0.4833022356 0.2832864821 2.346801622e-38
0.04741463065 -0.4798896313 0.2885431051 2.346801622e-38
0.1063846722 -0.4867462218 0.2178890556 2.346801622e-38
0.1294243634 -0.4824545681 0.2662141621 2.346801622e-38
0.09833464772 -0.4806568623 0.3061960638 2.346801622e-38
-0.1394150853 -0.3915038109 -0.09103500098 2.346801622e-38
-0.1335847676 -0.4178104401 -0.1104971021 2.346801622e-38
-0.1394488215 -0.372828871 -0.07082468271 2.346801622e-38
-0.1413939148 -0.4499565661 -0.06249494106 2.346801622e-38
-0.141284734 -0.480804652 -0.1814708114 2.346801622e-38
-0.1145681515 -0.4854422212 -0.2388069332 2.346801622e-38
-0.09420737624 -0.4787104726 -0.189567104 2.346801622e-38
-0.1323931068 -0.4878363311 -0.1078261733 2.346801622e-38
-0.1651170552 -0.2983874679 0.2712911367 2.346801622e-38
-0.1573871672 -0.3245676756 0.2619706988 2.346801622e-38
-0.1604128778 -0.2790593505 0.2764151096 2.346801622e-38
-0.1618725359 -0.3735789955 0.2832713425 2.346801622e-38
-0.180760026 -0.2483798563 0.05724363774 2.346801622e-38
-0.1688047945 -0.2689225972 0.04910117388 2.346801622e-38
-0.1695523262 -0.2493636608 0.07214797288 2.346801622e-38
-0.1801972687 -0.3047296405 0.06370421499 2.346801622e-38
0.04317003489 -0.4677036107 0.3379249573 2.346801622e-38
0.0929107219 -0.4819355309 0.2998607755 2.346801622e-38
0.0941234082 -0.457102567 0.317422986 2.346801622e-38
0.08787199855 -0.470878005 0.3332313895 2.346801622e-38
-0.1399462819 -0.4822278917 -0.2547352016 2.345219836e-38
-0.1003165022 -0.4852565825 -0.3068958223 2.345219836e-38
-0.06589510292 -0.4859268665 -0.2833295166 2.345219836e-38
-0.1118137538 -0.4886419773 -0.1910776347 2.345219836e-38
-0.06059275568 -0.4286905527 -0.02381528728 2.345219836e-38
-0.06266845763 -0.4602925479 -0.07824091613 2.345219836e-38
-0.06900335848 -0.4170925319 -0.0169079341 2.345219836e-38
-0.06522084028 -0.4705471694 -0.0002363696694 2.345219836e-38
-0.1535257697 -0.4862494171 0.08380108327 2.345219836e-38
-0.08382023871 -0.4877280593 -0.05074072257 2.345219836e-38
-0.03729235008 -0.4873917997 0.07634730637 2.345219836e-38
-0.1088469848 -0.4876217246 0.1747730821 2.345219836e-38
-0.149408251 -0.4865745604 0.2596814036 2.345219836e-38
-0.09003549814 -0.4885165095 0.1350894123 2.345219836e-38
-0.04722646624 -0.4862382114 0.2549591959 2.345219836e-38
-0.1008710712 -0.4859603941 0.3120032251 2.345219836e-38
-0.1146506071 -0.387847662 0.257946521 2.345219836e-38
-0.1177596748 -0.4142101109 0.2330908179 2.345219836e-38
-0.1215674952 -0.3628666103 0.2466691732 2.345219836e-38
-0.1107965335 -0.4449117184 0.2591433823 2.345219836e-38
-0.1587710977 -0.3024882972 0.09764373302 2.345219836e-38
-0.1570622623 -0.3451805115 0.08410173655 2.345219836e-38
-0.1597050428 -0.2536087632 0.1096454263 2.345219836e-38
-0.1581922174 -0.413903743 0.1061475724 2.345219836e-38
0.03466270119 -0.4233683348 -0.4281053245 2.345219836e-38
0.04419097304 -0.4591240287 -0.4360173941 2.345219836e-38
0.0648066625 -0.4015582204 -0.430373311 2.345219836e-38
0.06297070533 -0.4865006506 -0.4180043936 2.345219836e-38
-0.158452481 -0.4845686257 -0.02489075251 2.345219836e-38
-0.0726647824 -0.4876639843 -0.1301255673 2.345219836e-38
-0.02573852614 -0.4864491224 -0.02004783973 2.345219836e-38
-0.1184357777 -0.4875265062 0.07426141202 2.345219836e-38
-0.1132110357 -0.3928429782 0.3909150064 2.345219836e-38
-0.0859066695 -0.4137377441 0.4043154418 2.345219836e-38
-0.07398027182 -0.3918448389 0.3924444318 2.345219836e-38
-0.07562764734 -0.4391391277 0.3928172588 2.345219836e-38
-0.1812611222 -0.485899955 0.06205293536 2.345219836e-38
-0.1037575752 -0.4878391027 -0.06437499076 2.345219836e-38
-0.0421089083 -0.4872135222 0.04636707902 2.345219836e-38
-0.1294141859 -0.4874688089 0.1490325034 2.345219836e-38
0.006145689636 -0.4786457717 0.2686141729 2.345219836e-38
0.07094340026 -0.4850323796 0.1938611269 2.345219836e-38
0.1012860164 -0.482075721 0.2506596744 2.345219836e-38
0.06276381016 -0.4756105542 0.2927119136 2.345219836e-38
-0.01675213128 -0.4816711247 0.2524656057 2.345219836e-38
0.06130785495 -0.4870923162 0.1674478352 2.345219836e-38
0.101217337 -0.4845876992 0.2377665341 2.345219836e-38
0.04289929569 -0.4830568135 0.2919938564 2.345219836e-38
-0.01330846548 -0.4792813659 0.2376112938 2.345219836e-38
0.05066069961 -0.4859810174 0.1559889913 2.345219836e-38
0.09069617838 -0.4845189452 0.2191018015 2.345219836e-38
0.03968281299 -0.4824505448 0.2692373395 2.345219836e-38
-0.1584421396 -0.232298255 0.2315495908 2.345219836e-38
-0.1531821042 -0.2685116827 0.2280079722 2.345219836e-38
-0.1576846242 -0.2169520557 0.2453373969 2.345219836e-38
-0.162982434 -0.3274235725 0.2466936707 2.345219836e-38
-0.1131614819 -0.4851273 0.339856565 2.345219836e-38
-0.04210492969 -0.4870278537 0.2476647794 2.345219836e-38
0.01428689063 -0.487916261 0.3320784569 2.345219836e-38
-0.04613061249 -0.4871203303 0.3609596491 2.345219836e-38
-0.1392221153 -0.4833425879 0.1143690497 2.345219836e-38
-0.07950590551 -0.4870454967 -0.006472680718 2.345219836e-38
-0.03480678424 -0.4870705903 0.1124510318 2.345219836e-38
-0.1033132374 -0.4867934883 0.2010554075 2.345219836e-38
-0.1502362341 -0.4845627844 -0.03589696437 2.345219836e-38
-0.09268087894 -0.4869774878 -0.1510421783 2.345219836e-38
-0.03945359215 -0.4884144962 -0.03774436936 2.345219836e-38
-0.1281357855 -0.4883675277 0.07094283402 2.345219836e-38
-0.03508567065 -0.4822107255 0.307716459 2.345219836e-38
0.03079237044 -0.489120096 0.241230756 2.345219836e-38
0.07242821157 -0.4840298891 0.2931318879 2.345219836e-38
0.03242051974 -0.4826459885 0.3292021751 2.345219836e-38
-0.03320433572 -0.4781237543 0.227163434 2.345219836e-38
0.03890413046 -0.4855287969 0.1299144179 2.345219836e-38
0.07471676171 -0.4833862185 0.2157000303 2.345219836e-38
0.02352410927 -0.4766181111 0.2684032619 2.345219836e-38
-0.1141013205 -0.4015048742 -0.03948429227 2.345219836e-38
-0.09369002283 -0.4210622311 -0.07485239953 2.345219836e-38
-0.1042199731 -0.384339422 -0.03230695799 2.345219836e-38
-0.1125897467 -0.4394103289 -0.02821522392 2.345219836e-38
-0.03278463706 -0.4773562253 0.2301921248 2.345219836e-38
0.03138233721 -0.4842147827 0.1471160501 2.345219836e-38
