# .PCD v0.7 - Point Cloud Data file format
VERSION 0.7
FIELDS x y z rgb
SIZE 4 4 4 4
TYPE F F F F
COUNT 1 1 1 1
WIDTH 825
HEIGHT 1
VIEWPOINT 0 0 0 1 0 0 0
POINTS 825
DATA ascii
-0.2778194845 -0.5010279417 0.3004593253 1.771655483e-38
-0.3161194324 -0.4779594541 -0.00394570455 1.771655483e-38
-0.1959993541 -0.4906630814 -0.03456585482 1.771655483e-38
-0.2601102591 -0.4850187898 0.1664156616 1.771655483e-38
-0.19798401 -0.4890660346 0.1398261487 1.771655483e-38
-0.07264368981 -0.196250394 0.01884672418 1.771655483e-38
-0.05290731043 -0.2265637815 0.01313323155 1.771655483e-38
-0.06302832812 -0.2079604417 0.02136304602 1.771655483e-38
-0.0670511499 -0.18045564 0.01936971769 1.771655483e-38
-0.1878971159 -0.4854009151 -0.05484486744 1.771655483e-38
0.0221330747 -0.4883945584 -0.08246731758 1.771655483e-38
-0.1620229781 -0.4876198173 0.1202771366 1.771655483e-38
-0.02549067885 -0.487967968 0.0763566047 1.771655483e-38
-0.08309926838 -0.1931198239 -0.001641150564 1.771655483e-38
-0.0654688701 -0.2143182456 -0.00998051092 1.771655483e-38
-0.07128152996 -0.197053805 0.01079837978 1.771655483e-38
-0.074718602 -0.1863937527 0.006095003337 1.771655483e-38
-0.4124901593 -0.4887751937 0.12549977 1.771655483e-38
-0.3497432172 -0.5022454262 0.1282921731 1.771655483e-38
-0.3401908278 -0.4921525717 0.2799203694 1.771655483e-38
-0.3084504902 -0.5027564764 0.2816759646 1.771655483e-38
-0.07039368898 -0.1942405552 -0.05474000797 1.771655483e-38
-0.0578449592 -0.2139906734 -0.0515579395 1.771655483e-38
-0.06053695828 -0.1893675625 -0.03587604687 1.771655483e-38
-0.06263350695 -0.1819621027 -0.04023337737 1.771655483e-38
-0.06794851273 -0.3254738152 0.2149259895 1.771655483e-38
-0.07149202377 -0.4038748145 0.2048328072 1.771655483e-38
-0.06192470342 -0.3541222811 0.223075673 1.771655483e-38
-0.07738190144 -0.3006412685 0.2120639235 1.771655483e-38
-0.2879212499 -0.4857480526 -0.004300832748 1.771655483e-38
-0.1182412878 -0.4940517843 -0.05460619181 1.771655483e-38
-0.2356861234 -0.4882206917 0.1818646193 1.771655483e-38
-0.1394629776 -0.4916139841 0.1453071833 1.771655483e-38
-0.3339461982 -0.4817700982 -0.01372442767 1.771655483e-38
-0.1932560503 -0.4952592552 -0.03864318132 1.771655483e-38
-0.2724398077 -0.4878635406 0.1861232668 1.771655483e-38
-0.1905259192 -0.4938725233 0.1521936655 1.771655483e-38
-0.4463382363 -0.4876695573 0.1403912306 1.771655483e-38
-0.3484813571 -0.50379318 0.1571445614 1.771655483e-38
-0.3637201786 -0.489060849 0.3141272664 1.771655483e-38
-0.3178148866 -0.49895522 0.3147817552 1.771655483e-38
-0.4640553594 -0.415163666 -0.03213559836 1.771655483e-38
-0.4527878761 -0.4694565535 -0.0365743041 1.771655483e-38
-0.4558308125 -0.4206104279 -0.01799442992 1.771655483e-38
-0.4738543034 -0.4089941978 -0.00742097199 1.771655483e-38
-0.4298304915 -0.4854569435 0.09374947846 1.771655483e-38
-0.3110888302 -0.5037786365 0.09462510049 1.771655483e-38
-0.334289372 -0.4905122817 0.2789218724 1.771655483e-38
-0.2990868688 -0.4996768832 0.2674592137 1.771655483e-38
-0.1548478603 -0.486274451 -0.1096867621 1.771655483e-38
0.05745162442 -0.4903757274 -0.1346322 1.771655483e-38
-0.120486699 -0.4907663763 0.1011051983 1.771655483e-38
0.009690873325 -0.4878480136 0.02046687901 1.771655483e-38
-0.1768271625 -0.4859720469 -0.08587374538 1.771655483e-38
0.0307472758 -0.4870515466 -0.1404655427 1.771655483e-38
-0.1592775583 -0.4870868027 0.08899961412 1.771655483e-38
-0.02250545472 -0.4857631028 0.04242270812 1.771655483e-38
-0.3447621167 -0.4801434875 -0.04526686668 1.771655483e-38
-0.2052206099 -0.4941859543 -0.08962619305 1.771655483e-38
-0.2841396928 -0.4878260791 0.1329999864 1.771655483e-38
-0.2246444523 -0.4907548726 0.09270459414 1.771655483e-38
-0.4627683163 -0.3918399513 -0.03791931272 1.771655483e-38
-0.4503173828 -0.458365202 -0.03562895954 1.771655483e-38
-0.4627033472 -0.3933359385 -0.01281394996 1.771655483e-38
-0.4624046087 -0.3874519765 -0.01016609557 1.771655483e-38
-0.1531483233 -0.4805023968 -0.1485182196 1.771655483e-38
-0.009279251099 -0.4930325747 -0.1690927148 1.771655483e-38
-0.1345554888 -0.4856649041 -0.05701937526 1.771655483e-38
-0.04113380611 -0.4804717898 -0.1104968786 1.771655483e-38
-0.4360271096 -0.4069805741 -0.1129578799 1.771655483e-38
-0.4211524129 -0.4665138721 -0.1274454296 1.771655483e-38
-0.422334373 -0.4149517417 -0.112005204 1.771655483e-38
-0.4399747849 -0.3967182636 -0.1080287695 1.771655483e-38
-0.1868000329 -0.4833954871 -0.008725970984 1.771655483e-38
-0.01515093446 -0.4877926707 -0.03609078005 1.771655483e-38
-0.1607948542 -0.4872475863 0.1387694925 1.771655483e-38
-0.06238017231 -0.4856149852 0.1034041494 1.771655483e-38
-0.05696042627 -0.3134033382 0.1914714128 1.771655483e-38
-0.05756802857 -0.3862063587 0.183345437 1.771655483e-38
-0.0502762273 -0.3411291242 0.1983845085 1.771655483e-38
-0.06248278171 -0.2874257565 0.1876645833 1.771655483e-38
-0.2195917666 -0.4829640388 -0.09412242472 1.771655483e-38
-0.03370880336 -0.4878235757 -0.1345838755 1.771655483e-38
-0.1898634434 -0.4865574241 0.1062714607 1.771655483e-38
-0.07684057206 -0.4871397018 0.04454427585 1.771655483e-38
-0.1851529479 -0.4846297503 -0.1425361782 1.771655483e-38
-0.02476253361 -0.493756026 -0.1723127961 1.771655483e-38
-0.1803559363 -0.4861645401 -0.01051544212 1.771655483e-38
-0.07210388035 -0.4863596857 -0.06914940476 1.771655483e-38
-0.05739281327 -0.3502037227 -0.1424584389 1.771655483e-38
-0.04869146645 -0.4307134449 -0.1484737992 1.771655483e-38
-0.04517822713 -0.3907847703 -0.132243678 1.771655483e-38
-0.06728785485 -0.293050319 -0.1467820406 1.771655483e-38
-0.4358440042 -0.4899050891 0.1628984064 2.06466517e-38
-0.3663589358 -0.5022526383 0.1832130253 2.06466517e-38
-0.3654842377 -0.4891684651 0.3064924479 2.06466517e-38
-0.3440931737 -0.5007068515 0.3018941283 2.06466517e-38
-0.2801465392 -0.4834295511 -0.071004197 2.06466517e-38
-0.1245080456 -0.4960926771 -0.1065296382 2.06466517e-38
-0.2464711368 -0.4869410694 0.1349937767 2.06466517e-38
-0.1328132749 -0.4912225306 0.0831361562 2.06466517e-38
-0.2795107961 -0.4796445072 -0.04601234943 2.06466517e-38
-0.09724503011 -0.4931318462 -0.07592120767 2.06466517e-38
-0.2261030078 -0.4864134192 0.1600915343 2.06466517e-38
-0.1301404238 -0.4881446958 0.1166346967 2.06466517e-38
-0.3639247715 -0.4863488376 -0.03945843875 2.06466517e-38
-0.2501382232 -0.4996262491 -0.07611766458 2.06466517e-38
-0.3148152828 -0.4901617169 0.1295438558 2.06466517e-38
-0.2512308061 -0.4970426857 0.09597015381 2.06466517e-38
-0.236371249 -0.4844999015 -0.04579599202 2.06466517e-38
-0.04199246317 -0.4907957613 -0.08321974427 2.06466517e-38
-0.1947233379 -0.4870605469 0.1429702342 2.06466517e-38
-0.07752671093 -0.4877389967 0.1017514765 2.06466517e-38
-0.09699680656 -0.3593844771 -0.1356117129 2.06466517e-38
-0.08752395958 -0.4378992915 -0.1325790137 2.06466517e-38
-0.0752267167 -0.4024553299 -0.1194862574 2.06466517e-38
-0.09552442282 -0.3010948896 -0.1328785568 2.06466517e-38
-0.08094289154 -0.361712575 -0.008579462767 2.06466517e-38
-0.07054532319 -0.4326321185 -0.01786397584 2.06466517e-38
-0.07166170329 -0.3814823329 0.002338469028 2.06466517e-38
-0.09218557924 -0.3380247951 -0.01171955839 2.06466517e-38
-0.4692078233 -0.4071264565 -0.0667051971 2.06466517e-38
-0.454859972 -0.4651861787 -0.072673738 2.06466517e-38
-0.4657673836 -0.4088650942 -0.0486125946 2.06466517e-38
-0.4729171991 -0.3962337375 -0.05048221722 2.06466517e-38
-0.203748256 -0.4839405417 -0.1032905281 2.06466517e-38
-0.04027042538 -0.495189786 -0.1288023889 2.06466517e-38
-0.1904423237 -0.4898602366 0.08437487483 2.06466517e-38
-0.0884597227 -0.4865373075 0.005823995918 2.06466517e-38
-0.4676449299 -0.3942527473 -0.09791449457 2.06466517e-38
-0.4542754889 -0.4630846083 -0.1025378704 2.06466517e-38
-0.4634735584 -0.3987521827 -0.08211262524 2.06466517e-38
-0.4713007808 -0.3828612268 -0.08347460628 2.06466517e-38
-0.4231770337 -0.4876752794 0.2259124964 2.06466517e-38
-0.3552258313 -0.5026034713 0.2351405472 2.06466517e-38
-0.3762426376 -0.4857640266 0.3311315775 2.06466517e-38
-0.3375132978 -0.4959294796 0.3283245265 2.06466517e-38
-0.2026146948 -0.4833592772 -0.1336321682 2.06466517e-38
-0.03531252593 -0.4965789616 -0.1605468094 2.06466517e-38
-0.1929010749 -0.4882350862 0.04225536808 2.06466517e-38
-0.07361764461 -0.4837320447 -0.03590977937 2.06466517e-38
-0.4162798822 -0.4866118133 0.06278161705 2.06466517e-38
-0.3236600161 -0.4990705848 0.06220144406 2.06466517e-38
-0.3411808908 -0.486122936 0.2296632379 2.06466517e-38
-0.3170638978 -0.4944343865 0.207112357 2.06466517e-38
-0.1935106516 -0.4861330092 -0.1058601141 2.06466517e-38
-0.05083865672 -0.4913934767 -0.1517056227 2.06466517e-38
-0.1812729836 -0.4864158928 -0.01791772246 2.06466517e-38
-0.09415260702 -0.4856395721 -0.037570104 2.06466517e-38
-0.04372065514 -0.3383695483 -0.1350357682 2.06466517e-38
-0.0232090652 -0.3601973653 -0.1464993954 2.06466517e-38
-0.03317473829 -0.3452727795 -0.1288995147 2.06466517e-38
-0.0383431688 -0.3310398757 -0.1303879321 2.06466517e-38
0.2566626072 -0.224379316 -0.1393092871 2.06466517e-38
0.2557860017 -0.3126416206 -0.1387911588 2.06466517e-38
0.2517842352 -0.2554959357 -0.1363096535 2.06466517e-38
0.2409251928 -0.1744571924 -0.1527043432 2.06466517e-38
-0.4492569566 -0.3945964277 -0.06242290139 2.06466517e-38
-0.4350672364 -0.4628153741 -0.06628553569 2.06466517e-38
-0.4414694309 -0.4005893469 -0.03138083965 2.06466517e-38
-0.4443614483 -0.3910256624 -0.03849581257 2.06466517e-38
-0.2320286334 -0.4834804535 -0.09618598223 2.06466517e-38
-0.135002166 -0.4944274127 -0.1235032827 2.06466517e-38
-0.2436891794 -0.4828968048 -0.04636369646 2.06466517e-38
-0.1775923073 -0.4846843779 -0.04702342302 2.06466517e-38
-0.2419798076 -0.4809125662 -0.1218284816 2.06466517e-38
-0.1269629002 -0.4915088415 -0.1489229798 2.06466517e-38
-0.2460739017 -0.483542949 -0.008830340579 2.06466517e-38
-0.1753009558 -0.4839785397 -0.04801923782 2.06466517e-38
-0.1578879952 -0.2022207528 -0.153782919 2.06466517e-38
-0.1447906196 -0.2717456818 -0.1516241133 2.06466517e-38
-0.1388439834 -0.2256970257 -0.1449136436 2.06466517e-38
-0.1483169496 -0.1891167015 -0.1467604488 2.06466517e-38
-0.08952712268 -0.1867824942 0.3447536528 2.06466517e-38
-0.07505512983 -0.2725319266 0.3375011086 2.06466517e-38
-0.06953132898 -0.2193680257 0.3418348432 2.06466517e-38
-0.07452332228 -0.1689405739 0.3369572461 2.06466517e-38
-0.2064674795 -0.4816958606 -0.1198064685 2.06466517e-38
-0.0718530938 -0.4904256761 -0.1643916965 2.06466517e-38
-0.2051679194 -0.4825164676 -0.01802381314 2.06466517e-38
-0.1095276251 -0.4832505584 -0.04578026384 2.06466517e-38
-0.07365532964 -0.1876001656 -0.1560047418 2.06466517e-38
-0.06245683879 -0.265755862 -0.1510478109 2.06466517e-38
-0.05113517493 -0.2087436914 -0.140396297 2.06466517e-38
-0.06382464617 -0.1676587164 -0.1537140608 2.06466517e-38
-0.08753126115 -0.3390795588 0.0584747903 2.06466517e-38
-0.08364640921 -0.4143362641 0.05332021043 2.06466517e-38
-0.0795115158 -0.3644667566 0.06666971743 2.06466517e-38
-0.09226799756 -0.3028960824 0.05958801135 2.06466517e-38
-0.1763291657 -0.481597811 -0.09696344286 2.06466517e-38
-0.07733926922 -0.4862413108 -0.1374311 2.06466517e-38
-0.1672692001 -0.4800322652 -0.05793640018 2.06466517e-38
-0.1181330159 -0.4775080979 -0.06084470451 2.06466517e-38
-0.06700662524 -0.2124353498 -0.01392236538 2.06466517e-38
-0.04703050107 -0.2289122641 -0.01746032201 2.06466517e-38
-0.05047620088 -0.2056265324 0.006506823003 2.06466517e-38
-0.05493675917 -0.2076771706 -0.001422230154 2.06466517e-38
-0.05878383666 -0.1644418836 -0.0459561497 2.06466517e-38
-0.03907661885 -0.192084372 -0.04313835502 2.06466517e-38
-0.03997827321 -0.1599990278 -0.02920245752 2.06466517e-38
-0.03996681422 -0.1554638743 -0.03573847935 2.06466517e-38
-0.3559837937 -0.483230561 -0.07792815566 2.06466517e-38
-0.2506659031 -0.4970543385 -0.1362243593 2.06466517e-38
-0.3216074109 -0.4891448021 0.08766131103 2.06466517e-38
-0.2655681074 -0.4931351542 0.02423255518 2.06466517e-38
-0.4129919708 -0.4847950041 -0.02469373494 2.06466517e-38
-0.3213393092 -0.5015209913 -0.05137470365 2.06466517e-38
-0.341822952 -0.4876933992 0.1555143297 2.06466517e-38
-0.3276065588 -0.4989075363 0.1155866385 2.06466517e-38
-0.03704493493 -0.3734310567 -0.03195998073 2.06466517e-38
-0.01917202771 -0.4397683144 -0.04463859648 2.06466517e-38
-0.03208595514 -0.3945309222 -0.02457125671 2.06466517e-38
-0.04719479382 -0.3357752562 -0.03214082867 2.06466517e-38
-0.2846908271 -0.4791799784 -0.1353406757 2.06466517e-38
-0.1607341468 -0.4919829369 -0.1610167176 2.06466517e-38
-0.2870872021 -0.4812104106 -0.005651656538 2.06466517e-38
-0.2145024836 -0.4846957028 -0.04464365914 2.06466517e-38
-0.3015607297 -0.4833910167 -0.1345682144 2.06466517e-38
-0.185746491 -0.499373287 -0.1753798127 2.06466517e-38
-0.3076272607 -0.4848024845 -0.02743925154 2.06466517e-38
-0.2404940426 -0.4885429442 -0.06296214461 2.06466517e-38
-0.472434938 -0.3862773478 -0.04804355279 2.348204041e-38
-0.4622824788 -0.4488733709 -0.04801625386 2.348204041e-38
-0.4693122506 -0.3825100362 -0.02599083073 2.348204041e-38
-0.4728713036 -0.3786218762 -0.02911191434 2.348204041e-38
-0.4184836745 -0.3864911795 -0.07499536872 2.348204041e-38
-0.4145552516 -0.4376527071 -0.08742117882 2.348204041e-38
-0.4144024253 -0.3918502629 -0.05968156457 2.348204041e-38
-0.415750891 -0.379781872 -0.06929554045 2.348204041e-38
-0.1999154091 -0.4801785648 -0.1587535888 2.348204041e-38
-0.1171971634 -0.4869059324 -0.1897709221 2.348204041e-38
-0.1994925737 -0.4802543223 -0.1016560346 2.348204041e-38
-0.1547493339 -0.4799206853 -0.1185820848 2.348204041e-38
-0.08777975291 -0.2008808404 0.3160031438 2.348204041e-38
-0.07918732613 -0.2731289268 0.307641238 2.348204041e-38
-0.07613546401 -0.2292096466 0.3111362755 2.348204041e-38
-0.08347842842 -0.180695042 0.3063364923 2.348204041e-38
-0.09677834064 -0.3665599227 -0.1429186314 2.348204041e-38
-0.08882770687 -0.4408256114 -0.1445871145 2.348204041e-38
-0.08646055311 -0.4057236314 -0.1265793294 2.348204041e-38
-0.1056698784 -0.3186177015 -0.1406447589 2.348204041e-38
-0.07118692249 -0.3308261931 0.0346721597 2.348204041e-38
-0.06790255755 -0.3960084617 0.03275122866 2.348204041e-38
-0.06052228063 -0.3533668518 0.04707030579 2.348204041e-38
-0.07163152844 -0.2979030311 0.03837862238 2.348204041e-38
-0.07038860768 -0.195688203 0.3075348735 2.348204041e-38
-0.06554365903 -0.2604521215 0.2976229787 2.348204041e-38
-0.05489134043 -0.2172608823 0.3039254844 2.348204041e-38
-0.06612216681 -0.1823573112 0.2936054766 2.348204041e-38
-0.3490183949 -0.4825007021 -0.1001037359 2.348204041e-38
-0.2613939643 -0.4924255013 -0.1452851444 2.348204041e-38
-0.3409396708 -0.4831627905 0.01576070115 2.348204041e-38
-0.2972932756 -0.4879004657 -0.02961050346 2.348204041e-38
-0.04871805012 -0.1955848187 0.1173573136 2.348204041e-38
-0.04353931546 -0.2459443063 0.1206287444 2.348204041e-38
-0.04696915299 -0.2092141211 0.129047513 2.348204041e-38
-0.05166493356 -0.193336159 0.1182064116 2.348204041e-38
-0.4272575378 -0.3860122859 -0.08024094254 2.348204041e-38
-0.4192923605 -0.4274050593 -0.09135513008 2.348204041e-38
-0.424754858 -0.3930953443 -0.05315906554 2.348204041e-38
-0.4224602282 -0.3864816725 -0.07065822184 2.348204041e-38
-0.3817397952 -0.4865292907 -0.06515051425 2.348204041e-38
-0.2910184264 -0.4993228912 -0.1120482981 2.348204041e-38
-0.335968852 -0.4903311729 0.08693011105 2.348204041e-38
-0.3120457232 -0.4957738221 0.02330696955 2.348204041e-38
-0.04391068965 -0.1555545479 0.1933664829 2.348204041e-38
-0.03864680976 -0.2090584934 0.1969798207 2.348204041e-38
-0.04246220738 -0.1693455577 0.2099418491 2.348204041e-38
-0.037382029 -0.1436000168 0.1977248043 2.348204041e-38
-0.4401989579 -0.3942992389 -0.1456748396 2.348204041e-38
-0.4183856249 -0.4551717341 -0.1491500139 2.348204041e-38
-0.4191009998 -0.4106011987 -0.1289982945 2.348204041e-38
-0.439335227 -0.3918279409 -0.136073783 2.348204041e-38
-0.04701143503 -0.1565439701 0.2862996757 2.348204041e-38
-0.04048397392 -0.2128532827 0.2811315358 2.348204041e-38
-0.03663624078 -0.1776889861 0.2858211696 2.348204041e-38
-0.04623322934 -0.1397080123 0.2723969817 2.348204041e-38
-0.3927826583 -0.4902414978 -0.06858129799 2.348204041e-38
-0.2984633744 -0.4997405708 -0.1163416058 2.348204041e-38
-0.3479856551 -0.4905041158 0.1148017198 2.348204041e-38
-0.3197750747 -0.4987615049 0.03648921475 2.348204041e-38
-0.07007738203 -0.3427370489 -0.06234338507 2.348204041e-38
-0.05669844896 -0.4191904962 -0.07124503702 2.348204041e-38
-0.05831163377 -0.3648878932 -0.05169413984 2.348204041e-38
-0.07577649504 -0.3103680611 -0.06209566444 2.348204041e-38
-0.07574249059 -0.1950640827 0.2629232705 2.348204041e-38
-0.06804785877 -0.2407665849 0.26255247 2.348204041e-38
-0.06724409014 -0.2066118568 0.2740488648 2.348204041e-38
-0.06947284192 -0.180855602 0.2654895484 2.348204041e-38
-0.4630554914 -0.3957725763 -0.1014072299 2.348204041e-38
-0.4524545074 -0.4542731345 -0.1017621607 2.348204041e-38
-0.4570858479 -0.4004566967 -0.06733125448 2.348204041e-38
-0.4649487734 -0.3862047493 -0.08113522083 2.348204041e-38
-0.4575570226 -0.4885501564 0.1339711845 2.348204041e-38
-0.3716036081 -0.5086807609 0.1429323405 2.348204041e-38
-0.3698258996 -0.4914280176 0.2992329597 2.348204041e-38
-0.3474605381 -0.5028461218 0.2912144065 2.348204041e-38
-0.3779369295 -0.2102379799 -0.1497396082 2.348204041e-38
-0.3699365854 -0.3079454005 -0.1473423541 2.348204041e-38
-0.3557673395 -0.2408988029 -0.1464996487 2.348204041e-38
-0.3617098033 -0.2032949626 -0.1427501738 2.348204041e-38
0.2106904387 -0.2423336953 -0.139303118 2.348204041e-38
0.226547569 -0.3368787467 -0.1309700459 2.348204041e-38
0.222661972 -0.2790135443 -0.1309252083 2.348204041e-38
0.205924511 -0.1848524809 -0.1519492567 2.348204041e-38
-0.4316521883 -0.3368574083 -0.1338564306 2.348204041e-38
-0.432646364 -0.3910740018 -0.1387278885 2.348204041e-38
-0.4260325134 -0.3431801796 -0.1129487455 2.348204041e-38
-0.431453675 -0.3387359083 -0.1266894639 2.348204041e-38
-0.05164893717 -0.3602305055 0.03812173381 2.348204041e-38
-0.04595742375 -0.4296960235 0.03701806441 2.348204041e-38
-0.03876672685 -0.3906941414 0.05101886764 2.348204041e-38
-0.04872025549 -0.3212741911 0.04508156702 2.348204041e-38
-0.06978983432 -0.3307678998 0.1344913393 2.348204041e-38
-0.06699310988 -0.39789626 0.1345539689 2.348204041e-38
-0.06013775617 -0.3552187979 0.1469881535 2.348204041e-38
-0.06735657901 -0.288095206 0.1415949017 2.348204041e-38
-0.06431139261 -0.2732105851 0.3063182235 2.348204041e-38
-0.06042388827 -0.3942350447 0.3012663722 2.348204041e-38
-0.04628816992 -0.3207514882 0.3008640707 2.348204041e-38
-0.06368876249 -0.2381408066 0.2942631245 2.348204041e-38
-0.4709470868 -0.3687899709 -0.1334804893 2.348204041e-38
-0.4641416073 -0.4303384423 -0.1320343912 2.348204041e-38
-0.4671795964 -0.3711610138 -0.09936505556 2.348204041e-38
-0.475088954 -0.3644339442 -0.1184872985 2.348204041e-38
-0.3521539867 -0.4835605621 -0.1665252 2.348204041e-38
-0.2737369239 -0.4982436299 -0.181175977 2.348204041e-38
-0.3472777903 -0.4820319414 -0.04770927504 2.348204041e-38
-0.3187566996 -0.4896728098 -0.1005597413 2.348204041e-38
-0.4394450188 -0.3440864384 -0.1298377067 2.348204041e-38
-0.4359946251 -0.3996135592 -0.1282258779 2.348204041e-38
-0.4218499064 -0.3565303683 -0.1191934347 2.348204041e-38
-0.4327847362 -0.3422746658 -0.1286907643 2.348204041e-38
-0.466866076 -0.3456046283 -0.1531196982 2.348204041e-38
-0.4576649666 -0.4138992727 -0.1435428262 2.348204041e-38
-0.4443545341 -0.3627703488 -0.134542346 2.348204041e-38
-0.4588088393 -0.3454619348 -0.1468398124 2.348204041e-38
-0.06385297328 -0.2011651099 0.300237596 2.348204041e-38
-0.05580325425 -0.293528676 0.2932808399 2.348204041e-38
-0.0491906777 -0.2353361398 0.2968885601 2.348204041e-38
-0.05439594388 -0.1813212931 0.2915588617 2.348204041e-38
-0.169613868 -0.3572941422 -0.148810178 2.348204041e-38
-0.1563439071 -0.436802119 -0.1517269164 2.348204041e-38
-0.1592807472 -0.3815730214 -0.1434740573 2.348204041e-38
-0.1749734581 -0.3304271102 -0.1540298164 2.348204041e-38
-0.03485766798 -0.2398830801 -0.1488873661 2.348204041e-38
-0.01459196955 -0.2869549394 -0.1479385048 2.348204041e-38
-0.01079633832 -0.2484002858 -0.143304497 2.348204041e-38
-0.02607960254 -0.2065740079 -0.1576688886 2.348204041e-38
-0.3826709092 -0.4842664003 -0.1374980658 2.346801622e-38
-0.2808339298 -0.4943735003 -0.168187499 2.346801622e-38
-0.3573508859 -0.487226218 0.01058737189 2.346801622e-38
-0.3298261166 -0.48970595 -0.05633378401 2.346801622e-38
-0.06122440845 -0.1707466841 0.2492710501 2.346801622e-38
-0.05871967226 -0.239402473 0.2530916929 2.346801622e-38
-0.05387884378 -0.1930378079 0.2608278096 2.346801622e-38
-0.05918639153 -0.157741949 0.2465643138 2.346801622e-38
-0.472386539 -0.4850473702 0.06345945597 2.346801622e-38
-0.3995251954 -0.4968503714 0.07685182989 2.346801622e-38
-0.3940200508 -0.483053714 0.2306615263 2.346801622e-38
-0.3914815485 -0.4932636321 0.203915298 2.346801622e-38
-0.4666293263 -0.486250639 0.02935683355 2.346801622e-38
-0.3976350427 -0.5050871968 0.02153968066 2.346801622e-38
-0.389742285 -0.4852467775 0.2183239311 2.346801622e-38
-0.3951413631 -0.4976232648 0.1651870757 2.346801622e-38
-0.4477961659 -0.4871771634 -0.1076958477 2.346801622e-38
-0.3664913774 -0.5004410148 -0.148255378 2.346801622e-38
-0.394359231 -0.4886531234 0.1108630151 2.346801622e-38
-0.3950270712 -0.4959656298 0.001168411225 2.346801622e-38
-0.04717090726 -0.2248734683 0.2442720383 2.346801622e-38
-0.04734268785 -0.3016737998 0.2432519346 2.346801622e-38
-0.04646512866 -0.2521147728 0.2565390766 2.346801622e-38
-0.05260947347 -0.2003237009 0.2441649288 2.346801622e-38
-0.07387369126 -0.1606759131 -0.1124598086 2.346801622e-38
-0.06196122617 -0.1976176798 -0.09659386426 2.346801622e-38
-0.05735330284 -0.1645201594 -0.08674924076 2.346801622e-38
-0.06503567845 -0.1419046819 -0.09200137854 2.346801622e-38
-0.0470321998 -0.1827186942 0.145010218 2.346801622e-38
-0.05050822347 -0.226920411 0.1505338699 2.346801622e-38
-0.04445055127 -0.196354419 0.1667213142 2.346801622e-38
-0.05167312175 -0.1641920656 0.1520884782 2.346801622e-38
-0.05710352957 -0.2371176928 0.2293376178 2.346801622e-38
-0.05385160446 -0.3007555008 0.2249601334 2.346801622e-38
-0.05136650056 -0.2612093985 0.2425041348 2.346801622e-38
-0.05454987288 -0.2143791169 0.2288444191 2.346801622e-38
-0.0826234296 -0.3558444381 -0.01426856406 2.346801622e-38
-0.07752402872 -0.4313208759 -0.02242100239 2.346801622e-38
-0.07165985554 -0.3896017373 -0.004404079169 2.346801622e-38
-0.09158713371 -0.3152636588 -0.0188052915 2.346801622e-38
-0.4301505983 -0.3165703714 -0.1317131519 2.346801622e-38
-0.4370621443 -0.3873462975 -0.13966389 2.346801622e-38
-0.4254348576 -0.3314525783 -0.1277941018 2.346801622e-38
-0.433940053 -0.3084445894 -0.1317120343 2.346801622e-38
-0.1621389091 -0.3165790737 -0.1372995377 2.346801622e-38
-0.1658694446 -0.3713636994 -0.1431985646 2.346801622e-38
-0.1548196077 -0.3305373788 -0.1329401731 2.346801622e-38
-0.1669637859 -0.312663883 -0.1424619555 2.346801622e-38
-0.3685270846 -0.4845391214 -0.160071969 2.346801622e-38
-0.2939345539 -0.4983374178 -0.1915157884 2.346801622e-38
-0.3643451929 -0.4841747582 -0.06259799004 2.346801622e-38
-0.3483526111 -0.4908765554 -0.1123421192 2.346801622e-38
-0.05395386368 -0.3156450689 0.09829938412 2.346801622e-38
-0.05092556775 -0.387042433 0.101035893 2.346801622e-38
-0.0462122038 -0.3368970752 0.1128222197 2.346801622e-38
-0.05520375818 -0.2798452377 0.1071386486 2.346801622e-38
-0.09263261408 -0.3273664117 -0.1202575713 2.346801622e-38
-0.08414886147 -0.427100122 -0.1171582043 2.346801622e-38
-0.07368647307 -0.3699450195 -0.1032914072 2.346801622e-38
-0.09403506666 -0.2781493366 -0.1147519499 2.346801622e-38
-0.06664837152 -0.3047685027 0.06977561116 2.346801622e-38
-0.06026608497 -0.3664915264 0.07576456666 2.346801622e-38
-0.05670747906 -0.3277489543 0.08523115516 2.346801622e-38
-0.06756355613 -0.2626817822 0.08241960406 2.346801622e-38
-0.05680704862 -0.2881676555 0.1584887207 2.346801622e-38
-0.05093304813 -0.353752315 0.158312425 2.346801622e-38
-0.04639244825 -0.3129355907 0.1659446359 2.346801622e-38
-0.05358334631 -0.2501826584 0.1578111351 2.346801622e-38
-0.04058069736 -0.2628005743 0.2165427357 2.346801622e-38
-0.03997325897 -0.3437564373 0.2124251276 2.346801622e-38
-0.03592593968 -0.2944484949 0.2240039557 2.346801622e-38
-0.04232757539 -0.2274823487 0.2100361586 2.346801622e-38
0.1902261227 -0.2249910384 -0.1341280937 2.346801622e-38
0.2056841254 -0.2893919349 -0.1228623241 2.346801622e-38
0.203558296 -0.2386337519 -0.1097372025 2.346801622e-38
0.1951709092 -0.1978933364 -0.1307868809 2.346801622e-38
-0.4381533265 -0.3205432594 -0.1230654418 2.346801622e-38
-0.431458801 -0.3793245852 -0.1220379621 2.346801622e-38
-0.4289143085 -0.3341537118 -0.1003756523 2.346801622e-38
-0.4282771945 -0.3311151862 -0.1123498529 2.346801622e-38
-0.07321081311 -0.330147624 0.04337618873 2.346801622e-38
-0.06447461993 -0.3788502216 0.04634017125 2.346801622e-38
-0.06786409765 -0.338075608 0.05343487486 2.346801622e-38
-0.07859652489 -0.3143212199 0.05123872682 2.346801622e-38
-0.4573603868 -0.32280159 -0.1290312111 2.346801622e-38
-0.4494893551 -0.372724086 -0.1300126165 2.346801622e-38
-0.4438999295 -0.3320943415 -0.113753587 2.346801622e-38
-0.4455566406 -0.3304915726 -0.1256690323 2.346801622e-38
-0.424474597 -0.2977629304 -0.1609743536 2.346801622e-38
-0.4137209952 -0.3491068482 -0.1614744067 2.346801622e-38
-0.3934650719 -0.313659966 -0.1652076691 2.346801622e-38
-0.4060147703 -0.2931955457 -0.1683266312 2.346801622e-38
-0.4056241214 -0.483823806 -0.1362397075 2.346801622e-38
-0.3491389155 -0.4959029555 -0.1645219773 2.346801622e-38
-0.3962929547 -0.482280761 -0.0478657186 2.346801622e-38
-0.382166177 -0.489795506 -0.08671753854 2.346801622e-38
-0.07691629976 -0.1922483295 0.2073429078 2.346801622e-38
-0.07110298425 -0.244011566 0.2027190328 2.346801622e-38
-0.06332009286 -0.2041518092 0.2150532752 2.346801622e-38
-0.06972620636 -0.1810538173 0.200470224 2.346801622e-38
-0.08033335954 -0.2969485521 0.04676248506 2.346801622e-38
-0.06686728448 -0.321524173 0.04405314103 2.346801622e-38
-0.07882850617 -0.2954097092 0.0582758449 2.346801622e-38
-0.07511325926 -0.2845208943 0.05701994523 2.346801622e-38
-0.05362692475 -0.2119811177 -0.01575566083 2.346801622e-38
-0.03483375162 -0.2240403593 -0.02226860076 2.346801622e-38
-0.03944085538 -0.2030086815 0.004132822156 2.346801622e-38
-0.04206481576 -0.2013422996 -0.008808301762 2.346801622e-38
-0.06708353013 -0.2757497728 0.05647241697 2.346801622e-38
-0.05749936402 -0.3071776032 0.05251723155 2.346801622e-38
-0.06596972793 -0.2768830061 0.06552970409 2.346801622e-38
-0.06599766761 -0.2589373291 0.06401105225 2.346801622e-38
-0.4742255211 -0.4826602936 -0.04433273524 2.346801622e-38
-0.4197448492 -0.5031834841 -0.05905925483 2.346801622e-38
-0.4091208577 -0.4810228348 0.1482573003 2.346801622e-38
-0.4303351343 -0.4965197742 0.08605003357 2.346801622e-38
-0.08458026499 -0.2125428915 -0.1384284049 2.346801622e-38
-0.08097384125 -0.3164484799 -0.1397452354 2.346801622e-38
-0.07353984565 -0.2495345175 -0.1259006411 2.346801622e-38
-0.08466318995 -0.1720143706 -0.1362648755 2.346801622e-38
-0.1867930591 -0.1895641834 -0.1356833577 2.346801622e-38
-0.1614928544 -0.2160504609 -0.137885496 2.346801622e-38
-0.1539687216 -0.1892741621 -0.1438771486 2.346801622e-38
-0.1653052568 -0.1787564605 -0.1420029402 2.346801622e-38
-0.07820165902 -0.3189222217 0.01944670826 2.346801622e-38
-0.07123800367 -0.3848926127 0.01745925471 2.346801622e-38
-0.07193809003 -0.3378510177 0.0258503519 2.346801622e-38
-0.08627555519 -0.2864791155 0.01540659741 2.346801622e-38
-0.4819062352 -0.4823467433 0.03548627719 2.345219836e-38
-0.4125241935 -0.5026656389 0.0343372561 2.345219836e-38
-0.3985013068 -0.4832803309 0.2100914717 2.345219836e-38
-0.413122952 -0.4959120452 0.1687732488 2.345219836e-38
-0.4685996175 -0.4840798676 0.04609904811 2.345219836e-38
-0.4099249244 -0.5081592202 0.04623672739 2.345219836e-38
-0.3897923529 -0.4866987765 0.2558606565 2.345219836e-38
-0.3840717077 -0.4995186329 0.2160056382 2.345219836e-38
-0.06388505548 -0.2979639173 0.2281469256 2.345219836e-38
-0.06991701573 -0.3971284032 0.2316640466 2.345219836e-38
-0.06383920461 -0.3311852813 0.2438757271 2.345219836e-38
-0.07078050822 -0.2569388747 0.2264577895 2.345219836e-38
-0.07402914017 -0.1735545546 0.1084893048 2.345219836e-38
-0.07924263924 -0.2436928004 0.1195315868 2.345219836e-38
-0.07703865319 -0.1964921355 0.1405509859 2.345219836e-38
-0.07953613251 -0.1662053615 0.1225655228 2.345219836e-38
-0.06855063885 -0.2798470259 0.02975164726 2.345219836e-38
-0.06627393514 -0.328042686 0.03387225792 2.345219836e-38
-0.06314372271 -0.2911234498 0.05494244769 2.345219836e-38
-0.07424316555 -0.2568297386 0.04924382642 2.345219836e-38
-0.0680700615 -0.2650723457 0.2807538807 2.345219836e-38
-0.07847654074 -0.363461405 0.2846431434 2.345219836e-38
-0.07313285023 -0.3073421717 0.2915696502 2.345219836e-38
-0.07703388482 -0.2282735109 0.2803497016 2.345219836e-38
-0.5218337178 -0.4850354195 0.1499726474 2.345219836e-38
-0.4674819112 -0.5052185655 0.162974596 2.345219836e-38
-0.4427739382 -0.4856970906 0.3102106452 2.345219836e-38
-0.4492653012 -0.5007709265 0.288480401 2.345219836e-38
-0.05102418363 -0.2430715263 0.2014903724 2.345219836e-38
-0.05013099313 -0.3340384364 0.2013269514 2.345219836e-38
-0.0503391102 -0.273188144 0.2174414843 2.345219836e-38
-0.06017292291 -0.226642102 0.2034692168 2.345219836e-38
-0.473700881 -0.3493426442 -0.1614729911 2.345219836e-38
-0.4646136761 -0.4335542023 -0.1670630127 2.345219836e-38
-0.4563834071 -0.3657321632 -0.1603792161 2.345219836e-38
-0.4766528606 -0.3169650137 -0.1601693928 2.345219836e-38
-0.4039519131 -0.4887468517 -0.1507076472 2.345219836e-38
-0.342648685 -0.5017924309 -0.1746704131 2.345219836e-38
-0.3976095915 -0.4848354459 -0.05734520406 2.345219836e-38
-0.3842177689 -0.4944210351 -0.09831857681 2.345219836e-38
-0.4473030567 -0.3558912277 -0.1362748295 2.345219836e-38
-0.4323079884 -0.4403270483 -0.1452256739 2.345219836e-38
-0.4177952707 -0.385147661 -0.1484205872 2.345219836e-38
-0.4417916536 -0.3181790113 -0.1449952424 2.345219836e-38
-0.07097043842 -0.3164125085 -0.07540763915 2.345219836e-38
-0.07264701277 -0.4062802196 -0.08026400208 2.345219836e-38
-0.06478825957 -0.3519204557 -0.06447736919 2.345219836e-38
-0.07665742189 -0.2735779285 -0.07333794236 2.345219836e-38
-0.1933776736 -0.2924201488 -0.1663540006 2.345219836e-38
-0.1783831716 -0.3474930823 -0.1666313857 2.345219836e-38
-0.171515286 -0.3047412932 -0.1586939096 2.345219836e-38
-0.1870805025 -0.2732174397 -0.1662504226 2.345219836e-38
-0.05025228113 -0.2325804681 -0.1280916035 2.345219836e-38
-0.05015331507 -0.3051442504 -0.1197366118 2.345219836e-38
-0.03897690773 -0.2495037764 -0.1036955714 2.345219836e-38
-0.05223555863 -0.2051741779 -0.1156702787 2.345219836e-38
-0.05899509043 -0.3202574849 -0.02923570573 2.345219836e-38
-0.0521152094 -0.357210815 -0.03412795067 2.345219836e-38
-0.05086706579 -0.3303887546 -0.009339129552 2.345219836e-38
-0.06392424554 -0.3064650595 -0.02665098011 2.345219836e-38
-0.08250444382 -0.2396418452 0.02064521983 2.345219836e-38
-0.07742872089 -0.2877791226 0.03171519563 2.345219836e-38
-0.06699486822 -0.237584129 0.05341064557 2.345219836e-38
-0.07688326389 -0.2133099139 0.04614697769 2.345219836e-38
-0.06304778904 -0.187958613 0.1798483282 2.345219836e-38
-0.07166583091 -0.265991509 0.1883378774 2.345219836e-38
-0.06582155079 -0.2038700879 0.2008596361 2.345219836e-38
-0.07369429618 -0.1719240993 0.1872242093 2.345219836e-38
-0.3793863058 -0.3181334734 -0.1377869397 2.345219836e-38
-0.3773779571 -0.3742227852 -0.1441742629 2.345219836e-38
-0.3646973073 -0.3299995959 -0.1392947435 2.345219836e-38
-0.3714039624 -0.3166783452 -0.1363202035 2.345219836e-38
-0.07365795225 -0.1555525362 -0.09110155702 2.345219836e-38
-0.07582756132 -0.237594679 -0.07491844893 2.345219836e-38
-0.05819106847 -0.1778090596 -0.05766392499 2.345219836e-38
-0.06922257692 -0.1445387751 -0.0674431175 2.345219836e-38
-0.4316961765 -0.4868452549 -0.1759177595 2.345219836e-38
-0.3503548503 -0.4984302521 -0.2009162009 2.345219836e-38
-0.4089993834 -0.4841636717 -0.06101626158 2.345219836e-38
-0.4003227949 -0.4924627542 -0.1130266637 2.345219836e-38
-0.06602866203 -0.2336045504 0.2772398591 2.345219836e-38
-0.06922719628 -0.3460700214 0.282490164 2.345219836e-38
-0.07126242667 -0.276874125 0.2838560343 2.345219836e-38
-0.08006954938 -0.2011229545 0.272372067 2.345219836e-38
-0.4574933648 -0.2369410843 0.2079342157 2.345219836e-38
-0.4583272934 -0.354174763 0.1949584186 2.345219836e-38
-0.4633742571 -0.275134027 0.2068815827 2.345219836e-38
-0.455671072 -0.2336426675 0.2082038969 2.345219836e-38
-0.4784543514 -0.486638993 -0.05501986295 2.345219836e-38
-0.429040432 -0.5007211566 -0.07764876634 2.345219836e-38
-0.4149311185 -0.4833462238 0.145196557 2.345219836e-38
-0.4429383278 -0.4958347082 0.0647713244 2.345219836e-38
-0.4797005653 -0.4871160984 0.004284348339 2.345219836e-38
-0.4226894677 -0.5007866621 -0.01149862446 2.345219836e-38
-0.4084633291 -0.4822179377 0.1861765087 2.345219836e-38
-0.4385191202 -0.4948740005 0.116486907 2.345219836e-38
-0.5009129047 -0.4860860407 0.1827011257 2.345219836e-38
-0.4493907094 -0.5020714402 0.1780074537 2.345219836e-38
-0.4334195256 -0.4835599959 0.332919687 2.345219836e-38
-0.4316432774 -0.495033741 0.2923850417 2.345219836e-38
-0.4289330244 -0.2725872695 0.179001525 2.345219836e-38
-0.4323658049 -0.3526849449 0.1811062396 2.345219836e-38
-0.4367148876 -0.2941867113 0.2004722059 2.345219836e-38
-0.4267787039 -0.27507478 0.1911917329 2.345219836e-38
-0.05227269977 -0.3399234414 0.0006543956697 2.345219836e-38
-0.04631540179 -0.4136558473 -0.002927936614 2.345219836e-38
-0.03714499623 -0.3683297932 0.02024246007 2.345219836e-38
-0.05274861306 -0.303735435 0.007706087083 2.345219836e-38
-0.0543249175 -0.2305294275 0.07325585186 2.345219836e-38
-0.06145759672 -0.2694889307 0.08511260152 2.345219836e-38
-0.05901668221 -0.2308457643 0.1079176217 2.345219836e-38
-0.05990479141 -0.214395687 0.09402482212 2.345219836e-38
-0.05682370812 -0.2287394106 0.2399605364 2.345219836e-38
-0.06073694676 -0.3087008893 0.2449288219 2.345219836e-38
-0.05210334808 -0.2537348568 0.256896317 2.345219836e-38
-0.05898851901 -0.2055843323 0.2432603389 2.345219836e-38
-0.4902299047 -0.4846225083 0.04387807474 2.345219836e-38
-0.4502331018 -0.506886065 0.03022957966 2.345219836e-38
-0.4276680648 -0.4837982357 0.2196913809 2.345219836e-38
-0.4350227714 -0.4991852045 0.1872430444 2.345219836e-38
-0.04798179865 -0.2410236746 0.2387181967 2.345219836e-38
-0.05285500735 -0.3429757953 0.2439147383 2.345219836e-38
-0.05219196528 -0.2820520401 0.2568368316 2.345219836e-38
-0.05265153944 -0.2036360651 0.2432294041 2.345219836e-38
-0.05256222934 -0.2197952121 0.1400756985 2.345219836e-38
-0.05528112501 -0.3064437211 0.147566244 2.345219836e-38
-0.05431499332 -0.2460705042 0.1624881327 2.345219836e-38
-0.06398933381 -0.1901974976 0.1478929669 2.345219836e-38
-0.06033132225 -0.3005720079 -0.1422315687 2.343458544e-38
-0.0592013672 -0.394266367 -0.1444757432 2.343458544e-38
-0.05042111129 -0.3412884176 -0.1228352785 2.343458544e-38
-0.06648700684 -0.2521921098 -0.1362816095 2.343458544e-38
-0.5066101551 -0.2847636044 0.1632162333 2.343458544e-38
-0.5004301071 -0.3870092034 0.1581966579 2.343458544e-38
-0.5001602173 -0.3181352913 0.2030339986 2.343458544e-38
-0.4954826236 -0.2997127771 0.1926609427 2.343458544e-38
-0.07032378763 -0.257114172 -0.09506085515 2.343458544e-38
-0.0658435896 -0.3649710417 -0.09035368264 2.343458544e-38
-0.06159166247 -0.3039105833 -0.07404227555 2.343458544e-38
-0.07812362164 -0.2081465572 -0.0856411159 2.343458544e-38
-0.4793915749 -0.3072224259 0.2067682445 2.343458544e-38
-0.4826992154 -0.3908006549 0.1929135025 2.343458544e-38
-0.4842900038 -0.328073144 0.2291417569 2.343458544e-38
-0.4791499376 -0.3117111623 0.2190726548 2.343458544e-38
-0.4559136033 -0.4872211814 -0.1793163717 2.343458544e-38
-0.4040394425 -0.5003775954 -0.2095124573 2.343458544e-38
-0.4371953607 -0.4841782153 -0.05363293737 2.343458544e-38
-0.438823998 -0.497267276 -0.1238183528 2.343458544e-38
-0.1829134822 -0.2606028616 -0.1490069032 2.343458544e-38
-0.169641614 -0.3184767663 -0.1536405236 2.343458544e-38
-0.1629692614 -0.2745318711 -0.1455589533 2.343458544e-38
-0.1763109863 -0.24134247 -0.1469809413 2.343458544e-38
-0.07904247195 -0.2371505946 -0.0132092759 2.343458544e-38
-0.06667990237 -0.2888376415 -0.01490793563 2.343458544e-38
-0.06388386339 -0.2473262697 0.00330811739 2.343458544e-38
-0.07665310055 -0.20966129 -0.006479721516 2.343458544e-38
-0.0426671952 -0.2600407302 0.1553836465 2.343458544e-38
-0.04474518448 -0.3596559465 0.1582050174 2.343458544e-38
-0.0405023694 -0.3038058579 0.1649303883 2.343458544e-38
-0.04181889445 -0.2068550736 0.1536500156 2.343458544e-38
-0.476591289 -0.4884649515 -0.1197527796 2.343458544e-38
-0.4466423392 -0.5012801886 -0.1434725523 2.343458544e-38
-0.4428572059 -0.4868322611 0.02904094383 2.343458544e-38
-0.4680229425 -0.4992395043 -0.05459190533 2.343458544e-38
-0.05336733162 -0.3211916387 -0.0330041945 2.343458544e-38
-0.05039526522 -0.4219804406 -0.04079885781 2.343458544e-38
-0.03589779139 -0.3601986468 -0.01837066002 2.343458544e-38
-0.05815405399 -0.2596912086 -0.03518732637 2.343458544e-38
-0.03863067925 -0.2269431502 0.08165828884 2.343458544e-38
-0.0368559584 -0.3030699193 0.09272223711 2.343458544e-38
-0.03618706018 -0.2550079226 0.1011727452 2.343458544e-38
-0.04964441061 -0.1844673753 0.0903762579 2.343458544e-38
-0.05867411941 -0.2332674116 0.1372828782 2.343458544e-38
-0.06150876731 -0.3239217699 0.1458974332 2.343458544e-38
-0.06003408879 -0.2659925222 0.1555092931 2.343458544e-38
-0.06895741075 -0.1961252987 0.1426715851 2.343458544e-38
-0.05910883099 -0.194792062 -0.1373829097 2.343458544e-38
-0.06071843952 -0.2867514491 -0.1260495931 2.343458544e-38
-0.05405116826 -0.2295798659 -0.11632891 2.343458544e-38
-0.06845294684 -0.1514952332 -0.1263098717 2.343458544e-38
-0.484305501 -0.251825124 0.1772242486 2.343458544e-38
-0.4785323143 -0.3412993252 0.1773808748 2.343458544e-38
-0.4780647159 -0.2754954994 0.2062022388 2.343458544e-38
-0.4752724767 -0.2594277263 0.1996919662 2.343458544e-38
-0.0474524051 -0.2166410387 -0.08775644004 2.343458544e-38
-0.05062990636 -0.3133354783 -0.07581686974 2.343458544e-38
-0.03718229383 -0.2465578318 -0.05933591351 2.343458544e-38
-0.0574984923 -0.1724354476 -0.07220086455 2.343458544e-38
-0.5034289956 -0.4883024395 0.01155296341 2.343458544e-38
-0.4415153265 -0.4992385209 -0.002611409873 2.343458544e-38
-0.4291065037 -0.480044812 0.1782234907 2.343458544e-38
-0.4557595849 -0.4930627048 0.1293577552 2.343458544e-38
-0.08982994407 -0.2596391439 -0.01976727322 2.343458544e-38
-0.07729043812 -0.3271843791 -0.020188611 2.343458544e-38
-0.07802750915 -0.2762614191 -0.00666128844 2.343458544e-38
-0.0920144096 -0.235350132 -0.01788130216 2.343458544e-38
-0.09418632835 -0.2043177038 -0.1497467756 2.343458544e-38
-0.09147905558 -0.2874942422 -0.1448838264 2.343458544e-38
-0.08799808472 -0.2359396964 -0.1364385039 2.343458544e-38
-0.1046612486 -0.1666536629 -0.146877408 2.343458544e-38
-0.5368668437 -0.4891468585 0.0962240696 2.343458544e-38
-0.4700214863 -0.5026122332 0.093323946 2.343458544e-38
-0.4571110606 -0.4811631739 0.2506845593 2.343458544e-38
-0.4706561565 -0.4969684482 0.2275718004 2.343458544e-38
-0.1530138552 -0.2136041969 -0.163250789 2.343458544e-38
-0.1411412656 -0.3035976887 -0.1652699411 2.343458544e-38
-0.1395602822 -0.2376943827 -0.1522484273 2.343458544e-38
-0.1536356211 -0.1813633591 -0.1616056859 2.343458544e-38
-0.08733663708 -0.3082428873 -0.1247808635 2.343458544e-38
-0.07614795119 -0.4002550244 -0.126645565 2.343458544e-38
-0.06681410223 -0.3478958309 -0.120462954 2.343458544e-38
-0.08099361509 -0.2580958307 -0.1303569078 2.343458544e-38
-0.04087303579 -0.2724198103 -0.08444553614 2.343458544e-38
-0.02964298427 -0.3773334622 -0.08580699563 2.343458544e-38
-0.02978473902 -0.3054025471 -0.06599012017 2.343458544e-38
-0.04980418831 -0.2295184135 -0.07963480055 2.343458544e-38
-0.4757050276 -0.1774956584 -0.1359446794 2.343458544e-38
-0.4745866656 -0.2994537055 -0.1310138553 2.343458544e-38
-0.4525074959 -0.2015546113 -0.1409917474 2.343458544e-38
-0.4648621678 -0.1634947509 -0.1292909682 2.343458544e-38
-0.4841883779 -0.4892609417 -0.1314572394 2.343458544e-38
-0.4547810555 -0.4992972612 -0.1523925215 2.343458544e-38
-0.4599528313 -0.4857310355 0.003604639322 2.343458544e-38
-0.4820907116 -0.4980879724 -0.06193404645 2.343458544e-38
-0.04017567635 -0.3017164767 0.1243887991 2.343458544e-38
-0.03733801842 -0.4041844904 0.1286108941 2.343458544e-38
-0.02855034173 -0.3399287164 0.1406479776 2.343458544e-38
-0.03714038432 -0.2373467386 0.1320637614 2.343458544e-38
-0.04901962727 -0.2446735501 0.1643308699 2.343458544e-38
-0.05435093492 -0.3397746086 0.1703476608 2.343458544e-38
-0.04764292389 -0.2793238759 0.1754034311 2.343458544e-38
-0.05452303588 -0.2029321045 0.1634640247 2.343458544e-38
-0.07574837655 -0.3190958202 -0.07196409255 2.343458544e-38
-0.07720484585 -0.4147196114 -0.07661014795 2.343458544e-38
-0.06081687659 -0.3625211418 -0.06062891707 2.343458544e-38
-0.07991492003 -0.2582679093 -0.07353436202 2.343458544e-38
-0.07334392518 -0.1920480132 -0.03295125067 2.343458544e-38
-0.06594536453 -0.2656025589 -0.02839138359 2.343458544e-38
-0.05587487668 -0.2156723589 -0.01445453614 2.343458544e-38
-0.07260561734 -0.1594605744 -0.02620962821 2.343458544e-38
-0.06318087131 -0.2571470141 0.1751582623 2.343458544e-38
-0.06672663242 -0.3489269316 0.1814911515 2.343458544e-38
-0.06021677703 -0.2993552983 0.1904084235 2.343458544e-38
-0.06503007561 -0.2068414688 0.1777686179 2.343458544e-38
-0.06359956414 -0.2437922955 0.2953928113 2.343458544e-38
-0.06524475664 -0.3399194181 0.3027370274 2.343458544e-38
-0.06005030125 -0.2870385051 0.3069747686 2.343458544e-38
-0.07239823788 -0.1990790516 0.2922662497 2.343458544e-38
-0.06505001336 -0.2651925087 0.1885447353 2.343458544e-38
-0.06837975234 -0.3516827226 0.1926555932 2.343458544e-38
-0.06466283649 -0.3058598936 0.2052584887 2.343458544e-38
-0.06788990647 -0.2140396833 0.1914839298 2.343458544e-38
-0.06287821382 -0.2374716997 0.1701480299 2.343458544e-38
-0.06508166343 -0.3328236043 0.1756692082 2.343458544e-38
-0.05915287882 -0.2816215158 0.1873385012 2.343458544e-38
-0.06369716674 -0.1837041229 0.1702381372 2.343458544e-38
-0.04780077189 -0.235319078 0.3191227019 2.341805152e-38
-0.04832326621 -0.3405115604 0.3299801052 2.341805152e-38
-0.04494635761 -0.2849217653 0.3326769471 2.341805152e-38
-0.0576518774 -0.1839617044 0.3162859082 2.341805152e-38
-0.06738378853 -0.2221986204 -0.09014795721 2.341805152e-38
-0.06842654198 -0.3202570677 -0.07610055804 2.341805152e-38
-0.05208316445 -0.2585487366 -0.06194596738 2.341805152e-38
-0.07512613386 -0.1663761735 -0.07487630844 2.341805152e-38
-0.4049230516 -0.1534877717 -0.1611718237 2.341805152e-38
-0.4032213092 -0.2379069626 -0.1609715819 2.341805152e-38
-0.3845115602 -0.1772536188 -0.1552784592 2.341805152e-38
-0.3874000907 -0.1664334089 -0.1565392166 2.341805152e-38
-0.05435873568 -0.2640721798 -0.03134552389 2.341805152e-38
-0.05000990629 -0.343478024 -0.03325251862 2.341805152e-38
-0.04211378843 -0.2929767072 -0.01980764046 2.341805152e-38
-0.05586764961 -0.2254026979 -0.0324130021 2.341805152e-38
-0.06210457534 -0.2459859103 -0.1444060206 2.341805152e-38
-0.05977573246 -0.3695578277 -0.1346753538 2.341805152e-38
-0.05295369774 -0.3040142357 -0.1206045002 2.341805152e-38
-0.06666920334 -0.1725732237 -0.1368130893 2.341805152e-38
-0.4886929989 -0.2489084601 0.1382327825 2.341805152e-38
-0.4823195338 -0.343306154 0.116585359 2.341805152e-38
-0.4803822041 -0.2680677772 0.1537883878 2.341805152e-38
-0.4792844653 -0.2517288923 0.1523063332 2.341805152e-38
-0.4732499123 -0.2997114956 -0.1542235017 2.341805152e-38
-0.4869259596 -0.3734625578 -0.1619204134 2.341805152e-38
-0.4534808993 -0.3304054141 -0.1702287793 2.341805152e-38
-0.4757478833 -0.2823986709 -0.1638270766 2.341805152e-38
-0.08179719001 -0.2339074314 0.2744583189 2.341805152e-38
-0.08771102875 -0.3252440989 0.275048852 2.341805152e-38
-0.08474574238 -0.2767212987 0.2802509069 2.341805152e-38
-0.09506506473 -0.1974011213 0.2710149288 2.341805152e-38
-0.4301255047 -0.3026461899 -0.1608878374 2.341805152e-38
-0.4212596714 -0.3881163299 -0.1603345126 2.341805152e-38
-0.408415854 -0.3304566741 -0.1557451785 2.341805152e-38
-0.4213983417 -0.2856531143 -0.1602976471 2.341805152e-38
-0.05606371164 -0.2687959373 0.2583186328 2.341805152e-38
-0.06506665796 -0.3513763845 0.2570429742 2.341805152e-38
-0.05824812502 -0.3018303216 0.2699970603 2.341805152e-38
-0.064266406 -0.2339441925 0.2580657899 2.341805152e-38
-0.1385307014 -0.2206321657 -0.1612884849 2.341805152e-38
-0.134603858 -0.3303429186 -0.1583319306 2.341805152e-38
-0.1258128285 -0.2620004714 -0.1456886828 2.341805152e-38
-0.138546735 -0.1771366894 -0.1573258489 2.341805152e-38
-0.4862039089 -0.1379900575 -0.1770228446 2.341805152e-38
-0.4904904962 -0.2096877694 -0.1639369726 2.341805152e-38
-0.4637607336 -0.1409504414 -0.1715851575 2.341805152e-38
-0.4730576873 -0.143507272 -0.1668381095 2.341805152e-38
-0.08498940617 -0.2453404814 -0.1493998915 2.341805152e-38
-0.08177743107 -0.3530343771 -0.1438472271 2.341805152e-38
-0.07186166197 -0.2959659696 -0.1281923354 2.341805152e-38
-0.08655139059 -0.1900756061 -0.144932881 2.341805152e-38
-0.05030594021 -0.2559921741 0.1606353968 2.341805152e-38
-0.05789682269 -0.3389749527 0.1627678424 2.341805152e-38
-0.05471626669 -0.2886368036 0.1707387716 2.341805152e-38
-0.05998180062 -0.2186832577 0.1593406498 2.341805152e-38
-0.4357809424 -0.2848224938 -0.1475442052 2.341805152e-38
-0.444845438 -0.3750248253 -0.1546712518 2.341805152e-38
-0.4260001481 -0.3107966483 -0.1496399939 2.341805152e-38
-0.441534102 -0.2612452209 -0.1493502706 2.341805152e-38
-0.05561491102 -0.2022880614 -0.06915806234 2.341805152e-38
-0.05782382935 -0.2927178741 -0.05907123536 2.341805152e-38
-0.04024308175 -0.2322058827 -0.04251148552 2.341805152e-38
-0.05580587685 -0.1653749645 -0.05215449631 2.341805152e-38
-0.05785861611 -0.2403604984 0.2507395148 2.341805152e-38
-0.06280074269 -0.3216015697 0.2478003353 2.341805152e-38
-0.0591435656 -0.2758016884 0.2603314221 2.341805152e-38
-0.06918806583 -0.2062101066 0.2465454787 2.341805152e-38
-0.3940006495 -0.2900256217 -0.146920085 2.341805152e-38
-0.4060646594 -0.3564170897 -0.1608739495 2.341805152e-38
-0.3650337756 -0.313819617 -0.1484988779 2.341805152e-38
-0.3759045899 -0.2785193026 -0.1560928226 2.341805152e-38
-0.4062401354 -0.1829678267 -0.1576821208 2.341805152e-38
-0.4207473695 -0.2726410031 -0.1581098288 2.341805152e-38
-0.3920947611 -0.2002607882 -0.1616525352 2.341805152e-38
-0.406093657 -0.1803673655 -0.1596427858 2.341805152e-38
-0.4411848783 -0.2735401094 -0.1461139023 2.341805152e-38
-0.4525388479 -0.3515658379 -0.1482764035 2.341805152e-38
-0.4234768152 -0.3010492623 -0.1578584909 2.341805152e-38
-0.445425868 -0.2464155257 -0.1546262205 2.341805152e-38
-0.04571719468 -0.2165408581 -0.08806431293 2.341805152e-38
-0.04059711844 -0.3048357069 -0.08196806908 2.341805152e-38
-0.03579489142 -0.2418817431 -0.06051225215 2.341805152e-38
-0.04362167418 -0.1745058 -0.07244932652 2.341805152e-38
-0.07684349269 -0.2202666104 -0.1469487101 2.341805152e-38
-0.06928948313 -0.3105650246 -0.141761452 2.341805152e-38
-0.05908127874 -0.2507400811 -0.1330628246 2.341805152e-38
-0.0718106851 -0.1653103977 -0.1439854205 2.341805152e-38
-0.06398729235 -0.2288860083 -0.09888014197 2.341805152e-38
-0.06441626698 -0.3155997694 -0.09381081164 2.341805152e-38
-0.06066658348 -0.259744823 -0.07381447405 2.341805152e-38
-0.07110739499 -0.1805728972 -0.08707495779 2.341805152e-38
