# .PCD v0.7 - Point Cloud Data file format
VERSION 0.7
FIELDS x y z rgb
SIZE 4 4 4 4
TYPE F F F F
COUNT 1 1 1 1
WIDTH 829
HEIGHT 1
VIEWPOINT 0 0 0 1 0 0 0
POINTS 829
DATA ascii
-0.1849580705 0.07158197463 0.008995547891 1.478322936e-38
-0.1126272529 -0.4519166648 -0.1471342593 1.478322936e-38
-0.1339898556 -0.4146474898 -0.1502314508 1.478322936e-38
-0.1042897552 -0.4004607201 -0.148149237 1.478322936e-38
-0.112003684 -0.4189313054 -0.1179801226 1.478322936e-38
-0.2644469142 -0.4873206019 -0.273189038 1.478322936e-38
-0.3159617782 -0.4876393676 -0.2449776232 1.478322936e-38
-0.1949607283 -0.485162288 -0.2580878437 1.478322936e-38
-0.2917465568 -0.4896400571 -0.1810124218 1.478322936e-38
-0.2466713935 -0.2628400326 -0.2496653497 1.478322936e-38
-0.2654439211 -0.1574225277 -0.244769752 1.478322936e-38
-0.2336366624 -0.09909445047 -0.239138186 1.478322936e-38
-0.2357702404 -0.1962106824 -0.2397358418 1.478322936e-38
0.3171885014 -0.3604579568 -0.001392193139 1.478322936e-38
0.3129883409 -0.2330537736 -0.01710546017 1.478322936e-38
0.3185133338 -0.1551690698 -0.007187597454 1.478322936e-38
0.3186125159 -0.2980173826 0.004199367017 1.478322936e-38
0.3421226144 -0.3628510535 -0.01060196385 1.478322936e-38
0.342247963 -0.2220635265 -0.02941798791 1.478322936e-38
0.3342691064 -0.1557793915 -0.01617139764 1.478322936e-38
0.3366821408 -0.2874860168 -0.009440794587 1.478322936e-38
-0.1002734154 -0.4487969577 -0.1287239343 1.478322936e-38
-0.1190820932 -0.4157109857 -0.1432671994 1.478322936e-38
-0.078983441 -0.4054828882 -0.142775625 1.478322936e-38
-0.10221982 -0.4215379059 -0.111595273 1.478322936e-38
0.3250062466 -0.2119704634 0.02287229523 1.478322936e-38
0.3174818158 -0.08878143877 -0.001102536917 1.478322936e-38
0.3182246089 -0.03801241145 0.01528454572 1.478322936e-38
0.310369432 -0.1483148783 0.02363908663 1.478322936e-38
-0.1030623913 -0.04024718329 -0.2563906312 1.771655483e-38
-0.1330471635 0.01977292262 -0.2495853752 1.771655483e-38
-0.06242004782 0.02532985248 -0.2645948827 1.771655483e-38
-0.08817340434 -0.005213364027 -0.2586625218 1.771655483e-38
0.3175503016 -0.4603564143 0.02333721891 1.771655483e-38
0.3204358816 -0.380194515 0.005800951272 1.771655483e-38
0.3151813745 -0.3021185696 0.01359643415 1.771655483e-38
0.3206009269 -0.4216748178 0.02900597081 1.771655483e-38
-0.02160842717 -0.4866063893 -0.1067707092 1.771655483e-38
-0.06393106282 -0.4847691655 -0.1403538436 1.771655483e-38
0.06184563786 -0.4865375161 -0.1076563895 1.771655483e-38
-0.008593164384 -0.4888032675 -0.02687445469 1.771655483e-38
0.139817521 -0.4823631048 -0.03277386725 1.771655483e-38
0.1077477336 -0.4785138369 -0.05948944762 1.771655483e-38
0.1819726527 -0.4556198418 -0.04573744535 1.771655483e-38
0.1518858373 -0.4880545139 0.01603661478 1.771655483e-38
0.3312682509 -0.2186038196 -0.02775826305 1.771655483e-38
0.32687217 -0.09768159688 -0.05337519199 1.771655483e-38
0.3248987198 -0.0516134128 -0.03600925952 1.771655483e-38
0.3267289996 -0.1479580402 -0.0304504931 1.771655483e-38
-0.1529974192 0.07173527777 -0.1503684074 1.771655483e-38
-0.2074495703 0.07231017202 -0.1024561822 1.771655483e-38
-0.1088271737 0.07178798318 -0.09091776609 1.771655483e-38
-0.1865491122 0.07361745089 -0.03463456407 1.771655483e-38
-0.1696274281 0.07028008252 -0.1853234023 1.771655483e-38
-0.2315457612 0.07190216333 -0.132565558 1.771655483e-38
-0.1210735738 0.07073564827 -0.1058454961 1.771655483e-38
-0.2023035437 0.07326589525 -0.03270313889 1.771655483e-38
0.3123075366 -0.4270778596 0.05054357275 1.771655483e-38
0.3113797307 -0.3505308926 0.02952168509 1.771655483e-38
0.3099013567 -0.3079388738 0.04719906673 1.771655483e-38
0.3143767715 -0.3756428063 0.06014984474 1.771655483e-38
0.3195559978 -0.2103314251 -0.006917454302 1.771655483e-38
0.3199464679 -0.07740435004 -0.02619817667 1.771655483e-38
0.3147355318 -0.03130828217 -0.01250540093 1.771655483e-38
0.3119968176 -0.1405355036 -0.002167224884 1.771655483e-38
-0.04323638231 -0.486554414 -0.008125457913 1.771655483e-38
-0.06387737393 -0.4845081568 -0.08597691357 1.771655483e-38
0.05737632886 -0.487721771 -0.03494022787 1.771655483e-38
-0.01244658977 -0.4876434803 0.04905198887 1.771655483e-38
0.167034328 -0.4540451765 0.08942615986 1.771655483e-38
0.1596812308 -0.4273196459 0.05083649978 1.771655483e-38
0.1927047372 -0.4168834388 0.06718075275 1.771655483e-38
0.1757981181 -0.4277264476 0.1112414896 1.771655483e-38
0.04852855206 -0.4852896333 -0.04044594616 1.771655483e-38
0.01776578277 -0.4811170101 -0.08628621697 1.771655483e-38
0.1287422478 -0.4843252599 -0.04927137494 1.771655483e-38
0.06401263177 -0.4877893031 0.03379699215 1.771655483e-38
-0.02649191022 -0.4288398325 0.02941495553 1.771655483e-38
-0.02821487933 -0.3958611786 0.009413465858 1.771655483e-38
0.01080839336 -0.3953488171 0.01739695296 1.771655483e-38
-0.03055083752 -0.3962810934 0.0546891503 1.771655483e-38
-0.09055091441 -0.4549691081 -0.06873366237 1.771655483e-38
-0.1017291099 -0.4309512079 -0.09521945566 1.771655483e-38
-0.05977321416 -0.4249312282 -0.07720939815 1.771655483e-38
-0.09384934604 -0.4269199073 -0.03691957518 1.771655483e-38
0.2959722579 -0.4784269035 -0.002098891884 1.771655483e-38
0.2857421637 -0.4408244789 -0.01737964898 1.771655483e-38
0.2999096811 -0.3757920563 0.002874549478 1.771655483e-38
0.303869158 -0.4555548131 0.02647187933 1.771655483e-38
0.1072215363 -0.4830432236 0.02296187356 1.771655483e-38
0.08290036768 -0.4826939702 -0.03803959861 1.771655483e-38
0.1851533353 -0.4811331928 0.002439647913 1.771655483e-38
0.1269371808 -0.4816124737 0.07391192019 1.771655483e-38
-0.2483607978 -0.1456247717 -0.244585216 1.771655483e-38
-0.2573471665 -0.09104567021 -0.2567418814 1.771655483e-38
-0.23309879 -0.07947789133 -0.2439205796 1.771655483e-38
-0.2434478849 -0.1098580807 -0.2334289253 1.771655483e-38
0.3189852834 -0.3614117801 0.02988151833 1.771655483e-38
0.3087121248 -0.2482383102 0.02553957328 1.771655483e-38
0.3144107461 -0.1973234415 0.03522095457 1.771655483e-38
0.3093577027 -0.2945193946 0.03150716797 1.771655483e-38
-0.1324312836 -0.05676496774 -0.2623555362 1.771655483e-38
-0.1473028511 0.00878262613 -0.2628605366 1.771655483e-38
-0.08689114451 0.01905933581 -0.2636582255 1.771655483e-38
-0.1085611135 -0.01099584717 -0.2563890219 1.771655483e-38
0.02917522565 -0.4859187901 0.03854070231 1.771655483e-38
0.01923429966 -0.4823276401 -0.03179083765 1.771655483e-38
0.12778458 -0.483997345 0.005963560194 1.771655483e-38
0.06063866243 -0.484036535 0.08049432933 1.771655483e-38
-0.05167657882 -0.4385005534 0.004961848259 1.771655483e-38
-0.06659507751 -0.3970431089 -0.01321433857 1.771655483e-38
-0.02702898532 -0.3901768327 -0.008440028876 1.771655483e-38
-0.0598250851 -0.4033972621 0.02379192784 1.771655483e-38
0.3523387313 -0.1179907769 -0.03747612238 1.771655483e-38
0.3429839611 -0.02087390795 -0.05547732115 1.771655483e-38
0.3496955633 -0.00698711304 -0.03627444804 1.771655483e-38
0.3505110741 -0.05405315384 -0.02796873823 1.771655483e-38
-0.2828512192 -0.2641806901 -0.2565822899 1.771655483e-38
-0.2892145514 -0.1351620108 -0.2675667107 1.771655483e-38
-0.2761099339 -0.07520711422 -0.2510570884 1.771655483e-38
-0.2798122764 -0.1825160086 -0.2464220375 1.771655483e-38
0.1420175135 -0.4803939164 0.03310830519 1.771655483e-38
0.128785789 -0.4755608141 -0.01519377343 1.771655483e-38
0.185105145 -0.4574269354 0.01703583822 1.771655483e-38
0.1578906178 -0.4770972133 0.07795363665 1.771655483e-38
0.3473001122 -0.2661074996 0.0226268135 1.771655483e-38
0.340382278 -0.1362681538 0.002878218889 1.771655483e-38
0.3377673626 -0.07372844219 0.008919235319 1.771655483e-38
0.3423671126 -0.2008939981 0.01885302737 1.771655483e-38
-0.2252429575 -0.1018129662 -0.263399303 1.771655483e-38
-0.2463769764 -0.0188164264 -0.2601387501 1.771655483e-38
-0.2024736255 0.007938091643 -0.272901088 1.771655483e-38
-0.2145935744 -0.03317896277 -0.267795682 1.771655483e-38
-0.175912112 -0.4837510288 -0.2026365548 1.771655483e-38
-0.1984128505 -0.4556692541 -0.1987351328 1.771655483e-38
-0.1475512385 -0.4501695633 -0.2028799057 1.771655483e-38
-0.1621958166 -0.4767635465 -0.1690395772 1.771655483e-38
0.008258529007 -0.4381403625 0.06376720965 1.771655483e-38
-0.003082618117 -0.3993621171 0.04804582521 1.771655483e-38
0.04347241297 -0.3927236199 0.04619637504 1.771655483e-38
0.01055667177 -0.4002808332 0.0778645277 1.771655483e-38
0.3365565538 -0.2215019763 7.97919929e-05 1.771655483e-38
0.3282786012 -0.09558411688 -0.02563986182 1.771655483e-38
0.3325479627 -0.05614800751 -0.01062871516 1.771655483e-38
0.3326695561 -0.1489443183 -0.002551484853 1.771655483e-38
-0.03609459847 -0.4454626143 0.001862313598 1.771655483e-38
-0.04247519374 -0.4143696427 -0.02045924775 1.771655483e-38
0.002515267581 -0.41398862 -0.008252166212 1.771655483e-38
-0.04329896718 -0.416334331 0.02850076184 1.771655483e-38
0.1287923157 -0.4391376972 0.1149457544 1.771655483e-38
0.1278378069 -0.4096797407 0.07962368429 1.771655483e-38
0.1646130979 -0.4038597047 0.09196574986 1.771655483e-38
0.1375514567 -0.4113966525 0.1317498535 1.771655483e-38
0.3135259748 -0.4635846317 0.01623752341 1.771655483e-38
0.3122478724 -0.4104326367 -0.002564195544 1.771655483e-38
0.3114875555 -0.3544533849 0.01750206202 1.771655483e-38
0.3185738921 -0.4328126013 0.03430160508 1.771655483e-38
-0.08520641923 -0.4446167946 -0.07676270604 2.06466517e-38
-0.104669854 -0.4115540981 -0.1046558172 2.06466517e-38
-0.05978106707 -0.4071639776 -0.08559147269 2.06466517e-38
-0.0971133858 -0.4115288854 -0.05089936405 2.06466517e-38
-0.07501350343 -0.4858272374 -0.03825929016 2.06466517e-38
-0.08928973973 -0.4806262851 -0.09470556676 2.06466517e-38
0.007715988904 -0.4808009565 -0.06838192046 2.06466517e-38
-0.04642769694 -0.4861353338 0.009558610618 2.06466517e-38
0.2616642118 0.07231469452 0.04984327778 2.06466517e-38
0.1822051406 0.07429416478 0.1156437248 2.06466517e-38
0.2805958986 0.07249537855 0.1022354066 2.06466517e-38
0.2285223901 0.07340970635 0.1749005318 2.06466517e-38
0.3164584637 -0.08606643975 -0.04021512344 2.06466517e-38
0.3126589656 0.003544194158 -0.05449810252 2.06466517e-38
0.3182775378 0.02138646133 -0.03455172479 2.06466517e-38
0.3194829226 -0.02753712609 -0.02330810577 2.06466517e-38
0.1412540674 -0.482786417 0.06598158181 2.06466517e-38
0.1269033253 -0.4862487614 -0.004573322833 2.06466517e-38
0.2222998738 -0.4801630676 0.03322861716 2.06466517e-38
0.1664060354 -0.4888031483 0.1070805341 2.06466517e-38
0.3365883231 -0.2441734523 0.03164617345 2.06466517e-38
0.3343250751 -0.1021609455 0.01538509503 2.06466517e-38
0.3288875222 -0.03099884652 0.0270855464 2.06466517e-38
0.3304465413 -0.1596991271 0.03757119551 2.06466517e-38
0.3024346232 -0.3600345552 0.006356053054 2.06466517e-38
0.3093815446 -0.2029652596 -0.001300781965 2.06466517e-38
0.301384598 -0.1223741174 0.007661316544 2.06466517e-38
0.2988704443 -0.2710480392 0.01417978108 2.06466517e-38
-0.01732125133 -0.4465061128 0.0742200464 2.06466517e-38
-0.02937838435 -0.4043015838 0.06117702648 2.06466517e-38
0.002590980381 -0.3896079361 0.06643055379 2.06466517e-38
-0.0215844065 -0.4142819345 0.08966854215 2.06466517e-38
0.0971019417 -0.4813216627 0.04218158498 2.06466517e-38
0.07822789997 -0.4802622795 -0.02600473538 2.06466517e-38
0.1731080711 -0.4804802239 0.01249700412 2.06466517e-38
0.1179221123 -0.4766706526 0.08589588106 2.06466517e-38
-0.2068351656 -0.4464633465 -0.152200073 2.06466517e-38
-0.2221616358 -0.4052210748 -0.1683229953 2.06466517e-38
-0.1858032942 -0.4010183513 -0.1534412354 2.06466517e-38
-0.2172594815 -0.403891325 -0.1096496433 2.06466517e-38
-0.1726893634 -0.01183882076 -0.2502484918 2.06466517e-38
-0.2007514387 0.01994713955 -0.2493452728 2.06466517e-38
-0.1342536211 0.02331622131 -0.2458297759 2.06466517e-38
-0.1604418904 0.009009441361 -0.2328186333 2.06466517e-38
-0.06578233838 -0.4888760746 -0.1637949198 2.06466517e-38
-0.140142113 -0.4865767956 -0.1646032631 2.06466517e-38
0.02204147726 -0.486487627 -0.1333007067 2.06466517e-38
-0.08035293221 -0.488730371 -0.02110823616 2.06466517e-38
0.1665322185 -0.4655986726 0.09694196284 2.06466517e-38
0.1497932076 -0.414242655 0.09806367755 2.06466517e-38
0.1830544174 -0.3817564845 0.09228995442 2.06466517e-38
0.172840029 -0.432792604 0.103433013 2.06466517e-38
-0.186830923 -0.4890763462 0.001903172582 2.06466517e-38
-0.1886145175 -0.4903461337 -0.1238056272 2.06466517e-38
-0.01048083603 -0.4880993068 -0.056504637 2.06466517e-38
-0.1209243089 -0.4895733297 0.07877968252 2.06466517e-38
-0.01874400675 -0.4861918688 0.05742609873 2.06466517e-38
-0.0397491008 -0.4826995134 -0.03239066154 2.06466517e-38
0.0967272073 -0.4860451818 0.0151469335 2.06466517e-38
0.02136253193 -0.4879203439 0.1034067869 2.06466517e-38
0.3349897265 -0.191916123 0.03864311799 2.06466517e-38
0.318425715 -0.1210035756 0.02201008424 2.06466517e-38
0.3353640437 -0.09385643899 0.0252882652 2.06466517e-38
0.3346614242 -0.1406919658 0.04203526303 2.06466517e-38
-0.005380708724 -0.4461834431 0.1025556922 2.06466517e-38
-0.01081737131 -0.406394124 0.09097795188 2.06466517e-38
0.01890000328 -0.3965949118 0.09331573546 2.06466517e-38
-0.005447868258 -0.4161226153 0.1164766997 2.06466517e-38
0.08973824978 -0.4835266769 0.08952228725 2.06466517e-38
0.08446501195 -0.4794927537 0.03109435365 2.06466517e-38
0.1449358761 -0.4624694586 0.05636725947 2.06466517e-38
0.1263121068 -0.4853279591 0.1158199608 2.06466517e-38
0.3225620389 -0.2912757099 0.03322285041 2.06466517e-38
0.3105682135 -0.160496518 0.01397647709 2.06466517e-38
0.313773036 -0.09706874192 0.02786799148 2.06466517e-38
0.3136757016 -0.2038493901 0.03359608725 2.06466517e-38
-0.01930751652 -0.4389766753 0.05652673915 2.06466517e-38
-0.0281451568 -0.4012557268 0.03500299528 2.06466517e-38
0.004321221262 -0.3962423503 0.04047233984 2.06466517e-38
-0.02290153503 -0.4062805772 0.07200752199 2.06466517e-38
-0.2795404196 -0.3840019405 -0.2817382514 2.06466517e-38
-0.2901560664 -0.2724745572 -0.2777461112 2.06466517e-38
-0.2757528424 -0.2227548063 -0.266207099 2.06466517e-38
-0.2757593989 -0.3113626838 -0.2601430118 2.06466517e-38
0.3296877742 -0.1951242536 0.04132382944 2.06466517e-38
0.3173594475 -0.08377675712 0.01766417176 2.06466517e-38
0.3199423552 -0.05354745686 0.03342822567 2.06466517e-38
0.321693182 -0.124982886 0.03853685036 2.06466517e-38
-0.01393260062 -0.4448450804 0.1182454973 2.06466517e-38
-0.02325867116 -0.4055541158 0.108422175 2.06466517e-38
0.01033850014 -0.3961234689 0.1133470684 2.06466517e-38
-0.01375060529 -0.4122721255 0.1319161654 2.06466517e-38
0.142113626 -0.4727442265 0.1248627454 2.06466517e-38
0.132373035 -0.4144669771 0.1278965026 2.06466517e-38
0.1602158099 -0.3600858748 0.1223996431 2.06466517e-38
0.1594285667 -0.4402786791 0.1325941682 2.06466517e-38
-0.3094143271 -0.196841836 -0.2562710047 2.06466517e-38
-0.3074962497 -0.07567636669 -0.2606688738 2.06466517e-38
-0.292071104 -0.03816291317 -0.2498462349 2.06466517e-38
-0.2938742042 -0.1272522509 -0.2489757985 2.06466517e-38
-0.1168045998 -0.4895273745 -0.1549727619 2.06466517e-38
-0.1696297526 -0.4853156507 -0.1703370064 2.06466517e-38
-0.02682606131 -0.4863279164 -0.1444289237 2.06466517e-38
-0.1202825606 -0.4889504611 -0.0395036079 2.06466517e-38
0.2774110436 -0.487978369 0.00988003239 2.06466517e-38
0.2389996648 -0.4895968437 -0.05379998684 2.06466517e-38
0.3188345432 -0.4859695137 0.02771006152 2.06466517e-38
0.2644907832 -0.4895589352 0.1150539219 2.06466517e-38
-0.1353813708 0.07304511964 -0.07667565346 2.06466517e-38
-0.1881119609 0.07201952487 -0.01508691162 2.06466517e-38
-0.1102677584 0.07235063612 0.002167075872 2.06466517e-38
-0.1792214662 0.07270051539 0.06600835919 2.06466517e-38
-0.2676135302 -0.4921301603 -0.08548784256 2.06466517e-38
-0.2761186957 -0.4906888604 -0.1755698174 2.06466517e-38
-0.1367925853 -0.4901611507 -0.125603199 2.06466517e-38
-0.240882203 -0.4908663929 -0.003768820316 2.06466517e-38
-0.1952597052 -0.07449118793 -0.2733171284 2.06466517e-38
-0.2101074606 0.01243585534 -0.2705636322 2.06466517e-38
-0.1607353538 0.03153326362 -0.2688379884 2.06466517e-38
-0.1725060195 -0.01634817384 -0.2675884366 2.06466517e-38
-0.1656247228 -0.05920985341 -0.2502470911 2.06466517e-38
-0.1870054007 0.02662987821 -0.2496147603 2.06466517e-38
-0.1436254084 0.04740708321 -0.2487497181 2.06466517e-38
-0.1551232338 -0.004071893636 -0.2416321486 2.06466517e-38
-0.001479100436 -0.4840434194 0.09313425422 2.06466517e-38
-0.01760198176 -0.479287982 0.02094223723 2.06466517e-38
0.08519159257 -0.4834957123 0.05653875694 2.06466517e-38
0.0297781378 -0.4815527201 0.1247769594 2.06466517e-38
0.3357325792 -0.09953139722 -0.006791196764 2.348204041e-38
0.3197757006 -0.03773864359 -0.02227189019 2.348204041e-38
0.3375942111 -0.0422363393 -0.009395062923 2.348204041e-38
0.3378631473 -0.0593445152 -0.001568455249 2.348204041e-38
-0.1361842155 -0.4884855747 -0.149714455 2.348204041e-38
-0.1740832776 -0.4866356254 -0.1720844805 2.348204041e-38
-0.03427581489 -0.4878663123 -0.1577520669 2.348204041e-38
-0.1222495437 -0.4892471433 -0.06825851649 2.348204041e-38
-0.3120620251 -0.4913202226 -0.1658112258 2.348204041e-38
-0.3269526958 -0.4876963496 -0.2082068473 2.348204041e-38
-0.1883850247 -0.4901033938 -0.1685274541 2.348204041e-38
-0.314679563 -0.4918739796 -0.05567982048 2.348204041e-38
-0.3161370754 0.06586954743 -0.2279837579 2.348204041e-38
-0.3431578875 0.06923560798 -0.1875006855 2.348204041e-38
-0.274056375 0.06930748373 -0.1730230302 2.348204041e-38
-0.3402872086 0.07393110543 -0.09563438594 2.348204041e-38
0.1474260986 -0.4415300786 0.1697533727 2.348204041e-38
0.1384737045 -0.400546819 0.1462345123 2.348204041e-38
0.179145962 -0.3887659907 0.1516955495 2.348204041e-38
0.152857393 -0.4051309824 0.1807543486 2.348204041e-38
-0.1425800771 0.07275867462 -0.06709490716 2.348204041e-38
-0.210111931 0.0719819963 0.01057726145 2.348204041e-38
-0.1202171743 0.07294179499 0.04319762811 2.348204041e-38
-0.1952073425 0.07231637836 0.1202112585 2.348204041e-38
-0.1882714033 -0.4874143898 -0.2106767744 2.348204041e-38
-0.2234476954 -0.475358218 -0.2158851773 2.348204041e-38
-0.139449805 -0.4802671075 -0.2066940367 2.348204041e-38
-0.2015118152 -0.4874913096 -0.1221675873 2.348204041e-38
-0.08790697157 -0.4592848122 0.01662438735 2.348204041e-38
-0.09446127713 -0.4417663515 -0.0236984212 2.348204041e-38
-0.03835779428 -0.4395739436 -0.0007029697299 2.348204041e-38
-0.07856760919 -0.4358558953 0.04461110011 2.348204041e-38
0.1517692208 -0.4516315758 0.1410442442 2.348204041e-38
0.134378016 -0.3997362852 0.1421501338 2.348204041e-38
0.1764627695 -0.3732703924 0.1326314956 2.348204041e-38
0.1653568447 -0.4118149281 0.1474798471 2.348204041e-38
-0.3128272295 -0.2071705014 -0.2704220414 2.348204041e-38
-0.3110644817 -0.09697930515 -0.2823311985 2.348204041e-38
-0.3125414252 -0.06611359119 -0.2542594969 2.348204041e-38
-0.3095122576 -0.1397559643 -0.2499426305 2.348204041e-38
0.1193437725 -0.4842687845 0.1271631718 2.348204041e-38
0.1324678063 -0.4848492146 0.03517972305 2.348204041e-38
0.2171286941 -0.4836550653 0.08168280125 2.348204041e-38
0.1705649495 -0.4874669313 0.1630514562 2.348204041e-38
0.0662997961 -0.4617297351 0.1528443545 2.348204041e-38
0.04429573566 -0.3986313939 0.1505586207 2.348204041e-38
0.07598569989 -0.3557781279 0.1454995424 2.348204041e-38
0.08384943753 -0.4256229997 0.1581270695 2.348204041e-38
-0.02681837231 -0.4652810395 0.1174499243 2.348204041e-38
-0.03856536746 -0.4257563055 0.1045881361 2.348204041e-38
-0.005123157054 -0.4059112668 0.1084358245 2.348204041e-38
-0.02064744383 -0.4376926422 0.1309417039 2.348204041e-38
-0.2391484827 -0.4912164211 -0.1092745364 2.348204041e-38
-0.2636282444 -0.4878669381 -0.1775674224 2.348204041e-38
-0.10226354 -0.4892607033 -0.1416763067 2.348204041e-38
-0.2263072878 -0.4900169373 -0.01125993207 2.348204041e-38
-0.0398805961 -0.4797961116 0.06502184272 2.348204041e-38
-0.04915072769 -0.4707771242 0.0064939484 2.348204041e-38
0.01684463397 -0.4640286565 0.04025846347 2.348204041e-38
-0.01759838313 -0.4715153277 0.1003230065 2.348204041e-38
-0.2859235406 -0.4855323136 -0.2632864714 2.348204041e-38
-0.325457871 -0.4784828126 -0.2574124038 2.348204041e-38
-0.2225344926 -0.481944412 -0.2622873783 2.348204041e-38
-0.3151367903 -0.4858110845 -0.1636853814 2.348204041e-38
-0.2496093363 -0.4918932915 -0.0838380605 2.348204041e-38
-0.2584809661 -0.4903981984 -0.1718990505 2.348204041e-38
-0.1047338247 -0.4892355502 -0.1247372925 2.348204041e-38
-0.2207211405 -0.491396904 -0.001770146191 2.348204041e-38
0.3103322983 -0.1511207819 0.04272478446 2.348204041e-38
0.3033179641 -0.03403731436 0.02143805847 2.348204041e-38
0.3066830039 -0.01490459219 0.04026180878 2.348204041e-38
0.3055568933 -0.08091156185 0.04520556703 2.348204041e-38
-0.140393436 0.07234098017 -0.02896885574 2.348204041e-38
-0.206922546 0.07221972942 0.03349313512 2.348204041e-38
-0.09410403669 0.07323779166 0.05418090895 2.348204041e-38
-0.1801915318 0.07263346761 0.1162489504 2.348204041e-38
0.1748692095 -0.465200007 0.1619587988 2.348204041e-38
0.1658521593 -0.4127652645 0.1526287198 2.348204041e-38
0.2042241096 -0.3924552798 0.149009198 2.348204041e-38
0.183935672 -0.430739373 0.1680568308 2.348204041e-38
-0.1186530739 -0.4478221536 -0.05898104608 2.348204041e-38
-0.1382517368 -0.4039610922 -0.08955473453 2.348204041e-38
-0.09326820076 -0.4022523165 -0.07158543169 2.348204041e-38
-0.1286714375 -0.4050047696 -0.03133475408 2.348204041e-38
-0.3342278004 0.06697169691 -0.2179373652 2.348204041e-38
-0.3521491289 0.06907773763 -0.169155091 2.348204041e-38
-0.289693892 0.06919115782 -0.1616721153 2.348204041e-38
-0.3481057882 0.07370012254 -0.07099707425 2.348204041e-38
0.1284821928 -0.4795556664 0.1567161679 2.348204041e-38
0.1340449452 -0.4598763585 0.1145246774 2.348204041e-38
0.1881782413 -0.4347997904 0.1253156513 2.348204041e-38
0.1680615544 -0.4630133808 0.1689416766 2.348204041e-38
-0.2482800037 0.0684222877 -0.1503826529 2.348204041e-38
-0.2908720374 0.06907164305 -0.08637491614 2.348204041e-38
-0.2129365057 0.07054711878 -0.0523584336 2.348204041e-38
-0.2722733617 0.07221100479 0.03042436764 2.348204041e-38
-0.3136166334 -0.4402830005 -0.1665778756 2.348204041e-38
-0.319507122 -0.3903841078 -0.1867886037 2.348204041e-38
-0.3120167851 -0.3799361289 -0.1600158215 2.348204041e-38
-0.3330210447 -0.4006987512 -0.1339527369 2.348204041e-38
-0.3062925339 -0.4903030097 -0.3243049085 2.348204041e-38
-0.3514301181 -0.4870754182 -0.2965995669 2.348204041e-38
-0.2616702914 -0.4893636107 -0.2902657986 2.348204041e-38
-0.3455685377 -0.4924347103 -0.1864231527 2.348204041e-38
0.3296057582 0.007018778939 -0.02321374603 2.348204041e-38
0.314722836 0.03099470586 -0.03135674447 2.348204041e-38
0.334005475 0.02872875705 -0.003508526832 2.348204041e-38
0.3258938193 0.02719466016 0.01669638231 2.348204041e-38
-0.0143545717 -0.4537516236 0.1662854701 2.348204041e-38
-0.02753444016 -0.419449091 0.1535810381 2.348204041e-38
0.0248211138 -0.4179349542 0.1511679441 2.348204041e-38
-0.007620103657 -0.4209164679 0.182911545 2.348204041e-38
-0.3234866858 -0.4197375476 -0.2852379978 2.348204041e-38
-0.3419702649 -0.319732666 -0.2840904593 2.348204041e-38
-0.3284069896 -0.2586909533 -0.2714951634 2.348204041e-38
-0.3327763081 -0.3560321927 -0.2640999258 2.348204041e-38
0.02843333781 -0.4814237058 0.1496974975 2.348204041e-38
0.02442169935 -0.4689394236 0.1084682047 2.348204041e-38
0.07408811897 -0.4430754781 0.1184850633 2.348204041e-38
0.07395062596 -0.4691548645 0.1638265401 2.348204041e-38
-0.3131252527 -0.3653533757 -0.249013558 2.348204041e-38
-0.317381978 -0.2024129778 -0.2496466935 2.348204041e-38
-0.3081605434 -0.1413154751 -0.2367103696 2.348204041e-38
-0.3040987253 -0.2696508765 -0.2394629121 2.348204041e-38
-0.02654444426 -0.4847418666 0.1610947698 2.348204041e-38
-0.0240586549 -0.4819757938 0.07198646665 2.348204041e-38
0.06141197681 -0.484200418 0.1153485477 2.348204041e-38
0.01961188763 -0.4842524529 0.1929417402 2.348204041e-38
-0.3634548783 -0.1996081471 -0.2660345137 2.346801622e-38
-0.3554843664 -0.04552269354 -0.2682986557 2.346801622e-38
-0.3480347991 0.003092613537 -0.2490793914 2.346801622e-38
-0.3444820642 -0.1049768031 -0.2605656385 2.346801622e-38
0.09427119792 -0.4773146212 0.1475314647 2.346801622e-38
0.1029368341 -0.4541240931 0.1139003187 2.346801622e-38
0.1183122396 -0.3973882794 0.1375269592 2.346801622e-38
0.130561471 -0.4581290185 0.1634457558 2.346801622e-38
-0.3425594568 -0.3849733472 -0.2585512996 2.346801622e-38
-0.3515342474 -0.2292474955 -0.2576682568 2.346801622e-38
-0.334059298 -0.1548122466 -0.2476914078 2.346801622e-38
-0.3300507069 -0.2927158475 -0.2523221374 2.346801622e-38
-0.2437634915 -0.4890812933 -0.3156964481 2.346801622e-38
-0.2899985313 -0.4837966859 -0.2817932367 2.346801622e-38
-0.2101455182 -0.4814576805 -0.2877147198 2.346801622e-38
-0.2602182627 -0.4900048971 -0.2174255401 2.346801622e-38
-0.01882727444 -0.4813556671 0.1175279021 2.346801622e-38
-0.03791158646 -0.4513263404 0.1055021286 2.346801622e-38
0.0112994276 -0.4190440774 0.1106582433 2.346801622e-38
0.008341029286 -0.4635495842 0.1241238713 2.346801622e-38
0.07929232717 -0.4793171287 0.1622360349 2.346801622e-38
0.06922421604 -0.4374386072 0.1558049321 2.346801622e-38
0.1014453843 -0.3966399729 0.1506555527 2.346801622e-38
0.1085094213 -0.4509422779 0.1662498266 2.346801622e-38
-0.3583853245 -0.4298448861 -0.2674623132 2.346801622e-38
-0.3669767976 -0.278767854 -0.266502142 2.346801622e-38
-0.3600354791 -0.2163104415 -0.2538285851 2.346801622e-38
-0.3561762571 -0.3487592936 -0.256703794 2.346801622e-38
-0.1026147008 -0.4538493752 0.1129501611 2.346801622e-38
-0.1157470047 -0.4238634408 0.08455879986 2.346801622e-38
-0.07177467644 -0.4095711112 0.1042057574 2.346801622e-38
-0.09454904497 -0.4262928665 0.1351145506 2.346801622e-38
-0.2414070517 -0.4839014113 -0.2102395296 2.346801622e-38
-0.2855241895 -0.4775146246 -0.2010279 2.346801622e-38
-0.1800399721 -0.4798854291 -0.2199561596 2.346801622e-38
-0.2357355803 -0.486918658 -0.1503317803 2.346801622e-38
-0.4057073593 0.06944584101 -0.24136208 2.346801622e-38
-0.4260758162 0.06789900362 -0.2011609972 2.346801622e-38
-0.3328153491 0.06722938269 -0.1953053176 2.346801622e-38
-0.3915483356 0.07250525057 -0.1475874335 2.346801622e-38
-0.1401894093 -0.4490567148 0.07631567121 2.346801622e-38
-0.1499307305 -0.4268760979 0.04670987651 2.346801622e-38
-0.1013021469 -0.421621263 0.06287299097 2.346801622e-38
-0.1286443174 -0.4233431816 0.0937846899 2.346801622e-38
-0.2756106853 -0.02834515087 -0.2770904601 2.346801622e-38
-0.3037845492 0.02447537705 -0.2572279572 2.346801622e-38
-0.2086304277 0.03096312284 -0.2657973766 2.346801622e-38
-0.2368347198 0.01591693982 -0.2601509094 2.346801622e-38
-0.1862340271 -0.4367749691 -0.04749113321 2.346801622e-38
-0.2025574297 -0.4216291904 -0.0876044333 2.346801622e-38
-0.1628626138 -0.4101449549 -0.06408962607 2.346801622e-38
-0.1869123876 -0.4127203226 -0.02594677545 2.346801622e-38
-0.4480805993 0.05534270406 -0.2581466734 2.346801622e-38
-0.4519526362 0.06446784735 -0.2323010117 2.346801622e-38
-0.4008913636 0.06200622767 -0.2330929786 2.346801622e-38
-0.4395582676 0.05855141953 -0.1981644332 2.346801622e-38
-0.2923364639 -0.03829998523 -0.2897197008 2.346801622e-38
-0.3090931773 0.03856253251 -0.265314877 2.346801622e-38
-0.2395080179 0.05561514571 -0.272413075 2.346801622e-38
-0.2554892898 0.01116542239 -0.2645801306 2.346801622e-38
-0.3276762366 -0.04335639253 -0.3025722206 2.346801622e-38
-0.331944406 0.02614617348 -0.2867911756 2.346801622e-38
-0.2799826264 0.03682291135 -0.2901715338 2.346801622e-38
-0.3039134145 -0.00495295506 -0.2851397693 2.346801622e-38
-0.3048125505 0.06836313754 -0.1430022717 2.346801622e-38
-0.352869153 0.07045827061 -0.1003414914 2.346801622e-38
-0.2463963777 0.06961844862 -0.06749708205 2.346801622e-38
-0.3125874996 0.07186172903 0.01311083511 2.346801622e-38
-0.390840292 -0.2481890321 -0.2537359893 2.346801622e-38
-0.3970146775 -0.09646958113 -0.2465461344 2.346801622e-38
-0.3751899004 -0.0473972857 -0.244542703 2.346801622e-38
-0.3752978444 -0.1476057768 -0.25096035 2.346801622e-38
-0.153566584 -0.4651762545 0.08147697151 2.346801622e-38
-0.1669323742 -0.4127568901 0.07049484551 2.346801622e-38
-0.1336374581 -0.3687297106 0.08556967974 2.346801622e-38
-0.1313455254 -0.4279033542 0.1004006267 2.346801622e-38
-0.35644418 -0.4067100883 -0.2580102086 2.346801622e-38
-0.3689057827 -0.2826603353 -0.2569572926 2.346801622e-38
-0.3474649787 -0.2108853459 -0.248784259 2.346801622e-38
-0.3496994972 -0.3252896965 -0.2555761635 2.346801622e-38
-0.2746368647 -0.4909127653 -0.03739230707 2.346801622e-38
-0.2799530029 -0.4897006154 -0.1494121999 2.346801622e-38
-0.1176536381 -0.489925921 -0.09215057641 2.346801622e-38
-0.2282698601 -0.489580065 0.03004000708 2.346801622e-38
-0.1243050992 -0.4435071349 0.03702646866 2.346801622e-38
-0.1433903426 -0.3979240358 0.02595656738 2.346801622e-38
-0.1055368781 -0.3943376541 0.02630579844 2.346801622e-38
-0.1225955635 -0.4081267416 0.0483016856 2.346801622e-38
-0.3312268853 -0.4876319468 -0.230378747 2.346801622e-38
-0.3531433344 -0.4870076776 -0.2410445809 2.346801622e-38
-0.2240421921 -0.4870172143 -0.233427465 2.346801622e-38
-0.3405387998 -0.4882613719 -0.1203211248 2.346801622e-38
-0.3123825788 -0.05905307084 -0.3021068871 2.346801622e-38
-0.3189157844 0.01709320024 -0.2872921824 2.346801622e-38
-0.2732765079 0.03176477551 -0.2822719514 2.346801622e-38
-0.2892965078 -0.02071763203 -0.2807047665 2.346801622e-38
0.327955246 -0.02827150747 0.04878017679 2.346801622e-38
0.304677844 0.03190960363 0.04113885388 2.346801622e-38
0.3301416636 0.03610880673 0.04280136153 2.346801622e-38
0.318986237 0.01478953194 0.05822504684 2.346801622e-38
-0.3259397745 -0.4676447213 -0.2687398791 2.346801622e-38
-0.3415346742 -0.3558171093 -0.2681823075 2.346801622e-38
-0.329957962 -0.2879551947 -0.2508727014 2.346801622e-38
-0.3330295086 -0.4147604704 -0.245947212 2.346801622e-38
-0.1510291249 -0.4226229787 0.03843269125 2.346801622e-38
-0.1664257348 -0.3829331994 0.01329725981 2.346801622e-38
-0.1193756312 -0.3679891527 0.02531308308 2.346801622e-38
-0.1513751298 -0.3801049292 0.05979491398 2.346801622e-38
0.3346455097 -0.0985224992 0.07026253641 2.346801622e-38
0.3135079741 -0.03164591268 0.05615536496 2.346801622e-38
0.3348765969 -0.02275264449 0.06232910231 2.346801622e-38
0.332367599 -0.05369291827 0.07008497417 2.346801622e-38
-0.06517921388 -0.4839870036 0.1351422668 2.346801622e-38
-0.07262058556 -0.4783706665 0.07811079919 2.346801622e-38
0.02280023322 -0.4820079505 0.1094333977 2.346801622e-38
-0.01094668359 -0.4829915166 0.1641076803 2.346801622e-38
0.3345882893 0.04756336659 -0.02127677575 2.346801622e-38
0.3194810152 0.06649204344 -0.0219217632 2.346801622e-38
0.3462384343 0.06730657071 0.01340798661 2.346801622e-38
0.330396533 0.06457082927 0.04618276283 2.346801622e-38
-0.3916878104 -0.1167324111 -0.2733323574 2.346801622e-38
-0.3874498606 -0.03116110153 -0.2731629312 2.346801622e-38
-0.3704063296 -0.01394385751 -0.2614974082 2.346801622e-38
-0.3771430254 -0.07356028259 -0.272745043 2.346801622e-38
-0.4021195769 -0.3912586272 -0.2744601965 2.346801622e-38
-0.4119402766 -0.2542621195 -0.2624844015 2.346801622e-38
-0.4044770598 -0.1919553131 -0.2625393569 2.346801622e-38
-0.4051774144 -0.3099944293 -0.2522962391 2.346801622e-38
-0.2448410243 -0.4863781333 -0.08619396389 2.345219836e-38
-0.2497397512 -0.481754303 -0.1449628621 2.345219836e-38
-0.1881461442 -0.4829827845 -0.1112156212 2.345219836e-38
-0.2250912935 -0.4886252284 -0.03778830916 2.345219836e-38
-0.4239109159 -0.247109279 -0.2805934846 2.345219836e-38
-0.4352526069 -0.1212415174 -0.2699243724 2.345219836e-38
-0.4139364958 -0.09353859723 -0.2600846887 2.345219836e-38
-0.4090387821 -0.1734158844 -0.2734749615 2.345219836e-38
-0.24992688 0.07313899696 -0.07311867177 2.345219836e-38
-0.3007034659 0.07027812302 -0.0246605631 2.345219836e-38
-0.1956028193 0.07146555185 0.006560053676 2.345219836e-38
-0.2706038356 0.07294192165 0.07172760367 2.345219836e-38
-0.1856226325 -0.4818628132 0.01364627481 2.345219836e-38
-0.1982951611 -0.4797863662 -0.05870003253 2.345219836e-38
-0.08880019188 -0.4854008853 -0.02744304575 2.345219836e-38
-0.1494172364 -0.4840185642 0.06504735351 2.345219836e-38
-0.3851318359 -0.05461521447 -0.2714007497 2.345219836e-38
-0.3940531015 0.005605198909 -0.2506275177 2.345219836e-38
-0.3306500316 0.00117120333 -0.2558069825 2.345219836e-38
-0.342487216 -0.02065074071 -0.25655213 2.345219836e-38
-0.2998488545 -0.4902032018 0.09130871296 2.345219836e-38
-0.3077690005 -0.4833061397 -0.03304678202 2.345219836e-38
-0.1428058892 -0.4911338687 0.0248314254 2.345219836e-38
-0.2325303406 -0.4902062714 0.1397693455 2.345219836e-38
-0.1945584267 -0.4514912069 0.02885467187 2.345219836e-38
-0.2057465762 -0.4161201417 0.008916903287 2.345219836e-38
-0.1596310884 -0.4121064842 0.01486919075 2.345219836e-38
-0.188615337 -0.4157909155 0.05067742243 2.345219836e-38
-0.405986011 -0.1823027134 -0.2683368027 2.345219836e-38
-0.4081127048 -0.06636886299 -0.2624513805 2.345219836e-38
-0.3972437978 -0.0340360105 -0.250236541 2.345219836e-38
-0.3935283422 -0.1149282977 -0.2572112381 2.345219836e-38
0.3304603696 0.0308800824 0.08903408051 2.345219836e-38
0.3079535365 0.06093013287 0.07580006123 2.345219836e-38
0.3344151378 0.05162615702 0.09662079811 2.345219836e-38
0.3115651608 0.04286138341 0.1272006035 2.345219836e-38
-0.3147770166 -0.4458670914 -0.1219099313 2.345219836e-38
-0.3280335665 -0.3914627731 -0.1404744089 2.345219836e-38
-0.2890236378 -0.3905655444 -0.1268391013 2.345219836e-38
-0.3141109943 -0.3992877305 -0.09737025201 2.345219836e-38
-0.4075277448 -0.4910071194 -0.1683278233 2.345219836e-38
-0.3985735774 -0.4854369164 -0.2266927361 2.345219836e-38
-0.3122439384 -0.4898263514 -0.1822598726 2.345219836e-38
-0.3952773809 -0.4913815856 -0.08391666412 2.345219836e-38
-0.4352602959 -0.2012961954 -0.2604976296 2.345219836e-38
-0.4361998439 -0.07379260659 -0.2527325749 2.345219836e-38
-0.4304019213 -0.04043295607 -0.2425687015 2.345219836e-38
-0.4296736717 -0.1313611716 -0.2566328049 2.345219836e-38
-0.3244994283 -0.4854919612 -0.1950831115 2.345219836e-38
-0.3298789263 -0.4768315554 -0.2179590017 2.345219836e-38
-0.2471249253 -0.4787361324 -0.2171522379 2.345219836e-38
-0.3057284355 -0.4857240915 -0.124128297 2.345219836e-38
-0.4173675179 -0.2414190769 -0.2883816957 2.345219836e-38
-0.4205341935 -0.08295401186 -0.2813824117 2.345219836e-38
-0.4070690274 -0.04414590821 -0.2733597457 2.345219836e-38
-0.4005254507 -0.160345763 -0.2853227854 2.345219836e-38
-0.2670822144 -0.4460380077 -0.06552984565 2.345219836e-38
-0.2782593369 -0.410975039 -0.08801940829 2.345219836e-38
-0.2528982759 -0.4016020298 -0.07359685004 2.345219836e-38
-0.2557310462 -0.4154852033 -0.04153659195 2.345219836e-38
-0.4740498066 0.07437069714 -0.2757224441 2.345219836e-38
-0.4904995561 0.06783951074 -0.2410218716 2.345219836e-38
-0.364615798 0.06614904106 -0.2444761842 2.345219836e-38
-0.4308357835 0.07017277181 -0.1984423995 2.345219836e-38
-0.439717114 -0.288123399 -0.2414211035 2.345219836e-38
-0.4467140436 -0.1231116802 -0.2316960096 2.345219836e-38
-0.4366496801 -0.07594975829 -0.2319048643 2.345219836e-38
-0.4370650649 -0.1908296645 -0.2324905992 2.345219836e-38
-0.2996940613 -0.4176336527 -0.0872747004 2.345219836e-38
-0.3131665587 -0.3851177692 -0.1079713553 2.345219836e-38
-0.278373003 -0.3824366629 -0.08829025924 2.345219836e-38
-0.30298841 -0.3839055002 -0.05679987371 2.345219836e-38
-0.1353583932 -0.469166249 0.07573881745 2.345219836e-38
-0.1465111822 -0.4412858486 0.05127314851 2.345219836e-38
-0.103860423 -0.4292727113 0.06251579523 2.345219836e-38
-0.1178201884 -0.4461507499 0.09489959478 2.345219836e-38
-0.164122507 -0.4870100915 0.07209859788 2.345219836e-38
-0.1559350342 -0.4842296243 -0.01549141668 2.345219836e-38
-0.04120823741 -0.4860037863 0.02175465599 2.345219836e-38
-0.09966099262 -0.4889516234 0.1102365404 2.345219836e-38
-0.1856003851 -0.4715852141 0.0382517986 2.345219836e-38
-0.1979884058 -0.4501985312 0.003461331129 2.345219836e-38
-0.1433006525 -0.4412775338 0.01447305083 2.345219836e-38
-0.1756919771 -0.4471982718 0.05668082461 2.345219836e-38
-0.1386044919 -0.4332238436 0.1403142214 2.345219836e-38
-0.1545112729 -0.3936052024 0.1283545196 2.345219836e-38
-0.1045433581 -0.3912056983 0.1329686642 2.345219836e-38
-0.139127627 -0.3945587277 0.1603373885 2.345219836e-38
-0.3847396374 0.06831087172 -0.1901447475 2.345219836e-38
-0.4006140232 0.06901970506 -0.156159237 2.345219836e-38
-0.3237102032 0.06858614832 -0.1624506116 2.345219836e-38
-0.3793308735 0.06973964721 -0.1005207151 2.345219836e-38
-0.1808985174 -0.4885166883 0.1165419817 2.345219836e-38
-0.1832941324 -0.4901944697 -0.02518565208 2.345219836e-38
-0.01597940922 -0.4883655608 0.04653589055 2.345219836e-38
-0.1047293693 -0.4894238114 0.1591535807 2.345219836e-38
-0.2948009968 -0.4901976883 0.06115771458 2.345219836e-38
-0.3081886768 -0.487842828 -0.07225011289 2.345219836e-38
-0.127129972 -0.4891763628 -0.003265373409 2.345219836e-38
-0.2238831967 -0.4897320569 0.1374815702 2.345219836e-38
-0.2324623615 -0.4511829615 -0.01376199722 2.345219836e-38
-0.2486937493 -0.4208730757 -0.04622391611 2.345219836e-38
-0.2115762383 -0.4134052396 -0.02425139397 2.345219836e-38
-0.2363120466 -0.4180620909 0.02132755145 2.345219836e-38
-0.3589837551 -0.473620981 -0.2497991621 2.345219836e-38
-0.368276298 -0.3984633982 -0.2423545718 2.345219836e-38
-0.3488596678 -0.3526861668 -0.2396111339 2.345219836e-38
-0.3461729288 -0.4388715625 -0.237713635 2.345219836e-38
-0.3023986816 -0.4886394441 0.1176253408 2.345219836e-38
-0.3106026649 -0.4837462008 0.0051757209 2.345219836e-38
-0.1437863111 -0.4888015389 0.05138029531 2.345219836e-38
-0.2331617326 -0.4890362322 0.1811887026 2.345219836e-38
0.3219884038 -0.1115185693 0.1308917254 2.345219836e-38
0.317389071 -0.01845942251 0.1117813736 2.345219836e-38
0.3190193176 -0.003943127114 0.1311348975 2.345219836e-38
0.3157821894 -0.05715574697 0.1411046088 2.345219836e-38
-0.199607566 -0.4872225821 0.1228654534 2.345219836e-38
-0.1935897321 -0.4857618213 0.04059356824 2.345219836e-38
-0.06383667886 -0.4889003038 0.07685659826 2.345219836e-38
-0.1287487298 -0.4888283014 0.1649479717 2.345219836e-38
-0.3434048891 -0.4863724709 -0.2846094072 2.345219836e-38
-0.3710842729 -0.4780148268 -0.273203522 2.345219836e-38
-0.3141930699 -0.4680438936 -0.2724424005 2.345219836e-38
-0.3477033973 -0.4880864024 -0.2008497566 2.345219836e-38
-0.3959156275 -0.4769904613 -0.3117330968 2.345219836e-38
-0.4152489305 -0.4067694843 -0.2974084616 2.345219836e-38
-0.3670724034 -0.3729763925 -0.2961409986 2.345219836e-38
-0.3764570355 -0.4474491477 -0.2777912915 2.345219836e-38
-0.4035725594 -0.0587920174 -0.3003334105 2.343458544e-38
-0.4077185988 0.02204962447 -0.2806619704 2.343458544e-38
-0.3465194702 0.04035602137 -0.2772576809 2.343458544e-38
-0.3547542095 -0.01144434139 -0.2797480226 2.343458544e-38
0.3061338067 0.04806224629 0.07731506228 2.343458544e-38
0.2702963948 0.07167915255 0.07592123747 2.343458544e-38
0.3055298626 0.06252218038 0.1040103734 2.343458544e-38
0.2811472118 0.06165989861 0.137769714 2.343458544e-38
-0.4146491885 -0.4355354011 -0.2508102953 2.343458544e-38
-0.4268010259 -0.3183096051 -0.2449568063 2.343458544e-38
-0.4134426117 -0.25306651 -0.2380601019 2.343458544e-38
-0.4144235849 -0.3737529218 -0.2390852869 2.343458544e-38
-0.3195106387 -0.4779563844 -0.1434517056 2.343458544e-38
-0.3190075159 -0.4635996521 -0.1767304838 2.343458544e-38
-0.2810713053 -0.4622407556 -0.1509852558 2.343458544e-38
-0.3146721125 -0.4704136848 -0.09467123449 2.343458544e-38
-0.4171522856 -0.4763836563 -0.292497009 2.343458544e-38
-0.4307136536 -0.381759882 -0.2855347097 2.343458544e-38
-0.4173059464 -0.3216414452 -0.2802037299 2.343458544e-38
-0.4170850515 -0.4321053922 -0.260630548 2.343458544e-38
0.3326733708 -0.1071694195 0.16093795 2.343458544e-38
0.3297498822 -0.05318312719 0.1377812028 2.343458544e-38
0.3365117908 -0.04510048777 0.1621584892 2.343458544e-38
0.3282151818 -0.07603072375 0.1781243831 2.343458544e-38
-0.2407633811 -0.4775593579 0.0368036367 2.343458544e-38
-0.2479899079 -0.4761848748 -0.02457848191 2.343458544e-38
-0.1532146037 -0.4758302867 -0.0006757155061 2.343458544e-38
-0.2140800804 -0.4660131037 0.07779373229 2.343458544e-38
-0.4719076157 -0.2204913348 -0.2777211666 2.343458544e-38
-0.4722138047 -0.1015544087 -0.2812170088 2.343458544e-38
-0.4816742539 -0.06513237953 -0.2500888407 2.343458544e-38
-0.479180038 -0.1564379483 -0.2604419291 2.343458544e-38
-0.3506999016 -0.4936506152 -0.01077218726 2.343458544e-38
-0.3464676738 -0.4865019619 -0.1098500341 2.343458544e-38
-0.2166082114 -0.4909072816 -0.06786955893 2.343458544e-38
-0.2975555658 -0.4899596572 0.05275103077 2.343458544e-38
-0.2887740135 -0.4881164432 -0.05658956617 2.343458544e-38
-0.2938585877 -0.4864035845 -0.1495127976 2.343458544e-38
-0.1543588936 -0.4883306623 -0.1012705117 2.343458544e-38
-0.259724617 -0.488604933 0.01571395621 2.343458544e-38
-0.3121997714 -0.4907814264 -0.1254366487 2.343458544e-38
-0.3132821918 -0.4862104058 -0.1770753115 2.343458544e-38
-0.2251382917 -0.4853118956 -0.1507996619 2.343458544e-38
-0.2894243598 -0.4889394045 -0.05353135243 2.343458544e-38
-0.4512717128 -0.4122800529 -0.3126134276 2.343458544e-38
-0.4655374289 -0.2781834304 -0.3038069606 2.343458544e-38
-0.4475181103 -0.2242539972 -0.3059080839 2.343458544e-38
-0.4451708794 -0.3276519179 -0.30564484 2.343458544e-38
-0.2442480177 -0.4528198838 0.08852553368 2.343458544e-38
-0.264775753 -0.4146677852 0.05843975022 2.343458544e-38
-0.2217240781 -0.4104260802 0.07650777698 2.343458544e-38
-0.2443531305 -0.417626828 0.1131071895 2.343458544e-38
-0.3172107339 -0.4866640568 -0.1040923521 2.343458544e-38
-0.3205864429 -0.4824713469 -0.162610963 2.343458544e-38
-0.2244967371 -0.4825187922 -0.1365632266 2.343458544e-38
-0.3004529476 -0.4844508469 -0.03224620968 2.343458544e-38
-0.4419087768 -0.4925816953 -0.1764037758 2.343458544e-38
-0.441303432 -0.4837825894 -0.2492997646 2.343458544e-38
-0.3379920125 -0.4845921695 -0.1971441656 2.343458544e-38
-0.4249783754 -0.4912439585 -0.1010200456 2.343458544e-38
-0.4753407836 -0.1863927394 -0.2671382427 2.343458544e-38
-0.4760836959 -0.04756933451 -0.249325484 2.343458544e-38
-0.4746085405 0.0002887083683 -0.2369349748 2.343458544e-38
-0.4736887217 -0.1088194326 -0.2568295896 2.343458544e-38
-0.4147495627 -0.4697917104 -0.242308408 2.343458544e-38
-0.43097651 -0.3835421801 -0.2333982289 2.343458544e-38
-0.4062430263 -0.3339719772 -0.2366382778 2.343458544e-38
-0.4033316374 -0.4255358577 -0.2398789674 2.343458544e-38
-0.4647632837 -0.4911495149 -0.1845511496 2.343458544e-38
-0.4620597363 -0.4842030704 -0.2479859591 2.343458544e-38
-0.3907060027 -0.4867111444 -0.2021507472 2.343458544e-38
-0.4534770846 -0.4913476408 -0.1152125001 2.343458544e-38
-0.3500323296 -0.4947128296 0.01822289452 2.343458544e-38
-0.3466894031 -0.4885447025 -0.08991723508 2.343458544e-38
-0.2228463739 -0.4903055429 -0.02779998258 2.343458544e-38
-0.2876932025 -0.4909626245 0.06862382591 2.343458544e-38
0.3052475452 -0.002148728352 0.08299273252 2.343458544e-38
0.2843459547 0.04931802675 0.06905068457 2.343458544e-38
0.308618784 0.03199655563 0.0925591588 2.343458544e-38
0.2831500173 0.03283369541 0.1188645214 2.343458544e-38
-0.4265307784 -0.485252142 -0.24857454 2.343458544e-38
-0.4340866804 -0.4743455648 -0.2693055868 2.343458544e-38
-0.397164762 -0.4643986225 -0.2516797483 2.343458544e-38
-0.4133022428 -0.4876759946 -0.1891744137 2.343458544e-38
0.3101499081 -0.1408852339 0.1657560915 2.343458544e-38
0.2977908254 -0.04063736275 0.1485659182 2.343458544e-38
0.3177698851 -0.0234664008 0.1650126278 2.343458544e-38
0.3138949275 -0.07537785918 0.1635106951 2.343458544e-38
-0.259568274 0.06969632208 -0.07606992126 2.343458544e-38
-0.3005306721 0.07039885223 -0.02551160567 2.343458544e-38
-0.2280344814 0.07089815289 0.02043255791 2.343458544e-38
-0.2915741205 0.0721552372 0.0919662863 2.343458544e-38
-0.3561268449 -0.4900408089 -0.07986501604 2.343458544e-38
-0.3470543027 -0.4882822633 -0.1610457301 2.343458544e-38
-0.2355013639 -0.4889347851 -0.1167955995 2.343458544e-38
-0.3269223571 -0.4892162681 -0.01454292424 2.343458544e-38
-0.4191118479 -0.4706852138 -0.2786965966 2.343458544e-38
-0.4327591658 -0.4148598909 -0.2779502869 2.343458544e-38
-0.4159955978 -0.4005397558 -0.2614715099 2.343458544e-38
-0.4183040261 -0.4491846263 -0.2492220849 2.343458544e-38
-0.4562802911 -0.3784808517 -0.2791992128 2.343458544e-38
-0.4658002853 -0.1870381534 -0.2680001855 2.343458544e-38
-0.4633204341 -0.114237532 -0.2607970238 2.343458544e-38
-0.4604945183 -0.2737691104 -0.2615838945 2.343458544e-38
0.2946174741 -0.01950876042 0.1745110154 2.343458544e-38
0.2830266058 0.04237139598 0.1517172009 2.343458544e-38
0.3104972839 0.03677786887 0.1836068779 2.343458544e-38
0.2843111753 0.009088635445 0.1974464208 2.343458544e-38
-0.4423983097 -0.4781776965 -0.2863845527 2.343458544e-38
-0.4575248957 -0.3796975911 -0.2754713595 2.343458544e-38
-0.4511483908 -0.3144811094 -0.2499433309 2.343458544e-38
-0.4487088919 -0.4399960339 -0.250882566 2.343458544e-38
-0.3500912786 -0.47221753 -0.1361022145 2.343458544e-38
-0.3555814028 -0.4333911538 -0.1609297246 2.343458544e-38
-0.3213242292 -0.4282692969 -0.1409627646 2.343458544e-38
-0.342818439 -0.4424568117 -0.1025234312 2.343458544e-38
-0.3664559126 0.06881154329 -0.1086524725 2.343458544e-38
-0.3792231679 0.06973672658 -0.07572080195 2.343458544e-38
-0.3164326549 0.06959417462 -0.03133875504 2.343458544e-38
-0.3723242879 0.07362126559 0.02571997419 2.343458544e-38
-0.3461767435 -0.4323982 -0.01778044552 2.343458544e-38
-0.3527793288 -0.3937375247 -0.0460485667 2.343458544e-38
-0.3177824616 -0.3921586573 -0.02506290749 2.343458544e-38
-0.3386644721 -0.3941915631 0.01849190518 2.343458544e-38
-0.4665831923 -0.3312669396 -0.2886682749 2.343458544e-38
-0.4751327634 -0.155592382 -0.2786567211 2.343458544e-38
-0.4752835631 -0.09866221249 -0.2673735917 2.343458544e-38
-0.4723280668 -0.2381965965 -0.265860796 2.343458544e-38
-0.3172227144 -0.4454648197 0.009205654263 2.341805152e-38
-0.329671979 -0.4049226046 -0.01809740439 2.341805152e-38
-0.2952721715 -0.400724113 -0.004520639777 2.341805152e-38
-0.3122800589 -0.4053677619 0.04340637848 2.341805152e-38
-0.3861355782 -0.4935452938 0.02943839505 2.341805152e-38
-0.3786634207 -0.4866938889 -0.08625084907 2.341805152e-38
-0.2492746562 -0.4915698171 -0.02221790142 2.341805152e-38
-0.3335038424 -0.4913519323 0.1063731313 2.341805152e-38
-0.4370642304 -0.4714886248 -0.2574534416 2.341805152e-38
-0.4521827102 -0.3819630742 -0.2515491247 2.341805152e-38
-0.4468938708 -0.3153996766 -0.2354086488 2.341805152e-38
-0.4536493421 -0.4359165132 -0.2272985876 2.341805152e-38
-0.4931192398 -0.4914118946 -0.2196098268 2.341805152e-38
-0.4891641736 -0.4860619009 -0.286030978 2.341805152e-38
-0.4112999439 -0.4874174595 -0.2493964881 2.341805152e-38
-0.4831757545 -0.4926576912 -0.1377077997 2.341805152e-38
-0.3543490767 0.06482476741 -0.02064575627 2.341805152e-38
-0.3838132024 0.06742027402 -0.004187405109 2.341805152e-38
-0.3034283519 0.0697343275 0.03182306513 2.341805152e-38
-0.3560476303 0.06824991852 0.0659827441 2.341805152e-38
-0.2790656686 -0.4696751535 0.03145857528 2.341805152e-38
-0.2940226197 -0.4600194693 -0.02469237335 2.341805152e-38
-0.2240781337 -0.457855016 -0.0005318596959 2.341805152e-38
-0.2650153637 -0.4512327909 0.07100091875 2.341805152e-38
-0.3420123458 -0.4584608376 -0.02084064856 2.341805152e-38
-0.347438693 -0.4185608327 -0.05187003687 2.341805152e-38
-0.3177761436 -0.414786011 -0.03118978813 2.341805152e-38
-0.3420420885 -0.4216698408 0.01250645891 2.341805152e-38
-0.3044399619 -0.4576784074 0.1116321534 2.341805152e-38
-0.3217067719 -0.4246850312 0.07957530022 2.341805152e-38
-0.2774919271 -0.4165227711 0.1043461263 2.341805152e-38
-0.299192369 -0.4238143563 0.1491361707 2.341805152e-38
