# .PCD v0.7 - Point Cloud Data file format
VERSION 0.7
FIELDS x y z rgb
SIZE 4 4 4 4
TYPE F F F F
COUNT 1 1 1 1
WIDTH 911
HEIGHT 1
VIEWPOINT 0 0 0 1 0 0 0
POINTS 911
DATA ascii
0.1125000119 -0.150000006 0.125 6.490113838e-41
0.08749997616 -0.2375000119 0.2124999762 6.490113838e-41
0.1000000238 -0.287499994 0.3999999762 6.490113838e-41
0.1025423482 -0.08172369748 0.1721005738 6.490113838e-41
0.25 -0.2624999881 0.1000000238 6.490113838e-41
0.1000000238 -0.08750000596 0.3874999881 6.490113838e-41
0.2250000238 -0.1374999881 0.1000000238 6.490113838e-41
0.1000000238 -0.08750000596 0.3999999762 6.490113838e-41
0.15625 -0.21875 0.4097222388 6.490113838e-41
0.1999999881 -0.337500006 0.1000000238 6.490113838e-41
0.07031989843 -0.358073473 0.2021511346 6.490113838e-41
0.2749999762 -0.3000000119 0.1125000119 6.490113838e-41
0.1043840647 -0.1720104814 0.2318068296 6.490113838e-41
0.06237253547 -0.0164881032 0.2964069843 6.490113838e-41
0.07499998808 -0.337500006 0.2749999762 6.490113838e-41
0.07499998808 -0.125 0.1000000238 6.490113838e-41
0.1125000119 -0.275000006 0.3999999762 6.490113838e-41
0.07970608026 -0.297701478 0.3874732554 6.490113838e-41
0.3374999762 -0.275000006 0.1125000119 6.490113838e-41
0.1374999881 -0.349999994 0.3374999762 6.490113838e-41
0.08128953725 0.06249999627 0.1310333908 6.490113838e-41
0.2875000238 -0.349999994 0.1000000238 6.490113838e-41
0.07499998808 -0.1374999881 0.3874999881 6.490113838e-41
0.06132989749 -0.04984717071 0.2352765352 6.490113838e-41
0.25 -0.1875 0.1125000119 6.490113838e-41
0.2875000238 -0.125 0.1000000238 6.490113838e-41
0.4375 -0.03125 0.1875 6.490113838e-41
0.09506773204 -0.3825364709 0.2700689137 6.490113838e-41
0.1625000238 -0.0625 0.1125000119 6.490113838e-41
0.3249999881 -0.3249999881 0.1125000119 6.490113838e-41
0.3000000119 -0.25 0.1000000238 6.490113838e-41
0.125 -0.0625 0.3291131854 6.490113838e-41
0.07655373961 -0.3562293351 0.2684688866 6.490113838e-41
0.125 -0.1125000119 0.25 6.490113838e-41
0.07499998808 -0.275000006 0.3625000119 6.490113838e-41
0.08495678008 -0.07826068252 0.09375 6.490113838e-41
0.0625 -0.2354310751 0.114209868 6.490113838e-41
0.1125000119 -0.275000006 0.1875 6.490113838e-41
0.07499998808 -0.25 0.3125 6.490113838e-41
0.0625 -0.2036136687 0.1150267646 6.490113838e-41
0.07499998808 -0.287499994 0.1750000119 6.490113838e-41
0.3845065534 -0.2023143321 0.1069625095 6.490113838e-41
0.1374999881 -0.03749999404 0.1125000119 6.490113838e-41
0.07499998808 -0.3125 0.1625000238 6.490113838e-41
0.1625000238 -0.3874999881 0.1125000119 6.490113838e-41
0.3270470202 -0.3549314141 0.1065718457 6.490113838e-41
0.1125000119 -0.05000001192 0.1125000119 6.490113838e-41
0.09374999255 -0.1374999881 0.4062499702 6.490113838e-41
0.375 -0.03749999404 0.1000000238 6.490113838e-41
0.1595362723 -0.3465306759 0.3550929129 6.490113838e-41
0.25 -0.3000000119 0.1000000238 6.490113838e-41
0.2124999762 -0.412499994 0.1000000238 6.490113838e-41
0.1125000119 -0.2624999881 0.3500000238 1.184631237e-38
0.40625 -0.07633185387 0.125 1.184631237e-38
0.2375000119 -0.162499994 0.1125000119 1.184631237e-38
0.07499998808 0.02499997616 0.2124999762 1.184631237e-38
0.1499999762 -0.1750000119 0.1000000238 1.184631237e-38
0.07499998808 -0.125 0.25 1.184631237e-38
0.1499999762 -0.05000001192 0.1000000238 1.184631237e-38
0.08749997616 -0.1875 0.1750000119 1.184631237e-38
0.07499998808 -0.03749999404 0.1499999762 1.184631237e-38
0.1000000238 -0.2375000119 0.3625000119 1.184631237e-38
0.3874999881 -0.3125 0.1125000119 1.184631237e-38
0.4375 -0.34375 0.1062500179 1.184631237e-38
0.1039641201 -0.4407545626 0.1307485402 1.184631237e-38
0.08442020416 -0.4197077155 0.09375 1.184631237e-38
0.2124999762 -0.212500006 0.1000000238 1.184631237e-38
0.08749997616 -0.1750000119 0.2124999762 1.184631237e-38
0.07499998808 -0.4250000119 0.1875 1.184631237e-38
0.07499998808 -0.212500006 0.1374999881 1.184631237e-38
0.2124999762 -0.3249999881 0.1000000238 1.184631237e-38
0.07499998808 -0.03749999404 0.125 1.184631237e-38
0.07499998808 0.0625 0.1374999881 1.184631237e-38
0.2340156138 -0.1396361142 0.1069198847 1.184631237e-38
0.07499998808 -0.02500000596 0.1000000238 1.184631237e-38
0.3000000119 -0.02500000596 0.1125000119 1.184631237e-38
0.08116236329 -0.1106587052 0.2029912323 1.184631237e-38
0.07499998808 -0.2375000119 0.3500000238 1.184631237e-38
0.08126316965 -0.2637178004 0.2034618556 1.184631237e-38
0.3125 -0.03749999404 0.1125000119 1.184631237e-38
0.4062499702 -0.1124489009 0.09375 1.184631237e-38
0.125 -0.0625 0.2092171311 1.184631237e-38
0.08749997616 -0.3249999881 0.1125000119 1.184631237e-38
0.08749997616 -0.224999994 0.3999999762 1.184631237e-38
0.07499998808 -0.1999999881 0.1374999881 1.184631237e-38
0.08749997616 -0.1750000119 0.1000000238 1.184631237e-38
0.2338598818 -0.04918882251 0.1069884151 1.184631237e-38
0.09375 -0.02117400616 0.3248559237 1.184631237e-38
0.07499998808 -0.3874999881 0.1999999881 1.184631237e-38
0.1398565322 -0.04803987592 0.09375 1.184631237e-38
0.3271870017 -0.111119777 0.09374999255 1.184631237e-38
0.4062500298 -0.1134336144 0.1044820845 1.184631237e-38
0.0625 -0.2021168321 0.263415277 1.184631237e-38
0.1000000238 -0.03749999404 0.1000000238 1.184631237e-38
0.1625000238 -0.275000006 0.3000000119 1.184631237e-38
0.1875 -0.2946428359 0.4375 1.184631237e-38
0.1625000238 -0.400000006 0.1000000238 1.184631237e-38
0.1719602942 -0.2349924296 0.1069163978 1.184631237e-38
0.1125000119 -0.212500006 0.125 1.184631237e-38
0.125 -0.09999999404 0.1875 1.184631237e-38
0.08749997616 -0.4250000119 0.1125000119 1.184631237e-38
0.125 -0.224999994 0.1750000119 1.184631237e-38
0.3999999762 -0.25 0.1125000119 1.184631237e-38
0.15625 -0.21875 0.4375 1.184631237e-38
0.0625 -0.4193030894 0.1381633878 1.184631237e-38
0.3999999762 -0.2375000119 0.1000000238 1.184631237e-38
0.07499998808 -0.1875 0.3125 1.184631237e-38
0.4375 -0.03125 0.1999999881 1.184631237e-38
0.4125000238 -0.337500006 0.1000000238 1.184631237e-38
0.07499998808 -0.2624999881 0.3625000119 1.184631237e-38
0.1374999881 -0.1750000119 0.1000000238 1.184631237e-38
0.07964363694 -0.1721189171 0.2619904876 1.184631237e-38
0.07499998808 -0.1125000119 0.3125 1.184631237e-38
0.1396858543 -0.3595665395 0.1067704409 1.184631237e-38
0.1249999925 -0.2341072559 0.2029320598 1.184631237e-38
0.3625000119 -0.3249999881 0.1000000238 1.184631237e-38
0.1374999881 -0.4250000119 0.1125000119 1.184631237e-38
0.1073413044 -0.2345799655 0.136951372 1.184631237e-38
0.1958074421 -0.4374999702 0.1005426198 1.184631237e-38
0.3249999881 -0.07499998808 0.1125000119 1.184631237e-38
0.07499998808 0 0.25 1.184631237e-38
0.06250000745 -0.3755306304 0.3478484452 1.184631237e-38
0.375 -0.2375000119 0.1000000238 1.184631237e-38
0.1583751887 -0.2681421041 0.408336848 1.184631237e-38
0.09375 -0.21875 0.0625 1.184631237e-38
0.0625 0 0.3773230016 1.184631237e-38
0.25 -0.337500006 0.1125000119 1.184631237e-38
0.08180426806 -0.1399304122 0.2028840482 1.184631237e-38
0.07499998808 -0.05000001192 0.1000000238 1.184631237e-38
0.125 -0.15625 0.0625 1.184631237e-38
0.06055769324 -0.07761188596 0.2645356953 1.184631237e-38
0.125 -0.21875 0.28125 1.184631237e-38
0.1000000238 -0.2375000119 0.125 1.184631237e-38
0.3999999762 -0.0625 0.2250000238 1.184631237e-38
0.3500000238 -0.287499994 0.1000000238 1.184631237e-38
0.1249999925 -0.1400435418 0.171444118 1.184631237e-38
0.1125000119 -0.08750000596 0.3374999762 1.184631237e-38
0.07499998808 -0.08750000596 0.25 1.184631237e-38
0.4375 -0.1875 0.09375 1.184631237e-38
0.2348223329 -0.2980828881 0.09375 1.184631237e-38
0.06219024211 -0.2644810975 0.1726215631 1.184631237e-38
0.1000000238 -0.275000006 0.25 1.184631237e-38
0.2124999762 -0.349999994 0.1125000119 1.184631237e-38
0.0625 0.01213183813 0.1103652865 1.184631237e-38
0.3125 0 0.1125000119 1.184631237e-38
0.07499998808 -0.01249998808 0.1999999881 1.184631237e-38
0.2933352888 -0.377384901 0.125 1.184631237e-38
0.1102479845 -0.2351709306 0.09337454289 1.184631237e-38
0.2124999762 -0.1125000119 0.1000000238 1.184631237e-38
0.1102500781 -0.01476937719 0.09374999255 1.184631237e-38
0.25 -0.02500000596 0.1000000238 1.184631237e-38
0.08749997616 -0.07499998808 0.3625000119 1.184631237e-38
0.1603932083 -0.2975972593 0.3614724278 1.184631237e-38
0.2624999881 -0.09999999404 0.1125000119 1.184631237e-38
0.3874999881 -0.125 0.1000000238 1.184631237e-38
0.1374999881 0 0.1000000238 1.184631237e-38
0.4125000238 -0.0625 0.2375000119 1.184631237e-38
0.2124999762 -0.3125 0.1125000119 1.184631237e-38
0.2965057492 -0.2977509201 0.09374999255 1.184631237e-38
0.323361218 0.0001209221227 0.125 1.184631237e-38
0.3125 -0.349999994 0.1000000238 1.184631237e-38
0.2875000238 -0.3000000119 0.1125000119 1.184631237e-38
0.08696251363 0.0625 0.09375 1.184631237e-38
0.1000000238 -0.287499994 0.1000000238 1.184631237e-38
0.1580102295 -0.34375 0.4074234664 1.184631237e-38
0.2250000238 -0.162499994 0.1125000119 1.184631237e-38
0.1689227223 0.03576327115 0.1034814641 1.184631237e-38
0.159922421 -0.25 0.3047394753 1.184631237e-38
0.1750000119 -0.0625 0.1000000238 1.184631237e-38
0.125 -0.125 0.2124999762 1.184631237e-38
0.0625 -0.2350147516 0.1405800432 1.184631237e-38
0.07499998808 -0.1875 0.25 1.184631237e-38
0.08646852523 -0.1719638258 0.112490952 1.184631237e-38
0.2375000119 -0.400000006 0.1000000238 1.184631237e-38
0.125 -0.224999994 0.1000000238 1.184631237e-38
0.1125000119 -0.349999994 0.1000000238 1.184631237e-38
0.0625 -0.2652811706 0.3277944922 1.184631237e-38
0.3000000119 -0.05000001192 0.1000000238 1.184631237e-38
0.08749997616 -0.25 0.1750000119 1.184631237e-38
0.15625 -0.21875 0.34375 1.184631237e-38
0.3374999762 -0.224999994 0.1125000119 1.184631237e-38
0.1395611316 -0.389036715 0.1064837351 1.184631237e-38
0.08042759448 -0.1867667735 0.40625 1.184631237e-38
0.07499998808 -0.05000001192 0.375 1.184631237e-38
0.07499998808 -0.212500006 0.3000000119 1.184631237e-38
0.0760018602 -0.02385494113 0.40625 1.184631237e-38
0.3874999881 -0.1875 0.1000000238 1.184631237e-38
0.0625 -0.3502890468 0.3556027114 1.184631237e-38
0.3578750789 -0.1392084658 0.09375 1.184631237e-38
0.2639854848 -0.3584055007 0.09374999255 1.184631237e-38
0.2124999762 -0.0625 0.1000000238 1.184631237e-38
0.07253082097 0.01115345489 0.2045970857 1.184631237e-38
0.08749997616 -0.1999999881 0.2250000238 1.184631237e-38
0.125 -0.25 0.0625 1.184631237e-38
0.125 -0.2630498409 0.2327127755 1.184631237e-38
0.3268415332 -0.04992838949 0.09375000745 1.184631237e-38
0.07499998808 -0.337500006 0.125 1.184631237e-38
0.2624999881 -0.337500006 0.1125000119 1.184631237e-38
0.3999999762 -0.3000000119 0.1125000119 1.184631237e-38
0.297098577 -0.264752984 0.09375 1.184631237e-38
0.07499998808 -0.1999999881 0.2250000238 1.184631237e-38
0.21875 0.0625 0.125 1.184631237e-38
0.07499998808 -0.1374999881 0.2624999881 1.184631237e-38
0.375 -0.05000001192 0.1125000119 1.184631237e-38
0.1625000238 -0.3000000119 0.2875000238 1.184631237e-38
0.1499999762 -0.2624999881 0.3500000238 1.184631237e-38
0.08749997616 -0.08750000596 0.375 1.184631237e-38
0.07499998808 -0.4375 0.2536764741 1.184631237e-38
0.1625000238 0.02499997616 0.1000000238 1.184631237e-38
0.06096661091 -0.07726128399 0.2962942421 1.184631237e-38
0.06195002049 -0.2955073118 0.203824982 1.184631237e-38
0.125 -0.21875 0.0625 1.184631237e-38
0.3829345405 -0.07693203539 0.1052656248 1.184631237e-38
0.07499998808 -0.02500000596 0.2375000119 1.184631237e-38
0.3125 -0.150000006 0.1000000238 1.184631237e-38
0.1374999881 0 0.1125000119 1.184631237e-38
0.4375 -0.34375 0.125 1.184631237e-38
0.3999999762 -0.0625 0.2624999881 1.184631237e-38
0.1379401535 -0.2651179135 0.407874763 1.184631237e-38
0.2624999881 -0.1999999881 0.1125000119 1.184631237e-38
0.25 -0.3874999881 0.1000000238 1.184631237e-38
0.2250000238 0.02499997616 0.1125000119 1.184631237e-38
0.3249999881 -0.05000001192 0.1000000238 1.184631237e-38
0.1499999762 -0.2624999881 0.4125000238 1.184631237e-38
0.1875 -0.375 0.1125000119 1.184631237e-38
0.07499998808 -0.25 0.1125000119 1.184631237e-38
0.1612212062 -0.2967959344 0.3035413325 1.184631237e-38
0.1374999881 -0.349999994 0.3500000238 1.184631237e-38
0.125 -0.2375000119 0.3500000238 1.184631237e-38
0.1875 -0.287499994 0.1125000119 1.184631237e-38
0.3999999762 -0.05000001192 0.1000000238 1.184631237e-38
0.3859309256 -0.2982177734 0.1076340601 1.184631237e-38
0.1875 -0.25 0.3891128898 1.184631237e-38
0.4125000238 -0.212500006 0.1125000119 1.184631237e-38
0.08749997616 -0.08750000596 0.1625000238 1.184631237e-38
0.25 -0.03749999404 0.1000000238 1.184631237e-38
0.07499998808 -0.1875 0.1374999881 1.184631237e-38
0.07499998808 -0.09999999404 0.3374999762 1.184631237e-38
0.2971880436 -0.1394214183 0.1071404666 1.184631237e-38
0.07504634559 -0.01675222442 0.2641848028 1.184631237e-38
0.1012494937 -0.07883931696 0.2944175005 1.184631237e-38
0.03124999814 -0.1027017459 0.2974808514 1.184631237e-38
0.4062695205 -0.1741052419 0.09375 1.184631237e-38
0.234606266 -0.2347690761 0.1069920585 1.184631237e-38
0.07499998808 -0.150000006 0.1374999881 1.184631237e-38
0.1125000119 -0.349999994 0.3625000119 1.184631237e-38
0.1000000238 -0.02500000596 0.1125000119 1.184631237e-38
0.07499998808 -0.1750000119 0.1875 1.184631237e-38
0.3240915239 -0.375924021 0.1057747304 1.184631237e-38
0.125 0.03750002384 0.1125000119 1.184631237e-38
0.1625000238 -0.4250000119 0.1000000238 1.184631237e-38
0.3846974969 -0.1112073138 0.09375000745 1.184631237e-38
0.125 -0.125 0.1750000119 1.184631237e-38
0.3999999762 -0.337500006 0.1125000119 1.184631237e-38
0.125 -0.07499998808 0.2375000119 1.184631237e-38
0.1374999881 -0.05000001192 0.1125000119 1.184631237e-38
0.3995863795 -0.05960479006 0.2332261354 1.184631237e-38
0.07499998808 -0.09999999404 0.2624999881 1.184631237e-38
0.07499998808 -0.400000006 0.125 1.184631237e-38
0.03125 -0.03125 0.28125 1.184631237e-38
0.3500000238 -0.1125000119 0.1125000119 1.184631237e-38
0.1125000119 -0.0625 0.1000000238 1.184631237e-38
0.07499998808 -0.01249998808 0.3125 1.184631237e-38
0.2124999762 -0.25 0.1000000238 1.184631237e-38
0.375 -0.275000006 0.1000000238 1.184631237e-38
0.125 -0.25 0.0625 1.184631237e-38
0.1625000238 -0.2624999881 0.1000000238 1.184631237e-38
0.3625000119 -0.224999994 0.1000000238 1.184631237e-38
0.07499998808 0 0.2375000119 1.184631237e-38
0.07744964212 -0.05066699907 0.234860763 1.184631237e-38
0.3125 -0.1999999881 0.1000000238 1.184631237e-38
0.1346199512 -0.1114734337 0.1314798743 1.184631237e-38
0.1750000119 -0.2624999881 0.1000000238 1.184631237e-38
0.375 -0.05000001192 0.1000000238 1.184631237e-38
0.1999999881 -0.2375000119 0.1125000119 1.184631237e-38
0.1000000238 -0.275000006 0.2250000238 1.184631237e-38
0.104586795 -0.1124116331 0.1723650396 1.184631237e-38
0.1125000119 -0.1875 0.1000000238 1.184631237e-38
0.07499998808 -0.07499998808 0.1374999881 1.184631237e-38
0.125 -0.15625 0.0625 1.184631237e-38
0.1499999762 -0.125 0.1125000119 1.184631237e-38
0.1374999881 -0.3249999881 0.2875000238 1.184631237e-38
0.1625000238 -0.275000006 0.3999999762 1.184631237e-38
0.3374999762 -0.08750000596 0.1125000119 1.184631237e-38
0.07630156726 -0.2032882869 0.2936256826 1.184631237e-38
0.1728470773 -0.1396414489 0.09375 1.184631237e-38
0.125 -0.1021365821 0.2885964513 1.184631237e-38
0.3500000238 -0.150000006 0.1125000119 1.184631237e-38
0.2029806823 -0.297652483 0.1073161811 1.184631237e-38
0.07499998808 -0.2375000119 0.2375000119 1.184631237e-38
0.07499998808 -0.09999999404 0.3500000238 1.184631237e-38
0.08749997616 0.01249998808 0.1000000238 1.184631237e-38
0.09375 -0.4097336233 0.2310698628 1.184631237e-38
0.1065453961 0.04006961733 0.1292656511 1.184631237e-38
0.07499998808 -0.3874999881 0.3000000119 1.184631237e-38
0.07499998808 -0.25 0.3874999881 1.184631237e-38
0.07499998808 -0.25 0.2250000238 1.184631237e-38
0.125 -0.2375000119 0.2124999762 1.184631237e-38
0.1388709098 -0.4182534516 0.106302917 1.184631237e-38
0.1499999762 -0.3125 0.1125000119 1.184631237e-38
0.07499998808 -0.275000006 0.3000000119 1.184631237e-38
0.1374999881 -0.337500006 0.375 1.184631237e-38
0.3249999881 -0.09999999404 0.1125000119 1.184631237e-38
0.07499998808 -0.275000006 0.1499999762 1.184631237e-38
0.07499998808 -0.3125 0.3000000119 1.184631237e-38
0.3000000119 -0.08750000596 0.1000000238 1.184631237e-38
0.1875 -0.2986111343 0.28125 1.184631237e-38
0.1125000119 -0.01249998808 0.1125000119 1.184631237e-38
0.2875000238 -0.2624999881 0.1000000238 1.184631237e-38
0.125 -0.1373892576 0.2542290688 1.184631237e-38
0.1750000119 -0.3125 0.1125000119 1.184631237e-38
0.08616614342 -0.1389089376 0.09375 1.184631237e-38
0.07977592945 -0.08017275482 0.2036482543 1.184631237e-38
0.0744555369 -0.3850539923 0.2666359544 1.184631237e-38
0.2375000119 -0.3000000119 0.1125000119 1.184631237e-38
0.3625000119 -0.3249999881 0.1125000119 1.184631237e-38
0.375 -0.287499994 0.1125000119 1.184631237e-38
0.375 -0.03125 0.1875 1.184631237e-38
0.1875 -0.3467741907 0.3274193406 1.184631237e-38
0.07499998808 -0.275000006 0.3500000238 1.184631237e-38
0.4125000238 -0.2624999881 0.1000000238 1.184631237e-38
0.07499998808 -0.3000000119 0.2124999762 1.184631237e-38
0.3625000119 -0.337500006 0.1000000238 1.184631237e-38
0.3854387105 -0.2365482152 0.1069377065 1.184631237e-38
0.08749997616 -0.07499998808 0.2250000238 1.184631237e-38
0.0625 -0.4375 0.28125 1.184631237e-38
0.0625 -0.1370796114 0.09375000745 1.184631237e-38
0.1499999762 -0.4375 0.1125000119 1.184631237e-38
0.3874999881 -0.25 0.1000000238 1.184631237e-38
0.100950025 -0.4687499702 0.102665402 1.184631237e-38
0.4375 -0.07499998808 0.25 1.184631237e-38
0.125 -0.2375000119 0.1875 1.184631237e-38
0.1093514562 -0.2643067837 0.1104145199 1.184631237e-38
0.2031673938 -0.2346595824 0.09375 1.184631237e-38
0.08913356811 -0.4687500298 0.09375 1.184631237e-38
0.2971301079 -0.2020012587 0.1068672687 1.184631237e-38
0.1336157024 -0.2347543985 0.1324849576 1.184631237e-38
0.3125 -0.212500006 0.1000000238 1.184631237e-38
0.1696043313 0.03699153289 0.09375 1.184631237e-38
0.4375 -0.234631151 0.125 1.184631237e-38
0.2124999762 -0.01249998808 0.1000000238 1.184631237e-38
0.08749997616 -0.1125000119 0.1125000119 1.184631237e-38
0.1499999762 -0.224999994 0.1000000238 1.184631237e-38
0.07499998808 -0.4375 0.1000000238 1.184631237e-38
0.3000000119 -0.224999994 0.1125000119 1.184631237e-38
0.3249999881 -0.1125000119 0.1125000119 1.184631237e-38
0.4125000238 -0.0625 0.25 1.184631237e-38
0.07499998808 -0.08750000596 0.3000000119 1.184631237e-38
0.375 -0.06012931466 0.2359913737 1.184631237e-38
0.1125000119 -0.3000000119 0.1000000238 1.184631237e-38
0.07499998808 0 0.2250000238 1.184631237e-38
0.07499998808 -0.162499994 0.2875000238 1.184631237e-38
0.1125000119 -0.2624999881 0.1000000238 1.184631237e-38
0.1374999881 -0.2375000119 0.1125000119 1.184631237e-38
0.1678397208 -0.4382547736 0.09375 1.184631237e-38
0.1000000238 -0.3125 0.3999999762 1.184631237e-38
0.06228101999 -0.1711703241 0.2950233221 1.184631237e-38
0.08749997616 -0.1750000119 0.2250000238 1.184631237e-38
0.07499998808 -0.08750000596 0.3374999762 1.184631237e-38
0.1125000119 -0.1999999881 0.125 1.184631237e-38
0.125 -0.234874025 0.2317845821 1.184631237e-38
0.2375000119 -0.224999994 0.1125000119 1.184631237e-38
0.1875 -0.297056675 0.3599200845 1.184631237e-38
0.07499998808 -0.09999999404 0.1000000238 1.184631237e-38
0.0801288113 -0.1051690355 0.3778403997 1.184631237e-38
0.09375000745 -0.4065825641 0.2865345776 1.184631237e-38
0.1125000119 -0.412499994 0.1125000119 1.184631237e-38
0.07499998808 -0.2624999881 0.3874999881 1.184631237e-38
0.3999999762 -0.125 0.1125000119 1.184631237e-38
0.08749997616 -0.08750000596 0.2250000238 1.184631237e-38
0.2124999762 -0.05000001192 0.1000000238 1.184631237e-38
0.3252801299 -0.02038679086 0.1249999925 1.184631237e-38
0.1125000119 -0.349999994 0.1125000119 1.184631237e-38
0.07020445913 -0.4114507437 0.2298784554 1.184631237e-38
0.07679823041 -0.3777433038 0.321088165 1.184631237e-38
0.1331607848 -0.3449225128 0.3904968798 1.184631237e-38
0.3000000119 -0.08750000596 0.1125000119 1.184631237e-38
0.07499998808 -0.375 0.1374999881 1.184631237e-38
0.4013956487 -0.0625 0.1875000149 1.184631237e-38
0.125 -0.05000001192 0.1125000119 1.184631237e-38
0.06150943413 -0.2968787551 0.2665381134 1.184631237e-38
0.2875000238 -0.3625000119 0.1000000238 1.184631237e-38
0.264842093 -0.2350686342 0.1069651023 1.184631237e-38
0.1720227599 -0.2024423927 0.125 1.184631237e-38
0.06081872433 -0.3260074854 0.2962315977 1.184631237e-38
0.1096696407 0.01215413585 0.1076267585 1.184631237e-38
0.07499998808 -0.162499994 0.1374999881 1.184631237e-38
0.08739295602 -0.2352246344 0.09342415631 1.184631237e-38
0.03125 -0.15625 0.2988019586 1.184631237e-38
0.1605667621 -0.3254708946 0.3029576838 1.184631237e-38
0.1024638638 -0.375 0.3777783215 1.184631237e-38
0.07395856827 -0.01576666534 0.2044746727 1.184631237e-38
0.07553543895 -0.3256198764 0.1708154231 1.184631237e-38
0.15687792 -0.2432752252 0.3909537494 1.184631237e-38
0.07499998808 -0.349999994 0.1875 1.184631237e-38
0.1000000238 -0.224999994 0.125 1.184631237e-38
0.125 -0.07917750627 0.3584290743 1.184631237e-38
0.1377092302 -0.4405762851 0.09375 1.184631237e-38
0.1750000119 -0.1374999881 0.1000000238 1.184631237e-38
0.08749997616 -0.09999999404 0.1750000119 1.184631237e-38
0.08749997616 -0.08750000596 0.3625000119 1.184631237e-38
0.3249999881 -0.337500006 0.1000000238 1.184631237e-38
0.07499998808 -0.1374999881 0.3249999881 1.184631237e-38
0.125 -0.2624999881 0.1000000238 1.184631237e-38
0.1125000119 -0.162499994 0.1125000119 1.184631237e-38
0.1625000238 -0.349999994 0.3125 1.184631237e-38
0.03125 -0.3101854324 0.2908152342 1.184631237e-38
0.125 -0.375 0.1125000119 1.184631237e-38
0.07499998808 -0.224999994 0.1499999762 1.184631237e-38
0.1000000238 -0.3249999881 0.2875000238 1.184631237e-38
0.1125000119 -0.287499994 0.1125000119 1.184631237e-38
0.07499998808 -0.1875 0.1750000119 1.184631237e-38
0.1499999762 -0.25 0.375 1.184631237e-38
0.0625 -0.2655195296 0.3584499955 1.184631237e-38
0.07499998808 -0.03749999404 0.2875000238 1.184631237e-38
0.25 -0.07499998808 0.1125000119 1.184631237e-38
0.09375 0.0625 0.2291666716 1.184631237e-38
0.07499998808 -0.1875 0.3000000119 1.184631237e-38
0.125 -0.2624999881 0.3000000119 1.184631237e-38
0.07720586658 -0.375 0.40625 1.184631237e-38
0.1499999762 -0.337500006 0.375 1.184631237e-38
0.1874999851 -0.3266585469 0.3264562786 1.184631237e-38
0.08749997616 -0.1750000119 0.1125000119 1.184631237e-38
0.09375 -0.354665488 0.2020616084 1.184631237e-38
0.08749997616 -0.2624999881 0.1999999881 1.184631237e-38
0.1249999925 -0.234164536 0.1711868793 1.184631237e-38
0.1000000238 -0.224999994 0.1125000119 1.184631237e-38
0.07861643285 -0.292758435 0.2032631785 1.184631237e-38
0.25 -0.1374999881 0.1000000238 1.184631237e-38
0.1361600012 -0.0790419057 0.1295223385 1.184631237e-38
0.1374999881 -0.375 0.1125000119 1.184631237e-38
0.125 -0.09999999404 0.25 1.184631237e-38
0.07499998808 -0.224999994 0.1999999881 1.184631237e-38
0.2875000238 -0.03749999404 0.1125000119 1.184631237e-38
0.07499998808 -0.03749999404 0.2749999762 1.184631237e-38
0.09376914054 -0.169699192 0.3279948235 1.184631237e-38
0.0625 -0.3605585694 0.1379082352 1.184631237e-38
0.1660978943 0.0625 0.09375000745 1.184631237e-38
0.1625000238 -0.337500006 0.1000000238 1.184631237e-38
0.2875000238 0.01249998808 0.1000000238 1.184631237e-38
0.3271381557 -0.139301151 0.09375000745 1.184631237e-38
0.1875 -0.07499998808 0.1125000119 1.184631237e-38
0.1374999881 -0.349999994 0.3249999881 1.184631237e-38
0.125 -0.1999999881 0.2124999762 1.184631237e-38
0.3249999881 -0.02500000596 0.1000000238 1.184631237e-38
0.2124999762 -0.1875 0.1000000238 1.184631237e-38
0.2825697064 0.03125 0.09375 1.184631237e-38
0.3625000119 -0.349999994 0.1000000238 1.184631237e-38
0.1750000119 -0.05000001192 0.1125000119 1.184631237e-38
0.3249999881 -0.1875 0.1125000119 1.184631237e-38
0.125 -0.25 0.1374999881 1.184631237e-38
0.2124999762 -0.1374999881 0.1125000119 1.184631237e-38
0.1367826313 -0.3236331642 0.3932639956 1.184631237e-38
0.0625 -0.1393989027 0.1725966483 1.184631237e-38
0.0625 -0.2975283563 0.3583627343 1.184631237e-38
0.08613041043 -0.2349197268 0.1122017354 1.184631237e-38
0.1625000238 -0.2624999881 0.3874999881 1.184631237e-38
0.06235126406 -0.1707530916 0.3270941377 1.184631237e-38
0.2250000238 -0.3000000119 0.1125000119 1.184631237e-38
0.07499998808 -0.162499994 0.3500000238 1.184631237e-38
0.1380668879 -0.1722380668 0.1086578667 1.184631237e-38
0.1125000119 -0.07499998808 0.3874999881 1.184631237e-38
0.07499998808 -0.3125 0.3125 1.184631237e-38
0.07499998808 -0.2375000119 0.1750000119 1.184631237e-38
0.3500000238 -0.125 0.1125000119 1.184631237e-38
0.201743573 0.0317876488 0.125 1.184631237e-38
0.0625 -0.375 0.40625 1.184631237e-38
0.1374999881 -0.337500006 0.1125000119 1.184631237e-38
0.4250000119 -0.0625 0.2250000238 1.184631237e-38
0.400793612 -0.03125 0.2212301642 1.184631237e-38
0.07499998808 -0.1125000119 0.1000000238 1.184631237e-38
0.06249999627 -0.2350960225 0.2330114245 1.184631237e-38
0.1015175283 -0.2877822816 0.2030772269 1.184631237e-38
0.09518137574 -0.46875 0.1262268871 1.184631237e-38
0.1625000238 -0.2624999881 0.3000000119 1.184631237e-38
0.2969507873 -0.04968780279 0.09375 1.184631237e-38
0.07499998808 -0.07499998808 0.3125 1.184631237e-38
0.1499999762 -0.3125 0.2875000238 1.184631237e-38
0.08749997616 -0.2375000119 0.1374999881 1.184631237e-38
0.375 -0.375 0.09375 1.184631237e-38
0.1000000238 -0.337500006 0.3999999762 1.184631237e-38
0.1125000119 -0.224999994 0.125 1.184631237e-38
0.0625 -0.2641702294 0.09375 1.184631237e-38
0.08231506497 -0.139798075 0.1723666489 1.184631237e-38
0.1379292309 0.01162050199 0.125 1.184631237e-38
0.1000000238 -0.2375000119 0.375 1.184631237e-38
0.25 -0.375 0.1125000119 1.184631237e-38
0.07499998808 -0.287499994 0.3374999762 1.184631237e-38
0.0836044997 -0.3600797951 0.09375000745 1.184631237e-38
0.3374999762 -0.150000006 0.1125000119 1.184631237e-38
0.0625 -0.1085778251 0.3566042483 1.184631237e-38
0.125 -0.08750000596 0.25 1.184631237e-38
0.06680567563 -0.4375000298 0.1982164979 1.184631237e-38
0.1054053381 -0.1399182081 0.20286946 1.184631237e-38
0.1725656241 -0.1102328822 0.09375 1.184631237e-38
0.0717375204 0.007770025171 0.2943777442 1.184631237e-38
0.125 -0.0625 0.1000000238 1.184631237e-38
0.2034238726 -0.2017572373 0.09375000745 1.184631237e-38
0.2250000238 -0.125 0.1000000238 1.184631237e-38
0.08749997616 -0.1374999881 0.1875 1.184631237e-38
0.1999999881 -0.2624999881 0.1125000119 1.184631237e-38
0.125 -0.2624999881 0.2250000238 1.184631237e-38
0.1591386944 -0.2971221507 0.4087817073 1.184631237e-38
0.0625 0.0625 0.2259563208 1.184631237e-38
0.0625 -0.1374999881 0.4062500298 1.184631237e-38
0.1875 -0.4250000119 0.1000000238 1.184631237e-38
0.2624999881 -0.1374999881 0.1125000119 1.184631237e-38
0.1389572173 -0.2965576351 0.3255632222 1.184631237e-38
0.09375000745 -0.02425878681 0.3577256203 1.184631237e-38
0.1374999881 -0.08750000596 0.1000000238 1.184631237e-38
0.1499999762 -0.1999999881 0.1000000238 1.184631237e-38
0.08131528646 -0.3457225561 0.3863897026 1.184631237e-38
0.1255934089 -0.238665536 0.2593969703 1.184631237e-38
0.1724652499 -0.359677285 0.09375000745 1.184631237e-38
0.2250000238 -0.2375000119 0.1000000238 1.184631237e-38
0.07720196992 -0.05061608553 0.264662236 1.184631237e-38
0.2024314553 -0.01639058441 0.125 1.184631237e-38
0.4070974886 -0.2988719046 0.1076311022 1.184631237e-38
0.3625000119 -0.275000006 0.1000000238 1.184631237e-38
0.3625000119 -0.3125 0.1000000238 1.184631237e-38
0.2250000238 -0.09999999404 0.1125000119 1.184631237e-38
0.1050481573 -0.1726453304 0.2025658935 1.184631237e-38
0.1750000119 0.01249998808 0.1000000238 1.184631237e-38
0.1096071973 -0.3893298507 0.1077041849 1.184631237e-38
0.2595207095 -0.4077617228 0.09375 1.184631237e-38
0.07499998808 -0.212500006 0.375 1.184631237e-38
0.1193181872 -0.34375 0.4375 1.184631237e-38
0.3500000238 -0.25 0.1125000119 1.184631237e-38
0.07499998808 -0.275000006 0.1625000238 1.184631237e-38
0.0625 -0.3879971802 0.09375 1.184631237e-38
0.07499998808 -0.3125 0.1000000238 1.184631237e-38
0.1875 -0.1125000119 0.1125000119 1.184631237e-38
0.07499998808 -0.1125000119 0.2124999762 1.184631237e-38
0.07499998808 -0.212500006 0.3500000238 1.184631237e-38
0.2250000238 -0.05000001192 0.1000000238 1.184631237e-38
0.07499998808 -0.4250000119 0.2124999762 1.184631237e-38
0.07927656174 -0.07857692987 0.3580206633 1.184631237e-38
0.1125000119 -0.1125000119 0.2624999881 1.184631237e-38
0.1000000238 -0.3000000119 0.2875000238 1.184631237e-38
0.125 -0.09999999404 0.2375000119 1.184631237e-38
0.2029581368 -0.1105889902 0.09375 1.184631237e-38
0.07499998808 -0.375 0.1750000119 1.184631237e-38
0.08749997616 -0.1999999881 0.25 1.184631237e-38
0.08749997616 -0.212500006 0.1374999881 1.184631237e-38
0.1723573804 -0.2022898346 0.1066171229 1.184631237e-38
0.09759699553 -0.05376174301 0.3587156534 1.184631237e-38
0.1499999762 -0.03749999404 0.1000000238 1.184631237e-38
0.125 -0.2622089386 0.203587383 1.184631237e-38
0.125 -0.2624999881 0.1999999881 1.184631237e-38
0.1999999881 -0.1750000119 0.1125000119 1.184631237e-38
0.07499998808 0.01249998808 0.1125000119 1.184631237e-38
0.1750000119 -0.01249998808 0.1125000119 1.184631237e-38
0.2749999762 -0.08750000596 0.1125000119 1.184631237e-38
0.125 -0.2375000119 0.1625000238 1.184631237e-38
0.07499998808 0.01249998808 0.2624999881 1.184631237e-38
0.3249999881 -0.25 0.1125000119 1.184631237e-38
0.1048364639 -0.1117614955 0.2031176835 1.184631237e-38
0.07499998808 -0.4250000119 0.1499999762 1.184631237e-38
0.0625 0.0625 0.25 1.184631237e-38
0.2875000238 -0.3125 0.1125000119 1.184631237e-38
0.0625 -0.3887507319 0.1701530218 1.184631237e-38
0.2124999762 -0.08750000596 0.1000000238 1.184631237e-38
0.125 -0.1374999881 0.25 1.184631237e-38
0.102217935 -0.3274616599 0.3598918021 1.184631237e-38
0.4062500298 -0.0533762686 0.09375 2.348204041e-38
0.09539797157 -0.2086806148 0.3301425576 2.348204041e-38
0.3274652362 -0.2021194845 0.09375000745 2.348204041e-38
0.2624999881 -0.1125000119 0.1000000238 2.348204041e-38
0.1374999881 -0.05000001192 0.1000000238 2.348204041e-38
0.3584370315 -0.2023815215 0.09374999255 2.348204041e-38
0.125 -0.125 0.1875 2.348204041e-38
0.0625 -0.2346692383 0.3829017282 2.348204041e-38
0.1249999925 -0.1138676777 0.1719966233 2.348204041e-38
0.2250000238 -0.412499994 0.1000000238 2.348204041e-38
0.1125000119 -0.4375 0.1125000119 2.348204041e-38
0.3000000119 -0.1875 0.1000000238 2.348204041e-38
0.1999999881 -0.275000006 0.1000000238 2.348204041e-38
0.2346228212 -0.2977302969 0.125 2.348204041e-38
0.07854107022 -0.3262012601 0.2959787846 2.348204041e-38
0.08749997616 0.05000001192 0.1000000238 2.348204041e-38
0.06195982546 -0.2952050567 0.2336902618 2.348204041e-38
0.1499999762 -0.1125000119 0.1125000119 2.348204041e-38
0.1356379241 -0.2435453236 0.4074136615 2.348204041e-38
0.3874999881 -0.2624999881 0.1000000238 2.348204041e-38
0.07499998808 -0.224999994 0.2375000119 2.348204041e-38
0.07499998808 -0.07499998808 0.2124999762 2.348204041e-38
0.1025855839 -0.2941827476 0.2672238648 2.348204041e-38
0.1029984653 -0.2645973265 0.2947980762 2.348204041e-38
0.09691087157 -0.2086615562 0.3626875281 2.348204041e-38
0.07499998808 0.02499997616 0.1625000238 2.348204041e-38
0.0625 -0.1399225891 0.3753612936 2.348204041e-38
0.07499998808 0.03750002384 0.1125000119 2.348204041e-38
0.2321776152 0.00707915565 0.1051146165 2.348204041e-38
0.09857966006 -0.3761023283 0.3206361532 2.348204041e-38
0.1092980877 -0.2348279208 0.110672839 2.348204041e-38
0.3244927526 -0.3750243783 0.125 2.348204041e-38
0.4098558128 -0.05504808947 0.1875000298 2.348204041e-38
0.2624999881 -0.400000006 0.1000000238 2.348204041e-38
0.07499998808 -0.25 0.3374999762 2.348204041e-38
0.03125 -0.03125 0.15625 2.348204041e-38
0.170463115 -0.416598618 0.09375 2.348204041e-38
0.1370463073 -0.2942403257 0.1285549253 2.348204041e-38
0.3874999881 -0.07499998808 0.1125000119 2.348204041e-38
0.3874999881 -0.3125 0.1000000238 2.348204041e-38
0.3277808726 -0.2353703827 0.1250000149 2.348204041e-38
0.2124999762 -0.3874999881 0.1125000119 2.348204041e-38
0.08749997616 -0.462500006 0.1125000119 2.348204041e-38
0.125 -0.224999994 0.125 2.348204041e-38
0.07499998808 -0.125 0.3500000238 2.348204041e-38
0.125 -0.03125 0.25 2.348204041e-38
0.03125 -0.34375 0.28125 2.348204041e-38
0.03125 -0.004649046808 0.2480390966 2.348204041e-38
0.08749997616 -0.400000006 0.1000000238 2.348204041e-38
0.07657075673 -0.05050725117 0.296215117 2.348204041e-38
0.3125 -0.05000001192 0.1000000238 2.348204041e-38
0.1875 -0.03749999404 0.1000000238 2.348204041e-38
0.0623524189 -0.2963369787 0.1398622841 2.348204041e-38
0.1499999762 0.01249998808 0.1000000238 2.348204041e-38
0.08749997616 -0.2624999881 0.1499999762 2.348204041e-38
0.202697739 -0.07760508358 0.09374999255 2.348204041e-38
0.3571767211 -0.05179836601 0.125 2.348204041e-38
0.1600140035 -0.3249678314 0.359623611 2.348204041e-38
0.1000000238 -0.3249999881 0.1125000119 2.348204041e-38
0.125 -0.1750000119 0.25 2.348204041e-38
0.139123112 -0.2981856465 0.3936395645 2.348204041e-38
0.1625000238 -0.3125 0.1000000238 2.348204041e-38
0.09375 -0.4374999702 0.2291666567 2.348204041e-38
0.2250000238 -0.3125 0.1125000119 2.348204041e-38
0.375 -0.375 0.1008140072 2.348204041e-38
0.3374999762 -0.287499994 0.1000000238 2.348204041e-38
0.125 -0.3625000119 0.1000000238 2.348204041e-38
0.1625000238 -0.09999999404 0.1000000238 2.348204041e-38
0.0625 -0.1713081449 0.1148357689 2.348204041e-38
0.125 -0.125 0.1999999881 2.348204041e-38
0.2624999881 -0.2624999881 0.1000000238 2.348204041e-38
0.2646714449 -0.1395854056 0.125 2.348204041e-38
0.1750000119 -0.3249999881 0.1125000119 2.348204041e-38
0.1125000119 -0.07499998808 0.2375000119 2.348204041e-38
0.125 -0.08181818575 0.40625 2.348204041e-38
0.07499998808 -0.1999999881 0.2875000238 2.348204041e-38
0.3000000119 -0.07499998808 0.1000000238 2.348204041e-38
0.3125 -0.3000000119 0.1000000238 2.348204041e-38
0.4125000238 -0.287499994 0.1000000238 2.348204041e-38
0.3589453101 -0.2976713181 0.09375000745 2.348204041e-38
0.1499999762 -0.349999994 0.3374999762 2.348204041e-38
0.1104628146 -0.3596751094 0.09375 2.348204041e-38
0.07499998808 -0.3000000119 0.3374999762 2.348204041e-38
0.2971009314 -0.1111963913 0.1069081873 2.348204041e-38
0.3374999762 -0.3249999881 0.1125000119 2.348204041e-38
0.125 -0.1125000119 0.1999999881 2.348204041e-38
0.1696078479 -0.4147465229 0.125 2.348204041e-38
0.1875 -0.375 0.34375 2.348204041e-38
0.09375 -0.4114028215 0.2008456141 2.348204041e-38
0.08554394543 -0.1396006197 0.1119787619 2.348204041e-38
0.2124999762 -0.150000006 0.1000000238 2.348204041e-38
0.3500000238 -0.1374999881 0.1000000238 2.348204041e-38
0.3999999762 -0.1750000119 0.1125000119 2.348204041e-38
0.0625 -0.1097699925 0.1121518165 2.348204041e-38
0.07771363109 -0.2367364615 0.3277789354 2.348204041e-38
0.1000000238 -0.1875 0.125 2.348204041e-38
0.08749997616 -0.275000006 0.1999999881 2.348204041e-38
0.08749997616 -0.1999999881 0.2375000119 2.348204041e-38
0.125 -0.2023038119 0.202247411 2.348204041e-38
0.4250000119 -0.0625 0.2124999762 2.348204041e-38
0.0625 -0.05072223395 0.3779812157 2.348204041e-38
0.125 -0.1394336224 0.2314952016 2.348204041e-38
0.07499998808 0 0.3249999881 2.348204041e-38
0.4125000238 -0.275000006 0.1000000238 2.348204041e-38
0.2971285582 0.0004708623164 0.125 2.348204041e-38
0.07499998808 -0.3874999881 0.2624999881 2.348204041e-38
0.125 -0.212500006 0.1625000238 2.348204041e-38
0.03125 -0.07414387167 0.1875 2.348204041e-38
0.1063041836 0.01197661832 0.1306036562 2.348204041e-38
0.1587162614 -0.3180895448 0.4083489776 2.348204041e-38
0.2968691587 -0.01790418476 0.09375 2.348204041e-38
0.1395291388 -0.3590951264 0.125 2.348204041e-38
0.4067826569 -0.2642655373 0.1249999925 2.348204041e-38
0.07726484537 -0.2061940134 0.3606879711 2.348204041e-38
0.1999999881 -0.3000000119 0.1125000119 2.348204041e-38
0.07499998808 -0.1999999881 0.1875 2.348204041e-38
0.06223732606 -0.2653667331 0.2648542225 2.348204041e-38
0.2649416625 -0.2648429871 0.09375 2.348204041e-38
0.3500000238 -0.162499994 0.1125000119 2.348204041e-38
0.2967687547 -0.07727793604 0.125 2.348204041e-38
0.25 -0.0625 0.1125000119 2.348204041e-38
0.079766348 -0.4193963706 0.1359017342 2.348204041e-38
0.1875000149 -0.274481535 0.356854856 2.348204041e-38
0.07499998808 -0.4250000119 0.1625000238 2.348204041e-38
0.09375 -0.318749994 0.4375 2.348204041e-38
0.08749997616 -0.224999994 0.1374999881 2.348204041e-38
0.40625 -0.02900564484 0.125 2.348204041e-38
0.08749997616 -0.08750000596 0.2375000119 2.348204041e-38
0.2375000119 -0.01249998808 0.1125000119 2.348204041e-38
0.07499998808 -0.05000001192 0.1875 2.348204041e-38
0.1750000119 -0.412499994 0.1000000238 2.348204041e-38
0.125 -0.2624999881 0.4125000238 2.348204041e-38
0.2875000238 0 0.1000000238 2.348204041e-38
0.2021074444 -0.387691021 0.09375 2.348204041e-38
0.3803775907 -0.02354018018 0.1027766392 2.348204041e-38
0.0625 -0.3289972246 0.09375 2.348204041e-38
0.06243805215 -0.0154783912 0.1394281685 2.348204041e-38
0.08749997616 -0.224999994 0.1875 2.348204041e-38
0.07499998808 -0.375 0.1625000238 2.348204041e-38
0.07499998808 -0.3249999881 0.3374999762 2.348204041e-38
0.1028912067 -0.2372964174 0.3877605498 2.348204041e-38
0.3625000119 -0.1750000119 0.1000000238 2.348204041e-38
0.1750000119 -0.162499994 0.1000000238 2.348204041e-38
0.07870777696 -0.2377137989 0.2952715755 2.348204041e-38
0.125 -0.212500006 0.1750000119 2.348204041e-38
0.3500000238 -0.3000000119 0.1000000238 2.348204041e-38
0.1499999762 -0.4250000119 0.1125000119 2.348204041e-38
0.07499998808 -0.25 0.2375000119 2.348204041e-38
0.1397671103 -0.3269638419 0.1250305772 2.348204041e-38
0.07499998808 -0.162499994 0.1750000119 2.348204041e-38
0.4190944433 -0.06590843201 0.2361868769 2.348204041e-38
0.08749997616 -0.1374999881 0.2375000119 2.348204041e-38
0.07979261875 -0.2069365233 0.3835203946 2.348204041e-38
0.125 -0.212500006 0.1875 2.348204041e-38
0.1499999762 -0.349999994 0.3125 2.348204041e-38
0.07499998808 -0.02500000596 0.3500000238 2.348204041e-38
0.1334631741 -0.2029551566 0.1327781081 2.348204041e-38
0.1499999762 -0.287499994 0.1125000119 2.348204041e-38
0.125 0.02499997616 0.1000000238 2.348204041e-38
0.07807908207 -0.07807067037 0.2960646749 2.348204041e-38
0.1125000119 -0.08750000596 0.3125 2.348204041e-38
0.07837121934 -0.3556581736 0.297092706 2.348204041e-38
0.1875 -0.01249998808 0.1125000119 2.348204041e-38
0.1598214507 -0.2687500119 0.28125 2.348204041e-38
0.3282167912 -0.3258612454 0.09375000745 2.348204041e-38
0.09375 0.03125 0.2842764854 2.348204041e-38
0.1750000119 -0.224999994 0.1125000119 2.348204041e-38
0.2028349936 -0.2978388071 0.09375 2.348204041e-38
0.08749997616 -0.224999994 0.1999999881 2.348204041e-38
0.07499998808 -0.287499994 0.3500000238 2.348204041e-38
0.3249999881 -0.275000006 0.1000000238 2.348204041e-38
0.4264705777 -0.09375 0.25 2.348204041e-38
0.4375 -0.07499998808 0.2375000119 2.348204041e-38
0.3374999762 -0.03749999404 0.1000000238 2.348204041e-38
0.03125 -0.2815833986 0.2077926397 2.348204041e-38
0.1725353897 -0.3593785167 0.1067172363 2.348204041e-38
0.1000000238 -0.08750000596 0.3374999762 2.348204041e-38
0.08749997616 -0.0625 0.1125000119 2.348204041e-38
0.1750000119 -0.02500000596 0.1000000238 2.348204041e-38
0.1499999762 -0.3125 0.1000000238 2.348204041e-38
0.2973436713 -0.2354734093 0.125 2.348204041e-38
0.3824060261 -0.3473760188 0.1055518687 2.348204041e-38
0.3999999762 -0.3000000119 0.1000000238 2.348204041e-38
0.08749997616 -0.337500006 0.3999999762 2.348204041e-38
0.1000000238 -0.275000006 0.2375000119 2.348204041e-38
0.3276134431 -0.2351539582 0.09374999255 2.348204041e-38
0.07730305195 -0.1399979889 0.3753169179 2.348204041e-38
0.2749999762 -0.375 0.1125000119 2.348204041e-38
0.07499998808 -0.3125 0.3874999881 2.348204041e-38
0.0625 -0.2347157151 0.1731793135 2.348204041e-38
0.08749997616 -0.1999999881 0.1374999881 2.348204041e-38
0.1249999925 -0.2022931278 0.1718784869 2.348204041e-38
0.07499998808 -0.275000006 0.1374999881 2.348204041e-38
0.3999999762 -0.25 0.1000000238 2.348204041e-38
0.1010062322 -0.3753317297 0.3530981243 2.348204041e-38
0.125 -0.1875 0.2375000119 2.348204041e-38
0.125 0.01249998808 0.1125000119 2.348204041e-38
0.3249999881 -0.3000000119 0.1125000119 2.348204041e-38
0.03125 -0.2818012536 0.17436786 2.348204041e-38
0.1875 -0.375 0.3249999881 2.348204041e-38
0.25 -0.349999994 0.1125000119 2.348204041e-38
0.3874999881 -0.05000001192 0.1125000119 2.348204041e-38
0.3490775228 -0.375 0.125 2.348204041e-38
0.3625000119 -0.03749999404 0.1125000119 2.348204041e-38
0.383338213 -0.0520551838 0.09375 2.348204041e-38
0.4125000238 -0.3125 0.1125000119 2.348204041e-38
0.2375000119 -0.25 0.1000000238 2.348204041e-38
0.125 -0.2813667059 0.1699780822 2.348204041e-38
0.1313498914 -0.3749999702 0.3033567369 2.348204041e-38
0.2620940208 -0.3844857216 0.1059343368 2.348204041e-38
0.1750000119 -0.1374999881 0.1125000119 2.348204041e-38
0.1249999851 -0.2623074651 0.1704410166 2.348204041e-38
0.2749999762 -0.1875 0.1000000238 2.348204041e-38
0.07499998808 0.01249998808 0.1750000119 2.348204041e-38
0.1045532599 -0.2347834557 0.2324421406 2.348204041e-38
0.1374999881 -0.3000000119 0.4125000238 2.348204041e-38
0.1875 -0.2770270109 0.4087837934 2.348204041e-38
0.1625000238 -0.337500006 0.3000000119 2.348204041e-38
0.4062500298 -0.1381923854 0.09375 2.348204041e-38
0.3374999762 -0.3625000119 0.1125000119 2.348204041e-38
0.3000000119 -0.2624999881 0.1125000119 2.348204041e-38
0.375 -0.03125 0.25 2.348204041e-38
0.08749997616 -0.08750000596 0.2624999881 2.348204041e-38
0.07499998808 0.05000001192 0.125 2.348204041e-38
0.3125 -0.3249999881 0.1125000119 2.348204041e-38
0.125 -0.275000006 0.25 2.348204041e-38
0.3999999762 -0.125 0.1000000238 2.348204041e-38
0.07815288007 -0.07829560339 0.3268702328 2.348204041e-38
0.1374999881 -0.1875 0.1125000119 2.348204041e-38
0.2621746957 0.005288183689 0.09375 2.348204041e-38
0.09791446477 -0.2093800008 0.3853271902 2.348204041e-38
0.3374999762 -0.125 0.1125000119 2.348204041e-38
0.158820346 -0.3206169009 0.28125 2.348204041e-38
0.1602300853 -0.3478841186 0.3286770284 2.348204041e-38
0.0625 -0.4427793026 0.1129639149 2.348204041e-38
0.09767305106 -0.1034665257 0.3275330365 2.348204041e-38
0.08749997616 -0.212500006 0.1125000119 2.348204041e-38
0.1125000119 -0.07499998808 0.2624999881 2.348204041e-38
0.2639193237 -0.01683696732 0.09375 2.348204041e-38
0.07499998808 0.01249998808 0.2875000238 2.348204041e-38
0.2749999762 -0.3249999881 0.1000000238 2.348204041e-38
0.3585063517 -0.07707059383 0.09375 2.348204041e-38
0.3125 -0.0625 0.1125000119 2.348204041e-38
0.1073466316 -0.4429717064 0.1064815596 2.348204041e-38
0.07499998808 -0.162499994 0.1125000119 2.348204041e-38
0.08749997616 -0.1125000119 0.125 2.348204041e-38
0.2375000119 -0.0625 0.1125000119 2.348204041e-38
0.2027569711 -0.07765731215 0.1068861336 2.348204041e-38
0.08749997616 -0.2375000119 0.25 2.348204041e-38
0.1625000238 -0.3125 0.375 2.348204041e-38
0.1499999762 -0.2375000119 0.375 2.348204041e-38
0.1125000119 -0.0625 0.1125000119 2.348204041e-38
0.07499998808 -0.3249999881 0.2124999762 2.348204041e-38
0.07499998808 -0.3000000119 0.375 2.348204041e-38
0.3500000238 -0.212500006 0.1000000238 2.348204041e-38
0.07758109272 -0.3268401623 0.3262028098 2.348204041e-38
0.1499999762 0.01249998808 0.1125000119 2.348204041e-38
0.07499998808 -0.150000006 0.375 2.348204041e-38
0.1125000119 -0.2624999881 0.3999999762 2.348204041e-38
0.07499998808 -0.3000000119 0.3125 2.348204041e-38
0.125 -0.1374999881 0.2124999762 2.348204041e-38
0.2026360333 -0.3267583251 0.09375 2.348204041e-38
0.1046485603 -0.3455759883 0.3890526891 2.348204041e-38
0.125 -0.08750000596 0.2124999762 2.348204041e-38
0.1625000238 -0.275000006 0.4125000238 2.348204041e-38
0.07499998808 -0.337500006 0.3500000238 2.348204041e-38
0.125 -0.162499994 0.1374999881 2.348204041e-38
0.2749999762 -0.3125 0.1000000238 2.348204041e-38
0.08749997616 -0.2375000119 0.1499999762 2.348204041e-38
0.0625 -0.297517091 0.1137207448 2.348204041e-38
0.1875 -0.2762305737 0.3915155232 2.348204041e-38
0.13778916 -0.2646864653 0.3924073279 2.348204041e-38
0.03125 -0.28125 0.15625 2.348204041e-38
0.3125 -0.1999999881 0.1125000119 2.348204041e-38
0.08785570413 -0.09521982074 0.40625 2.348204041e-38
0.0712595433 -0.388186276 0.2327414453 2.348204041e-38
0.06249999627 -0.1398619711 0.2329317778 2.348204041e-38
0.07499998808 -0.0625 0.2375000119 2.348204041e-38
0.07499998808 -0.349999994 0.1125000119 2.348204041e-38
0.03125 -0.3217410743 0.2940873802 2.348204041e-38
0.1723319441 -0.1399291158 0.125 2.348204041e-38
0.1075937673 -0.3242792189 0.4070231616 2.348204041e-38
0.07499998808 -0.3874999881 0.1125000119 2.348204041e-38
0.125 -0.0625 0.2886070013 2.348204041e-38
0.125 -0.349999994 0.1125000119 2.348204041e-38
0.1105112582 -0.04761055112 0.09375 2.348204041e-38
0.4023437202 -0.03124999814 0.1875 2.348204041e-38
0.06200410053 0.009728647768 0.2643711865 2.348204041e-38
0.2875000238 -0.1999999881 0.1125000119 2.348204041e-38
0.07499998808 -0.09999999404 0.1999999881 2.348204041e-38
0.134928152 -0.3749999702 0.325284183 2.348204041e-38
0.3999999762 -0.275000006 0.1125000119 2.348204041e-38
0.1125000119 -0.287499994 0.2875000238 2.348204041e-38
0.375 -0.1125000119 0.1125000119 2.348204041e-38
0.07499998808 -0.07499998808 0.1000000238 2.348204041e-38
0.25 -0.3000000119 0.1125000119 2.348204041e-38
0.3500000238 -0.01249998808 0.1000000238 2.348204041e-38
0.1374999881 0.01249998808 0.1125000119 2.348204041e-38
0.2250000238 -0.3625000119 0.1000000238 2.348204041e-38
0.0625 0 0.40625 2.348204041e-38
0.125 -0.28125 0.2039081901 2.348204041e-38
0.2029524446 -0.04881874472 0.125 2.348204041e-38
0.1999999881 -0.212500006 0.1125000119 2.348204041e-38
0.3238405287 -0.3764867187 0.09375 2.348204041e-38
0.125 -0.15625 0.0625 2.348204041e-38
0.07499998808 -0.25 0.375 2.348204041e-38
0.3125 -0.224999994 0.1125000119 2.348204041e-38
0.125 -0.1374999881 0.2250000238 2.348204041e-38
0.1000000238 -0.412499994 0.1125000119 2.348204041e-38
0.07499998808 -0.01249998808 0.375 2.348204041e-38
0.2124999762 -0.212500006 0.1125000119 2.348204041e-38
0.1096404567 -0.01505728718 0.1079230532 2.348204041e-38
0.0620034188 -0.1390582919 0.2965281606 2.348204041e-38
0.2965577543 -0.2978195548 0.125 2.348204041e-38
0.1725432128 -0.3269167244 0.09375 2.348204041e-38
0.1726343185 -0.3589573205 0.125 2.348204041e-38
0.3125 -0.150000006 0.1125000119 2.348204041e-38
0.08749997616 -0.1750000119 0.1875 2.348204041e-38
0.07499998808 -0.1374999881 0.1374999881 2.348204041e-38
0.3271210492 -0.1393952966 0.1072453037 2.348204041e-38
0.07499998808 -0.1750000119 0.2375000119 2.348204041e-38
0.2299410701 0.03192482144 0.09375 2.348204041e-38
0.1125000119 -0.375 0.1000000238 2.348204041e-38
0.1999999881 -0.150000006 0.1125000119 2.348204041e-38
0.40625 0 0.1020833552 2.348204041e-38
0.08749997616 -0.07499998808 0.375 2.348204041e-38
0.3374999762 -0.1125000119 0.1125000119 2.348204041e-38
0.1750000119 -0.4250000119 0.1125000119 2.348204041e-38
0.06983878464 -0.415032655 0.2010122687 2.348204041e-38
0.2347353101 -0.2979291081 0.1073821783 2.348204041e-38
0.1875 -0.1750000119 0.1000000238 2.348204041e-38
0.202002421 -0.01568148285 0.09375000745 2.348204041e-38
0.1875 -0.3244617283 0.3068181872 2.348204041e-38
0.1625000238 -0.287499994 0.3249999881 2.348204041e-38
0.1875 -0.1374999881 0.1000000238 2.348204041e-38
0.1875 -0.212500006 0.1000000238 2.348204041e-38
0.3374999762 -0.1875 0.1125000119 2.348204041e-38
0.07499998808 -0.349999994 0.1374999881 2.348204041e-38
0.1000000238 -0.349999994 0.1000000238 2.348204041e-38
0.125 -0.125 0.1499999762 2.348204041e-38
0.1011400595 -0.3245787621 0.2726717591 2.348204041e-38
0.1000000238 -0.25 0.1000000238 2.348204041e-38
0.07499998808 -0.03749999404 0.2624999881 2.348204041e-38
0.2375000119 -0.224999994 0.1000000238 2.348204041e-38
0.1391370445 -0.2026645392 0.09367055446 2.348204041e-38
0.3578259349 -0.111004211 0.1066628546 2.348204041e-38
0.2375000119 -0.0625 0.1000000238 2.348204041e-38
