# .PCD v0.7 - Point Cloud Data file format
VERSION 0.7
FIELDS x y z rgb
SIZE 4 4 4 4
TYPE F F F F
COUNT 1 1 1 1
WIDTH 836
HEIGHT 1
VIEWPOINT 0 0 0 1 0 0 0
POINTS 836
DATA ascii
0.1075090244 -0.07449109852 -0.2171807438 8.906165387e-39
0.1545905322 -0.2939235568 -0.2105825096 8.906165387e-39
0.1565868556 -0.1223711371 -0.2135074139 8.906165387e-39
0.02843312547 -0.1850907207 -0.2127580345 8.906165387e-39
0.02196549624 -0.07510684431 -0.2180519104 8.906165387e-39
0.06906361878 -0.293100208 -0.2133704126 8.906165387e-39
0.06319837272 -0.1212019026 -0.216724962 8.906165387e-39
-0.04788632318 -0.05262304842 -0.2292021066 8.906165387e-39
-0.06314988434 -0.001801569015 -0.2266818136 8.906165387e-39
-0.01873830706 -0.1336842477 -0.2210310996 8.906165387e-39
-0.01009021048 -0.0008232705295 -0.2217706889 8.906165387e-39
0.1309511065 -0.3014689684 -0.2243455946 8.906165387e-39
0.1328425258 -0.1462143362 -0.2279192507 8.906165387e-39
0.1645838767 -0.3841932118 -0.223848775 8.906165387e-39
0.1614077538 -0.2361164391 -0.2273839861 8.906165387e-39
0.1588736922 -0.3419971168 -0.2215870321 8.906165387e-39
0.1510338187 -0.2031987011 -0.2183653861 8.906165387e-39
0.1860907227 -0.4124332368 -0.2228201479 8.906165387e-39
0.1815208048 -0.2859717906 -0.2236947715 8.906165387e-39
0.1554425657 -0.2474916577 -0.2208421975 8.906165387e-39
0.1508895308 -0.1122961789 -0.2318098545 8.906165387e-39
0.1905145347 -0.337235868 -0.2224970013 8.906165387e-39
0.1918129325 -0.1864593923 -0.2298946381 8.906165387e-39
0.08107786626 -0.0921029821 -0.2075420618 8.906165387e-39
0.06585476547 -0.02465601265 -0.2120784223 8.906165387e-39
0.1159823537 -0.186827749 -0.2119556367 8.906165387e-39
0.1150085479 -0.04519394785 -0.2121838778 8.906165387e-39
-0.1032880023 -0.01826456189 -0.2264416516 8.906165387e-39
-0.1118379012 0.02125384659 -0.2243676186 8.906165387e-39
-0.1030907035 -0.08178410679 -0.2084195018 8.906165387e-39
-0.0793985948 0.04299323261 -0.2097523957 8.906165387e-39
0.1440253109 -0.3969335258 -0.04946720973 8.906165387e-39
0.1258992851 -0.3651614785 -0.03140655532 8.906165387e-39
0.1441683024 -0.4361869395 -0.04281628132 8.906165387e-39
0.1526162475 -0.3824498951 -0.0264369715 8.906165387e-39
-0.1476166546 -0.1235169396 0.2494174838 8.906165387e-39
-0.1549951583 -0.05288354307 0.2510417402 8.906165387e-39
-0.1550717354 -0.1692354381 0.2700897157 8.906165387e-39
-0.1544959843 -0.08357425034 0.2825443745 8.906165387e-39
0.1981315464 -0.2686287761 -0.2218392789 8.906165387e-39
0.1958529353 -0.134911105 -0.2290919274 8.906165387e-39
0.2127000988 -0.3550967872 -0.2345374376 8.906165387e-39
0.2073117048 -0.2010881603 -0.2366145402 8.906165387e-39
0.1735867262 -0.2211922705 -0.2084565461 8.906165387e-39
0.1684520841 -0.1082096994 -0.2140758485 8.906165387e-39
0.2024354786 -0.3148201406 -0.2070626616 8.906165387e-39
0.2080661654 -0.165769875 -0.2204648107 8.906165387e-39
-0.1326191723 -0.4133650362 0.2532553077 8.906165387e-39
-0.1409230381 -0.3509453237 0.280633837 8.906165387e-39
-0.1454503685 -0.4500067532 0.2832390666 8.906165387e-39
-0.1438251585 -0.3818302751 0.3006399274 8.906165387e-39
0.1049807668 -0.1904742122 -0.2112272084 8.906165387e-39
0.1005603597 -0.0933649838 -0.2175553441 8.906165387e-39
0.1369064897 -0.27674523 -0.2151285708 8.906165387e-39
0.131939128 -0.1372994483 -0.2199203074 8.906165387e-39
0.3820796907 -0.4072132409 -0.1048352569 8.906165387e-39
0.3795265257 -0.365575254 -0.07975298166 8.906165387e-39
0.3949408531 -0.4244556129 -0.09166409075 8.906165387e-39
0.3731268942 -0.3992238045 -0.07291504741 8.906165387e-39
0.05170122162 -0.1257970035 -0.220945552 8.906165387e-39
0.04296491668 -0.06773490459 -0.2257550657 8.906165387e-39
0.08724783361 -0.21307832 -0.2248006314 8.906165387e-39
0.08197657019 -0.08376219124 -0.2214617729 8.906165387e-39
0.1423319131 -0.1311221719 -0.2150265425 8.906165387e-39
0.1375028789 -0.06916771829 -0.2282836139 8.906165387e-39
0.1753137857 -0.2050704062 -0.2191874236 8.906165387e-39
0.1809087396 -0.08925456554 -0.2204009444 8.906165387e-39
0.2793375552 -0.3970469534 0.2674304545 8.906165387e-39
0.2556738257 -0.3547510803 0.299341768 8.906165387e-39
0.3007726967 -0.3967399895 0.2757897675 8.906165387e-39
0.2623577118 -0.3701474369 0.3004127443 8.906165387e-39
0.003627874888 -0.1471537352 -0.2430267483 1.184631237e-38
0.0004678471014 -0.07423678786 -0.2406089008 1.184631237e-38
0.02945529297 -0.2333892286 -0.2305217087 1.184631237e-38
0.03311267868 -0.1006514579 -0.2293700576 1.184631237e-38
0.3032402396 -0.4154487252 0.2986950576 1.184631237e-38
0.2779487073 -0.3781473935 0.3328739405 1.184631237e-38
0.3121332824 -0.4111840129 0.3059941828 1.184631237e-38
0.2882861793 -0.3956879079 0.3108377159 1.184631237e-38
0.1245835572 -0.1169522032 -0.2241136283 1.184631237e-38
0.1240629256 -0.05713921785 -0.2320222557 1.184631237e-38
0.1600097269 -0.1866117716 -0.2227826416 1.184631237e-38
0.1601086408 -0.08312084526 -0.2211769372 1.184631237e-38
0.07976780087 -0.3888518512 0.1628207415 1.184631237e-38
0.05373962969 -0.3781349361 0.1995087117 1.184631237e-38
0.08197125793 -0.4172478914 0.1910158247 1.184631237e-38
0.07820688188 -0.3888792098 0.2131090015 1.184631237e-38
-0.1371987313 -0.05226317793 0.2659279704 1.184631237e-38
-0.137617439 -0.02765423432 0.2695113719 1.184631237e-38
-0.146231845 -0.09666835517 0.2936313152 1.184631237e-38
-0.1395959705 -0.03014084883 0.3119211495 1.184631237e-38
-0.12284109 -0.0502101779 0.2284988761 1.184631237e-38
-0.119879961 -0.01461098716 0.2307362109 1.184631237e-38
-0.1286024898 -0.1056997031 0.2551743686 1.184631237e-38
-0.1178405583 -0.01891899481 0.270537138 1.184631237e-38
0.1681586057 -0.2593975067 -0.2058532238 1.184631237e-38
0.1633375585 -0.1331401169 -0.2170995176 1.184631237e-38
0.1851228923 -0.3413314223 -0.2111176401 1.184631237e-38
0.18151398 -0.1998675168 -0.2217104733 1.184631237e-38
-0.1037620828 -0.3677028418 -0.202119872 1.184631237e-38
-0.1002088785 -0.2118690014 -0.1974166036 1.184631237e-38
-0.09447972476 -0.4333944321 -0.1997643709 1.184631237e-38
-0.09924101084 -0.3095029593 -0.202725023 1.184631237e-38
-0.1616299748 -0.1361154616 0.287340492 1.184631237e-38
-0.1691280305 -0.05629701912 0.2894943357 1.184631237e-38
-0.1709192097 -0.1857781857 0.3062103987 1.184631237e-38
-0.1702471375 -0.09464625269 0.3228089809 1.184631237e-38
0.003482060973 -0.1811048537 -0.2610255182 1.184631237e-38
-0.004285835661 -0.05822020024 -0.2622969151 1.184631237e-38
0.02261058986 -0.2831191421 -0.2563104033 1.184631237e-38
0.01849459857 -0.1126048714 -0.2624550164 1.184631237e-38
0.1678284705 -0.1069047675 -0.2012065798 1.184631237e-38
0.1569273025 -0.03920027614 -0.2200297713 1.184631237e-38
0.1988250464 -0.1994861066 -0.2124891579 1.184631237e-38
0.2038911581 -0.0698210448 -0.2086477876 1.184631237e-38
0.1481542438 -0.1583052874 -0.2340036184 1.184631237e-38
0.1479558051 -0.08103188127 -0.2427196056 1.184631237e-38
0.1810915768 -0.2326229215 -0.2332021147 1.184631237e-38
0.1852031499 -0.1070498452 -0.2353917062 1.184631237e-38
0.3428280652 -0.4035627544 0.2555924356 1.184631237e-38
0.3219641149 -0.3731860518 0.2789732516 1.184631237e-38
0.3496691585 -0.4018265009 0.2669397593 1.184631237e-38
0.3214967251 -0.3864962757 0.2774322033 1.184631237e-38
0.0935421139 -0.3951586485 0.1233796254 1.184631237e-38
0.07824219018 -0.3750216365 0.1584768295 1.184631237e-38
0.09339401871 -0.4172008336 0.1530365348 1.184631237e-38
0.09923004359 -0.3847932518 0.1662785113 1.184631237e-38
-0.03288836405 -0.3021216989 -0.220597744 1.184631237e-38
-0.03572880849 -0.1994300485 -0.2191651911 1.184631237e-38
-0.02650159225 -0.391400367 -0.2130261809 1.184631237e-38
-0.02688544244 -0.2519946396 -0.2196134329 1.184631237e-38
0.3759208918 -0.3695206046 -0.09262167662 1.184631237e-38
0.3715441823 -0.3407625854 -0.06799442321 1.184631237e-38
0.3839891553 -0.4015811384 -0.07790666074 1.184631237e-38
0.3664837182 -0.362395972 -0.05389342085 1.184631237e-38
0.31668818 -0.4350743294 0.2643649578 1.184631237e-38
0.285384506 -0.4101580083 0.3199536204 1.184631237e-38
0.3192697465 -0.4290321469 0.3065572679 1.184631237e-38
0.2898305058 -0.4225548804 0.3136948943 1.184631237e-38
-0.1479985416 -0.06204613671 -0.2049919963 1.184631237e-38
-0.157087639 0.0007732510567 -0.2094870061 1.184631237e-38
-0.146275878 -0.1348348856 -0.1989608258 1.184631237e-38
-0.1259118915 0.01034541428 -0.1968911141 1.184631237e-38
0.01407291833 -0.109029755 -0.2064957172 1.184631237e-38
0.008267046884 -0.05472705513 -0.2035562843 1.184631237e-38
0.03272863105 -0.1850432903 -0.2119628936 1.184631237e-38
0.04218706861 -0.06675623357 -0.2062252164 1.184631237e-38
0.006967820693 -0.3532552123 0.1828914881 1.184631237e-38
-0.01472151373 -0.3509696722 0.2121850103 1.184631237e-38
0.009315679781 -0.3847882748 0.2016924471 1.184631237e-38
0.01454710122 -0.3563951552 0.2244131267 1.184631237e-38
0.243691355 -0.331953764 -0.1451483518 1.184631237e-38
0.2283907384 -0.303966552 -0.1407275498 1.184631237e-38
0.2482879907 -0.369248569 -0.1390459388 1.184631237e-38
0.2520141006 -0.3164093196 -0.1300867498 1.184631237e-38
-0.09541901201 -0.3038135171 -0.2000534683 1.184631237e-38
-0.09473250806 -0.13655819 -0.2024582773 1.184631237e-38
-0.0915710628 -0.3938961029 -0.1958634555 1.184631237e-38
-0.09921626002 -0.2257363796 -0.1996525228 1.184631237e-38
-0.1291037798 -0.006265927106 -0.2311595976 1.184631237e-38
-0.146576941 0.02297693491 -0.2411737442 1.184631237e-38
-0.1365187317 -0.07019686699 -0.2152824104 1.184631237e-38
-0.1154946685 0.03898455203 -0.2150274217 1.184631237e-38
0.02988697588 -0.1673389673 -0.207787171 1.184631237e-38
0.02670219541 -0.08762828261 -0.20093593 1.184631237e-38
0.06541778147 -0.2524163425 -0.2117749602 1.184631237e-38
0.06060766056 -0.1313260347 -0.2079830617 1.184631237e-38
-0.111157462 -0.4192352593 0.2792473137 1.184631237e-38
-0.1159757227 -0.3401465416 0.3109533787 1.184631237e-38
-0.1171151102 -0.4537466466 0.3108040988 1.184631237e-38
-0.1222876459 -0.3818802834 0.3246395886 1.184631237e-38
-0.1140786633 -0.1718581021 0.3090628684 1.184631237e-38
-0.1180438697 -0.07488773763 0.3034833968 1.184631237e-38
-0.1109768823 -0.235770911 0.317913413 1.184631237e-38
-0.1142986566 -0.1181786209 0.3263948262 1.184631237e-38
0.2336788774 -0.2562528849 -0.205260545 1.184631237e-38
0.2304408848 -0.1578655541 -0.2191215307 1.184631237e-38
0.2470561415 -0.3279495835 -0.2189718485 1.184631237e-38
0.2428970039 -0.2074168921 -0.222135514 1.184631237e-38
0.1508759409 -0.3531832397 0.1574399173 1.184631237e-38
0.1407312453 -0.3409717977 0.1797814071 1.184631237e-38
0.1545776874 -0.3832787573 0.1838532984 1.184631237e-38
0.1624812037 -0.348095119 0.1909269691 1.184631237e-38
-0.1278077513 -0.4482386708 -0.1727134436 1.184631237e-38
-0.1315426975 -0.3785327673 -0.1390743852 1.184631237e-38
-0.1086011603 -0.4714526832 -0.1260836124 1.184631237e-38
-0.1323202252 -0.4263294339 -0.1216363609 1.184631237e-38
-0.06035041437 -0.04158877581 -0.2557730079 1.184631237e-38
-0.07195287198 -0.005070261657 -0.2530329227 1.184631237e-38
-0.03614239395 -0.1115186065 -0.2451145947 1.184631237e-38
-0.02762850374 -0.003112953156 -0.239313826 1.184631237e-38
-0.02728765085 -0.101879172 -0.2226716876 1.184631237e-38
-0.04324537888 -0.02295274287 -0.2167371511 1.184631237e-38
-0.02625598013 -0.1957882345 -0.2118109167 1.184631237e-38
-0.0235491097 -0.05052889884 -0.2107852846 1.184631237e-38
0.248795718 -0.2200347185 -0.2249923646 1.184631237e-38
0.2416645885 -0.1056630164 -0.2355252206 1.184631237e-38
0.2682512105 -0.3079735935 -0.2307742238 1.184631237e-38
0.2775836587 -0.1656545401 -0.2385743707 1.184631237e-38
-0.02707886696 -0.2665213048 -0.2227981836 1.478322936e-38
-0.0357163772 -0.1346994638 -0.2245212197 1.478322936e-38
-0.001260511577 -0.3594116271 -0.2252101004 1.478322936e-38
0.0001589534804 -0.1954461336 -0.2335542738 1.478322936e-38
0.1843045205 -0.189614892 -0.2114835232 1.478322936e-38
0.1838647425 -0.0820441246 -0.2192748338 1.478322936e-38
0.2160711735 -0.2925475836 -0.2158258408 1.478322936e-38
0.2278220356 -0.1293646991 -0.214501828 1.478322936e-38
0.1771177351 -0.2195182145 -0.2042136937 1.478322936e-38
0.1776149273 -0.09684990346 -0.2137617767 1.478322936e-38
0.2090922445 -0.315379411 -0.2083147615 1.478322936e-38
0.2179893851 -0.1552254558 -0.2089906782 1.478322936e-38
0.2109713852 -0.1194385514 -0.2292804271 1.478322936e-38
0.2089008093 -0.05199381709 -0.2352211624 1.478322936e-38
0.2337893844 -0.2005397677 -0.2302820683 1.478322936e-38
0.2450431138 -0.08324384689 -0.231896013 1.478322936e-38
0.3541310132 -0.4005788565 0.2722258866 1.478322936e-38
0.3372032046 -0.3688306212 0.2986721396 1.478322936e-38
0.3668176532 -0.3952013552 0.2814657688 1.478322936e-38
0.3305728137 -0.3821390867 0.2901946306 1.478322936e-38
0.04336494952 -0.3282267451 0.1678129137 1.478322936e-38
0.02359465882 -0.3279494345 0.181504041 1.478322936e-38
0.05245775357 -0.3467992246 0.1857755333 1.478322936e-38
0.05202575773 -0.3281711936 0.1995679885 1.478322936e-38
0.1264740527 -0.3570742011 0.1745848209 1.478322936e-38
0.1132280305 -0.3405460715 0.2105974555 1.478322936e-38
0.1333473176 -0.3789174259 0.2032789439 1.478322936e-38
0.1416892558 -0.3501894772 0.2161805332 1.478322936e-38
-0.03045141324 -0.1680571288 -0.2273723483 1.478322936e-38
-0.04041593522 -0.07331833243 -0.2288126796 1.478322936e-38
0.002363304608 -0.2560605109 -0.2240101695 1.478322936e-38
0.0006786491722 -0.1073794812 -0.2286943644 1.478322936e-38
-0.02598629147 -0.1913071275 -0.2095899731 1.478322936e-38
-0.03555024043 -0.07799306512 -0.2121161968 1.478322936e-38
-0.003393278457 -0.2899695337 -0.2066369653 1.478322936e-38
-0.005869495682 -0.1052518189 -0.2092615366 1.478322936e-38
-0.02079349011 -0.1622438133 -0.1848487705 1.478322936e-38
-0.03549139947 -0.06577339768 -0.1925894618 1.478322936e-38
0.01955969259 -0.2571936548 -0.187756449 1.478322936e-38
0.02829782665 -0.1034293473 -0.1913877279 1.478322936e-38
0.2789578438 -0.2247573137 -0.2136638761 1.478322936e-38
0.2700712085 -0.1071402133 -0.2187473625 1.478322936e-38
0.2798957825 -0.307115227 -0.2187627703 1.478322936e-38
0.2980749607 -0.1648313403 -0.2339270115 1.478322936e-38
-0.1411250532 -0.2098203599 0.3048816025 1.478322936e-38
-0.1366354823 -0.09946472198 0.2974897027 1.478322936e-38
-0.1455472559 -0.2802764177 0.3163122237 1.478322936e-38
-0.139940083 -0.1549735963 0.3253998458 1.478322936e-38
-0.1174676418 -0.2864514291 -0.2234983891 1.478322936e-38
-0.1232151091 -0.1568697095 -0.2127942443 1.478322936e-38
-0.1173967421 -0.3758375645 -0.2117822319 1.478322936e-38
-0.1212576032 -0.2206266522 -0.2120387405 1.478322936e-38
0.1173334792 -0.349842906 0.2033104002 1.478322936e-38
0.1046809331 -0.3375519812 0.2387455255 1.478322936e-38
0.1293439418 -0.3793452978 0.228472814 1.478322936e-38
0.127517432 -0.3510032296 0.2534926236 1.478322936e-38
0.1080187261 -0.3352831602 0.147227928 1.478322936e-38
0.09569428116 -0.3151931167 0.1788953245 1.478322936e-38
0.117341727 -0.357124567 0.1744000763 1.478322936e-38
0.1239792034 -0.3270683289 0.1920381784 1.478322936e-38
0.1186336055 -0.3418171406 0.1859362572 1.478322936e-38
0.1073066145 -0.3262163699 0.221401304 1.478322936e-38
0.1241165102 -0.3658958972 0.2172191441 1.478322936e-38
0.127282396 -0.3410292566 0.2372422069 1.478322936e-38
-0.1156019121 -0.45334813 0.161762476 1.478322936e-38
-0.1347126812 -0.389606148 0.2011180967 1.478322936e-38
-0.1160832494 -0.4701530337 0.2008512765 1.478322936e-38
-0.138997376 -0.4289314747 0.2208602577 1.478322936e-38
0.2502614856 -0.185346514 -0.2307602316 1.478322936e-38
0.2400378287 -0.09200400114 -0.2343714535 1.478322936e-38
0.250277698 -0.2378917933 -0.2399866581 1.478322936e-38
0.2555547059 -0.1340631545 -0.252078414 1.478322936e-38
-0.1246946007 -0.01405315101 0.2156571895 1.478322936e-38
-0.1253997833 0.005635611713 0.2159270346 1.478322936e-38
-0.1299645305 -0.06006767228 0.2411506921 1.478322936e-38
-0.1226083636 0.01125349104 0.2530689836 1.478322936e-38
-0.1169446111 -0.09803050011 0.2438209206 1.478322936e-38
-0.1222818494 -0.02232558653 0.2376497835 1.478322936e-38
-0.1215433478 -0.17058447 0.2593042552 1.478322936e-38
-0.1066819951 -0.04417543113 0.2764898241 1.478322936e-38
-0.1130133718 -0.3237931728 -0.2106693983 1.478322936e-38
-0.1184059978 -0.1578655839 -0.2103462219 1.478322936e-38
-0.1157505363 -0.4048942924 -0.2048627883 1.478322936e-38
-0.114674665 -0.2553504109 -0.208209306 1.478322936e-38
-0.04759539291 -0.2563162148 -0.2118232846 1.478322936e-38
-0.04951348156 -0.1127056107 -0.2102395594 1.478322936e-38
-0.04439434782 -0.3419018686 -0.2173231691 1.478322936e-38
-0.05173103884 -0.1878540218 -0.221524924 1.478322936e-38
-0.1240294278 -0.4195977747 -0.1728660017 1.478322936e-38
-0.1070445254 -0.3112234473 -0.1619888395 1.478322936e-38
-0.1084395349 -0.4556085169 -0.1464270353 1.478322936e-38
-0.1172223091 -0.3782548308 -0.1441139728 1.478322936e-38
-0.1401026249 -0.195969969 0.2919908166 1.478322936e-38
-0.1434963048 -0.1015844569 0.2864431441 1.478322936e-38
-0.1391290277 -0.2613426447 0.2954006195 1.478322936e-38
-0.138712585 -0.1407516599 0.3081108034 1.478322936e-38
0.06314922869 -0.4138325453 0.08453763276 1.478322936e-38
0.03078816831 -0.3987041712 0.1216475964 1.478322936e-38
0.06035463884 -0.4358580709 0.1063302681 1.478322936e-38
0.06456007808 -0.4047374427 0.1253363192 1.478322936e-38
-0.05495658144 -0.1281793714 -0.214814961 1.478322936e-38
-0.0689471662 -0.05983915925 -0.2164587528 1.478322936e-38
-0.05385100469 -0.2043485641 -0.203544125 1.478322936e-38
-0.04352197796 -0.08774606884 -0.2122789323 1.478322936e-38
0.3028709292 -0.3910080791 0.2163936198 1.478322936e-38
0.2867790163 -0.3492456377 0.2452175915 1.478322936e-38
0.3185815513 -0.3889125884 0.242065534 1.478322936e-38
0.2839353383 -0.3678572178 0.2553224266 1.478322936e-38
0.2196224183 -0.4175498784 -0.0275807362 1.478322936e-38
0.2039812803 -0.3783601224 -0.005053260829 1.478322936e-38
0.2310151309 -0.4432464242 0.002010995755 1.478322936e-38
0.2141351998 -0.4037915468 0.02204356343 1.478322936e-38
0.277148068 -0.1602551192 -0.1815772206 1.478322936e-38
0.2684057355 -0.06728292257 -0.1951440871 1.478322936e-38
0.280741483 -0.2495810986 -0.1942039877 1.478322936e-38
0.2921370268 -0.1068597883 -0.1996456683 1.478322936e-38
-0.1206272095 -0.002350330353 -0.2153834999 1.478322936e-38
-0.1339260936 0.02038018405 -0.219655022 1.478322936e-38
-0.1330940872 -0.05821831524 -0.1862670481 1.478322936e-38
-0.12039873 0.03060845286 -0.1871437132 1.478322936e-38
-0.1061953232 -0.2519370019 0.3026898503 1.478322936e-38
-0.1109689996 -0.1361598372 0.3067433834 1.478322936e-38
-0.1284716427 -0.3058340549 0.3283093572 1.478322936e-38
-0.1285825074 -0.2063883543 0.334102869 1.478322936e-38
0.2507280707 -0.1490190029 -0.2015752643 1.478322936e-38
0.2476083785 -0.05532744899 -0.2099186927 1.478322936e-38
0.2730051279 -0.2395839989 -0.204734087 1.478322936e-38
0.2823882103 -0.09824064374 -0.2152797729 1.478322936e-38
0.1969747096 -0.1558118314 -0.1997072101 1.771655483e-38
0.1967511326 -0.06280773878 -0.2132273018 1.771655483e-38
0.2270805836 -0.2496424019 -0.205306977 1.771655483e-38
0.2367735654 -0.09931815416 -0.2096520662 1.771655483e-38
-0.1588542312 -0.4316506982 -0.1884490252 1.771655483e-38
-0.161873281 -0.3160112202 -0.1785096377 1.771655483e-38
-0.1364241689 -0.468570441 -0.1827499866 1.771655483e-38
-0.1441866159 -0.3970503509 -0.1900822818 1.771655483e-38
0.2528045177 -0.206923604 -0.1997338831 1.771655483e-38
0.2509217262 -0.1195473522 -0.2087729573 1.771655483e-38
0.2781638205 -0.2947477102 -0.206963107 1.771655483e-38
0.2861769199 -0.1676573753 -0.2076912075 1.771655483e-38
-0.07620978355 -0.2109370232 -0.2159944326 1.771655483e-38
-0.08528699726 -0.1224114448 -0.219847545 1.771655483e-38
-0.05314507708 -0.2953453958 -0.2099213749 1.771655483e-38
-0.05608665571 -0.1592736095 -0.2096082866 1.771655483e-38
0.2965532541 -0.3690488338 0.2225823402 1.771655483e-38
0.2752197981 -0.3461515009 0.2496693432 1.771655483e-38
0.3141327798 -0.3523643613 0.243762359 1.771655483e-38
0.2726230025 -0.3552779853 0.2661995292 1.771655483e-38
0.2189822197 -0.123619467 -0.2105543613 1.771655483e-38
0.2238504887 -0.0375669077 -0.2141952962 1.771655483e-38
0.2519617677 -0.2050919235 -0.2099056989 1.771655483e-38
0.2576988935 -0.0826216042 -0.2102229297 1.771655483e-38
0.2322325706 -0.1861122996 -0.2005009651 1.771655483e-38
0.2306189686 -0.07546221465 -0.214541465 1.771655483e-38
0.2431183606 -0.2768965662 -0.214092508 1.771655483e-38
0.2504541278 -0.1234981641 -0.2218922824 1.771655483e-38
-0.1389377117 -0.05222371966 -0.2249365151 1.771655483e-38
-0.1513369977 -0.01177159697 -0.2368956655 1.771655483e-38
-0.1426953375 -0.1246969178 -0.207687974 1.771655483e-38
-0.123625651 -0.006483089179 -0.2135362178 1.771655483e-38
-0.1458636075 -0.4172320068 0.2627050281 1.771655483e-38
-0.1521191001 -0.325717181 0.2899380326 1.771655483e-38
-0.1494467705 -0.4559762776 0.2898833752 1.771655483e-38
-0.1557137668 -0.3774855137 0.3019123077 1.771655483e-38
-0.1221751273 -0.4622972906 -0.1699689478 1.771655483e-38
-0.1235039234 -0.3872736394 -0.1243462712 1.771655483e-38
-0.1081660315 -0.4821056128 -0.1097745895 1.771655483e-38
-0.1279598475 -0.4389139712 -0.09347194433 1.771655483e-38
0.2875364125 -0.3616745174 -0.06839958578 1.771655483e-38
0.279304564 -0.3337139487 -0.05479825288 1.771655483e-38
0.3041411042 -0.3986756802 -0.05272287875 1.771655483e-38
0.2950433195 -0.3493837714 -0.0447053425 1.771655483e-38
0.2717941105 -0.3494196236 -0.05318594724 1.771655483e-38
0.263212204 -0.3319363892 -0.03304253146 1.771655483e-38
0.2799308598 -0.3833450973 -0.04130094498 1.771655483e-38
0.276198864 -0.3375949562 -0.02498218417 1.771655483e-38
0.2024387866 -0.392123729 0.004365321249 1.771655483e-38
0.1891644001 -0.3668931127 0.02693175152 1.771655483e-38
0.2097438127 -0.4089585841 0.02956588753 1.771655483e-38
0.1951187253 -0.3876032233 0.05594233796 1.771655483e-38
-0.1161946356 -0.1550187618 -0.2091577947 1.771655483e-38
-0.121408239 -0.06386785954 -0.2201512605 1.771655483e-38
-0.1129928976 -0.2442891896 -0.2080408186 1.771655483e-38
-0.1045358479 -0.09598517418 -0.2087029517 1.771655483e-38
-0.09660093486 -0.2209011018 -0.2046923935 1.771655483e-38
-0.09424975514 -0.09251062572 -0.1979941428 1.771655483e-38
-0.09015212953 -0.3043918014 -0.1947085708 1.771655483e-38
-0.09010160714 -0.1491829455 -0.1917451471 1.771655483e-38
-0.1072507501 -0.03558519483 -0.2243059278 1.771655483e-38
-0.1195086241 -0.005031820387 -0.2252507359 1.771655483e-38
-0.1179870367 -0.1235361546 -0.1984448135 1.771655483e-38
-0.1078489423 2.479553223e-05 -0.195850879 1.771655483e-38
-0.1360972375 -0.3229915202 -0.2089236379 1.771655483e-38
-0.141874969 -0.1688707024 -0.201216504 1.771655483e-38
-0.1350479126 -0.400405854 -0.2001323551 1.771655483e-38
-0.1358571053 -0.2700179219 -0.2047415376 1.771655483e-38
0.06839010864 -0.3800724745 0.08565875143 1.771655483e-38
0.05932869762 -0.3310691714 0.1028254777 1.771655483e-38
0.07222549617 -0.425933212 0.09709710628 1.771655483e-38
0.07908822596 -0.3612180948 0.1045868099 1.771655483e-38
-0.1408292651 0.004677556455 0.1931349486 1.771655483e-38
-0.1306789666 0.02586016804 0.1917877197 1.771655483e-38
-0.1423973143 -0.05945876613 0.2275472283 1.771655483e-38
-0.1349641383 0.02479825169 0.2387366742 1.771655483e-38
-0.1459288299 -0.4031645358 0.228218779 1.771655483e-38
-0.153608501 -0.2963319123 0.2448254973 1.771655483e-38
-0.146702826 -0.4456054866 0.2416922897 1.771655483e-38
-0.1466548443 -0.3610036373 0.2526314557 1.771655483e-38
-0.09637535363 -0.1786256731 -0.2258805484 1.771655483e-38
-0.09818998724 -0.07234820724 -0.2259833515 1.771655483e-38
-0.0952218473 -0.272723496 -0.2119929641 1.771655483e-38
-0.09755920619 -0.1087122858 -0.2140757591 1.771655483e-38
-0.1089647859 -0.1158270985 -0.2181161344 1.771655483e-38
-0.1175067276 -0.05352663621 -0.2210513055 1.771655483e-38
-0.1237117946 -0.2123699784 -0.2018185258 1.771655483e-38
-0.1145495474 -0.06061959267 -0.2001495808 1.771655483e-38
-0.1415180415 -0.3511062562 0.2527242005 1.771655483e-38
-0.1387926638 -0.2521208227 0.2662917972 1.771655483e-38
-0.1390513331 -0.4165820777 0.2722450495 1.771655483e-38
-0.139160499 -0.3205090463 0.2859425247 1.771655483e-38
0.01545750909 -0.05715430528 0.07469083369 1.771655483e-38
0.008064235561 -0.04076869786 0.06583803892 1.771655483e-38
0.02801911905 -0.07613127679 0.09537677467 1.771655483e-38
0.03672791645 -0.03364873305 0.09151362628 1.771655483e-38
-0.1129410341 -0.4442222714 0.1898522079 1.771655483e-38
-0.1288982034 -0.3777167201 0.2314607501 1.771655483e-38
-0.1241407543 -0.4654589891 0.2286117375 1.771655483e-38
-0.1398217827 -0.4117317796 0.2514421046 1.771655483e-38
0.1690744162 -0.3694955409 -0.06403404474 1.771655483e-38
0.1581008583 -0.320658654 -0.04379585013 1.771655483e-38
0.1662526876 -0.4154478312 -0.04574321955 1.771655483e-38
0.1709804535 -0.3533737361 -0.0313436836 1.771655483e-38
-0.1326954961 -0.4466147125 0.1352573335 1.771655483e-38
-0.1414039433 -0.3824775219 0.169063285 1.771655483e-38
-0.1216512322 -0.4712646008 0.1660290211 1.771655483e-38
-0.1396860629 -0.4238737822 0.1889271885 1.771655483e-38
0.0663350597 -0.0486423932 0.1269328892 1.771655483e-38
0.06179317459 -0.02561546117 0.1265798062 1.771655483e-38
0.07495758682 -0.05460889265 0.1478196234 1.771655483e-38
0.08861739188 -0.02857768163 0.1537879556 1.771655483e-38
-0.1281238794 -0.3351263702 0.2730364203 1.771655483e-38
-0.1182768196 -0.2244972885 0.2782727182 1.771655483e-38
-0.1229284108 -0.4072114229 0.2842772603 1.771655483e-38
-0.1226890683 -0.2946489453 0.2938797176 1.771655483e-38
-0.1110886037 -0.2084872425 -0.2070831507 1.771655483e-38
-0.1128783226 -0.09483101964 -0.21525307 1.771655483e-38
-0.1085527465 -0.3026327193 -0.2014506012 1.771655483e-38
-0.1120269969 -0.1510715485 -0.1993015856 1.771655483e-38
-0.1009194702 -0.230594784 -0.2296012193 1.771655483e-38
-0.1033928245 -0.1187828779 -0.2296424061 1.771655483e-38
-0.09468966722 -0.3206123412 -0.2296337038 1.771655483e-38
-0.09843760729 -0.1721195877 -0.2318863571 1.771655483e-38
-0.01242774818 -0.3543952703 0.1324573904 1.771655483e-38
-0.0365851298 -0.3442071974 0.1444012672 1.771655483e-38
-0.009687566198 -0.3929913938 0.1418787092 1.771655483e-38
-0.005934122019 -0.3499631286 0.1623685211 1.771655483e-38
0.2551814914 -0.3404810727 0.257990092 2.06466517e-38
0.2443950176 -0.3166562021 0.2673163116 2.06466517e-38
0.2831397355 -0.3677273691 0.2650893331 2.06466517e-38
0.2467492372 -0.3295481205 0.27989766 2.06466517e-38
0.05585460365 -0.1070161983 0.05072084814 2.06466517e-38
0.05261708423 -0.06560344249 0.0420117341 2.06466517e-38
0.06998386979 -0.1359791458 0.05646080896 2.06466517e-38
0.07240953296 -0.06287536025 0.06087647751 2.06466517e-38
0.3406843543 -0.3792613745 0.03770310804 2.06466517e-38
0.326009661 -0.3571509719 0.05827421322 2.06466517e-38
0.3585232794 -0.3872544765 0.06259018183 2.06466517e-38
0.3212534189 -0.3666089177 0.07011061907 2.06466517e-38
-0.1211902797 -0.1102468222 0.2267049849 2.06466517e-38
-0.1295826584 -0.03177464008 0.218548134 2.06466517e-38
-0.126538083 -0.1756078452 0.2332195789 2.06466517e-38
-0.1090560704 -0.04979813844 0.2455046326 2.06466517e-38
0.07346512377 -0.06900282949 0.1087502912 2.06466517e-38
0.08019015938 -0.04493100569 0.1249797866 2.06466517e-38
0.08850367367 -0.09846238792 0.1404409558 2.06466517e-38
0.09573450685 -0.04066298157 0.1398569942 2.06466517e-38
-0.1295913309 -0.4115753174 -0.1711549759 2.06466517e-38
-0.1269997507 -0.3209663332 -0.1507892013 2.06466517e-38
-0.1336092055 -0.4445816278 -0.1339778155 2.06466517e-38
-0.1296070516 -0.3801400959 -0.1395442337 2.06466517e-38
0.1583253145 -0.3886242807 0.008230076171 2.06466517e-38
0.1349829733 -0.3655387163 0.03666571155 2.06466517e-38
0.1571499854 -0.424494803 0.04076424614 2.06466517e-38
0.160641551 -0.378195703 0.05204834789 2.06466517e-38
0.1924700737 -0.332565546 0.1620602608 2.06466517e-38
0.1708149314 -0.3154295683 0.2015335113 2.06466517e-38
0.1977681071 -0.3408537805 0.1878816634 2.06466517e-38
0.1855139732 -0.3265370429 0.216822356 2.06466517e-38
0.1884974986 -0.3468878865 0.2027929723 2.06466517e-38
0.1762314439 -0.3149004579 0.219853282 2.06466517e-38
0.2110655755 -0.3584671319 0.2033983767 2.06466517e-38
0.1959867924 -0.3315890133 0.2258183956 2.06466517e-38
-0.1393649429 -0.1553447843 -0.2075096816 2.06466517e-38
-0.1440226138 -0.06540030986 -0.2239631563 2.06466517e-38
-0.1350941658 -0.2342316806 -0.2052730024 2.06466517e-38
-0.1287266165 -0.09553357214 -0.204689905 2.06466517e-38
-0.1145307496 -0.1387532949 -0.189343974 2.06466517e-38
-0.1163920015 -0.05581443757 -0.1973360032 2.06466517e-38
-0.1188225299 -0.2236004472 -0.1784530133 2.06466517e-38
-0.1143473461 -0.08861453086 -0.171218276 2.06466517e-38
-0.131356433 -0.4156194329 0.2117927969 2.06466517e-38
-0.140043065 -0.3114546239 0.2329198122 2.06466517e-38
-0.1359176189 -0.4516871572 0.2261145264 2.06466517e-38
-0.1412507147 -0.3702972829 0.2400201112 2.06466517e-38
-0.1474568844 -0.1265192628 -0.1756630242 2.06466517e-38
-0.1408208609 -0.06966629624 -0.1916154772 2.06466517e-38
-0.1481501758 -0.1882665455 -0.1542274058 2.06466517e-38
-0.1464969516 -0.08797441423 -0.1497671902 2.06466517e-38
0.1743709594 -0.3370113969 0.1755396724 2.06466517e-38
0.1594332159 -0.3286967576 0.1998704821 2.06466517e-38
0.1814991832 -0.3537460566 0.1935919076 2.06466517e-38
0.1691573858 -0.3309992552 0.2081436366 2.06466517e-38
0.1125024781 -0.05557058379 0.1147513688 2.06466517e-38
0.1013704464 -0.03933887929 0.1264303476 2.06466517e-38
0.1121296212 -0.06457374245 0.1438534707 2.06466517e-38
0.1264839619 -0.04357669502 0.1508621722 2.06466517e-38
0.1268908828 -0.03899917752 0.0386765413 2.06466517e-38
0.1251494139 -0.02519654855 0.04131510481 2.06466517e-38
0.1384909302 -0.05738437921 0.0618641749 2.06466517e-38
0.1523052454 -0.03581636399 0.06924201548 2.06466517e-38
0.1191437319 -0.3904642463 0.01265461184 2.06466517e-38
0.1065168753 -0.3455822468 0.03572277725 2.06466517e-38
0.1337530017 -0.402212441 0.03421550244 2.06466517e-38
0.119725503 -0.3742459416 0.04734176397 2.06466517e-38
-0.1204015762 -0.3023510277 0.2443490922 2.06466517e-38
-0.1166372597 -0.1895078421 0.243854925 2.06466517e-38
-0.1164677888 -0.3651943803 0.2496023029 2.06466517e-38
-0.1120935529 -0.2410795689 0.256133765 2.06466517e-38
-0.1142819077 -0.1359116435 -0.1857581437 2.06466517e-38
-0.1157580316 -0.06341268122 -0.196159482 2.06466517e-38
-0.127286911 -0.201469183 -0.1589914113 2.06466517e-38
-0.1271109134 -0.09728127718 -0.1530855596 2.06466517e-38
-0.1249203086 -0.115414843 -0.1872697324 2.06466517e-38
-0.1269545406 -0.05101091415 -0.195324406 2.06466517e-38
-0.1355824471 -0.1852465719 -0.1632561386 2.06466517e-38
-0.1287327111 -0.07433845103 -0.1607915908 2.06466517e-38
0.132294938 -0.3398986161 0.1714041233 2.06466517e-38
0.11951565 -0.3278454542 0.2024397999 2.06466517e-38
0.1456724405 -0.3415256143 0.1923545152 2.06466517e-38
0.1400995702 -0.3350021541 0.2164465934 2.06466517e-38
-0.1068391129 -0.2459152341 0.3101914525 2.06466517e-38
-0.1061566994 -0.1426374018 0.3004534543 2.06466517e-38
-0.1121430472 -0.3073805571 0.3188038766 2.06466517e-38
-0.1065500528 -0.1978158057 0.3272450566 2.06466517e-38
0.130092293 -0.3565149009 0.1561168879 2.06466517e-38
0.1178216785 -0.3311415017 0.190755412 2.06466517e-38
0.1493008584 -0.3688803911 0.1760636121 2.06466517e-38
0.1403657198 -0.3462117314 0.2053787261 2.06466517e-38
-0.1701243967 -0.01635129005 0.1618780196 2.06466517e-38
-0.1612692028 0.0122576803 0.1521369666 2.06466517e-38
-0.1668275446 -0.07440979779 0.1958404928 2.06466517e-38
-0.1585321426 0.0126542747 0.2049493939 2.06466517e-38
-0.1414784789 -0.1106437072 0.2312030047 2.06466517e-38
-0.1376093626 -0.03091448918 0.2317463458 2.06466517e-38
-0.1324022114 -0.1931494176 0.253556639 2.06466517e-38
-0.1284099072 -0.06455760449 0.2684723139 2.06466517e-38
-0.1476416886 -0.3025321066 -0.2345368415 2.06466517e-38
-0.1513340324 -0.2103426754 -0.2224550098 2.06466517e-38
-0.1573037356 -0.3747996986 -0.2113372684 2.06466517e-38
-0.1590977162 -0.2674191594 -0.2126538604 2.06466517e-38
0.2922604382 -0.3430465162 0.03096311353 2.06466517e-38
0.2748602629 -0.3273749352 0.04771561548 2.06466517e-38
0.3087837398 -0.378593713 0.05067323148 2.06466517e-38
0.2897796631 -0.342032671 0.06061407551 2.06466517e-38
0.01524152234 -0.3390430212 0.07616964728 2.06466517e-38
-0.003664065152 -0.3345567584 0.09270433336 2.06466517e-38
0.0206240043 -0.362067759 0.1026030779 2.06466517e-38
0.02021235973 -0.3425751626 0.1147789657 2.06466517e-38
-0.1069840193 -0.06832188368 -0.1433025748 2.06466517e-38
-0.1037161723 -0.0307838954 -0.1481608152 2.06466517e-38
-0.1167171896 -0.1318031847 -0.1037249193 2.06466517e-38
-0.1105854139 -0.0326365754 -0.09984510392 2.06466517e-38
-0.1284631193 -0.1650045812 -0.191392839 2.06466517e-38
-0.1232222915 -0.06888970733 -0.2015072256 2.06466517e-38
-0.1244603544 -0.2575312853 -0.1760824919 2.06466517e-38
-0.1268953234 -0.111404255 -0.17010656 2.06466517e-38
-0.1130595431 -0.438270092 0.1977856755 2.06466517e-38
-0.1169242412 -0.3486014307 0.2220232189 2.06466517e-38
-0.1130647138 -0.4649420977 0.2129340172 2.06466517e-38
-0.1215969175 -0.3927206397 0.2261588275 2.06466517e-38
0.1844936013 -0.3602932096 0.03413450718 2.06466517e-38
0.1783346236 -0.3197972476 0.04675396159 2.06466517e-38
0.1977864802 -0.4081919789 0.0575459227 2.06466517e-38
0.1968587041 -0.3521943986 0.0635991767 2.06466517e-38
-0.1605175734 -0.07212016732 -0.1433098912 2.348204041e-38
-0.1585653573 -0.04537907243 -0.1431578696 2.348204041e-38
-0.161113739 -0.1211457998 -0.1183347553 2.348204041e-38
-0.150558576 -0.04220633954 -0.114734821 2.348204041e-38
0.1272033155 -0.3319874108 0.1388580054 2.348204041e-38
0.1155956686 -0.3231482208 0.17263484 2.348204041e-38
0.1358254552 -0.348988235 0.1625220329 2.348204041e-38
0.1420933902 -0.3270864189 0.1795585901 2.348204041e-38
-0.1441039443 -0.05691685528 0.1421302706 2.348204041e-38
-0.1546493322 -0.03707710281 0.1379822046 2.348204041e-38
-0.1435487568 -0.08421015739 0.1657451242 2.348204041e-38
-0.1365058869 -0.0377737619 0.1769293547 2.348204041e-38
0.3350496292 -0.3214326799 0.01372468844 2.348204041e-38
0.3193141222 -0.3190118968 0.04904263094 2.348204041e-38
0.3508704901 -0.3266857266 0.02961714379 2.348204041e-38
0.3295565844 -0.3154474497 0.0621701628 2.348204041e-38
-0.1494205147 -0.4744797945 0.07403692603 2.348204041e-38
-0.153572768 -0.4111355245 0.1091791093 2.348204041e-38
-0.1430430263 -0.4812432528 0.1075969636 2.348204041e-38
-0.160691008 -0.4532200694 0.1346903741 2.348204041e-38
0.3631749749 -0.3792188466 0.2043323368 2.348204041e-38
0.3559813499 -0.3449854851 0.2253072262 2.348204041e-38
0.375436604 -0.3920602798 0.2227005959 2.348204041e-38
0.352024883 -0.3639752567 0.2266996205 2.348204041e-38
0.2518262267 -0.3167681992 -0.01617798023 2.348204041e-38
0.2326839566 -0.3204326928 -0.006826738361 2.348204041e-38
0.2567847967 -0.3277261257 -0.002003489994 2.348204041e-38
0.2542982697 -0.3085915744 0.01011913642 2.348204041e-38
-0.1420047283 -0.1568655968 -0.1730060577 2.348204041e-38
-0.1422051638 -0.09045049548 -0.185904488 2.348204041e-38
-0.1410528868 -0.2105719149 -0.1556920111 2.348204041e-38
-0.1412195116 -0.1147186011 -0.1533018351 2.348204041e-38
0.2928768992 -0.3227494061 0.1524867266 2.348204041e-38
0.2734492123 -0.3158091307 0.1902778894 2.348204041e-38
0.3044802547 -0.3370858133 0.1698406786 2.348204041e-38
0.2826143205 -0.3163526058 0.1956167668 2.348204041e-38
0.3840672374 -0.3505579531 -0.009513506666 2.348204041e-38
0.3727723062 -0.3333652914 0.02403050289 2.348204041e-38
0.400906533 -0.3747889698 0.02362339385 2.348204041e-38
0.3745435774 -0.339969337 0.03653670102 2.348204041e-38
-0.1090220734 -0.1073263735 -0.1218088269 2.348204041e-38
-0.1052646264 -0.03700213134 -0.131776467 2.348204041e-38
-0.109036237 -0.1798732579 -0.1100588813 2.348204041e-38
-0.1029682755 -0.05472040176 -0.1019791961 2.348204041e-38
-0.1562745273 -0.1548312306 -0.1528140008 2.348204041e-38
-0.1492901295 -0.08178250492 -0.1647918075 2.348204041e-38
-0.1466814727 -0.2205812633 -0.141621232 2.348204041e-38
-0.1492488682 -0.1134048104 -0.1387405694 2.348204041e-38
0.3575646281 -0.3341991603 0.2276133299 2.348204041e-38
0.3481391668 -0.3160727024 0.237012133 2.348204041e-38
0.37142995 -0.3635673225 0.2382127941 2.348204041e-38
0.3417911232 -0.3243415952 0.2456598729 2.348204041e-38
0.1759913564 -0.3560909927 0.168962121 2.348204041e-38
0.1536720842 -0.3542423844 0.2093754262 2.348204041e-38
0.1815619916 -0.3689886928 0.1971444786 2.348204041e-38
0.1670295894 -0.3528978229 0.2139055729 2.348204041e-38
-0.156371206 -0.08190706372 -0.14775455 2.348204041e-38
-0.1558590531 -0.07110488415 -0.1489771307 2.348204041e-38
-0.1569586843 -0.1166416109 -0.1168672368 2.348204041e-38
-0.1503540277 -0.06128983945 -0.1190917045 2.348204041e-38
0.25877437 -0.3344610035 0.04257668555 2.348204041e-38
0.235951826 -0.3452563882 0.06153037399 2.348204041e-38
0.2645204663 -0.3466984034 0.06456404924 2.348204041e-38
0.2465884686 -0.3421788514 0.08711124957 2.348204041e-38
-0.1102708578 -0.2830593884 -0.2069026381 2.348204041e-38
-0.103057988 -0.2384338677 -0.2012445033 2.348204041e-38
-0.1159520894 -0.3281906843 -0.1761268526 2.348204041e-38
-0.1111869216 -0.2597108483 -0.1681725234 2.348204041e-38
-0.1543220133 -0.2264811993 0.2606221139 2.348204041e-38
-0.1515823156 -0.1356424689 0.2592680454 2.348204041e-38
-0.1439353675 -0.2922656536 0.2638391852 2.348204041e-38
-0.1411170363 -0.1771538109 0.2754785717 2.348204041e-38
0.3357620239 -0.3418119252 0.1818848699 2.348204041e-38
0.3197980523 -0.323925674 0.220027864 2.348204041e-38
0.3501747847 -0.363427043 0.206588015 2.348204041e-38
0.3208407462 -0.3320886791 0.2280793041 2.348204041e-38
-0.1362296194 -0.06587146223 -0.1005434766 2.348204041e-38
-0.1286520362 -0.04720528051 -0.09515406936 2.348204041e-38
-0.1373022646 -0.0911398679 -0.05519899726 2.348204041e-38
-0.1332070678 -0.03935394436 -0.05522899702 2.348204041e-38
0.3114691675 -0.3343936801 0.01141298935 2.348204041e-38
0.3014926612 -0.328918308 0.03014571592 2.348204041e-38
0.3374247253 -0.3552008569 0.02880645543 2.348204041e-38
0.3164691627 -0.3328312337 0.03725546598 2.348204041e-38
0.1547490507 -0.3387830853 0.1041383073 2.348204041e-38
0.1301786751 -0.3493770659 0.1338654011 2.348204041e-38
0.1583052725 -0.3390376866 0.1336241663 2.348204041e-38
0.1558995396 -0.3445805609 0.1526157856 2.348204041e-38
-0.04308677465 -0.3343354166 0.07326733321 2.348204041e-38
-0.05240632966 -0.3050785065 0.08268947154 2.348204041e-38
-0.04171289876 -0.3842690587 0.09255772084 2.348204041e-38
-0.04507464543 -0.326431483 0.09879632294 2.348204041e-38
-0.1587926149 -0.06843017787 0.1556022018 2.348204041e-38
-0.159968242 -0.03202171624 0.1428458691 2.348204041e-38
-0.1644687206 -0.1254137456 0.1762790978 2.348204041e-38
-0.1581108123 -0.0420178771 0.1902621686 2.348204041e-38
-0.1304363012 -0.07251274586 -0.1129386052 2.348204041e-38
-0.133109346 -0.02752066404 -0.1202462465 2.348204041e-38
-0.1368859708 -0.1395789981 -0.08956867456 2.348204041e-38
-0.1345706135 -0.0307920482 -0.07444407046 2.348204041e-38
-0.139320001 -0.4442317486 -0.07837934047 2.348204041e-38
-0.1346901357 -0.3424845338 -0.05565785989 2.348204041e-38
-0.1356168836 -0.4646192789 -0.03555613756 2.348204041e-38
-0.1393384486 -0.4111237526 -0.02197515033 2.348204041e-38
-0.1337044239 -0.06555946171 0.1376056969 2.348204041e-38
-0.1375392675 -0.002303317189 0.1284253001 2.348204041e-38
-0.1372755468 -0.1322024763 0.1622255147 2.348204041e-38
-0.1433675587 -0.01971688122 0.1745391935 2.348204041e-38
-0.1434962451 -0.3974767029 -0.1361709982 2.348204041e-38
-0.1340424865 -0.2804516554 -0.1202776879 2.348204041e-38
-0.1469680965 -0.4470841587 -0.09675966203 2.348204041e-38
-0.1482242346 -0.3637967706 -0.1061079875 2.348204041e-38
-0.1447205991 -0.4400859475 -0.02808370627 2.348204041e-38
-0.1479976922 -0.3411422372 -0.01231637597 2.348204041e-38
-0.145772621 -0.4642903805 0.002904383233 2.348204041e-38
-0.1529908925 -0.4106733799 0.01928421296 2.348204041e-38
-0.1201501042 -0.4411168396 0.1453161389 2.348204041e-38
-0.1279976517 -0.3614025414 0.1828761548 2.348204041e-38
-0.1304009706 -0.4626274705 0.1816943586 2.348204041e-38
-0.1408221424 -0.4028946757 0.1990598142 2.348204041e-38
0.4202129841 -0.3423607647 0.00307750958 2.348204041e-38
0.417381376 -0.3111743033 0.02983940579 2.348204041e-38
0.4232391119 -0.3566869199 0.0167501308 2.348204041e-38
0.4040316045 -0.3307800591 0.04665533453 2.348204041e-38
-0.131849736 -0.2528935075 0.2480914891 2.348204041e-38
-0.1309621185 -0.1372484565 0.2441380024 2.348204041e-38
-0.1341319531 -0.3115346134 0.2582509518 2.348204041e-38
-0.1335666329 -0.1881814301 0.2653855085 2.348204041e-38
-0.1416459829 -0.1027343795 -0.1056674346 2.346801622e-38
-0.1347361803 -0.02767984569 -0.118722111 2.346801622e-38
-0.1419145018 -0.1821388304 -0.09392203391 2.346801622e-38
-0.1380824894 -0.04711023346 -0.08058619499 2.346801622e-38
-0.1620547175 0.003014542162 0.04760497808 2.346801622e-38
-0.1507343799 0.03274322301 0.04368188605 2.346801622e-38
-0.1514560729 -0.04374400899 0.100301832 2.346801622e-38
-0.1541661322 0.02321869135 0.1071965173 2.346801622e-38
-0.1520818323 -0.4235606194 -0.08373850584 2.346801622e-38
-0.1445065439 -0.320694685 -0.06816824526 2.346801622e-38
-0.151916042 -0.4535129964 -0.0435539633 2.346801622e-38
-0.1527251899 -0.3924278617 -0.03581415489 2.346801622e-38
-0.1282670945 -0.2634415329 -0.1491459757 2.346801622e-38
-0.1336909682 -0.127468437 -0.1520229578 2.346801622e-38
-0.12725389 -0.3489333987 -0.141492039 2.346801622e-38
-0.1316609979 -0.1982218921 -0.1433234364 2.346801622e-38
-0.1384486407 -0.2678124309 -0.1712752134 2.346801622e-38
-0.1442867219 -0.144454509 -0.1689070761 2.346801622e-38
-0.136648342 -0.3485313654 -0.1558595747 2.346801622e-38
-0.1442081332 -0.2062661648 -0.1570326239 2.346801622e-38
-0.1763946116 -0.3238112032 -0.1835936755 2.346801622e-38
-0.1786820143 -0.2366550863 -0.168536827 2.346801622e-38
-0.1767859757 -0.3801458776 -0.1615457386 2.346801622e-38
-0.1757055223 -0.2978999913 -0.1702641547 2.346801622e-38
0.3680211604 -0.3213623464 0.05881759524 2.346801622e-38
0.3484113514 -0.3209373057 0.08189679682 2.346801622e-38
0.3783073127 -0.346293509 0.08001319319 2.346801622e-38
0.3570892811 -0.3179009259 0.09172788262 2.346801622e-38
0.1523735821 -0.3372538388 0.02176477946 2.346801622e-38
0.1443670541 -0.3317147791 0.04411936924 2.346801622e-38
0.162896201 -0.3547565043 0.04383244738 2.346801622e-38
0.1643725038 -0.3286280036 0.05528094247 2.346801622e-38
0.1619229019 -0.331176132 0.08290109783 2.346801622e-38
0.1435917616 -0.3339762688 0.1057799309 2.346801622e-38
0.1615350842 -0.3313700855 0.1130791828 2.346801622e-38
0.1698304415 -0.3349393308 0.1319453567 2.346801622e-38
0.1655195653 -0.3360854089 0.01531501301 2.346801622e-38
0.1448214501 -0.3453059494 0.03701082245 2.346801622e-38
0.168663457 -0.3463882506 0.03944242746 2.346801622e-38
0.1751540154 -0.3428305387 0.05458877236 2.346801622e-38
0.2563123107 -0.3192686439 0.05598427355 2.346801622e-38
0.2363973707 -0.3285816312 0.08244976401 2.346801622e-38
0.2664735317 -0.3203352988 0.07591873407 2.346801622e-38
0.2577012181 -0.3197544813 0.1013629138 2.346801622e-38
0.3612705469 -0.3398233056 0.1511132419 2.346801622e-38
0.3461075723 -0.3299265504 0.1797274798 2.346801622e-38
0.367795378 -0.3402778506 0.1819185168 2.346801622e-38
0.3372982144 -0.3331585526 0.1965048313 2.346801622e-38
-0.1280284673 -0.1192938238 0.166200757 2.346801622e-38
-0.1227764934 -0.05303476378 0.1600531489 2.346801622e-38
-0.1363902837 -0.1823867857 0.1924511343 2.346801622e-38
-0.1291796118 -0.08281695843 0.2023190111 2.346801622e-38
-0.1362960041 -0.07256171852 -0.1205196977 2.346801622e-38
-0.1377334744 -0.03331131488 -0.128419131 2.346801622e-38
-0.140925318 -0.1308349371 -0.09769822657 2.346801622e-38
-0.1351564974 -0.0403925553 -0.09519979358 2.346801622e-38
-0.146138832 -0.131943807 -0.09360275418 2.346801622e-38
-0.1411320269 -0.0589303039 -0.09884277731 2.346801622e-38
-0.1438475847 -0.1957463324 -0.06168813631 2.346801622e-38
-0.1453765482 -0.08639100194 -0.05282608792 2.346801622e-38
-0.1374789625 -0.2528074682 -0.1406263262 2.346801622e-38
-0.1401138455 -0.1162139028 -0.1446968615 2.346801622e-38
-0.1356530935 -0.3371549845 -0.1293746233 2.346801622e-38
-0.1368678063 -0.1847605407 -0.1321601123 2.346801622e-38
-0.1367518604 -0.3001066148 -0.1490380466 2.346801622e-38
-0.1355908662 -0.1900824904 -0.1457521617 2.346801622e-38
-0.1323974282 -0.3762837648 -0.1374532878 2.346801622e-38
-0.1384808421 -0.2545859516 -0.1425293237 2.346801622e-38
-0.1381948292 -0.4232690036 -0.09707716852 2.346801622e-38
-0.134776786 -0.3470110595 -0.08103191108 2.346801622e-38
-0.1324227452 -0.4536800683 -0.0627238974 2.346801622e-38
-0.1387750357 -0.4024484456 -0.0557346791 2.346801622e-38
-0.1416382641 -0.04107584432 0.1488418877 2.346801622e-38
-0.144715786 -0.01696532965 0.1444565803 2.346801622e-38
-0.1425493509 -0.07787975669 0.1758909374 2.346801622e-38
-0.1348252296 -0.01962657273 0.1859403551 2.346801622e-38
0.3656074107 -0.3355499804 0.2022231668 2.346801622e-38
0.3592155874 -0.3147994578 0.217427507 2.346801622e-38
0.3795312643 -0.3434554935 0.2127583176 2.346801622e-38
0.350838691 -0.3208066523 0.2226812541 2.346801622e-38
0.2238327861 -0.3394795358 0.06138846651 2.346801622e-38
0.2022295594 -0.3385457397 0.08515337855 2.346801622e-38
0.2348942757 -0.3533329666 0.07775874436 2.346801622e-38
0.2301624417 -0.3383771777 0.09570799023 2.346801622e-38
0.1960524768 -0.3451853693 0.06911816448 2.346801622e-38
0.1756684631 -0.3341065943 0.09192702174 2.346801622e-38
0.2011826187 -0.3673843443 0.09385661036 2.346801622e-38
0.1908483654 -0.3459362388 0.1183417588 2.346801622e-38
0.2140744925 -0.3348957598 0.09435442835 2.346801622e-38
0.1964792609 -0.3391956389 0.1234328002 2.346801622e-38
0.2140719444 -0.3351955414 0.122653611 2.346801622e-38
0.2084843218 -0.3428752124 0.1448898911 2.346801622e-38
-0.1293167025 -0.177786693 -0.1075719595 2.346801622e-38
-0.125243485 -0.1078025252 -0.1133321971 2.346801622e-38
-0.1241219789 -0.237141937 -0.09404674917 2.346801622e-38
-0.1286515296 -0.1312929988 -0.09262381494 2.346801622e-38
0.232000038 -0.3484158218 0.03119127452 2.346801622e-38
0.2150080353 -0.3331251144 0.05280321091 2.346801622e-38
0.2356922477 -0.3687588871 0.05632568151 2.346801622e-38
0.2264127731 -0.347507745 0.07464978844 2.346801622e-38
-0.129901588 -0.3196030259 -0.1511357725 2.346801622e-38
-0.1197825819 -0.2470620573 -0.1503582448 2.346801622e-38
-0.1269336492 -0.3741207719 -0.1398888528 2.346801622e-38
-0.1267982721 -0.288418144 -0.1380575746 2.346801622e-38
-0.1325408518 -0.1288021803 -0.09914848953 2.346801622e-38
-0.128978774 -0.05940021202 -0.1011448205 2.346801622e-38
-0.129774645 -0.1798924208 -0.07704754174 2.346801622e-38
-0.1348156035 -0.08518773317 -0.06537693739 2.346801622e-38
0.3517563641 -0.3524541855 0.04871112108 2.346801622e-38
0.3360487521 -0.3409055471 0.06692665815 2.346801622e-38
0.3612803221 -0.3851595521 0.06723322719 2.346801622e-38
0.341924727 -0.3494294882 0.07968430221 2.346801622e-38
-0.113349624 -0.1482197344 0.1903215349 2.346801622e-38
-0.1042027771 -0.09496358782 0.1879351139 2.346801622e-38
-0.1138871983 -0.2163642049 0.2073805183 2.346801622e-38
-0.111296311 -0.1116999686 0.2167178541 2.346801622e-38
0.2132190317 -0.337133944 0.04504682869 2.346801622e-38
0.1963438392 -0.3338043392 0.06297581643 2.346801622e-38
0.223970741 -0.3463491499 0.06998367608 2.346801622e-38
0.2169108242 -0.3366640508 0.08618848026 2.346801622e-38
-0.1043817177 -0.1814355105 -0.1196802408 2.346801622e-38
-0.1005220264 -0.110114865 -0.1231658161 2.346801622e-38
-0.1102596447 -0.2435920537 -0.101343967 2.346801622e-38
-0.1132144406 -0.138898313 -0.09528136998 2.346801622e-38
-0.1183491498 -0.04820689186 0.09889948368 2.346801622e-38
