# .PCD v0.7 - Point Cloud Data file format
VERSION 0.7
FIELDS x y z rgb
SIZE 4 4 4 4
TYPE F F F F
COUNT 1 1 1 1
WIDTH 828
HEIGHT 1
VIEWPOINT 0 0 0 1 0 0 0
POINTS 828
DATA ascii
-0.2104164809 -0.333860606 -0.004669185728 5.962428276e-39
-0.2034305483 -0.3593837321 0.006309723482 5.962428276e-39
-0.2076587826 -0.4137811065 -8.129701018e-05 5.962428276e-39
-0.05435170233 -0.3828321397 -0.219292134 5.962428276e-39
-0.05820568651 -0.3040847778 -0.2084377706 5.962428276e-39
-0.01745277643 -0.3507329226 -0.217895329 5.962428276e-39
-0.02258513123 -0.4266993403 -0.2243337333 5.962428276e-39
-0.2114474028 -0.3793091178 -0.1700850576 5.962428276e-39
-0.2167038023 -0.2712400556 -0.1777040511 5.962428276e-39
-0.2021145374 -0.3360022306 -0.1721342206 5.962428276e-39
-0.1941459477 -0.4331671894 -0.1761238724 5.962428276e-39
0.235546127 0.01681812108 -0.2051585168 5.962428276e-39
0.250317663 0.05687811226 -0.2189915925 5.962428276e-39
0.281838268 0.05798575282 -0.2062745392 5.962428276e-39
0.2713242471 -0.01453112159 -0.214183256 5.962428276e-39
0.1831734776 -0.009800637141 -0.2291899174 5.962428276e-39
0.187031433 0.02976299636 -0.2302674502 5.962428276e-39
0.2330227196 0.01586712524 -0.2292620391 5.962428276e-39
0.2172739208 -0.0564773865 -0.2245861143 5.962428276e-39
-0.1703877598 -0.3607864082 0.07276104391 5.962428276e-39
-0.1775698513 -0.3169524074 0.09044866264 5.962428276e-39
-0.1657952666 -0.3417293727 0.09922017157 5.962428276e-39
-0.1696808189 -0.396111697 0.09220838547 5.962428276e-39
0.1763628721 -0.1672240347 -0.2255133241 5.962428276e-39
0.1848628521 -0.07030756772 -0.2207303345 5.962428276e-39
0.2225609273 -0.1063231006 -0.2315564901 5.962428276e-39
0.2090125978 -0.2510497272 -0.2222584039 5.962428276e-39
-0.1524048448 -0.376519233 0.02126456425 5.962428276e-39
-0.1534418315 -0.324816227 0.04234374315 5.962428276e-39
-0.1439487934 -0.361276567 0.04533705488 5.962428276e-39
-0.1540103555 -0.4176977873 0.04302706942 5.962428276e-39
0.007832784206 -0.1515971124 -0.2011941671 5.962428276e-39
0.02216704004 -0.06576391309 -0.2104147077 5.962428276e-39
0.06731438637 -0.1116866842 -0.2080157697 5.962428276e-39
0.05896567553 -0.2537712753 -0.2058140188 5.962428276e-39
0.1147610992 -0.01767733134 -0.2185027003 5.962428276e-39
0.1295168847 0.02652906254 -0.221941933 5.962428276e-39
0.1810449511 0.01266976818 -0.2155965567 5.962428276e-39
0.1638292521 -0.08387348056 -0.2093392909 5.962428276e-39
0.1713413894 -0.08102918416 -0.2223971188 5.962428276e-39
0.1805024147 -0.01824114285 -0.221888572 5.962428276e-39
0.2105163336 -0.04901713878 -0.2249121815 5.962428276e-39
0.193220377 -0.1756350547 -0.2191685885 5.962428276e-39
-0.1411234885 -0.2218430787 0.06348778307 5.962428276e-39
-0.1446274817 -0.1347735226 0.06986669451 5.962428276e-39
-0.1463471651 -0.1790472716 0.09873867035 5.962428276e-39
-0.1411304027 -0.2885196209 0.09035420418 5.962428276e-39
0.04303202778 -0.4051926732 -0.2249005586 5.962428276e-39
0.04071288556 -0.3108412623 -0.2179618925 5.962428276e-39
0.0632192865 -0.3729394376 -0.2229478359 5.962428276e-39
0.04839660972 -0.4468301237 -0.2137256861 5.962428276e-39
-0.1639940441 -0.2848496139 0.131044209 5.962428276e-39
-0.1698539257 -0.2071706951 0.1424889416 5.962428276e-39
-0.1651141942 -0.2532545328 0.1561931521 5.962428276e-39
-0.160957098 -0.3355445564 0.1566031575 5.962428276e-39
-0.1950685233 -0.3658924997 0.001821000129 5.962428276e-39
-0.1891492009 -0.3183150887 0.0251010377 5.962428276e-39
-0.1629927158 -0.3453318179 0.03237272054 5.962428276e-39
-0.1904921085 -0.414341867 0.02772637829 5.962428276e-39
0.0609662421 -0.1081416681 -0.2282490581 5.962428276e-39
0.07875429094 -0.03814911097 -0.2364958972 5.962428276e-39
0.1242142916 -0.06767435372 -0.2343917638 5.962428276e-39
0.1068923399 -0.1946066767 -0.2294662744 5.962428276e-39
0.03387098387 -0.138550207 -0.208753705 5.962428276e-39
0.0461563915 -0.0490022637 -0.2201995105 5.962428276e-39
0.09004984796 -0.09537210315 -0.2137719244 5.962428276e-39
0.08076183498 -0.2397815883 -0.2125190049 5.962428276e-39
-0.1764118224 -0.2849349082 0.2545611262 5.962428276e-39
-0.1761526763 -0.2365337759 0.2651495934 5.962428276e-39
-0.175933972 -0.2618429959 0.2673844993 5.962428276e-39
-0.1787881106 -0.3026658595 0.2721475959 5.962428276e-39
0.2505100071 -0.3164153099 -0.238544181 5.962428276e-39
0.2478997856 -0.1690043956 -0.2386895269 5.962428276e-39
0.2774843276 -0.2454678118 -0.2629693449 5.962428276e-39
0.2679581046 -0.383169502 -0.251500994 5.962428276e-39
0.008465852588 -0.185997203 -0.2130959928 5.962428276e-39
0.02391668968 -0.07937977463 -0.2240249515 5.962428276e-39
0.06439238787 -0.1278279275 -0.2202765793 5.962428276e-39
0.05203577131 -0.2818056345 -0.2192958891 5.962428276e-39
0.0390522927 -0.1833541989 -0.2093959749 5.962428276e-39
0.06444963068 -0.08118206263 -0.2164216936 5.962428276e-39
0.1029445305 -0.1265328676 -0.2187286317 5.962428276e-39
0.09014511853 -0.274514854 -0.2163174748 5.962428276e-39
0.1590986699 -0.1349839568 -0.2193127126 5.962428276e-39
0.1744059622 -0.04299563542 -0.2132639885 5.962428276e-39
0.2080000937 -0.07809464633 -0.224296391 5.962428276e-39
0.1944107562 -0.2326684892 -0.2168165147 5.962428276e-39
-0.1432955861 -0.3196130097 0.07302853465 5.962428276e-39
-0.147084713 -0.2397705019 0.08479289711 5.962428276e-39
-0.1452346742 -0.2854344249 0.09683443606 5.962428276e-39
-0.1430370212 -0.3581439257 0.09146107733 5.962428276e-39
0.0320295319 -0.1066150665 -0.2275855988 5.962428276e-39
0.05234699324 -0.006065918133 -0.2312865108 5.962428276e-39
0.09685301036 -0.05184836686 -0.2278661877 5.962428276e-39
0.08723223209 -0.2186428905 -0.2247124612 5.962428276e-39
0.03243158013 -0.1715132892 -0.2127118558 5.962428276e-39
0.04617078975 -0.04336927086 -0.2184805125 5.962428276e-39
0.08272656053 -0.103625074 -0.2125719637 5.962428276e-39
0.07046759874 -0.2729687095 -0.2129813731 5.962428276e-39
0.03263581917 -0.1759904921 -0.2133799195 5.962428276e-39
0.04909099638 -0.05807597563 -0.2185903937 5.962428276e-39
0.08702838421 -0.1118147373 -0.2170201391 5.962428276e-39
0.07633954287 -0.2731675208 -0.2149833441 5.962428276e-39
0.1885879338 -0.2130398452 -0.2302159816 5.962428276e-39
0.1871093214 -0.07762201875 -0.2284329683 5.962428276e-39
0.2262189686 -0.1386867166 -0.2423314601 5.962428276e-39
0.2138746083 -0.3087464273 -0.2339230925 5.962428276e-39
0.2413731068 -0.2479891479 -0.2367996722 5.962428276e-39
0.2467311174 -0.1211753562 -0.2402386218 5.962428276e-39
0.2649962306 -0.1732915342 -0.2559964061 5.962428276e-39
0.248966381 -0.323302716 -0.2457497567 5.962428276e-39
-0.1372835487 -0.1784151793 0.07958355546 8.906165387e-39
-0.1472848058 -0.1362763494 0.08918182552 8.906165387e-39
-0.1359673291 -0.1536667496 0.1172132492 8.906165387e-39
-0.1346966624 -0.2064247876 0.1015536636 8.906165387e-39
0.04963943362 -0.07138948143 -0.2155990303 8.906165387e-39
0.06509761512 -0.02326029539 -0.2216404378 8.906165387e-39
0.0930345431 -0.03803613409 -0.2147869468 8.906165387e-39
0.07765921205 -0.1441788524 -0.2157656699 8.906165387e-39
-0.1741763651 -0.1924777329 0.02620434389 8.906165387e-39
-0.1830840856 -0.124595806 0.03478237987 8.906165387e-39
-0.1717844158 -0.1483341753 0.05369217694 8.906165387e-39
-0.170894742 -0.2439513952 0.04484502599 8.906165387e-39
-0.2098349184 -0.2901006341 0.09997105598 8.906165387e-39
-0.2208652943 -0.2268155366 0.1174322218 8.906165387e-39
-0.2094312608 -0.2625589371 0.1308381408 8.906165387e-39
-0.2216418982 -0.3476928473 0.1240657866 8.906165387e-39
0.2163285315 -0.2861088812 -0.2374727875 8.906165387e-39
0.2299400121 -0.1721373349 -0.2378382832 8.906165387e-39
0.2412910312 -0.2304556668 -0.2602440417 8.906165387e-39
0.2294290811 -0.3485987484 -0.2580936253 8.906165387e-39
0.003619584255 -0.2082800269 -0.1984433979 8.906165387e-39
0.0241905041 -0.09600621462 -0.2099871486 8.906165387e-39
0.04216581956 -0.1433961242 -0.2187212557 8.906165387e-39
0.03782734647 -0.3057565987 -0.2097846121 8.906165387e-39
0.1274165064 -0.176167056 -0.2459918112 8.906165387e-39
0.1487343758 -0.06546995044 -0.2410573214 8.906165387e-39
0.1621122062 -0.106935814 -0.2474008948 8.906165387e-39
0.1560105681 -0.269395113 -0.2399969846 8.906165387e-39
-0.1829235256 -0.2573448122 0.0427929759 8.906165387e-39
-0.1815403253 -0.1867328882 0.05406198651 8.906165387e-39
-0.1802716702 -0.2230109572 0.07526420057 8.906165387e-39
-0.1828697026 -0.3214724958 0.06414507329 8.906165387e-39
0.1755946428 -0.1263237298 -0.2171095312 8.906165387e-39
0.1880291551 -0.07800445706 -0.2099889964 8.906165387e-39
0.2077887952 -0.0980021134 -0.2255522162 8.906165387e-39
0.1900132149 -0.1954484284 -0.2214504182 8.906165387e-39
-0.144690603 -0.2437108904 0.08466189355 8.906165387e-39
-0.1493946165 -0.1790153831 0.09675621986 8.906165387e-39
-0.1395738125 -0.2069242746 0.1135706604 8.906165387e-39
-0.1381469369 -0.3006792963 0.1057147682 8.906165387e-39
-0.19162637 -0.3571975231 -0.0217913799 8.906165387e-39
-0.1944315881 -0.3114415705 0.004729475826 8.906165387e-39
-0.1620852351 -0.3390599191 0.01269821543 8.906165387e-39
-0.1868771762 -0.4073596895 0.01211946644 8.906165387e-39
0.1638489962 -0.01564089954 -0.1968875378 8.906165387e-39
0.1797008961 0.009223283269 -0.2044347227 8.906165387e-39
0.2024356723 0.00776011683 -0.2091223598 8.906165387e-39
0.1811555177 -0.0496850796 -0.2067630291 8.906165387e-39
-0.2246449739 -0.2959390581 0.02251947112 8.906165387e-39
-0.2224930525 -0.2659749985 0.04050282016 8.906165387e-39
-0.2211590707 -0.2817299664 0.06750994921 8.906165387e-39
-0.2231998146 -0.3399020135 0.05137872696 8.906165387e-39
0.01048214361 -0.1252395362 -0.2122347355 8.906165387e-39
0.01855028979 -0.05289913341 -0.2248297185 8.906165387e-39
0.06547672302 -0.08631929755 -0.2159865201 8.906165387e-39
0.05332238227 -0.2123336047 -0.2195569128 8.906165387e-39
0.170980379 -0.02123552375 -0.2021984756 8.906165387e-39
0.183486402 0.01731669717 -0.204121232 8.906165387e-39
0.2064759284 0.008583829738 -0.2081132233 8.906165387e-39
0.1886437535 -0.07038626075 -0.2022888213 8.906165387e-39
-0.1958413273 -0.1814894527 0.05299695581 8.906165387e-39
-0.2095490694 -0.1093115509 0.06309841573 8.906165387e-39
-0.1983607411 -0.1356872171 0.08614070714 8.906165387e-39
-0.1975919306 -0.2361125499 0.07875789702 8.906165387e-39
-0.1807249337 -0.2565996051 0.2276879549 8.906165387e-39
-0.1859352291 -0.1973977536 0.23774378 8.906165387e-39
-0.1768126488 -0.2352144718 0.2575359941 8.906165387e-39
-0.1838113517 -0.2996990681 0.2522517443 8.906165387e-39
-0.1757032126 -0.1356056929 0.07878112048 8.906165387e-39
-0.1908080876 -0.08311796933 0.08618807793 8.906165387e-39
-0.1749269664 -0.1032456532 0.1170002967 8.906165387e-39
-0.1764921248 -0.1791825742 0.1060359031 8.906165387e-39
-0.2152698785 -0.1754839569 0.03938110545 8.906165387e-39
-0.225207746 -0.1100893617 0.04720689356 8.906165387e-39
-0.2173320651 -0.1432872266 0.07638990879 8.906165387e-39
-0.2141708881 -0.2383723557 0.06258045882 8.906165387e-39
-0.04099113122 -0.1849590242 -0.2105626464 8.906165387e-39
-0.03226740658 -0.06852327287 -0.2118167728 8.906165387e-39
0.00935215503 -0.1260943413 -0.2150728405 8.906165387e-39
-0.003945252858 -0.2748231888 -0.2095931172 8.906165387e-39
0.01681915671 -0.3834035397 -0.2050094604 8.906165387e-39
0.02037158981 -0.2837586999 -0.2065205127 8.906165387e-39
0.05860021338 -0.3429116011 -0.2150173187 8.906165387e-39
0.04890285805 -0.4224014878 -0.2089292556 8.906165387e-39
0.1307929754 -0.05951494351 -0.2233329266 8.906165387e-39
0.1431484669 -0.009759655222 -0.2266263515 8.906165387e-39
0.1837771386 -0.034357436 -0.2267095596 8.906165387e-39
0.1664283723 -0.1461365819 -0.2213785052 8.906165387e-39
-0.2010478973 -0.3184795082 -0.0250103958 8.906165387e-39
-0.2105878145 -0.3043971062 0.008483882993 8.906165387e-39
-0.1835096478 -0.3106612563 -0.005793191493 8.906165387e-39
-0.1969129294 -0.35359478 -0.006016034633 8.906165387e-39
-0.1559575945 -0.2706220746 0.2821519077 8.906165387e-39
-0.1558587253 -0.2404724509 0.2891950607 8.906165387e-39
-0.1449579298 -0.2580949068 0.2868843675 8.906165387e-39
-0.1551751792 -0.3043594956 0.2911435664 8.906165387e-39
-0.1898824275 -0.2829934061 0.0593486838 8.906165387e-39
-0.1977255791 -0.2506164312 0.07892262191 8.906165387e-39
-0.183759287 -0.2594691217 0.09548783302 8.906165387e-39
-0.1942899674 -0.3268079758 0.0819914192 8.906165387e-39
0.1931766868 0.07659806311 0.03418338299 8.906165387e-39
0.2398525923 0.07439062744 -0.04358495399 8.906165387e-39
0.2389171273 0.07689558715 0.06876651943 8.906165387e-39
0.2618824542 0.07582707703 0.01638481393 8.906165387e-39
-0.2014743537 -0.2695460021 0.05675190315 8.906165387e-39
-0.2039943784 -0.1945852637 0.07174316049 8.906165387e-39
-0.2068787515 -0.2387019396 0.09787519276 8.906165387e-39
-0.2025896907 -0.327329427 0.08577463776 8.906165387e-39
0.1388561577 0.07891434431 0.05910918117 8.906165387e-39
0.1976859421 0.0755905211 -0.01823110133 8.906165387e-39
0.202958256 0.07652533799 0.1176235676 8.906165387e-39
0.2329537421 0.07652729005 0.05563952401 8.906165387e-39
0.1129383519 -0.07288632542 -0.2187779546 8.906165387e-39
0.1228554919 -0.01455732062 -0.2213956416 8.906165387e-39
0.174587965 -0.04177870229 -0.2152679861 8.906165387e-39
0.158915177 -0.139804557 -0.2154577374 8.906165387e-39
0.193735227 -0.2072046399 -0.2171076685 8.906165387e-39
0.2021946311 -0.0944186151 -0.2195685059 8.906165387e-39
0.2299725115 -0.1401987672 -0.228811428 8.906165387e-39
0.2212600708 -0.2884938419 -0.2214554697 8.906165387e-39
0.06968943775 -0.2163196504 -0.20583269 8.906165387e-39
0.09081438184 -0.135788396 -0.2052473873 8.906165387e-39
0.123633042 -0.1649201065 -0.2106672972 8.906165387e-39
0.1101729423 -0.3026786745 -0.2090129256 8.906165387e-39
-0.1729233861 -0.2818527222 0.2625751793 8.906165387e-39
-0.1787991226 -0.2475169599 0.2753205597 8.906165387e-39
-0.1797782779 -0.2640104592 0.2776428163 8.906165387e-39
-0.1826255769 -0.2863305509 0.2796101272 8.906165387e-39
0.1009022221 -0.1749415845 -0.2121610194 1.184631237e-38
0.1214128584 -0.07301726192 -0.210828945 1.184631237e-38
0.1691479087 -0.1177839413 -0.217702046 1.184631237e-38
0.154926613 -0.2583628297 -0.2094790936 1.184631237e-38
0.1920538694 -0.08540744334 -0.2360450178 1.184631237e-38
0.2067282498 -0.002479107585 -0.2349616438 1.184631237e-38
0.240030095 -0.04318682477 -0.2415686101 1.184631237e-38
0.2296116203 -0.1884119511 -0.2324096113 1.184631237e-38
-0.06783360988 -0.175701037 -0.2056230605 1.184631237e-38
-0.05984342843 -0.07397451252 -0.2080159634 1.184631237e-38
-0.01300911512 -0.119641535 -0.2210899889 1.184631237e-38
-0.02372632921 -0.268427074 -0.2090127021 1.184631237e-38
0.1962830871 -0.2314065099 -0.2201564908 1.184631237e-38
0.1997882426 -0.1120843217 -0.2204500884 1.184631237e-38
0.2103530318 -0.1662967801 -0.2318542153 1.184631237e-38
0.1998728514 -0.3145702183 -0.2258709818 1.184631237e-38
0.1443638355 -0.1210246533 -0.2431882769 1.184631237e-38
0.1636386067 -0.02426716872 -0.2358919233 1.184631237e-38
0.1835375726 -0.06517144293 -0.2440460175 1.184631237e-38
0.1763427705 -0.2175058573 -0.2397937328 1.184631237e-38
-0.1873619705 -0.1662492603 -0.0127591081 1.184631237e-38
-0.1870590299 -0.102598235 -0.009423155338 1.184631237e-38
-0.1826135516 -0.1262707859 0.01038664486 1.184631237e-38
-0.1803541183 -0.2246701568 0.001985274255 1.184631237e-38
-0.02564770356 -0.1216739267 -0.205612272 1.184631237e-38
-0.01727066562 -0.03019249626 -0.2025181353 1.184631237e-38
0.01776943728 -0.0725183636 -0.2095631063 1.184631237e-38
0.008568015881 -0.2217611521 -0.2051369101 1.184631237e-38
0.1517151743 -0.2410846651 -0.2012866437 1.184631237e-38
0.1533302665 -0.1138969809 -0.2039241344 1.184631237e-38
0.1759059727 -0.1622613668 -0.2124757171 1.184631237e-38
0.1662018299 -0.3205274045 -0.2125678658 1.184631237e-38
0.1682003736 -0.1236461848 -0.2302320153 1.184631237e-38
0.1798909009 -0.04127689078 -0.2250853181 1.184631237e-38
0.2001000643 -0.0772985667 -0.2334818095 1.184631237e-38
0.1858948469 -0.2169826031 -0.2301835865 1.184631237e-38
-0.1984371245 -0.1697060764 0.1164695174 1.184631237e-38
-0.2086304426 -0.1060631201 0.1237856746 1.184631237e-38
-0.2013707906 -0.1401018798 0.1452941597 1.184631237e-38
-0.199845016 -0.2330560684 0.144939512 1.184631237e-38
0.114708595 -0.01817114465 -0.1741685867 1.184631237e-38
0.1297434717 0.002413260518 -0.1796563864 1.184631237e-38
0.1546461284 0.006225246005 -0.1746651083 1.184631237e-38
0.1373485327 -0.05992633849 -0.1765836328 1.184631237e-38
-0.2185851336 -0.3715141416 0.0154170366 1.184631237e-38
-0.2157071084 -0.3167455792 0.03374362364 1.184631237e-38
-0.2114169747 -0.3544110954 0.0523073934 1.184631237e-38
-0.2182109207 -0.4191829264 0.04437800124 1.184631237e-38
-0.1281603575 -0.3366970122 -0.2358177751 1.184631237e-38
-0.1270117313 -0.2113217413 -0.2298764139 1.184631237e-38
-0.1124236584 -0.279720366 -0.2323728353 1.184631237e-38
-0.1162107214 -0.403848201 -0.2265293449 1.184631237e-38
-0.2041253746 -0.2542283535 0.09901505709 1.184631237e-38
-0.2148745358 -0.1593362838 0.1189138144 1.184631237e-38
-0.2102568001 -0.211489886 0.1320772469 1.184631237e-38
-0.2069692761 -0.3184680045 0.1298115104 1.184631237e-38
-0.2299816012 -0.1714119911 0.02379623055 1.184631237e-38
-0.2415305078 -0.1169074476 0.03785064444 1.184631237e-38
-0.2348774225 -0.1336796731 0.05590860546 1.184631237e-38
-0.2300528586 -0.2105550766 0.0512778312 1.184631237e-38
-0.1593082845 -0.2534933686 0.2854892313 1.184631237e-38
-0.1522826105 -0.1821766794 0.2974238396 1.184631237e-38
-0.1500679106 -0.2249292284 0.2892585993 1.184631237e-38
-0.1573043615 -0.3088773191 0.2927904129 1.184631237e-38
0.06555242836 -0.3540823162 -0.2180713266 1.184631237e-38
0.0665890947 -0.2462012768 -0.2253484577 1.184631237e-38
0.08653829247 -0.3020738959 -0.2327375859 1.184631237e-38
0.07261968404 -0.4214653671 -0.2254606336 1.184631237e-38
-0.03703791276 -0.1172122657 -0.2136426568 1.184631237e-38
-0.03466625884 -0.0495156385 -0.2138624191 1.184631237e-38
-0.008929937147 -0.0789354071 -0.2202505171 1.184631237e-38
-0.02088477835 -0.2052010298 -0.2189217061 1.184631237e-38
-0.2200604528 -0.2186296582 0.01108102594 1.184631237e-38
-0.2292547971 -0.1611176282 0.02811037377 1.184631237e-38
-0.2158847153 -0.1868405193 0.04586688429 1.184631237e-38
-0.2190547287 -0.2787530124 0.03902359307 1.184631237e-38
-0.219965592 -0.185905695 -0.0009051393718 1.184631237e-38
-0.2342793047 -0.116899617 0.009623263031 1.184631237e-38
-0.2184736729 -0.145167008 0.03119876236 1.184631237e-38
-0.2186793089 -0.2688074112 0.0249709636 1.184631237e-38
0.1217467785 -0.2077601999 -0.2165545821 1.184631237e-38
0.1319532692 -0.1352454871 -0.2132055163 1.184631237e-38
0.146849364 -0.1565601826 -0.2267863601 1.184631237e-38
0.1328161657 -0.2652258873 -0.2235756367 1.184631237e-38
-0.2148323506 -0.1753223538 0.1383206546 1.184631237e-38
-0.2259790152 -0.1144313216 0.1472450197 1.184631237e-38
-0.2214156687 -0.1385751963 0.1666937321 1.184631237e-38
-0.2170092613 -0.2324973941 0.1654713303 1.184631237e-38
-0.221702069 -0.1689363867 0.07058344781 1.184631237e-38
-0.2354602516 -0.1208762676 0.08138659596 1.184631237e-38
-0.2258687019 -0.1411536336 0.1030211896 1.184631237e-38
-0.2228961885 -0.2239037752 0.09425576031 1.184631237e-38
0.1233480051 -0.05645666644 -0.2262656838 1.184631237e-38
0.1389184296 -0.006176739 -0.2327263504 1.184631237e-38
0.1538351327 -0.02101329528 -0.2192234099 1.184631237e-38
0.1329286098 -0.1154468581 -0.2258217186 1.184631237e-38
-0.2185717225 -0.2056910396 0.0002539940178 1.184631237e-38
-0.228998363 -0.1333482862 0.008971899748 1.184631237e-38
-0.2199666798 -0.1572171897 0.03077632003 1.184631237e-38
-0.2140823454 -0.2733564079 0.02492729016 1.184631237e-38
-0.2084872276 -0.2432205677 0.02550405078 1.184631237e-38
-0.2220517546 -0.1764230877 0.044788789 1.184631237e-38
-0.2119411528 -0.2178834826 0.06700098515 1.184631237e-38
-0.2120147943 -0.3166791797 0.05281461775 1.184631237e-38
-0.2133810222 -0.3051467836 0.01125213783 1.184631237e-38
-0.217513755 -0.2536841333 0.0302224271 1.184631237e-38
-0.2019360512 -0.2809549272 0.04624722898 1.184631237e-38
-0.2136003524 -0.3613489866 0.03699964657 1.184631237e-38
0.02796861529 -0.19221811 -0.2342012078 1.184631237e-38
0.03763744235 -0.1135457903 -0.2417859882 1.184631237e-38
0.04940377548 -0.1486974359 -0.2410762459 1.184631237e-38
0.03516298532 -0.2700257599 -0.2370972186 1.184631237e-38
-0.2119533718 -0.1487987936 0.1151593179 1.184631237e-38
-0.2231377661 -0.07187288254 0.1198975742 1.184631237e-38
-0.2178632319 -0.1055328771 0.1485322118 1.184631237e-38
-0.2165572047 -0.2170257717 0.1501399428 1.184631237e-38
-0.2270987034 -0.1336074173 0.02988719195 1.184631237e-38
-0.242251128 -0.04191471264 0.0409591794 1.184631237e-38
-0.220831871 -0.08374129981 0.05892828479 1.184631237e-38
-0.2246607244 -0.2056950331 0.06104154885 1.184631237e-38
-0.2241618782 -0.3116748333 0.05385427177 1.184631237e-38
-0.2249724716 -0.2333883047 0.06678407639 1.184631237e-38
-0.2319813371 -0.2846373022 0.08553783596 1.184631237e-38
-0.2357283533 -0.3591644168 0.07130885124 1.184631237e-38
-0.05643626302 -0.1358064562 -0.2062053978 1.184631237e-38
-0.04516390339 -0.06193735823 -0.2154369354 1.184631237e-38
-0.01742245629 -0.09095270932 -0.2200280726 1.184631237e-38
-0.03504975513 -0.1951673478 -0.2181634158 1.184631237e-38
-0.2019622326 -0.2066313326 0.08892188966 1.478322936e-38
-0.2149890661 -0.1270220131 0.102716431 1.478322936e-38
-0.2137193829 -0.169079423 0.1259426922 1.478322936e-38
-0.2070285231 -0.2637598515 0.1204569042 1.478322936e-38
-0.2102958709 -0.3330439627 0.02457211167 1.478322936e-38
-0.2180273533 -0.2266174406 0.03425128013 1.478322936e-38
-0.2095245868 -0.294654727 0.04570768774 1.478322936e-38
-0.2146228999 -0.3891723156 0.04463434219 1.478322936e-38
-0.1810911894 -0.09848177433 0.063971214 1.478322936e-38
-0.1934972703 -0.07326367497 0.0660251379 1.478322936e-38
-0.1828706264 -0.07551706582 0.104464069 1.478322936e-38
-0.1840970069 -0.1415490359 0.09162732959 1.478322936e-38
-0.1794883907 -0.1436755508 0.02082999423 1.478322936e-38
-0.1881965846 -0.08100938052 0.0289414078 1.478322936e-38
-0.1786212474 -0.1013056487 0.05188092589 1.478322936e-38
-0.1793410778 -0.1924377084 0.04331791401 1.478322936e-38
0.1758545339 -0.2354130894 -0.2064861655 1.478322936e-38
0.1774507165 -0.1232319996 -0.2101106644 1.478322936e-38
0.1947805882 -0.1661017984 -0.2251012772 1.478322936e-38
0.1828443259 -0.3147322237 -0.2175922543 1.478322936e-38
0.2357338667 -0.2174804062 -0.2400434464 1.478322936e-38
0.2433746904 -0.1284354627 -0.239846155 1.478322936e-38
0.2527840734 -0.1645582914 -0.2587803304 1.478322936e-38
0.2461874634 -0.2731404305 -0.2580072582 1.478322936e-38
-0.07260254025 -0.197453618 -0.2079769224 1.478322936e-38
-0.06481966376 -0.103095904 -0.2160683721 1.478322936e-38
-0.04291922227 -0.1465286762 -0.2201750726 1.478322936e-38
-0.05046941712 -0.2864916027 -0.2135309726 1.478322936e-38
-0.1908408701 -0.1562977284 -0.05169515684 1.478322936e-38
-0.194181025 -0.1077639982 -0.04463802651 1.478322936e-38
-0.1880584806 -0.120765768 -0.02545188367 1.478322936e-38
-0.1860938072 -0.2088216692 -0.02887295559 1.478322936e-38
-0.1519148052 -0.09661900997 0.05806208029 1.478322936e-38
-0.1629200429 -0.06906933337 0.06356473267 1.478322936e-38
-0.1435287446 -0.07414092869 0.0915530324 1.478322936e-38
-0.1499428004 -0.1413556933 0.08319596201 1.478322936e-38
-0.01968113333 -0.2218036503 -0.217595458 1.478322936e-38
-0.01485212427 -0.13293764 -0.2262054533 1.478322936e-38
0.01061289106 -0.1712432951 -0.222362563 1.478322936e-38
-0.008399753831 -0.2817614079 -0.2200709283 1.478322936e-38
-0.1664182246 -0.1489803344 0.1563574225 1.478322936e-38
-0.1684945971 -0.104614526 0.1654982418 1.478322936e-38
-0.1624314189 -0.1237879619 0.1810009778 1.478322936e-38
-0.1596977562 -0.2042050362 0.1851766258 1.478322936e-38
-0.2137670219 -0.2273348123 0.1321312785 1.478322936e-38
-0.2230456173 -0.16454795 0.1448950917 1.478322936e-38
-0.2186677605 -0.201967001 0.1633683294 1.478322936e-38
-0.2161732763 -0.2823887169 0.1603444517 1.478322936e-38
-0.1883879006 -0.1425839663 0.1308225095 1.478322936e-38
-0.199112922 -0.06417678297 0.1329689622 1.478322936e-38
-0.1987209916 -0.1001421884 0.1640232801 1.478322936e-38
-0.1948705465 -0.2051066905 0.1658696532 1.478322936e-38
0.3091551363 0.06960164756 -0.1326660216 1.478322936e-38
0.3528346121 0.07124184072 -0.1923187971 1.478322936e-38
0.3737781644 0.07563783228 -0.09449107945 1.478322936e-38
0.3741491735 0.07304549217 -0.1485393196 1.478322936e-38
-0.07302986085 -0.1229629442 -0.2114380747 1.478322936e-38
-0.06645450741 -0.03331437334 -0.2057163268 1.478322936e-38
-0.041498743 -0.06955919415 -0.2204633951 1.478322936e-38
-0.05652454495 -0.2202797234 -0.2123698443 1.478322936e-38
-0.1948855817 -0.1339295357 0.04806823283 1.478322936e-38
-0.2099979222 -0.09147712588 0.05630493909 1.478322936e-38
-0.1897729933 -0.09946645051 0.0628285408 1.478322936e-38
-0.1936192065 -0.1843839139 0.06508853287 1.478322936e-38
-0.1902003586 -0.2972112298 0.2878724337 1.478322936e-38
-0.1913071126 -0.2607290745 0.2951910496 1.478322936e-38
-0.190398261 -0.2794063985 0.2972439229 1.478322936e-38
-0.1980596334 -0.3162530959 0.2990990877 1.478322936e-38
-0.1144680306 -0.1391716152 -0.2100836337 1.478322936e-38
-0.1079120934 -0.05180444196 -0.2235916257 1.478322936e-38
-0.06151647121 -0.09312237799 -0.22435233 1.478322936e-38
-0.07301764935 -0.2318582088 -0.2129414231 1.478322936e-38
-0.1167308763 -0.3300296366 -0.2136050612 1.478322936e-38
-0.1095926315 -0.2167119086 -0.2100117207 1.478322936e-38
-0.07505276054 -0.2847765386 -0.2057629824 1.478322936e-38
-0.07871328294 -0.3991878927 -0.205872193 1.478322936e-38
-0.1908658892 -0.303635031 0.2218906432 1.478322936e-38
-0.1968392134 -0.2309878767 0.2303970903 1.478322936e-38
-0.1970843971 -0.2630413175 0.2463076711 1.478322936e-38
-0.1982637942 -0.3348294497 0.2532334924 1.478322936e-38
0.1096206307 -0.02598384954 -0.2139097899 1.478322936e-38
0.1213541925 -0.002923768247 -0.2203428298 1.478322936e-38
0.1731562912 -0.004604407586 -0.210802123 1.478322936e-38
0.1525508016 -0.06178535521 -0.2097679377 1.478322936e-38
0.002578043379 -0.256001085 -0.1915093213 1.478322936e-38
0.01437473297 -0.1229035184 -0.2054481506 1.478322936e-38
0.05483912304 -0.1804192066 -0.2066413462 1.478322936e-38
0.04301672429 -0.34156546 -0.2007544786 1.478322936e-38
-0.07787004858 -0.1712867469 -0.2217609435 1.478322936e-38
-0.06954141706 -0.06690954417 -0.2295461744 1.478322936e-38
-0.03232163563 -0.1137081087 -0.2325891703 1.478322936e-38
-0.04212703183 -0.2589371204 -0.2271024138 1.478322936e-38
-0.2133811116 -0.1789199114 -0.07208961248 1.478322936e-38
-0.2147722244 -0.1084257066 -0.07445596159 1.478322936e-38
-0.2031178325 -0.1397286057 -0.05922280625 1.478322936e-38
-0.2036396265 -0.2589960992 -0.06342193484 1.478322936e-38
0.04645286128 -0.341147542 -0.1935503036 1.478322936e-38
0.04627282917 -0.2415638119 -0.1976410598 1.478322936e-38
0.08473460376 -0.2968977392 -0.1921709776 1.478322936e-38
0.06376119703 -0.4050533772 -0.1909094602 1.478322936e-38
-0.2203552574 -0.2399228811 0.02376600169 1.478322936e-38
-0.2292552888 -0.154127866 0.03895837814 1.478322936e-38
-0.2203720808 -0.1992226243 0.06127880514 1.478322936e-38
-0.2229833007 -0.315151453 0.05398324132 1.478322936e-38
-0.1985248774 -0.1648482531 -0.01680308208 1.478322936e-38
-0.2049244195 -0.0823848173 -0.003769956529 1.478322936e-38
-0.1917556971 -0.1152091771 0.01719082519 1.478322936e-38
-0.1906540394 -0.2481055111 0.01258091163 1.478322936e-38
0.2913649082 0.06715472043 -0.1142746359 1.478322936e-38
0.3287008405 0.07205795497 -0.165368259 1.478322936e-38
0.3360543847 0.07329324633 -0.0726275593 1.478322936e-38
0.3330156207 0.07283324003 -0.1231696755 1.478322936e-38
-0.1903892606 -0.1182756349 0.07060155272 1.478322936e-38
-0.197225377 -0.05697951466 0.06553085148 1.478322936e-38
-0.1944781542 -0.07936570048 0.1143234372 1.478322936e-38
-0.194747746 -0.179604724 0.1045957655 1.478322936e-38
0.1076745316 -0.2137597948 -0.1929023266 1.478322936e-38
0.1163565665 -0.1459086835 -0.1962920278 1.478322936e-38
0.1352136284 -0.1700731069 -0.205345571 1.478322936e-38
0.1173999906 -0.2778204978 -0.2007691264 1.478322936e-38
-0.1665671915 -0.25220716 -0.02652049437 1.478322936e-38
-0.1676050127 -0.2149019986 -0.008505195379 1.478322936e-38
-0.1511822045 -0.2280767858 0.0003901235759 1.478322936e-38
-0.1573346555 -0.3020399213 -0.008633621037 1.478322936e-38
-0.2076640576 -0.3380897045 -0.1256957948 1.478322936e-38
-0.2117742151 -0.1967348158 -0.1294923425 1.478322936e-38
-0.2022139281 -0.2767950296 -0.1432559788 1.478322936e-38
-0.1956508756 -0.4037617743 -0.1278702766 1.478322936e-38
-0.0427371487 -0.2421699315 -0.1855517924 1.771655483e-38
-0.03810378537 -0.1402494609 -0.1943356544 1.771655483e-38
0.003583065234 -0.1884040385 -0.1927643865 1.771655483e-38
-0.008364555426 -0.3236116469 -0.1890877336 1.771655483e-38
-0.1401033551 -0.3580831289 -0.06442542374 1.771655483e-38
-0.1418088675 -0.3040653765 -0.04335660115 1.771655483e-38
-0.1293857992 -0.3355854154 -0.03344257921 1.771655483e-38
-0.1427987814 -0.4116081893 -0.03405022621 1.771655483e-38
-0.1136791036 -0.1079941839 -0.2146656662 1.771655483e-38
-0.1024602354 -0.02252565697 -0.2183707803 1.771655483e-38
-0.05748781562 -0.05834647268 -0.2265484184 1.771655483e-38
-0.06889089197 -0.1971846521 -0.2158320099 1.771655483e-38
-0.210558027 -0.2192642093 -0.01051933691 1.771655483e-38
-0.2141918838 -0.1649733186 -1.31893903e-05 1.771655483e-38
-0.21834369 -0.190455392 0.03539309651 1.771655483e-38
-0.2111213058 -0.2770797312 0.02040251158 1.771655483e-38
0.1012234092 -0.08074449003 -0.2250566036 1.771655483e-38
0.1151920408 -0.02135146409 -0.2258781642 1.771655483e-38
0.1654818505 -0.04926929623 -0.2225710005 1.771655483e-38
0.1465554535 -0.1539767981 -0.2189935446 1.771655483e-38
0.1249169409 -0.02161704935 -0.2233142555 1.771655483e-38
0.1357530355 0.01495926455 -0.2287057191 1.771655483e-38
0.1665679663 0.008432294242 -0.2255436331 1.771655483e-38
0.1500487924 -0.06955639273 -0.2192109972 1.771655483e-38
-0.1863172948 -0.1250534207 -0.04033691809 1.771655483e-38
-0.1909654737 -0.06477184594 -0.03346179798 1.771655483e-38
-0.1912242621 -0.08644773066 -0.01054061949 1.771655483e-38
-0.1861140579 -0.1844866723 -0.01831841841 1.771655483e-38
-0.1803043336 -0.2711218894 0.1979900897 1.771655483e-38
-0.1993322968 -0.2364102453 0.2114948928 1.771655483e-38
-0.1939776689 -0.2581699193 0.2400531471 1.771655483e-38
-0.1958238035 -0.3005704284 0.233916074 1.771655483e-38
-0.2038877755 -0.2193465531 -0.04156063125 1.771655483e-38
-0.2145445794 -0.1320010871 -0.03129227459 1.771655483e-38
-0.209727034 -0.176455006 -0.008099522442 1.771655483e-38
-0.2058445513 -0.2957959473 -0.01643722877 1.771655483e-38
-0.215412885 -0.09092518687 -0.0825163871 1.771655483e-38
-0.2137261033 -0.01257689297 -0.07355520129 1.771655483e-38
-0.2174300849 -0.04509794712 -0.03648351133 1.771655483e-38
-0.2092215121 -0.1678140312 -0.04186325893 1.771655483e-38
-0.1291096956 -0.1111529842 -0.2048863471 1.771655483e-38
-0.1184725985 -0.03790170699 -0.2126858979 1.771655483e-38
-0.09902182966 -0.0708809793 -0.2072447687 1.771655483e-38
-0.106034413 -0.1930113584 -0.2043278366 1.771655483e-38
-0.2187745571 -0.1374800205 -0.008774589747 1.771655483e-38
-0.227010861 -0.08258409798 0.00241978094 1.771655483e-38
-0.2258155793 -0.1010353416 0.03090048395 1.771655483e-38
-0.2230671346 -0.1898460835 0.0274461396 1.771655483e-38
-0.09865257144 -0.09253985435 -0.2231900394 1.771655483e-38
-0.08581581712 -0.01647313684 -0.2276397198 1.771655483e-38
-0.0490931794 -0.04916827381 -0.2457336336 1.771655483e-38
-0.06129360199 -0.1820762902 -0.2340646535 1.771655483e-38
-0.131100446 -0.1132241338 -0.2063606381 1.771655483e-38
-0.1223483905 -0.02299596556 -0.2140365988 1.771655483e-38
-0.08139877021 -0.05975338072 -0.2108543962 1.771655483e-38
-0.08737915754 -0.1984302998 -0.2049406916 1.771655483e-38
-0.1954104155 -0.3022958338 -0.03083415329 1.771655483e-38
-0.1948403418 -0.2339956611 -0.01954052597 1.771655483e-38
-0.192955032 -0.2794930041 0.008405208588 1.771655483e-38
-0.2005849332 -0.3731025755 0.005484864116 1.771655483e-38
0.2112335265 -0.2496659011 -0.2086575478 1.771655483e-38
0.2174463868 -0.1737902611 -0.2058308572 1.771655483e-38
0.2360308915 -0.2064909786 -0.2274092883 1.771655483e-38
0.2266424149 -0.3087063134 -0.2219482958 1.771655483e-38
-0.1866328418 -0.07811409235 -0.00757272169 1.771655483e-38
-0.1912332475 -0.01275384985 0.002401478589 1.771655483e-38
-0.1913309097 -0.03367446736 0.04325647652 1.771655483e-38
-0.1944661736 -0.1442142278 0.03802073002 1.771655483e-38
-0.1452231407 -0.2396349758 0.2645794153 1.771655483e-38
-0.1431634128 -0.1742542386 0.2712881565 1.771655483e-38
-0.1443768591 -0.2161774933 0.2781127989 1.771655483e-38
-0.1516632736 -0.2967433333 0.2737762034 1.771655483e-38
-0.1319941133 -0.2576232851 -0.05391206965 1.771655483e-38
-0.1343212277 -0.1770610809 -0.04617714509 1.771655483e-38
-0.1293405145 -0.2173975557 -0.02273377776 1.771655483e-38
-0.1299443543 -0.3225603104 -0.0309538804 1.771655483e-38
-0.1320484877 -0.1131289974 -0.05684522167 1.771655483e-38
-0.1354875267 -0.02609504759 -0.0552114509 1.771655483e-38
-0.1381270885 -0.05224806443 -0.02634653449 1.771655483e-38
-0.1342567056 -0.1732672006 -0.04040686414 1.771655483e-38
0.2130664736 0.07354139537 -0.01472116634 1.771655483e-38
0.2428147346 0.07387012988 -0.06419025362 1.771655483e-38
0.2487217337 0.07374682277 0.02194269747 1.771655483e-38
0.264413476 0.06815559417 -0.02388321981 1.771655483e-38
0.1042045057 -0.2601903677 -0.1797049195 1.771655483e-38
0.1140521094 -0.1425387859 -0.1893890798 1.771655483e-38
0.1468287557 -0.1910468787 -0.1917962581 1.771655483e-38
0.1341531724 -0.3410798013 -0.1888739616 1.771655483e-38
-0.1197495088 -0.08825552464 -0.1927320212 1.771655483e-38
-0.1119036973 -0.04305417091 -0.1879999042 1.771655483e-38
-0.05791143328 -0.04224557802 -0.2024476528 1.771655483e-38
-0.07637504488 -0.1467124522 -0.1845477968 1.771655483e-38
0.2125237435 -0.2787526548 -0.2020345181 1.771655483e-38
0.2227881104 -0.1771582961 -0.2094866186 1.771655483e-38
0.2544862032 -0.2285159528 -0.2215893716 1.771655483e-38
0.2413780838 -0.3267996907 -0.2175441235 1.771655483e-38
0.03377652913 -0.2458900213 -0.2222730964 1.771655483e-38
0.03940325603 -0.1325442195 -0.228434369 1.771655483e-38
0.07315826416 -0.1791836321 -0.2247636169 1.771655483e-38
0.05788397044 -0.337094754 -0.2181235999 1.771655483e-38
-0.2368149161 -0.09741848707 0.06740930676 1.771655483e-38
-0.2449495494 -0.03737239912 0.07056415081 1.771655483e-38
-0.237327233 -0.06029156968 0.1061450094 1.771655483e-38
-0.2328597754 -0.155595243 0.0954618305 1.771655483e-38
-0.2151868641 -0.1362506449 -0.1032610238 1.771655483e-38
-0.2169429213 -0.05260603875 -0.0989806056 1.771655483e-38
-0.2081604898 -0.09602370113 -0.07999916375 1.771655483e-38
-0.2066940814 -0.2336749434 -0.0884590596 1.771655483e-38
-0.165402174 -0.1424635649 -0.202070877 1.771655483e-38
-0.1604165137 -0.04405824095 -0.2076034695 1.771655483e-38
-0.1385383159 -0.08414958417 -0.2106282711 1.771655483e-38
-0.1503806859 -0.2333535552 -0.2033657432 1.771655483e-38
0.2190012634 -0.2824893296 -0.2210900635 1.771655483e-38
0.2285980284 -0.1931805164 -0.2274791449 1.771655483e-38
0.2379198223 -0.2404753417 -0.2473572344 1.771655483e-38
0.2357710004 -0.3084023893 -0.2326737195 1.771655483e-38
-0.1667489111 -0.1999402642 -0.2128788084 1.771655483e-38
-0.1658603549 -0.08117887378 -0.224202916 1.771655483e-38
-0.1489040852 -0.1347583681 -0.2207221687 1.771655483e-38
-0.1608659476 -0.2922079861 -0.2126856148 1.771655483e-38
-0.1899194866 -0.06357642263 0.06871001422 1.771655483e-38
-0.1929996908 -4.405458458e-05 0.07137915492 1.771655483e-38
-0.1890967488 -0.02822194062 0.1128496677 1.771655483e-38
-0.1879619658 -0.1153461412 0.1012653857 1.771655483e-38
-0.2164319307 -0.0693416521 0.04977306724 1.771655483e-38
-0.2239948809 -0.03508396819 0.05608464405 1.771655483e-38
-0.2198794782 -0.04626755416 0.1055414826 1.771655483e-38
-0.2180689722 -0.1166002601 0.09065780044 1.771655483e-38
-0.2020870596 -0.3611173332 -0.05563147739 2.06466517e-38
-0.2056454718 -0.2740028501 -0.04006854072 2.06466517e-38
-0.204578951 -0.3280337155 -0.009490776807 2.06466517e-38
-0.2048205882 -0.4139728546 -0.0159740597 2.06466517e-38
0.02485341206 -0.3257615268 -0.2219276577 2.06466517e-38
0.02612960152 -0.2267591208 -0.2234095931 2.06466517e-38
0.0422020182 -0.2829800248 -0.2264660746 2.06466517e-38
0.03477246687 -0.3840807378 -0.2252417356 2.06466517e-38
-0.2012630403 -0.07733301073 0.01460924651 2.06466517e-38
-0.2046600431 -0.003154484788 0.02505782433 2.06466517e-38
-0.2034693211 -0.02681106515 0.06796904653 2.06466517e-38
-0.1992799044 -0.1450137943 0.06106292829 2.06466517e-38
-0.1987085193 -0.1298858225 -0.09316518903 2.06466517e-38
-0.2010906786 -0.02244203165 -0.08483280241 2.06466517e-38
-0.2042264342 -0.06989102066 -0.04624650255 2.06466517e-38
-0.1892763376 -0.223114565 -0.05661299452 2.06466517e-38
-0.1592581719 -0.03088649362 0.1217774153 2.06466517e-38
-0.1659307778 -0.02606237493 0.1326612085 2.06466517e-38
-0.1564152539 -0.02649713866 0.1729194075 2.06466517e-38
-0.1590093672 -0.06339945644 0.1626217961 2.06466517e-38
-0.1983192712 -0.1090936214 -0.004073042423 2.06466517e-38
-0.2073127031 -0.03862826526 0.008752644062 2.06466517e-38
-0.204345569 -0.07014749199 0.0473928377 2.06466517e-38
-0.2015358359 -0.1771654487 0.04296878725 2.06466517e-38
-0.1659871191 -0.09868083894 -0.221342802 2.06466517e-38
-0.1613803357 -0.02036881819 -0.2210248113 2.06466517e-38
-0.1523370594 -0.05321991071 -0.2136979699 2.06466517e-38
-0.1577884704 -0.1812748015 -0.2128350735 2.06466517e-38
-0.1824180931 -0.1056369171 -0.09366379678 2.06466517e-38
-0.1903788149 -0.02692295797 -0.07699194551 2.06466517e-38
-0.2015254647 -0.05745642632 -0.03151813522 2.06466517e-38
-0.1825109124 -0.1730241179 -0.04682704434 2.06466517e-38
-0.1825093627 -0.04721709341 0.083174631 2.06466517e-38
-0.1907321513 -0.01781757735 0.08635662496 2.06466517e-38
-0.1855450124 -0.03160578012 0.1334872246 2.06466517e-38
-0.1862652451 -0.08916263282 0.1208756417 2.06466517e-38
-0.1610116214 -0.3159272373 -0.07804381847 2.06466517e-38
-0.1725746095 -0.2217457741 -0.05718549713 2.06466517e-38
-0.1652940214 -0.2838313878 -0.03321187943 2.06466517e-38
-0.1718940437 -0.3903895617 -0.03711827472 2.06466517e-38
-0.1603499502 -0.2123482227 -0.1890125424 2.06466517e-38
-0.1513884217 -0.08041879535 -0.197746098 2.06466517e-38
-0.1414955109 -0.1370480061 -0.1879579276 2.06466517e-38
-0.1482840329 -0.3221011758 -0.1839587092 2.06466517e-38
-0.1772322357 -0.1335386187 -0.1251256317 2.06466517e-38
-0.1794845015 -0.03771710396 -0.1220324636 2.06466517e-38
-0.1724663377 -0.08356910199 -0.09870555997 2.06466517e-38
-0.1709783673 -0.2319685668 -0.1082429588 2.06466517e-38
0.1999101937 -0.3027814031 -0.207952261 2.06466517e-38
0.2023734748 -0.2052558064 -0.214211002 2.06466517e-38
0.2320779711 -0.2607477307 -0.2199450582 2.06466517e-38
0.2172382921 -0.3376764357 -0.203240931 2.06466517e-38
0.1531882435 0.07829942554 -0.006575079635 2.06466517e-38
0.2049133331 0.07246973366 -0.08925336599 2.06466517e-38
0.2036504149 0.07648360729 0.02929133736 2.06466517e-38
0.2373930663 0.07661525905 -0.02818787843 2.06466517e-38
-0.1894043982 -0.1928918213 -0.1933072209 2.06466517e-38
-0.1999073625 -0.05486053601 -0.194516778 2.06466517e-38
-0.1637871861 -0.1237340868 -0.1904063225 2.06466517e-38
-0.1770663261 -0.2965753675 -0.1786315292 2.06466517e-38
-0.2395204604 -0.07307555526 0.03681571782 2.06466517e-38
-0.2422091067 -0.005870258436 0.04123876244 2.06466517e-38
-0.2404043078 -0.0291694589 0.087743029 2.06466517e-38
-0.2384626865 -0.1323126107 0.07761509717 2.06466517e-38
-0.08339003474 -0.03969399258 -0.2097109407 2.06466517e-38
-0.07196854055 -0.024416022 -0.2177586555 2.06466517e-38
-0.01117023174 -0.01741568185 -0.2181748003 2.06466517e-38
-0.03374890611 -0.07046550512 -0.211158976 2.06466517e-38
-0.2090961933 -0.08923550695 0.1723416001 2.06466517e-38
-0.2215776891 -0.05288388953 0.1813293397 2.06466517e-38
-0.2214983553 -0.0692518577 0.2119792849 2.06466517e-38
-0.2186560035 -0.1488390416 0.2114466578 2.06466517e-38
-0.2259979695 -0.06835385412 -0.05149680004 2.06466517e-38
-0.2361759543 -0.002285475377 -0.03548818454 2.06466517e-38
-0.2352122962 -0.02943003178 0.008440244943 2.06466517e-38
-0.2264480889 -0.1254337132 -0.001466307789 2.06466517e-38
-0.2105861604 -0.3241487443 -0.1365911067 2.06466517e-38
-0.2214013338 -0.1911761314 -0.1388786733 2.06466517e-38
-0.2184957862 -0.2715889812 -0.1271606386 2.06466517e-38
-0.213303566 -0.3940477073 -0.1242388785 2.06466517e-38
0.2638039589 0.06863629073 -0.1167116761 2.06466517e-38
0.299359262 0.07124258578 -0.1721111834 2.06466517e-38
0.312517643 0.07270175964 -0.08625511825 2.06466517e-38
0.3146847188 0.07335698605 -0.1336998343 2.06466517e-38
-0.0575267002 -0.2482795864 -0.1818993986 2.06466517e-38
-0.04474649578 -0.1343013346 -0.1915463805 2.06466517e-38
0.001615690067 -0.1873311698 -0.1986779869 2.06466517e-38
-0.008454685099 -0.3293462694 -0.1886707097 2.06466517e-38
0.09689731896 -0.3176573217 -0.1980233043 2.06466517e-38
0.1049053296 -0.1891223937 -0.2030794024 2.06466517e-38
0.1359768361 -0.2557169199 -0.1971039027 2.06466517e-38
0.1236012578 -0.3988965452 -0.196991384 2.06466517e-38
0.1105565056 0.07481192052 -0.01788940653 2.06466517e-38
0.1731441468 0.074030146 -0.08377188444 2.06466517e-38
0.1772408187 0.07595290244 0.04227565974 2.06466517e-38
0.209175393 0.07503924519 -0.01754376292 2.06466517e-38
0.06607667357 -0.2515675724 -0.1984875053 2.06466517e-38
0.07084940374 -0.1697023213 -0.2064859867 2.06466517e-38
0.1052403301 -0.2020244747 -0.2053853869 2.06466517e-38
0.08681958169 -0.3218556345 -0.2031005472 2.06466517e-38
-0.211044088 -0.2431732863 -0.05302393064 2.06466517e-38
-0.2181836367 -0.1636414528 -0.04096846655 2.06466517e-38
-0.2203265429 -0.2062783092 -0.02785920352 2.06466517e-38
-0.2124310732 -0.3074296713 -0.02803457901 2.06466517e-38
-0.1616005749 -0.1295190006 -0.1084733754 2.06466517e-38
-0.1576339751 -0.03925812989 -0.1039151847 2.06466517e-38
-0.14764449 -0.07519339025 -0.08640526235 2.06466517e-38
-0.144293949 -0.2069197148 -0.0925476253 2.06466517e-38
0.3183615208 0.06482877582 -0.1211343855 2.06466517e-38
0.3460753262 0.06955350935 -0.1584682614 2.06466517e-38
0.3641886115 0.07367657125 -0.1051216871 2.06466517e-38
0.3668923676 0.06936012954 -0.1374459118 2.06466517e-38
-0.191064775 -0.3447935581 -0.08343715966 2.06466517e-38
-0.1904091537 -0.2539371848 -0.07979767025 2.06466517e-38
-0.1885175407 -0.3169857264 -0.0622308366 2.06466517e-38
-0.1919588 -0.4017814398 -0.06505574286 2.06466517e-38
-0.07082723826 -0.07232809812 -0.2156558037 2.06466517e-38
-0.06761796772 -0.005066184327 -0.2091313154 2.06466517e-38
-0.01587560028 -0.02432977594 -0.2174160779 2.06466517e-38
-0.03144751862 -0.1504716873 -0.2103129476 2.06466517e-38
-0.1865525395 -0.08887773007 -0.1204681695 2.06466517e-38
-0.1903181076 -0.02202126384 -0.1089975834 2.06466517e-38
-0.1860494465 -0.0537160486 -0.08296731114 2.06466517e-38
-0.1799525321 -0.1617701054 -0.08867679536 2.06466517e-38
-0.2236819863 -0.1036694422 -0.1254167259 2.06466517e-38
-0.229511857 -0.0147809675 -0.1200806648 2.06466517e-38
-0.2123318315 -0.0594256334 -0.09491984546 2.06466517e-38
-0.2146047652 -0.2105577141 -0.1002334356 2.06466517e-38
-0.06834338605 -0.05806292966 -0.2114012092 2.348204041e-38
-0.05804709345 -0.006871564314 -0.2094098628 2.348204041e-38
-0.007318756543 -0.01789916493 -0.2191580832 2.348204041e-38
-0.02606066316 -0.1241051629 -0.2105722576 2.348204041e-38
-0.2242501527 -0.1004811004 0.1765733808 2.348204041e-38
-0.2336607128 -0.04285938665 0.1895132214 2.348204041e-38
-0.2342277467 -0.06566847861 0.2103943378 2.348204041e-38
-0.2318108529 -0.1698524654 0.2165425122 2.348204041e-38
-0.1088347882 -0.3433028758 -0.1861794293 2.348204041e-38
-0.101134263 -0.2221187949 -0.1939744502 2.348204041e-38
-0.07505851239 -0.2897952795 -0.1933358014 2.348204041e-38
-0.07298601419 -0.4027151763 -0.1907422096 2.348204041e-38
0.06668291241 -0.05522591993 -0.2210309058 2.348204041e-38
0.07951444387 -0.0002999661956 -0.2326874286 2.348204041e-38
0.119478263 -0.02220920101 -0.2240855992 2.348204041e-38
0.09856264293 -0.1290238798 -0.2220111936 2.348204041e-38
-0.1774461418 -0.09568936378 -0.1828179806 2.348204041e-38
-0.1788153797 -0.009421187453 -0.1762171239 2.348204041e-38
-0.1712658256 -0.05408183113 -0.1576547921 2.348204041e-38
-0.1742121279 -0.2016327381 -0.1618191153 2.348204041e-38
-0.216525659 -0.04397404194 0.05710148439 2.348204041e-38
-0.2255853564 0.01313786767 0.06553065777 2.348204041e-38
-0.2148441523 -0.01033743564 0.1193291843 2.348204041e-38
-0.2176654637 -0.09760472178 0.1017577201 2.348204041e-38
-0.1956344545 -0.06968834996 0.1105428934 2.348204041e-38
-0.2126204669 -0.02191884257 0.116596058 2.348204041e-38
-0.2113217413 -0.04641968012 0.1721835285 2.348204041e-38
-0.2082971781 -0.1196338609 0.1626361161 2.348204041e-38
-0.2158750445 -0.07838223875 -0.04946939275 2.348204041e-38
-0.2173780352 0.004804572091 -0.03864288703 2.348204041e-38
-0.2199622989 -0.02745554596 0.01302730665 2.348204041e-38
-0.2125193477 -0.1579915136 0.003217244521 2.348204041e-38
-0.1935061961 -0.20802854 -0.1844953895 2.348204041e-38
-0.1990236044 -0.07000342757 -0.1870034486 2.348204041e-38
-0.1870384514 -0.1367859095 -0.1835964322 2.348204041e-38
-0.1983293593 -0.3155138195 -0.1721290201 2.348204041e-38
-0.2186029702 -0.04270985723 -0.1134760827 2.348204041e-38
-0.224427104 0.0220562648 -0.1038637757 2.348204041e-38
-0.2247469127 -0.002356413985 -0.05128576979 2.348204041e-38
-0.2170903087 -0.0865066871 -0.06214452907 2.348204041e-38
-0.1798588783 -0.1052111983 -0.1863580048 2.348204041e-38
-0.1821808964 -0.01739310101 -0.1829438657 2.348204041e-38
-0.174147591 -0.0659436509 -0.1659545451 2.348204041e-38
-0.1779556572 -0.2079292089 -0.168131128 2.348204041e-38
-0.1862511188 -0.088589333 0.1301719546 2.348204041e-38
-0.1938684285 -0.0285517592 0.1395991743 2.348204041e-38
-0.1996434927 -0.05715070292 0.1829518527 2.348204041e-38
-0.1938063651 -0.1479505748 0.1810744703 2.348204041e-38
-0.210771054 -0.1106111407 0.1361086071 2.348204041e-38
-0.2229529768 -0.0468900837 0.1459199786 2.348204041e-38
-0.2216624022 -0.07657597214 0.1844355464 2.348204041e-38
-0.2159572393 -0.1735061109 0.1815337241 2.348204041e-38
-0.2121615559 -0.1052935049 0.114495337 2.348204041e-38
-0.2271060348 -0.04340976477 0.1178712696 2.348204041e-38
-0.2197900712 -0.06357713789 0.1570023298 2.348204041e-38
-0.2181057632 -0.1652494669 0.1521392018 2.348204041e-38
0.1116795391 0.077374883 -0.04049373046 2.348204041e-38
0.1667845547 0.07356239855 -0.09675493836 2.348204041e-38
0.1677961051 0.07562292367 0.02430658974 2.348204041e-38
0.1979217827 0.0758472383 -0.03788208216 2.348204041e-38
0.1168832481 -0.2786014676 -0.2086933404 2.348204041e-38
0.1268548667 -0.18132177 -0.2156186253 2.348204041e-38
0.1433487236 -0.2303320169 -0.2136278898 2.348204041e-38
0.1303450614 -0.3518981338 -0.2138338089 2.348204041e-38
-0.1665835232 -0.0902544409 -0.198536545 2.348204041e-38
-0.1667666137 -0.02122417651 -0.1938723326 2.348204041e-38
-0.1428274065 -0.05111475661 -0.1931551844 2.348204041e-38
-0.1465891898 -0.1778514385 -0.190589875 2.348204041e-38
-0.07459513843 -0.2632448673 -0.2124498636 2.348204041e-38
-0.0745909214 -0.1516498923 -0.2084338665 2.348204041e-38
-0.03416789696 -0.2104852647 -0.2168055624 2.348204041e-38
-0.03900386766 -0.3338139951 -0.2042370886 2.348204041e-38
0.3470188677 0.06761933863 -0.1545950174 2.348204041e-38
0.3788996637 0.07390864193 -0.1986685544 2.348204041e-38
0.4077306688 0.07343527675 -0.1228972971 2.348204041e-38
0.4191239178 0.06855401397 -0.1540333927 2.348204041e-38
-0.2103630304 -0.09616003186 -0.1414691806 2.348204041e-38
