# .PCD v0.7 - Point Cloud Data file format
VERSION 0.7
FIELDS x y z rgb
SIZE 4 4 4 4
TYPE F F F F
COUNT 1 1 1 1
WIDTH 832
HEIGHT 1
VIEWPOINT 0 0 0 1 0 0 0
POINTS 832
DATA ascii
0.2475095838 -0.3877117634 -0.2840027511 8.742304551e-39
0.07558388263 -0.4749549627 -0.4115526378 8.742304551e-39
0.02581710368 -0.4844173193 -0.3781732321 8.742304551e-39
0.1118045971 -0.4848920703 -0.2696256042 8.742304551e-39
0.161788851 -0.4833850265 -0.3593601286 8.742304551e-39
0.1964612603 -0.4399854541 -0.3341412246 8.742304551e-39
0.1901186556 -0.4536557794 -0.2903432846 8.742304551e-39
0.2411790788 -0.4476765394 -0.2564612329 8.742304551e-39
0.2432531267 -0.4429753423 -0.2825279832 8.742304551e-39
0.1339364499 -0.4445747137 -0.3228600025 8.742304551e-39
0.1292066276 -0.4611032605 -0.273649931 8.742304551e-39
0.1703124195 -0.4457239509 -0.2521887124 8.742304551e-39
0.1933841109 -0.4545852542 -0.2724891901 8.742304551e-39
0.1359317303 -0.3206801116 -0.3301131427 8.742304551e-39
0.1424102336 -0.370124042 -0.3022161126 8.742304551e-39
0.1526664197 -0.3104884028 -0.286990881 8.742304551e-39
0.1709565967 -0.3327633142 -0.2996784151 8.742304551e-39
0.03360085562 -0.3613548875 -0.3267262578 8.742304551e-39
0.03003719449 -0.4077537656 -0.2934056818 8.742304551e-39
0.03909163922 -0.352258563 -0.2857010663 8.742304551e-39
0.06635130197 -0.3709999323 -0.3040397763 8.742304551e-39
-0.001046206802 -0.3873877525 -0.3041428328 8.742304551e-39
-0.007157572545 -0.4331758618 -0.2744417787 8.742304551e-39
0.004369224422 -0.3655821085 -0.2673350573 8.742304551e-39
0.03466182947 -0.3953990936 -0.2733722627 8.742304551e-39
-0.4538066089 -0.3105481863 0.4231182933 8.742304551e-39
-0.4363751411 -0.4128821492 0.4559828639 8.742304551e-39
-0.4406893849 -0.2750199437 0.4533852935 8.742304551e-39
-0.4314054549 -0.3533548713 0.450639993 8.742304551e-39
0.05799274147 -0.4578951001 -0.3137775362 8.742304551e-39
0.02485742792 -0.4790087342 -0.2759323418 8.742304551e-39
0.06523254514 -0.4712147713 -0.2429945171 8.742304551e-39
0.1117746159 -0.4772827029 -0.2600210011 8.742304551e-39
-0.4404051304 -0.2871747613 0.4145697653 8.742304551e-39
-0.4224953949 -0.4023427367 0.4382798076 8.742304551e-39
-0.4303891957 -0.2456159145 0.4247208238 8.742304551e-39
-0.4309940338 -0.3353642523 0.4226223528 8.742304551e-39
0.1373736709 -0.4788679481 -0.3927476108 8.742304551e-39
0.07856988162 -0.4872133136 -0.3770039976 8.742304551e-39
0.1797341853 -0.4852989912 -0.2833313048 8.742304551e-39
0.1930506676 -0.4829044938 -0.3595919013 8.742304551e-39
-0.3860783279 -0.3384560347 0.4013952911 8.742304551e-39
-0.3639172316 -0.4515512586 0.4331330061 8.742304551e-39
-0.3850905001 -0.2751235962 0.4330022931 8.742304551e-39
-0.3683086634 -0.3902981877 0.4358984828 8.742304551e-39
-0.3430139422 -0.4611151814 0.4155283868 8.742304551e-39
-0.3727058768 -0.4889652729 0.4692410231 8.742304551e-39
-0.3440817595 -0.4653152227 0.4929179549 8.742304551e-39
-0.2696671188 -0.4793176651 0.4904715717 8.742304551e-39
0.07161565125 -0.4798957109 -0.3833006322 8.742304551e-39
0.001614086796 -0.4880903363 -0.3571968377 8.742304551e-39
0.08349129558 -0.4865269661 -0.2582108378 8.742304551e-39
0.1389718801 -0.4850437045 -0.3381748796 8.742304551e-39
-0.389103353 -0.2980431914 0.439905405 8.742304551e-39
-0.3705661893 -0.4050199389 0.4676410854 8.742304551e-39
-0.3864450157 -0.2579641938 0.4616734982 8.742304551e-39
-0.3805378079 -0.3466473222 0.4649947882 8.742304551e-39
0.1443987787 -0.3318463564 -0.3210577965 8.742304551e-39
0.1277511269 -0.3919232488 -0.3078100383 8.742304551e-39
0.1481367052 -0.3051590025 -0.2985454798 8.742304551e-39
0.1609848291 -0.351175189 -0.2996827662 8.742304551e-39
-0.4047501683 -0.2765904069 0.3707959056 8.742304551e-39
-0.3967241049 -0.3722988665 0.394877106 8.742304551e-39
-0.4021716416 -0.2676912546 0.3960924149 8.742304551e-39
-0.4012424648 -0.3129171729 0.3978014588 8.742304551e-39
0.2610450685 -0.4547730088 -0.3245420456 8.742304551e-39
0.2144895494 -0.4744768739 -0.2997152507 8.742304551e-39
0.2857483327 -0.4656223655 -0.2427864671 8.742304551e-39
0.2793267071 -0.4661272168 -0.272821635 8.742304551e-39
-0.4013434052 -0.3078688383 0.3644964695 8.742304551e-39
-0.3845250607 -0.4332538247 0.3722408712 8.742304551e-39
-0.39526847 -0.2468156219 0.36856094 8.742304551e-39
-0.3939611018 -0.3620451391 0.3743477464 8.742304551e-39
0.01232904103 -0.4819562435 -0.4146904647 8.742304551e-39
-0.04299350455 -0.4893028736 -0.4151256084 8.742304551e-39
0.02893918753 -0.485511601 -0.3281666338 8.742304551e-39
0.09049329907 -0.4844914079 -0.3922507763 8.742304551e-39
-0.3789456189 -0.4599961042 0.4162701666 8.742304551e-39
-0.4008868635 -0.4909054637 0.47570768 8.742304551e-39
-0.3871855736 -0.4687805772 0.4966169298 8.742304551e-39
-0.3053882122 -0.4786527753 0.4877399802 8.742304551e-39
-0.4092432261 -0.3573539853 0.2927152514 8.742304551e-39
-0.4066305459 -0.4400543571 0.32604146 8.742304551e-39
-0.4162903726 -0.3101142049 0.3386080563 8.742304551e-39
-0.4110861719 -0.384321332 0.3422562778 8.742304551e-39
-0.4128862321 -0.2732147574 0.3853545189 8.742304551e-39
-0.395596087 -0.3886683583 0.4169609845 8.742304551e-39
-0.4030845165 -0.2503368855 0.4249941111 8.742304551e-39
-0.4053604901 -0.3232951462 0.4226882458 8.742304551e-39
-0.3787798285 -0.2702359557 0.3578418493 8.742304551e-39
-0.3710312843 -0.3713114262 0.3851319849 8.742304551e-39
-0.3752561808 -0.2546847165 0.3962019384 8.742304551e-39
-0.3767728806 -0.3124796748 0.3973356485 8.742304551e-39
0.2349965572 -0.4618443847 -0.2697416544 8.742304551e-39
0.1854433119 -0.4772747159 -0.2468158603 8.742304551e-39
0.2549483478 -0.4696168303 -0.2049060762 8.742304551e-39
0.2660022378 -0.4757515192 -0.2345108986 8.742304551e-39
0.143363297 -0.3454335332 -0.3002551496 8.742304551e-39
0.1389549375 -0.3705402315 -0.2853231728 8.742304551e-39
0.1665364504 -0.3496751785 -0.2714048624 8.742304551e-39
0.1840659231 -0.3502026796 -0.2764874995 8.742304551e-39
-0.4189309776 -0.445866406 0.2886792123 8.742304551e-39
-0.4182705879 -0.4826129675 0.3552855253 8.742304551e-39
-0.4154686034 -0.4245778918 0.3732013404 8.742304551e-39
-0.3786340952 -0.4741640091 0.372579813 8.742304551e-39
-0.4291846752 -0.3488506973 0.4168539345 8.742304551e-39
-0.4182342589 -0.4541572928 0.4522685111 8.742304551e-39
-0.4199854136 -0.3099613786 0.456207782 8.742304551e-39
-0.4130057693 -0.4081208706 0.4638608694 8.742304551e-39
0.0865559876 -0.4684314132 -0.2787793279 5.820783626e-39
0.02369264513 -0.4816610217 -0.22832793 5.820783626e-39
0.07534887642 -0.4794509411 -0.1733923554 5.820783626e-39
0.1399215311 -0.4805912971 -0.2149185836 5.820783626e-39
-0.4156044722 -0.3516944647 0.4430370629 5.820783626e-39
-0.3966718018 -0.4620717168 0.4762836099 5.820783626e-39
-0.41322276 -0.3005094528 0.4733503461 5.820783626e-39
-0.4029909372 -0.4127845168 0.480491668 5.820783626e-39
0.06575156748 -0.3388491273 -0.2314047962 5.820783626e-39
0.07803352922 -0.383828938 -0.2075210065 5.820783626e-39
0.08225943893 -0.3372923136 -0.1965702176 5.820783626e-39
0.1192650124 -0.3489329219 -0.2095805407 5.820783626e-39
0.1157798618 -0.3489589095 -0.2588439882 5.820783626e-39
0.1099052429 -0.3972170353 -0.2351676077 5.820783626e-39
0.1290417016 -0.3353123963 -0.2219402492 5.820783626e-39
0.1458364725 -0.3542987108 -0.2272140384 5.820783626e-39
-0.4363160431 -0.2972548604 0.3091413975 5.820783626e-39
-0.4291350245 -0.4163110852 0.3327277601 5.820783626e-39
-0.4271878004 -0.2651806772 0.3234386742 5.820783626e-39
-0.4276469946 -0.3483695388 0.3311592042 5.820783626e-39
-0.0479792282 -0.4622083902 -0.3299369812 5.820783626e-39
-0.08292486519 -0.4796049595 -0.2883309424 5.820783626e-39
-0.03369098157 -0.4689227343 -0.2547382414 5.820783626e-39
0.01607276127 -0.4763997197 -0.2903448939 5.820783626e-39
0.006274919026 -0.3234828115 -0.324418664 5.820783626e-39
0.008697325364 -0.3454341888 -0.2935493588 5.820783626e-39
0.01453173812 -0.3207511306 -0.2807780206 5.820783626e-39
0.0488384366 -0.3281784356 -0.2969754934 5.820783626e-39
-0.00871341303 -0.4436264038 -0.3129229844 5.820783626e-39
-0.03191006556 -0.4742099047 -0.278852284 5.820783626e-39
0.002607400063 -0.4370772243 -0.2645423114 5.820783626e-39
0.04146178439 -0.4600961804 -0.2681242824 5.820783626e-39
-0.4134050608 -0.2655430734 0.3414834142 5.820783626e-39
-0.3984651566 -0.3984395862 0.3576794267 5.820783626e-39
-0.4012920558 -0.2134813666 0.3489900827 5.820783626e-39
-0.4088692963 -0.3175605536 0.3520049453 5.820783626e-39
0.1277873516 -0.4688830972 -0.2520005107 5.820783626e-39
0.06445428729 -0.4817877412 -0.201399982 5.820783626e-39
0.1330266297 -0.480116725 -0.1362134516 5.820783626e-39
0.1645064205 -0.4805915356 -0.1917792708 5.820783626e-39
-0.3708054423 -0.2035543472 0.4201150537 5.820783626e-39
-0.3491300941 -0.3686468303 0.4248850942 5.820783626e-39
-0.3622788191 -0.1620064378 0.423045516 5.820783626e-39
-0.370087713 -0.2640013099 0.4219928682 5.820783626e-39
-0.3152757883 -0.4650553465 0.372379154 5.820783626e-39
-0.3436309993 -0.4874114394 0.4355657995 5.820783626e-39
-0.3216112256 -0.4759209156 0.4727468491 5.820783626e-39
-0.2425659597 -0.4802595377 0.4634385407 5.820783626e-39
-0.3949654102 -0.4346347451 0.2397723645 5.820783626e-39
-0.4015756845 -0.4770663977 0.3030738831 5.820783626e-39
-0.3921047151 -0.4211604595 0.3446492553 5.820783626e-39
-0.3665067852 -0.4447712898 0.3322548866 5.820783626e-39
0.2843569815 -0.3794955909 -0.2817698121 5.820783626e-39
0.2774830163 -0.4326861501 -0.2534988821 5.820783626e-39
0.3159300685 -0.389285624 -0.2392667234 5.820783626e-39
0.3149297237 -0.3930751085 -0.2289438546 5.820783626e-39
-0.2865361273 -0.4673300982 0.3729076982 5.820783626e-39
-0.3230426013 -0.4876356721 0.4127114713 5.820783626e-39
-0.278416127 -0.4792043567 0.44956249 5.820783626e-39
-0.2011810839 -0.4802371264 0.4446976185 5.820783626e-39
0.2235968858 -0.4768990278 -0.3511900008 5.820783626e-39
0.14290227 -0.4825896621 -0.3265211284 5.820783626e-39
0.2561315 -0.4824273586 -0.2180856615 5.820783626e-39
0.2713610828 -0.4830351472 -0.3036279082 5.820783626e-39
-0.07805325091 -0.3506441712 -0.3224076331 5.820783626e-39
-0.08825001121 -0.3973149657 -0.2983386517 5.820783626e-39
-0.08049985021 -0.3371942639 -0.2833306193 5.820783626e-39
-0.04316872731 -0.360193193 -0.3033026457 5.820783626e-39
0.1190316454 -0.3000487685 -0.3030717671 5.820783626e-39
0.1223348454 -0.3364170194 -0.2846414149 5.820783626e-39
0.1338918805 -0.2966372669 -0.2640310824 5.820783626e-39
0.1520200372 -0.3127208054 -0.2797959745 5.820783626e-39
-0.01533832774 -0.3083105087 -0.3179460168 5.820783626e-39
-0.006045524031 -0.3396508694 -0.2864589095 5.820783626e-39
-0.0004011313431 -0.2955587208 -0.2758481801 5.820783626e-39
0.03507177904 -0.3120008707 -0.2902148366 5.820783626e-39
-0.07176586986 -0.3153313994 -0.3324733675 5.820783626e-39
-0.07201711833 -0.3528003097 -0.306625545 5.820783626e-39
-0.06293653697 -0.3045840263 -0.2908708453 5.820783626e-39
-0.02725156397 -0.3245531917 -0.3031263947 5.820783626e-39
-0.4213638008 -0.1935596764 0.4229056835 5.820783626e-39
-0.4043841064 -0.3051502705 0.4532203674 5.820783626e-39
-0.4077882469 -0.1946436465 0.4404124618 5.820783626e-39
-0.407233566 -0.2450444698 0.4381984472 5.820783626e-39
-0.04304883629 -0.3320224285 -0.2772463858 5.820783626e-39
-0.04255420715 -0.3914018869 -0.2486669123 5.820783626e-39
-0.04226878285 -0.3143287599 -0.2335177809 5.820783626e-39
0.002361712977 -0.3431487083 -0.2456114292 5.820783626e-39
0.1376068443 -0.4665923715 -0.2562596798 5.820783626e-39
0.0984640047 -0.4778863788 -0.2053525746 5.820783626e-39
0.1584308445 -0.4735178947 -0.1581179798 5.820783626e-39
0.1909279376 -0.4780358672 -0.2051465064 5.820783626e-39
0.1875466704 -0.3263774812 -0.2596197724 5.820783626e-39
0.1893687397 -0.3851977587 -0.2415032089 5.820783626e-39
0.1993060261 -0.3242975473 -0.2254074961 5.820783626e-39
0.2170634121 -0.3431991339 -0.2367369384 5.820783626e-39
-0.0817373693 -0.4616975188 -0.3240278661 5.820783626e-39
-0.1084590554 -0.4765911102 -0.2717850208 5.820783626e-39
-0.08325611055 -0.459807992 -0.2305499017 5.820783626e-39
-0.0095442608 -0.4739691019 -0.2767879963 5.820783626e-39
0.1398392618 -0.310696125 -0.3276791275 5.820783626e-39
0.1402398497 -0.3545375466 -0.3165843189 5.820783626e-39
0.1539639086 -0.2968233526 -0.290697664 5.820783626e-39
0.1691431701 -0.319846034 -0.3034617007 5.820783626e-39
-0.4081163108 -0.2052780986 0.4314577878 5.820783626e-39
-0.3895031214 -0.3046067059 0.4474133551 5.820783626e-39
-0.3962195516 -0.2014617473 0.4379705489 5.820783626e-39
-0.3915604055 -0.2399482578 0.4369083643 5.820783626e-39
0.1783887744 -0.4758061767 -0.2703513503 5.820783626e-39
0.1119870767 -0.4832302928 -0.2205440849 5.820783626e-39
0.1921545863 -0.48220855 -0.1480896175 5.820783626e-39
0.2135856301 -0.4816914797 -0.2080474347 5.820783626e-39
-0.413613826 -0.2432229221 0.3448451161 5.820783626e-39
-0.4013573527 -0.3587114513 0.3628192246 5.820783626e-39
-0.4022471309 -0.2269467264 0.3465977609 5.820783626e-39
-0.4022746086 -0.2799650133 0.3552018404 5.820783626e-39
0.1720614731 -0.3434658647 -0.2855697572 5.820783626e-39
0.1589717865 -0.3929128051 -0.2626381516 5.820783626e-39
0.1811845601 -0.3254760802 -0.2577840388 5.820783626e-39
0.1983522028 -0.3546038866 -0.2518869042 5.820783626e-39
-0.4175549746 -0.2453972399 0.3239658773 5.820783626e-39
-0.4117316008 -0.3805027604 0.3382600844 5.820783626e-39
-0.4048582315 -0.210186407 0.3291355669 5.820783626e-39
-0.4077255726 -0.2927328944 0.3352150917 5.820783626e-39
0.2023975849 -0.345851481 -0.2295876592 5.820783626e-39
0.2051269114 -0.3906618953 -0.2076622099 5.820783626e-39
0.2172908038 -0.330188781 -0.1987531185 5.820783626e-39
0.2346016467 -0.3535589576 -0.2008328438 5.820783626e-39
-0.1028479636 -0.3728773892 -0.3283468783 2.898180898e-39
-0.1134802178 -0.4157043695 -0.3007760346 2.898180898e-39
-0.1019770578 -0.3585852385 -0.2875376344 2.898180898e-39
-0.06399726868 -0.3822457194 -0.3079259098 2.898180898e-39
-0.05506159738 -0.3357382119 -0.2847512662 2.898180898e-39
-0.05250076577 -0.3811120391 -0.2469609976 2.898180898e-39
-0.0491836071 -0.3209558725 -0.2402149141 2.898180898e-39
-0.007880713791 -0.3397179246 -0.2508977652 2.898180898e-39
0.005904123187 -0.3027807474 -0.2752139568 2.898180898e-39
0.02151164412 -0.3364172578 -0.2408773005 2.898180898e-39
0.03598317504 -0.2934717536 -0.2299730033 2.898180898e-39
0.06718355417 -0.3120836318 -0.2481262088 2.898180898e-39
-0.04491697252 -0.4622653127 -0.3280200362 2.898180898e-39
-0.08818437159 -0.4771484137 -0.2717404962 2.898180898e-39
-0.03256309032 -0.4759960175 -0.2131052166 2.898180898e-39
0.0520433858 -0.4748834372 -0.2693624198 2.898180898e-39
-0.4118472934 -0.3216350079 0.2155789137 2.898180898e-39
-0.4063859582 -0.3865550756 0.2681999803 2.898180898e-39
-0.4124402404 -0.3179149628 0.2882319987 2.898180898e-39
-0.3998320103 -0.3414607644 0.2811386585 2.898180898e-39
0.1013487056 -0.3445501924 -0.228072077 2.898180898e-39
0.1142905056 -0.3926868439 -0.2032281458 2.898180898e-39
0.1222091094 -0.3390787244 -0.1826350391 2.898180898e-39
0.1453267932 -0.3499901295 -0.2081228048 2.898180898e-39
-0.002827315126 -0.360852778 -0.2065584213 2.898180898e-39
0.003985559568 -0.3972052336 -0.1679940075 2.898180898e-39
0.005709297024 -0.352185607 -0.1564765573 2.898180898e-39
0.04956558347 -0.3616181314 -0.1757909507 2.898180898e-39
0.1970039755 -0.4762631059 -0.332048744 2.898180898e-39
0.1150656268 -0.4815669656 -0.2964273691 2.898180898e-39
0.2326511294 -0.4830395579 -0.1826931685 2.898180898e-39
0.2549807727 -0.4832555652 -0.2787264884 2.898180898e-39
0.128821075 -0.3135476112 -0.296612978 2.898180898e-39
0.1264305115 -0.3494908214 -0.2740310431 2.898180898e-39
0.1443784982 -0.2987741232 -0.2561671436 2.898180898e-39
0.1654471904 -0.3244924545 -0.263715297 2.898180898e-39
-0.1793986708 -0.4646051526 0.4117891788 2.898180898e-39
-0.2422382981 -0.4877355695 0.4487358332 2.898180898e-39
-0.1848156154 -0.4788094163 0.4637826681 2.898180898e-39
-0.08582000434 -0.4841775894 0.4714724123 2.898180898e-39
0.08154529333 -0.4670632482 -0.2354288101 2.898180898e-39
0.05745858699 -0.478649497 -0.1810578406 2.898180898e-39
0.09500027448 -0.4616743326 -0.1457677335 2.898180898e-39
0.1343472302 -0.4759231806 -0.1733768284 2.898180898e-39
0.04432458803 -0.4671849012 -0.2391731143 2.898180898e-39
0.0157010667 -0.4788935184 -0.1891198456 2.898180898e-39
0.05457492545 -0.4683752656 -0.1565543115 2.898180898e-39
0.1073447466 -0.4754659534 -0.1875912994 2.898180898e-39
-0.02126582339 -0.3054472208 -0.2820355892 2.898180898e-39
-0.01986398175 -0.3427253962 -0.2413988411 2.898180898e-39
-0.01731880195 -0.3021946549 -0.230132848 2.898180898e-39
0.0238012597 -0.3165031075 -0.2453385592 2.898180898e-39
-0.4402766824 -0.3084254861 0.3548002243 2.898180898e-39
-0.4260883331 -0.4189873934 0.385412097 2.898180898e-39
-0.4256584942 -0.2544770241 0.3677479029 2.898180898e-39
-0.4352894723 -0.347935617 0.3698468506 2.898180898e-39
0.04750199988 -0.3134200573 -0.2927197516 2.898180898e-39
0.05316070467 -0.3471829891 -0.2688033283 2.898180898e-39
0.06645174325 -0.3136286139 -0.2611871064 2.898180898e-39
0.08798608929 -0.3198721707 -0.265545696 2.898180898e-39
-0.4221147895 -0.4807246923 0.2138873935 2.898180898e-39
-0.4462035 -0.4916257858 0.3484016657 2.898180898e-39
-0.4046298265 -0.4785411358 0.4042394161 2.898180898e-39
-0.3242254555 -0.4864580035 0.3941435218 2.898180898e-39
-0.3715683818 -0.408777833 0.3723281622 2.898180898e-39
-0.3663191199 -0.4781333804 0.4154155552 2.898180898e-39
-0.3749673665 -0.334907949 0.4331857264 2.898180898e-39
-0.3633583188 -0.4505890608 0.439055711 2.898180898e-39
-0.401239872 -0.3281294703 0.2206465751 2.898180898e-39
-0.4010706544 -0.4143041372 0.2660995722 2.898180898e-39
-0.4086218774 -0.2856199145 0.2901349068 2.898180898e-39
-0.405913502 -0.3564355671 0.2893413305 2.898180898e-39
-0.4054662883 -0.1722148061 0.2955720723 2.898180898e-39
-0.399739325 -0.3280413449 0.3105195761 2.898180898e-39
-0.4002101123 -0.1338571161 0.3230410218 2.898180898e-39
-0.4049370885 -0.2299070954 0.3255516291 2.898180898e-39
-0.01168415137 -0.4719687104 -0.2597484589 2.898180898e-39
-0.06080918759 -0.4806301594 -0.19811894 2.898180898e-39
-0.008918909356 -0.4797895551 -0.1449730545 2.898180898e-39
0.07620144635 -0.4805095196 -0.2034266889 2.898180898e-39
0.03601430357 -0.4760372043 -0.3338659108 2.898180898e-39
-0.01794271171 -0.4823468924 -0.2751320302 2.898180898e-39
0.05198543519 -0.4827770591 -0.174196139 2.898180898e-39
0.1165995225 -0.4813229442 -0.2737200856 2.898180898e-39
0.1346602887 -0.397510767 -0.169199571 2.898180898e-39
0.1324649602 -0.4355527759 -0.1435436308 2.898180898e-39
0.1435475796 -0.3818712831 -0.1366372257 2.898180898e-39
0.1696493626 -0.3925532699 -0.1441727132 2.898180898e-39
-0.03187916428 -0.4747541547 -0.3672427237 2.898180898e-39
-0.1098764166 -0.4866710305 -0.3144506812 2.898180898e-39
-0.04489314184 -0.4844549894 -0.207262814 2.898180898e-39
0.04865952209 -0.4831218719 -0.3181944191 2.898180898e-39
-0.08847905695 -0.474349618 -0.3962009251 2.898180898e-39
-0.1527719796 -0.4865394235 -0.3462961912 2.898180898e-39
-0.09777387232 -0.4854673147 -0.2405682802 2.898180898e-39
0.008406105451 -0.4815157652 -0.3580091894 2.898180898e-39
0.2469908744 -0.3067823052 -0.304020077 2.898180898e-39
0.2516248822 -0.3488788903 -0.2828256488 2.898180898e-39
0.2598487735 -0.3014703393 -0.2680742443 2.898180898e-39
0.2693849802 -0.3219552636 -0.272344768 2.898180898e-39
0.1999521255 -0.4571747184 -0.2627713084 2.898180898e-39
0.1700917482 -0.4722009301 -0.2172248363 2.898180898e-39
0.2297567725 -0.4644824862 -0.1491807103 2.898180898e-39
0.2547422051 -0.4602373242 -0.1975331455 2.898180898e-39
-0.0224786438 -0.4742695093 -0.3592823446 2.898180898e-39
-0.08539066464 -0.4848334789 -0.2966735661 2.898180898e-39
-0.01310389396 -0.4824191928 -0.189753145 2.898180898e-39
0.05893781036 -0.4814448953 -0.3063234091 2.898180898e-39
0.06182557344 -0.472180903 -0.1991273761 2.898180898e-39
0.01653304324 -0.4808613062 -0.1266328394 2.898180898e-39
0.07615388185 -0.4779294133 -0.06893217564 2.898180898e-39
0.1262180656 -0.4814442992 -0.1279760003 2.898180898e-39
0.1000121832 -0.477430582 -0.3033517003 2.898180898e-39
0.02310030162 -0.4852287173 -0.2360365391 2.898180898e-39
0.1173741817 -0.4837012291 -0.1253011227 2.898180898e-39
0.1874144077 -0.4838932157 -0.2371006757 2.898180898e-39
-0.01717427745 -0.3642935753 -0.2295636237 2.898180898e-39
-0.02190769464 -0.401275754 -0.1941858679 2.898180898e-39
-0.008853161708 -0.3463104367 -0.1804667562 2.898180898e-39
0.03660550341 -0.3584489822 -0.1933084279 2.898180898e-39
-0.4333615601 -0.2491827607 0.2412597537 2.898180898e-39
-0.4291228652 -0.3384497166 0.2901123166 2.898180898e-39
-0.4349673688 -0.2242443264 0.3042021692 2.898180898e-39
-0.4331919253 -0.2769768238 0.2979056835 2.898180898e-39
-0.06176656857 -0.3195539117 -0.2677478194 2.898180898e-39
-0.06339395046 -0.3623626232 -0.2321756035 2.898180898e-39
-0.06654317677 -0.311034888 -0.2151950002 2.898180898e-39
-0.02587636933 -0.3265284896 -0.2341245711 2.898180898e-39
0.1314151436 -0.3811956048 -0.1951809525 6.490113838e-41
0.1297719032 -0.4255162477 -0.1702169925 6.490113838e-41
0.1419352293 -0.3651697636 -0.1592076272 6.490113838e-41
0.1633396745 -0.3823689222 -0.1753885597 6.490113838e-41
0.01443262864 -0.4121630788 -0.1823855937 6.490113838e-41
0.009487492032 -0.4479448199 -0.1441461891 6.490113838e-41
0.01129973587 -0.3946903944 -0.1433834136 6.490113838e-41
0.05132802948 -0.4176325202 -0.1543988585 6.490113838e-41
0.1849868 -0.4796344042 -0.3087972999 6.490113838e-41
0.09718988091 -0.4833098054 -0.2559037805 6.490113838e-41
0.2166201919 -0.4843143821 -0.1418062449 6.490113838e-41
0.2531903386 -0.4846098423 -0.2480103374 6.490113838e-41
0.1216187105 -0.3999778628 -0.1811828762 6.490113838e-41
0.1186681539 -0.4351654053 -0.155137971 6.490113838e-41
0.1286255866 -0.3714771271 -0.1500561386 6.490113838e-41
0.1567333639 -0.3968442678 -0.1529372782 6.490113838e-41
-0.1872584075 -0.4636059403 0.3983642161 6.490113838e-41
-0.2473999858 -0.4872662425 0.4373548627 6.490113838e-41
-0.1944906563 -0.4771474004 0.4574617147 6.490113838e-41
-0.09939599037 -0.4816097617 0.4574880004 6.490113838e-41
-0.08718182147 -0.4739698768 -0.3797138631 6.490113838e-41
-0.1539040357 -0.4876818061 -0.3431441486 6.490113838e-41
-0.1029162556 -0.4838863611 -0.2435303926 6.490113838e-41
-0.004580243956 -0.4823091626 -0.3575472236 6.490113838e-41
-0.03298506141 -0.3300055265 -0.1855087876 6.490113838e-41
-0.0230455175 -0.3697227836 -0.163493976 6.490113838e-41
-0.02423182502 -0.3236794472 -0.1505617648 6.490113838e-41
0.004266299307 -0.3370190859 -0.1561536193 6.490113838e-41
-0.3636510372 -0.4759222269 0.2577439547 6.490113838e-41
-0.392026484 -0.4916117191 0.354403466 6.490113838e-41
-0.3401610255 -0.4781417847 0.3938749433 6.490113838e-41
-0.2589783669 -0.4835720062 0.3962242007 6.490113838e-41
-0.1911437511 -0.3394465446 -0.3272723556 6.490113838e-41
-0.1891972274 -0.3855010867 -0.3048374951 6.490113838e-41
-0.1802905947 -0.3320623636 -0.2961417735 6.490113838e-41
-0.1472126096 -0.3571781516 -0.3032408357 6.490113838e-41
0.2171491683 -0.4652899504 -0.2289370745 6.490113838e-41
0.1718549579 -0.477861762 -0.1817677319 6.490113838e-41
0.2383871824 -0.4726125002 -0.1263819635 6.490113838e-41
0.2645103335 -0.4766836166 -0.1706962585 6.490113838e-41
0.1575283259 -0.3739638031 -0.2199369073 6.490113838e-41
0.1548677534 -0.4266386628 -0.1910675019 6.490113838e-41
0.1705648452 -0.3616221845 -0.1804198623 6.490113838e-41
0.1835098714 -0.3784800172 -0.190981999 6.490113838e-41
-0.1305142343 -0.3172343075 -0.3220546246 6.490113838e-41
-0.1393604726 -0.3848483562 -0.3000975549 6.490113838e-41
-0.1316375732 -0.3009054065 -0.2883598208 6.490113838e-41
-0.1010069922 -0.3396528363 -0.2962471545 6.490113838e-41
-0.4197002351 -0.4412193894 0.3468928635 6.490113838e-41
-0.4120923877 -0.4854180217 0.3812157512 6.490113838e-41
-0.406198293 -0.4024432898 0.3928196728 6.490113838e-41
-0.3792551756 -0.4760294557 0.4029425085 6.490113838e-41
0.1293115467 -0.4775705338 -0.2838965058 6.490113838e-41
0.03690944612 -0.4852817059 -0.2136997581 6.490113838e-41
0.1379701048 -0.4841560721 -0.1027550623 6.490113838e-41
0.2066457868 -0.4835002422 -0.2098634243 6.490113838e-41
0.2290094495 -0.3364205956 -0.2124495208 6.490113838e-41
0.2287640721 -0.3798281848 -0.1913378537 6.490113838e-41
0.2385880798 -0.3330729604 -0.179244563 6.490113838e-41
0.2541060746 -0.3501309752 -0.186549589 6.490113838e-41
0.1830258369 -0.3881396651 -0.1859901845 6.490113838e-41
0.1827668846 -0.4484316707 -0.1629089415 6.490113838e-41
0.1983434558 -0.3700715899 -0.1582596451 6.490113838e-41
0.2169682384 -0.3989703059 -0.1565279216 6.490113838e-41
-0.4320291281 -0.3758989275 0.3467461169 6.490113838e-41
-0.4155536294 -0.4686151147 0.3693615794 6.490113838e-41
-0.4216069877 -0.3131513596 0.3657821119 6.490113838e-41
-0.4234389067 -0.4135050774 0.3700218201 6.490113838e-41
-0.1302042305 -0.4647452235 -0.3129085004 6.490113838e-41
-0.1622504443 -0.4815817475 -0.2772298455 6.490113838e-41
-0.1164108962 -0.4758644104 -0.2339142859 6.490113838e-41
-0.05439769477 -0.4768659472 -0.2835791409 6.490113838e-41
-0.4062071443 -0.2373270094 0.2649939358 6.490113838e-41
-0.4008934796 -0.3604359627 0.2857539654 6.490113838e-41
-0.4040328264 -0.1879823208 0.2863605917 6.490113838e-41
-0.4113531709 -0.2743454278 0.2951628566 6.490113838e-41
-0.2491408885 -0.468977809 0.2816917002 6.490113838e-41
-0.2932545841 -0.4864881039 0.3542815745 6.490113838e-41
-0.2387913465 -0.478395164 0.4021812081 6.490113838e-41
-0.1440144181 -0.4812467098 0.3880805671 6.490113838e-41
0.2237637788 -0.4037678242 -0.2069062144 6.490113838e-41
0.1916355044 -0.4562340975 -0.1783645898 6.490113838e-41
0.2144266814 -0.3997751474 -0.1525911093 6.490113838e-41
0.2178188562 -0.4160888791 -0.1605676562 6.490113838e-41
-0.4147421718 -0.4757778645 0.2293265909 6.490113838e-41
-0.4375531673 -0.4903330207 0.3408699036 6.490113838e-41
-0.3897787035 -0.4771519303 0.3852287531 6.490113838e-41
-0.3132520318 -0.4852185249 0.3794517815 6.490113838e-41
0.04125432298 -0.4757521749 -0.2737573981 6.490113838e-41
-0.04260565713 -0.4856800437 -0.2002943307 6.490113838e-41
0.03116726503 -0.4823328257 -0.09093058854 6.490113838e-41
0.1184463874 -0.4839729071 -0.1784274876 6.490113838e-41
-0.4122660458 -0.1515189409 0.4209872484 6.490113838e-41
-0.3875382841 -0.3341062665 0.4380655587 6.490113838e-41
-0.403701961 -0.1101361886 0.4159153998 6.490113838e-41
-0.4038645625 -0.2244678587 0.4203700721 6.490113838e-41
-0.07825174183 -0.320517242 -0.2698014379 6.490113838e-41
-0.07311981916 -0.3646623492 -0.2414056063 6.490113838e-41
-0.07518327236 -0.3074873984 -0.2216573209 6.490113838e-41
-0.03753222898 -0.3316960335 -0.2354783565 6.490113838e-41
-0.02051041648 -0.4763612151 -0.3502720296 6.490113838e-41
-0.09445153922 -0.4843367338 -0.293485254 6.490113838e-41
-0.01840773597 -0.4841680527 -0.1920908391 6.490113838e-41
0.06833598018 -0.4817718863 -0.2991497517 6.490113838e-41
0.05120877549 -0.4769911766 -0.28344661 6.490113838e-41
-0.05044315755 -0.4840836525 -0.2082573622 6.490113838e-41
0.03957285732 -0.4843928218 -0.112183772 6.490113838e-41
0.1305416822 -0.4845606685 -0.214245826 6.490113838e-41
-0.1053401977 -0.299306035 -0.2651508749 6.490113838e-41
-0.1084113643 -0.3470805287 -0.2372524887 6.490113838e-41
-0.1040302143 -0.2872009873 -0.2312948555 6.490113838e-41
-0.07669578493 -0.3125400841 -0.2375628203 6.490113838e-41
-0.1254459769 -0.4731411934 -0.3755884171 6.490113838e-41
-0.1702046543 -0.4884647727 -0.3503973782 6.490113838e-41
-0.120647572 -0.4815878272 -0.2721166909 6.490113838e-41
-0.01824748516 -0.4800817966 -0.3573497236 6.490113838e-41
0.1662087888 -0.4779545069 -0.2318421304 6.490113838e-41
0.05377827957 -0.4844853878 -0.1369248927 6.490113838e-41
0.1750286072 -0.4856526256 -0.03089886531 6.490113838e-41
0.2261270881 -0.4846667051 -0.1498754472 6.490113838e-41
0.08317243308 -0.4764733911 -0.2680435479 6.490113838e-41
0.004628611729 -0.4829609394 -0.1834286004 6.490113838e-41
0.1158626378 -0.4833611846 -0.08605213463 6.490113838e-41
0.179119572 -0.4827741981 -0.1840362698 6.490113838e-41
-0.1300745606 -0.3159784079 -0.2809968889 6.490113838e-41
-0.1378185004 -0.3658099771 -0.259671241 6.490113838e-41
-0.1301887482 -0.2986326218 -0.2472836673 6.490113838e-41
-0.1022951305 -0.3239165246 -0.2600463629 6.490113838e-41
0.2635524273 -0.4671881199 -0.2736422122 3.015101038e-39
0.2109032869 -0.4783821702 -0.2394198775 3.015101038e-39
0.2914558649 -0.4764348269 -0.1666080356 3.015101038e-39
0.2931815982 -0.4789731503 -0.2182540447 3.015101038e-39
-0.4094394147 -0.1262048632 0.3935539126 3.015101038e-39
-0.3926472664 -0.3104799986 0.4076400399 3.015101038e-39
-0.3981234431 -0.09338411689 0.3968290091 3.015101038e-39
-0.404859513 -0.2136693895 0.3991061151 3.015101038e-39
-0.4054386914 -0.2919961214 0.1936041117 3.015101038e-39
-0.4034642279 -0.3864502907 0.2411388308 3.015101038e-39
-0.4097604752 -0.251996696 0.2503247261 3.015101038e-39
-0.408015579 -0.3211753368 0.2527678013 3.015101038e-39
-0.0989151746 -0.4675971866 -0.241553247 3.015101038e-39
-0.1280099899 -0.4803420305 -0.1870397925 3.015101038e-39
-0.08403279632 -0.4671560526 -0.1648230404 3.015101038e-39
-0.02399644256 -0.4792366624 -0.2010869831 3.015101038e-39
0.2737462521 -0.4774695635 -0.2785490453 3.015101038e-39
0.2038323879 -0.4838289022 -0.2524204552 3.015101038e-39
0.3077358305 -0.4800133705 -0.1621983498 3.015101038e-39
0.3004576862 -0.4828859568 -0.2331218868 3.015101038e-39
-0.06804008037 -0.3618545532 -0.1445296854 3.015101038e-39
-0.06887304783 -0.4119182229 -0.1050202847 3.015101038e-39
-0.06467416137 -0.3497359753 -0.09557668865 3.015101038e-39
-0.03538561612 -0.3637574315 -0.1036599576 3.015101038e-39
-0.3792150915 -0.1821497828 0.3186049759 3.015101038e-39
-0.3792791367 -0.284129858 0.337258786 3.015101038e-39
-0.381804198 -0.1601929516 0.3498111367 3.015101038e-39
-0.3832572401 -0.2208973318 0.3424804807 3.015101038e-39
0.1800875366 -0.4788167477 -0.2718681991 3.015101038e-39
0.09069580585 -0.4840393662 -0.2068619281 3.015101038e-39
0.208925277 -0.4839851856 -0.09268815815 3.015101038e-39
0.2338127047 -0.4835580587 -0.2060840875 3.015101038e-39
-0.01417109556 -0.3994185328 -0.190242663 3.015101038e-39
-0.02706567571 -0.4410814643 -0.1499901563 3.015101038e-39
-0.02069531754 -0.3864430189 -0.1355832666 3.015101038e-39
0.01597425342 -0.4038268924 -0.1500671059 3.015101038e-39
-0.402854234 -0.4801453948 0.1806342453 3.015101038e-39
-0.4236699641 -0.4922028184 0.3115079105 3.015101038e-39
-0.3794065416 -0.4787938595 0.3654462695 3.015101038e-39
-0.3031545877 -0.4862831235 0.3595285714 3.015101038e-39
-0.4522251189 -0.4677658081 0.04735863209 3.015101038e-39
-0.4440174401 -0.4836328626 0.1622673422 3.015101038e-39
-0.4378997087 -0.4706400633 0.2371018082 3.015101038e-39
-0.3819456697 -0.4790560603 0.2116386145 3.015101038e-39
-0.3693664372 -0.4807444811 0.1280728132 3.015101038e-39
-0.3990304768 -0.4921579957 0.2607496381 3.015101038e-39
-0.3408215046 -0.4845311642 0.3330049515 3.015101038e-39
-0.2510307133 -0.485375464 0.3124714196 3.015101038e-39
0.3247065246 -0.4450260401 -0.2278041989 3.015101038e-39
0.3119319975 -0.4695250988 -0.196395725 3.015101038e-39
0.3528861403 -0.4344859719 -0.1606081128 3.015101038e-39
0.3295645118 -0.4460200667 -0.1773579121 3.015101038e-39
-0.07271196693 -0.4662457108 -0.238280952 3.015101038e-39
-0.1077619344 -0.478071928 -0.1749713272 3.015101038e-39
-0.06469357759 -0.4660471082 -0.1429148167 3.015101038e-39
0.0035815835 -0.4767439961 -0.180263117 3.015101038e-39
0.09337158501 -0.4766951799 -0.2072324008 3.015101038e-39
0.002320987172 -0.4824485183 -0.1263310462 3.015101038e-39
0.1041369066 -0.4833446145 -0.04908790812 3.015101038e-39
0.1705140918 -0.4837667346 -0.1379963905 3.015101038e-39
-0.4201562405 -0.1915309131 0.2807469666 3.015101038e-39
-0.4195985794 -0.2773962021 0.3045572042 3.015101038e-39
-0.4143938422 -0.1795703173 0.3094451129 3.015101038e-39
-0.4174882174 -0.2254771292 0.3082219064 3.015101038e-39
-0.3103084266 -0.4740613103 0.1462001801 3.015101038e-39
-0.34259817 -0.4889563322 0.2513349056 3.015101038e-39
-0.2801617682 -0.4814050198 0.3284003735 3.015101038e-39
-0.1759242117 -0.4832339883 0.3021605611 3.015101038e-39
-0.3958917558 -0.06449230015 0.3600926995 3.015101038e-39
-0.3828675747 -0.1700998545 0.3843971789 3.015101038e-39
-0.382373631 -0.06306406111 0.3926849067 3.015101038e-39
-0.3850026131 -0.09971792251 0.3872524202 3.015101038e-39
0.05557574332 -0.4751929641 -0.2342936695 3.015101038e-39
-0.04788434133 -0.4860936403 -0.1635843366 3.015101038e-39
0.03789519519 -0.4827747941 -0.05024510622 3.015101038e-39
0.1396839023 -0.4841655493 -0.1525428444 3.015101038e-39
-0.1071670279 -0.3085819483 -0.3131348491 3.015101038e-39
-0.1057618111 -0.358558774 -0.3006570637 3.015101038e-39
-0.09499900043 -0.2961956859 -0.2918185294 3.015101038e-39
-0.07276972383 -0.3241770864 -0.2991635501 3.015101038e-39
-0.06592366099 -0.3382751048 -0.2134730518 3.015101038e-39
-0.0710722357 -0.3744024932 -0.1818830073 3.015101038e-39
-0.06994474679 -0.3272679448 -0.1619786173 3.015101038e-39
-0.04141147807 -0.3411226869 -0.1742669344 3.015101038e-39
-0.05471852794 -0.4649450779 0.3231395781 3.015101038e-39
-0.1491931379 -0.485511601 0.3823755383 3.015101038e-39
-0.05812861025 -0.4758649468 0.4152655602 3.015101038e-39
0.0382809341 -0.4806851745 0.3989450932 3.015101038e-39
-0.4106039703 -0.4743286371 0.2237329632 3.015101038e-39
-0.4216832221 -0.4919354916 0.3261817992 3.015101038e-39
-0.3895223141 -0.4771886468 0.3728452027 3.015101038e-39
-0.3330991864 -0.4850928187 0.3724592924 3.015101038e-39
-0.1582912207 -0.4682930112 0.2130965292 3.015101038e-39
-0.2301040888 -0.4856770039 0.2898245752 3.015101038e-39
-0.1564453989 -0.4829204679 0.3489819765 3.015101038e-39
-0.06281717867 -0.4827139974 0.3160794377 3.015101038e-39
-0.03140122443 -0.4761619568 -0.3088741899 3.015101038e-39
-0.1078108847 -0.4845343232 -0.2674874365 3.015101038e-39
-0.02651724219 -0.4849678874 -0.1861383319 3.015101038e-39
0.06832960248 -0.4830961823 -0.2815248668 3.015101038e-39
-0.2365251482 -0.3877292871 -0.3286758363 3.015101038e-39
-0.2384762615 -0.4325096011 -0.30642277 3.015101038e-39
-0.2281306386 -0.3741888404 -0.3044036627 3.015101038e-39
-0.1928114593 -0.404393971 -0.3143276274 3.015101038e-39
-0.4209322035 -0.4021538496 0.3284168839 3.015101038e-39
-0.4130782783 -0.479388237 0.3617263436 3.015101038e-39
-0.4216108024 -0.3367820382 0.3680547774 3.015101038e-39
-0.4042630792 -0.4470819831 0.3771414161 3.015101038e-39
-0.2751863003 -0.470027566 0.1396836191 3.015101038e-39
-0.2988084555 -0.4862703681 0.2392836809 3.015101038e-39
-0.2546548545 -0.4827269316 0.3214955926 3.015101038e-39
-0.1576942205 -0.4812220931 0.2871844172 3.015101038e-39
-0.2297316939 -0.4509533048 -0.2935771644 3.015101038e-39
-0.2352627814 -0.4813978672 -0.268381089 3.015101038e-39
-0.2027871758 -0.4294099212 -0.2594005764 3.015101038e-39
-0.1526685655 -0.4765254855 -0.2768864632 3.015101038e-39
-0.004975527059 -0.4631791711 0.4252071083 3.015101038e-39
-0.07885684818 -0.4859371781 0.4472264051 3.015101038e-39
0.008332934231 -0.4707657099 0.4561976492 3.015101038e-39
0.07783997804 -0.4832633734 0.4503938556 3.015101038e-39
0.3702459633 -0.3548263907 -0.2070603967 3.015101038e-39
0.3529034555 -0.4212825298 -0.1913294494 3.015101038e-39
0.3768578768 -0.3744009137 -0.1943341047 3.015101038e-39
0.370208472 -0.3867565989 -0.1803735197 3.015101038e-39
-0.3919519484 -0.09509378672 0.3253688216 3.015101038e-39
-0.3902626038 -0.2246366143 0.3378154337 3.015101038e-39
-0.3852832019 -0.08985112607 0.3471226394 3.015101038e-39
-0.3941853344 -0.1511651129 0.3436801732 3.015101038e-39
-0.4162503779 -0.4690722227 0.05870938674 5.962428276e-39
-0.4097379446 -0.4860460162 0.15678294 5.962428276e-39
-0.4078264832 -0.4737871885 0.2120121717 5.962428276e-39
-0.3504148126 -0.480473578 0.1856609583 5.962428276e-39
-0.3148705661 -0.4782006741 0.09666375071 5.962428276e-39
-0.3440572619 -0.4906641245 0.2066731155 5.962428276e-39
-0.2937361598 -0.4856882691 0.2780752182 5.962428276e-39
-0.2055834234 -0.485276103 0.2437343001 5.962428276e-39
-0.09390842915 -0.469132483 0.2608284652 5.962428276e-39
-0.172076866 -0.4842221141 0.3213943541 5.962428276e-39
-0.1034359932 -0.4814209342 0.3661195636 5.962428276e-39
-0.00697267428 -0.481585145 0.3368292451 5.962428276e-39
-0.4225899279 -0.04141072184 0.445171833 5.962428276e-39
-0.3984369338 -0.1579052806 0.4645281434 5.962428276e-39
-0.4097669721 -0.03299045563 0.4754106998 5.962428276e-39
-0.3870500028 -0.08817452192 0.4592646658 5.962428276e-39
-0.4164341688 -0.4165116549 0.06874035299 5.962428276e-39
-0.410392493 -0.4668018818 0.128180027 5.962428276e-39
-0.4332205951 -0.3809526563 0.1585725546 5.962428276e-39
-0.4117326438 -0.4335352778 0.1494681388 5.962428276e-39
-0.4330254793 -0.1257819086 0.265473187 5.962428276e-39
-0.4233703911 -0.280570209 0.2893805206 5.962428276e-39
-0.4274529219 -0.09100846946 0.2977428734 5.962428276e-39
-0.4334703982 -0.185915634 0.3044837713 5.962428276e-39
-0.4075673521 -0.072978504 0.4297920465 5.962428276e-39
-0.3927269876 -0.2275391668 0.447240442 5.962428276e-39
-0.3998803198 -0.05045912415 0.4318550229 5.962428276e-39
-0.3974936306 -0.1427123249 0.4317995608 5.962428276e-39
0.2573665679 -0.4032055736 -0.155027315 5.962428276e-39
0.2360808551 -0.455149591 -0.1363598257 5.962428276e-39
0.2710426152 -0.3784586787 -0.1264692843 5.962428276e-39
0.2775999606 -0.4248463511 -0.1312963814 5.962428276e-39
0.001023300458 -0.4769621491 -0.1827908605 5.962428276e-39
-0.0486218296 -0.4847101569 -0.1058705747 5.962428276e-39
-0.001894447021 -0.4824103117 -0.04123000056 5.962428276e-39
0.0978738144 -0.4837046266 -0.1089501232 5.962428276e-39
0.2461369783 -0.3947951198 -0.1411125213 5.962428276e-39
0.239835307 -0.4426600337 -0.1233852357 5.962428276e-39
0.2608720064 -0.3737564087 -0.1199952364 5.962428276e-39
0.2737470567 -0.4001701474 -0.1223819554 5.962428276e-39
0.2372304052 -0.3361507058 -0.1376266927 5.962428276e-39
0.2325190604 -0.3882005811 -0.1157147735 5.962428276e-39
0.2531061172 -0.3278203607 -0.09874102473 5.962428276e-39
0.2724682391 -0.3499488533 -0.1087904051 5.962428276e-39
-0.3864793479 -0.1139044762 0.2855022252 5.962428276e-39
-0.3867329359 -0.2142282724 0.3027019799 5.962428276e-39
-0.3803266883 -0.1021978855 0.3169214427 5.962428276e-39
-0.3917526603 -0.1690958291 0.3111612797 5.962428276e-39
-0.2319473326 -0.4403650761 -0.306248039 5.962428276e-39
-0.2399177998 -0.4700644016 -0.2699745595 5.962428276e-39
-0.2287905514 -0.4285711646 -0.2563253343 5.962428276e-39
-0.171777904 -0.4629971981 -0.2794763148 5.962428276e-39
-0.1969873607 -0.4209792018 -0.2440750599 5.962428276e-39
-0.208691299 -0.4571002126 -0.2021212876 5.962428276e-39
-0.2116785347 -0.3943069577 -0.1854900867 5.962428276e-39
-0.1609048396 -0.4355065823 -0.2008963823 5.962428276e-39
-0.174601391 -0.4762914777 -0.3352443278 5.962428276e-39
-0.2289670408 -0.4910076261 -0.2910288572 5.962428276e-39
-0.1937338859 -0.4830735326 -0.2054510713 5.962428276e-39
-0.07612537593 -0.4829010963 -0.3022191823 5.962428276e-39
0.03329097107 -0.4748000503 -0.1829260886 5.962428276e-39
-0.05710490793 -0.4821887612 -0.07617095858 5.962428276e-39
0.03018337116 -0.4823112488 0.01519431733 5.962428276e-39
0.1392730772 -0.4842509031 -0.08968217671 5.962428276e-39
-0.2114888579 -0.3054041266 -0.304574579 5.962428276e-39
-0.2031306475 -0.3685609698 -0.282582581 5.962428276e-39
-0.2032695413 -0.2763263881 -0.2676223218 5.962428276e-39
-0.1809415668 -0.3197266161 -0.2710738182 5.962428276e-39
-0.1068249792 -0.4699924588 0.2424048483 5.962428276e-39
-0.1905321926 -0.4842737913 0.3199867904 5.962428276e-39
-0.1157443672 -0.4815002084 0.3659882545 5.962428276e-39
-0.01555239223 -0.4812350869 0.3371447623 5.962428276e-39
-0.2306692898 -0.3856049776 -0.2989853621 5.962428276e-39
-0.2366072536 -0.4403213859 -0.2777470648 5.962428276e-39
-0.2275800407 -0.3603136241 -0.2793806195 5.962428276e-39
-0.1943935603 -0.4021462798 -0.2811269164 5.962428276e-39
-0.1138679087 -0.4703146219 0.241759643 5.962428276e-39
-0.1846569479 -0.485303998 0.3225433528 5.962428276e-39
-0.1199934408 -0.4828929305 0.3647346795 5.962428276e-39
-0.02068310976 -0.4827712178 0.3401675224 5.962428276e-39
-0.02144926786 -0.4217223525 -0.143192187 5.962428276e-39
-0.03587514907 -0.4448819757 -0.09513307363 5.962428276e-39
-0.0230942741 -0.4065694213 -0.07688385993 5.962428276e-39
0.01762391999 -0.4105023742 -0.1038711593 5.962428276e-39
0.3315371871 -0.3347476125 -0.214764908 5.962428276e-39
0.3312906027 -0.3769170046 -0.1969256252 5.962428276e-39
0.3500206769 -0.3334909678 -0.1762045324 5.962428276e-39
0.3514972031 -0.3556296229 -0.1833012253 5.962428276e-39
-0.1014702693 -0.3491041064 -0.1437938511 5.962428276e-39
-0.1056286618 -0.3999706507 -0.1120567769 5.962428276e-39
-0.1136435866 -0.3387887478 -0.08500709385 5.962428276e-39
-0.08126018941 -0.3537358642 -0.0956504494 5.962428276e-39
0.04825483635 -0.4740458727 -0.1307667345 5.962428276e-39
-0.02232773602 -0.4826144576 -0.02990957722 5.962428276e-39
0.05233111605 -0.4810834527 0.0722226873 5.962428276e-39
0.1370552927 -0.4837161899 -0.01862604916 5.962428276e-39
0.2933573723 -0.4539595842 -0.1963266581 5.962428276e-39
0.2722217441 -0.4704287052 -0.1509074718 5.962428276e-39
0.3353276849 -0.4640543461 -0.08372134715 5.962428276e-39
0.3381713331 -0.4582031369 -0.1395761222 5.962428276e-39
-0.1224597394 -0.4704710841 0.2027464211 5.962428276e-39
-0.1771588027 -0.4834848642 0.2798739374 5.962428276e-39
-0.1161291376 -0.4814850688 0.3260558248 5.962428276e-39
-0.007062051911 -0.4831320643 0.2848961353 5.962428276e-39
-0.1513659954 -0.4765414596 -0.3120166063 5.962428276e-39
-0.2115992457 -0.4841522574 -0.2489579022 5.962428276e-39
-0.1630161405 -0.4818761349 -0.1653939933 5.962428276e-39
-0.04484800622 -0.4815014601 -0.2576644421 5.962428276e-39
-0.4183342159 -0.1096191108 0.3076631725 5.962428276e-39
-0.4086492062 -0.1755216718 0.3276531398 5.962428276e-39
-0.3975586891 -0.1211141273 0.340618223 5.962428276e-39
-0.404266566 -0.1362447441 0.3308422565 5.962428276e-39
0.01651209593 -0.4740546346 -0.1486980319 5.962428276e-39
-0.04876649752 -0.4815297127 -0.05329847708 5.962428276e-39
0.02024717629 -0.4799234867 0.05830186978 5.962428276e-39
0.1101294383 -0.4829472303 -0.0531715937 5.962428276e-39
-0.1085108444 -0.4732161164 0.1582394242 5.962428276e-39
-0.1763361394 -0.4831079245 0.2692106068 5.962428276e-39
-0.1093854979 -0.4815099835 0.3322615027 5.962428276e-39
-0.008418869227 -0.4833036065 0.2914089262 5.962428276e-39
-0.06322883815 -0.3458955288 -0.1590866894 5.962428276e-39
-0.07196835428 -0.3786695004 -0.1254379451 5.962428276e-39
-0.07619530708 -0.3403790593 -0.09978342056 5.962428276e-39
-0.04504140094 -0.3460630774 -0.1251025349 5.962428276e-39
-0.1521878839 -0.4706935883 0.1424483657 5.962428276e-39
-0.2201244831 -0.4815245271 0.2516177297 5.962428276e-39
-0.1452933252 -0.4808177352 0.3214595318 5.962428276e-39
-0.04593478888 -0.4823276401 0.2801626623 5.962428276e-39
-0.01643654704 -0.4768021703 -0.1748827994 8.906165387e-39
-0.09582924843 -0.4857848883 -0.06974978 8.906165387e-39
-0.03444253653 -0.4826985598 0.04114377871 8.906165387e-39
0.0902319178 -0.4862646461 -0.07697958499 8.906165387e-39
-0.05905074999 -0.4679753184 0.2738743722 8.906165387e-39
-0.1357237846 -0.4852342606 0.3513090909 8.906165387e-39
-0.0704709664 -0.4796995521 0.381159246 8.906165387e-39
0.03012333065 -0.4831731915 0.3521652222 8.906165387e-39
-0.04003248736 -0.4614523649 -0.1468168795 8.906165387e-39
-0.07542229444 -0.4722444415 -0.08315704018 8.906165387e-39
-0.0430816561 -0.451308012 -0.03775433078 8.906165387e-39
0.02619986609 -0.4586258531 -0.09651815891 8.906165387e-39
-0.2291870415 -0.3032812476 -0.3055251539 8.906165387e-39
-0.2241145074 -0.3554772735 -0.2862289548 8.906165387e-39
-0.2289097458 -0.2873288691 -0.2693164051 8.906165387e-39
-0.2003679276 -0.3176053464 -0.2733545005 8.906165387e-39
-0.01453573536 -0.4756105542 -0.1801906973 8.906165387e-39
-0.1158237606 -0.4838656187 -0.08865003288 8.906165387e-39
-0.03190013766 -0.4823658466 0.01067565754 8.906165387e-39
0.07744267583 -0.4849758744 -0.09263058007 8.906165387e-39
-0.2294112742 -0.4166870713 -0.2563453019 8.906165387e-39
-0.2474934161 -0.4570940733 -0.2236071527 8.906165387e-39
-0.2487753928 -0.3898499608 -0.2060338557 8.906165387e-39
-0.2084226906 -0.4289980531 -0.2138077617 8.906165387e-39
-0.00266263308 -0.4753177166 -0.1251001507 8.906165387e-39
-0.06620031595 -0.4835000038 -0.03702876344 8.906165387e-39
-0.002264392562 -0.4812468886 0.06313627213 8.906165387e-39
0.08662605286 -0.4848524928 -0.02488277853 8.906165387e-39
-0.04505255818 -0.3414871991 -0.0309618786 8.906165387e-39
-0.03709908947 -0.3876278996 -0.003937415779 8.906165387e-39
-0.03448938578 -0.3345448971 0.007844229229 8.906165387e-39
-0.01364052109 -0.3512730598 -0.007027330808 8.906165387e-39
-0.2101968527 -0.4726985693 -0.3419574201 8.906165387e-39
-0.2418922037 -0.4865731597 -0.2970181406 8.906165387e-39
-0.2069675326 -0.4804831147 -0.2366700768 8.906165387e-39
-0.09909892082 -0.4794844985 -0.3051514626 8.906165387e-39
-0.4037382305 -0.1062477455 0.3652061522 8.906165387e-39
-0.3887699246 -0.2256949842 0.3908524215 8.906165387e-39
-0.3938397169 -0.08749797195 0.4031475186 8.906165387e-39
-0.3986279368 -0.1561176479 0.394877255 8.906165387e-39
0.08542584628 -0.476185143 -0.1207922101 8.906165387e-39
-0.01610542461 -0.4836983085 -0.03729210421 8.906165387e-39
0.07288716733 -0.4835005999 0.08164721727 8.906165387e-39
0.1535202414 -0.4858552217 -0.04521208629 8.906165387e-39
-0.08946914971 -0.4712170362 0.161803484 8.906165387e-39
-0.1526402831 -0.4807918072 0.2657008171 8.906165387e-39
-0.09007157385 -0.4789232016 0.329249233 8.906165387e-39
0.0221593529 -0.4815661311 0.2775973082 8.906165387e-39
-0.07729461789 -0.4761939645 0.1157620549 8.906165387e-39
-0.162901327 -0.4829213023 0.2271438837 8.906165387e-39
-0.08966373652 -0.4813099504 0.3127365708 8.906165387e-39
0.01929722726 -0.4830875397 0.2563638985 8.906165387e-39
-0.0949735418 -0.4756934047 -0.192754522 8.906165387e-39
-0.1464556456 -0.4847149253 -0.1103749052 8.906165387e-39
-0.1246324182 -0.483178556 -0.009844350629 8.906165387e-39
-0.004357091151 -0.4841433167 -0.1137869656 8.906165387e-39
0.07806585729 -0.4757130146 -0.1319841743 8.906165387e-39
-0.01301801763 -0.4836360812 -0.03475920111 8.906165387e-39
0.07091205567 -0.4828811884 0.07472580671 8.906165387e-39
0.1607676148 -0.4848177433 -0.03587891534 8.906165387e-39
0.2046442926 -0.4802863598 -0.2463004589 8.906165387e-39
0.1295216829 -0.4841969609 -0.1789681166 8.906165387e-39
0.2525961101 -0.4839656353 -0.08389618248 8.906165387e-39
0.2721316516 -0.4820622802 -0.1749103218 8.906165387e-39
0.294839114 -0.4773164988 -0.2673554718 8.906165387e-39
0.2297005057 -0.480953753 -0.2178425193 8.906165387e-39
0.3404429853 -0.4813653231 -0.1134860814 8.906165387e-39
0.3409703076 -0.4808840156 -0.1964383274 8.906165387e-39
-0.06838076562 -0.3637300134 0.007029973436 8.906165387e-39
-0.07444527 -0.4098662138 0.03864680976 8.906165387e-39
-0.07293162495 -0.3591926694 0.05698005483 8.906165387e-39
-0.03854082525 -0.3774883151 0.03915438801 8.906165387e-39
-0.398157835 -0.09527178109 0.3355072141 8.906165387e-39
-0.384126693 -0.216326803 0.3509120047 8.906165387e-39
-0.3790279329 -0.07416065037 0.349054426 8.906165387e-39
-0.3971001208 -0.1461603642 0.35036695 8.906165387e-39
-0.04623972252 -0.4763391018 0.1277927756 8.906165387e-39
-0.1336560249 -0.4840092659 0.2326713502 8.906165387e-39
-0.04899371043 -0.4789890051 0.3132192194 8.906165387e-39
0.05000989139 -0.4825754762 0.2485044897 8.906165387e-39
-0.05212563276 -0.329227984 -0.01304721925 8.906165387e-39
-0.0471063219 -0.3619149327 0.01349417772 8.906165387e-39
-0.04908566177 -0.3265159726 0.03399400786 8.906165387e-39
