# .PCD v0.7 - Point Cloud Data file format
VERSION 0.7
FIELDS x y z rgb
SIZE 4 4 4 4
TYPE F F F F
COUNT 1 1 1 1
WIDTH 837
HEIGHT 1
VIEWPOINT 0 0 0 1 0 0 0
POINTS 837
DATA ascii
-0.06468633562 -0.4579718709 0.2886300683 5.820783626e-39
-0.05355853587 -0.4726137519 0.2851048112 5.820783626e-39
-0.08118306845 -0.4787949026 0.2831611037 5.820783626e-39
-0.07040704042 -0.4348711371 0.2793205976 5.820783626e-39
0.08250876516 -0.466271013 -0.2883972526 5.820783626e-39
0.1640173495 -0.4816505909 -0.2867793143 5.820783626e-39
0.1395901889 -0.4870141447 -0.2392913401 5.820783626e-39
0.1352334023 -0.4708224237 -0.2619448304 5.820783626e-39
0.01553934813 -0.4950486124 0.03845198452 5.820783626e-39
0.1602436602 -0.4938900173 0.0008603483438 5.820783626e-39
0.06055810302 -0.4965496659 0.2115670592 5.820783626e-39
0.1274421811 -0.4943909943 0.1356863976 5.820783626e-39
-0.1111110672 -0.4063690901 -0.3259755969 5.820783626e-39
-0.1070927754 -0.4506006539 -0.3126781583 5.820783626e-39
-0.1104434803 -0.4299710393 -0.3086935878 5.820783626e-39
-0.1023638919 -0.3571245372 -0.3049295545 5.820783626e-39
-0.1310660541 -0.4932665825 -0.2596344948 5.820783626e-39
0.02853891999 -0.4903624356 -0.2777377963 5.820783626e-39
-0.1157366857 -0.4982120097 -0.0714000687 5.820783626e-39
-0.02064284682 -0.4883630276 -0.1706976295 5.820783626e-39
-0.1711039543 -0.4959667623 -0.1353705525 5.820783626e-39
-0.01010663807 -0.4945548773 -0.1760568321 5.820783626e-39
-0.1367556155 -0.4989983439 0.0899938941 5.820783626e-39
-0.04009650648 -0.4906409383 -0.009330838919 5.820783626e-39
0.1611052454 -0.4095227122 0.07829334587 5.820783626e-39
0.1762666553 -0.4624790549 0.08163684607 5.820783626e-39
0.1662395447 -0.4332275093 0.07371170819 5.820783626e-39
0.161293149 -0.3826670647 0.08339895308 5.820783626e-39
0.07235056162 -0.4937184155 0.1303360164 5.820783626e-39
0.178663075 -0.4933032095 0.1227287501 5.820783626e-39
0.1069363505 -0.4950166345 0.2375430912 5.820783626e-39
0.1462649554 -0.4917583466 0.1876314729 5.820783626e-39
0.03232625872 -0.3880215883 -0.3434798717 5.820783626e-39
0.04946624488 -0.4507598579 -0.3425616026 5.820783626e-39
0.04927407205 -0.4264146984 -0.3364259005 5.820783626e-39
0.0421282202 -0.3528206348 -0.3296101689 5.820783626e-39
-0.003107897937 -0.4834047258 -0.1849863976 5.820783626e-39
0.08943063021 -0.486137867 -0.1961166412 5.820783626e-39
0.04497308284 -0.4916690588 -0.09358753264 5.820783626e-39
0.0620636791 -0.4862047136 -0.1284006834 5.820783626e-39
0.01574453712 -0.4633408785 -0.171037212 5.820783626e-39
0.05913292244 -0.470874548 -0.1640069038 5.820783626e-39
0.05215998739 -0.4713858664 -0.1382210553 5.820783626e-39
0.04723967239 -0.4556946456 -0.1494363695 5.820783626e-39
-0.04927419871 -0.4932938218 0.1513912529 5.820783626e-39
0.03307413682 -0.490019232 0.142883271 5.820783626e-39
-0.03052027524 -0.4943799675 0.2256307751 5.820783626e-39
0.008358933032 -0.4895891845 0.1954666078 5.820783626e-39
0.1610345095 -0.3706448376 -0.3078584671 5.820783626e-39
0.1783417463 -0.4522020221 -0.294398427 5.820783626e-39
0.1778272688 -0.4198673368 -0.3025062084 5.820783626e-39
0.1657639444 -0.3244580626 -0.2958673835 5.820783626e-39
0.1516987085 -0.3637571633 -0.2588175535 5.820783626e-39
0.1733980328 -0.4429953396 -0.2485053539 5.820783626e-39
0.1640061289 -0.4059461355 -0.2541109025 5.820783626e-39
0.1573491991 -0.3312627673 -0.2459872514 5.820783626e-39
-0.02271030843 -0.4877961278 -0.228588149 5.820783626e-39
0.07915017754 -0.4875889421 -0.2396526784 5.820783626e-39
0.02640428022 -0.4934245646 -0.1226771921 5.820783626e-39
0.05986260623 -0.4888237417 -0.1560845673 5.820783626e-39
-0.1543438733 -0.4951068163 -0.046296563 5.820783626e-39
-0.02258231491 -0.4894159138 -0.1071871519 5.820783626e-39
-0.1232585534 -0.4957516193 0.1174873561 5.820783626e-39
-0.04190347344 -0.4900949299 0.03442394733 5.820783626e-39
-0.002179920673 -0.4929085076 0.1373113543 5.820783626e-39
0.1301279068 -0.4913333058 0.1167556643 5.820783626e-39
0.03218412772 -0.4975578785 0.2469225973 5.820783626e-39
0.09241184592 -0.4935283959 0.1959588677 5.820783626e-39
-0.08711815625 -0.496171236 0.1011244953 5.820783626e-39
0.05280237645 -0.4916069806 0.05914042145 5.820783626e-39
-0.0706185624 -0.5002317429 0.2566931844 5.820783626e-39
0.03819974884 -0.4941735566 0.1961031109 5.820783626e-39
0.07838328928 -0.4610397518 -0.09476521611 2.898180898e-39
0.1288321763 -0.4753135741 -0.09306670725 2.898180898e-39
0.1115520224 -0.4738181233 -0.04437923059 2.898180898e-39
0.1222179234 -0.4661074877 -0.04859457538 2.898180898e-39
-0.07485251874 -0.4953865707 0.09850847721 2.898180898e-39
0.09547998011 -0.4912166595 0.0534851104 2.898180898e-39
-0.04888919741 -0.5011953712 0.2525348067 2.898180898e-39
0.07097925246 -0.4919614494 0.1831487268 2.898180898e-39
0.1057749242 -0.498364985 0.277521193 2.898180898e-39
0.1820454001 -0.4910810888 0.2616159916 2.898180898e-39
0.116352655 -0.4999709427 0.3200721145 2.898180898e-39
0.1617619544 -0.4873839617 0.3122673035 2.898180898e-39
-0.1291643083 -0.4931866825 0.07281173021 2.898180898e-39
0.03363732621 -0.4895223081 0.02702283859 2.898180898e-39
-0.08998126537 -0.497549504 0.215899989 2.898180898e-39
0.005158692598 -0.4907641709 0.1489896029 2.898180898e-39
0.1815728247 -0.3835971951 -0.06751995534 2.898180898e-39
0.182359606 -0.4471783638 -0.05923768878 2.898180898e-39
0.1885661036 -0.4219341576 -0.04185474664 2.898180898e-39
0.1773547679 -0.3673630655 -0.03976711258 2.898180898e-39
-0.150926739 -0.4966686964 0.03754149377 2.898180898e-39
0.0184218958 -0.4921196103 -0.02073689364 2.898180898e-39
-0.1075283214 -0.4983135462 0.2041734606 2.898180898e-39
-0.004387132823 -0.4918835163 0.1228346974 2.898180898e-39
-0.07391861826 -0.4983387887 0.1263562441 2.898180898e-39
0.07274332643 -0.4921292067 0.09812532365 2.898180898e-39
-0.02047025412 -0.4987460077 0.2427245528 2.898180898e-39
0.05848658085 -0.4956591725 0.1819279194 2.898180898e-39
0.1468582004 -0.09858752042 0.2480574995 2.898180898e-39
0.170382306 -0.2063136399 0.2648243904 2.898180898e-39
0.1659547985 -0.1376876533 0.2556627989 2.898180898e-39
0.1733385473 -0.08825500309 0.2672982216 2.898180898e-39
-0.1441629529 -0.3855163455 -0.3143005967 2.898180898e-39
-0.1410401165 -0.4332406521 -0.295383811 2.898180898e-39
-0.1519508362 -0.4089051485 -0.2900378704 2.898180898e-39
-0.1421799064 -0.3418429196 -0.2949641347 2.898180898e-39
-0.1974909306 -0.4913374484 -0.1996061057 2.898180898e-39
-0.03786964715 -0.4914777577 -0.2250216305 2.898180898e-39
-0.1802665293 -0.4980735779 -0.0086613819 2.898180898e-39
-0.06882483512 -0.4891227484 -0.09651178122 2.898180898e-39
0.1547128558 -0.1062526405 0.2681156993 2.898180898e-39
0.1746397018 -0.2284604311 0.2810084224 2.898180898e-39
0.1691731811 -0.1377020329 0.270778656 2.898180898e-39
0.1814181805 -0.08535864204 0.2851930261 2.898180898e-39
0.1072515771 -0.4827777147 0.2917993665 2.898180898e-39
0.1346366853 -0.482065469 0.2920823693 2.898180898e-39
0.1141875982 -0.4880971313 0.3176730275 2.898180898e-39
0.1362177432 -0.4560927451 0.3077302575 2.898180898e-39
-0.1674221754 -0.4848748147 -0.0837059468 2.898180898e-39
-0.06734172255 -0.4868143201 -0.1253373474 2.898180898e-39
-0.168668896 -0.4954116642 0.01798377931 2.898180898e-39
-0.09822500497 -0.4850056469 -0.03024095297 2.898180898e-39
0.1751277447 -0.08670575917 -0.1031406149 2.898180898e-39
0.1847090274 -0.1445227861 -0.09609971941 2.898180898e-39
0.1818208098 -0.1110116914 -0.06705158949 2.898180898e-39
0.17546615 -0.07529455423 -0.06993587315 2.898180898e-39
0.1293849349 -0.09950494021 -0.1014781594 2.898180898e-39
0.1368056834 -0.1590276212 -0.0971826911 2.898180898e-39
0.1312930584 -0.124614343 -0.07375348359 2.898180898e-39
0.1343145818 -0.0923050791 -0.06685252488 2.898180898e-39
0.1518810093 -0.08290862292 -0.05719878897 2.898180898e-39
0.1591959596 -0.1395398676 -0.04622128233 2.898180898e-39
0.1538278162 -0.1078122407 -0.0173149202 2.898180898e-39
0.1552335471 -0.07733626664 -0.0249698814 2.898180898e-39
0.1622699648 -0.08135967702 -0.1624160409 2.898180898e-39
0.1710778922 -0.1471338272 -0.1475760341 2.898180898e-39
0.1659937799 -0.1121521816 -0.1245922074 2.898180898e-39
0.1649982631 -0.06341449171 -0.1208501458 2.898180898e-39
0.1372980177 -0.09082365036 0.2989094853 2.898180898e-39
0.1431406736 -0.1740434617 0.3093526959 2.898180898e-39
0.1407561898 -0.1106384322 0.305909574 2.898180898e-39
0.1500712335 -0.08057134598 0.3154284358 2.898180898e-39
0.1667898446 -0.1178621799 -0.1417650133 2.898180898e-39
0.1766113937 -0.206673339 -0.127884984 2.898180898e-39
0.1661983728 -0.1507367641 -0.1087055951 2.898180898e-39
0.164927721 -0.08096089959 -0.1045314968 2.898180898e-39
0.162730068 -0.10199669 -0.06935051084 2.898180898e-39
0.1687329561 -0.1654534191 -0.05909669772 2.898180898e-39
0.1639070362 -0.1289708316 -0.03179921955 2.898180898e-39
0.1654380411 -0.08916777372 -0.03554588556 2.898180898e-39
0.172899276 -0.1006246805 -0.09179370105 2.898180898e-39
0.1805855036 -0.1676284671 -0.08280946314 2.898180898e-39
0.1782528758 -0.1269544959 -0.05703807622 2.898180898e-39
0.1746660471 -0.08204011619 -0.0586633347 2.898180898e-39
0.140407443 -0.09194437414 -0.1462426633 2.898180898e-39
0.1517986059 -0.1489620209 -0.1368606091 2.898180898e-39
0.1497541368 -0.1181017086 -0.1179041862 2.898180898e-39
0.1522469223 -0.07219277322 -0.1127810851 2.898180898e-39
0.1580529511 -0.1249362007 -0.1409369409 2.898180898e-39
0.1634197235 -0.1885438114 -0.1329905987 2.898180898e-39
0.1601043493 -0.1540158689 -0.1175559387 2.898180898e-39
0.1609589309 -0.1080121771 -0.1092105433 2.898180898e-39
0.1076704413 -0.136942789 -0.1195575744 2.898180898e-39
0.1181721538 -0.1861453205 -0.1167999208 2.898180898e-39
0.1081035137 -0.1569149196 -0.09595599025 2.898180898e-39
0.1186980456 -0.1164261699 -0.08555693924 2.898180898e-39
0.1394469887 -0.1603203714 -0.06754341722 2.898180898e-39
0.1514524817 -0.2366428226 -0.05923126638 2.898180898e-39
0.1356826723 -0.1892882138 -0.04341288283 2.898180898e-39
0.1428634673 -0.1187519729 -0.04385278001 2.898180898e-39
-0.1379118264 -0.4943297505 0.04800408334 2.898180898e-39
0.01038065553 -0.4870357215 0.008697535843 2.898180898e-39
-0.09578133374 -0.4980760217 0.1682291478 2.898180898e-39
-0.0183044225 -0.4891369641 0.09826809168 2.898180898e-39
0.1790510118 -0.1422458887 -0.1163073629 2.898180898e-39
0.1882452667 -0.2228582352 -0.1100057587 2.898180898e-39
0.1790811419 -0.1736939996 -0.09497480839 2.898180898e-39
0.1744777858 -0.1143277138 -0.08535690606 2.898180898e-39
-0.184117198 -0.4917278886 -0.1641411185 2.898180898e-39
-0.01983125508 -0.4880426228 -0.1914157271 2.898180898e-39
-0.1546100676 -0.4996118248 0.013320297 2.898180898e-39
-0.04297764599 -0.4859080017 -0.06831207871 2.898180898e-39
0.1464256346 -0.1561676264 -0.1570825726 2.898180898e-39
0.1567002535 -0.2559490204 -0.150681138 2.898180898e-39
0.1411571652 -0.2034261674 -0.1450295448 2.898180898e-39
0.1498417556 -0.1206646711 -0.1239152029 2.898180898e-39
0.1531415284 -0.1215455383 -0.07225012034 2.898180898e-39
0.1582885683 -0.2006375492 -0.06051947922 2.898180898e-39
0.1510951221 -0.1531978846 -0.03578152508 2.898180898e-39
0.1530924141 -0.1004940718 -0.03922123834 2.898180898e-39
0.1710192859 -0.1242737025 -0.1714271754 2.898180898e-39
0.1805791706 -0.1813782901 -0.1641292572 2.898180898e-39
0.1718349457 -0.1520379782 -0.1540326774 2.898180898e-39
0.1716717333 -0.1061902717 -0.1404248774 2.898180898e-39
0.08148533851 -0.132734552 -0.1395719796 2.898180898e-39
0.09076429904 -0.1584045887 -0.1431545764 2.898180898e-39
0.09596762061 -0.1428217888 -0.1206674874 2.898180898e-39
0.09499954432 -0.1146464571 -0.1120933592 2.898180898e-39
0.1736197174 -0.15944314 -0.0004547275603 6.490113838e-41
0.1788221598 -0.2425177246 0.006333388388 6.490113838e-41
0.1725457609 -0.1862862855 0.02635243535 6.490113838e-41
0.1758039594 -0.1266107559 0.0222215876 6.490113838e-41
-0.1838796437 -0.4405477643 -0.2572196424 6.490113838e-41
-0.1835156083 -0.4539031684 -0.2482059747 6.490113838e-41
-0.1730848253 -0.4489892125 -0.2772811055 6.490113838e-41
-0.1751603782 -0.4036276937 -0.2665757537 6.490113838e-41
-0.1811005473 -0.4923101962 -0.1889806092 6.490113838e-41
-0.03590866923 -0.4881879985 -0.222202003 6.490113838e-41
-0.1555226743 -0.4984347224 -0.04913841188 6.490113838e-41
-0.0722598061 -0.4870329499 -0.1105518341 6.490113838e-41
0.1716797054 -0.1467193663 -0.1704717427 6.490113838e-41
0.1832616627 -0.2468465716 -0.1554038525 6.490113838e-41
0.1755407155 -0.1907008737 -0.1489940584 6.490113838e-41
0.176056698 -0.1223804951 -0.1310355514 6.490113838e-41
0.1536307335 -0.1225160882 -0.1626473069 6.490113838e-41
0.1636400521 -0.2168333083 -0.1507606953 6.490113838e-41
0.153693378 -0.1608857214 -0.1402122974 6.490113838e-41
0.1602903903 -0.09508118778 -0.1254704297 6.490113838e-41
0.1409028769 -0.4470823705 -0.08978193253 6.490113838e-41
0.1583775282 -0.4674631655 -0.08702042699 6.490113838e-41
0.1736477017 -0.4608412683 -0.0644890815 6.490113838e-41
0.1547902226 -0.4072427452 -0.06938187778 6.490113838e-41
0.1682059765 -0.1756144315 -0.07244136184 6.490113838e-41
0.1796093881 -0.2598884106 -0.06115059555 6.490113838e-41
0.1681183279 -0.2070344388 -0.04015230387 6.490113838e-41
0.1716035008 -0.1444520354 -0.04261846468 6.490113838e-41
0.1559824944 -0.132879138 -0.1237727478 6.490113838e-41
0.1639600098 -0.2269768417 -0.1149290204 6.490113838e-41
0.1528185606 -0.1698240936 -0.09959609061 6.490113838e-41
0.1592225134 -0.09965945035 -0.09193657339 6.490113838e-41
-0.1155279651 -0.4922881126 0.09617717564 6.490113838e-41
0.03746148944 -0.4873648584 0.06080169976 6.490113838e-41
-0.0698601529 -0.4999304116 0.2118136436 6.490113838e-41
0.008168369532 -0.4920561314 0.1449915618 6.490113838e-41
0.170537293 -0.1212941185 -0.02721174434 6.490113838e-41
0.1798455119 -0.2091302723 -0.02238659374 6.490113838e-41
0.1679628491 -0.1504410505 0.003515902907 6.490113838e-41
0.1716591418 -0.0978269726 -0.00325460732 6.490113838e-41
0.1550212204 -0.1021877751 -0.2029934824 6.490113838e-41
0.1549863368 -0.1665364951 -0.1985888332 6.490113838e-41
0.1551727355 -0.1306396723 -0.1827992201 6.490113838e-41
0.1641658545 -0.08784788847 -0.1659913361 6.490113838e-41
-0.1733215451 -0.4437899292 -0.2796486914 6.490113838e-41
-0.1661901176 -0.4580419958 -0.2865703702 6.490113838e-41
-0.1698409617 -0.4568762481 -0.3223668337 6.490113838e-41
-0.1725303233 -0.4066375792 -0.3079035282 6.490113838e-41
-0.1106973961 -0.4321685433 -0.3083398342 6.490113838e-41
-0.1008219942 -0.4504742622 -0.3020370007 6.490113838e-41
-0.116388239 -0.4356533289 -0.3073607683 6.490113838e-41
-0.1037154719 -0.3769615889 -0.3016301394 6.490113838e-41
0.1707514822 -0.1842493862 -0.1204431877 6.490113838e-41
0.1834430993 -0.2745934129 -0.1075688377 6.490113838e-41
0.1735505462 -0.2236805856 -0.1026000604 6.490113838e-41
0.1744611859 -0.1538359523 -0.09009644389 6.490113838e-41
0.146861285 -0.1296697706 -0.219797492 6.490113838e-41
0.15737167 -0.2319751084 -0.2203096747 6.490113838e-41
0.1425431371 -0.175460428 -0.2159851938 6.490113838e-41
0.1456407011 -0.0998166278 -0.192055732 6.490113838e-41
0.1610610187 -0.08228448778 0.08018241823 6.490113838e-41
0.1717834473 -0.1416231394 0.09215381742 6.490113838e-41
0.1651847363 -0.09450068325 0.116458416 6.490113838e-41
0.1724346876 -0.06698255986 0.1057694703 6.490113838e-41
0.1535486281 -0.1101780087 -0.26674667 6.490113838e-41
0.1561388224 -0.1804119647 -0.2643676996 6.490113838e-41
0.1570046246 -0.137421608 -0.246812135 6.490113838e-41
0.1547818333 -0.09481482208 -0.2344109416 6.490113838e-41
0.1716519445 -0.06614351273 -0.2951812744 6.490113838e-41
0.1854258478 -0.1681958884 -0.3006521463 6.490113838e-41
0.1837442666 -0.1029891372 -0.2827428877 6.490113838e-41
0.1806598008 -0.04896298423 -0.2729607821 6.490113838e-41
-0.1047183797 -0.4867941141 0.1881317794 6.490113838e-41
0.02802787721 -0.4852704108 0.1481119245 6.490113838e-41
-0.08549269289 -0.4959042966 0.2635513544 6.490113838e-41
-0.008007913828 -0.4851488471 0.2483433634 6.490113838e-41
0.188129738 -0.1001496613 -0.2468558252 6.490113838e-41
0.2024625689 -0.2290882021 -0.2477698326 6.490113838e-41
0.1940519512 -0.1523032188 -0.2357922643 6.490113838e-41
0.1938729584 -0.08043545485 -0.216533199 6.490113838e-41
-0.1692662537 -0.4915204048 0.0006876960397 6.490113838e-41
-0.01602917165 -0.4869597852 -0.06586652249 6.490113838e-41
-0.1285805106 -0.4976684153 0.09677562118 6.490113838e-41
-0.04716648906 -0.4886117578 0.04960136861 6.490113838e-41
0.1569106132 -0.1471383572 -0.1866106391 6.490113838e-41
0.1693795174 -0.2487581521 -0.1825301051 6.490113838e-41
0.1493982375 -0.1933762431 -0.1803042144 6.490113838e-41
0.1558533311 -0.1183639094 -0.1522777528 6.490113838e-41
-0.1322271526 -0.4519349337 0.3358994126 6.490113838e-41
-0.1072620377 -0.4624470174 0.3335959911 6.490113838e-41
-0.11715018 -0.458271116 0.3198527098 6.490113838e-41
-0.1029620245 -0.4346914887 0.3258547187 6.490113838e-41
-0.2035648525 -0.4895240664 -0.09268658608 6.490113838e-41
-0.02819868922 -0.4914572537 -0.1066959575 6.490113838e-41
-0.1757857203 -0.4967589974 0.1047628969 6.490113838e-41
-0.0699063018 -0.4875696898 0.01756924018 6.490113838e-41
0.1725472808 -0.07643608749 -0.3006886244 6.490113838e-41
0.1883625686 -0.1524612904 -0.3049993515 6.490113838e-41
0.1859933585 -0.1026908234 -0.2844957411 6.490113838e-41
0.183278352 -0.06405876577 -0.2738890052 6.490113838e-41
0.1666711271 -0.1013694778 -0.2747427821 6.490113838e-41
0.175735116 -0.1898030788 -0.2776892781 6.490113838e-41
0.1719564497 -0.1386909187 -0.2619287372 6.490113838e-41
0.1715665162 -0.08932578564 -0.2531294823 6.490113838e-41
-0.1803947389 -0.4931527376 0.1075160652 6.490113838e-41
-0.01816345006 -0.4899091721 0.07380814105 6.490113838e-41
-0.1424103677 -0.5008865595 0.2270647734 6.490113838e-41
-0.04686900228 -0.4901501238 0.1719109863 6.490113838e-41
0.1289115697 -0.1137650236 0.3088656664 6.490113838e-41
0.1421379447 -0.1961738765 0.3143317699 6.490113838e-41
0.1374499798 -0.125548631 0.3159304857 6.490113838e-41
0.1467930973 -0.1018949524 0.3241386414 6.490113838e-41
0.1521686316 -0.1867700666 -0.05024103075 6.490113838e-41
0.1630822122 -0.2679210901 -0.03887443244 6.490113838e-41
0.1480416954 -0.2186099589 -0.0145294033 6.490113838e-41
0.1565454602 -0.1493054032 -0.02067184448 6.490113838e-41
0.1569529772 -0.1228018552 -0.3152788877 6.490113838e-41
0.1671244055 -0.2271872014 -0.3216355443 6.490113838e-41
0.1684333086 -0.1636240035 -0.3044139743 6.490113838e-41
0.164053604 -0.1074508652 -0.2855337262 6.490113838e-41
0.1613211483 -0.1636774242 -0.2344830781 6.490113838e-41
0.1758511066 -0.28177917 -0.2333700359 6.490113838e-41
0.1609782428 -0.211336419 -0.2316626906 6.490113838e-41
0.1613394618 -0.1220836341 -0.2101090848 6.490113838e-41
0.1479669064 -0.1165286899 0.08197773993 6.490113838e-41
0.1613517553 -0.172579661 0.09395352006 6.490113838e-41
0.1573247015 -0.1271320134 0.1112105399 6.490113838e-41
0.1644157469 -0.09493607283 0.1045304835 6.490113838e-41
0.1494128704 -0.1108627319 0.03964216262 3.015101038e-39
0.159475863 -0.1604225636 0.04672513157 3.015101038e-39
0.1560973674 -0.1225422546 0.07549208403 3.015101038e-39
0.1589104384 -0.08888757229 0.06901689619 3.015101038e-39
0.161316663 -0.1311258972 -0.3400866985 3.015101038e-39
0.1758747697 -0.2532503009 -0.348893404 3.015101038e-39
0.1821523756 -0.1838674247 -0.3342363834 3.015101038e-39
0.1761519313 -0.1090952009 -0.3066082001 3.015101038e-39
0.1873583198 -0.1532409489 -0.2041688561 3.015101038e-39
0.1934983432 -0.2598749995 -0.192370832 3.015101038e-39
0.184034586 -0.1958901286 -0.1918291301 3.015101038e-39
0.1892953813 -0.1130503044 -0.1662381589 3.015101038e-39
0.1609629095 -0.1276392341 -0.2991973758 3.015101038e-39
0.1725387722 -0.2823928595 -0.3116974235 3.015101038e-39
0.1768784821 -0.1984243542 -0.3034977913 3.015101038e-39
0.168928653 -0.1046203151 -0.2739343941 3.015101038e-39
-0.1549912691 -0.4962530732 0.07728246599 3.015101038e-39
-0.001235313714 -0.4913059771 0.02943313867 3.015101038e-39
-0.1222247109 -0.5009485483 0.21599181 3.015101038e-39
-0.02750957012 -0.4909859896 0.1443514526 3.015101038e-39
0.1313025951 -0.08092540503 -0.3060862422 3.015101038e-39
0.139459759 -0.1630364656 -0.3037295938 3.015101038e-39
0.142146498 -0.1199542135 -0.2865176201 3.015101038e-39
0.1378373206 -0.07736006379 -0.2752212882 3.015101038e-39
0.1468074918 -0.2159333974 -0.12974298 3.015101038e-39
0.160073936 -0.2936890125 -0.1226877868 3.015101038e-39
0.1438319385 -0.2540444732 -0.1126729771 3.015101038e-39
0.1539597511 -0.1790722907 -0.1069834754 3.015101038e-39
0.135871172 -0.198782295 -0.1527910829 3.015101038e-39
0.1440330893 -0.2882134318 -0.1445866823 3.015101038e-39
0.131117329 -0.2429624498 -0.1309975833 3.015101038e-39
0.1430926025 -0.1575360894 -0.1204302013 3.015101038e-39
0.1382851154 -0.06499840319 -0.3098502755 3.015101038e-39
0.1430967748 -0.1722760797 -0.3170756698 3.015101038e-39
0.1562650204 -0.1073511094 -0.2938022614 3.015101038e-39
0.157443285 -0.04836827144 -0.2839247584 3.015101038e-39
0.1453947127 -0.08747178316 0.1773590297 3.015101038e-39
0.1640892923 -0.1776527017 0.1869454235 3.015101038e-39
0.160025537 -0.122019738 0.1909335703 3.015101038e-39
0.1702900529 -0.07029293478 0.1870695353 3.015101038e-39
0.1476427615 -0.1178388149 -0.2913445234 3.015101038e-39
0.1587554812 -0.2549401224 -0.3000696301 3.015101038e-39
0.1557859331 -0.1734665632 -0.2874438763 3.015101038e-39
0.1562438607 -0.08850232512 -0.2658005357 3.015101038e-39
-0.1951110065 -0.4941447973 -0.06969941407 3.015101038e-39
-0.02798213065 -0.4912654161 -0.1090511084 3.015101038e-39
-0.1673362851 -0.500158906 0.1019256264 3.015101038e-39
-0.05093822628 -0.4886227846 0.01203508303 3.015101038e-39
0.141651541 -0.4679068923 0.3102514148 3.015101038e-39
0.1535270065 -0.4769821465 0.3163910508 3.015101038e-39
0.1540003121 -0.469576478 0.3112782836 3.015101038e-39
0.171505481 -0.4127848744 0.3129406571 3.015101038e-39
0.1481277049 -0.1472203285 -0.2087434679 3.015101038e-39
0.1589035094 -0.2410605997 -0.2134978771 3.015101038e-39
0.1485682279 -0.1833697855 -0.2049560994 3.015101038e-39
0.1469723582 -0.1230773702 -0.1829918921 3.015101038e-39
0.1210334003 -0.1099990308 0.3007941842 3.015101038e-39
0.1363869905 -0.1940140575 0.3067772985 3.015101038e-39
0.1296264976 -0.1286023259 0.2984976172 3.015101038e-39
0.1377965808 -0.09855285287 0.3172430992 3.015101038e-39
0.1485182345 -0.1920788139 -0.2070386112 3.015101038e-39
0.1603482962 -0.2915652692 -0.200503394 3.015101038e-39
0.1488327682 -0.2300899327 -0.1936577857 3.015101038e-39
0.151297003 -0.1498806179 -0.1782292277 3.015101038e-39
0.1695058346 -0.3868779242 0.1039594412 3.015101038e-39
0.1785788536 -0.4524696767 0.1157832742 3.015101038e-39
0.1721785963 -0.424210161 0.1132470369 3.015101038e-39
0.1724894345 -0.3408014178 0.1248289645 3.015101038e-39
0.1421946585 -0.1848639548 -0.1309707165 3.015101038e-39
0.1515200287 -0.2816826105 -0.1236370727 3.015101038e-39
0.1404265463 -0.2274840027 -0.1101850495 3.015101038e-39
0.1485960335 -0.1469532698 -0.103431873 3.015101038e-39
0.1842117906 -0.3300949037 -0.1645716578 3.015101038e-39
0.1972187907 -0.419965297 -0.147730127 3.015101038e-39
0.1892739236 -0.3796626925 -0.1292977184 3.015101038e-39
0.1908002198 -0.2807987332 -0.1334065795 3.015101038e-39
0.1667186469 -0.3702777326 -0.01488761976 3.015101038e-39
0.1762622297 -0.4466483295 0.003861542791 3.015101038e-39
0.1717363596 -0.4165390432 0.01688336208 3.015101038e-39
0.1727583706 -0.3135760427 0.01925851032 3.015101038e-39
-0.2257708311 -0.4865806699 -0.206932947 3.015101038e-39
-0.1378428936 -0.4795764387 -0.2338568568 3.015101038e-39
-0.2201500237 -0.490493834 -0.1539200991 3.015101038e-39
-0.1625834107 -0.4815235734 -0.2186014503 3.015101038e-39
0.1447166651 -0.3443624973 0.149519071 3.015101038e-39
0.1446239054 -0.4205826521 0.1607556492 3.015101038e-39
0.1402501613 -0.3833573759 0.1652114242 3.015101038e-39
0.1478540301 -0.2955431342 0.1647623479 3.015101038e-39
0.1581161916 -0.1717456579 0.08829198778 3.015101038e-39
0.1631168425 -0.2693935037 0.1013163775 3.015101038e-39
0.1593149155 -0.2102622241 0.1075918674 3.015101038e-39
0.1690641046 -0.1375691593 0.1063544303 3.015101038e-39
0.135578841 -0.1892741323 -0.2503330708 3.015101038e-39
0.1475249827 -0.2948903739 -0.2456086278 3.015101038e-39
0.1361664683 -0.2290602624 -0.2412865609 3.015101038e-39
0.1326347888 -0.1492908299 -0.2248041183 3.015101038e-39
0.1249199584 -0.1610284448 -0.254796803 3.015101038e-39
0.1332761347 -0.2477531731 -0.2589411736 3.015101038e-39
0.1263176054 -0.1921682656 -0.2479290515 3.015101038e-39
0.1220617518 -0.1358522475 -0.2385322899 3.015101038e-39
0.1506640911 -0.1343619376 0.1524418741 3.015101038e-39
0.1609637588 -0.1964797676 0.1630604267 3.015101038e-39
0.1585588455 -0.1462384611 0.1712952703 3.015101038e-39
0.1662972271 -0.1126695946 0.1619706154 3.015101038e-39
0.1689254642 -0.1730866581 -0.2572219074 3.015101038e-39
0.1808999479 -0.2693004608 -0.252723217 3.015101038e-39
0.17314291 -0.2050451487 -0.2446040064 3.015101038e-39
0.170619756 -0.1449680328 -0.2298417389 3.015101038e-39
0.1766707599 -0.1980374306 -0.1228379533 3.015101038e-39
0.1938770711 -0.2736138105 -0.1133798063 3.015101038e-39
0.1838733256 -0.2286473364 -0.101725474 3.015101038e-39
0.1824151427 -0.1666984111 -0.09546364844 3.015101038e-39
0.1369805187 -0.149074167 0.1152940691 3.015101038e-39
0.1530265957 -0.2218070477 0.1264043748 3.015101038e-39
0.143869102 -0.1657564789 0.1350826025 3.015101038e-39
0.1563941836 -0.1162400395 0.1261826158 3.015101038e-39
-0.2058697045 -0.4933404326 0.07198855281 3.015101038e-39
-0.03015220165 -0.4900138676 0.0470026657 3.015101038e-39
-0.1605951786 -0.5012227893 0.2218013853 3.015101038e-39
-0.04383802414 -0.4894014299 0.1537677497 3.015101038e-39
-0.1771489382 -0.4906026423 0.1949613392 3.015101038e-39
-0.003878757358 -0.4892442524 0.1666062474 3.015101038e-39
-0.1240185723 -0.5032142401 0.2807245255 3.015101038e-39
-0.03657131642 -0.4891326129 0.2566942573 3.015101038e-39
0.1720087826 -0.1900638193 0.04019011557 3.015101038e-39
0.1752909124 -0.2803528309 0.0539130345 3.015101038e-39
0.1669069827 -0.2273275256 0.06675953418 3.015101038e-39
0.1763061583 -0.1591739655 0.0715476349 3.015101038e-39
0.16585958 -0.2003303766 -0.08241531253 5.962428276e-39
0.1770186573 -0.2780553699 -0.07056105882 5.962428276e-39
0.1675371826 -0.2352514416 -0.05635761097 5.962428276e-39
0.1671277583 -0.1619084328 -0.05442949757 5.962428276e-39
0.1560618728 -0.1314334571 0.1117083877 5.962428276e-39
0.1665312052 -0.2149208188 0.1228119731 5.962428276e-39
0.1520143747 -0.1554537117 0.1420463324 5.962428276e-39
0.1690080166 -0.09953761846 0.1283053458 5.962428276e-39
0.1468556672 -0.1397884339 -0.2936415076 5.962428276e-39
0.1552360356 -0.2492965162 -0.2989941239 5.962428276e-39
0.1592968553 -0.1817095727 -0.2849593163 5.962428276e-39
0.1572334766 -0.1146914214 -0.2688863575 5.962428276e-39
0.1823033839 -0.222826764 -0.07109481096 5.962428276e-39
0.1922829002 -0.2999669909 -0.05351451784 5.962428276e-39
0.1867014468 -0.2607886791 -0.0414949283 5.962428276e-39
0.1839281619 -0.1735645235 -0.04350380599 5.962428276e-39
0.1488022804 -0.4352703094 -0.2312107682 5.962428276e-39
0.1811045557 -0.4671356082 -0.2218960077 5.962428276e-39
0.1789610386 -0.4706346095 -0.1935690492 5.962428276e-39
0.1626524329 -0.413589716 -0.2174714804 5.962428276e-39
0.1483088136 -0.1089550853 -0.3243755698 5.962428276e-39
0.1610274017 -0.2320932448 -0.3292832971 5.962428276e-39
0.1672295034 -0.16468063 -0.3197401762 5.962428276e-39
0.1616694331 -0.1017820612 -0.299718082 5.962428276e-39
0.16421628 -0.1611000597 0.1866425425 5.962428276e-39
0.1780796796 -0.2526754737 0.1965986639 5.962428276e-39
0.1723867059 -0.1803936362 0.1943913698 5.962428276e-39
0.1857063472 -0.1280899942 0.1878727376 5.962428276e-39
0.1601451188 -0.1804732233 -0.2529129684 5.962428276e-39
0.1709245443 -0.2900146544 -0.2477285415 5.962428276e-39
0.1603307426 -0.2201709747 -0.2398401946 5.962428276e-39
0.1554265916 -0.1397376508 -0.220652476 5.962428276e-39
0.1656568348 -0.221094355 -0.1159744784 5.962428276e-39
0.1754428446 -0.303491354 -0.1073843464 5.962428276e-39
0.1683621705 -0.2644113302 -0.09540373087 5.962428276e-39
0.171782732 -0.1800948977 -0.09305304289 5.962428276e-39
0.176400423 -0.2069868594 0.08415395021 5.962428276e-39
0.1803851426 -0.2895160615 0.09955523908 5.962428276e-39
0.1761775315 -0.2435441166 0.1051268578 5.962428276e-39
0.1825337112 -0.1755156964 0.1126032472 5.962428276e-39
-0.002986244857 -0.118672207 0.2756655812 5.962428276e-39
0.005821011961 -0.1446178257 0.280911386 5.962428276e-39
0.01287072152 -0.111824058 0.283010304 5.962428276e-39
0.02308910713 -0.1149808988 0.2841867208 5.962428276e-39
0.1253332794 -0.1296224445 0.1926719844 5.962428276e-39
0.1381860524 -0.239255473 0.2049802989 5.962428276e-39
0.1318547875 -0.1690540165 0.2059452087 5.962428276e-39
0.1496803463 -0.09904976189 0.2066028714 5.962428276e-39
-0.23778373 -0.4903457463 -0.2608470917 5.962428276e-39
-0.1802853942 -0.4824338555 -0.2897660732 5.962428276e-39
-0.2744829953 -0.490177691 -0.2026830912 5.962428276e-39
-0.2311370373 -0.4840881526 -0.2784339786 5.962428276e-39
-0.2245205939 -0.4947588444 -0.1736517996 5.962428276e-39
-0.08404863626 -0.4905935824 -0.2109153122 5.962428276e-39
-0.2159896195 -0.4986631274 -0.00843674317 5.962428276e-39
-0.1223218963 -0.4889074564 -0.09506566823 5.962428276e-39
0.1541842818 -0.2017475218 -0.1926522255 5.962428276e-39
0.1642220616 -0.2950523496 -0.1760900766 5.962428276e-39
0.1556453109 -0.248965174 -0.1619119942 5.962428276e-39
0.1588613391 -0.1787937731 -0.1521964967 5.962428276e-39
0.1366215944 -0.1540871263 -0.3274464011 5.962428276e-39
0.1549364179 -0.2782263756 -0.3302778602 5.962428276e-39
0.1625731885 -0.2098566741 -0.3273007274 5.962428276e-39
0.1541152298 -0.1378551424 -0.2994731665 5.962428276e-39
0.1000202075 -0.1380601525 -0.3122963309 5.962428276e-39
0.1118390262 -0.227042079 -0.3067452312 5.962428276e-39
0.1226132661 -0.1832268089 -0.3007292151 5.962428276e-39
0.1179926991 -0.127043128 -0.2866633534 5.962428276e-39
0.1476821303 -0.1225584298 -0.3250896335 5.962428276e-39
0.1639331877 -0.2272838801 -0.3303431273 5.962428276e-39
0.162569344 -0.1742829829 -0.318369627 5.962428276e-39
0.1589544415 -0.1116624549 -0.3030353189 5.962428276e-39
0.1675005555 -0.1673237234 0.08807338774 5.962428276e-39
0.1747546494 -0.2353915125 0.1015581489 5.962428276e-39
0.1683504879 -0.1865028888 0.1087008417 5.962428276e-39
0.1781509817 -0.1451795995 0.1067124605 5.962428276e-39
-0.2222681046 -0.4936902523 0.04084159434 5.962428276e-39
-0.08401188999 -0.4912284315 0.007607132196 5.962428276e-39
-0.1842529178 -0.5003391504 0.1854111105 5.962428276e-39
-0.1018521115 -0.4919476807 0.1186430305 5.962428276e-39
0.1519044042 -0.219577387 -0.08374275267 5.962428276e-39
0.164053902 -0.3004398048 -0.07490487397 5.962428276e-39
0.1479486078 -0.2647279501 -0.06566143036 5.962428276e-39
0.1532154083 -0.1834378093 -0.06444261968 5.962428276e-39
0.0420258455 -0.4537687302 -0.2684034705 5.962428276e-39
0.1004474759 -0.469843328 -0.2612834573 5.962428276e-39
0.07936766744 -0.4722783566 -0.2328186482 5.962428276e-39
0.07062119991 -0.4504896998 -0.2532196939 5.962428276e-39
0.1740922332 -0.2248127013 0.09967559576 5.962428276e-39
0.1823429465 -0.313873589 0.1112942547 5.962428276e-39
0.1758442819 -0.2580412626 0.1094943136 5.962428276e-39
0.1825397909 -0.1961082071 0.1135854274 5.962428276e-39
0.03347189724 -0.4674065411 -0.1507222652 5.962428276e-39
0.08967189491 -0.4763195813 -0.1490548253 5.962428276e-39
0.07685849816 -0.4778089523 -0.08915896714 5.962428276e-39
0.08889663219 -0.462759465 -0.1098810583 5.962428276e-39
0.1275087595 -0.1858347505 -0.324059844 5.962428276e-39
0.1449091136 -0.2781488895 -0.3297676444 5.962428276e-39
0.1487930119 -0.2191971242 -0.3239355087 5.962428276e-39
0.1412897855 -0.1649847478 -0.3033300042 5.962428276e-39
-0.174193114 -0.4107695222 -0.3259717822 5.962428276e-39
-0.1688261032 -0.4396885037 -0.3195515275 5.962428276e-39
-0.1843126118 -0.4165187478 -0.3118537664 5.962428276e-39
-0.1753071547 -0.3561861515 -0.3114612103 5.962428276e-39
0.1621135175 -0.3424092829 0.005229000002 5.962428276e-39
0.1773854643 -0.4266672432 0.02840917557 5.962428276e-39
0.1749584228 -0.387584269 0.03279422224 5.962428276e-39
0.1708775163 -0.2978235781 0.04589844495 5.962428276e-39
0.1818260401 -0.3335458636 -0.2141020149 5.962428276e-39
0.1968353987 -0.4148449302 -0.2048531175 5.962428276e-39
0.1945599169 -0.3821323514 -0.1915031224 5.962428276e-39
0.1871339083 -0.2990196645 -0.1840992719 5.962428276e-39
0.1835892051 -0.3062639534 -0.2841200233 5.962428276e-39
0.1939588487 -0.4013083875 -0.2829459906 5.962428276e-39
0.1984609663 -0.3533431292 -0.2744973898 5.962428276e-39
0.1878005564 -0.2557252645 -0.2632879913 5.962428276e-39
-0.2578217983 -0.4911177456 -0.2080269456 5.962428276e-39
-0.1791151166 -0.4830355644 -0.2395251691 5.962428276e-39
-0.2709773779 -0.4924168885 -0.1204675734 5.962428276e-39
-0.221819669 -0.4867098927 -0.1863129288 5.962428276e-39
0.1617116034 -0.2023146898 -0.1802011728 5.962428276e-39
0.1737945676 -0.3013631701 -0.1775829047 5.962428276e-39
0.1631259024 -0.244236365 -0.176949665 5.962428276e-39
0.1648040712 -0.1697710603 -0.1624089032 5.962428276e-39
0.08104976267 -0.1166353971 0.2851987481 5.962428276e-39
0.09674604982 -0.1547765136 0.288621366 5.962428276e-39
0.1023373902 -0.1112583652 0.285015583 5.962428276e-39
0.1019692123 -0.1070358306 0.297328949 5.962428276e-39
0.1785828471 -0.2354871333 0.1715551466 8.906165387e-39
0.1950897574 -0.327116102 0.1903221011 8.906165387e-39
0.1910220385 -0.2688221931 0.1895435452 8.906165387e-39
0.1966915131 -0.1872029752 0.1865573823 8.906165387e-39
0.1527358592 -0.4245681763 -0.1293885112 8.906165387e-39
0.1729967296 -0.4631959796 -0.1195755973 8.906165387e-39
0.1782601178 -0.4538890123 -0.09560239315 8.906165387e-39
0.167881757 -0.3990637362 -0.1085821912 8.906165387e-39
-0.2568036914 -0.4875245988 -0.2322705686 8.906165387e-39
-0.188493371 -0.4793064892 -0.2648038268 8.906165387e-39
-0.2756105065 -0.4894880056 -0.1854576617 8.906165387e-39
-0.2374840975 -0.4798731208 -0.2578590512 8.906165387e-39
0.04680619389 -0.08957922459 0.2744067311 8.906165387e-39
0.05525087565 -0.1456993222 0.2756195664 8.906165387e-39
0.06797538698 -0.09360840917 0.2792503238 8.906165387e-39
0.0635214895 -0.07733128965 0.2763943076 8.906165387e-39
0.13431862 -0.4581709504 0.3000487685 8.906165387e-39
0.1423728168 -0.4758971632 0.3016058803 8.906165387e-39
0.1488913894 -0.4656618237 0.301864028 8.906165387e-39
0.1674802899 -0.4072050452 0.3018327951 8.906165387e-39
0.1540346146 -0.209963277 -0.1237628385 8.906165387e-39
0.1665433347 -0.297580272 -0.1150073633 8.906165387e-39
0.1525551975 -0.2542911768 -0.1046625078 8.906165387e-39
0.1561640501 -0.1702047586 -0.1015458256 8.906165387e-39
0.1592329741 -0.2423476577 0.1169702709 8.906165387e-39
0.1657101363 -0.3276454508 0.1338114589 8.906165387e-39
0.1595285088 -0.2840675414 0.1364267468 8.906165387e-39
0.1662624925 -0.2014280409 0.1443536282 8.906165387e-39
0.1533760428 -0.1838733405 0.1426918507 8.906165387e-39
0.1655144691 -0.2832951546 0.1606656611 8.906165387e-39
0.1549805105 -0.2170849293 0.1676800102 8.906165387e-39
0.1705167592 -0.1391716748 0.1623969078 8.906165387e-39
0.1622436792 -0.3485797048 -0.04867422581 8.906165387e-39
0.1654065549 -0.4272399843 -0.03628801554 8.906165387e-39
0.1570019722 -0.3913738132 -0.02209428139 8.906165387e-39
0.1650143713 -0.3008340597 -0.0222188551 8.906165387e-39
-0.102264367 -0.4246548712 0.3069384098 8.906165387e-39
-0.08532553166 -0.4567462206 0.2983312607 8.906165387e-39
-0.09380874783 -0.4375277162 0.2885422707 8.906165387e-39
-0.0832214728 -0.3941981792 0.294818759 8.906165387e-39
0.1599922627 -0.2034065574 -0.2467543483 8.906165387e-39
0.1727401614 -0.3206645548 -0.2456790656 8.906165387e-39
0.1659150422 -0.242789194 -0.2409469634 8.906165387e-39
0.1569873691 -0.1526126862 -0.2268117666 8.906165387e-39
-0.2154027224 -0.49514696 0.2426655143 8.906165387e-39
-0.06620948762 -0.4903879464 0.2118732482 8.906165387e-39
-0.1656729877 -0.5075241327 0.2956855893 8.906165387e-39
-0.1003453955 -0.4947569668 0.2910974622 8.906165387e-39
0.1504414678 -0.2162796408 -0.2399014235 8.906165387e-39
0.1632106006 -0.3249187768 -0.2378766835 8.906165387e-39
0.1583833694 -0.2594808042 -0.2356451154 8.906165387e-39
0.1492578834 -0.165226981 -0.2191271782 8.906165387e-39
-0.2019455135 -0.3941280842 -0.3126480579 8.906165387e-39
-0.2020774186 -0.4201414883 -0.3035620451 8.906165387e-39
-0.2093083858 -0.395898819 -0.3204585314 8.906165387e-39
-0.2040442228 -0.3355870545 -0.3093835711 8.906165387e-39
0.08366473764 -0.1565431058 -0.3215999007 8.906165387e-39
0.09227645397 -0.2931604385 -0.3301964998 8.906165387e-39
0.09722493589 -0.2139748335 -0.3210149407 8.906165387e-39
0.09264403582 -0.1203199998 -0.304264605 8.906165387e-39
0.1540247053 -0.2313081175 0.3361353278 8.906165387e-39
0.1597597897 -0.3251760602 0.3358217478 8.906165387e-39
0.1520758569 -0.2589638829 0.3390462995 8.906165387e-39
0.1641422808 -0.1992880553 0.3392663598 8.906165387e-39
-0.2304628193 -0.4918095469 -0.000325255096 8.906165387e-39
-0.08107606322 -0.4893420041 -0.02740018629 8.906165387e-39
-0.2063273191 -0.4986313879 0.1382107288 8.906165387e-39
-0.1087894216 -0.4887133837 0.07184464484 8.906165387e-39
0.09850184619 -0.3071546853 -0.3235731721 8.906165387e-39
0.1112595201 -0.417416513 -0.3255607486 8.906165387e-39
0.1127565354 -0.3662103713 -0.3187593222 8.906165387e-39
0.1085332185 -0.2720614672 -0.3036003113 8.906165387e-39
0.06455828249 -0.4286141396 -0.1976293027 8.906165387e-39
0.09142352641 -0.4559927881 -0.1870260686 8.906165387e-39
0.08681414276 -0.4492555857 -0.1662744284 8.906165387e-39
0.08213756233 -0.4020967185 -0.1773660332 8.906165387e-39
-0.1419715881 -0.4285059273 0.325222373 8.906165387e-39
-0.1253809035 -0.4564090371 0.3199655414 8.906165387e-39
-0.1356960535 -0.4318847358 0.3026997447 8.906165387e-39
-0.1257093549 -0.3897092938 0.3117216825 8.906165387e-39
-0.02202456445 -0.3613789976 -0.3194431067 8.906165387e-39
-0.008807882667 -0.4310370982 -0.3016497493 8.906165387e-39
-0.01275216788 -0.4030200541 -0.3156247139 8.906165387e-39
-0.007352650166 -0.298312515 -0.312007606 8.906165387e-39
0.03235380352 -0.1602159142 -0.3303214312 8.906165387e-39
0.04197429493 -0.2149854302 -0.3395193219 8.906165387e-39
0.04858760163 -0.1741877645 -0.3305040002 8.906165387e-39
0.0479908213 -0.1415447891 -0.317730248 8.906165387e-39
-0.2794601619 -0.494669497 -0.1091676429 8.906165387e-39
-0.1547647417 -0.4878928959 -0.1372169405 8.906165387e-39
-0.2756353021 -0.4972451925 0.02010633796 8.906165387e-39
-0.1886269748 -0.487622112 -0.05287022516 8.906165387e-39
-0.2344359756 -0.4900478125 -0.1248734221 8.906165387e-39
-0.126434505 -0.4902388453 -0.1478496343 8.906165387e-39
-0.2356341183 -0.4952543974 -0.008519012481 8.906165387e-39
-0.1576277614 -0.4887557328 -0.06511130929 8.906165387e-39
0.1194057018 -0.2139184624 0.2769457698 8.906165387e-39
0.1352224648 -0.3290256858 0.2841062546 8.906165387e-39
0.1336235553 -0.2394078821 0.283696413 8.906165387e-39
0.1380174756 -0.1716132462 0.2820192575 8.906165387e-39
0.182153374 -0.215191111 -0.2855377793 8.906165387e-39
0.1984066665 -0.3055137694 -0.2784301341 8.906165387e-39
0.1941210926 -0.2490408868 -0.2731545866 8.906165387e-39
0.1814202666 -0.1771817654 -0.2549874485 8.906165387e-39
0.04508500174 -0.1903992444 -0.3347467184 8.906165387e-39
0.05900655687 -0.2793450356 -0.3325056434 8.906165387e-39
0.07447136194 -0.2259276658 -0.3368115425 8.906165387e-39
0.07058150321 -0.1620244533 -0.3186461926 8.906165387e-39
0.1718506217 -0.2584928274 -0.2759587169 8.906165387e-39
0.185531795 -0.3535534441 -0.2690162659 8.906165387e-39
0.1887600124 -0.3108232617 -0.2632482946 8.906165387e-39
0.1747978777 -0.2026703656 -0.2397309095 8.906165387e-39
0.1221485585 -0.2040243745 -0.3326278329 8.906165387e-39
0.1398524642 -0.3391243219 -0.3381459117 8.906165387e-39
0.1494736075 -0.2671700418 -0.3322714567 8.906165387e-39
0.1365470439 -0.1538785994 -0.3036912084 8.906165387e-39
0.040374659 -0.4343498051 -0.1786893755 8.906165387e-39
0.07191640884 -0.4516146183 -0.17137447 8.906165387e-39
0.06830199063 -0.4480558932 -0.1562169194 8.906165387e-39
0.06538179517 -0.4179137051 -0.1670105159 8.906165387e-39
0.1513987035 -0.2503507435 -0.2122911066 8.906165387e-39
0.1688061208 -0.3407097459 -0.2104171365 8.906165387e-39
0.1600660086 -0.290514946 -0.2022782266 8.906165387e-39
0.1587997377 -0.2093948573 -0.1905293018 8.906165387e-39
0.1806185693 -0.2279778272 0.129017517 8.906165387e-39
0.1908468753 -0.315775156 0.1432073265 8.906165387e-39
0.1834045351 -0.2634956241 0.1444308013 8.906165387e-39
0.1886844039 -0.1892486662 0.1541868448 8.906165387e-39
0.1779959798 -0.2247992009 -0.1068743542 1.184631237e-38
0.1904875636 -0.3069745004 -0.09624628723 1.184631237e-38
0.1794299781 -0.2628055811 -0.08430776 1.184631237e-38
0.1789650619 -0.1885855198 -0.08349142224 1.184631237e-38
0.1050766781 -0.1957861185 0.3017084599 1.184631237e-38
0.1223143339 -0.309279561 0.3111186624 1.184631237e-38
0.1187605709 -0.2242118269 0.3084303141 1.184631237e-38
0.1269277483 -0.1484553367 0.3073952198 1.184631237e-38
-0.2489238381 -0.493807286 0.1837622374 1.184631237e-38
-0.128577441 -0.4902877212 0.1555907875 1.184631237e-38
-0.1999385357 -0.5034074187 0.2594849467 1.184631237e-38
-0.1475270987 -0.4929633439 0.2449991256 1.184631237e-38
0.1421562582 -0.285358727 -0.1426552534 1.184631237e-38
0.1542345583 -0.3628723919 -0.1314239502 1.184631237e-38
0.1400570124 -0.3263194859 -0.1192793548 1.184631237e-38
0.144980967 -0.2593483329 -0.1158302799 1.184631237e-38
-0.3132733703 -0.4913447201 0.03892034292 1.184631237e-38
-0.1815232635 -0.4881741703 -0.0003365837038 1.184631237e-38
-0.280349046 -0.4990761578 0.176251784 1.184631237e-38
-0.2075590789 -0.4893929958 0.1032798588 1.184631237e-38
-0.2993299365 -0.4771568477 -0.1852858812 1.184631237e-38
-0.2448140681 -0.4796183109 -0.2017373294 1.184631237e-38
-0.3245566785 -0.4840850234 -0.1186789125 1.184631237e-38
-0.3009648025 -0.4777997136 -0.184507221 1.184631237e-38
-0.2759104073 -0.4860790372 -0.07658076286 1.184631237e-38
-0.1651811302 -0.4884960353 -0.1044716462 1.184631237e-38
-0.2682301402 -0.4936810434 0.02900657058 1.184631237e-38
-0.1932967901 -0.4875196517 -0.02350228652 1.184631237e-38
0.07451853156 -0.1981554776 0.289853394 1.184631237e-38
0.08292723447 -0.2801502049 0.2902290225 1.184631237e-38
0.07399041206 -0.2178192884 0.29691571 1.184631237e-38
0.07337634265 -0.1737548262 0.2960836291 1.184631237e-38
-0.009933583438 -0.1031826213 -0.3353034854 1.184631237e-38
0.007181815803 -0.177546531 -0.3414778113 1.184631237e-38
0.02224969119 -0.1282032132 -0.3419553041 1.184631237e-38
0.02237635851 -0.09443545341 -0.3283002973 1.184631237e-38
0.1798886359 -0.2264974415 -0.2494620085 1.184631237e-38
0.2001302689 -0.3192738891 -0.2554343641 1.184631237e-38
0.1929311603 -0.2698588371 -0.2536867559 1.184631237e-38
0.1858972907 -0.1861130297 -0.2407799214 1.184631237e-38
-0.01565362513 -0.1191726923 0.284166038 1.184631237e-38
-0.01008975506 -0.168349117 0.2926794291 1.184631237e-38
-0.0008663609624 -0.1204899102 0.2899149656 1.184631237e-38
0.002891294658 -0.1044187099 0.2935042977 1.184631237e-38
0.1144792959 -0.2271964103 0.278552413 1.184631237e-38
0.1310580969 -0.3378652036 0.2905089259 1.184631237e-38
0.1285562217 -0.2597820759 0.2939479351 1.184631237e-38
0.1382720321 -0.1739277095 0.2902623415 1.184631237e-38
0.1674079001 -0.2896178365 -0.2275612652 1.184631237e-38
0.1802103668 -0.387199074 -0.2194201797 1.184631237e-38
0.1725823581 -0.3380719125 -0.207367599 1.184631237e-38
0.1697061658 -0.2346350104 -0.1979143173 1.184631237e-38
0.1803224087 -0.3625631928 -0.03384938464 1.184631237e-38
0.1879637241 -0.4437736869 -0.01442804933 1.184631237e-38
0.1802462041 -0.4097640812 0.002579160035 1.184631237e-38
0.1841369569 -0.3120466173 0.003964938223 1.184631237e-38
0.1633160859 -0.3149549961 -0.2231993675 1.184631237e-38
0.1736920029 -0.3971068263 -0.2078748792 1.184631237e-38
0.1674038768 -0.356266588 -0.1884279549 1.184631237e-38
0.1649062932 -0.2600061893 -0.1856162548 1.184631237e-38
0.1642154604 -0.2201560885 -0.3181410432 1.184631237e-38
0.1722412109 -0.3508785963 -0.3295593262 1.184631237e-38
0.1923712194 -0.2846274078 -0.3211885095 1.184631237e-38
0.1748926193 -0.1658197492 -0.2883894444 1.184631237e-38
0.1664422154 -0.3444567621 0.1434494853 1.184631237e-38
0.1696124971 -0.4295571446 0.1523114294 1.184631237e-38
0.1691845953 -0.3849469423 0.1461299956 1.184631237e-38
0.1704766154 -0.3011884093 0.1488997042 1.184631237e-38
0.03396954387 -0.1426226497 -0.3364239335 1.184631237e-38
0.04985373467 -0.2114961445 -0.3366303444 1.184631237e-38
0.06398812681 -0.1642222404 -0.3359740973 1.184631237e-38
0.05890266597 -0.1305586398 -0.321919322 1.184631237e-38
0.1252144426 -0.1947967261 -0.3145526052 1.184631237e-38
0.1362354457 -0.3235819638 -0.3179074526 1.184631237e-38
0.1464333981 -0.2543513179 -0.3114972711 1.184631237e-38
0.1338208616 -0.1523944587 -0.2855156958 1.184631237e-38
0.07555628568 -0.465841651 0.2664952874 1.184631237e-38
0.1024148837 -0.477078706 0.2672194839 1.184631237e-38
0.09106829762 -0.4790786207 0.2772784233 1.184631237e-38
0.1003510058 -0.4468863606 0.2741984725 1.184631237e-38
0.01107521355 -0.1018926352 -0.3197940588 1.184631237e-38
0.0284370929 -0.1868015081 -0.3210031986 1.184631237e-38
0.04046678543 -0.133864969 -0.3192062378 1.184631237e-38
0.0446678251 -0.09317814559 -0.3077605367 1.184631237e-38
-0.2504907548 -0.4934974611 -0.2140910029 1.184631237e-38
-0.1134882942 -0.489461273 -0.2450489551 1.184631237e-38
-0.2596051991 -0.4985466003 -0.07946743071 1.184631237e-38
-0.1476064324 -0.4870891571 -0.1578674912 1.184631237e-38
0.1144879609 -0.2653716207 0.2886602879 1.184631237e-38
0.1323458403 -0.3362948596 0.3000518084 1.184631237e-38
0.1372279376 -0.2772486806 0.2980898619 1.184631237e-38
0.1322775185 -0.2317617238 0.296862781 1.184631237e-38
0.1445679218 -0.2264502048 -0.3180438876 1.184631237e-38
0.1602261662 -0.3234946132 -0.3194812536 1.184631237e-38
0.1588107646 -0.2675763369 -0.3149257898 1.184631237e-38
0.1460189968 -0.190317899 -0.2941035628 1.184631237e-38
0.1533033252 -0.2735856771 -0.2694679499 1.184631237e-38
0.1628191173 -0.3634174168 -0.2733024955 1.184631237e-38
0.1615887284 -0.3200673461 -0.2645152211 1.184631237e-38
0.1540650278 -0.2401540875 -0.2494080514 1.184631237e-38
-0.2427435815 -0.4861905873 0.04213101417 1.184631237e-38
-0.1540914178 -0.4869338274 0.02963409573 1.184631237e-38
-0.2186362743 -0.492017895 0.1095731258 1.184631237e-38
-0.1622956991 -0.485883832 0.07004623115 1.184631237e-38
0.166289106 -0.3361646533 0.005567740649 1.184631237e-38
0.1781276613 -0.4099388719 0.02587398887 1.184631237e-38
0.1772463024 -0.3742575049 0.03107251972 1.184631237e-38
0.1734005511 -0.3020945489 0.04098237306 1.184631237e-38
0.1566843987 -0.3342802823 -0.006599452347 1.184631237e-38
0.1669497043 -0.4115535319 0.009916223586 1.184631237e-38
0.1648951173 -0.3732155859 0.02213275433 1.184631237e-38
0.1595082283 -0.2918211222 0.02658265829 1.184631237e-38
0.09733133763 -0.2297063172 -0.3479963541 1.184631237e-38
0.1057235301 -0.3526534736 -0.3540264964 1.184631237e-38
0.1146487892 -0.2908174992 -0.3541383743 1.184631237e-38
0.1050735116 -0.1758854389 -0.323851347 1.184631237e-38
0.1730129719 -0.2615233362 -0.05136924982 1.184631237e-38
0.1844361126 -0.3347173929 -0.03497265279 1.184631237e-38
0.17848441 -0.3035403788 -0.02519349754 1.184631237e-38
0.1763064861 -0.2228556871 -0.02567060292 1.184631237e-38
0.1799956858 -0.2714721262 -0.1330373734 1.184631237e-38
0.197462827 -0.3426117897 -0.1198228002 1.184631237e-38
0.1900822222 -0.3100201786 -0.111020349 1.184631237e-38
0.1827883273 -0.2333159447 -0.1110316589 1.184631237e-38
0.02112112194 -0.2717186809 -0.3427430987 1.184631237e-38
