# .PCD v0.7 - Point Cloud Data file format
VERSION 0.7
FIELDS x y z rgb
SIZE 4 4 4 4
TYPE F F F F
COUNT 1 1 1 1
WIDTH 852
HEIGHT 1
VIEWPOINT 0 0 0 1 0 0 0
POINTS 852
DATA ascii
0.3868825436 -0.3095966578 0.1006553024 5.962428276e-39
0.2164389938 -0.2725881636 0.09059236944 5.962428276e-39
0.2301696092 -0.3106271327 0.09602586925 5.962428276e-39
0.2221829891 -0.1937488317 0.1033523083 5.962428276e-39
0.2256718874 -0.3430475593 0.1016004086 5.962428276e-39
0.08488540351 -0.2141184509 0.1455445141 5.962428276e-39
0.08233918995 -0.2740104198 0.1532218754 5.962428276e-39
0.07473604381 -0.1502929032 0.1538586915 5.962428276e-39
0.08191411197 -0.3429428041 0.1522247046 5.962428276e-39
0.08994022012 -0.1859434843 0.2063075751 5.962428276e-39
0.08794817328 -0.2276087999 0.213923052 5.962428276e-39
0.07902088016 -0.1392226815 0.2281199843 5.962428276e-39
0.08522584289 -0.2793554068 0.2200877666 5.962428276e-39
0.08176779747 -0.1618998796 0.1883995831 5.962428276e-39
0.08455076069 -0.2272966802 0.1974842548 5.962428276e-39
0.07882074267 -0.09944407642 0.2045609355 5.962428276e-39
0.0822321102 -0.3102200627 0.2042158544 5.962428276e-39
0.08772167563 -0.1370849162 0.1984927505 5.962428276e-39
0.09175305068 -0.1889951825 0.1991287917 5.962428276e-39
0.07917972654 -0.08451673388 0.2069129348 5.962428276e-39
0.08614171296 -0.261200428 0.2062059492 5.962428276e-39
0.2461213619 -0.22568959 0.09034404904 5.962428276e-39
0.2573564053 -0.2711223066 0.08908353001 5.962428276e-39
0.2481399626 -0.1522894651 0.09427707642 5.962428276e-39
0.2497401386 -0.3253677189 0.09501942247 5.962428276e-39
0.2575762868 -0.2539072037 0.1102077067 5.962428276e-39
0.2752425671 -0.2923118174 0.1058159918 5.962428276e-39
0.2613981366 -0.1749581397 0.1144746691 5.962428276e-39
0.2641926408 -0.336818397 0.111732915 5.962428276e-39
0.1850890815 -0.2593386471 0.1073901653 5.962428276e-39
0.2004522234 -0.3008282483 0.1094144881 5.962428276e-39
0.1936541647 -0.1842656732 0.1136223376 5.962428276e-39
0.1937338859 -0.3366558254 0.1143572778 5.962428276e-39
0.08288566768 0.05648032576 0.1576123089 5.962428276e-39
0.08459036052 0.04086631536 0.2058586031 5.962428276e-39
0.08086306602 0.04780583084 0.2384795099 5.962428276e-39
0.08451099694 -0.005810659379 0.2091956735 5.962428276e-39
0.1669038087 -0.2611681223 0.1091635972 5.962428276e-39
0.1932511479 -0.328930974 0.1131910086 5.962428276e-39
0.2124525011 -0.1900126934 0.1167182475 5.962428276e-39
0.2130315304 -0.4006947279 0.1151693612 5.962428276e-39
0.106654495 -0.09720862657 0.2325321883 5.962428276e-39
0.1188236773 -0.1306675822 0.2381555289 5.962428276e-39
0.1162531674 -0.07257175446 0.245804891 5.962428276e-39
0.1180173755 -0.18120116 0.2436964363 5.962428276e-39
0.1740320027 -0.297783494 0.1035329551 5.962428276e-39
0.1863605082 -0.3450440466 0.1078140438 5.962428276e-39
0.1735703647 -0.2281641662 0.1085653454 5.962428276e-39
0.1824458838 -0.3876714408 0.110894531 5.962428276e-39
0.08119225502 -0.2113403976 0.1729432791 5.962428276e-39
0.0782360658 -0.2774254084 0.1781991422 5.962428276e-39
0.06926488131 -0.1363629401 0.1822361201 5.962428276e-39
0.07663659751 -0.3540130854 0.1800600439 5.962428276e-39
0.08577669412 -0.1092981249 0.1973579973 8.906165387e-39
0.08864355087 -0.1558544636 0.2156757712 8.906165387e-39
0.08124106377 -0.07816954702 0.2223243862 8.906165387e-39
0.08537580073 -0.2285670936 0.2148404419 8.906165387e-39
0.08965689689 -0.2282179892 0.1456104219 8.906165387e-39
0.08702936023 -0.2954565585 0.150769338 8.906165387e-39
0.08045634627 -0.1624998599 0.1624158919 8.906165387e-39
0.08700230718 -0.365281105 0.1607051194 8.906165387e-39
0.1055576131 -0.1511999965 0.2371106893 8.906165387e-39
0.1168812215 -0.1816293299 0.2435200363 8.906165387e-39
0.1111404896 -0.1216257215 0.2412527651 8.906165387e-39
0.113458097 -0.2359942198 0.2393826097 8.906165387e-39
0.1048609912 -0.2473731637 0.2019938082 8.906165387e-39
0.09919246286 -0.288253963 0.2033912241 8.906165387e-39
0.09346770495 -0.1992527246 0.2176935375 8.906165387e-39
0.1002811939 -0.3395176828 0.2102290839 8.906165387e-39
0.1522207856 -0.2677634656 0.09456145763 8.906165387e-39
0.1586884111 -0.3317936957 0.1009546518 8.906165387e-39
0.1440650821 -0.1917082071 0.1013377011 8.906165387e-39
0.152047798 -0.394398421 0.1018258929 8.906165387e-39
0.06989138573 -0.04738662392 0.204840973 8.906165387e-39
0.0745344758 -0.08249939978 0.2293031961 8.906165387e-39
0.06885864586 -0.03689171001 0.2401160747 8.906165387e-39
0.07131305337 -0.1434760392 0.2283708304 8.906165387e-39
0.0850796327 -0.2884747386 0.1328556091 8.906165387e-39
0.07965726405 -0.3458091021 0.1293236166 8.906165387e-39
0.07340247184 -0.2182682455 0.140768975 8.906165387e-39
0.08040365577 -0.4016192555 0.1387909949 8.906165387e-39
0.1051201522 -0.2050548494 0.2134270519 8.906165387e-39
0.104320921 -0.2621200979 0.218118012 8.906165387e-39
0.09602778405 -0.1455684006 0.2259203494 8.906165387e-39
0.1026300043 -0.3389841616 0.2218905091 8.906165387e-39
0.1027488038 -0.06278781593 0.2217542678 8.906165387e-39
0.126711607 -0.06298486143 0.2348525375 8.906165387e-39
0.1392617971 -0.06535148621 0.2415860146 8.906165387e-39
0.1308267117 -0.08902980387 0.2364191562 8.906165387e-39
0.1525572985 -0.22347489 0.08892019838 8.906165387e-39
0.1805063933 -0.2713667154 0.09286729246 8.906165387e-39
0.1718631834 -0.1610169113 0.08949618042 8.906165387e-39
0.1696466804 -0.3441526592 0.09445850551 8.906165387e-39
0.1275402457 -0.2722744942 0.09778317064 8.906165387e-39
0.134869203 -0.3402991891 0.1055120528 8.906165387e-39
0.1261206269 -0.1851783693 0.107874766 8.906165387e-39
0.1282806844 -0.4038404822 0.1057581455 8.906165387e-39
0.1287870556 -0.2869470417 0.1035644561 8.906165387e-39
0.1403410584 -0.3511201441 0.1098861247 8.906165387e-39
0.1270571798 -0.2103666365 0.1123070568 8.906165387e-39
0.1304126382 -0.4125840664 0.109622106 8.906165387e-39
0.1849837005 -0.2148480713 0.09487515688 8.906165387e-39
0.2056925297 -0.2650182843 0.09792602062 8.906165387e-39
0.1999575347 -0.1414489597 0.0978018716 8.906165387e-39
0.1995806098 -0.3444775641 0.09975759685 8.906165387e-39
0.08613114804 -0.1071304381 0.2044260651 8.906165387e-39
0.09305763245 -0.1556520313 0.213614285 8.906165387e-39
0.08653033525 -0.06624916196 0.2193657458 8.906165387e-39
0.08816746622 -0.2317809165 0.2155934423 8.906165387e-39
0.08705276251 -0.1460792571 0.1845563203 8.906165387e-39
0.08896643668 -0.2053952217 0.1976148635 8.906165387e-39
0.08063543588 -0.08960942924 0.2089856118 8.906165387e-39
0.08502756059 -0.2844433188 0.2052161396 8.906165387e-39
0.09343749285 -0.2377451658 0.1041129678 8.906165387e-39
0.09483001381 -0.320934087 0.10977377 8.906165387e-39
0.08382498473 -0.1530577987 0.1159622818 8.906165387e-39
0.08907438815 -0.3953239322 0.1104318053 8.906165387e-39
0.3001865149 -0.2285751402 0.0957191512 8.906165387e-39
0.3140308857 -0.2697035968 0.09215831757 8.906165387e-39
0.308564961 -0.1664453447 0.09949546307 8.906165387e-39
0.3090173602 -0.3266433477 0.09841731936 8.906165387e-39
0.1371624172 -0.2174563408 0.09344419837 8.906165387e-39
0.1499375105 -0.2864075601 0.1014959738 8.906165387e-39
0.1385143101 -0.1426522136 0.1003841087 8.906165387e-39
0.137556687 -0.3667580187 0.09944299608 8.906165387e-39
0.08115290105 -0.2135463059 0.1414739639 8.906165387e-39
0.07936156541 -0.2752846181 0.1477520317 8.906165387e-39
0.06811602414 -0.1520621479 0.1535424143 8.906165387e-39
0.07569857687 -0.3525398076 0.150613144 8.906165387e-39
0.2768034339 -0.311560154 0.09293738008 8.906165387e-39
0.2944050431 -0.3449467421 0.09597148746 8.906165387e-39
0.2826032043 -0.247983098 0.1010315791 8.906165387e-39
0.2859947681 -0.3863492608 0.09608902782 8.906165387e-39
0.1159248054 -0.2699406147 0.08372861892 8.906165387e-39
0.1128444225 -0.3450416625 0.0900978148 8.906165387e-39
0.1065305173 -0.1825434864 0.09500608593 8.906165387e-39
0.1060707271 -0.4150685966 0.09265738726 8.906165387e-39
0.1452376693 -0.2109392583 0.1004175395 8.906165387e-39
0.1686068475 -0.2619976103 0.1066941619 8.906165387e-39
0.1698030531 -0.1518682837 0.1052384675 8.906165387e-39
0.1649224013 -0.3466223478 0.1061482877 8.906165387e-39
0.09484811872 -0.04575705528 0.1842336357 8.906165387e-39
0.1025586054 -0.05063477159 0.2196621299 8.906165387e-39
0.09379605204 -0.04956811666 0.2418300658 8.906165387e-39
0.09799724072 -0.09778259695 0.2228734493 8.906165387e-39
0.3967561722 -0.2434442043 0.1311816424 8.906165387e-39
0.4078372121 -0.2702996135 0.1189606488 8.906165387e-39
0.3959921598 -0.1760569215 0.1176092923 8.906165387e-39
0.4067288041 -0.3005101383 0.1198288649 8.906165387e-39
0.1141360998 -0.2594485581 0.09883043915 8.906165387e-39
0.1102471054 -0.3376683295 0.1043036133 8.906165387e-39
0.1016903445 -0.1722630113 0.1108792573 8.906165387e-39
0.1028134078 -0.4074018896 0.1061574072 8.906165387e-39
0.120705694 -0.2386873662 0.1845543832 8.906165387e-39
0.118416816 -0.2760136425 0.1854825169 8.906165387e-39
0.1119272709 -0.197948277 0.197483927 8.906165387e-39
0.1125338674 -0.3230700195 0.191817537 8.906165387e-39
0.2439480573 -0.2297980189 0.1061799526 8.906165387e-39
0.2524131536 -0.27264449 0.1036349386 8.906165387e-39
0.2445442826 -0.1667641997 0.1053402722 8.906165387e-39
0.2470556945 -0.3384572566 0.1082546115 8.906165387e-39
0.08975851536 -0.1061493382 0.1915061325 8.906165387e-39
0.09631079435 -0.1571431756 0.1968383044 8.906165387e-39
0.08303073049 -0.05531781167 0.2056261897 8.906165387e-39
0.09078017622 -0.2309606671 0.2045304775 8.906165387e-39
0.342361927 -0.2489209771 0.1142501831 8.906165387e-39
0.3517997861 -0.276717484 0.1026656032 8.906165387e-39
0.3332411051 -0.1804320812 0.1089557707 8.906165387e-39
0.3440036774 -0.3084927797 0.1091161966 8.906165387e-39
0.08611682057 -0.1710575372 0.1862301379 8.906165387e-39
0.08413497359 -0.2372533977 0.1954606324 8.906165387e-39
0.08049960434 -0.1147912592 0.2035702467 8.906165387e-39
0.08360315114 -0.3151080012 0.2004764825 8.906165387e-39
0.1007820517 -0.2277090251 0.09478484094 8.906165387e-39
0.1006088108 -0.3137550354 0.102958709 8.906165387e-39
0.09361521155 -0.1507242471 0.1075661629 8.906165387e-39
0.09568236023 -0.391168505 0.1023081541 8.906165387e-39
0.1856566668 -0.1942692399 0.1044834703 8.906165387e-39
0.2075725794 -0.2415175438 0.1095237285 8.906165387e-39
0.206842795 -0.1305165887 0.1084729582 8.906165387e-39
0.2038668096 -0.314694196 0.1118963957 8.906165387e-39
0.09219846874 -0.2742095292 0.1059352756 1.184631237e-38
0.08929305524 -0.3472832441 0.1123048067 1.184631237e-38
0.07996326685 -0.1881572902 0.1193491966 1.184631237e-38
0.08762703091 -0.4076595902 0.1116873324 1.184631237e-38
0.0958557725 -0.2408274412 0.187228784 1.184631237e-38
0.08938755095 -0.2816203237 0.1901735663 1.184631237e-38
0.0844880715 -0.193761915 0.1991604567 1.184631237e-38
0.09013153613 -0.3303254247 0.1929625571 1.184631237e-38
0.1545487493 -0.2261355519 0.09590741247 1.184631237e-38
0.163335368 -0.2906118333 0.1052161604 1.184631237e-38
0.1527601779 -0.1536799073 0.1028404087 1.184631237e-38
0.1575064808 -0.3622105122 0.1035995781 1.184631237e-38
0.07889387012 -0.156831935 0.1988374442 1.184631237e-38
0.07755941898 -0.2195593715 0.2103568465 1.184631237e-38
0.06844287366 -0.09931690246 0.2252176702 1.184631237e-38
0.07531038672 -0.3016519845 0.2204270512 1.184631237e-38
0.09020468593 -0.20056355 0.09242158383 1.184631237e-38
0.08644615859 -0.2803266346 0.09985821694 1.184631237e-38
0.08028069139 -0.1217258647 0.1022136882 1.184631237e-38
0.08212275058 -0.3632842898 0.09905812889 1.184631237e-38
0.1413350999 -0.2019003034 0.09813167155 1.184631237e-38
0.1527573615 -0.2669302225 0.1067262143 1.184631237e-38
0.1411860287 -0.1239878088 0.1068931818 1.184631237e-38
0.1433862746 -0.3470501602 0.1059283465 1.184631237e-38
0.08282463998 -0.1798964441 0.1805369109 1.184631237e-38
0.08109951019 -0.2511020899 0.1861772239 1.184631237e-38
0.0744073689 -0.11196132 0.194055751 1.184631237e-38
0.07775672525 -0.3322192132 0.19137761 1.184631237e-38
0.1126353443 -0.2294766009 0.1072433591 1.184631237e-38
0.1091416031 -0.3103638887 0.1121559143 1.184631237e-38
0.09894850105 -0.1468095183 0.1174948812 1.184631237e-38
0.1018378437 -0.3823198378 0.114611581 1.184631237e-38
0.1056545302 -0.07008236647 0.2161139399 1.184631237e-38
0.1132639199 -0.08440208435 0.232237801 1.184631237e-38
0.1083377004 -0.05601759255 0.2373684198 1.184631237e-38
0.1117745787 -0.1346511245 0.2298157364 1.184631237e-38
0.1414069533 -0.2416807413 0.1157332063 1.184631237e-38
0.1516826451 -0.3147869706 0.1229011714 1.184631237e-38
0.1389576793 -0.1649035066 0.1264244318 1.184631237e-38
0.1415099651 -0.3850435019 0.1219403595 1.184631237e-38
0.09627895057 -0.2405273318 0.1094205379 1.184631237e-38
0.09449736029 -0.326517731 0.1101404428 1.184631237e-38
0.0833203271 -0.1463709474 0.1250800192 1.184631237e-38
0.08810223639 -0.3960434198 0.116876781 1.184631237e-38
0.09970456362 -0.181724906 0.1070644706 1.184631237e-38
0.09996557236 -0.2520482242 0.1151397228 1.184631237e-38
0.09343662113 -0.1095687002 0.1192024201 1.184631237e-38
0.09094636142 -0.342543602 0.1160837561 1.184631237e-38
0.09483417869 -0.2206600606 0.1272689253 1.184631237e-38
0.08852570504 -0.2969263494 0.1313561201 1.184631237e-38
0.0779132843 -0.1430719048 0.1384896785 1.184631237e-38
0.0845021084 -0.3745274544 0.135406971 1.184631237e-38
0.0804175809 -0.03753092885 0.1780468971 1.184631237e-38
0.08385873586 -0.07539488375 0.2104602605 1.184631237e-38
0.07506068796 -0.02959028073 0.2255328298 1.184631237e-38
0.08071754128 -0.1391226351 0.2086882144 1.184631237e-38
0.2090100497 -0.3040446639 0.1040609926 1.184631237e-38
0.225656122 -0.3506637514 0.10645926 1.184631237e-38
0.2168082297 -0.2421032786 0.1105259955 1.184631237e-38
0.2219041586 -0.3936377168 0.1057149917 1.184631237e-38
0.09306368977 -0.2584171593 0.1089638621 1.184631237e-38
0.08900053799 -0.3348660767 0.1159182638 1.184631237e-38
0.08051306009 -0.17345649 0.123120293 1.184631237e-38
0.08787191659 -0.402788192 0.1160269678 1.184631237e-38
0.1136655062 -0.08792347461 0.2086973786 1.184631237e-38
0.1277059168 -0.09840103239 0.224412784 1.184631237e-38
0.1246516109 -0.07474453747 0.2310578674 1.184631237e-38
0.127830714 -0.137434274 0.2213002443 1.184631237e-38
0.1094712317 -0.2191777527 0.1854204834 1.184631237e-38
0.1048148945 -0.2629085183 0.1939347982 1.184631237e-38
0.1009873673 -0.1789096892 0.2049811184 1.184631237e-38
0.1043599844 -0.3109563589 0.1981631815 1.184631237e-38
0.1291525364 -0.3027552962 0.09637481719 1.184631237e-38
0.1311980486 -0.3652640283 0.1031267792 1.184631237e-38
0.119264394 -0.2245771587 0.1068306267 1.184631237e-38
0.1264449358 -0.4162544608 0.10108345 1.184631237e-38
0.2559928298 -0.2266356647 0.1017799154 1.184631237e-38
0.2709857225 -0.2695671022 0.099978365 1.184631237e-38
0.2601641417 -0.1576279998 0.1071332246 1.184631237e-38
0.2631244063 -0.3300438523 0.1043084413 1.184631237e-38
0.09669121355 -0.3598161638 0.1836707294 1.184631237e-38
0.09245445579 -0.4017085433 0.1835783571 1.184631237e-38
0.08486756682 -0.2841739953 0.1899975389 1.184631237e-38
0.09196382761 -0.4169947505 0.1883444786 1.184631237e-38
0.2121992707 -0.1965763569 0.1031416655 1.184631237e-38
0.2171226293 -0.2436437607 0.1065706164 1.184631237e-38
0.2132442296 -0.1327689588 0.107430771 1.184631237e-38
0.2181289047 -0.3067232966 0.1080936491 1.184631237e-38
0.1100985259 -0.1323848367 0.2119956911 1.184631237e-38
0.114288047 -0.1617391706 0.2270299792 1.184631237e-38
0.1033027023 -0.1092212573 0.2357919961 1.184631237e-38
0.1089597344 -0.2087593377 0.2285592407 1.184631237e-38
0.1362179518 -0.202929318 0.1965546608 1.184631237e-38
0.1329884082 -0.2448395491 0.1988264173 1.184631237e-38
0.1301422715 -0.1546031535 0.2043468058 1.184631237e-38
0.1268264353 -0.2930420041 0.2038433403 1.184631237e-38
0.08542842418 -0.3053742051 0.1197739542 1.184631237e-38
0.08134126663 -0.3517462015 0.109565556 1.184631237e-38
0.07190917432 -0.231633693 0.1258734316 1.184631237e-38
0.08202399313 -0.3851081729 0.1233260632 1.184631237e-38
0.08378190547 -0.008612226695 0.1764082015 1.184631237e-38
0.08812194318 -0.0216463469 0.2112019211 1.184631237e-38
0.08633427322 -0.005632825196 0.2217042893 1.184631237e-38
0.0886426717 -0.0552784279 0.2025929987 1.184631237e-38
0.1159559488 -0.2092236876 0.09526826441 1.184631237e-38
0.1178365946 -0.273766458 0.1041778773 1.184631237e-38
0.1127070636 -0.1425288618 0.1016496718 1.184631237e-38
0.1107303798 -0.3552015722 0.1024171337 1.184631237e-38
0.1434533894 -0.3102396727 0.1002845615 1.184631237e-38
0.153671965 -0.3631576598 0.1058883071 1.184631237e-38
0.1394173354 -0.2274859548 0.1058586389 1.184631237e-38
0.1484790891 -0.3992304206 0.1071077138 1.184631237e-38
0.2125172913 -0.1947201788 0.1045182347 1.184631237e-38
0.2381936461 -0.2431836724 0.1034841537 1.184631237e-38
0.2344099432 -0.1213903427 0.1048356891 1.184631237e-38
0.2319697887 -0.321929276 0.1082800925 1.184631237e-38
0.1300757527 -0.1948218346 0.1026972979 1.184631237e-38
0.1474738717 -0.2552607954 0.1093658358 1.184631237e-38
0.1362527907 -0.1178014949 0.1106746942 1.184631237e-38
0.1325229704 -0.3422743678 0.107145831 1.184631237e-38
0.0782359913 -0.1797642261 0.1406566352 1.184631237e-38
0.07737533003 -0.2377078831 0.1460980624 1.184631237e-38
0.06798344105 -0.1229393855 0.1488096267 1.184631237e-38
0.06967398524 -0.3035618067 0.1463540494 1.184631237e-38
0.1764285564 -0.1901292205 0.09604692459 1.184631237e-38
0.1903601587 -0.2434670925 0.1036678553 1.184631237e-38
0.1893883348 -0.1255795062 0.1019951254 1.184631237e-38
0.1851402074 -0.3167279363 0.1016463563 1.184631237e-38
0.2059769779 -0.3177149594 0.1032607555 1.478322936e-38
0.2175955474 -0.3652627468 0.1027270108 1.478322936e-38
0.2094497532 -0.2333694994 0.1085437089 1.478322936e-38
0.2116611302 -0.3945002854 0.1082334965 1.478322936e-38
0.1034298837 -0.06685052067 0.2006671727 1.478322936e-38
0.1167199016 -0.07283896953 0.2183238864 1.478322936e-38
0.1192117184 -0.05944432318 0.2216446847 1.478322936e-38
0.1205482632 -0.1099284738 0.2162912637 1.478322936e-38
0.2191560417 -0.1927995682 0.1125222594 1.478322936e-38
0.2328706533 -0.2350161076 0.1144928783 1.478322936e-38
0.230931595 -0.137188673 0.1134001166 1.478322936e-38
0.2309585363 -0.2943918705 0.1164475381 1.478322936e-38
0.09732586145 -0.2154347599 0.1717971861 1.478322936e-38
0.09302413464 -0.2562846839 0.1795245707 1.478322936e-38
0.08774454892 -0.1594543457 0.1787028164 1.478322936e-38
0.09375430644 -0.3058709204 0.1785431504 1.478322936e-38
0.08832402527 -0.1540037841 0.2045323551 1.478322936e-38
0.08962109685 -0.1907758415 0.2166350484 1.478322936e-38
0.07801594585 -0.1102558374 0.2249053568 1.478322936e-38
0.08530630171 -0.2494831979 0.2180662155 1.478322936e-38
0.08586531132 -0.1437062025 0.1468465626 1.478322936e-38
0.08920681477 -0.1949293613 0.1608395129 1.478322936e-38
0.07864235342 -0.08758313209 0.1660850495 1.478322936e-38
0.08172614872 -0.2715288401 0.1625680774 1.478322936e-38
0.1986506879 -0.1742218882 0.086347498 1.478322936e-38
0.2114822417 -0.2221835256 0.08927041292 1.478322936e-38
0.2121840566 -0.1137088835 0.09024828672 1.478322936e-38
0.2124785185 -0.286667645 0.09267462045 1.478322936e-38
0.09719867259 -0.1833385825 0.1968596578 1.478322936e-38
0.09748877585 -0.2195827663 0.1998308003 1.478322936e-38
0.08842946589 -0.134734109 0.2048468441 1.478322936e-38
0.09414130449 -0.2804439664 0.2035986483 1.478322936e-38
0.0867324248 -0.08817082644 0.1872205138 1.478322936e-38
0.09284756333 -0.1400584579 0.2037194967 1.478322936e-38
0.08206114173 -0.04110999778 0.2075860202 1.478322936e-38
0.08939406276 -0.2175614834 0.2039728463 1.478322936e-38
0.09221137315 -0.2111713886 0.1060398072 1.478322936e-38
0.09184589982 -0.2809664607 0.1117590219 1.478322936e-38
0.08080936223 -0.1387230903 0.1144744307 1.478322936e-38
0.08553870022 -0.3574192524 0.1124184579 1.478322936e-38
0.1003364697 -0.1788717508 0.1376322657 1.478322936e-38
0.1013526469 -0.2527496219 0.1522377431 1.478322936e-38
0.09428235143 -0.1070037335 0.1561670899 1.478322936e-38
0.09822703898 -0.3444559574 0.1519079655 1.478322936e-38
0.1311162859 -0.2327765822 0.1598629206 1.478322936e-38
0.1292156428 -0.2729179859 0.1657274514 1.478322936e-38
0.1206392199 -0.1805357337 0.1656442732 1.478322936e-38
0.1231894493 -0.3223267198 0.163921833 1.478322936e-38
0.2096911073 -0.1838971674 0.09816413373 1.478322936e-38
0.225570932 -0.2264050841 0.0990793705 1.478322936e-38
0.2241956443 -0.1293705702 0.09969291836 1.478322936e-38
0.2251445353 -0.2848461866 0.1017335206 1.478322936e-38
0.1297074109 -0.1677673459 0.1998715997 1.478322936e-38
0.1359708607 -0.1964636743 0.2064789832 1.478322936e-38
0.1320569515 -0.1297468543 0.2088539451 1.478322936e-38
0.1289131194 -0.2548118532 0.207799226 1.478322936e-38
0.1223713011 -0.1370061934 0.1992212832 1.478322936e-38
0.1303245127 -0.1671240181 0.2070284635 1.478322936e-38
0.1257817745 -0.1062190533 0.209134832 1.478322936e-38
0.1255455911 -0.2229652703 0.2083786726 1.478322936e-38
0.1746134162 -0.2115055621 0.0926649943 1.478322936e-38
0.1947395205 -0.2613696158 0.1006424651 1.478322936e-38
0.1943181753 -0.1467762887 0.09756498039 1.478322936e-38
0.1892195195 -0.338016361 0.1020211577 1.478322936e-38
0.08051586151 -0.1903159618 0.108084932 1.478322936e-38
0.08479274064 -0.2561948001 0.1135690659 1.478322936e-38
0.07574465871 -0.1187200323 0.1179039925 1.478322936e-38
0.07715331763 -0.3445021212 0.1141033024 1.478322936e-38
0.318572402 -0.1969989836 0.1107712239 1.478322936e-38
0.3277126551 -0.2334849238 0.1077646017 1.478322936e-38
0.3184674978 -0.1407225132 0.1116883308 1.478322936e-38
0.3233085275 -0.2739999592 0.1096829176 1.478322936e-38
0.1055689529 -0.2265965343 0.169083491 1.478322936e-38
0.1014740244 -0.2708378434 0.1726691276 1.478322936e-38
0.09568845481 -0.1702568233 0.1757007688 1.478322936e-38
0.09876631945 -0.3259946704 0.1736570448 1.478322936e-38
0.08647163212 -0.1179345027 0.167693764 1.478322936e-38
0.08993152529 -0.1707417965 0.1760290861 1.478322936e-38
0.084233284 -0.06557709724 0.180933997 1.478322936e-38
0.08307948709 -0.2524213791 0.178791061 1.478322936e-38
0.1225161999 -0.2401842475 0.1539873928 1.478322936e-38
0.126728043 -0.2793355286 0.1578329951 1.478322936e-38
0.1206780821 -0.190325737 0.1550319791 1.478322936e-38
0.1181706786 -0.3293755054 0.155462563 1.478322936e-38
0.09868806601 -0.2282815278 0.1481081694 1.478322936e-38
0.09590578079 -0.2709543705 0.1550267488 1.478322936e-38
0.09116537869 -0.1749676615 0.1532741636 1.478322936e-38
0.09118777514 -0.3234256804 0.1523289084 1.478322936e-38
0.1507181525 -0.185949415 0.1027653813 1.478322936e-38
0.1594605595 -0.2303479016 0.1086747497 1.478322936e-38
0.1540317237 -0.1256457269 0.1039159 1.478322936e-38
0.1532940865 -0.2966138124 0.1067753434 1.478322936e-38
0.1019589901 -0.1139733344 0.184302479 1.478322936e-38
0.1087500304 -0.145783335 0.1999321431 1.478322936e-38
0.09461134672 -0.08157145977 0.2051002532 1.478322936e-38
0.1033245474 -0.1999852955 0.1986939013 1.478322936e-38
0.1338182241 -0.2126191556 0.1405406892 1.478322936e-38
0.1308658868 -0.2529886663 0.1428874135 1.478322936e-38
0.1200188249 -0.1572618186 0.1449020803 1.478322936e-38
0.1200661212 -0.3074327409 0.1430440992 1.478322936e-38
0.1418593973 -0.2309499383 0.1229385734 1.478322936e-38
0.1401397437 -0.27383551 0.128093794 1.478322936e-38
0.1288042068 -0.1766128093 0.1308667362 1.478322936e-38
0.1301326454 -0.3322576582 0.1265060306 1.478322936e-38
0.1143239737 -0.1896060705 0.1111933887 1.478322936e-38
0.1139700562 -0.2744964957 0.1190987974 1.478322936e-38
0.1059853435 -0.1064480245 0.1249061674 1.478322936e-38
0.105537422 -0.3619140089 0.1219107509 1.478322936e-38
0.1126242578 -0.2535251081 0.1209936887 1.478322936e-38
0.1256134212 -0.2906396985 0.1215037107 1.478322936e-38
0.1105281562 -0.1994501352 0.1285856366 1.478322936e-38
0.1119436324 -0.3305395246 0.1235390157 1.478322936e-38
0.1705330312 -0.1887011528 0.1048382223 1.478322936e-38
0.1949227899 -0.2355516255 0.1092842817 1.478322936e-38
0.1950814426 -0.124655351 0.1076271236 1.478322936e-38
0.1890216172 -0.3094159663 0.1112247556 1.478322936e-38
0.1130976677 -0.2963892519 0.1093103737 1.478322936e-38
0.1093310714 -0.3519659936 0.1111243367 1.478322936e-38
0.09739614278 -0.2230059206 0.1218213737 1.478322936e-38
0.1070409864 -0.396494031 0.1148107946 1.478322936e-38
0.08820964396 -0.1730336547 0.1320010573 1.478322936e-38
0.0874966532 -0.2429947555 0.1449261606 1.478322936e-38
0.08010377735 -0.1023548916 0.1496154815 1.478322936e-38
0.08196084946 -0.3290257454 0.1444537938 1.478322936e-38
0.09272095561 0.01532189548 0.141158849 1.478322936e-38
0.09629548341 0.0006256960332 0.1966715306 1.478322936e-38
0.08702237159 0.02076132596 0.215250954 1.478322936e-38
0.09337727726 -0.04095480591 0.1815036535 1.478322936e-38
0.1072205901 -0.1858560145 0.09507341683 1.771655483e-38
0.1056679264 -0.2533334792 0.1028428674 1.771655483e-38
0.1006239131 -0.1145045832 0.101595208 1.771655483e-38
0.09983357787 -0.3399490416 0.1022368148 1.771655483e-38
0.1008000448 -0.230545491 0.1307368428 1.771655483e-38
0.1003323495 -0.282690376 0.1400053352 1.771655483e-38
0.09170923382 -0.1733293235 0.14041619 1.771655483e-38
0.09366644919 -0.3443052471 0.1402365416 1.771655483e-38
0.2217755318 -0.3574320376 0.08947912604 1.771655483e-38
0.2442080826 -0.4041224718 0.09514715523 1.771655483e-38
0.2279705107 -0.2824648619 0.1020381674 1.771655483e-38
0.2356147617 -0.4263955057 0.09544529021 1.771655483e-38
0.1892091334 -0.1720644534 0.1003565267 1.771655483e-38
0.205320254 -0.2203843594 0.1064383686 1.771655483e-38
0.2072122693 -0.1154862046 0.1060352921 1.771655483e-38
0.2023644596 -0.2849662602 0.1096514314 1.771655483e-38
0.09345391393 -0.09140256047 0.1888042241 1.771655483e-38
0.1033910736 -0.133500427 0.1999064386 1.771655483e-38
0.09338783473 -0.05102180317 0.2017661184 1.771655483e-38
0.09716974944 -0.2048301995 0.1999116689 1.771655483e-38
0.128827244 -0.09187213331 0.1803184003 1.771655483e-38
0.1334091723 -0.1128636897 0.2018296272 1.771655483e-38
0.1291130036 -0.06907317042 0.2051834911 1.771655483e-38
0.1323660612 -0.1626560092 0.1975193173 1.771655483e-38
0.2602682114 -0.170779407 0.09792158008 1.771655483e-38
0.2765568495 -0.21585235 0.09611463547 1.771655483e-38
0.2735068798 -0.1104227901 0.1031999439 1.771655483e-38
0.2693266869 -0.2728122473 0.10052149 1.771655483e-38
0.2041535378 -0.1878683865 0.1088967025 1.771655483e-38
0.2207009941 -0.2355754077 0.109427765 1.771655483e-38
0.2196248472 -0.1167276353 0.1124784797 1.771655483e-38
0.2174847722 -0.3042268753 0.1127584875 1.771655483e-38
0.1130452901 -0.140782088 0.1940122396 1.771655483e-38
0.1127927154 -0.1725627184 0.2027721405 1.771655483e-38
0.1000555903 -0.1007528007 0.2068922073 1.771655483e-38
0.1090135276 -0.2253607512 0.2038739175 1.771655483e-38
0.2001295835 -0.1602668762 0.09767237306 1.771655483e-38
0.2202561796 -0.2005911767 0.1002882048 1.771655483e-38
0.2239752412 -0.1087694764 0.10094136 1.771655483e-38
0.2183671594 -0.2678263485 0.1055262834 1.771655483e-38
0.09457240254 -0.2310204804 0.1308199912 1.771655483e-38
0.0936987102 -0.2816186249 0.1380675584 1.771655483e-38
0.08621768653 -0.1722051501 0.1383153647 1.771655483e-38
0.08750701696 -0.348489821 0.1371532381 1.771655483e-38
0.0981920585 -0.1839326024 0.103518784 1.771655483e-38
0.09639855474 -0.2589516044 0.1098402739 1.771655483e-38
0.08892934024 -0.1048490703 0.1145727932 1.771655483e-38
0.08829761297 -0.3520805836 0.1104028523 1.771655483e-38
0.1020896062 0.02292420715 0.1290473193 1.771655483e-38
0.1042096093 0.003369890153 0.1850146055 1.771655483e-38
0.09731740505 0.02740047872 0.2030824721 1.771655483e-38
0.1008608863 -0.04426065832 0.1710670143 1.771655483e-38
0.1214279979 -0.321064204 0.1012684777 1.771655483e-38
0.1223730296 -0.3706370592 0.1030477285 1.771655483e-38
0.1074670702 -0.2468576133 0.1072260588 1.771655483e-38
0.1161503792 -0.4089856744 0.1043919623 1.771655483e-38
0.1677087992 -0.1763348281 0.0985134244 1.771655483e-38
0.2016420215 -0.232047379 0.1015935242 1.771655483e-38
0.2046456784 -0.1106399894 0.1013177037 1.771655483e-38
0.1936629266 -0.3232550919 0.1065319628 1.771655483e-38
0.161379531 -0.1808039546 0.1119775921 1.771655483e-38
0.1842541993 -0.2425340712 0.1163412929 1.771655483e-38
0.1837447137 -0.1104050279 0.1172440499 1.771655483e-38
0.1768303961 -0.3259059489 0.1147972494 1.771655483e-38
0.1805859953 -0.1653879881 0.1047253609 1.771655483e-38
0.208612591 -0.2113336325 0.1071691662 1.771655483e-38
0.2328098863 -0.1123596728 0.1082227379 1.771655483e-38
0.2277249843 -0.2847019136 0.1123534441 1.771655483e-38
0.1317011714 -0.2051430941 0.1784622818 1.771655483e-38
0.129026562 -0.2348513603 0.1809163988 1.771655483e-38
0.1170203984 -0.1538379937 0.1860057116 1.771655483e-38
0.1226334721 -0.2818689346 0.1828609705 1.771655483e-38
0.3030360937 -0.2000232041 0.1044049114 1.771655483e-38
0.3086217046 -0.2394365072 0.1038022488 1.771655483e-38
0.3061406016 -0.1383103728 0.1097083688 1.771655483e-38
0.3084308505 -0.2898897529 0.1057439893 1.771655483e-38
0.0781006068 0.02661470324 0.153995797 1.771655483e-38
0.08071134239 0.01802257448 0.1934600472 1.771655483e-38
0.08005339652 0.02469489723 0.2050613016 1.771655483e-38
0.08147529513 -0.02810979262 0.182750538 1.771655483e-38
0.1951323152 -0.3466610909 0.1007684544 1.771655483e-38
0.2138221711 -0.3826074004 0.1013273224 1.771655483e-38
0.2051115185 -0.2830039859 0.110187754 1.771655483e-38
0.2074624598 -0.4066613615 0.1052789837 1.771655483e-38
0.2963354588 -0.179666698 0.09332086146 1.771655483e-38
0.3104658723 -0.2208672762 0.08980933577 1.771655483e-38
0.307796061 -0.1244296283 0.09181465209 1.771655483e-38
0.3045071959 -0.2769486606 0.09227140248 1.771655483e-38
0.07609286159 -0.09637029469 0.164068222 1.771655483e-38
0.07762263715 -0.141992256 0.1806003004 1.771655483e-38
0.07197080553 -0.06990933418 0.1827624142 1.771655483e-38
0.07364596426 -0.2057747245 0.1766652614 1.771655483e-38
0.1434731185 -0.1575139612 0.1099802703 1.771655483e-38
0.1720833927 -0.2046635151 0.1124538332 1.771655483e-38
0.1987560987 -0.10800381 0.1160047799 1.771655483e-38
0.1890844107 -0.2772650719 0.1173842847 1.771655483e-38
0.3865080476 -0.1937754452 0.1173230261 1.771655483e-38
0.3993403912 -0.2273382545 0.1039778292 1.771655483e-38
0.3891252279 -0.1294583082 0.1060341746 1.771655483e-38
0.3954057097 -0.2763673961 0.1071338356 1.771655483e-38
0.1077764481 -0.1471063793 0.101755701 1.771655483e-38
0.1143823564 -0.2200443149 0.1120241135 1.771655483e-38
0.108289957 -0.08241602778 0.1147072315 1.771655483e-38
0.1008533612 -0.3176200688 0.1118856221 1.771655483e-38
0.1854149252 -0.1629385054 0.102842778 1.771655483e-38
0.2054760307 -0.2216390967 0.1066795737 1.771655483e-38
0.2218714952 -0.1001421809 0.1059405506 1.771655483e-38
0.2158323377 -0.3081867099 0.1106086373 1.771655483e-38
0.101778999 -0.0673667565 0.1320405304 1.771655483e-38
0.1086151153 -0.09803336859 0.1545082778 1.771655483e-38
0.09792079031 -0.05219689012 0.157148093 1.771655483e-38
0.1017057151 -0.1566703916 0.1480451524 1.771655483e-38
0.2024532109 -0.1661449373 0.09615467489 1.771655483e-38
0.2147446573 -0.2105123401 0.0998955965 1.771655483e-38
0.2172665447 -0.1126307547 0.103316918 1.771655483e-38
0.2116065174 -0.2807739675 0.1058096588 1.771655483e-38
0.08735831082 -0.1132804453 0.1597821712 1.771655483e-38
0.09051016718 -0.1596648693 0.1730030179 1.771655483e-38
0.07876952738 -0.07524031401 0.1799619645 1.771655483e-38
0.08298277855 -0.2292077243 0.1747044474 1.771655483e-38
0.2641391158 -0.1782314479 0.09919252992 1.771655483e-38
0.2823647261 -0.2218272686 0.09423480183 1.771655483e-38
0.2798625827 -0.1190973967 0.102064386 1.771655483e-38
0.2749428153 -0.2789885402 0.09680177271 1.771655483e-38
0.3841161132 -0.2119747102 0.1055864394 1.771655483e-38
0.3882773519 -0.2442739308 0.09944914281 1.771655483e-38
0.3764147162 -0.1547929347 0.1051294506 1.771655483e-38
0.3822495937 -0.2862560451 0.1049283892 1.771655483e-38
0.1485812068 -0.1485565603 0.1926241666 2.06466517e-38
0.1450446993 -0.1757032871 0.2023230046 2.06466517e-38
0.1423253864 -0.1117742062 0.2076535821 2.06466517e-38
0.145666346 -0.2235854864 0.2023689151 2.06466517e-38
0.0806061402 -0.3406822085 0.1074879318 2.06466517e-38
0.07474353909 -0.3882270753 0.1070581973 2.06466517e-38
0.06933671981 -0.2697452009 0.1121087372 2.06466517e-38
0.07690861821 -0.4191026688 0.1044021696 2.06466517e-38
0.1255510449 -0.1963361204 0.1245660037 2.06466517e-38
0.1373709887 -0.2265969217 0.1278986484 2.06466517e-38
0.1328761131 -0.1418749988 0.1271839589 2.06466517e-38
0.125287801 -0.2803477049 0.1267183125 2.06466517e-38
0.1629110873 -0.1515702605 0.09838561714 2.06466517e-38
0.1804330051 -0.1985015273 0.1034006923 2.06466517e-38
0.1857733727 -0.09645914286 0.1004305705 2.06466517e-38
0.1752329469 -0.2718796134 0.1061601639 2.06466517e-38
0.1192391813 -0.0651583299 0.1381368935 2.06466517e-38
0.1233265251 -0.07491908222 0.157929346 2.06466517e-38
0.1181860566 -0.05265313387 0.1603651941 2.06466517e-38
0.1213716865 -0.1126115322 0.1518378705 2.06466517e-38
0.3004586101 -0.1710632741 0.1034417301 2.06466517e-38
0.306625545 -0.2169736624 0.1012050658 2.06466517e-38
0.3043380976 -0.1064079106 0.1060766429 2.06466517e-38
0.2992611527 -0.2753499746 0.1067662239 2.06466517e-38
0.09813546389 -0.1205440909 0.1737551242 2.06466517e-38
0.1020939872 -0.1648326218 0.1835620254 2.06466517e-38
0.08849400282 -0.08548636734 0.1941517889 2.06466517e-38
0.0982092768 -0.2305192947 0.1899253726 2.06466517e-38
0.344568193 -0.1850349307 0.1146185398 2.06466517e-38
0.3537313938 -0.2220629156 0.107973367 2.06466517e-38
0.3397774696 -0.1218397468 0.1116762161 2.06466517e-38
0.3479247689 -0.2642880976 0.1093325019 2.06466517e-38
0.2397292107 -0.1271704435 0.1079974473 2.06466517e-38
0.2633243799 -0.1773360521 0.1060527265 2.06466517e-38
0.2658800483 -0.07768477499 0.1110947132 2.06466517e-38
0.2535882592 -0.237075597 0.110936597 2.06466517e-38
0.2792776823 -0.1601035595 0.112180084 2.06466517e-38
0.2979530096 -0.2037079632 0.1109476238 2.06466517e-38
0.2938758135 -0.107531786 0.1168921292 2.06466517e-38
0.2922151685 -0.2582358122 0.1131866872 2.06466517e-38
0.1888899952 -0.3444253504 0.1124950349 2.06466517e-38
0.2012471557 -0.3831898272 0.1109267473 2.06466517e-38
0.1912149489 -0.2743566632 0.1168185771 2.06466517e-38
0.1940588951 -0.4090176821 0.1176722944 2.06466517e-38
0.0948183462 -0.1787902713 0.1765900999 2.06466517e-38
0.09228680283 -0.2188304365 0.183967486 2.06466517e-38
0.08421216905 -0.1308195293 0.1886939108 2.06466517e-38
0.09027376026 -0.2740604877 0.1852595061 2.06466517e-38
0.1018531919 -0.1362833083 0.09058246017 2.06466517e-38
0.1067478359 -0.2004825175 0.09961946309 2.06466517e-38
0.1010325924 -0.07900311053 0.1031370014 2.06466517e-38
0.09259847552 -0.2867922783 0.1009461507 2.06466517e-38
0.1965691447 -0.1181555912 0.1001039296 2.06466517e-38
0.2285608798 -0.1686962545 0.1010221988 2.06466517e-38
0.2316061109 -0.07532048225 0.09947795421 2.06466517e-38
0.2237663716 -0.2362045646 0.1063691378 2.06466517e-38
0.1250870824 -0.1124796644 0.1646726578 2.06466517e-38
0.1281756461 -0.1435181201 0.1807474643 2.06466517e-38
0.115950346 -0.07944391668 0.1843136251 2.06466517e-38
0.1244453341 -0.1988766491 0.1782808453 2.06466517e-38
0.1078588665 -0.1499476433 0.1081483364 2.06466517e-38
0.1073610634 -0.2167797089 0.1191019863 2.06466517e-38
0.1033362076 -0.08844317496 0.1222727746 2.06466517e-38
0.0988663286 -0.307376951 0.1166739464 2.06466517e-38
0.1320485175 -0.2079977691 0.1275283545 2.06466517e-38
0.139531374 -0.2401783466 0.1315696239 2.06466517e-38
0.1352680027 -0.1596055627 0.1289307624 2.06466517e-38
0.1286281943 -0.2882064879 0.1318164021 2.06466517e-38
0.09558545053 -0.0783528015 0.1731526405 2.06466517e-38
0.1010764912 -0.129802689 0.1921907067 2.06466517e-38
0.09045599401 -0.03552929312 0.1985516399 2.06466517e-38
0.09620160609 -0.1993741989 0.1922289282 2.06466517e-38
0.09900942445 -0.1458371282 0.09874615073 2.06466517e-38
0.1012560129 -0.2097020745 0.1096109748 2.06466517e-38
0.09337394685 -0.08320614696 0.1118271053 2.06466517e-38
0.08815965801 -0.2970677018 0.1075337827 2.06466517e-38
0.1905222833 -0.1432561278 0.1074939072 2.06466517e-38
0.2084504366 -0.2014933228 0.1126656383 2.06466517e-38
0.2100607306 -0.08283115923 0.1098973304 2.06466517e-38
0.2050536126 -0.2811194956 0.1158302277 2.06466517e-38
0.1334960908 -0.09342114627 0.1563827097 2.06466517e-38
0.1342496276 -0.123406142 0.176832512 2.06466517e-38
0.1265099645 -0.06310532987 0.1766449511 2.06466517e-38
0.1322003752 -0.1763769537 0.1695688814 2.06466517e-38
0.1122507453 -0.1338775158 0.09706998616 2.06466517e-38
0.1149281859 -0.2058413327 0.1110461056 2.06466517e-38
0.106059134 -0.06429812312 0.1130783558 2.06466517e-38
0.1064412892 -0.3023374975 0.1115410924 2.06466517e-38
0.09411340207 -0.03157720715 0.155090481 2.06466517e-38
0.09774322063 -0.07196880877 0.1936489195 2.06466517e-38
0.09091481566 -0.02029525489 0.2044327259 2.06466517e-38
0.09622163326 -0.1372667253 0.1848934442 2.06466517e-38
0.09255712479 -0.09933356196 0.1284128278 2.06466517e-38
0.0975651592 -0.1549388468 0.1496528238 2.06466517e-38
0.08592485636 -0.05109758675 0.1523145735 2.06466517e-38
0.08816848695 -0.2326957285 0.1474573314 2.06466517e-38
0.1027954444 -0.3161092401 0.10745354 2.06466517e-38
0.1004878804 -0.3799008131 0.1008977816 2.06466517e-38
0.0859753117 -0.2257455587 0.1144237965 2.06466517e-38
0.09784509242 -0.4143908918 0.11093162 2.06466517e-38
0.1014012396 -0.193316102 0.1183623224 2.06466517e-38
0.1015060022 -0.231274426 0.1198499799 2.06466517e-38
0.09122551978 -0.1335908771 0.124193415 2.06466517e-38
0.09036871046 -0.2904710472 0.119270429 2.06466517e-38
0.1169470549 -0.1319371909 0.09989383072 2.06466517e-38
0.1529446989 -0.1894112229 0.1016831771 2.06466517e-38
0.1621866971 -0.07670432329 0.1021402404 2.06466517e-38
0.1399784982 -0.2755938768 0.1031610668 2.06466517e-38
0.1758002788 -0.363538444 0.09724287689 2.06466517e-38
0.1947892159 -0.4011320472 0.1003805622 2.06466517e-38
0.1806671768 -0.2946831882 0.1036608666 2.06466517e-38
0.1911881119 -0.4261698425 0.1019152179 2.06466517e-38
0.09127754718 -0.1028563976 0.1293710172 2.06466517e-38
0.09252503514 -0.1344344616 0.1454748511 2.06466517e-38
0.08172181249 -0.07457154989 0.142360121 2.06466517e-38
0.08570741117 -0.1848417222 0.1347685307 2.06466517e-38
0.1266912818 -0.1396193355 0.09835939854 2.06466517e-38
0.1520313025 -0.1869888604 0.1025519371 2.06466517e-38
0.1578306258 -0.08997108042 0.09848752618 2.06466517e-38
0.1406945288 -0.2658009231 0.1027788073 2.06466517e-38
0.08024181426 -0.07599820197 0.1095566303 2.06466517e-38
0.08376722783 -0.09960025549 0.1110303104 2.06466517e-38
0.08469890058 -0.05793794617 0.1103442609 2.06466517e-38
0.07337961346 -0.1577701718 0.1063833982 2.06466517e-38
0.1176081151 -0.2046282589 0.1362866461 2.06466517e-38
0.1311216056 -0.224624902 0.1361352205 2.06466517e-38
0.1261541843 -0.1637459695 0.1365248561 2.06466517e-38
0.1169776917 -0.2713164985 0.1352552772 2.06466517e-38
0.3660154343 -0.06357304752 0.2381737977 2.348204041e-38
0.3737766743 -0.07794936746 0.231625542 2.348204041e-38
0.3838661909 -0.07134662569 0.2300962061 2.348204041e-38
0.3850248456 -0.08735735714 0.2281071395 2.348204041e-38
0.1202721149 -0.3093487024 0.1042354256 2.348204041e-38
0.1213652194 -0.3625255227 0.1030428708 2.348204041e-38
0.1085734665 -0.2239398062 0.1157682389 2.348204041e-38
0.1122745872 -0.3961351514 0.1111667454 2.348204041e-38
0.3672279119 -0.1801333129 0.1203890592 2.348204041e-38
0.3809676766 -0.2135266066 0.1113075018 2.348204041e-38
0.3616209626 -0.1251194477 0.1158033609 2.348204041e-38
0.3750620484 -0.2636283338 0.1133537889 2.348204041e-38
0.1066786945 -0.08919496834 0.1442369372 2.348204041e-38
0.1135031879 -0.1210356057 0.1584257782 2.348204041e-38
0.1012606993 -0.06358727068 0.1565086246 2.348204041e-38
0.1072597355 -0.17399019 0.1521769464 2.348204041e-38
0.1524087489 -0.3470672965 0.1067081839 2.348204041e-38
0.1575564593 -0.3873732388 0.1038419306 2.348204041e-38
0.137536183 -0.2724304497 0.1099701226 2.348204041e-38
0.1517519504 -0.4082727134 0.1113333553 2.348204041e-38
0.135397017 -0.1564819515 0.1589514762 2.348204041e-38
0.1360362172 -0.2019190192 0.1654306948 2.348204041e-38
0.1234335452 -0.1039273441 0.1760337055 2.348204041e-38
0.1282479614 -0.2718197703 0.1706237495 2.348204041e-38
0.2164718211 -0.1288679838 0.112467736 2.348204041e-38
0.2465438694 -0.1791387945 0.1144848615 2.348204041e-38
0.2455957085 -0.08584348857 0.114075765 2.348204041e-38
0.2375302464 -0.2514848113 0.1176247001 2.348204041e-38
0.1233774871 -0.09221386909 0.1317052394 2.348204041e-38
0.1380434036 -0.1100193411 0.1338794678 2.348204041e-38
0.1329833269 -0.06874524057 0.1309101433 2.348204041e-38
0.1271288395 -0.1604046971 0.1329003423 2.348204041e-38
0.4065648317 -0.08314588666 0.2340635806 2.348204041e-38
0.4052237868 -0.0990928635 0.2259397954 2.348204041e-38
0.4081270099 -0.08224278688 0.2241613865 2.348204041e-38
0.4129102826 -0.119914867 0.2253691703 2.348204041e-38
0.1463485509 -0.1612101793 0.15441145 2.348204041e-38
0.1434739083 -0.1889359355 0.1600814015 2.348204041e-38
0.1319758445 -0.1190057844 0.1624700576 2.348204041e-38
0.1373194903 -0.2430255413 0.1590525061 2.348204041e-38
0.09419435263 -0.09683687985 0.1403249651 2.348204041e-38
0.09880704433 -0.1525170207 0.1600169688 2.348204041e-38
0.09264383465 -0.05074855685 0.1619046181 2.348204041e-38
0.09312684834 -0.2335438728 0.1580457091 2.348204041e-38
0.1064378172 -0.1241129413 0.08857664466 2.348204041e-38
0.1134123057 -0.1792847514 0.1002884284 2.348204041e-38
0.1033258438 -0.06473375857 0.101217173 2.348204041e-38
0.09673914313 -0.2685807347 0.09805116057 2.348204041e-38
0.3311128616 -0.1597349346 0.1027698368 2.348204041e-38
0.3452312946 -0.2100401223 0.09936057031 2.348204041e-38
0.3398935795 -0.1041120514 0.1022510305 2.348204041e-38
0.3393650651 -0.2666796446 0.1004448757 2.348204041e-38
0.08715885878 -0.07209852338 0.1069587916 2.348204041e-38
0.1029008403 -0.1171700805 0.1118817925 2.348204041e-38
0.09236937761 -0.03757296503 0.1145973802 2.348204041e-38
0.08238998801 -0.1991756856 0.1105300933 2.348204041e-38
0.1935379952 -0.3648421168 0.1128956228 2.348204041e-38
0.2224472165 -0.3851038218 0.115441829 2.348204041e-38
0.2276535183 -0.3254525661 0.1251978725 2.348204041e-38
0.229200989 -0.4074878097 0.1177629679 2.348204041e-38
0.1142109632 -0.1140470132 0.08712483943 2.348204041e-38
0.1465685219 -0.1769517213 0.09221059084 2.348204041e-38
0.148937732 -0.0514200069 0.08857554942 2.348204041e-38
0.1324148774 -0.2707308233 0.0961170271 2.348204041e-38
0.08976356685 -0.1046578288 0.08306851238 2.348204041e-38
0.1036794931 -0.1704777032 0.09014809877 2.348204041e-38
0.09642300755 -0.03802592307 0.09346656501 2.348204041e-38
0.08484999835 -0.2742495835 0.09214727581 2.348204041e-38
0.2716595531 -0.1289897263 0.09807535261 2.348204041e-38
0.3036345243 -0.1781949103 0.0933604911 2.348204041e-38
0.3236579299 -0.09174512327 0.09717188776 2.348204041e-38
0.3144742846 -0.2446998358 0.09969204664 2.348204041e-38
0.1484576613 -0.1409274042 0.09864144772 2.348204041e-38
0.1572978646 -0.2122984827 0.1077911109 2.348204041e-38
0.1584041119 -0.0752518028 0.1074136049 2.348204041e-38
0.1462346613 -0.3130942285 0.1066598743 2.348204041e-38
0.14572981 -0.123820655 0.1058188826 2.348204041e-38
0.1704423279 -0.1842975616 0.1079233885 2.348204041e-38
0.1771829277 -0.06546205282 0.1073043942 2.348204041e-38
0.1617974788 -0.2814249396 0.1127129942 2.348204041e-38
0.2546463609 -0.1196107194 0.1059614271 2.348204041e-38
0.2851560712 -0.1737361401 0.1028632522 2.348204041e-38
0.2898935676 -0.07870514691 0.1030402035 2.348204041e-38
0.2766541243 -0.2442488372 0.1088068187 2.348204041e-38
0.1145662516 -0.1690773815 0.1047481298 2.348204041e-38
0.1176596135 -0.2085822821 0.1115081757 2.348204041e-38
0.1055955961 -0.112523213 0.1115239114 2.348204041e-38
0.1021395773 -0.2792254686 0.1049110591 2.348204041e-38
0.1470651776 -0.1598951668 0.1462142318 2.348204041e-38
0.1467591077 -0.1929726303 0.1529116482 2.348204041e-38
0.1367620975 -0.1139295921 0.1538736522 2.348204041e-38
0.1395957023 -0.2570354044 0.1509578228 2.348204041e-38
0.3371616006 -0.118233107 0.1106530428 2.348204041e-38
0.3552752137 -0.1609054804 0.1061821282 2.348204041e-38
0.3474290371 -0.07726322114 0.1054590791 2.348204041e-38
0.3517901301 -0.2168404162 0.1049598902 2.348204041e-38
0.144351691 -0.178814888 0.147583127 2.348204041e-38
0.139276579 -0.2130236626 0.1484416574 2.348204041e-38
0.1288164258 -0.1154404283 0.1554096788 2.348204041e-38
0.1338908523 -0.2732161582 0.151162073 2.348204041e-38
0.08775033802 0.03195180744 0.1128971726 2.348204041e-38
0.1088793576 0.009526692331 0.1260911673 2.348204041e-38
0.1115643233 0.03971728683 0.1347199231 2.348204041e-38
0.1020597517 -0.04644332081 0.1271699667 2.348204041e-38
0.3198966384 -0.1397960484 0.1157780737 2.348204041e-38
0.3399425149 -0.1895991564 0.1131525487 2.348204041e-38
0.336163044 -0.09061689675 0.1162738949 2.348204041e-38
0.3347576261 -0.2521547973 0.1152035296 2.348204041e-38
0.06797292084 -0.1034429073 0.1089626402 2.348204041e-38
0.08122332394 -0.1359521151 0.1138833463 2.348204041e-38
0.07879799604 -0.06841091812 0.1113538444 2.348204041e-38
0.0672756955 -0.2011478245 0.1091126651 2.348204041e-38
0.09936846793 -0.09705518186 0.1246572137 2.348204041e-38
0.1274410039 -0.1269969642 0.1292110384 2.348204041e-38
0.1253774464 -0.0752678439 0.1260673702 2.348204041e-38
0.1128360331 -0.1852122247 0.1283620298 2.348204041e-38
0.1721245795 -0.3577753901 0.1095134467 2.348204041e-38
0.196734339 -0.4010547698 0.1098531336 2.348204041e-38
0.2097381204 -0.2921264172 0.1147288829 2.348204041e-38
0.2126717865 -0.4310473502 0.1113232374 2.348204041e-38
0.1001820117 -0.08774988353 0.1202232242 2.348204041e-38
0.1373366416 -0.1132274568 0.1182593852 2.348204041e-38
0.1403220147 -0.06679719687 0.1209636331 2.348204041e-38
0.1284089983 -0.1735821366 0.1203344911 2.348204041e-38
0.290551424 -0.1132662743 0.1250058562 2.348204041e-38
0.3242650628 -0.160051316 0.1179727167 2.348204041e-38
0.343608439 -0.07826310396 0.1209498942 2.348204041e-38
0.3415206075 -0.2235759497 0.1211443245 2.348204041e-38
0.3775558472 -0.1364039183 0.129900828 2.346801622e-38
0.3945193291 -0.1771299839 0.1161102206 2.346801622e-38
0.3863301277 -0.08280964941 0.1189664155 2.346801622e-38
0.3908065557 -0.2340643704 0.1191114634 2.346801622e-38
0.1551926136 -0.1276883036 0.1005384549 2.346801622e-38
0.1677859128 -0.1881713867 0.1052733809 2.346801622e-38
0.1678502113 -0.06599989533 0.1046258509 2.346801622e-38
0.1550663412 -0.2728379369 0.1088128388 2.346801622e-38
0.2384216338 -0.09283651412 0.09108410776 2.346801622e-38
0.2750178576 -0.1546133161 0.08958930522 2.346801622e-38
0.3033609986 -0.06661244482 0.09506625682 2.346801622e-38
0.2921831012 -0.2234456539 0.09430873394 2.346801622e-38
0.2322530895 -0.1044708863 0.09833335131 2.346801622e-38
0.2665294409 -0.1688511372 0.092543751 2.346801622e-38
0.2903801799 -0.06403360516 0.097285375 2.346801622e-38
0.2778651118 -0.2406516075 0.1009427458 2.346801622e-38
0.08968373388 -0.01217756793 0.1084147543 2.346801622e-38
0.1082978994 -0.07321290672 0.1181388199 2.346801622e-38
0.1037041321 0.004892617464 0.1186281741 2.346801622e-38
0.09667627513 -0.1573966593 0.1178314984 2.346801622e-38
0.1164259166 -0.103675887 0.1026960313 2.346801622e-38
0.1226414591 -0.1443640888 0.1109997034 2.346801622e-38
0.1147433817 -0.06195184216 0.1097225696 2.346801622e-38
0.1057614833 -0.2153969109 0.1086900085 2.346801622e-38
0.09378675371 -0.116205737 0.106795758 2.346801622e-38
0.1068479419 -0.1710126996 0.1179537028 2.346801622e-38
0.09778697789 -0.0567724742 0.1197089553 2.346801622e-38
0.08891269565 -0.2661836743 0.1178887784 2.346801622e-38
0.2969756126 -0.1339820027 0.1088792384 2.346801622e-38
0.3188477755 -0.1846063137 0.1064733565 2.346801622e-38
0.3167937398 -0.08443348855 0.1094559729 2.346801622e-38
