# .PCD v0.7 - Point Cloud Data file format
VERSION 0.7
FIELDS x y z rgb
SIZE 4 4 4 4
TYPE F F F F
COUNT 1 1 1 1
WIDTH 837
HEIGHT 1
VIEWPOINT 0 0 0 1 0 0 0
POINTS 837
DATA ascii
0.02846699208 -0.1774934232 0.3088618517 1.478322936e-38
0.05367382616 -0.2626043856 0.3091447651 1.478322936e-38
-0.05817903578 -0.1597959548 0.2994919419 1.478322936e-38
-0.03489865363 -0.2817228138 0.2959572673 1.478322936e-38
-0.03791747987 -0.117549479 0.2998088598 1.478322936e-38
-0.02077759616 -0.1972978711 0.2995893061 1.478322936e-38
-0.1222455576 -0.4801439941 0.2446518391 1.478322936e-38
-0.1424711496 -0.485491693 0.09046145529 1.478322936e-38
-0.1908211857 -0.4785803258 0.1996860951 1.478322936e-38
-0.0285302829 -0.4823639095 0.1981790513 1.478322936e-38
0.1980018616 -0.1633597016 -0.1633763015 1.478322936e-38
0.2002390772 -0.294978559 -0.1532441229 1.478322936e-38
0.1961712241 -0.1163732409 -0.1453154236 1.478322936e-38
0.1999413371 -0.2183786333 -0.142888695 1.478322936e-38
-0.283803314 -0.4829458594 -0.1451235116 1.478322936e-38
-0.2738010585 -0.4821867645 -0.2580805123 1.478322936e-38
-0.2920745313 -0.4820050001 -0.204456374 1.478322936e-38
-0.1941053569 -0.4838081896 -0.2125064582 1.478322936e-38
-0.08286057413 -0.4824065864 0.2051823735 1.478322936e-38
-0.08910860866 -0.4846277237 0.01698214188 1.478322936e-38
-0.1594483405 -0.479863435 0.143536672 1.478322936e-38
0.02729186788 -0.4824518859 0.138116166 1.478322936e-38
-0.1284890026 -0.3487976193 0.2960319519 1.478322936e-38
-0.1200056598 -0.4509435892 0.2969093025 1.478322936e-38
-0.1226358786 -0.274607569 0.3016305864 1.478322936e-38
-0.1067639217 -0.3957470953 0.3037167192 1.478322936e-38
0.02221647277 -0.357105732 0.2934264243 1.478322936e-38
0.02211979777 -0.4561124146 0.2895507216 1.478322936e-38
0.02643459663 -0.2766613364 0.2963210344 1.478322936e-38
0.04094535112 -0.4044916928 0.2969526649 1.478322936e-38
0.1695728451 -0.1182587668 0.1505743563 1.478322936e-38
0.1752719432 -0.2136873007 0.1716130972 1.478322936e-38
0.178098917 -0.112393707 0.1882062256 1.478322936e-38
0.1770957261 -0.1532263756 0.1817554832 1.478322936e-38
-0.162499696 -0.484115988 -0.03270162269 1.478322936e-38
-0.1670377403 -0.4854196608 -0.1500346512 1.478322936e-38
-0.2209967971 -0.4842292964 -0.07466641068 1.478322936e-38
-0.05247632414 -0.4844323993 -0.0928389132 1.478322936e-38
0.03367363289 -0.3222886324 -0.1208520383 1.478322936e-38
0.04141908884 -0.358861953 -0.09865193069 1.478322936e-38
0.03819554672 -0.3174686134 -0.07161970437 1.478322936e-38
0.06930506229 -0.3244489431 -0.09543478489 1.478322936e-38
-0.01900912262 -0.3209381998 -0.2950325012 1.478322936e-38
-0.01187309809 -0.4339666367 -0.2992887497 1.478322936e-38
0.001396147534 -0.2533256114 -0.2909727991 1.478322936e-38
0.001136330888 -0.3644531369 -0.2988936305 1.478322936e-38
-0.200867489 -0.4485248923 -0.2786069512 1.478322936e-38
-0.2002450824 -0.4774917066 -0.2838027775 1.478322936e-38
-0.1834520996 -0.4078918993 -0.2845607996 1.478322936e-38
-0.139286831 -0.4770404994 -0.2763225436 1.478322936e-38
0.1857026517 -0.2911320329 -0.1465555876 1.478322936e-38
0.1868539751 -0.4301001132 -0.1365354061 1.478322936e-38
0.184568435 -0.2147569656 -0.1320254207 1.478322936e-38
0.1877153814 -0.353638202 -0.1169302166 1.478322936e-38
-0.03638962656 -0.2908608019 -0.3275304735 1.478322936e-38
-0.02391274087 -0.4225072265 -0.3296484649 1.478322936e-38
-0.01068228297 -0.2132962346 -0.3281963766 1.478322936e-38
-0.008509958163 -0.342790097 -0.3357922435 1.478322936e-38
-0.2198034525 -0.3668808043 0.2816030979 1.478322936e-38
-0.2177478075 -0.4603748024 0.2758223712 1.478322936e-38
-0.2073853612 -0.2944598198 0.2886025012 1.478322936e-38
-0.185522154 -0.4145766795 0.2928446531 1.478322936e-38
0.1308055818 -0.2187911272 0.1988359541 1.478322936e-38
0.1304727495 -0.2965855002 0.2076144367 1.478322936e-38
0.1280657947 -0.1858799905 0.2183034271 1.478322936e-38
0.1360774189 -0.2423920035 0.2145555466 1.478322936e-38
0.1498341709 -0.4115431011 -0.07688485086 1.478322936e-38
0.1451963484 -0.4712248445 -0.07898448408 1.478322936e-38
0.1514968872 -0.3670820296 -0.05021798238 1.478322936e-38
0.1535001248 -0.4417746067 -0.04490055516 1.478322936e-38
0.1537172943 -0.3733230829 0.06578731537 1.478322936e-38
0.1556494385 -0.4683632255 0.045384489 1.478322936e-38
0.1531742513 -0.3049663305 0.1026472449 1.478322936e-38
0.1525777429 -0.4226634502 0.1175867915 1.478322936e-38
0.04150371626 -0.2508664131 0.3120919168 1.478322936e-38
0.04911065474 -0.3385625482 0.3103479445 1.478322936e-38
0.04548155144 -0.2127527297 0.3125812411 1.478322936e-38
0.05837662518 -0.2804734409 0.3115014434 1.478322936e-38
-0.007236393169 -0.189806819 0.3036769927 1.478322936e-38
0.003259278834 -0.3599150479 0.2954360545 1.478322936e-38
-0.006738772616 -0.1197464541 0.3011369705 1.478322936e-38
0.01394954138 -0.2474118173 0.3015481532 1.478322936e-38
0.008166112006 -0.3394964039 -0.3360631466 1.478322936e-38
0.0116815418 -0.4459143877 -0.3360989094 1.478322936e-38
0.02877951972 -0.2634196579 -0.3256228864 1.478322936e-38
0.02140347846 -0.384693861 -0.3336923122 1.478322936e-38
-0.05166815221 -0.1094688773 -0.3197563291 1.478322936e-38
-0.02312110178 -0.1918234229 -0.320674628 1.478322936e-38
-0.01905053668 -0.09202951938 -0.3123165965 1.478322936e-38
-0.00985298492 -0.1279322356 -0.3254908919 1.478322936e-38
0.1808425188 -0.1493131667 -0.1683589518 1.478322936e-38
0.1879714131 -0.2773835659 -0.1434090585 1.478322936e-38
0.1847892702 -0.1143047661 -0.1155400723 1.478322936e-38
0.1858147681 -0.1986612827 -0.1186968982 1.478322936e-38
-0.064419806 -0.1577491462 0.2907873094 1.771655483e-38
-0.04729484767 -0.2494653761 0.283821851 1.771655483e-38
-0.04759206623 -0.1320869774 0.2962919474 1.771655483e-38
-0.02845762111 -0.1785008907 0.2914237082 1.771655483e-38
0.1752166897 -0.1582906246 0.1290893406 1.771655483e-38
0.1760272533 -0.2822022736 0.1527570784 1.771655483e-38
0.1719326079 -0.1489904225 0.1869428307 1.771655483e-38
0.1754021943 -0.2027007788 0.1831743121 1.771655483e-38
0.1698635966 -0.3450408578 -0.1274745762 1.771655483e-38
0.1710984409 -0.4381775856 -0.1093320549 1.771655483e-38
0.1651055366 -0.2897464037 -0.09606806934 1.771655483e-38
0.1681983173 -0.3832842112 -0.08496047556 1.771655483e-38
-0.02693109773 -0.2770196497 -0.3310039043 1.771655483e-38
-0.01910897531 -0.3965519667 -0.3375217021 1.771655483e-38
-0.004196276888 -0.2211903036 -0.3350013494 1.771655483e-38
-0.004962256178 -0.3195699155 -0.3439050615 1.771655483e-38
0.138440311 -0.2366790473 -0.08392110467 1.771655483e-38
0.1452961117 -0.3262762427 -0.06465785205 1.771655483e-38
0.1443611383 -0.1945107877 -0.04964756593 1.771655483e-38
0.1413668543 -0.2687640488 -0.0490838103 1.771655483e-38
0.1163186282 -0.2245877683 0.3125006557 1.771655483e-38
0.1241971403 -0.3023503721 0.3133380711 1.771655483e-38
0.119988896 -0.1983782053 0.3153395355 1.771655483e-38
0.1255888343 -0.2504889965 0.317487061 1.771655483e-38
-0.2015051842 -0.4082728922 -0.2902837396 1.771655483e-38
-0.2038066536 -0.4641691744 -0.2862282395 1.771655483e-38
-0.1802950054 -0.3575744629 -0.2876803875 1.771655483e-38
-0.1637583971 -0.4372681975 -0.2890449762 1.771655483e-38
0.2027602941 -0.327259779 -0.05210265145 1.771655483e-38
0.2028429806 -0.4487904012 -0.04249550775 1.771655483e-38
0.2031352669 -0.2475306988 -0.03400136158 1.771655483e-38
0.1991189867 -0.382927537 -0.02414440364 1.771655483e-38
0.008465489373 -0.3210867047 -0.3244777322 1.771655483e-38
0.01065379381 -0.4393039048 -0.32711941 1.771655483e-38
0.02582652867 -0.2359248698 -0.3243935406 1.771655483e-38
0.02328813821 -0.3714381456 -0.3290938735 1.771655483e-38
-0.08123800159 -0.3360416591 -0.3228096068 1.771655483e-38
-0.06949089468 -0.4456607699 -0.3277963996 1.771655483e-38
-0.05194395781 -0.2466682196 -0.3270038962 1.771655483e-38
-0.0500652492 -0.3867847323 -0.3307231665 1.771655483e-38
0.1646630466 -0.1839127839 -0.1578675658 1.771655483e-38
0.1652023047 -0.3121322691 -0.1476091594 1.771655483e-38
0.1634852737 -0.1408420205 -0.1397738159 1.771655483e-38
0.1656551957 -0.2362714112 -0.1363917589 1.771655483e-38
-0.05232121795 -0.3354057074 -0.3251720667 1.771655483e-38
-0.03076382913 -0.4531961083 -0.3285743296 1.771655483e-38
0.01015151478 -0.2505640984 -0.3244920373 1.771655483e-38
0.01366852783 -0.3928362429 -0.3291097283 1.771655483e-38
-0.1297298372 -0.4817381501 0.1636218727 1.771655483e-38
-0.1295027882 -0.4854041338 -0.02652845532 1.771655483e-38
-0.1768272668 -0.4814947844 0.09845730662 1.771655483e-38
-0.04887794703 -0.4837783873 0.1085120887 1.771655483e-38
-0.1375104487 -0.3200509846 -0.3092993796 1.771655483e-38
-0.1342794746 -0.4318931401 -0.3111703098 1.771655483e-38
-0.1185084358 -0.2315846682 -0.3085371554 1.771655483e-38
-0.1048586294 -0.3735396564 -0.3064199984 1.771655483e-38
-0.3406066 -0.4275985658 -0.2335982025 1.771655483e-38
-0.3384262025 -0.4540386796 -0.2302272022 1.771655483e-38
-0.3305830657 -0.4082744122 -0.2142951041 1.771655483e-38
-0.3027541339 -0.4466221631 -0.2260461152 1.771655483e-38
-0.1893115491 -0.4842955768 0.0024845507 1.771655483e-38
-0.1948716491 -0.4832886159 -0.1804620326 1.771655483e-38
-0.2614617348 -0.4846794009 -0.06453123689 1.771655483e-38
-0.08330725878 -0.484973222 -0.08611221611 1.771655483e-38
-0.1117936596 -0.4832131565 0.150714919 1.771655483e-38
-0.1282327473 -0.4860973358 -0.02315558121 1.771655483e-38
-0.2023334354 -0.4833435714 0.09921690822 1.771655483e-38
-0.01574048586 -0.4843128026 0.08656527102 1.771655483e-38
-0.03169444948 -0.109220542 -0.3164332509 1.771655483e-38
0.009811898693 -0.203207016 -0.3204483986 1.771655483e-38
0.01452483144 -0.09077689052 -0.3200467825 1.771655483e-38
0.03141617775 -0.1279031634 -0.3218502104 1.771655483e-38
0.007208794355 -0.1872103661 -0.315502882 1.771655483e-38
0.03917539865 -0.3024997413 -0.3142805099 1.771655483e-38
0.04922299087 -0.1262180507 -0.3159203529 1.771655483e-38
0.05279697105 -0.2173560858 -0.3163658381 1.771655483e-38
-0.06416859478 -0.1225920096 -0.3057329357 1.771655483e-38
-0.03368347883 -0.2188524604 -0.307191968 1.771655483e-38
-0.02721132152 -0.1052745879 -0.3045372367 1.771655483e-38
-0.00919370167 -0.1450127363 -0.3075081408 1.771655483e-38
-0.07600644976 -0.1630312949 0.2819291949 1.771655483e-38
-0.06355568022 -0.2912913561 0.2740891278 1.771655483e-38
-0.06312074512 -0.1165066659 0.2840975523 1.771655483e-38
-0.04933018982 -0.2042421997 0.2808679938 1.771655483e-38
-0.007459918037 -0.3415830433 0.2815362215 1.771655483e-38
0.002103153616 -0.4463534057 0.2746707499 1.771655483e-38
-0.004783367738 -0.2620470822 0.2842640281 1.771655483e-38
0.002346709371 -0.3915679157 0.2923856378 1.771655483e-38
-0.02932448871 -0.2155238688 -0.304294467 1.771655483e-38
-0.01887948997 -0.3818365633 -0.3038284481 1.771655483e-38
-0.0005404688418 -0.1338824481 -0.3007752895 1.771655483e-38
0.001750053838 -0.2780674398 -0.3061929643 1.771655483e-38
0.0426851958 -0.4413902164 -0.1154621542 1.771655483e-38
0.02793837152 -0.4753718674 -0.1234955639 1.771655483e-38
0.0441784896 -0.4110382497 -0.09814432263 1.771655483e-38
0.05239341408 -0.463047564 -0.08858007193 1.771655483e-38
-0.1558542401 -0.3391648829 -0.3270128369 1.771655483e-38
-0.1422156394 -0.4430503249 -0.3299071491 1.771655483e-38
-0.1053527966 -0.2605773509 -0.3338681459 1.771655483e-38
-0.1045761928 -0.3852816224 -0.330937326 1.771655483e-38
0.1437475234 -0.2547582686 0.2789586484 1.771655483e-38
0.1438692212 -0.3511522114 0.2822112143 1.771655483e-38
0.1393174678 -0.2127522528 0.2941540182 1.771655483e-38
0.1417011321 -0.2927219272 0.2983747423 1.771655483e-38
0.07589659095 -0.3754396439 -0.2266378999 1.771655483e-38
0.07711993158 -0.4369464815 -0.2094705403 1.771655483e-38
0.07800415903 -0.3583246469 -0.1908967942 1.771655483e-38
0.09073965251 -0.3961750865 -0.1948560178 1.771655483e-38
0.1117092445 -0.2925959229 0.3049610853 1.771655483e-38
0.117264241 -0.3600456715 0.3061973453 1.771655483e-38
0.1138721853 -0.2619873285 0.3154434562 1.771655483e-38
0.1226857752 -0.3106198907 0.3111105263 1.771655483e-38
-0.1864174455 -0.4839293957 -0.03425021097 1.771655483e-38
-0.1854802668 -0.4839718342 -0.1778012961 1.771655483e-38
-0.2503338456 -0.4842261076 -0.08346617222 1.771655483e-38
-0.07440219074 -0.4837729335 -0.1093381792 1.771655483e-38
0.05644432455 -0.3714956343 -0.2092032135 1.771655483e-38
0.06224538386 -0.4343105555 -0.1926114559 1.771655483e-38
0.06120626256 -0.3568597138 -0.1674191654 1.771655483e-38
0.07637178153 -0.3882163167 -0.1743770391 1.771655483e-38
0.036586117 -0.3814596534 -0.2274563611 1.771655483e-38
0.04003712907 -0.4459570646 -0.2201378644 1.771655483e-38
0.04845551401 -0.353527844 -0.2037497461 1.771655483e-38
0.05466325581 -0.3977090716 -0.2037945837 1.771655483e-38
0.1748534441 -0.3566823006 -0.01507744566 1.771655483e-38
0.175695926 -0.455965519 -0.009411361068 1.771655483e-38
0.1742784232 -0.2848314345 0.007463177666 1.771655483e-38
0.1725382805 -0.4041549563 0.01744323038 1.771655483e-38
-0.01922916062 -0.1896139979 -0.311680764 2.06466517e-38
0.006169632077 -0.2857588828 -0.3169771135 2.06466517e-38
0.04150943831 -0.1702035367 -0.3148584664 2.06466517e-38
0.04357435182 -0.2091450691 -0.3215771019 2.06466517e-38
0.1870685667 -0.323679924 -0.1210446209 2.06466517e-38
0.1878597438 -0.4423350692 -0.1089442819 2.06466517e-38
0.1840263754 -0.2559947371 -0.08047729731 2.06466517e-38
0.1848350167 -0.3754729033 -0.06176077202 2.06466517e-38
-0.202007547 -0.483440429 -0.05708634481 2.06466517e-38
-0.2040909529 -0.4839216769 -0.175702095 2.06466517e-38
-0.2636791468 -0.4853052199 -0.09604914486 2.06466517e-38
-0.09538450092 -0.4847328663 -0.129848361 2.06466517e-38
0.160487771 -0.1625154465 -0.09093542397 2.06466517e-38
0.1646324843 -0.2880319357 -0.05927069113 2.06466517e-38
0.1620168239 -0.1337409019 -0.018188335 2.06466517e-38
0.1649550349 -0.2083699107 -0.0280832462 2.06466517e-38
0.1208613068 -0.2992195487 0.2853844166 2.06466517e-38
0.1257278025 -0.4081073403 0.2803860903 2.06466517e-38
0.1247860491 -0.2423116267 0.2925715148 2.06466517e-38
0.1348106116 -0.3360922039 0.2883771658 2.06466517e-38
0.03015916422 -0.2718358338 0.278398782 2.06466517e-38
0.06405083835 -0.3685492575 0.2710804343 2.06466517e-38
0.0611962229 -0.2153991163 0.2769852281 2.06466517e-38
0.08880447596 -0.2950492799 0.2775421739 2.06466517e-38
-0.1606146395 -0.1455907524 0.297054708 2.06466517e-38
-0.122820057 -0.2548536956 0.2906123996 2.06466517e-38
-0.1163977012 -0.1118866503 0.2961474955 2.06466517e-38
-0.08636628836 -0.1657504439 0.2976159453 2.06466517e-38
0.1635194421 -0.2529926896 0.2965668142 2.06466517e-38
0.1859163493 -0.3502424955 0.2878223062 2.06466517e-38
0.1816288233 -0.2169410884 0.2929299772 2.06466517e-38
0.1928184927 -0.2813754976 0.290247947 2.06466517e-38
0.09957269579 -0.2716647387 0.2932842374 2.06466517e-38
0.1307173669 -0.3562538028 0.2866384387 2.06466517e-38
0.1328146458 -0.2272034287 0.2941938639 2.06466517e-38
0.1517363638 -0.2939445376 0.2902196646 2.06466517e-38
-0.1781925708 -0.3179725707 0.2763362229 2.06466517e-38
-0.1742129177 -0.4394285083 0.27579844 2.06466517e-38
-0.1713904887 -0.2319540679 0.2783809304 2.06466517e-38
-0.14568609 -0.3693802357 0.2811034322 2.06466517e-38
-0.05832324177 -0.3199317455 0.2770556509 2.06466517e-38
-0.04407969862 -0.4362557828 0.2761897445 2.06466517e-38
-0.04705558717 -0.2369110584 0.2842456698 2.06466517e-38
-0.0223395545 -0.3717044294 0.2815736532 2.06466517e-38
-0.1449834704 -0.2639492154 -0.3032791615 2.06466517e-38
-0.134471491 -0.4072951376 -0.3031311035 2.06466517e-38
-0.1313032806 -0.2018699944 -0.3055240512 2.06466517e-38
-0.1293624043 -0.3258173168 -0.3055479527 2.06466517e-38
0.1961718947 -0.1448763311 0.1215551049 2.06466517e-38
0.1994430274 -0.261784941 0.1344003379 2.06466517e-38
0.1956992894 -0.1307406276 0.1405202597 2.06466517e-38
0.1971763074 -0.1884508431 0.1397358924 2.06466517e-38
-0.02244408242 -0.1977246255 -0.3187551498 2.06466517e-38
-5.302205682e-05 -0.3189276159 -0.3199315965 2.06466517e-38
0.004296943545 -0.1503246129 -0.317263931 2.06466517e-38
0.007239477709 -0.2324862182 -0.3235001564 2.06466517e-38
-0.0897679776 -0.3352581263 -0.313754797 2.06466517e-38
-0.07746347785 -0.4366123974 -0.3152324855 2.06466517e-38
-0.06215735525 -0.2578049302 -0.3134341538 2.06466517e-38
-0.06028550863 -0.3766109347 -0.3147565722 2.06466517e-38
0.1867884099 -0.125355795 -0.03618535027 2.06466517e-38
0.185616836 -0.2120291591 0.0079804454 2.06466517e-38
0.1832876951 -0.1293405741 0.03925461322 2.06466517e-38
0.1880178899 -0.1491389871 0.02118610591 2.06466517e-38
-0.1918501258 -0.2716535628 -0.3092767298 2.06466517e-38
-0.1799632758 -0.3888697028 -0.3080180883 2.06466517e-38
-0.1816642135 -0.2190902531 -0.3017099202 2.06466517e-38
-0.1740162671 -0.316385746 -0.3060860634 2.06466517e-38
0.1890219152 -0.2735602856 -0.166661635 2.06466517e-38
0.1904051453 -0.4133782089 -0.1544145793 2.06466517e-38
0.1885640621 -0.210552454 -0.1343544424 2.06466517e-38
0.1930970699 -0.325722307 -0.1214118004 2.06466517e-38
0.179859519 -0.1357414424 -0.08185395598 2.06466517e-38
0.181384936 -0.2310364246 -0.04182554409 2.06466517e-38
0.1801006943 -0.1355623007 0.005413725972 2.06466517e-38
0.182194382 -0.1633711755 -0.01791139692 2.06466517e-38
-0.1767831296 -0.4833872318 0.1030794233 2.06466517e-38
-0.1799445152 -0.4859920442 -0.07780519128 2.06466517e-38
-0.2512667179 -0.4827614129 0.03882899135 2.06466517e-38
-0.06167883426 -0.4831567705 0.03319423273 2.06466517e-38
-0.2417443991 -0.4827520251 -0.08722421527 2.06466517e-38
-0.233736068 -0.4817124009 -0.2263381183 2.06466517e-38
-0.286195457 -0.483787328 -0.1406232417 2.06466517e-38
-0.1342081875 -0.4843856394 -0.1747289002 2.06466517e-38
-0.06219298393 -0.1894054711 -0.3167031407 2.06466517e-38
-0.02745263465 -0.3120601773 -0.317263484 2.06466517e-38
-0.02227687277 -0.1368072331 -0.3180665672 2.06466517e-38
-0.009578773752 -0.2193225324 -0.3195825219 2.06466517e-38
-0.06711633503 -0.2134918869 -0.3181006312 2.06466517e-38
-0.03709504008 -0.3706533611 -0.3196444511 2.06466517e-38
-0.002198016271 -0.1386477053 -0.3195767105 2.06466517e-38
0.005613222718 -0.2647047341 -0.3221256733 2.06466517e-38
-0.2319853902 -0.4822965264 -0.03115662187 2.06466517e-38
-0.2229090035 -0.4819954336 -0.1936143935 2.06466517e-38
-0.2835636437 -0.4840202034 -0.09197488427 2.06466517e-38
-0.1272081137 -0.4845353365 -0.1147002131 2.06466517e-38
-0.1756139249 -0.3612953126 -0.3068308532 2.06466517e-38
-0.1732858866 -0.4508686662 -0.3145882487 2.06466517e-38
-0.130924806 -0.2745632529 -0.3101600111 2.06466517e-38
-0.1231412962 -0.4030047953 -0.3082128167 2.06466517e-38
0.04699541628 -0.4333319664 -0.07641270757 2.06466517e-38
0.04062853754 -0.4738105237 -0.07971006632 2.06466517e-38
0.05313533545 -0.4062763751 -0.04453295097 2.06466517e-38
0.07129141688 -0.4456037581 -0.04972419515 2.06466517e-38
0.1927441061 -0.1380223334 -0.02710554004 2.06466517e-38
0.1875460595 -0.229524225 0.01591846719 2.06466517e-38
0.1871157736 -0.1456128061 0.04669575393 2.06466517e-38
0.1921890527 -0.1664484143 0.03040642664 2.06466517e-38
-0.2058345824 -0.347507447 -0.3084467947 2.06466517e-38
-0.2062798291 -0.441719681 -0.3102627993 2.06466517e-38
-0.1889646798 -0.2733784318 -0.3070063293 2.06466517e-38
-0.1814329773 -0.3843613863 -0.3037180007 2.06466517e-38
-0.07401371002 -0.1441056281 -0.3144576252 2.06466517e-38
-0.03343658149 -0.2483648658 -0.3162373602 2.06466517e-38
-0.0007641240954 -0.1124677286 -0.3182003498 2.06466517e-38
0.01519541536 -0.1651569307 -0.316313833 2.06466517e-38
0.143807441 -0.3091670275 0.2025619298 2.06466517e-38
0.1386123449 -0.3564280272 0.2143590301 2.06466517e-38
0.1235925928 -0.3094270527 0.2338650674 2.06466517e-38
0.1516171396 -0.3203645051 0.2228897661 2.06466517e-38
-0.05203448236 -0.145680517 -0.306266278 2.06466517e-38
-0.01676745154 -0.2397190332 -0.3109845221 2.06466517e-38
-0.003836603835 -0.1319179684 -0.3038622737 2.06466517e-38
0.01175552048 -0.1661777645 -0.311257273 2.06466517e-38
-0.2191280574 -0.4750443101 -0.1660821438 2.06466517e-38
-0.216259554 -0.4813447595 -0.2326771915 2.06466517e-38
-0.2316770256 -0.477329433 -0.1917242408 2.06466517e-38
-0.1506276876 -0.4834014177 -0.195097357 2.06466517e-38
-0.1719437838 -0.4791356623 0.2254328877 2.348204041e-38
-0.1954765618 -0.4828560948 0.07732992619 2.348204041e-38
-0.22283566 -0.4775025845 0.1935154647 2.348204041e-38
-0.09381636977 -0.4831165969 0.2008943111 2.348204041e-38
0.1575299501 -0.1360130906 -0.001938190311 2.348204041e-38
0.1544378996 -0.2385905385 0.03774630651 2.348204041e-38
0.1544010937 -0.1292974651 0.07568266988 2.348204041e-38
0.1593354046 -0.1731896102 0.06503237784 2.348204041e-38
0.1739791483 -0.1897572279 -0.105606392 2.348204041e-38
0.1797442287 -0.323533535 -0.0860170722 2.348204041e-38
0.1744636148 -0.1541181207 -0.06089643762 2.348204041e-38
0.1788006425 -0.2392306924 -0.06510713696 2.348204041e-38
-0.0323901996 -0.2051747888 -0.3066603541 2.348204041e-38
-0.01342980377 -0.324356854 -0.3101069331 2.348204041e-38
-0.006781255826 -0.1646606922 -0.3055613041 2.348204041e-38
-0.003807595 -0.2371838987 -0.3137503564 2.348204041e-38
0.09564515948 -0.2738472521 0.2364592999 2.348204041e-38
0.1035655141 -0.3446735442 0.234307304 2.348204041e-38
0.1050481871 -0.2458731532 0.2425344139 2.348204041e-38
0.116387777 -0.2952806652 0.2397943139 2.348204041e-38
-0.3198316693 -0.4809490144 -0.1048582345 2.348204041e-38
-0.3178327978 -0.4743315279 -0.187563315 2.348204041e-38
-0.3429425657 -0.4803947806 -0.1284872442 2.348204041e-38
-0.2601566911 -0.4821568131 -0.1366301477 2.348204041e-38
-0.2507820129 -0.3315638304 -0.2165182233 2.348204041e-38
-0.2521836162 -0.364998728 -0.1976409107 2.348204041e-38
-0.2516994476 -0.3364463747 -0.1662948132 2.348204041e-38
-0.2140997946 -0.3365784585 -0.1939783692 2.348204041e-38
-0.03505308181 -0.1429639608 -0.3141588271 2.348204041e-38
-0.009515373036 -0.2325479686 -0.313878417 2.348204041e-38
-0.003415154293 -0.1291311681 -0.3047437966 2.348204041e-38
0.007149526849 -0.1656191945 -0.3137734532 2.348204041e-38
0.08974287659 -0.2567522228 0.2297479808 2.348204041e-38
0.09805208445 -0.3168309629 0.2265919596 2.348204041e-38
0.09904420376 -0.2271324098 0.2347633094 2.348204041e-38
0.1118779629 -0.2787669897 0.2326315939 2.348204041e-38
0.1728332043 -0.2996936738 0.120624885 2.348204041e-38
0.1779376864 -0.4243164659 0.1253730506 2.348204041e-38
0.1679247767 -0.2345656157 0.1667322665 2.348204041e-38
0.1732192934 -0.3441419303 0.1758182049 2.348204041e-38
0.1485317498 -0.3571290672 -0.1264027655 2.348204041e-38
0.152951926 -0.4389736056 -0.1115068495 2.348204041e-38
0.1514114141 -0.3128694594 -0.098441571 2.348204041e-38
0.1537403315 -0.3860693872 -0.104715243 2.348204041e-38
0.1327269524 -0.2789634168 0.2295593768 2.348204041e-38
0.136681959 -0.3707009554 0.2308765352 2.348204041e-38
0.1375963837 -0.2314806879 0.2423282862 2.348204041e-38
0.1421151161 -0.3065216243 0.2333665937 2.348204041e-38
-0.100433059 -0.3468077481 -0.3226228356 2.348204041e-38
-0.09863167256 -0.4477576017 -0.3242299855 2.348204041e-38
-0.08399162441 -0.267688632 -0.3229193985 2.348204041e-38
-0.08562656492 -0.3910219967 -0.3227497339 2.348204041e-38
0.1697927117 -0.3592497408 0.088143453 2.348204041e-38
0.1679880619 -0.460942179 0.0794397369 2.348204041e-38
0.1666650474 -0.2745597363 0.1077070683 2.348204041e-38
0.1666813791 -0.4135823548 0.117756471 2.348204041e-38
0.1794777364 -0.198165834 -0.1200219691 2.348204041e-38
0.1803327501 -0.3400921226 -0.1027428657 2.348204041e-38
0.1779255122 -0.1623095572 -0.05044009164 2.348204041e-38
0.1825655103 -0.2521043122 -0.05953073129 2.348204041e-38
0.1848078221 -0.1523280293 0.02691183798 2.348204041e-38
0.1855458468 -0.263492316 0.06134214997 2.348204041e-38
0.1803076714 -0.1520135403 0.09315682948 2.348204041e-38
0.1806565523 -0.1927313805 0.08847203851 2.348204041e-38
0.07862214744 -0.3825678825 -0.1494816244 2.348204041e-38
0.07869672775 -0.4546146095 -0.1424085349 2.348204041e-38
0.08799612522 -0.3429123163 -0.1315349936 2.348204041e-38
0.09130454808 -0.4091101885 -0.1344697028 2.348204041e-38
0.1553390026 -0.1817950904 -0.1021199971 2.348204041e-38
0.158910647 -0.3274099231 -0.0825856328 2.348204041e-38
0.1580276936 -0.1480495185 -0.05208418891 2.348204041e-38
0.1563453674 -0.2337789237 -0.05527916923 2.348204041e-38
-0.2579259872 -0.4826543033 -0.05857450888 2.348204041e-38
-0.2567341626 -0.4831529558 -0.1822790056 2.348204041e-38
-0.3107295632 -0.4833006263 -0.100113377 2.348204041e-38
-0.150714457 -0.4838661253 -0.1230189949 2.348204041e-38
-0.161088869 -0.2868778706 -0.3175738454 2.348204041e-38
-0.1586936861 -0.4022583663 -0.3240329325 2.348204041e-38
-0.1417134702 -0.2230961919 -0.324798584 2.348204041e-38
-0.1402804852 -0.3365811408 -0.3239757717 2.348204041e-38
0.1893851012 -0.2223753035 -0.05949114636 2.348204041e-38
0.187812075 -0.3519968092 -0.03616146371 2.348204041e-38
0.1842895001 -0.1781330407 -0.006192736328 2.348204041e-38
0.1878318638 -0.2670028806 -0.01050186902 2.348204041e-38
-0.1893711239 -0.4671755731 -0.1824520677 2.348204041e-38
-0.1899926066 -0.4804628491 -0.2355895638 2.348204041e-38
-0.1910304725 -0.4503225088 -0.1968733817 2.348204041e-38
-0.1279693097 -0.4819587469 -0.1960745305 2.348204041e-38
-0.1881392598 -0.3370262682 0.2811186016 2.348204041e-38
-0.1813569516 -0.4465763271 0.2825556397 2.348204041e-38
-0.1776898354 -0.261403352 0.2917534709 2.348204041e-38
-0.1637345403 -0.3862364888 0.2917889655 2.348204041e-38
0.1764621288 -0.1736528575 0.05365114659 2.348204041e-38
0.1789924949 -0.2334080637 0.08300920576 2.348204041e-38
0.1719652861 -0.1725893617 0.1135994643 2.348204041e-38
0.1795599163 -0.1967061013 0.1023193747 2.348204041e-38
-0.1686444581 -0.48305282 0.1277736425 2.348204041e-38
-0.1914116293 -0.4840941429 -0.05165646598 2.348204041e-38
-0.2357822359 -0.4827083349 0.06693145633 2.348204041e-38
-0.06703925133 -0.4847664535 0.06881548464 2.348204041e-38
-0.09262619168 -0.2673814595 -0.3016311228 2.348204041e-38
-0.07867708802 -0.3961203992 -0.3045020103 2.348204041e-38
-0.07032439113 -0.2243160009 -0.3006913662 2.348204041e-38
-0.06734354794 -0.3161629438 -0.3045549691 2.348204041e-38
-0.1384684891 -0.1820091605 0.2695731819 2.348204041e-38
-0.1242092773 -0.3327933252 0.2625213861 2.348204041e-38
-0.1215692684 -0.1269441694 0.2727385461 2.348204041e-38
-0.1069213524 -0.2344757915 0.2726130188 2.348204041e-38
-0.05416030437 -0.2327905297 0.2876680791 2.348204041e-38
-0.044633165 -0.356810987 0.2828454971 2.348204041e-38
-0.04741872847 -0.1725137383 0.2888798714 2.348204041e-38
-0.02985683642 -0.2764253914 0.2894694507 2.348204041e-38
-0.1348399073 -0.1757856607 -0.3295918703 2.348204041e-38
-0.1147947088 -0.290463537 -0.3345713317 2.348204041e-38
-0.1018495187 -0.1373752356 -0.3314466476 2.348204041e-38
-0.09740269929 -0.2032574117 -0.3396905959 2.348204041e-38
0.1721499264 -0.3861426413 -0.07744403183 2.348204041e-38
0.1675316095 -0.4509125352 -0.0545191057 2.348204041e-38
0.1645639837 -0.3541319966 -0.03731333837 2.348204041e-38
0.1719464362 -0.4134343863 -0.02456163988 2.348204041e-38
-0.131516546 -0.2282959521 -0.3136696219 2.348204041e-38
-0.1081417426 -0.3790086508 -0.3185956478 2.348204041e-38
-0.09249586612 -0.1653733552 -0.3164629638 2.348204041e-38
-0.09110084921 -0.2747282982 -0.3208328485 2.348204041e-38
0.0272969082 -0.3681117296 -0.1840939969 2.348204041e-38
0.031926319 -0.427538991 -0.1705888063 2.348204041e-38
0.04018647596 -0.3534171581 -0.1526860744 2.348204041e-38
0.05232781917 -0.3817252219 -0.1650044322 2.348204041e-38
-0.2745599747 -0.336602807 -0.2311312556 2.346801622e-38
-0.2788383067 -0.3805975914 -0.2087488919 2.346801622e-38
-0.275585115 -0.3343038261 -0.1819827557 2.346801622e-38
-0.2507355213 -0.3405336142 -0.2060987651 2.346801622e-38
0.174149096 -0.3397884369 -0.01314722002 2.346801622e-38
0.1736045331 -0.4526137412 -0.006664227694 2.346801622e-38
0.171727255 -0.2596300244 0.03520748019 2.346801622e-38
0.1716164351 -0.3954701722 0.05062177405 2.346801622e-38
0.1824681163 -0.2187413573 -0.04585373029 2.346801622e-38
0.1828033328 -0.3787044883 -0.0236223191 2.346801622e-38
0.1813390106 -0.1678002328 0.01807785966 2.346801622e-38
0.1828862131 -0.274117291 0.01736084931 2.346801622e-38
0.1503381729 -0.3646935821 0.2883101106 2.346801622e-38
0.1523097903 -0.4455615282 0.2840511203 2.346801622e-38
0.1539061368 -0.320038408 0.2930921316 2.346801622e-38
0.1583700031 -0.394831866 0.2923991382 2.346801622e-38
-0.2003307194 -0.4059732556 -0.2248870432 2.346801622e-38
-0.1974392086 -0.4553015828 -0.2141086906 2.346801622e-38
-0.1913370341 -0.394877553 -0.1940152049 2.346801622e-38
-0.1661267281 -0.4222182333 -0.2148330808 2.346801622e-38
0.03819851577 -0.3586511016 -0.09899422526 2.346801622e-38
0.04466928914 -0.4037548602 -0.0690741837 2.346801622e-38
0.04351239279 -0.356323123 -0.04266338423 2.346801622e-38
0.07588585466 -0.358843565 -0.06341567636 2.346801622e-38
0.164035961 -0.1991248727 -0.06383886933 2.346801622e-38
0.1608118862 -0.3280803263 -0.03632357344 2.346801622e-38
0.1623455137 -0.1774729192 -0.008973881602 2.346801622e-38
0.1631872505 -0.2406384349 -0.01462010294 2.346801622e-38
-0.3465868235 -0.318452388 -0.2258473933 2.346801622e-38
-0.3529242277 -0.3629153371 -0.2103965878 2.346801622e-38
-0.3512026966 -0.3233169615 -0.1830022186 2.346801622e-38
-0.3299108148 -0.327778548 -0.2095684558 2.346801622e-38
-0.2833971679 -0.4745702446 0.1801444888 2.346801622e-38
-0.3019097745 -0.4786029458 0.04854632169 2.346801622e-38
-0.3261447847 -0.4752669036 0.147097975 2.346801622e-38
-0.2145099193 -0.4822078049 0.1602936387 2.346801622e-38
0.0197210554 -0.2176896632 0.2928587794 2.346801622e-38
0.02671391889 -0.3442991674 0.2846373618 2.346801622e-38
0.02221982554 -0.162191242 0.2888714373 2.346801622e-38
0.03501376137 -0.2615070343 0.2863912582 2.346801622e-38
-0.2896382511 -0.4841030538 -0.04679447785 2.346801622e-38
-0.2789866328 -0.4838867784 -0.2067228854 2.346801622e-38
-0.3314783871 -0.4831531048 -0.107934922 2.346801622e-38
-0.1641573459 -0.4841199517 -0.1403081119 2.346801622e-38
0.07480335981 -0.3760626614 -0.1029366851 2.346801622e-38
0.08208873868 -0.4337286353 -0.0767942369 2.346801622e-38
0.0833991915 -0.360719949 -0.06141382828 2.346801622e-38
0.09326663613 -0.3934248388 -0.07051199675 2.346801622e-38
0.1199572831 -0.3765028715 0.1817852855 2.346801622e-38
0.1151599512 -0.4492612183 0.1873897165 2.346801622e-38
0.1169473156 -0.3444739878 0.2074425966 2.346801622e-38
0.1211030036 -0.3998610675 0.2102849782 2.346801622e-38
-0.1434342861 -0.2169116735 0.2780947089 2.346801622e-38
-0.1277978122 -0.3296441734 0.2749177516 2.346801622e-38
-0.1282838136 -0.1691485345 0.2808875144 2.346801622e-38
-0.1028124765 -0.2588433623 0.2837148011 2.346801622e-38
-0.2423744202 -0.3978537023 -0.2903397679 2.346801622e-38
-0.2440949082 -0.4489097893 -0.281540215 2.346801622e-38
-0.2244139314 -0.3697494268 -0.2774621844 2.346801622e-38
-0.2052104175 -0.4120643139 -0.2869949639 2.346801622e-38
0.1844463795 -0.149932757 0.02210796066 2.346801622e-38
0.1809107512 -0.2618057728 0.05238009617 2.346801622e-38
0.1826608926 -0.158596918 0.07621490955 2.346801622e-38
0.1801683307 -0.1860631704 0.07123954594 2.346801622e-38
-0.3499678969 -0.3414354324 -0.2091909349 2.346801622e-38
-0.3568895161 -0.385828793 -0.1853720993 2.346801622e-38
-0.3542197049 -0.3425215781 -0.1631243229 2.346801622e-38
-0.3338457644 -0.3468017876 -0.1857231706 2.346801622e-38
-0.1064730659 -0.2518126369 0.283544153 2.346801622e-38
-0.1003398374 -0.368561089 0.2802652419 2.346801622e-38
-0.102489613 -0.1988760829 0.2908446193 2.346801622e-38
-0.08732670546 -0.2875344157 0.2905556262 2.346801622e-38
0.1835347712 -0.3109839261 0.1093244553 2.346801622e-38
0.1851679385 -0.4224740863 0.1143717468 2.346801622e-38
0.1810008287 -0.2385695577 0.1297774911 2.346801622e-38
0.1812512726 -0.3524772823 0.1335216463 2.346801622e-38
-0.1957621723 -0.3940395415 -0.2772990763 2.346801622e-38
-0.1933595836 -0.4439523816 -0.272266686 2.346801622e-38
-0.181073606 -0.3543180823 -0.2703819573 2.346801622e-38
-0.1795837879 -0.4126344621 -0.27502352 2.346801622e-38
0.1799577177 -0.2588742971 -0.04362650588 2.346801622e-38
0.1811678708 -0.4055790603 -0.02517361939 2.346801622e-38
0.1763015836 -0.194255352 0.003138625994 2.346801622e-38
0.1799434274 -0.3153651953 0.003311157227 2.346801622e-38
0.1883759052 -0.3008105159 -0.05560365692 2.346801622e-38
0.1886010319 -0.4335722327 -0.04221356288 2.346801622e-38
0.1872760057 -0.2275217474 0.01148947887 2.346801622e-38
0.186928615 -0.355759114 0.02035260573 2.346801622e-38
0.1880956739 -0.1726348102 0.04667010903 2.346801622e-38
0.1895661652 -0.2960786223 0.06888838112 2.346801622e-38
0.1874645948 -0.1685243845 0.1144539118 2.346801622e-38
0.1858431399 -0.2174173892 0.1040253788 2.346801622e-38
-0.266494453 -0.4776627719 0.1699453592 2.346801622e-38
-0.2820802629 -0.4811193347 0.04290031642 2.346801622e-38
-0.3113552928 -0.4788164496 0.1405529529 2.346801622e-38
-0.1691263765 -0.4826891422 0.1491970867 2.346801622e-38
0.185046792 -0.2055825591 0.1437130272 2.346801622e-38
0.1892764568 -0.3487236202 0.1589380503 2.346801622e-38
0.1825536042 -0.1635654271 0.1791146547 2.346801622e-38
0.1853816658 -0.2589890063 0.1815339178 2.346801622e-38
-0.2039104849 -0.4792456031 0.2198656499 2.346801622e-38
-0.2163369507 -0.4827202559 0.09461578727 2.346801622e-38
-0.2538362741 -0.4778451622 0.1886470318 2.346801622e-38
-0.1144772843 -0.4832575619 0.1920767277 2.346801622e-38
-0.03245429695 -0.3296360373 0.2771386802 2.346801622e-38
-0.02443470247 -0.4415317476 0.2727204263 2.346801622e-38
-0.0280073788 -0.259216994 0.2771214247 2.346801622e-38
-0.009398942813 -0.373914212 0.2786982059 2.346801622e-38
0.1765500903 -0.3094520867 0.2859890163 2.346801622e-38
0.1849375218 -0.406000942 0.2836197615 2.346801622e-38
0.1861928701 -0.2706159353 0.2956356108 2.346801622e-38
0.1889308393 -0.3408151865 0.2876708806 2.346801622e-38
-0.2899853885 -0.3888273239 -0.2657017708 2.346801622e-38
-0.2934206128 -0.4251524508 -0.2555778921 2.346801622e-38
-0.2824454308 -0.3797785044 -0.2435004115 2.346801622e-38
-0.2602092326 -0.3978984058 -0.2622754574 2.346801622e-38
-0.2372859418 -0.4463888109 -0.1955414116 2.346801622e-38
-0.2341469228 -0.4675298333 -0.2084394246 2.346801622e-38
-0.2308283448 -0.4222027361 -0.1850176454 2.346801622e-38
-0.1975756735 -0.4697830677 -0.1846657842 2.346801622e-38
-0.1360634565 -0.2521831095 0.2795184851 2.346801622e-38
-0.1309114844 -0.364364028 0.2757410407 2.346801622e-38
-0.1333154887 -0.1941148937 0.2828818262 2.346801622e-38
-0.1240253225 -0.2913997173 0.2853088081 2.346801622e-38
0.1798848808 -0.3427017033 0.1777098626 2.346801622e-38
0.1834997684 -0.4275895059 0.1799472123 2.346801622e-38
0.1796379536 -0.3013788164 0.1973195076 2.346801622e-38
0.1809881777 -0.3753469586 0.2039019465 2.346801622e-38
0.1883913875 -0.2027054131 -0.01414903253 2.345219836e-38
0.1886124611 -0.296585232 0.02300589159 2.345219836e-38
0.184938848 -0.1988496035 0.05746465176 2.345219836e-38
0.1856795996 -0.2339760065 0.04530393332 2.345219836e-38
-0.2185857445 -0.3112928867 0.0971185267 2.345219836e-38
-0.2073355466 -0.3270477057 0.108420819 2.345219836e-38
-0.2225029767 -0.3205168247 0.1398567855 2.345219836e-38
-0.1762738079 -0.3103341758 0.114994213 2.345219836e-38
0.1703802198 -0.315313369 0.2706235647 2.345219836e-38
0.1704355925 -0.4066080451 0.2696533203 2.345219836e-38
0.1715485007 -0.2689605355 0.2763442695 2.345219836e-38
0.1728784889 -0.3520228863 0.2791153789 2.345219836e-38
0.1961166412 -0.27812168 -0.07066845894 2.345219836e-38
0.2001779228 -0.4046063125 -0.05161392316 2.345219836e-38
0.1943056285 -0.2357172966 -0.03986702487 2.345219836e-38
0.1939568669 -0.3225747645 -0.03673211858 2.345219836e-38
-0.09499789774 -0.2700053453 0.2768513262 2.345219836e-38
-0.07120884955 -0.3953388035 0.2684336901 2.345219836e-38
-0.0713198781 -0.2470862269 0.2800260484 2.345219836e-38
-0.04281096905 -0.3051714897 0.2787010372 2.345219836e-38
-0.2368538976 -0.3097596169 0.2858449519 2.345219836e-38
-0.2277901769 -0.4257459641 0.279138118 2.345219836e-38
-0.2174552679 -0.252204597 0.2887864709 2.345219836e-38
-0.2026292831 -0.3541102111 0.2910061777 2.345219836e-38
-0.1920442134 -0.340288341 0.1157546192 2.345219836e-38
-0.172347337 -0.3530317545 0.1276131421 2.345219836e-38
-0.1937026083 -0.3452499807 0.1550599635 2.345219836e-38
-0.1435513794 -0.3411803842 0.1335062683 2.345219836e-38
0.1717271656 -0.2402080297 0.05440601707 2.345219836e-38
0.1790414602 -0.3024187088 0.08459173888 2.345219836e-38
0.1716853678 -0.2374407053 0.1121478975 2.345219836e-38
0.1779145151 -0.2605982721 0.1026004702 2.345219836e-38
-0.09190564603 -0.2559357584 0.2855341136 2.345219836e-38
-0.08168144524 -0.3711467087 0.281999588 2.345219836e-38
-0.08289440721 -0.2346798182 0.2932015061 2.345219836e-38
-0.05740237981 -0.2868244946 0.2899349034 2.345219836e-38
-0.3189560771 -0.4808575809 0.007943671197 2.345219836e-38
-0.3254765272 -0.4797516465 -0.1060762852 2.345219836e-38
-0.3527419865 -0.4824476242 -0.03596213087 2.345219836e-38
-0.2382383645 -0.4817468524 -0.03477707133 2.345219836e-38
0.1664624363 -0.2451747954 0.07323172688 2.345219836e-38
0.1702744961 -0.3599223793 0.09603308141 2.345219836e-38
0.1641635597 -0.2435322404 0.13595514 2.345219836e-38
0.1666720659 -0.2754043043 0.1299761832 2.345219836e-38
-0.130398646 -0.2487615645 0.297685951 2.345219836e-38
-0.1183395311 -0.3485362828 0.2928350568 2.345219836e-38
-0.1150997952 -0.2337263525 0.3030289114 2.345219836e-38
-0.09182260185 -0.2728915215 0.3012703061 2.345219836e-38
0.184266299 -0.2566554248 -0.09158071876 2.345219836e-38
0.188421458 -0.3754205704 -0.06773380935 2.345219836e-38
0.1800424457 -0.2331351042 -0.03324607387 2.345219836e-38
0.1863840073 -0.2903098762 -0.03565463051 2.345219836e-38
0.1770580113 -0.2073076963 0.04349660128 2.345219836e-38
0.1807157546 -0.3073526621 0.075915277 2.345219836e-38
0.1741836667 -0.210991919 0.1155047119 2.345219836e-38
0.1765218526 -0.2401709557 0.1085531265 2.345219836e-38
-0.1832025796 -0.4652214944 0.15452227 2.345219836e-38
-0.1884398758 -0.4759551287 0.09364123642 2.345219836e-38
-0.2105309069 -0.455255568 0.1504625082 2.345219836e-38
-0.1150842384 -0.4767118096 0.1473586261 2.345219836e-38
-0.0790066421 -0.3198594749 0.2934832871 2.345219836e-38
-0.06648913771 -0.4253182113 0.2972849011 2.345219836e-38
-0.07361039519 -0.2483935356 0.3003858328 2.345219836e-38
-0.05045001954 -0.3627074361 0.3009250462 2.345219836e-38
-0.1663766354 -0.2770478725 0.288438201 2.345219836e-38
-0.156021446 -0.3857015669 0.2865419388 2.345219836e-38
-0.1593514383 -0.2211589813 0.2912178934 2.345219836e-38
-0.1356378198 -0.3126211762 0.2954518199 2.345219836e-38
0.1767541766 -0.2694443166 0.1221004725 2.345219836e-38
0.1838601828 -0.3860827684 0.1323734373 2.345219836e-38
0.1733374596 -0.2504067719 0.174385041 2.345219836e-38
0.1797519326 -0.3046186566 0.1742736399 2.345219836e-38
0.1805405021 -0.364375025 0.1932449192 2.345219836e-38
0.1775525361 -0.4566820562 0.1880467683 2.345219836e-38
0.1779918522 -0.3048062921 0.2233077288 2.345219836e-38
0.1732989848 -0.4152774513 0.2273757309 2.345219836e-38
0.1882460713 -0.3397312462 0.02975651436 2.345219836e-38
0.1867681444 -0.4481889606 0.03213105723 2.345219836e-38
0.1839631945 -0.268075496 0.08033461869 2.345219836e-38
0.1863518208 -0.393889755 0.08921377361 2.345219836e-38
0.1905624568 -0.3423663676 -0.0287283659 2.345219836e-38
0.1911493838 -0.4526920021 -0.0271769464 2.345219836e-38
0.1908375025 -0.2676193416 0.02102182433 2.345219836e-38
0.1875728518 -0.3926912546 0.03123528883 2.345219836e-38
-0.196342811 -0.2760602832 0.2883426547 2.345219836e-38
-0.1895611137 -0.3840541244 0.2826126218 2.345219836e-38
-0.1885463148 -0.2436852753 0.2893954515 2.345219836e-38
-0.1705650389 -0.3061429858 0.2917425334 2.345219836e-38
0.1868139654 -0.3328255117 0.03233586997 2.345219836e-38
0.1852123439 -0.4450551569 0.03809853643 2.345219836e-38
0.1842887849 -0.2639871836 0.06935364008 2.345219836e-38
0.1823251098 -0.3857458234 0.07764774561 2.345219836e-38
0.1676239222 -0.3297514915 0.04528430849 2.345219836e-38
0.1685416251 -0.4441328645 0.05798753351 2.345219836e-38
0.164330408 -0.2719717324 0.0846567601 2.345219836e-38
0.1637387127 -0.3805445135 0.0872303769 2.345219836e-38
-0.3809124529 -0.3209477961 -0.1557299942 2.345219836e-38
-0.3879111707 -0.3464433551 -0.1383936256 2.345219836e-38
-0.383874625 -0.33226493 -0.1119630486 2.345219836e-38
-0.3572634161 -0.3268998861 -0.1413256079 2.345219836e-38
-0.1866118759 -0.4522289932 0.06339395046 2.345219836e-38
-0.1971105635 -0.4743219316 0.02432459965 2.345219836e-38
-0.2004764527 -0.4129773676 0.06553685665 2.345219836e-38
-0.1549765468 -0.4687033594 0.07135649025 2.345219836e-38
-0.3317926228 -0.439455837 0.1742913127 2.345219836e-38
-0.337485075 -0.4663324356 0.1501425952 2.345219836e-38
-0.3297690749 -0.4038974941 0.1913032234 2.345219836e-38
-0.3007677794 -0.4599017501 0.1999396086 2.345219836e-38
-0.4253327847 -0.3250434101 -0.1402156055 2.345219836e-38
-0.4345659614 -0.3674818277 -0.1291137487 2.345219836e-38
-0.4255791605 -0.3284780085 -0.1082451791 2.345219836e-38
-0.4159111977 -0.3371758163 -0.1163586229 2.345219836e-38
-0.2221016586 -0.38985309 -0.1725774854 2.345219836e-38
-0.2179996818 -0.4459423721 -0.1597354859 2.345219836e-38
-0.2097747922 -0.3632650375 -0.1510574371 2.345219836e-38
-0.186179176 -0.4084287584 -0.1496639103 2.345219836e-38
0.1448239386 -0.3200725019 0.2870815694 2.345219836e-38
0.1530910283 -0.400550127 0.2883092165 2.345219836e-38
0.1496456414 -0.293990165 0.29665488 2.345219836e-38
0.151718244 -0.3484550714 0.2941129506 2.345219836e-38
-0.2890215218 -0.3511487246 -0.2017911375 2.345219836e-38
-0.2881069183 -0.3997632563 -0.1851954013 2.345219836e-38
-0.2810631692 -0.3504243195 -0.1679062694 2.345219836e-38
-0.240911752 -0.3635437489 -0.1796640456 2.345219836e-38
-0.3157025576 -0.3365642726 -0.1535869092 2.345219836e-38
-0.3239727914 -0.3514573276 -0.1378082037 2.345219836e-38
-0.319772929 -0.3452043235 -0.1094762534 2.345219836e-38
-0.2714682817 -0.3426477611 -0.1399379075 2.345219836e-38
-0.2951549292 -0.3517679274 -0.2004902512 2.343458544e-38
-0.2913607657 -0.3863840997 -0.1873353273 2.343458544e-38
-0.2799603641 -0.3506661654 -0.1683568507 2.343458544e-38
-0.2397513688 -0.3622418344 -0.1815377623 2.343458544e-38
-0.377099514 -0.3291483521 -0.154360801 2.343458544e-38
-0.3849689364 -0.3547712564 -0.1382390559 2.343458544e-38
-0.3789931834 -0.337400794 -0.1112069935 2.343458544e-38
-0.349879086 -0.3285647929 -0.1396291107 2.343458544e-38
0.1326487362 -0.3436672091 0.2769639492 2.343458544e-38
0.1373574436 -0.421325326 0.27621153 2.343458544e-38
0.1357512921 -0.321246773 0.287973702 2.343458544e-38
0.146663785 -0.3670906126 0.2849218249 2.343458544e-38
0.09454808384 -0.3211630881 0.2884474695 2.343458544e-38
0.1060641706 -0.3737240434 0.2941525877 2.343458544e-38
0.102642782 -0.3115654886 0.3012646735 2.343458544e-38
0.126996696 -0.3284261823 0.2974774837 2.343458544e-38
0.1867282838 -0.3458236754 0.1640357822 2.343458544e-38
0.1954809576 -0.4386630058 0.1693184376 2.343458544e-38
0.1926243156 -0.324157238 0.2096283883 2.343458544e-38
0.1969686896 -0.377589643 0.2031895965 2.343458544e-38
-0.2871376574 -0.3983592689 -0.2005179971 2.343458544e-38
-0.2909972668 -0.4426173866 -0.1882104129 2.343458544e-38
-0.2801839411 -0.3809335828 -0.1738082021 2.343458544e-38
-0.2601868212 -0.4084471464 -0.1908214986 2.343458544e-38
0.03174350783 -0.3607029021 0.2903024256 2.343458544e-38
0.05066896975 -0.4380660653 0.2826772928 2.343458544e-38
0.05107036978 -0.3308333457 0.2932919264 2.343458544e-38
0.07329270989 -0.3800985515 0.2911440432 2.343458544e-38
-0.1117247865 -0.3322516978 0.2863047123 2.343458544e-38
-0.1029525176 -0.4350099266 0.2883515656 2.343458544e-38
-0.1019902155 -0.30194965 0.296245873 2.343458544e-38
-0.07519177347 -0.3713485003 0.29704988 2.343458544e-38
-0.4075831771 -0.4266925454 -0.1708555818 2.343458544e-38
-0.4099463224 -0.4634263217 -0.1648457497 2.343458544e-38
-0.4040623605 -0.3872089088 -0.1537458748 2.343458544e-38
-0.3874327838 -0.4596885741 -0.1549084485 2.343458544e-38
-0.3514587879 -0.4789057672 -0.02889320999 2.343458544e-38
-0.3528365195 -0.4786098003 -0.1214984953 2.343458544e-38
-0.3771582842 -0.4796571136 -0.0615115352 2.343458544e-38
-0.2791923881 -0.4820356667 -0.06227039173 2.343458544e-38
-0.3222988248 -0.3899255693 -0.1896688193 2.343458544e-38
-0.3273490667 -0.4397341013 -0.1772137135 2.343458544e-38
-0.3113389909 -0.364274919 -0.1687637419 2.343458544e-38
-0.2888097763 -0.4035774767 -0.1746627837 2.343458544e-38
0.1654352844 -0.338524431 0.08752124012 2.343458544e-38
0.1696792245 -0.4395789802 0.09826622903 2.343458544e-38
0.1657388806 -0.3074394763 0.1279966384 2.343458544e-38
0.1670067906 -0.3744850159 0.1247607768 2.343458544e-38
-0.2942058742 -0.312166214 0.05758436024 2.343458544e-38
-0.2814429104 -0.3336953223 0.0680860579 2.343458544e-38
-0.2805853784 -0.3267785609 0.1009278744 2.343458544e-38
-0.2284666896 -0.3125733137 0.0734398365 2.343458544e-38
-0.3109278083 -0.3226599991 0.06253652275 2.343458544e-38
-0.3081672788 -0.3714444935 0.06951379776 2.343458544e-38
-0.3070825934 -0.3220778704 0.08911535144 2.343458544e-38
-0.2797270417 -0.328764081 0.07585802674 2.343458544e-38
0.1846076548 -0.3025212288 -0.01454128698 2.343458544e-38
0.1918294281 -0.3984923065 0.01069037244 2.343458544e-38
0.1861034036 -0.2871712446 0.04235142097 2.343458544e-38
0.1927132607 -0.3249453604 0.03641045094 2.343458544e-38
-0.1889793128 -0.3288444281 0.2644616961 2.343458544e-38
-0.1813495308 -0.4186847508 0.2761580348 2.343458544e-38
-0.1845188737 -0.3075946867 0.2830215693 2.343458544e-38
-0.1647923887 -0.3601184189 0.2865110636 2.343458544e-38
-0.3145588934 -0.3205279112 0.1171131581 2.343458544e-38
-0.315279156 -0.3506848514 0.1328763664 2.343458544e-38
-0.3175540566 -0.3340218663 0.1632536799 2.343458544e-38
-0.2741812766 -0.3308957517 0.1553380787 2.343458544e-38
-0.2868309617 -0.3801321089 -0.2212793827 2.343458544e-38
-0.2908139527 -0.4285413027 -0.212893039 2.343458544e-38
-0.2788535655 -0.3640998602 -0.2000484616 2.343458544e-38
-0.2600893676 -0.3956619799 -0.2112278938 2.343458544e-38
-0.1388838142 -0.2824855149 0.2992025316 2.343458544e-38
-0.1263727397 -0.3797376752 0.2991549075 2.343458544e-38
-0.1224706247 -0.262812674 0.3097752631 2.343458544e-38
-0.101561375 -0.3125186861 0.3084567189 2.343458544e-38
-0.3600065708 -0.4303990304 0.1417048126 2.343458544e-38
-0.3552014828 -0.4656331837 0.1021585166 2.343458544e-38
-0.3549948037 -0.3910620511 0.1577272862 2.343458544e-38
-0.3255926073 -0.4589539766 0.1689410061 2.343458544e-38
-0.3441497087 -0.3175115883 0.1252609342 2.343458544e-38
-0.34467116 -0.3514714539 0.1390244961 2.343458544e-38
-0.3432144225 -0.3273759782 0.1666935831 2.343458544e-38
-0.3053462803 -0.3225446045 0.1616166979 2.343458544e-38
-0.1883389652 -0.4202547073 0.1224312186 2.343458544e-38
-0.1800881922 -0.4577879012 0.1196747571 2.343458544e-38
-0.1867674589 -0.3952385485 0.13601017 2.343458544e-38
-0.1629108638 -0.4278426468 0.1343924999 2.343458544e-38
-0.310354501 -0.3322125673 -0.07011458278 2.343458544e-38
-0.3132686317 -0.3459552228 -0.05121478811 2.343458544e-38
-0.3156622052 -0.3488104641 -0.01235852018 2.343458544e-38
-0.2613378763 -0.3343634605 -0.04904321954 2.343458544e-38
-0.3379284441 -0.3325966895 -0.01160530001 2.343458544e-38
-0.3398393691 -0.3580049574 0.0003239884973 2.343458544e-38
-0.3433793485 -0.3441412151 0.03959475085 2.343458544e-38
-0.3031953275 -0.3369558752 0.01875860244 2.343458544e-38
0.1775135845 -0.3066438138 0.1030091792 2.343458544e-38
0.1851454079 -0.3904486895 0.126660496 2.343458544e-38
0.1796396077 -0.2977757454 0.1523433328 2.343458544e-38
0.1840682328 -0.3260748982 0.1541977972 2.343458544e-38
-0.3543907404 -0.4614155889 0.03172997385 2.343458544e-38
-0.3569385409 -0.4719206989 -0.05117904022 2.343458544e-38
-0.3689378798 -0.4507696629 0.02169924229 2.343458544e-38
