# .PCD v0.7 - Point Cloud Data file format
VERSION 0.7
FIELDS x y z rgb
SIZE 4 4 4 4
TYPE F F F F
COUNT 1 1 1 1
WIDTH 830
HEIGHT 1
VIEWPOINT 0 0 0 1 0 0 0
POINTS 830
DATA ascii
-0.04313318059 -0.4456753135 0.2179539055 6.490113838e-41
0.007635310292 -0.4805353284 0.1973821819 6.490113838e-41
-0.09799484909 -0.4727765322 0.2064805329 6.490113838e-41
-0.08974330127 -0.3990566432 0.2264706194 6.490113838e-41
-0.1361230463 -0.4803817868 0.236867696 6.490113838e-41
-0.07825773954 -0.474205792 0.2495460212 6.490113838e-41
-0.1227762997 -0.4770828485 0.08599664271 6.490113838e-41
-0.1224763393 -0.3511586189 0.1694844067 6.490113838e-41
-0.07631868124 -0.4641052485 0.1976255327 6.490113838e-41
0.01710072905 -0.4799659252 0.1540662199 6.490113838e-41
-0.1073394492 -0.4758627415 0.1647001952 6.490113838e-41
-0.1189148575 -0.4184234142 0.1887325197 6.490113838e-41
-0.143223986 -0.48039639 0.2385827899 6.490113838e-41
-0.0924769938 -0.4821509719 0.2689137459 6.490113838e-41
0.3630162477 -0.4825178981 -0.1358819157 6.490113838e-41
0.384221971 -0.487575233 -0.06661957502 6.490113838e-41
0.3982112408 -0.4770747423 -0.0237613786 6.490113838e-41
0.3912784457 -0.4599965215 -0.1090131402 6.490113838e-41
0.2838964462 -0.4826964736 -0.1146645471 6.490113838e-41
0.3486649394 -0.4919612408 -0.01642991044 6.490113838e-41
0.184621349 -0.4838288426 -0.004066070542 6.490113838e-41
0.3675469756 -0.482558012 0.0458425805 6.490113838e-41
-0.01101779565 -0.4838013053 -0.1415687203 6.490113838e-41
0.04454356432 -0.4880880117 -0.01050413214 6.490113838e-41
0.1326862127 -0.4802390933 0.1267539412 6.490113838e-41
0.1377903372 -0.4793011546 -0.01654184051 6.490113838e-41
-0.1178646237 -0.4847479463 -0.03715305775 6.490113838e-41
-0.03933818638 -0.4896829128 0.08950979263 6.490113838e-41
-0.1438414156 -0.4832414389 0.1306650639 6.490113838e-41
0.04497729987 -0.4834664464 0.1910039783 6.490113838e-41
-0.1402695328 -0.4024704695 -0.2794683874 6.490113838e-41
-0.1418874264 -0.2948592305 -0.2892700434 6.490113838e-41
-0.1238883585 -0.3957269192 -0.2705641389 6.490113838e-41
-0.1183593124 -0.4752822518 -0.2750572264 6.490113838e-41
-0.1731160879 -0.4264651537 -0.2774999738 6.490113838e-41
-0.1530303061 -0.3469109535 -0.2705117762 6.490113838e-41
-0.1722172499 -0.4798446894 -0.2573789954 6.490113838e-41
-0.1447082758 -0.4648476243 -0.233971104 6.490113838e-41
0.04311874509 -0.4847562313 -0.05027653277 6.490113838e-41
0.08234648407 -0.4910588264 0.08745807409 6.490113838e-41
0.1676130295 -0.4801414609 0.1884397417 6.490113838e-41
0.2071294636 -0.4769207239 0.06870365888 6.490113838e-41
-0.0771022588 -0.483353138 0.04537579417 6.490113838e-41
-0.0002202764153 -0.4920460582 0.1786536127 6.490113838e-41
-0.09224566817 -0.4826080203 0.2206010371 6.490113838e-41
0.08578279614 -0.4836356044 0.2452656925 6.490113838e-41
-0.1902216971 -0.4299470186 -0.2072599381 6.490113838e-41
-0.2023358345 -0.3057881296 -0.1598331481 6.490113838e-41
-0.1912787259 -0.4327074289 -0.1390209645 6.490113838e-41
-0.1723376215 -0.4825383425 -0.1692194045 6.490113838e-41
-0.1934224665 -0.4539360404 -0.1192818135 6.490113838e-41
-0.1997138262 -0.3785103261 -0.09535099566 6.490113838e-41
-0.1833752692 -0.4820305109 -0.05320842564 6.490113838e-41
-0.1898375005 -0.467528224 0.04950844496 6.490113838e-41
-0.1983467489 -0.4342908263 -0.2210293859 6.490113838e-41
-0.2005271316 -0.3106258512 -0.2009666264 6.490113838e-41
-0.192612648 -0.431773901 -0.1750407815 6.490113838e-41
-0.1714426577 -0.4821548462 -0.1906449348 6.490113838e-41
-0.2097716779 -0.4566706419 -0.1849513203 6.490113838e-41
-0.210207805 -0.3860527277 -0.1632326096 6.490113838e-41
-0.2135027945 -0.482350409 -0.1235458627 6.490113838e-41
-0.2043073624 -0.4737942815 -0.03965545446 6.490113838e-41
-0.2105096579 -0.3897925019 -0.2795963287 6.490113838e-41
-0.2085063607 -0.2926780283 -0.2808564305 6.490113838e-41
-0.2034228146 -0.3812597394 -0.2722958326 6.490113838e-41
-0.1933951229 -0.4681902528 -0.2780366838 6.490113838e-41
-0.2275007367 -0.4171586335 -0.2713124156 6.490113838e-41
-0.2219858468 -0.3477340937 -0.2535419166 6.490113838e-41
-0.2115968317 -0.4682908058 -0.240881905 6.490113838e-41
-0.2215173542 -0.4388185143 -0.2021132708 6.490113838e-41
-0.0671441555 -0.4830675721 -0.1425887793 6.490113838e-41
-0.008243963122 -0.4938107133 0.0262024831 6.490113838e-41
0.09856908023 -0.4817423224 0.1625420749 6.490113838e-41
0.130371049 -0.4808910489 0.01197484322 6.490113838e-41
-0.1587508768 -0.4836252332 -0.02896384709 6.490113838e-41
-0.06669031084 -0.4916537404 0.1247277483 6.490113838e-41
-0.1573759317 -0.4829269052 0.1759397238 6.490113838e-41
0.005899846554 -0.4846132994 0.2214362472 6.490113838e-41
-0.06291542202 -0.4835221767 -0.1799793392 6.490113838e-41
-0.005578264594 -0.491918385 -0.0138229439 6.490113838e-41
0.08676047623 -0.4815721512 0.1378392577 6.490113838e-41
0.1068815142 -0.4817163348 -0.03557851166 6.490113838e-41
-0.1354382038 -0.4838132858 -0.05504098162 6.490113838e-41
-0.0696291402 -0.4908061028 0.09430917352 6.490113838e-41
-0.1336694062 -0.4830934405 0.157489121 6.490113838e-41
-0.003818616271 -0.484089613 0.2314744294 6.490113838e-41
0.2477307171 -0.4827413559 -0.05348369107 6.490113838e-41
0.2554957271 -0.4948890805 0.06088626385 6.490113838e-41
0.3019518256 -0.4816269279 0.1186738983 6.490113838e-41
0.340405643 -0.4685943723 0.01457244344 6.490113838e-41
0.1155595183 -0.4810438156 0.02331583016 6.490113838e-41
0.1633863896 -0.496964097 0.1515893489 6.490113838e-41
0.03999017924 -0.485296905 0.1923251748 6.490113838e-41
0.2536560893 -0.4828851223 0.18905209 6.490113838e-41
-0.1973538399 -0.4289958477 -0.1300616562 6.490113838e-41
-0.2000402808 -0.2933118939 -0.05131405592 6.490113838e-41
-0.1911931634 -0.4379746318 -0.03696256876 6.490113838e-41
-0.1690410376 -0.4818193316 -0.08141519129 6.490113838e-41
-0.2026222497 -0.4538296461 -0.01630969346 6.490113838e-41
-0.2000666857 -0.3795673847 -0.009058136493 6.490113838e-41
-0.1824600399 -0.4822260737 0.05946098268 6.490113838e-41
-0.1885037422 -0.4664641619 0.1298618168 6.490113838e-41
-0.1359882057 -0.4834895134 -0.2413876653 6.490113838e-41
-0.06512636691 -0.4906339049 -0.1527312249 6.490113838e-41
0.04773266613 -0.4805703759 0.03317818046 6.490113838e-41
0.06163555384 -0.4821356535 -0.1459599584 6.490113838e-41
-0.1955134124 -0.4844696522 -0.137363404 6.490113838e-41
-0.1111721992 -0.4900390506 -0.01835096255 6.490113838e-41
-0.2058029026 -0.4847633839 0.03123639338 6.490113838e-41
-0.06532218307 -0.4829075933 0.1371846795 6.490113838e-41
0.1787333637 -0.3490861058 -0.2744601965 6.490113838e-41
0.1808239967 -0.3423867822 -0.2548457384 6.490113838e-41
0.2461842746 -0.3495517373 -0.2369234711 6.490113838e-41
0.1950122267 -0.3563899994 -0.2680852413 6.490113838e-41
0.1009925157 -0.3515919447 -0.2702350616 6.490113838e-41
0.1388820261 -0.3520112932 -0.2361526042 6.490113838e-41
0.1749232709 -0.4115798473 -0.2530277669 6.490113838e-41
0.1816879362 -0.3578751981 -0.210906595 6.490113838e-41
-0.06934180856 -0.4871187806 -0.1080633774 6.490113838e-41
-0.008025996387 -0.4894527793 0.05773478746 6.490113838e-41
0.07338348031 -0.4826014638 0.1963163912 6.490113838e-41
0.1186980605 -0.4816552401 0.05312867463 6.490113838e-41
-0.1471979022 -0.4829033613 0.02402464859 6.490113838e-41
-0.08549132943 -0.4906135798 0.166302681 6.490113838e-41
-0.1516127586 -0.4814853072 0.2167639732 6.490113838e-41
-0.01850172505 -0.483871758 0.2709443569 6.490113838e-41
-0.06096737087 -0.4846092463 -0.0661335662 6.490113838e-41
0.003470554948 -0.4910172224 0.1081165597 6.490113838e-41
0.0902723372 -0.4811010957 0.2603563964 6.490113838e-41
0.1359031051 -0.4793965816 0.1091491207 6.490113838e-41
-0.117394194 -0.4835958481 0.08411019295 6.490113838e-41
-0.06124699116 -0.493452549 0.2242921293 6.490113838e-41
-0.1273537576 -0.4820963144 0.2651495934 6.490113838e-41
0.003154411912 -0.483428359 0.3061108291 6.490113838e-41
-0.04855041951 -0.3767516315 -0.2840373814 6.490113838e-41
-0.04961747676 -0.3006916046 -0.2854043543 6.490113838e-41
-0.03497284651 -0.3655622602 -0.2768890858 6.490113838e-41
-0.03946153447 -0.4431104064 -0.2825585008 6.490113838e-41
-0.1023027822 -0.4057468772 -0.280018419 6.490113838e-41
-0.09555058926 -0.339430213 -0.2763512433 6.490113838e-41
-0.08536222577 -0.4620599747 -0.262886852 6.490113838e-41
-0.06732460856 -0.4245023727 -0.2626633644 6.490113838e-41
0.3556452394 -0.4704045057 -0.0957063362 6.490113838e-41
0.3695533872 -0.4304368496 -0.06287976354 6.490113838e-41
0.3832995892 -0.4628426433 -0.03801456466 6.490113838e-41
0.3706752062 -0.4605412483 -0.07740586996 6.490113838e-41
0.3264829516 -0.4760958552 -0.08469238877 6.490113838e-41
0.3609250188 -0.4568137527 -0.04224175587 6.490113838e-41
0.2535459995 -0.4825400114 -0.003521773964 6.490113838e-41
0.3621528745 -0.4810902476 0.03259953111 6.490113838e-41
0.08203339577 -0.4846454859 -0.02135357819 6.490113838e-41
0.1201771796 -0.4922667742 0.1179399714 6.490113838e-41
0.187980935 -0.4827446342 0.2175524384 6.490113838e-41
0.2274941951 -0.4783229828 0.1006116942 6.490113838e-41
-0.03210655227 -0.4841764569 0.07767021656 6.490113838e-41
0.02844592929 -0.4929587245 0.2074996084 6.490113838e-41
-0.07976942509 -0.4834288359 0.2452747226 6.490113838e-41
0.1250387132 -0.48442173 0.2687158883 6.490113838e-41
-0.1294986904 -0.4866248369 -0.1124501601 6.490113838e-41
-0.05738138035 -0.4905532598 0.02045051567 6.490113838e-41
0.04462638497 -0.4833564758 0.2266743779 6.490113838e-41
0.05791169405 -0.4809089303 0.04435020685 6.490113838e-41
-0.1952372491 -0.484772265 0.0281661395 6.490113838e-41
-0.1264165789 -0.490575552 0.1659504026 6.490113838e-41
-0.1868607402 -0.4826292396 0.2266790569 6.490113838e-41
-0.05025223643 -0.4847723246 0.2968809009 6.490113838e-41
-0.1641861051 -0.4844784737 -0.2595963478 6.490113838e-41
-0.08244503289 -0.4965829253 -0.1764767617 6.490113838e-41
0.00925168395 -0.483062923 0.02290054224 6.490113838e-41
0.03957923502 -0.4814012647 -0.1946526319 6.490113838e-41
-0.2227974832 -0.4833693504 -0.1581227481 6.490113838e-41
-0.146496743 -0.492205143 -0.03001420759 6.490113838e-41
-0.2127546221 -0.4857231379 0.04629827291 6.490113838e-41
-0.1054679453 -0.484765172 0.1609358639 6.490113838e-41
-0.1708503366 -0.4877740741 0.03197244555 6.490113838e-41
-0.1139598414 -0.4976083636 0.1943751127 6.490113838e-41
-0.0119005926 -0.4802613258 0.3223243058 6.490113838e-41
0.03774446994 -0.4814021587 0.2123889625 6.490113838e-41
-0.2133442163 -0.4862849116 0.1809769422 6.490113838e-41
-0.1475292444 -0.4983034134 0.2892224193 6.490113838e-41
-0.1939096749 -0.4834730625 0.3075366616 6.490113838e-41
-0.08728842437 -0.4832870364 0.3447012305 6.490113838e-41
-0.1601228118 -0.4886174202 -0.03863568977 6.490113838e-41
-0.09307458997 -0.494212985 0.1441806406 6.490113838e-41
0.002596132457 -0.4822811484 0.2929618955 6.490113838e-41
0.05392637849 -0.4819458723 0.1594337225 6.490113838e-41
-0.1971853673 -0.4842709303 0.1318099201 6.490113838e-41
-0.1356548965 -0.4971991181 0.2564066947 6.490113838e-41
-0.1856484413 -0.4827339053 0.2876173556 6.490113838e-41
-0.07845566422 -0.4838241339 0.3321425617 6.490113838e-41
-0.1989881694 -0.48489815 -0.2368086278 5.962428276e-39
-0.1410928369 -0.492466867 -0.1317939758 5.962428276e-39
-0.05040849 -0.4818552732 0.04886762053 5.962428276e-39
-0.0324032791 -0.4823420644 -0.1391712427 5.962428276e-39
-0.2273296714 -0.4815587997 -0.1028087288 5.962428276e-39
-0.1928206384 -0.4900123477 0.006849402562 5.962428276e-39
-0.2097735405 -0.4853885174 0.09260739386 5.962428276e-39
-0.1509755552 -0.48382622 0.1984733492 5.962428276e-39
0.2109630853 -0.3934488893 -0.1212207302 5.962428276e-39
0.2015698105 -0.3868213296 -0.08659177274 5.962428276e-39
0.2623426318 -0.3909825981 -0.05640108138 5.962428276e-39
0.2367739826 -0.406725347 -0.1017781645 5.962428276e-39
0.1580884159 -0.3880304098 -0.08576050401 5.962428276e-39
0.1923468858 -0.398401022 -0.04448362812 5.962428276e-39
0.2078401893 -0.4480044842 -0.04382088035 5.962428276e-39
0.2274463028 -0.3901100755 -0.01509900205 5.962428276e-39
-0.06876089424 -0.4855075479 -0.1429101229 5.962428276e-39
-0.01830583438 -0.4921346903 0.02537175827 5.962428276e-39
0.05180931836 -0.4829648137 0.1671594232 5.962428276e-39
0.1067030728 -0.4805371165 0.02259194292 5.962428276e-39
-0.1429682374 -0.481351614 -0.007262915373 5.962428276e-39
-0.08047970384 -0.4945126772 0.1322318166 5.962428276e-39
-0.1441240162 -0.4811094999 0.1973303258 5.962428276e-39
-0.02604462206 -0.4839981198 0.266853869 5.962428276e-39
0.06104192138 -0.4084542394 -0.1214974076 5.962428276e-39
0.06580118835 -0.3847458959 -0.08236199617 5.962428276e-39
0.1129584908 -0.4017013907 -0.05322331935 5.962428276e-39
0.09416171908 -0.4213834405 -0.08050314337 5.962428276e-39
0.007834032178 -0.4005058408 -0.09128927439 5.962428276e-39
0.03926744312 -0.4029656649 -0.05482130125 5.962428276e-39
0.04221427441 -0.4692172408 -0.04234197363 5.962428276e-39
0.06204049289 -0.3999053836 0.01023921184 5.962428276e-39
-0.05972318724 -0.3555410206 -0.293828845 5.962428276e-39
-0.0627727136 -0.2570933998 -0.3001916707 5.962428276e-39
-0.02691410109 -0.3486714363 -0.2886862457 5.962428276e-39
-0.01932274923 -0.4518626928 -0.282800436 5.962428276e-39
-0.1130706295 -0.3998278975 -0.2925216258 5.962428276e-39
-0.09432130307 -0.3089767098 -0.2902457118 5.962428276e-39
-0.1000356376 -0.470051229 -0.2729496658 5.962428276e-39
-0.07653015852 -0.4163706601 -0.2746873498 5.962428276e-39
0.03593014926 -0.4508900046 -0.05812028795 5.962428276e-39
0.04103481025 -0.4183465242 0.003024384379 5.962428276e-39
0.06911709905 -0.439091742 0.03267458826 5.962428276e-39
0.07153560221 -0.4587945938 0.00132503733 5.962428276e-39
-0.00714096427 -0.4387066364 -0.01541974489 5.962428276e-39
0.01935453713 -0.4401231408 0.02781452052 5.962428276e-39
-0.01514439657 -0.4799905419 0.06532882154 5.962428276e-39
0.03839921951 -0.4502060413 0.1119158491 5.962428276e-39
-0.1807826608 -0.4874967933 -0.1030448303 5.962428276e-39
-0.1327472031 -0.4915284514 0.08281805366 5.962428276e-39
-0.06320380419 -0.4837086201 0.2269447744 5.962428276e-39
-0.0172980614 -0.4818851948 0.07551623136 5.962428276e-39
-0.202094242 -0.4817028046 0.06660646945 5.962428276e-39
-0.178533107 -0.4946484566 0.1879560053 5.962428276e-39
-0.1862100959 -0.4823261499 0.2671141624 5.962428276e-39
-0.120752342 -0.4845294356 0.3138156235 5.962428276e-39
0.2100834101 -0.412750721 -0.08448090404 5.962428276e-39
0.2131930441 -0.3916913271 -0.04895080626 5.962428276e-39
0.2653633952 -0.4051071405 -0.02703757025 5.962428276e-39
0.2593533993 -0.4277927279 -0.05604304001 5.962428276e-39
0.1591395289 -0.4044356346 -0.04290607199 5.962428276e-39
0.1988352686 -0.4112691879 -0.01386206038 5.962428276e-39
0.1882268637 -0.4657667279 0.009290417656 5.962428276e-39
0.2289132327 -0.4115239978 0.03024538048 5.962428276e-39
0.2978978157 -0.4824837446 -0.06090372056 5.962428276e-39
0.2984173894 -0.4965293407 0.0456135273 5.962428276e-39
0.3326064348 -0.4764733315 0.1024390385 5.962428276e-39
0.3655933738 -0.4656625986 -0.01771852374 5.962428276e-39
0.149634853 -0.4793430567 0.005527036265 5.962428276e-39
0.2078691274 -0.4991915822 0.1390422434 5.962428276e-39
0.09056629241 -0.4810678959 0.1895275265 5.962428276e-39
0.2919952273 -0.4800930023 0.1766725481 5.962428276e-39
-0.2046081722 -0.3497401476 -0.1530058533 5.962428276e-39
-0.208519727 -0.2469598651 -0.1227219477 5.962428276e-39
-0.2004608214 -0.3862741888 -0.1062857881 5.962428276e-39
-0.2011931092 -0.4747191668 -0.1179588363 5.962428276e-39
-0.2033219188 -0.4254146814 -0.05854361504 5.962428276e-39
-0.2052021474 -0.3200409114 -0.05429774523 5.962428276e-39
-0.1986339092 -0.4759348631 -0.02341491915 5.962428276e-39
-0.201758191 -0.4183449149 0.04140277952 5.962428276e-39
-0.1787405014 -0.3896328509 0.06990177929 5.962428276e-39
-0.1835461855 -0.28187868 0.1382808983 5.962428276e-39
-0.1869781017 -0.4195719361 0.1291361749 5.962428276e-39
-0.1817671359 -0.4797037244 0.1191871688 5.962428276e-39
-0.1673622131 -0.4440100789 0.2094788253 5.962428276e-39
-0.187033236 -0.3437228203 0.1848103255 5.962428276e-39
-0.1644797474 -0.4775289893 0.2428195477 5.962428276e-39
-0.1780112088 -0.3948120475 0.2565965056 5.962428276e-39
0.0787742734 -0.4118117988 -0.052810058 5.962428276e-39
0.09113915265 -0.3781190515 -0.02317200974 5.962428276e-39
0.1142546833 -0.4033243656 -0.006203008816 5.962428276e-39
0.08890458941 -0.4330488443 -0.01708484814 5.962428276e-39
0.04128227383 -0.4112543464 -0.02601034008 5.962428276e-39
0.07375732064 -0.4027580619 -0.004269937053 5.962428276e-39
0.05868767202 -0.4662514925 0.01798080094 5.962428276e-39
0.08274298906 -0.415106684 0.04436541349 5.962428276e-39
-0.2095501125 -0.3672160506 -0.1007362679 5.962428276e-39
-0.2122825235 -0.2337568104 -0.03682243824 5.962428276e-39
-0.2133446932 -0.4029655457 -0.02867683768 5.962428276e-39
-0.2035716027 -0.4801489115 -0.04986009002 5.962428276e-39
-0.2101857066 -0.4358998537 0.0008846055716 5.962428276e-39
-0.2170164734 -0.3264590502 0.004843706265 5.962428276e-39
-0.2025221288 -0.4780256152 0.05908312649 5.962428276e-39
-0.2125605792 -0.4124799669 0.1042290255 5.962428276e-39
0.02956595272 -0.2852945328 -0.2816334665 5.962428276e-39
0.05649913847 -0.2258737534 -0.2900217175 5.962428276e-39
0.1009412408 -0.2998834252 -0.2847065926 5.962428276e-39
0.06592302024 -0.3762076199 -0.283393085 5.962428276e-39
-0.05750124529 -0.3417437673 -0.2852434516 5.962428276e-39
-0.0436527729 -0.2417761683 -0.2895307839 5.962428276e-39
-0.01224648207 -0.4322125316 -0.277915895 5.962428276e-39
-0.003830201924 -0.3268690109 -0.282238543 5.962428276e-39
-0.1137982607 -0.3142498732 -0.29328987 5.962428276e-39
-0.09412606061 -0.2087193429 -0.2989785969 5.962428276e-39
-0.08455561846 -0.3238933682 -0.2961738706 5.962428276e-39
-0.1056854874 -0.4196253419 -0.2948179543 5.962428276e-39
-0.1687245965 -0.369954586 -0.2918269038 5.962428276e-39
-0.1457083821 -0.2661359906 -0.2912699878 5.962428276e-39
-0.1446423233 -0.4370803833 -0.2772643566 5.962428276e-39
-0.1334038526 -0.3660883307 -0.2629614472 5.962428276e-39
0.254160881 -0.389148742 -0.122680448 5.962428276e-39
0.2484629899 -0.3864427209 -0.0805535689 5.962428276e-39
0.2971349359 -0.3908441365 -0.06004205346 5.962428276e-39
0.2676549554 -0.416621387 -0.09679012001 5.962428276e-39
0.2062973231 -0.3952761292 -0.08713878691 5.962428276e-39
0.2416878194 -0.3976434469 -0.05916097015 5.962428276e-39
0.2472334951 -0.4461345673 -0.04977842793 5.962428276e-39
0.2649387121 -0.3941306472 -0.003988897428 5.962428276e-39
0.1758888811 -0.4814084172 0.01979940943 5.962428276e-39
0.1885719746 -0.4939485788 0.1881085187 5.962428276e-39
0.2237055451 -0.4783000946 0.2409588993 5.962428276e-39
0.2820518613 -0.4719418287 0.1465215236 5.962428276e-39
0.04388061911 -0.4856109023 0.1522438824 5.962428276e-39
0.08622418344 -0.494066 0.2688831091 5.962428276e-39
-0.004032127559 -0.4819861054 0.2984465659 5.962428276e-39
0.1676552594 -0.4816089869 0.2915739119 5.962428276e-39
0.03976780176 -0.3289586306 -0.3083746433 5.962428276e-39
0.06065353751 -0.3170951009 -0.2834361792 5.962428276e-39
0.1120587885 -0.324706316 -0.2677005529 5.962428276e-39
0.07538236678 -0.3489798903 -0.2829515338 5.962428276e-39
-0.0232087262 -0.3308104277 -0.2904843688 5.962428276e-39
0.007521346211 -0.3283302784 -0.276173979 5.962428276e-39
0.03998875618 -0.3918843865 -0.2802452147 5.962428276e-39
0.0555293113 -0.3342219889 -0.2424017191 5.962428276e-39
0.1408943683 -0.4722869992 0.1849276125 5.962428276e-39
0.1564290375 -0.3887193501 0.26215294 5.962428276e-39
0.1631574035 -0.4463116527 0.2808363438 5.962428276e-39
0.2004934996 -0.4773871303 0.2434215248 5.962428276e-39
0.110188067 -0.4619868994 0.2539066374 5.962428276e-39
0.1230972409 -0.432317555 0.2813627124 5.962428276e-39
0.06873990595 -0.4799616933 0.3110215068 5.962428276e-39
0.1541004032 -0.45886904 0.3123892844 5.962428276e-39
0.3335856795 -0.4834080935 -0.06350643933 5.962428276e-39
0.3543716073 -0.4956447482 0.06019172817 5.962428276e-39
0.3596770763 -0.4768337607 0.1117008552 5.962428276e-39
0.3932211399 -0.4667932987 0.0007091611624 5.962428276e-39
0.1973269433 -0.4798374176 0.02110286616 5.962428276e-39
0.2658828497 -0.4937153459 0.1419313401 5.962428276e-39
0.1375620961 -0.4820384979 0.1876324564 5.962428276e-39
0.3185846806 -0.4814392328 0.1759486049 5.962428276e-39
-0.1704090238 -0.3737696707 -0.2407158464 5.962428276e-39
-0.1680270284 -0.2658298016 -0.2298135012 5.962428276e-39
-0.1593548954 -0.3777480125 -0.2080182284 5.962428276e-39
-0.1560122073 -0.4567524195 -0.2170138657 5.962428276e-39
-0.172393769 -0.4186241031 -0.1993287802 5.962428276e-39
-0.1689651608 -0.3290603161 -0.1891096532 5.962428276e-39
-0.1667777598 -0.4673983455 -0.1642192453 5.962428276e-39
-0.1737603843 -0.4433211088 -0.1195632741 5.962428276e-39
-0.106037721 -0.4865731001 0.01576313935 5.962428276e-39
-0.06252811849 -0.4945790768 0.2196883112 5.962428276e-39
0.03386920691 -0.479962945 0.3277608156 5.962428276e-39
0.07931293547 -0.478237927 0.2341542542 5.962428276e-39
-0.1675567925 -0.4879507422 0.212105006 5.962428276e-39
-0.1019154415 -0.4993388057 0.3220730126 5.962428276e-39
-0.1477615535 -0.4817799926 0.316598624 5.962428276e-39
-0.04647146165 -0.4819527864 0.353374362 5.962428276e-39
0.1837935299 -0.3148960471 -0.2900340557 5.962428276e-39
0.1854978353 -0.2330039293 -0.2888420522 5.962428276e-39
0.2538676262 -0.3418181241 -0.2844955623 5.962428276e-39
0.2509756088 -0.418933481 -0.2815206945 5.962428276e-39
0.09856949747 -0.3781847358 -0.2925489843 5.962428276e-39
0.1222750545 -0.2841548622 -0.2955517173 5.962428276e-39
0.1327057183 -0.4560155869 -0.2868722975 5.962428276e-39
0.1753776371 -0.3978101611 -0.2859725058 5.962428276e-39
-0.03132792935 -0.334025234 -0.2810646892 5.962428276e-39
-0.01059467718 -0.3238226771 -0.258167237 5.962428276e-39
0.02904049307 -0.3399796188 -0.2361115366 5.962428276e-39
0.005890414119 -0.3581317067 -0.2491246164 5.962428276e-39
-0.08428372443 -0.3456888795 -0.2535301745 5.962428276e-39
-0.05721914768 -0.3393541873 -0.2315710336 5.962428276e-39
-0.03995138407 -0.4152878821 -0.2422500849 5.962428276e-39
-0.02583968639 -0.3508773446 -0.1900984496 5.962428276e-39
-0.012346562 -0.2593458593 -0.3012543023 5.962428276e-39
0.008104041219 -0.2333234549 -0.3049073517 5.962428276e-39
0.05023189634 -0.2811723053 -0.2965921164 5.962428276e-39
0.01114575565 -0.3523311615 -0.2978598773 5.962428276e-39
-0.0804355666 -0.3133847117 -0.3040261865 5.962428276e-39
-0.06820003688 -0.2385327816 -0.3023475111 5.962428276e-39
-0.04390375316 -0.4015834332 -0.2937945724 5.962428276e-39
-0.04199160635 -0.2898762226 -0.2848843336 5.962428276e-39
-0.1495812833 -0.3072941899 -0.2910607159 5.962428276e-39
-0.1262567639 -0.239717409 -0.2960161865 5.962428276e-39
-0.1241539419 -0.3176470399 -0.298556298 5.962428276e-39
-0.1431482732 -0.4163928032 -0.2958488166 5.962428276e-39
-0.1959856749 -0.3680235744 -0.2919317484 5.962428276e-39
-0.1772997677 -0.2665633559 -0.2862276137 5.962428276e-39
-0.1761062294 -0.4381043315 -0.2749061584 5.962428276e-39
-0.170987457 -0.3575235009 -0.2530526817 5.962428276e-39
0.09644770622 -0.238463521 -0.2836271822 5.962428276e-39
0.1131390184 -0.2056537122 -0.2857437134 5.962428276e-39
0.162864998 -0.2604109049 -0.279848963 5.962428276e-39
0.1247190684 -0.3363571763 -0.2788317204 5.962428276e-39
-0.00713185221 -0.2971281409 -0.2868971229 5.962428276e-39
0.005954228342 -0.218936801 -0.2926923335 5.962428276e-39
0.05276019871 -0.3854378462 -0.2805638611 5.962428276e-39
0.05664922297 -0.2739590406 -0.2784171402 5.962428276e-39
0.4077374339 -0.4822183251 -0.1295799613 5.962428276e-39
0.4087508321 -0.4875888228 -0.02056447044 5.962428276e-39
0.4260266423 -0.4740186334 0.01159849577 5.962428276e-39
0.4202147126 -0.4621198177 -0.06247327477 5.962428276e-39
0.3552928567 -0.4835962057 -0.07768004388 5.962428276e-39
0.3997987509 -0.4944142699 0.02034326829 5.962428276e-39
0.2626916766 -0.4835096002 0.06888415664 5.962428276e-39
0.3977422118 -0.4820832014 0.07851050049 5.962428276e-39
-0.08337781578 -0.4845016599 0.09251260757 5.962428276e-39
-0.01874709129 -0.491913259 0.2569653392 5.962428276e-39
0.05026622862 -0.4811353683 0.3424164057 5.962428276e-39
0.105037272 -0.4820944667 0.2657704055 5.962428276e-39
-0.1353597641 -0.4832081795 0.253587395 5.962428276e-39
-0.07577945292 -0.4939482212 0.3403089345 5.962428276e-39
-0.126400128 -0.4802232385 0.3319773674 5.962428276e-39
-0.03305026516 -0.4824215174 0.362793386 5.962428276e-39
0.1570300758 -0.4044519961 -0.05661129951 5.962428276e-39
0.1791286319 -0.3868306577 -0.003987066448 5.962428276e-39
0.2010387033 -0.4026955962 0.02621067874 5.962428276e-39
0.171872735 -0.4163328111 -0.01803537831 5.962428276e-39
0.1265543699 -0.403442502 -0.001681258902 5.962428276e-39
0.1615564078 -0.4037340283 0.02124664001 5.962428276e-39
0.1550066024 -0.4638622999 0.02895647101 5.962428276e-39
0.1720972806 -0.3971229196 0.08358382434 5.962428276e-39
0.2019647211 -0.3571029603 -0.2162512094 5.962428276e-39
0.1958974153 -0.3562701344 -0.1765836924 5.962428276e-39
0.2533753514 -0.3549972177 -0.1398093551 5.962428276e-39
0.2240168899 -0.3566454351 -0.1773988008 5.962428276e-39
0.1505191624 -0.3566746712 -0.1638988405 5.962428276e-39
0.1896401495 -0.3661666214 -0.1386295408 5.962428276e-39
0.2086551934 -0.4175756276 -0.1511742473 5.962428276e-39
0.2189890295 -0.3564291596 -0.0883276388 5.962428276e-39
0.1545920521 -0.2469195276 -0.2934211791 5.962428276e-39
0.1658728719 -0.2268685102 -0.2843957841 5.962428276e-39
0.2126320153 -0.2439431846 -0.2775319219 5.962428276e-39
0.1766822487 -0.2968181372 -0.2774106264 5.962428276e-39
0.0599860549 -0.2663506567 -0.2826397121 5.962428276e-39
0.06039465964 -0.2271901667 -0.2869171202 5.962428276e-39
0.1080157161 -0.3392614126 -0.2859395742 5.962428276e-39
0.1141729504 -0.2560849488 -0.2704028189 5.962428276e-39
0.3440607786 -0.4303132296 -0.105964601 1.184631237e-38
0.3473883271 -0.3906268477 -0.06350304931 1.184631237e-38
0.36703372 -0.4262328744 -0.04213307053 1.184631237e-38
0.35044384 -0.4378662109 -0.06740408391 1.184631237e-38
0.3076919317 -0.432772398 -0.07268023491 1.184631237e-38
0.3367866874 -0.4052848816 -0.03984272853 1.184631237e-38
0.2880007625 -0.4823090434 -0.005999868736 1.184631237e-38
0.3462640643 -0.443238914 0.01102232002 1.184631237e-38
-0.2197924107 -0.3635509014 -0.02276774682 1.184631237e-38
-0.2323353589 -0.3002448678 0.02433986403 1.184631237e-38
-0.2305080891 -0.3934558034 0.0252935607 1.184631237e-38
-0.2336304635 -0.4622771144 0.006556069478 1.184631237e-38
-0.225280419 -0.4200300276 0.0809642151 1.184631237e-38
-0.2353363782 -0.3331567347 0.07787784189 1.184631237e-38
-0.2293911129 -0.471082449 0.1236949041 1.184631237e-38
-0.2297574133 -0.3817897439 0.1478601992 1.184631237e-38
-0.2493397593 -0.3669365644 -0.2440797985 1.184631237e-38
-0.2437609285 -0.2578909397 -0.239199087 1.184631237e-38
-0.2319452614 -0.3769817352 -0.223504141 1.184631237e-38
-0.235380739 -0.4574048519 -0.2262754291 1.184631237e-38
-0.2558937371 -0.4133635163 -0.2124934345 1.184631237e-38
-0.2569856048 -0.3261493742 -0.205490306 1.184631237e-38
-0.2468527406 -0.4674518108 -0.182927832 1.184631237e-38
-0.2566108406 -0.4352719784 -0.1496649683 1.184631237e-38
0.1237319857 -0.3336911201 -0.3110551238 1.184631237e-38
0.1375820488 -0.3204282522 -0.2998319864 1.184631237e-38
0.2277458459 -0.3365196884 -0.2760617137 1.184631237e-38
0.1659911573 -0.3475742936 -0.2981088459 1.184631237e-38
0.01972601563 -0.3353461623 -0.3024633229 1.184631237e-38
0.06355939806 -0.3369808197 -0.2876407802 1.184631237e-38
0.101130873 -0.4128094316 -0.2998216152 1.184631237e-38
0.1239641756 -0.3503137827 -0.2531818151 1.184631237e-38
0.01910335571 -0.4112400413 -0.09320405126 1.184631237e-38
0.04812862724 -0.381223321 -0.04791643471 1.184631237e-38
0.04613972455 -0.4049024582 -0.02551566251 1.184631237e-38
0.03512667865 -0.4302883744 -0.04678833485 1.184631237e-38
-0.02174903452 -0.4095622301 -0.05013744533 1.184631237e-38
-0.006694227457 -0.398663938 -0.02471599914 1.184631237e-38
-0.001104317605 -0.472602427 -0.005047058687 1.184631237e-38
0.01633328199 -0.4076080322 0.03561334312 1.184631237e-38
0.08841408789 -0.3098867536 -0.2820786834 1.184631237e-38
0.1063001156 -0.2925376594 -0.2685143054 1.184631237e-38
0.1744032353 -0.3110412359 -0.24858284 1.184631237e-38
0.1242499799 -0.3398808837 -0.2647683918 1.184631237e-38
0.02132324874 -0.320512861 -0.2732211053 1.184631237e-38
0.05276507139 -0.3061546683 -0.2608477473 1.184631237e-38
0.08483728766 -0.4007974267 -0.2673766315 1.184631237e-38
0.09606705606 -0.3170663714 -0.2268737257 1.184631237e-38
0.01374386251 -0.3593341708 -0.2098733336 1.184631237e-38
0.03631290793 -0.3440977335 -0.1746753752 1.184631237e-38
0.08721806109 -0.3559629917 -0.1326106638 1.184631237e-38
0.05142469704 -0.3587355614 -0.1726179868 1.184631237e-38
-0.05262289941 -0.3503961861 -0.1643981189 1.184631237e-38
-0.01892864332 -0.3579006195 -0.1361565888 1.184631237e-38
0.02117621154 -0.408369869 -0.1511627585 1.184631237e-38
0.03313857317 -0.3492654562 -0.0807813853 1.184631237e-38
0.01354254782 -0.3973135948 -0.0585610494 1.184631237e-38
0.05212505162 -0.3887910843 -0.003892792389 1.184631237e-38
0.0616992861 -0.3937541246 0.0365088582 1.184631237e-38
0.03752626479 -0.3978487849 0.006016192958 1.184631237e-38
-0.02247280627 -0.3961782753 -0.01180947758 1.184631237e-38
0.00221991539 -0.404289782 0.04501255602 1.184631237e-38
0.01187120378 -0.4498564601 0.05409917235 1.184631237e-38
0.02954556048 -0.3937367797 0.09465458989 1.184631237e-38
0.4446094632 -0.480199337 -0.135723725 1.184631237e-38
0.4453891516 -0.4937804341 -0.01179875713 1.184631237e-38
0.4429560304 -0.4750668406 0.02545224316 1.184631237e-38
0.4497769475 -0.4647694826 -0.06265420467 1.184631237e-38
0.3775049448 -0.4795803428 -0.08029098064 1.184631237e-38
0.4263519645 -0.4987727404 0.04976566881 1.184631237e-38
0.2689139247 -0.481850028 0.1059272513 1.184631237e-38
0.4155586362 -0.4810480475 0.09688802809 1.184631237e-38
0.3906877041 -0.4849253297 -0.09903601557 1.184631237e-38
0.390770793 -0.4900456071 0.02478499152 1.184631237e-38
0.4047778249 -0.4751256108 0.06626675278 1.184631237e-38
0.4142149091 -0.4672714472 -0.02430758066 1.184631237e-38
0.3166453838 -0.4828602672 -0.03586917371 1.184631237e-38
0.3621941805 -0.4959629774 0.08656194061 1.184631237e-38
0.2025014907 -0.4831125736 0.1556604654 1.184631237e-38
0.3700394034 -0.4825032949 0.1258094162 1.184631237e-38
0.08242365718 -0.2581828833 -0.2770471871 1.184631237e-38
0.096501261 -0.2220058441 -0.2862374187 1.184631237e-38
0.1338841468 -0.2733485103 -0.2759797871 1.184631237e-38
0.1078586876 -0.3546986282 -0.2747749686 1.184631237e-38
0.002147868276 -0.3136012554 -0.2796745896 1.184631237e-38
0.02087850124 -0.2258105278 -0.2787448764 1.184631237e-38
0.05243844539 -0.4176264405 -0.2744089663 1.184631237e-38
0.05363340676 -0.292650789 -0.2710525692 1.184631237e-38
-0.1834283918 -0.3381857276 -0.2690751255 1.184631237e-38
-0.1692484915 -0.309732914 -0.2556885481 1.184631237e-38
-0.1500158906 -0.3386574388 -0.231853202 1.184631237e-38
-0.1765624881 -0.3842799664 -0.2512298822 1.184631237e-38
-0.2175099701 -0.3547721505 -0.2472714037 1.184631237e-38
-0.1969625205 -0.3308850825 -0.2255714834 1.184631237e-38
-0.1930662692 -0.4200920165 -0.2251140475 1.184631237e-38
-0.198565051 -0.3704873621 -0.1827725917 1.184631237e-38
-0.08523091674 -0.3250684738 -0.3020913303 1.184631237e-38
-0.06326547265 -0.2954915762 -0.2929014862 1.184631237e-38
-0.02461726218 -0.3234267831 -0.2756195664 1.184631237e-38
-0.06771919131 -0.3557351828 -0.2797559798 1.184631237e-38
-0.1541910619 -0.336412549 -0.2893354297 1.184631237e-38
-0.1219353676 -0.3177367747 -0.2777554095 1.184631237e-38
-0.1062478572 -0.4106411338 -0.2758897543 1.184631237e-38
-0.09651453793 -0.3431971073 -0.2463675141 1.184631237e-38
0.0162011236 -0.3837641478 -0.002473320812 1.184631237e-38
0.05449776351 -0.3727945685 0.0341662541 1.184631237e-38
0.05194265395 -0.3788476586 0.06315673888 1.184631237e-38
0.02492439747 -0.3984066844 0.05393210799 1.184631237e-38
-0.01187278703 -0.3922623396 0.04199457169 1.184631237e-38
0.01227801293 -0.3901679516 0.08422388136 1.184631237e-38
0.0199470073 -0.4437195063 0.1013444439 1.184631237e-38
0.02991458029 -0.3840197325 0.1319209784 1.184631237e-38
0.2098575085 -0.3502922356 -0.1130193397 1.184631237e-38
0.2023803443 -0.3466351628 -0.069570072 1.184631237e-38
0.252237618 -0.3412982225 -0.04091702774 1.184631237e-38
0.2236370593 -0.354947865 -0.08133723587 1.184631237e-38
0.1686668694 -0.3482156992 -0.06637682766 1.184631237e-38
0.2038345188 -0.3489299417 -0.03343166411 1.184631237e-38
0.217839852 -0.412250638 -0.03946115449 1.184631237e-38
0.2274938971 -0.3510911763 0.0003739781678 1.184631237e-38
-0.2233124524 -0.3893463016 -0.1796419024 1.184631237e-38
-0.2196004242 -0.2860285342 -0.1364188194 1.184631237e-38
-0.2195486873 -0.3941095471 -0.132453084 1.184631237e-38
-0.2187805921 -0.4734084606 -0.1361159384 1.184631237e-38
-0.2218703032 -0.4328402877 -0.09271320701 1.184631237e-38
-0.2197600603 -0.3442866802 -0.08196207136 1.184631237e-38
-0.2122811526 -0.4768844843 -0.04307961836 1.184631237e-38
-0.2256070971 -0.4392371774 0.02742110007 1.184631237e-38
0.08981882036 -0.254294306 -0.2862373888 1.184631237e-38
0.1088918746 -0.2315188497 -0.2937299311 1.184631237e-38
0.1628274471 -0.2723853886 -0.2846474349 1.184631237e-38
0.1224287897 -0.3490794003 -0.2848995924 1.184631237e-38
-0.008660025895 -0.3070856929 -0.2869159281 1.184631237e-38
0.00911334157 -0.2313087434 -0.2876761556 1.184631237e-38
0.04999580979 -0.4035280347 -0.2831503451 1.184631237e-38
0.0530949235 -0.2913961411 -0.2817056775 1.184631237e-38
-0.1920947134 -0.3146846294 -0.1184513867 1.184631237e-38
-0.1954122484 -0.2174406201 -0.09558324516 1.184631237e-38
-0.1867305934 -0.3587993979 -0.09170740843 1.184631237e-38
-0.1910712719 -0.450507164 -0.09535228461 1.184631237e-38
-0.199469775 -0.4091206789 -0.05489107594 1.184631237e-38
-0.1994984895 -0.2886875868 -0.05189080536 1.184631237e-38
-0.1924862415 -0.4711325169 -0.02311087959 1.184631237e-38
-0.1987407357 -0.3738722205 0.0334526673 1.184631237e-38
-0.09073654562 -0.3442175388 -0.2916326225 1.184631237e-38
-0.06691254675 -0.3298182487 -0.2714312077 1.184631237e-38
-0.02075298503 -0.3401734233 -0.2374435514 1.184631237e-38
-0.05575966835 -0.351264298 -0.2545565963 1.184631237e-38
-0.1501343995 -0.3418292403 -0.2561113536 1.184631237e-38
-0.1141241789 -0.3446602821 -0.234860599 1.184631237e-38
-0.09926740825 -0.415941298 -0.2447169125 1.184631237e-38
-0.09001815319 -0.3392378092 -0.1884442419 1.184631237e-38
-0.0377490893 -0.2624706626 -0.2863458991 1.184631237e-38
-0.02217024192 -0.2290917486 -0.2918401361 1.184631237e-38
0.01252827048 -0.2838175893 -0.2850441635 1.184631237e-38
-0.01980501413 -0.3561914265 -0.2843720019 1.184631237e-38
-0.1356601715 -0.3179151416 -0.287984848 1.184631237e-38
-0.1204053387 -0.2369233221 -0.2846275866 1.184631237e-38
-0.09114491194 -0.4146086574 -0.2770019174 1.184631237e-38
-0.08334095776 -0.2988650203 -0.2735244632 1.184631237e-38
-0.2230995297 -0.3102394342 -0.1394837648 1.184631237e-38
-0.2231234908 -0.2426086664 -0.100335598 1.184631237e-38
-0.2203906775 -0.3521844447 -0.1009804308 1.184631237e-38
-0.220848754 -0.443659246 -0.1015143022 1.184631237e-38
-0.2231991589 -0.3989853859 -0.05259472132 1.184631237e-38
-0.2231260687 -0.2822974324 -0.04487526417 1.184631237e-38
-0.2214864194 -0.4643805623 -0.0164986942 1.184631237e-38
-0.2283300161 -0.3651159406 0.02099788003 1.184631237e-38
-0.2351149917 -0.4399497509 0.05019959807 1.184631237e-38
-0.2308797985 -0.2790544629 0.1829545796 1.184631237e-38
-0.2374321967 -0.4294621944 0.1873025149 1.184631237e-38
-0.2150725126 -0.4826797843 0.1590159088 1.184631237e-38
-0.2235630602 -0.4484598637 0.2281291187 1.184631237e-38
-0.2262444943 -0.3591846824 0.2156611979 1.184631237e-38
-0.220544517 -0.4765629172 0.2558820844 1.184631237e-38
-0.2225965708 -0.4069286585 0.2735640407 1.184631237e-38
0.245029822 -0.416580379 -0.08197784424 1.184631237e-38
0.2521859407 -0.4090081453 -0.01528204046 1.184631237e-38
0.2941036224 -0.4050068259 0.01173646934 1.184631237e-38
0.2815137506 -0.423412323 -0.02276777104 1.184631237e-38
0.1974238306 -0.4088315666 -0.01176988706 1.184631237e-38
0.2409804016 -0.42101717 0.02230109088 1.184631237e-38
0.2268169969 -0.4694820046 0.0503853038 1.184631237e-38
0.2634167671 -0.416813314 0.06716950238 1.184631237e-38
0.3224795461 -0.3287195563 -0.2534308136 1.184631237e-38
0.3117262125 -0.316963613 -0.2164005637 1.184631237e-38
0.3675607443 -0.3355479836 -0.2008198053 1.184631237e-38
0.3506794572 -0.3538075387 -0.2061942518 1.184631237e-38
0.2771949172 -0.3385387063 -0.2280064523 1.184631237e-38
0.3108201027 -0.3341995478 -0.1961605102 1.184631237e-38
0.3315292597 -0.3912693858 -0.2214275748 1.184631237e-38
0.3438634276 -0.3363024592 -0.1786289066 1.184631237e-38
-0.1647347808 -0.3339509964 -0.273567766 1.184631237e-38
-0.1549670249 -0.2583246529 -0.2745683789 1.184631237e-38
-0.1442815959 -0.3309367299 -0.2621888816 1.184631237e-38
-0.1518126875 -0.4229022861 -0.2688671947 1.184631237e-38
-0.1944939196 -0.3803344667 -0.2543896139 1.184631237e-38
-0.1816922426 -0.2706104815 -0.2483284473 1.184631237e-38
-0.1811616421 -0.4445348978 -0.2358044237 1.184631237e-38
-0.1864244342 -0.3692688942 -0.213926971 1.184631237e-38
-0.1940561235 -0.4755938649 0.2325744033 1.184631237e-38
-0.1965601444 -0.3295803666 0.3185442388 1.184631237e-38
-0.1553067416 -0.4637542367 0.3379637003 1.184631237e-38
-0.09923296422 -0.4798147082 0.3149140477 1.184631237e-38
-0.2047332525 -0.4684131742 0.3270209432 1.184631237e-38
-0.2094223052 -0.39785254 0.3412500918 1.184631237e-38
-0.2006324232 -0.4791987538 0.3469727039 1.184631237e-38
-0.1988061219 -0.4360454679 0.3517692387 1.184631237e-38
-0.05416672677 -0.3084303737 -0.2859310508 1.184631237e-38
-0.02427900583 -0.2906405926 -0.2807406485 1.184631237e-38
0.02352324128 -0.3158837557 -0.2619573474 1.184631237e-38
-0.01067309082 -0.3413659334 -0.2670359015 1.184631237e-38
-0.09786542505 -0.326718986 -0.2785516083 1.184631237e-38
-0.07619390637 -0.3141155839 -0.2605898082 1.184631237e-38
-0.05684813112 -0.4127128124 -0.2598547935 1.184631237e-38
-0.04402425885 -0.3153047562 -0.2296100855 1.184631237e-38
-0.1890195161 -0.3129857183 -0.221900329 1.184631237e-38
-0.1929386705 -0.22857292 -0.1848095059 1.184631237e-38
-0.1765221357 -0.3468153477 -0.1695531607 1.184631237e-38
-0.1912163049 -0.4327062368 -0.1684568375 1.184631237e-38
-0.1970284879 -0.396091789 -0.1541994512 1.184631237e-38
-0.1923492253 -0.2885057628 -0.1298352033 1.184631237e-38
-0.1882708818 -0.4661116004 -0.114447251 1.184631237e-38
-0.1955815852 -0.3610485196 -0.06135805696 1.184631237e-38
-0.05519999564 -0.3445777595 -0.2488389313 1.184631237e-38
-0.02834741399 -0.3275503516 -0.2152038962 1.184631237e-38
0.01465360075 -0.3416899443 -0.182133019 1.184631237e-38
-0.0168851316 -0.3538295031 -0.2078631371 1.184631237e-38
-0.1041269898 -0.3440021873 -0.203821972 1.184631237e-38
-0.06973195821 -0.3417440653 -0.1849212795 1.184631237e-38
-0.05861995369 -0.41287148 -0.1931390762 1.184631237e-38
-0.04019525275 -0.3405339718 -0.1367729306 1.184631237e-38
-0.1849038899 -0.3595350385 -0.2969921231 1.184631237e-38
-0.1771919727 -0.3309684992 -0.2752563953 1.184631237e-38
-0.1523870528 -0.3578424454 -0.2459028661 1.184631237e-38
-0.1755502075 -0.3952879906 -0.2741907239 1.184631237e-38
-0.2177864015 -0.3714370131 -0.2587198615 1.184631237e-38
-0.2053891569 -0.3472284675 -0.2352338731 1.184631237e-38
-0.191290468 -0.4296248555 -0.2266948968 1.184631237e-38
-0.2033774257 -0.3851838708 -0.1587715745 1.184631237e-38
0.2175694555 -0.286652565 -0.3214509487 1.184631237e-38
0.2284357399 -0.2716616392 -0.299784869 1.184631237e-38
0.2724571228 -0.3039931357 -0.2895494998 1.184631237e-38
0.2514861822 -0.3069713116 -0.3000695705 1.184631237e-38
0.1693730801 -0.2992274761 -0.30951792 1.184631237e-38
0.1894381195 -0.2845767438 -0.3053177297 1.184631237e-38
0.2270237356 -0.3785933256 -0.3079642355 1.184631237e-38
0.2234722227 -0.2927076221 -0.2710077465 1.184631237e-38
-0.1396079659 -0.2598196864 -0.3246996105 1.184631237e-38
-0.135986343 -0.1967348456 -0.3194260299 1.184631237e-38
-0.1252557039 -0.2904944718 -0.3189644814 1.184631237e-38
-0.1437692195 -0.4034431577 -0.3102096021 1.184631237e-38
-0.1892507076 -0.3456867337 -0.3110580444 1.184631237e-38
-0.1783584356 -0.2156383693 -0.3025108576 1.184631237e-38
-0.1762766242 -0.4523283839 -0.2844904661 1.184631237e-38
-0.1803349853 -0.3093265295 -0.2482801676 1.184631237e-38
-0.1764713526 -0.3318734467 -0.2490946501 1.771655483e-38
-0.1677896529 -0.3099435866 -0.2058691829 1.771655483e-38
-0.1507418156 -0.3299268484 -0.1766650379 1.771655483e-38
-0.1829353273 -0.3712580204 -0.1974067241 1.771655483e-38
-0.1970767677 -0.3426372707 -0.1824470311 1.771655483e-38
-0.1881093085 -0.3202007711 -0.1567011476 1.771655483e-38
-0.1786480695 -0.4081582427 -0.1561916023 1.771655483e-38
-0.1885128021 -0.3464156389 -0.08672536165 1.771655483e-38
0.3384547234 -0.3918957114 -0.1236248985 1.771655483e-38
0.3176813126 -0.389211446 -0.07612440735 1.771655483e-38
0.3685620427 -0.3768519759 -0.04692604393 1.771655483e-38
0.3532541394 -0.3960663378 -0.08133655787 1.771655483e-38
0.2965996265 -0.3888580203 -0.0875614807 1.771655483e-38
0.3281338811 -0.3941398561 -0.0394160822 1.771655483e-38
0.3386736512 -0.4355131984 -0.03122457862 1.771655483e-38
0.349737823 -0.3888271749 -0.002884877846 1.771655483e-38
-0.01176646352 -0.3137492537 -0.3024508357 1.771655483e-38
0.01056073606 -0.30526793 -0.2808610499 1.771655483e-38
0.05770868063 -0.3164228797 -0.2557635009 1.771655483e-38
0.03178726137 -0.3370432258 -0.2713486552 1.771655483e-38
-0.05533980578 -0.3221191764 -0.2744122148 1.771655483e-38
-0.02749922499 -0.3151108027 -0.2541926205 1.771655483e-38
-0.008338153362 -0.401642561 -0.262806356 1.771655483e-38
0.002125039697 -0.3183041811 -0.220851168 1.771655483e-38
-0.09812643379 -0.3550234437 -0.193158254 1.771655483e-38
-0.05310197547 -0.3407335579 -0.1485423893 1.771655483e-38
-0.03147858754 -0.350055337 -0.1042748094 1.771655483e-38
-0.06964250654 -0.3595040441 -0.1325619519 1.771655483e-38
-0.141136229 -0.3494496047 -0.12852633 1.771655483e-38
-0.110546574 -0.3524097204 -0.1012112722 1.771655483e-38
-0.09575235099 -0.4165344238 -0.115467824 1.771655483e-38
-0.08113986999 -0.3475188613 -0.03943660483 1.771655483e-38
-0.2052736729 -0.2692336738 -0.3085546196 1.771655483e-38
-0.1907956302 -0.244818449 -0.2973279953 1.771655483e-38
-0.1840910017 -0.2901089489 -0.2918685377 1.771655483e-38
-0.2045862079 -0.3686665297 -0.2936162353 1.771655483e-38
-0.2207159847 -0.3237451315 -0.2820766866 1.771655483e-38
-0.2247855216 -0.2508812547 -0.2706305683 1.771655483e-38
-0.2119588852 -0.4164068699 -0.2552521527 1.771655483e-38
-0.2199808508 -0.2864535451 -0.2130589336 1.771655483e-38
-0.1657213569 -0.3308715522 -0.3418035209 1.771655483e-38
-0.1585283875 -0.2977553308 -0.3251666129 1.771655483e-38
-0.1227971464 -0.3192532659 -0.3010968864 1.771655483e-38
-0.1578829139 -0.3672724366 -0.3125891685 1.771655483e-38
-0.2117474675 -0.3328747153 -0.3138994575 1.771655483e-38
-0.1927220225 -0.3119552135 -0.2960785627 1.771655483e-38
-0.17874825 -0.4193030596 -0.2845918536 1.771655483e-38
-0.1906458735 -0.3264867961 -0.2402559519 1.771655483e-38
-0.1945350319 -0.340480119 -0.3206593096 1.771655483e-38
-0.1910890937 -0.3090209067 -0.2944959104 1.771655483e-38
-0.1642269641 -0.3357614279 -0.2661029398 1.771655483e-38
-0.1845337749 -0.3768260479 -0.2896012068 1.771655483e-38
-0.228148073 -0.3502929807 -0.2676662505 1.771655483e-38
-0.2235390842 -0.3272367716 -0.2412183136 1.771655483e-38
-0.2038221657 -0.4277710319 -0.2371906936 1.771655483e-38
-0.2176801711 -0.35898453 -0.1667563617 1.771655483e-38
-0.2095291018 -0.3292271495 -0.303368926 1.771655483e-38
-0.1966041028 -0.301750958 -0.2870414555 1.771655483e-38
-0.1729353368 -0.3238558769 -0.2599135041 1.771655483e-38
-0.1976014525 -0.3610034585 -0.2839203775 1.771655483e-38
-0.2344336063 -0.33226192 -0.2682631612 1.771655483e-38
-0.2309969515 -0.3197283149 -0.2410838604 1.771655483e-38
-0.2115536481 -0.4126073122 -0.2430086583 1.771655483e-38
-0.2204949707 -0.3415513635 -0.1843771636 1.771655483e-38
-0.2038235366 -0.2987807989 -0.1398578584 1.771655483e-38
-0.2064252347 -0.2253541946 -0.1038175002 1.771655483e-38
-0.1991596371 -0.3443481922 -0.1000831872 1.771655483e-38
-0.2040233165 -0.4327582717 -0.1018599346 1.771655483e-38
-0.2045805454 -0.3932339251 -0.03794097155 1.771655483e-38
-0.2078243345 -0.2723231912 -0.0309504196 1.771655483e-38
-0.2050117999 -0.4583741426 -5.222856998e-06 1.771655483e-38
-0.2080201656 -0.3503448665 0.04358749837 1.771655483e-38
0.2018017918 -0.3911035657 -0.07220491022 1.771655483e-38
0.2025844902 -0.3871144652 -0.014976128 1.771655483e-38
0.2466620058 -0.3837042451 0.008154759184 1.771655483e-38
0.215316996 -0.3938692212 -0.03019114211 1.771655483e-38
0.160051465 -0.3890997469 -0.0144365225 1.771655483e-38
0.1989252716 -0.3990738988 0.01504249685 1.771655483e-38
0.2044142038 -0.4448038936 0.02241984941 1.771655483e-38
0.220344916 -0.3893103898 0.05765591562 1.771655483e-38
-0.1257395148 -0.482532382 0.2254369855 1.771655483e-38
-0.1040101051 -0.4847297668 0.4061662853 1.771655483e-38
-0.06603950262 -0.469343245 0.4454623759 1.771655483e-38
-0.02813361213 -0.4804982543 0.4154023528 1.771655483e-38
-0.1687629521 -0.475827992 0.356644094 1.771655483e-38
-0.1200076342 -0.4742751718 0.397483021 1.771655483e-38
-0.1343202591 -0.4744711518 0.4110734463 1.771655483e-38
-0.1260126084 -0.4686471224 0.4369448125 1.771655483e-38
0.2024735659 -0.2922456264 -0.2858695686 1.771655483e-38
0.2001874 -0.2821465433 -0.2595534027 1.771655483e-38
0.2547413707 -0.2984002829 -0.2499956191 1.771655483e-38
0.2246244401 -0.2937453985 -0.265753746 1.771655483e-38
0.1100567281 -0.29498896 -0.2755475342 1.771655483e-38
0.1404662132 -0.2851076126 -0.262178123 1.771655483e-38
0.1794647723 -0.3581886888 -0.2715508938 1.771655483e-38
0.1816263944 -0.2868465781 -0.2310647219 1.771655483e-38
-0.2059400976 -0.3231626153 -0.1991836578 1.771655483e-38
-0.2049568146 -0.2580786645 -0.1711574644 1.771655483e-38
-0.1825966686 -0.340903461 -0.1469529867 1.771655483e-38
-0.2069743425 -0.4063665867 -0.1523230225 1.771655483e-38
-0.2082517147 -0.3754930496 -0.1180789173 1.771655483e-38
-0.2087199092 -0.3027155995 -0.09102962911 1.771655483e-38
-0.1942635924 -0.4315308928 -0.0861581862 1.771655483e-38
-0.2184800059 -0.3560664058 -0.01208667643 1.771655483e-38
0.3492803574 -0.3424678445 -0.2467152625 1.771655483e-38
0.3446754217 -0.3361770511 -0.2115356475 1.771655483e-38
0.4014420509 -0.3532469273 -0.199257046 1.771655483e-38
0.3856038451 -0.3648707271 -0.2054341882 1.771655483e-38
0.2956790924 -0.346336484 -0.2275516689 1.771655483e-38
0.3327383995 -0.3508737683 -0.1911203861 1.771655483e-38
0.3624570966 -0.4047443867 -0.2189406753 1.771655483e-38
0.3766323924 -0.3389653862 -0.1699502766 1.771655483e-38
-0.2247935832 -0.4067641497 0.1979360878 1.771655483e-38
-0.2186767608 -0.2460750341 0.2858058214 1.771655483e-38
-0.2185224593 -0.4152594209 0.2842929959 1.771655483e-38
-0.2190577835 -0.4791706204 0.2791569531 1.771655483e-38
-0.214525193 -0.4435213804 0.3225280046 1.771655483e-38
-0.2198114395 -0.3285991549 0.3095531166 1.771655483e-38
-0.2103402913 -0.473498404 0.3402764797 1.771655483e-38
-0.2247267216 -0.3823911548 0.3329178095 1.771655483e-38
-0.1263770163 -0.3588447273 -0.2300718427 1.771655483e-38
-0.1160994619 -0.3379334807 -0.1899311393 1.771655483e-38
-0.09647435695 -0.3551693857 -0.1548618674 1.771655483e-38
-0.1208042726 -0.3833000064 -0.186167717 1.771655483e-38
-0.1449850202 -0.3681055605 -0.1606731266 1.771655483e-38
-0.1285407394 -0.3504845798 -0.1451947242 1.771655483e-38
-0.1199792027 -0.4287447333 -0.1428776085 1.771655483e-38
-0.1276966929 -0.3677858114 -0.07201965898 1.771655483e-38
