# .PCD v0.7 - Point Cloud Data file format
VERSION 0.7
FIELDS x y z rgb
SIZE 4 4 4 4
TYPE F F F F
COUNT 1 1 1 1
WIDTH 844
HEIGHT 1
VIEWPOINT 0 0 0 1 0 0 0
POINTS 844
DATA ascii
0.2561788261 -0.3639757633 -0.08062531054 1.184631237e-38
0.2405419946 -0.3989702761 -0.0538986288 1.184631237e-38
0.2832458913 -0.3700056672 -0.05746021867 1.184631237e-38
0.2459533513 -0.3716008961 -0.03083129972 1.184631237e-38
-0.4233776033 -0.1945017129 0.2698228061 1.184631237e-38
-0.4296016395 -0.3292761147 0.2609164715 1.184631237e-38
-0.4308543503 -0.247360453 0.2773050368 1.184631237e-38
-0.4253938198 -0.1521811187 0.2896048725 1.184631237e-38
-0.0968202278 -0.4932408333 0.2390356809 1.184631237e-38
-0.1604037285 -0.4911351204 0.277694732 1.184631237e-38
-0.007309988141 -0.4896503687 0.3245344758 1.184631237e-38
-0.1129278317 -0.4925548434 0.340849936 1.184631237e-38
-0.4275986254 -0.3814967275 0.3759666085 1.184631237e-38
-0.4374579489 -0.4820929766 0.366614908 1.184631237e-38
-0.4286800921 -0.4326611459 0.3565462828 1.184631237e-38
-0.4420251548 -0.3131965697 0.3733726144 1.184631237e-38
-0.3754298985 -0.4938877821 0.1864258349 1.184631237e-38
-0.4079121649 -0.4905533195 0.2592814267 1.184631237e-38
-0.2941486239 -0.4892627001 0.3358764052 1.184631237e-38
-0.3823976517 -0.4966480732 0.3259928226 1.184631237e-38
-0.4348838031 -0.4236952066 0.2376163751 1.184631237e-38
-0.4378032386 -0.4697862864 0.2553505301 1.184631237e-38
-0.4232299924 -0.4330760837 0.2791514695 1.184631237e-38
-0.434019953 -0.4073403776 0.2800973654 1.184631237e-38
0.2534251213 -0.4902140498 -0.1185671538 1.184631237e-38
0.1767283082 -0.4899926782 -0.07447718084 1.184631237e-38
0.3037920892 -0.4882029891 -0.05258584023 1.184631237e-38
0.2431690693 -0.4930788279 0.03035046533 1.184631237e-38
-0.4058118761 -0.407287389 0.2746281922 1.184631237e-38
-0.4191628397 -0.4702598453 0.2797318101 1.184631237e-38
-0.4127047956 -0.4291476905 0.2975974381 1.184631237e-38
-0.4182544947 -0.3765648007 0.2977069616 1.184631237e-38
-0.01842459291 -0.4875320196 0.2050290555 1.184631237e-38
-0.1075471863 -0.4864334464 0.2704276145 1.184631237e-38
0.05463450402 -0.4853228331 0.3049927056 1.184631237e-38
-0.05026081949 -0.4892622828 0.3424465656 1.184631237e-38
-0.4046130776 -0.1004606932 0.286481142 1.184631237e-38
-0.3976790905 -0.2250925303 0.2744184434 1.184631237e-38
-0.40119192 -0.1480711997 0.2861078978 1.184631237e-38
-0.4019494951 -0.06028143689 0.2900767624 1.184631237e-38
0.1882297993 -0.4873684049 -0.05033591762 1.184631237e-38
0.07899107784 -0.488299787 0.01161885634 1.184631237e-38
0.2329933345 -0.4891619682 0.02477915213 1.184631237e-38
0.1446219683 -0.4945614338 0.11356619 1.184631237e-38
0.2846576571 -0.4869887233 -0.1435363591 1.184631237e-38
0.1975434422 -0.4865997434 -0.09361479431 1.184631237e-38
0.3235102594 -0.4875819087 -0.06422908604 1.184631237e-38
0.2753292024 -0.4918008447 0.02539395168 1.184631237e-38
-0.4390306175 -0.4895443916 0.2017491758 1.184631237e-38
-0.4416870177 -0.488109529 0.2531444728 1.184631237e-38
-0.3891536295 -0.487259686 0.3001122773 1.184631237e-38
-0.4319889843 -0.4880059958 0.2833227515 1.184631237e-38
0.2486888468 -0.4609592259 -0.1160069406 1.478322936e-38
0.2010996044 -0.4692307413 -0.06915491074 1.478322936e-38
0.2843025625 -0.4634417892 -0.06147959828 1.478322936e-38
0.2478911877 -0.4589850008 -0.03461785614 1.478322936e-38
-0.4176521897 -0.3354457021 0.3541874886 1.478322936e-38
-0.418956995 -0.4708893895 0.3444668949 1.478322936e-38
-0.4162442684 -0.3964660466 0.3356162012 1.478322936e-38
-0.421287179 -0.2666228712 0.3558983207 1.478322936e-38
-0.1131872907 -0.4903113842 0.2372996956 1.478322936e-38
-0.1761013865 -0.4902315736 0.2628314793 1.478322936e-38
-0.008788272738 -0.4880152345 0.3035196066 1.478322936e-38
-0.119488664 -0.4844297767 0.3207606673 1.478322936e-38
-0.406874299 -0.1522622108 0.2974083126 1.478322936e-38
-0.4092309773 -0.3353998065 0.2834670246 1.478322936e-38
-0.4095961452 -0.2211830616 0.2899014354 1.478322936e-38
-0.4104339778 -0.08229906857 0.2996960282 1.478322936e-38
-0.410508126 -0.1021392941 0.3264496624 1.478322936e-38
-0.4133872092 -0.2821943164 0.3199667633 1.478322936e-38
-0.4083831906 -0.1678938568 0.3157286942 1.478322936e-38
-0.4133704305 -0.03979037702 0.3313811123 1.478322936e-38
0.2974186838 -0.4752874374 -0.1103479266 1.478322936e-38
0.2390969694 -0.483368814 -0.08764468133 1.478322936e-38
0.3265581131 -0.483007431 -0.06550493836 1.478322936e-38
0.298145026 -0.4816121459 -0.03178056329 1.478322936e-38
0.2184372842 -0.4805569649 -0.08233338594 1.478322936e-38
0.1685231328 -0.4846602082 -0.03429589048 1.478322936e-38
0.2680069804 -0.4827318788 -0.03748179972 1.478322936e-38
0.2225399315 -0.4860495925 0.02348166332 1.478322936e-38
-0.4269492328 -0.1666537672 0.3143185973 1.478322936e-38
-0.4341366589 -0.3431833684 0.312495321 1.478322936e-38
-0.4403667748 -0.2367366105 0.3282457292 1.478322936e-38
-0.4381239712 -0.111643061 0.3400377631 1.478322936e-38
-0.4153658748 -0.2044264227 0.2982328534 1.478322936e-38
-0.4077731669 -0.3447976708 0.2942396998 1.478322936e-38
-0.4165283144 -0.2587948143 0.3067881167 1.478322936e-38
-0.4136776626 -0.14710325 0.3162678182 1.478322936e-38
-0.422357738 -0.1234773844 0.2640306056 1.478322936e-38
-0.4204867184 -0.2324413806 0.2634273767 1.478322936e-38
-0.4213445187 -0.1617160141 0.2891559601 1.478322936e-38
-0.4216116667 -0.08316701651 0.2904872894 1.478322936e-38
0.4041551352 -0.3846908212 -0.04570062831 1.478322936e-38
0.4056586027 -0.4638189375 -0.03736149147 1.478322936e-38
0.3953978121 -0.4141274095 -0.0265301764 1.478322936e-38
0.4155214727 -0.3380168378 -0.0310475789 1.478322936e-38
0.1606727839 -0.4902176261 0.1139800698 1.478322936e-38
0.03516007215 -0.4906442761 0.2302825898 1.478322936e-38
0.2005035877 -0.4897325635 0.2319630235 1.478322936e-38
0.1018197834 -0.4956665635 0.2962071002 1.478322936e-38
-0.1594182253 -0.4875121713 0.2555612326 1.478322936e-38
-0.225207001 -0.4879927635 0.3151923418 1.478322936e-38
-0.107032083 -0.4867997766 0.3704037666 1.478322936e-38
-0.189353317 -0.4955996275 0.3718903959 1.478322936e-38
0.1679980904 -0.4869530797 0.04210189357 1.478322936e-38
0.05797990412 -0.4874556661 0.1215512604 1.478322936e-38
0.2085041106 -0.4877790213 0.1392630488 1.478322936e-38
0.1210014299 -0.4939829707 0.2141912729 1.478322936e-38
0.3158068657 -0.4881866574 -0.1436590999 1.478322936e-38
0.2270393968 -0.4883760214 -0.1027955487 1.478322936e-38
0.3501773179 -0.4892479181 -0.06347580254 1.478322936e-38
0.3035296798 -0.4935418367 0.0233845152 1.478322936e-38
-0.4167822301 -0.1369514763 0.3527155221 1.478322936e-38
-0.4096801281 -0.293061167 0.3409986794 1.478322936e-38
-0.4100638926 -0.1941793859 0.3487614989 1.478322936e-38
-0.4042733908 -0.08445613086 0.3603395224 1.478322936e-38
0.3089512885 -0.4835609794 -0.1972416192 1.478322936e-38
0.2402019203 -0.4894855618 -0.1784875691 1.478322936e-38
0.339838624 -0.4881147742 -0.1184793413 1.478322936e-38
0.3042308986 -0.4909492731 -0.06667247415 1.478322936e-38
0.2390332818 -0.373570174 -0.005632005632 1.478322936e-38
0.225625366 -0.3855965137 0.01621502265 1.478322936e-38
0.2618566751 -0.3620269597 0.0223669447 1.478322936e-38
0.2339124382 -0.3737024665 0.04269452766 1.478322936e-38
0.2775405943 -0.331410706 -0.1002964154 1.478322936e-38
0.2750850618 -0.362390846 -0.07633216679 1.478322936e-38
0.3072115779 -0.332647115 -0.0770862177 1.478322936e-38
0.279242605 -0.3415820301 -0.05158808082 1.478322936e-38
-0.389850527 -0.09028193355 0.3572537899 1.478322936e-38
-0.3885930479 -0.2650509179 0.3506579995 1.478322936e-38
-0.3869431019 -0.1532348096 0.3552075326 1.478322936e-38
-0.3888702095 -0.0414945893 0.3611494601 1.478322936e-38
0.1389300525 -0.4887415171 0.1150646061 1.478322936e-38
0.05253176391 -0.4832414985 0.1918190569 1.478322936e-38
0.1961059868 -0.487149179 0.2003416866 1.478322936e-38
0.1021824479 -0.4903467894 0.2700677514 1.478322936e-38
-0.4349104464 -0.1241757572 0.3372711241 1.478322936e-38
-0.4381818473 -0.2944152951 0.3263531923 1.478322936e-38
-0.4375434816 -0.1854985654 0.339708358 1.478322936e-38
-0.440641135 -0.0591881834 0.3511963189 1.478322936e-38
0.3186955452 -0.3705641925 -0.1076589227 1.478322936e-38
0.2982959747 -0.403049171 -0.08974672854 1.478322936e-38
0.3318772018 -0.3750346303 -0.07331649959 1.478322936e-38
0.3168740273 -0.3566160798 -0.06999786198 1.478322936e-38
0.2540720999 -0.4883574247 -0.03214502707 1.478322936e-38
0.1399157941 -0.4886502624 0.0561545454 1.478322936e-38
0.2877748907 -0.4880613089 0.07342648506 1.478322936e-38
0.2175232172 -0.4900504351 0.1558953375 1.478322936e-38
-0.1500031054 -0.4890922904 0.248887524 1.478322936e-38
-0.2205714285 -0.4879546762 0.3077113032 1.478322936e-38
-0.09088180214 -0.4871367812 0.3680965602 1.478322936e-38
-0.1778938174 -0.4965597987 0.3690336049 1.478322936e-38
0.2904096246 -0.4327985346 -0.07366253436 1.478322936e-38
0.2578454018 -0.4516038597 -0.06233995408 1.478322936e-38
0.3036957681 -0.4339547157 -0.04536548257 1.478322936e-38
0.2841633856 -0.4170192182 -0.04638104141 1.478322936e-38
0.2424319983 -0.4218060672 -0.05387736857 1.478322936e-38
0.2228515446 -0.455304563 -0.02421571501 1.478322936e-38
0.2716766894 -0.4334456325 -0.02159360424 1.478322936e-38
0.2510660291 -0.4112090766 -0.005814790726 1.478322936e-38
-0.4103830457 -0.1298179477 0.2906500399 1.478322936e-38
-0.4005485773 -0.2274100333 0.281704545 1.478322936e-38
-0.4084631205 -0.1625920534 0.2982546091 1.478322936e-38
-0.4055175185 -0.1020451784 0.301153928 1.478322936e-38
0.3906842768 -0.350820601 -0.108507961 1.478322936e-38
0.3876812458 -0.4403882623 -0.09985697269 1.478322936e-38
0.3801622093 -0.3830106556 -0.08960600197 1.478322936e-38
0.3882112205 -0.2727047205 -0.09965611249 1.478322936e-38
0.3486828506 -0.3141375184 -0.1465803087 1.478322936e-38
0.3472319543 -0.3580895662 -0.1304326802 1.478322936e-38
0.3653642237 -0.3229542971 -0.128827095 1.478322936e-38
0.3466826081 -0.3167429268 -0.1206778735 1.478322936e-38
-0.4241026044 -0.2741430998 0.342849046 1.478322936e-38
-0.4263151586 -0.4401604831 0.3327233493 1.478322936e-38
-0.4302386343 -0.3539403677 0.3319473565 1.478322936e-38
-0.4275823534 -0.1846583337 0.3499076962 1.478322936e-38
-0.4123906195 -0.4996608496 0.2738668323 1.478322936e-38
-0.4180174768 -0.4890919328 0.3332808614 1.478322936e-38
-0.3298012614 -0.4873258471 0.3788044751 1.478322936e-38
-0.4098896086 -0.4902534485 0.3646033704 1.478322936e-38
-0.449167341 -0.2273747027 0.3267512321 1.771655483e-38
-0.4485752881 -0.3855919242 0.3138696551 1.771655483e-38
-0.452729851 -0.3010393381 0.3238070607 1.771655483e-38
-0.4475758374 -0.1589400172 0.3398668468 1.771655483e-38
-0.4233101606 -0.1367054731 0.3795085549 1.771655483e-38
-0.420389235 -0.3192994893 0.3704145849 1.771655483e-38
-0.4238196015 -0.212256223 0.3809853196 1.771655483e-38
-0.4211478233 -0.05069066212 0.3894825876 1.771655483e-38
-0.4385671318 -0.1522561908 0.3290710449 1.771655483e-38
-0.4322583377 -0.3215151429 0.3157601655 1.771655483e-38
-0.4292796552 -0.2228802294 0.3269690871 1.771655483e-38
-0.4340373576 -0.06240096316 0.3405241072 1.771655483e-38
-0.4374683797 -0.08161249757 0.3792739809 1.771655483e-38
-0.4282456338 -0.2472129613 0.3683456481 1.771655483e-38
-0.4227832854 -0.135354355 0.3784840107 1.771655483e-38
-0.4210461378 -0.02302009985 0.3849586546 1.771655483e-38
0.2279369235 -0.3610376418 0.07894858718 1.771655483e-38
0.2155782878 -0.3898896873 0.09712298214 1.771655483e-38
0.2564403415 -0.3694597781 0.09793412685 1.771655483e-38
0.2239307761 -0.3657431901 0.1101549268 1.771655483e-38
0.2156868577 -0.4014739096 0.03718787804 1.771655483e-38
0.1964045465 -0.437958926 0.06426998973 1.771655483e-38
0.2307141125 -0.4034113884 0.07285305858 1.771655483e-38
0.2143546641 -0.3982053101 0.08065724373 1.771655483e-38
0.06766135991 -0.4893971086 0.2521758974 1.771655483e-38
-0.03604208678 -0.4893472791 0.3420813084 1.771655483e-38
0.1156649888 -0.4893149734 0.3518542647 1.771655483e-38
0.02294344828 -0.494377315 0.3876357079 1.771655483e-38
0.2178129256 -0.4776393473 -0.07592659444 1.771655483e-38
0.1612970978 -0.484184742 -0.01877300628 1.771655483e-38
0.2622017264 -0.4822859764 -0.01806661487 1.771655483e-38
0.2112508714 -0.4841612577 0.03966475651 1.771655483e-38
-0.4664458334 -0.4844082594 0.2557839155 1.771655483e-38
-0.4714339077 -0.4886000156 0.3088127077 1.771655483e-38
-0.4086761475 -0.4874607325 0.3586030602 1.771655483e-38
-0.460616082 -0.4796771407 0.3517719209 1.771655483e-38
-0.4369587004 -0.2150579393 0.3205096126 1.771655483e-38
-0.4353299439 -0.3787180483 0.3118138015 1.771655483e-38
-0.4405052364 -0.2911275029 0.3302144408 1.771655483e-38
-0.4361370504 -0.1446495801 0.3418298662 1.771655483e-38
-0.4407906234 -0.3945699036 0.4437784553 1.771655483e-38
-0.433203727 -0.4854225516 0.4344798326 1.771655483e-38
-0.4174717963 -0.4536179602 0.4478223622 1.771655483e-38
-0.4420576394 -0.3130587935 0.4569766819 1.771655483e-38
-0.4561576545 -0.1707673073 0.3778620064 1.771655483e-38
-0.440081507 -0.3279880583 0.3660158813 1.771655483e-38
-0.4342774451 -0.2314385027 0.3694622219 1.771655483e-38
-0.4315705597 -0.06461729109 0.3831160963 1.771655483e-38
0.3020954728 -0.4540528655 -0.06865525246 1.771655483e-38
0.2609280348 -0.4742000401 -0.04980866611 1.771655483e-38
0.3155806065 -0.460424155 -0.03314683586 1.771655483e-38
0.296096772 -0.4442291558 -0.01155288145 1.771655483e-38
-0.414835006 -0.2074874043 0.3424852192 1.771655483e-38
-0.4165294468 -0.3619321287 0.3350103498 1.771655483e-38
-0.4201262295 -0.2718186378 0.3492650688 1.771655483e-38
-0.4127206504 -0.1569661498 0.360999167 1.771655483e-38
0.2769186497 -0.3687213659 -0.03672102094 1.771655483e-38
0.2539412379 -0.3854081631 -0.01298593357 1.771655483e-38
0.2946011424 -0.3634318411 -0.002845928073 1.771655483e-38
0.2631437182 -0.362300247 0.01348272339 1.771655483e-38
0.3138841093 -0.3540515602 -0.1310089231 1.771655483e-38
0.3040127158 -0.3961174488 -0.1138604879 1.771655483e-38
0.3363358378 -0.3583468497 -0.1142406017 1.771655483e-38
0.3121949732 -0.3539836705 -0.1001031771 1.771655483e-38
-0.4114347398 -0.08017195761 0.3511999846 1.771655483e-38
-0.4049554467 -0.161277473 0.3515958488 1.771655483e-38
-0.4010348022 -0.09678369761 0.3603855968 1.771655483e-38
-0.394920975 -0.07084229589 0.3691788316 1.771655483e-38
0.3804387748 -0.3660298288 -0.1203234792 1.771655483e-38
0.3832152486 -0.4467085302 -0.1085501164 1.771655483e-38
0.3777726293 -0.400000751 -0.09473166615 1.771655483e-38
0.3873111606 -0.2893320918 -0.1065096706 1.771655483e-38
0.2986214161 -0.3572063744 -0.1027963981 1.771655483e-38
0.2877591848 -0.3861216009 -0.08646355569 1.771655483e-38
0.3124575019 -0.3601245582 -0.07429552823 1.771655483e-38
0.2922998369 -0.3502815962 -0.06832441688 1.771655483e-38
0.2652692497 -0.4895489812 -0.0139221251 1.771655483e-38
0.1356755495 -0.4890915751 0.08055067062 1.771655483e-38
0.2891410589 -0.488624692 0.09883792698 1.771655483e-38
0.215166837 -0.4942445159 0.1818534434 1.771655483e-38
0.327706337 -0.4868913293 -0.142092213 1.771655483e-38
0.2483818233 -0.4897453785 -0.1082400903 1.771655483e-38
0.3540053368 -0.489131391 -0.0649876371 1.771655483e-38
0.3218695223 -0.4936560392 -8.69333744e-05 1.771655483e-38
-0.4249083996 -0.4768093228 0.3040343225 1.771655483e-38
-0.4348718226 -0.4877776504 0.3416636884 1.771655483e-38
-0.3883844018 -0.4835070372 0.3729919195 1.771655483e-38
-0.4313023388 -0.4565508366 0.3688117862 1.771655483e-38
-0.4145970047 -0.285502851 0.334292084 1.771655483e-38
-0.4174238443 -0.4206030965 0.3385784626 1.771655483e-38
-0.4254793525 -0.3424853683 0.3455073833 1.771655483e-38
-0.4198794961 -0.2274189591 0.359254837 1.771655483e-38
0.2461328506 -0.3234884739 0.05380837247 1.771655483e-38
0.2386204302 -0.3486015499 0.08038185537 1.771655483e-38
0.2739390433 -0.3325187266 0.07607506216 1.771655483e-38
0.2407921553 -0.3276287913 0.09450817108 1.771655483e-38
-0.2872284055 -0.4922776818 0.2993939221 1.771655483e-38
-0.3342490792 -0.4907357693 0.3561835289 1.771655483e-38
-0.2036765218 -0.4887501597 0.4075072408 1.771655483e-38
-0.3033043146 -0.4982355833 0.4055574834 1.771655483e-38
-0.02022862434 -0.4869524837 0.3016465902 1.771655483e-38
-0.09397048503 -0.4882332087 0.3372964561 1.771655483e-38
0.06249373406 -0.4868364334 0.3475139439 1.771655483e-38
-0.0372357145 -0.4894189239 0.3813416064 1.771655483e-38
-0.4428417385 -0.3848628402 0.4019994438 1.771655483e-38
-0.4456964433 -0.4837545156 0.3909956813 1.771655483e-38
-0.4369793236 -0.4433888197 0.3852092028 1.771655483e-38
-0.4542652071 -0.3136099577 0.4060272276 1.771655483e-38
-0.4575683773 -0.01290458441 0.4071615636 1.771655483e-38
-0.4465177357 -0.09910918772 0.3799241781 1.771655483e-38
-0.4415545166 -0.03817141056 0.4051056206 1.771655483e-38
-0.4164917469 -0.006348615512 0.4084062874 1.771655483e-38
-0.4023653865 -0.4876011014 0.3198307455 1.771655483e-38
-0.4350502193 -0.4908631444 0.367673099 1.771655483e-38
-0.3237245381 -0.4841540456 0.4205795228 1.771655483e-38
-0.4158755243 -0.493966043 0.4231108129 1.771655483e-38
0.2552732825 -0.3349324465 0.02107255533 1.771655483e-38
0.2422719896 -0.3495416641 0.0427111946 1.771655483e-38
0.2802730799 -0.333804369 0.04085092619 1.771655483e-38
0.2399996221 -0.3349766135 0.06557457149 1.771655483e-38
-0.4154327512 -0.2894164622 0.3471725583 1.771655483e-38
-0.4223564565 -0.4006566405 0.3522689342 1.771655483e-38
-0.4290305674 -0.332770139 0.3624139726 1.771655483e-38
-0.4262391031 -0.2567707896 0.3737144768 1.771655483e-38
0.1756946892 -0.4935695529 0.1179972291 1.771655483e-38
0.07549549639 -0.4896655679 0.2010157108 1.771655483e-38
0.2406259477 -0.4897089005 0.2043424398 1.771655483e-38
0.1425500214 -0.4920027852 0.2846860588 1.771655483e-38
-0.4178583324 -0.1061181128 0.4085537195 2.06466517e-38
-0.4119223058 -0.2422741503 0.4047502577 2.06466517e-38
-0.4065898061 -0.1440023482 0.4053787291 2.06466517e-38
-0.398586154 -0.08605335653 0.4186295271 2.06466517e-38
0.3911300898 -0.3510122895 -0.1090050936 2.06466517e-38
0.3850867748 -0.4404512644 -0.09988930821 2.06466517e-38
0.3869850934 -0.393800348 -0.1005286276 2.06466517e-38
0.3949893117 -0.2685505152 -0.1065151691 2.06466517e-38
-0.3999990225 -0.244254753 0.3768849075 2.06466517e-38
-0.3921655715 -0.3909580112 0.3681558967 2.06466517e-38
-0.3972351551 -0.3049386144 0.3661368191 2.06466517e-38
-0.3864563406 -0.183946833 0.3848587275 2.06466517e-38
0.3223378062 -0.4906617999 -0.0285101179 2.06466517e-38
0.2423393726 -0.4902598858 0.01538295299 2.06466517e-38
0.3306553662 -0.491640687 0.05277518556 2.06466517e-38
0.2970978022 -0.4935666919 0.1060893834 2.06466517e-38
0.1945559233 -0.4961785674 0.1416692883 2.06466517e-38
0.07963811606 -0.4925804138 0.2494432479 2.06466517e-38
0.2451803088 -0.4919575453 0.2391053289 2.06466517e-38
0.158838883 -0.4963839054 0.3035564125 2.06466517e-38
-0.4238180816 -0.2263455689 0.346483767 2.06466517e-38
-0.4234903157 -0.3963407576 0.3392477036 2.06466517e-38
-0.4319958389 -0.301199466 0.349894613 2.06466517e-38
-0.4268697202 -0.1594696194 0.3624612391 2.06466517e-38
-0.4303868115 -0.2375942022 0.3950030506 2.06466517e-38
-0.4231624901 -0.3889034688 0.3862510622 2.06466517e-38
-0.42808339 -0.3061523438 0.3767497241 2.06466517e-38
-0.4189928174 -0.1617233753 0.4035668373 2.06466517e-38
0.25445804 -0.4906088114 0.01718695089 2.06466517e-38
0.1465263516 -0.4895269871 0.07692214847 2.06466517e-38
0.2853061855 -0.4904606938 0.1071147174 2.06466517e-38
0.2189974487 -0.4941620231 0.1847839057 2.06466517e-38
-0.4201385081 -0.3680380285 0.3348322213 2.06466517e-38
-0.4200881422 -0.4479873776 0.3291698694 2.06466517e-38
-0.4123705924 -0.3938933909 0.3296978176 2.06466517e-38
-0.4197103977 -0.3335493803 0.3417306542 2.06466517e-38
-0.06143517047 -0.4931840897 0.2895593047 2.06466517e-38
-0.1212290153 -0.4910598397 0.3336544931 2.06466517e-38
0.02857097983 -0.4892194867 0.3532624245 2.06466517e-38
-0.06577400118 -0.4941362739 0.377551645 2.06466517e-38
0.3674788773 -0.4607830346 -0.1438687444 2.06466517e-38
0.3528091311 -0.4824869037 -0.1280593276 2.06466517e-38
0.3804607093 -0.4701300561 -0.09455025196 2.06466517e-38
0.3768627644 -0.4652029872 -0.07416306436 2.06466517e-38
-0.4201402068 -0.2907448411 0.3965198994 2.06466517e-38
-0.4014034569 -0.4301861525 0.388764143 2.06466517e-38
-0.4013696015 -0.3535450101 0.3792022765 2.06466517e-38
-0.3993879557 -0.1993523091 0.3959657848 2.06466517e-38
0.3066974282 -0.4895861149 -0.04414173588 2.06466517e-38
0.220978111 -0.489043951 0.003501642495 2.06466517e-38
0.3188481331 -0.4901947379 0.03727817908 2.06466517e-38
0.2771330476 -0.493604362 0.09939189255 2.06466517e-38
0.2410053611 -0.4916679263 0.06290835142 2.06466517e-38
0.1283569932 -0.4894052148 0.1504274607 2.06466517e-38
0.2772274911 -0.4891840816 0.1618317962 2.06466517e-38
0.2107272744 -0.4939698577 0.2260325104 2.06466517e-38
-0.4169151187 -0.1423458755 0.3898574114 2.06466517e-38
-0.4148797095 -0.30328843 0.3888434768 2.06466517e-38
-0.4184580743 -0.1957130581 0.3969863951 2.06466517e-38
-0.4119707048 -0.09402966499 0.4088186026 2.06466517e-38
0.1325996667 -0.494549036 0.2007224262 2.06466517e-38
0.02781251073 -0.491040349 0.2828991413 2.06466517e-38
0.187037915 -0.4901264906 0.2749955058 2.06466517e-38
0.08324254304 -0.4942707419 0.3360466063 2.06466517e-38
0.3931012154 -0.3624100089 -0.04217814654 2.06466517e-38
0.3989603817 -0.4484493136 -0.03065577522 2.06466517e-38
0.3831695616 -0.3913728595 -0.01885252073 2.06466517e-38
0.4024614096 -0.2950475216 -0.02324615791 2.06466517e-38
0.2536129951 -0.4859054685 0.05083228275 2.06466517e-38
0.1681521684 -0.4885954857 0.1102005541 2.06466517e-38
0.2737743855 -0.4877433777 0.1285223812 2.06466517e-38
0.2254170179 -0.4914619327 0.1659717262 2.06466517e-38
0.3713969588 -0.3582548499 -0.1045301259 2.06466517e-38
0.3766527474 -0.3840563297 -0.09648432583 2.06466517e-38
0.3836809099 -0.3610059023 -0.08648186922 2.06466517e-38
0.3771904409 -0.3489693701 -0.09061150253 2.06466517e-38
0.2443385124 -0.4830871224 0.02934883907 2.06466517e-38
0.1566223204 -0.4867444634 0.1050448418 2.06466517e-38
0.2752588689 -0.4851512313 0.12402156 2.06466517e-38
0.2164646983 -0.490619123 0.1707915813 2.06466517e-38
0.344830215 -0.3093898296 -0.1177843064 2.06466517e-38
0.347612977 -0.3621710539 -0.106284529 2.06466517e-38
0.3649792373 -0.3235478401 -0.1055110544 2.06466517e-38
0.3485922515 -0.308280766 -0.09751290083 2.06466517e-38
-0.3920879662 -0.4813825488 0.3917880654 2.06466517e-38
-0.4108207524 -0.4907382131 0.4314721823 2.06466517e-38
-0.3239395916 -0.4859026074 0.4634898603 2.06466517e-38
-0.4110275209 -0.491548121 0.4749261439 2.06466517e-38
0.3203824461 -0.3330860138 -0.04195771739 2.06466517e-38
0.3138077557 -0.366876334 -0.03451706469 2.06466517e-38
0.3364253938 -0.3400616944 -0.01750931144 2.06466517e-38
0.3241713345 -0.3145450354 -0.01917603612 2.06466517e-38
0.3766789436 -0.2693352401 -0.1177441478 2.06466517e-38
0.3861714602 -0.3734910786 -0.1056943014 2.06466517e-38
0.3901293576 -0.3162258267 -0.1038312763 2.06466517e-38
0.3919316828 -0.2107939869 -0.1200907081 2.06466517e-38
-0.3986144662 -0.3265885115 0.3872535527 2.06466517e-38
-0.3979811072 -0.4637252986 0.3901051283 2.06466517e-38
-0.3920219243 -0.390493691 0.3983679712 2.06466517e-38
-0.4047727585 -0.2476112396 0.4094930291 2.06466517e-38
-0.4113979936 -0.2092966288 0.3913640976 2.06466517e-38
-0.3963077366 -0.3614341617 0.3922965825 2.06466517e-38
-0.4041627049 -0.2672753036 0.3962261975 2.06466517e-38
-0.3963497877 -0.1377623975 0.4058177769 2.06466517e-38
0.383351177 -0.4019354284 -0.09440857917 2.06466517e-38
0.3723345995 -0.4380118549 -0.07678924501 2.06466517e-38
0.3786047101 -0.3982484043 -0.0545093976 2.06466517e-38
0.3826195002 -0.376080364 -0.06633788347 2.06466517e-38
0.383567363 -0.3571144342 -0.09936776012 2.06466517e-38
0.3846740425 -0.3822954297 -0.07523793727 2.06466517e-38
0.3899962604 -0.3595103025 -0.05422338843 2.06466517e-38
0.3875993788 -0.3494174778 -0.05544544384 2.06466517e-38
0.2799095511 -0.3760991991 0.07794632018 2.06466517e-38
0.2628126442 -0.4008483887 0.1199926287 2.06466517e-38
0.2872253954 -0.3756818473 0.1221473664 2.06466517e-38
0.2641753554 -0.3755438924 0.1361742765 2.06466517e-38
-0.3010638654 -0.4984684587 0.3725703359 2.06466517e-38
-0.3391025364 -0.4919862747 0.4249585867 2.06466517e-38
-0.2271994352 -0.489264667 0.4597797692 2.06466517e-38
-0.3137188852 -0.5025118589 0.4692776501 2.06466517e-38
-0.4598400295 -0.00769681111 0.4396923184 2.06466517e-38
-0.4313735664 -0.1486734003 0.4240974784 2.06466517e-38
-0.4342148602 -0.05710523203 0.4427222311 2.06466517e-38
-0.4068418443 0.008585013449 0.4446789324 2.06466517e-38
0.3208005428 -0.3414867818 0.005087602884 2.06466517e-38
0.3198876083 -0.3642870188 0.0295422487 2.06466517e-38
0.3441360891 -0.3419303596 0.03065382317 2.06466517e-38
0.3202129602 -0.3361002207 0.04792608693 2.06466517e-38
0.3554252982 -0.3077289164 -0.09381642938 2.348204041e-38
0.3553992212 -0.3455815017 -0.08113764971 2.348204041e-38
0.3661173582 -0.3237206936 -0.06911069155 2.348204041e-38
0.351722002 -0.3100638986 -0.06195322424 2.348204041e-38
0.3584740162 -0.4530713856 0.09212432802 2.348204041e-38
0.3500248194 -0.4868946075 0.1170963794 2.348204041e-38
0.3568941057 -0.4762742817 0.1381739527 2.348204041e-38
0.3626182079 -0.4061609209 0.1325054169 2.348204041e-38
0.228274554 -0.4943806529 0.1225871891 2.348204041e-38
0.1284427643 -0.4911096096 0.235353753 2.348204041e-38
0.2814575136 -0.4915218353 0.221754685 2.348204041e-38
0.2037755847 -0.4949036241 0.2977696657 2.348204041e-38
-0.4368434846 -0.2105354518 0.3796002865 2.348204041e-38
-0.4240587354 -0.3449385166 0.367000252 2.348204041e-38
-0.4298811257 -0.260107547 0.3759596944 2.348204041e-38
-0.4188488722 -0.1614925563 0.3868533373 2.348204041e-38
-0.3987385929 -0.5026092529 0.3312503695 2.348204041e-38
-0.4068967402 -0.4913739562 0.4002511203 2.348204041e-38
-0.3051240146 -0.4890864491 0.4376961291 2.348204041e-38
-0.3944416344 -0.4991984367 0.4330132306 2.348204041e-38
-0.1562123895 -0.4970904589 0.3387444317 2.348204041e-38
-0.2149857879 -0.4890189171 0.3736309707 2.348204041e-38
-0.06497005373 -0.4884646535 0.407283932 2.348204041e-38
-0.1734934151 -0.4989363551 0.4162675142 2.348204041e-38
0.3492256105 -0.3992513716 -0.0987284258 2.348204041e-38
0.3398419619 -0.42783764 -0.08677767962 2.348204041e-38
0.3565438986 -0.3996201456 -0.07131340355 2.348204041e-38
0.3508421481 -0.3839689791 -0.07551912218 2.348204041e-38
0.3617207706 -0.4907579422 -0.06515856087 2.348204041e-38
0.2780871093 -0.490282774 -0.01284686476 2.348204041e-38
0.3724997938 -0.4898754954 0.03486875072 2.348204041e-38
0.3278420568 -0.4947769642 0.1110456735 2.348204041e-38
-0.3857324719 -0.1099370122 0.4529945552 2.348204041e-38
-0.3741499484 -0.2569961548 0.4423666298 2.348204041e-38
-0.3877102733 -0.1596764028 0.4632661045 2.348204041e-38
-0.3721802831 -0.07737116516 0.46684286 2.348204041e-38
0.388453722 -0.3711755574 -0.06253419816 2.348204041e-38
0.3776335418 -0.3959310949 -0.04234936088 2.348204041e-38
0.3901461363 -0.3636375368 -0.02897134982 2.348204041e-38
0.3900164962 -0.352930218 -0.02205643058 2.348204041e-38
0.337664634 -0.4887049794 0.0152163431 2.348204041e-38
0.2352118194 -0.4885853529 0.1134854555 2.348204041e-38
0.3456988335 -0.4885923266 0.11383982 2.348204041e-38
0.2954802811 -0.4942362905 0.1860176772 2.348204041e-38
0.3790614307 -0.4211062193 -0.1028831005 2.348204041e-38
0.3649875224 -0.4658195376 -0.09016608447 2.348204041e-38
0.3863263726 -0.4254440963 -0.06413591653 2.348204041e-38
0.3857274354 -0.4174860716 -0.06495751441 2.348204041e-38
-0.05932574719 -0.491723597 0.34720397 2.348204041e-38
-0.1360086799 -0.4891580939 0.3889492452 2.348204041e-38
-0.001907110214 -0.4887840152 0.4082241058 2.348204041e-38
-0.0840132162 -0.4954519868 0.4263259172 2.348204041e-38
-0.4251346588 -0.1799372584 0.4621424377 2.348204041e-38
-0.4117111564 -0.3384836316 0.4550046027 2.348204041e-38
-0.4211775064 -0.2365349382 0.4698253572 2.348204041e-38
-0.4130666852 -0.1165219247 0.4772444069 2.348204041e-38
0.3608492911 -0.4409003258 -0.07534767687 2.348204041e-38
0.3539759815 -0.4774827957 -0.05567774177 2.348204041e-38
0.3588427007 -0.4587249458 -0.03604588658 2.348204041e-38
0.3657339513 -0.4147819579 -0.03762894124 2.348204041e-38
-0.1569670439 -0.4930586815 0.3239635527 2.348204041e-38
-0.2198275626 -0.4889883399 0.3626240194 2.348204041e-38
-0.07537803799 -0.4893806577 0.4028406441 2.348204041e-38
-0.1698857248 -0.499365747 0.3957562149 2.348204041e-38
0.3940183818 -0.3747313023 0.0734500289 2.348204041e-38
0.3919678926 -0.4690545797 0.0903275162 2.348204041e-38
0.3778475821 -0.4035463035 0.1054210365 2.348204041e-38
0.3952583373 -0.3024884462 0.1009411216 2.348204041e-38
-0.4309583604 -0.273571521 0.4218722284 2.348204041e-38
-0.4178810716 -0.4223795831 0.4100242257 2.348204041e-38
-0.4233633876 -0.3383279741 0.4085174799 2.348204041e-38
-0.4221073091 -0.1907475591 0.4241250157 2.348204041e-38
-0.04349998385 -0.4989723563 0.3577982783 2.348204041e-38
-0.1048643813 -0.4938194752 0.3708580434 2.348204041e-38
0.05661927164 -0.4934625626 0.3778440654 2.348204041e-38
-0.03311210871 -0.4930195808 0.4040765464 2.348204041e-38
0.3714642227 -0.4883130789 -0.001441340894 2.348204041e-38
0.3009100854 -0.4900339842 0.04817749187 2.348204041e-38
0.3773726225 -0.4898543954 0.07825134695 2.348204041e-38
0.3524644673 -0.4911919236 0.1324465573 2.348204041e-38
0.4060873091 -0.2029803246 -0.09716981649 2.348204041e-38
0.4139726758 -0.3363715708 -0.08993050456 2.348204041e-38
0.4016824067 -0.2594570518 -0.08816957474 2.348204041e-38
0.4095792174 -0.1392939091 -0.09792170674 2.348204041e-38
0.4193950891 -0.315440774 0.01077189669 2.348204041e-38
0.4172949493 -0.4267818332 0.02964055166 2.348204041e-38
0.4044238031 -0.3570936918 0.04321430251 2.348204041e-38
0.4261698127 -0.2321075052 0.03273960575 2.348204041e-38
0.3592793643 -0.2846942842 -0.06145529449 2.348204041e-38
0.3575571775 -0.3280420899 -0.04428199679 2.348204041e-38
0.373357445 -0.3064262271 -0.03325367719 2.348204041e-38
0.3627173007 -0.2717094123 -0.03444562852 2.348204041e-38
0.3986669481 -0.369702518 0.08196941018 2.348204041e-38
0.3921099305 -0.4596049488 0.09938946366 2.348204041e-38
0.384270668 -0.4005146623 0.1154331714 2.348204041e-38
0.3981145322 -0.3051602542 0.1039191186 2.348204041e-38
0.3776708543 -0.3160532713 0.03060574457 2.348204041e-38
0.3792586923 -0.417496711 0.05032059178 2.348204041e-38
0.3721797466 -0.3522827327 0.06271794438 2.348204041e-38
0.380268544 -0.2489496917 0.05460013077 2.348204041e-38
-0.4344048202 -0.04257208481 0.4379380345 2.348204041e-38
-0.4144535065 -0.1658076644 0.4344633222 2.348204041e-38
-0.4229609966 -0.06661456823 0.4631682336 2.348204041e-38
-0.3898275197 -0.01780822128 0.4599529207 2.348204041e-38
-0.399971813 -0.4981456399 0.3307497501 2.348204041e-38
-0.4103558958 -0.4914230108 0.4015962481 2.348204041e-38
-0.3106821477 -0.4888656735 0.4464609921 2.348204041e-38
-0.3942983747 -0.4958651662 0.450735569 2.348204041e-38
-0.4560116231 -0.1442815363 0.4439303875 2.348204041e-38
-0.4402405918 -0.3239203095 0.4317634702 2.348204041e-38
-0.4391242564 -0.2133018821 0.4323573112 2.348204041e-38
-0.4377984107 -0.0631006062 0.4486319721 2.348204041e-38
0.2887688577 -0.4917013645 0.1003603935 2.348204041e-38
0.2225654721 -0.4895227551 0.1779217273 2.348204041e-38
0.3195621967 -0.4885988832 0.1720690578 2.348204041e-38
0.2759861648 -0.4918340445 0.2293182462 2.348204041e-38
-0.3589419723 -0.4872959256 0.3957467973 2.348204041e-38
-0.3908958733 -0.4911801815 0.4324909747 2.348204041e-38
-0.2930060625 -0.4855880737 0.4652896225 2.348204041e-38
-0.3731218278 -0.4943387508 0.4818711579 2.348204041e-38
0.3751099408 -0.3068899214 0.005602329969 2.348204041e-38
0.3780815601 -0.3935771286 0.01301991194 2.348204041e-38
0.3743202686 -0.3458760977 0.02724809572 2.348204041e-38
0.3900343776 -0.2479000837 0.01499764994 2.348204041e-38
0.3737017214 -0.3788522482 -0.02239822969 2.348204041e-38
0.3625477552 -0.4082634151 -0.001468405128 2.348204041e-38
0.3755755723 -0.3760064244 0.01015316322 2.348204041e-38
0.3757668436 -0.3632394373 0.008270509541 2.348204041e-38
0.3531131446 -0.4768376052 -0.0436415188 2.346801622e-38
0.3084535897 -0.4856157899 0.0002296566963 2.346801622e-38
0.3708992898 -0.48016119 0.02195083722 2.346801622e-38
0.3471249938 -0.4792149663 0.0618850477 2.346801622e-38
0.2119188905 -0.4907810688 0.2412839085 2.346801622e-38
0.1046876907 -0.4885997772 0.3451888263 2.346801622e-38
0.2402078211 -0.4893503189 0.3192495704 2.346801622e-38
0.1586672664 -0.4946221113 0.3674229085 2.346801622e-38
0.3310410082 -0.4088782072 0.01465985179 2.346801622e-38
0.3271014392 -0.4532731771 0.04064993933 2.346801622e-38
0.3437979519 -0.4189451039 0.04008888826 2.346801622e-38
0.3327050507 -0.3893865645 0.05065688118 2.346801622e-38
0.3937009275 -0.217752561 -0.1098485142 2.346801622e-38
0.4033664763 -0.3650542796 -0.1039207131 2.346801622e-38
0.4042088091 -0.286921382 -0.1076801345 2.346801622e-38
0.4092130661 -0.1503872722 -0.1146083474 2.346801622e-38
0.3035698533 -0.4086814523 0.07405082881 2.346801622e-38
0.2899202108 -0.4476456046 0.1061032712 2.346801622e-38
0.3205637336 -0.4275224805 0.1132604629 2.346801622e-38
0.3029670417 -0.3965776265 0.1187575459 2.346801622e-38
0.303732276 -0.4279772341 0.0837905407 2.346801622e-38
0.2812314928 -0.4623351395 0.125967592 2.346801622e-38
0.3215627372 -0.440952599 0.1260394603 2.346801622e-38
0.3001799583 -0.4213312566 0.1435365975 2.346801622e-38
0.3585028648 -0.3513165414 0.0169374682 2.346801622e-38
0.3651556969 -0.3834308088 0.04022770002 2.346801622e-38
0.3697074354 -0.3579814136 0.04754108563 2.346801622e-38
0.3633436263 -0.3478094339 0.05252219364 2.346801622e-38
0.3390528858 -0.3493985534 0.08751739562 2.346801622e-38
0.338760674 -0.3917502761 0.1145892292 2.346801622e-38
0.3479340076 -0.3658823371 0.119834736 2.346801622e-38
0.3327827752 -0.3555678427 0.1235194504 2.346801622e-38
0.3902709484 -0.2341598421 -0.02946923487 2.346801622e-38
0.3995625973 -0.349958092 -0.03223104402 2.346801622e-38
0.3987032175 -0.2923992574 -0.0216863025 2.346801622e-38
0.4021746218 -0.1792283058 -0.03410808742 2.346801622e-38
0.3897814751 -0.490552783 0.0116619952 2.346801622e-38
0.2915571332 -0.4893966317 0.08824333549 2.346801622e-38
0.3926324248 -0.4908990264 0.09431797266 2.346801622e-38
0.3550751507 -0.4947106242 0.1666634679 2.346801622e-38
0.3231340349 -0.4866344333 -0.003101047128 2.346801622e-38
0.2281670868 -0.4881219864 0.08119046688 2.346801622e-38
0.3439647257 -0.4880075455 0.08864301443 2.346801622e-38
0.2931700051 -0.4915252924 0.1542935818 2.346801622e-38
0.4111048877 -0.1289129853 -0.09581486881 2.346801622e-38
0.4168210328 -0.2458391041 -0.08545865864 2.346801622e-38
0.4145463705 -0.1744658351 -0.09040912986 2.346801622e-38
0.4166789651 -0.09662461281 -0.0889827013 2.346801622e-38
0.3101074696 -0.4940905571 0.1004139185 2.346801622e-38
0.1790716052 -0.4911000133 0.2349943668 2.346801622e-38
0.3112966418 -0.4920846224 0.2115321904 2.346801622e-38
0.2448566556 -0.4975472689 0.2857572734 2.346801622e-38
0.3857460916 -0.487660706 -0.05450355262 2.346801622e-38
0.3339327276 -0.4898022413 -0.004534974694 2.346801622e-38
0.3907354772 -0.4888820052 0.03723591939 2.346801622e-38
0.3753602207 -0.4905719161 0.09532399476 2.346801622e-38
-0.45110479 -0.05807207152 0.4898703992 2.346801622e-38
-0.4175738692 -0.1710764021 0.4693233669 2.346801622e-38
-0.4238969088 -0.07532392442 0.4941283166 2.346801622e-38
-0.3787617981 -0.02631437778 0.4889471829 2.346801622e-38
-0.3816693127 -0.48917979 0.4146295786 2.346801622e-38
-0.4112614691 -0.4903899431 0.4620274603 2.346801622e-38
-0.3266517818 -0.4840512872 0.5021011829 2.346801622e-38
-0.3924091458 -0.4918200374 0.5049415231 2.346801622e-38
0.4154323041 -0.2607151866 -0.02925102599 2.346801622e-38
0.4137512147 -0.3774583936 -0.0001243986189 2.346801622e-38
0.4046521187 -0.3144232929 0.004946030676 2.346801622e-38
0.4234091341 -0.1871487498 0.0005044788122 2.346801622e-38
-0.1362003386 -0.4973543286 0.4201286137 2.346801622e-38
-0.2218355834 -0.4891918302 0.4496109784 2.346801622e-38
-0.07376448065 -0.489472568 0.4698220193 2.346801622e-38
-0.1711604297 -0.498031497 0.4804618061 2.346801622e-38
0.369987756 -0.4799957871 -0.007690291852 2.346801622e-38
0.3388243914 -0.4885111451 0.02163888142 2.346801622e-38
0.3769828975 -0.4869864583 0.04148213938 2.346801622e-38
0.371547401 -0.4733209312 0.07006716728 2.346801622e-38
0.3608117998 -0.386420995 0.006726380438 2.346801622e-38
0.3475438356 -0.4179016948 0.04149397835 2.346801622e-38
0.3699168861 -0.3833146989 0.04434872791 2.346801622e-38
0.3567219377 -0.3594957292 0.06214374676 2.346801622e-38
-0.4051868916 -0.1780197173 0.4564155042 2.346801622e-38
-0.3841164112 -0.3274333775 0.4393988848 2.346801622e-38
-0.3796899021 -0.2413395792 0.4453824162 2.346801622e-38
-0.3757897913 -0.1178778857 0.4628675282 2.346801622e-38
0.3584544361 -0.2875115871 0.06471884251 2.346801622e-38
0.3682344854 -0.3985289633 0.07992258668 2.346801622e-38
0.357721597 -0.3447065949 0.09224843979 2.346801622e-38
0.3711504042 -0.201607421 0.08124241233 2.346801622e-38
0.4059377313 -0.3445086479 0.06333808601 2.346801622e-38
0.411632359 -0.4493047595 0.07638148963 2.346801622e-38
0.4002925158 -0.385631144 0.08802373707 2.346801622e-38
0.4127529562 -0.2755504251 0.07872092724 2.346801622e-38
0.1610150337 -0.4989748001 0.3083164394 2.346801622e-38
0.06923736632 -0.4904611111 0.3723144233 2.346801622e-38
0.1984011829 -0.4946098328 0.3560074866 2.346801622e-38
0.1280919313 -0.4961375594 0.3862982094 2.346801622e-38
0.38784796 -0.2849161625 0.04159402475 2.346801622e-38
0.3939251304 -0.4085963368 0.06115526333 2.346801622e-38
0.3849451244 -0.3463332057 0.07294295728 2.346801622e-38
0.3931903839 -0.2218348384 0.06406792998 2.346801622e-38
0.403677851 -0.3917922676 0.1740039587 2.346801622e-38
0.4003139436 -0.4709419608 0.1865701228 2.346801622e-38
0.3965340555 -0.4353662431 0.2080889791 2.346801622e-38
0.4019545615 -0.3301105797 0.197637409 2.346801622e-38
0.4071265459 -0.1903789639 -0.1095872223 2.346801622e-38
0.4063706398 -0.3335062265 -0.08786971867 2.346801622e-38
0.4030692875 -0.2595609426 -0.08834505081 2.346801622e-38
0.4096082449 -0.1281042248 -0.08911000192 2.346801622e-38
0.39726156 -0.3474992216 0.1149344891 2.346801622e-38
0.3999226987 -0.4404640198 0.1280112714 2.346801622e-38
0.3872828782 -0.3834847212 0.1483044624 2.346801622e-38
0.4021302462 -0.2733529508 0.1308039129 2.346801622e-38
0.3663526773 -0.3763268292 0.04904501513 2.346801622e-38
0.3688758016 -0.4435044229 0.06643754244 2.346801622e-38
0.3537688553 -0.4008414745 0.09203079343 2.346801622e-38
0.3700565696 -0.3274320066 0.07816506922 2.346801622e-38
0.3923311234 -0.2545013726 0.08424969018 2.346801622e-38
0.4012262821 -0.3819537461 0.09888015687 2.346801622e-38
0.3868079484 -0.3224691749 0.1114232391 2.346801622e-38
0.3928602338 -0.1845286489 0.09637841582 2.346801622e-38
0.3915499747 -0.309930861 0.1125215143 2.346801622e-38
0.3945495188 -0.405510366 0.1406602561 2.346801622e-38
0.3773354888 -0.3509742916 0.1587211639 2.346801622e-38
0.388135314 -0.2567004859 0.1431865096 2.346801622e-38
0.3605383337 -0.4061360955 0.05881745741 2.346801622e-38
0.3591132164 -0.4581814408 0.08259311318 2.346801622e-38
0.3517163098 -0.4199384749 0.1033183932 2.346801622e-38
0.3620366752 -0.3854869604 0.09155766666 2.346801622e-38
0.4158870876 -0.1949469894 -0.02063619904 2.345219836e-38
0.4183499813 -0.3472137451 0.005361326039 2.345219836e-38
0.4123414159 -0.2672845125 0.02003109083 2.345219836e-38
0.4160813689 -0.1330645382 0.003477863967 2.345219836e-38
-0.3970258832 -0.1919986606 0.4988898933 2.345219836e-38
-0.3752584755 -0.3002133965 0.4682284296 2.345219836e-38
-0.36419186 -0.2299495488 0.475666672 2.345219836e-38
-0.3632128835 -0.1188577563 0.4794391096 2.345219836e-38
0.3782400787 -0.4083830714 0.08537937701 2.345219836e-38
0.3857615888 -0.4633640647 0.102845028 2.345219836e-38
0.3834104836 -0.4292294681 0.119899258 2.345219836e-38
0.3873558939 -0.3703275919 0.1149629951 2.345219836e-38
0.3996626139 -0.2577039003 0.07728746533 2.345219836e-38
0.406334132 -0.3966732621 0.09238758683 2.345219836e-38
0.3980400562 -0.326202184 0.1051111072 2.345219836e-38
0.403937906 -0.1861516684 0.09252381325 2.345219836e-38
0.396062851 -0.2365434021 0.03456969932 2.345219836e-38
0.4049948156 -0.3674945235 0.05926566198 2.345219836e-38
0.3957601488 -0.3002766967 0.06987537444 2.345219836e-38
0.4013961256 -0.1611530036 0.05913133547 2.345219836e-38
0.3505426645 -0.4912663698 0.1673336476 2.345219836e-38
0.2457340956 -0.4885211587 0.2825686336 2.345219836e-38
0.3466545939 -0.4912616014 0.2442511767 2.345219836e-38
0.3033719063 -0.492734313 0.3109163642 2.345219836e-38
0.4120475054 -0.1127412468 -0.03884555399 2.345219836e-38
0.4084540904 -0.2625812292 -0.02457671426 2.345219836e-38
0.4047775269 -0.1770761311 -0.007702793926 2.345219836e-38
0.4149545431 -0.04745252058 -0.02534027025 2.345219836e-38
0.3904043138 -0.04653674737 0.04639805481 2.345219836e-38
0.3847305477 -0.1588257253 0.07910613716 2.345219836e-38
0.3805677891 -0.07934814692 0.1016654819 2.345219836e-38
0.3848374784 -0.01455270499 0.08377291262 2.345219836e-38
0.3804912865 -0.2112465352 0.05025682226 2.345219836e-38
0.3887275159 -0.358745873 0.06887274981 2.345219836e-38
0.3816597164 -0.2826799154 0.08413244784 2.345219836e-38
0.3838889003 -0.1014726162 0.0715097487 2.345219836e-38
0.4102882445 -0.06990142167 0.06640742719 2.345219836e-38
0.4081098437 -0.2170740813 0.0944596976 2.345219836e-38
0.4049057961 -0.1212000698 0.1139944941 2.345219836e-38
0.4073881805 -0.004938641563 0.09924438596 2.345219836e-38
0.4023052454 -0.2436244339 0.02660959587 2.345219836e-38
0.4082610309 -0.3901380301 0.04288449511 2.345219836e-38
0.4047276676 -0.3217232525 0.05913217738 2.345219836e-38
0.4100730717 -0.1584226936 0.04761367664 2.345219836e-38
0.4022641778 -0.0656170994 0.08051751554 2.345219836e-38
0.4099192321 -0.2202898264 0.1081428677 2.345219836e-38
0.3990974724 -0.1203942597 0.1296375394 2.345219836e-38
0.4062733948 -0.006971940398 0.1088730246 2.345219836e-38
0.1811486036 -0.4968486428 0.3635822237 2.345219836e-38
0.09850516915 -0.4883480072 0.4090720117 2.345219836e-38
0.231320262 -0.4878945947 0.3955469728 2.345219836e-38
0.1548164487 -0.4906917214 0.4211687446 2.345219836e-38
0.3982883394 -0.2227508277 0.0455316864 2.345219836e-38
0.4063641131 -0.3480721116 0.06312467158 2.345219836e-38
0.3949929774 -0.2833492458 0.07824157178 2.345219836e-38
0.4039102197 -0.1480195224 0.06403844059 2.345219836e-38
0.4045367539 -0.05243423954 0.0706166774 2.345219836e-38
0.410317719 -0.1847032905 0.09956461191 2.345219836e-38
0.403016299 -0.09854106605 0.1184190959 2.345219836e-38
0.4070033133 -0.02267065644 0.1037244499 2.345219836e-38
0.3961099386 -0.1246178597 -0.03212656081 2.345219836e-38
0.3972094655 -0.2954750657 -0.01132686064 2.345219836e-38
0.3929484487 -0.1986425221 0.007161438465 2.345219836e-38
0.3969894946 -0.05901558325 -0.008623309433 2.345219836e-38
0.4256335199 -0.2815137506 0.1353329271 2.345219836e-38
0.4308779538 -0.4062548876 0.1444218755 2.345219836e-38
0.4197950065 -0.3413619399 0.1643454134 2.345219836e-38
0.4310907722 -0.1948942691 0.1466129422 2.345219836e-38
0.3883570135 -0.4540895224 0.2290929407 2.345219836e-38
0.3668666482 -0.4852257967 0.2696567178 2.345219836e-38
0.3878667951 -0.47571069 0.2791669965 2.345219836e-38
0.3917535543 -0.4131205976 0.2864822447 2.345219836e-38
0.3441711366 -0.4927769303 0.2224776894 2.345219836e-38
0.2624254823 -0.4899882674 0.320822686 2.345219836e-38
0.3497182131 -0.4917969704 0.3078558147 2.345219836e-38
0.328214407 -0.4908246994 0.34859097 2.345219836e-38
0.1446279585 -0.4997446537 0.3706801832 2.345219836e-38
0.05515034497 -0.4894570112 0.4111222625 2.345219836e-38
0.2073588967 -0.4910984039 0.4060758352 2.345219836e-38
0.1095294356 -0.4963336587 0.4304556549 2.345219836e-38
0.3788331747 -0.4843961596 0.08835238218 2.345219836e-38
0.3097572029 -0.4900062084 0.2004603297 2.345219836e-38
0.3805830777 -0.4873535633 0.1965283602 2.345219836e-38
0.35807091 -0.4875932336 0.249762699 2.345219836e-38
0.3957021236 -0.483597517 0.08686766028 2.345219836e-38
0.3224095702 -0.4888533354 0.198957786 2.345219836e-38
0.4072679579 -0.489146471 0.1871516109 2.345219836e-38
0.3802649379 -0.4890505075 0.2491411418 2.345219836e-38
0.3983257711 -0.142515108 0.01391345263 2.345219836e-38
0.4032258093 -0.2814763486 0.03240856901 2.345219836e-38
0.3968258202 -0.2021303326 0.04815960303 2.345219836e-38
0.4024759233 -0.08828981221 0.03655293956 2.345219836e-38
0.3938323557 -0.1777177453 0.01732018963 2.345219836e-38
0.3970766664 -0.3053214252 0.04667778686 2.345219836e-38
0.3915511668 -0.2330572456 0.06208701059 2.345219836e-38
0.3941981792 -0.1147511452 0.04652503505 2.345219836e-38
0.3781640828 -0.4912227988 0.2223319262 2.345219836e-38
0.2908327579 -0.4886582494 0.3395475149 2.345219836e-38
0.3850832283 -0.48943156 0.3174668252 2.345219836e-38
0.3543845415 -0.494661212 0.3670428693 2.345219836e-38
0.3962815702 -0.02525498718 0.1223750114 2.345219836e-38
0.4134935439 -0.1125587672 0.1418961883 2.345219836e-38
0.4059594274 -0.05117926374 0.1766841263 2.345219836e-38
0.4166922867 -0.009863015264 0.1605430841 2.345219836e-38
0.4047831297 -0.1559133083 0.09377749264 2.345219836e-38
0.408500433 -0.3079486489 0.1233696938 2.345219836e-38
0.4019904733 -0.2176184803 0.1450765282 2.345219836e-38
0.407982856 -0.07315923274 0.1314207762 2.345219836e-38
0.3984728456 -0.4553085268 0.2752616704 2.345219836e-38
0.3802853227 -0.4829856157 0.3047025204 2.345219836e-38
0.4117480218 -0.4822314382 0.3074112535 2.345219836e-38
0.4143196344 -0.4106830657 0.321226716 2.345219836e-38
0.403847307 -0.03780049831 0.09990271926 2.345219836e-38
0.4194416106 -0.1407114267 0.1305751801 2.345219836e-38
0.4055228829 -0.0837392807 0.1637185514 2.345219836e-38
0.4171669185 -0.00428092666 0.1515564024 2.345219836e-38
0.4188277423 -0.490498364 0.13850227 2.345219836e-38
0.3329990804 -0.48982054 0.2518186867 2.345219836e-38
0.4152531922 -0.4922823906 0.2347098738 2.345219836e-38
0.3916931748 -0.4888722897 0.2938968241 2.345219836e-38
0.3923654854 -0.07076971233 0.163046971 2.345219836e-38
0.4051299691 -0.2090491503 0.1728483588 2.345219836e-38
0.3962589204 -0.1280714869 0.1997377872 2.345219836e-38
0.4044142067 -0.02291582525 0.1843634993 2.345219836e-38
0.3729092777 -0.2850307524 0.2406257242 2.345219836e-38
0.373326689 -0.4013357162 0.2493831366 2.345219836e-38
0.3711221814 -0.3386850953 0.271858573 2.345219836e-38
0.3762243688 -0.2098700255 0.2572235167 2.345219836e-38
0.4080865979 -0.2078615725 0.09970599413 2.343458544e-38
0.4152438641 -0.3367319107 0.1183712333 2.343458544e-38
0.4035153091 -0.2690787315 0.1376264393 2.343458544e-38
0.4093085825 -0.1230269819 0.1195294857 2.343458544e-38
0.3705973625 -0.1314406991 0.1086008251 2.343458544e-38
0.3795234561 -0.2777168155 0.1187830269 2.343458544e-38
0.3678475022 -0.1952779144 0.1349570155 2.343458544e-38
0.3740653396 -0.07577469945 0.1168037504 2.343458544e-38
0.3778150678 -0.0004163496196 0.1723822802 2.343458544e-38
0.3826225698 -0.08448497951 0.1945503056 2.343458544e-38
0.3820132017 -0.02946086973 0.2299496084 2.343458544e-38
0.3832533062 0.02503542602 0.2202679068 2.343458544e-38
0.401789993 -0.09909886122 0.1709385514 2.343458544e-38
0.4016842246 -0.2396955043 0.190416947 2.343458544e-38
0.3947435319 -0.1499361545 0.2153190225 2.343458544e-38
0.4042130411 -0.03634951636 0.1930743456 2.343458544e-38
0.09931143373 -0.5002402663 0.4205497801 2.343458544e-38
0.02405492961 -0.4870044589 0.4438591599 2.343458544e-38
0.1432633698 -0.4905551672 0.448012948 2.343458544e-38
0.05605039746 -0.4916493893 0.4580094516 2.343458544e-38
0.4092243612 -0.4644986391 0.2692486942 2.343458544e-38
0.3862990141 -0.4841563106 0.2912199795 2.343458544e-38
0.3933226466 -0.4849371314 0.2947177589 2.343458544e-38
0.3974593878 -0.4163236618 0.3055256903 2.343458544e-38
