# .PCD v0.7 - Point Cloud Data file format
VERSION 0.7
FIELDS x y z rgb
SIZE 4 4 4 4
TYPE F F F F
COUNT 1 1 1 1
WIDTH 887
HEIGHT 1
VIEWPOINT 0 0 0 1 0 0 0
POINTS 887
DATA ascii
-0.5 -0.28125 -0.21875 6.490113838e-41
0.125 -0.462500006 -0.1875 6.490113838e-41
0.1926010102 -0.4560629129 -0.1362024546 6.490113838e-41
-0.3257848322 0.07930132747 -0.1704272628 6.490113838e-41
-0.2078698128 -0.375 -0.05247805268 6.490113838e-41
-0.2687219977 -0.4627246559 0.1114270687 6.490113838e-41
0.26055637 0.07751180977 -0.1598700732 6.490113838e-41
-0.03749999404 0.07499998808 -0.2624999881 6.490113838e-41
-0.1108193398 -0.5000000596 -0.1348739564 6.490113838e-41
-0.1104144678 -0.112108402 -0.2645611167 6.490113838e-41
0.07867977768 0.0625 -0.05054979771 6.490113838e-41
-0.266166538 -0.172826916 -0.28125 6.490113838e-41
-0.3125 -0.4499999881 -0.08750000596 6.490113838e-41
0.3294758797 -0.4506456554 -0.1071558967 6.490113838e-41
0.009627927095 -0.4817232788 -0.1356070489 6.490113838e-41
-0.412499994 0.01249998808 -0.2624999881 6.490113838e-41
0.3249999881 -0.3874999881 -0.212500006 6.490113838e-41
0.1874999851 -0.4341082573 -0.1060449407 6.490113838e-41
-0.1727816314 0.07558955252 -0.242363736 6.490113838e-41
-0.01391210034 -0.4665497541 -0.1387360692 6.490113838e-41
-0.474999994 -0.125 -0.2624999881 6.490113838e-41
-0.2688046098 -0.4576036334 -0.2435271144 6.490113838e-41
-0.04470665008 -0.457087785 0.08437867463 6.490113838e-41
-0.04624074697 -0.263710767 -0.28125 6.490113838e-41
0.1875 -0.40625 -0.1489359736 6.490113838e-41
-0.3854248524 0.07617980242 0.03281488642 6.490113838e-41
-0.2612500191 -0.4740625024 0.1875 6.490113838e-41
0.03750002384 -0.4499999881 0.1625000238 6.490113838e-41
-0.1999999732 -0.3124999702 -0.2187499851 6.490113838e-41
0.3374999762 -0.162499994 -0.1875 6.490113838e-41
-0.327547282 -0.4508113265 -0.28125 6.490113838e-41
-0.0798291415 -0.4032536149 0.008039137349 6.490113838e-41
0.3125000298 -0.1401451379 0.01352797728 6.490113838e-41
0.3125 -0.1397114098 -0.1420268118 6.490113838e-41
-0.3860293329 -0.4874999523 -0.01838234253 6.490113838e-41
0.05137256533 -0.388573736 -0.05007987469 6.490113838e-41
-0.125 -0.4875000119 0.02499997616 6.490113838e-41
0.1874999851 -0.4178370535 0.1611657441 6.490113838e-41
0.1095605791 -0.1720059812 -0.28125 6.490113838e-41
0.34375 -0.5 0.1136363745 6.490113838e-41
0.1999999881 -0.4875000119 -0.1374999881 6.490113838e-41
-0.2069220394 -0.4773544073 -0.1086594388 6.490113838e-41
-0.2624999881 -0.462500006 -0.1374999881 6.490113838e-41
0.3294087052 -0.01518761925 -0.1099797785 6.490113838e-41
-0.1999999881 -0.4875000119 0.01249998808 6.490113838e-41
-0.01438739523 -0.1407909989 -0.2812500298 6.490113838e-41
-0.01736383513 -0.2635268569 -0.28125 6.490113838e-41
-0.4801109731 0.09375 -0.1678231657 6.490113838e-41
-0.02168020979 -0.4999999702 0.1397357434 6.490113838e-41
0.3374999762 -0.125 -0.2375000119 6.490113838e-41
0.21875 0.07499998808 0.125 6.490113838e-41
0.3437500298 -0.201437071 -0.169682011 6.490113838e-41
-0.2680114508 -0.417996943 -0.1683698297 6.490113838e-41
0.1398617327 -0.2980238795 -0.2642382681 6.490113838e-41
0.3374999762 -0.224999994 -0.01249998808 6.490113838e-41
-0.05000001192 0.07499998808 0.02499997616 6.490113838e-41
-0.1728923321 0.01386359427 -0.25 6.490113838e-41
0.3024250567 0.06783260405 -0.254827261 6.490113838e-41
0.3374999762 -0.2624999881 -0.08750000596 6.490113838e-41
-0.287499994 -0.4875000119 -0.1125000119 6.490113838e-41
0.2023638189 -0.2352954447 -0.25 6.490113838e-41
-0.03618607298 -0.375 -0.2029616237 6.490113838e-41
-0.04675782099 -0.2968426943 -0.25 6.490113838e-41
0.3249999881 -0.02500000596 -0.25 6.490113838e-41
0.1012528911 -0.3395881057 -0.2179401219 6.490113838e-41
-0.0430928804 -0.4763104916 -0.241361171 6.490113838e-41
0.0146883484 0.0625 0.04531934857 6.490113838e-41
-0.1875 0.03750002384 -0.2624999881 6.490113838e-41
-0.3928571343 -0.5 -0.07711038738 6.490113838e-41
0.07887558639 -0.05021483824 -0.28125 6.490113838e-41
0.01249998808 -0.462500006 0.05000001192 6.490113838e-41
0.3124999702 -0.2672554255 -0.108724013 6.490113838e-41
0.3309352696 -0.2020245939 -0.2037407011 6.490113838e-41
-0.4725910723 -0.1392694116 -0.28125 6.490113838e-41
0.137500003 0.0625 0.09553572536 6.490113838e-41
0.299464941 -0.3296279907 -0.2588279843 6.490113838e-41
-0.3163914084 -0.4546004832 -0.1442426443 6.490113838e-41
0.1625000238 -0.4875000119 0.1374999881 6.490113838e-41
0.2002796084 -0.2641824186 -0.25 6.490113838e-41
-0.162499994 0.07499998808 -0.09999999404 6.490113838e-41
-0.04087884724 -0.4168305397 -0.2147713602 6.490113838e-41
-0.0625 -0.25 -0.2624999881 6.490113838e-41
-0.4227297604 -0.07741386443 -0.28125 6.490113838e-41
-0.01432355121 -0.07939177752 -0.25 6.490113838e-41
-0.4499999881 -0.4875000119 -0.224999994 6.490113838e-41
0.3125000298 -0.36004287 -0.0166794695 6.490113838e-41
0.3437499702 0.06989974529 -0.1096252427 6.490113838e-41
0.3174099326 0.0625 -0.28125 6.490113838e-41
0.0625 -0.412499994 0.1625000238 6.490113838e-41
0.3124999702 -0.01537570916 -0.1094610021 6.490113838e-41
0.02499997616 0.07499998808 -0.162499994 6.490113838e-41
-0.4207271934 0.07262511551 -0.2634563744 6.490113838e-41
0.1708763391 0.01304047462 -0.25 6.490113838e-41
0.1750000119 -0.400000006 -0.07499998808 6.490113838e-41
0.1074025333 0.09375 -0.1107328087 6.490113838e-41
-0.2684648037 -0.4661339819 0.07800401747 6.490113838e-41
0.1750000119 -0.4499999881 0.1625000238 6.490113838e-41
-0.4999999702 0.07679444551 -0.1481110454 6.490113838e-41
-0.4800950587 0.07519172132 -0.2364251018 6.490113838e-41
0.1792091876 -0.5 -0.08466198295 6.490113838e-41
-0.2375000119 -0.462500006 -0.2375000119 6.490113838e-41
0.34375 -0.07740397751 -0.0794217214 6.490113838e-41
-0.04795728996 -0.111303106 -0.25 6.490113838e-41
-0.3000000119 -0.474999994 -0.01249998808 6.490113838e-41
-0.1168372408 -0.3707557619 -0.2084228396 6.490113838e-41
0.1737912595 -0.4804379642 -0.1079143286 6.490113838e-41
-0.2368121594 -0.4134468734 -0.01165906899 6.490113838e-41
-0.1706741452 -0.1395728141 -0.264318943 6.490113838e-41
0.1399305463 -0.2021527886 -0.2644898891 6.490113838e-41
-0.303938359 -0.5 -0.1740154028 6.490113838e-41
-0.01249998808 -0.3874999881 0.4375 6.490113838e-41
0.3023231626 -0.07646933198 -0.2598845959 6.490113838e-41
0.1113846451 -0.01479751617 -0.25 6.490113838e-41
-0.1089112461 0.0625 -0.014741024 6.490113838e-41
-0.04406307265 0.0625 -0.1397413313 6.490113838e-41
-0.224999994 -0.4875000119 0.07499998808 6.490113838e-41
0.0625 -0.3874999881 -0.150000006 6.490113838e-41
0.01326145977 -0.4829952121 -0.04632709175 6.490113838e-41
0.3249999881 0.01249998808 -0.162499994 6.490113838e-41
0.3249999881 -0.375 -0.150000006 6.490113838e-41
-0.1711455733 -0.4119483829 0.1128909513 6.490113838e-41
0.142691493 -0.4183664322 -0.2462877482 6.490113838e-41
0.07499998808 -0.4499999881 -0.2624999881 6.490113838e-41
0.2331700921 -0.3253931999 -0.2812500298 6.490113838e-41
-0.01962208189 -0.3997642398 0.01026706491 6.490113838e-41
0.1091102064 -0.5000000596 0.1440677643 6.490113838e-41
0.04602679238 0.06249999627 -0.2063100934 6.490113838e-41
-0.04797766358 0.0625 -0.1707379222 6.490113838e-41
-0.1750000119 -0.3874999881 0.125 6.490113838e-41
0.3374999762 -0.150000006 -0.02500000596 6.490113838e-41
-0.1095656604 -0.2643497884 -0.28125 6.490113838e-41
-0.3265328109 0.0792908147 -0.1393065602 6.490113838e-41
0.3125 -0.2971070409 -0.07855004817 6.490113838e-41
0.34375 -0.01278814394 0.1369499415 6.490113838e-41
-0.25 0.07499998808 -0.02500000596 6.490113838e-41
-0.5 -0.2372665703 -0.25 6.490113838e-41
-0.01249998808 -0.4875000119 0 6.490113838e-41
0.01781325042 0.0754096806 -0.1083850041 6.490113838e-41
0.3249999881 0.02499997616 -0.2375000119 6.490113838e-41
0.3099700511 -0.4508272111 -0.1407619417 6.490113838e-41
0.1401555687 -0.5 -0.2039967775 6.490113838e-41
0.34375 0.09375 0.0625 6.490113838e-41
0.1946969777 -0.5 -0.1102272868 6.490113838e-41
-0.4145833552 0.06250000745 0.03333334252 6.490113838e-41
-0.1999999881 0.07499998808 0.02499997616 6.490113838e-41
-0.275000006 -0.4875000119 0.0625 6.490113838e-41
-0.3598757982 -0.3590544462 -0.28125 6.490113838e-41
0.1704836339 -0.07933360338 -0.28125 6.490113838e-41
0.3374999762 -0.0625 0.02499997616 6.490113838e-41
-0.1374999881 -0.4875000119 -0.2375000119 6.490113838e-41
0.3000000119 -0.4875000119 -0.0625 6.490113838e-41
0.34375 -0.139267996 -0.1101881862 6.490113838e-41
-0.01270746067 -0.5 0.08013483137 6.490113838e-41
0.2875000238 -0.150000006 -0.2624999881 6.490113838e-41
0.3007070124 -0.4689231813 -0.28125 6.490113838e-41
-0.25 -0.462500006 -0.02500000596 6.490113838e-41
0.2124999762 0.07499998808 -0.0625 6.490113838e-41
0.07724647969 0.05076824501 -0.2816758454 6.490113838e-41
-0.3125 -0.4875000119 -0.150000006 6.490113838e-41
0.34375 -0.0142164994 -0.04669646174 6.490113838e-41
0.3013785183 -0.4765926301 -0.2378089726 6.490113838e-41
0 -0.412499994 0.1625000238 6.490113838e-41
0.02499997616 0.07499998808 0.01249998808 6.490113838e-41
0.1625000238 -0.4875000119 -0.1999999881 6.490113838e-41
0.1700573117 -0.3586717546 -0.2812500298 6.490113838e-41
-0.3299019337 -0.2343869209 -0.2647818029 6.490113838e-41
-0.3903435171 -0.1111566573 -0.2644396722 6.490113838e-41
0.3302129507 -0.3608094752 -0.1411753446 6.490113838e-41
-0.1999430209 -0.4704951048 -0.28125 6.490113838e-41
-0.3125 -0.3874999881 -0.25 6.490113838e-41
-0.4537576139 0.07365619391 -0.2630666494 6.490113838e-41
-0.3581786454 0.06985501945 -0.28125 1.184631237e-38
-0.400000006 -0.4375 -0.2624999881 1.184631237e-38
-0.3570060432 -0.4687500298 -0.1047006249 1.184631237e-38
-0.2969987392 0.0625 -0.04830620438 1.184631237e-38
-0.26683411 0.0759672299 -0.140596658 1.184631237e-38
-0.03749999404 -0.4375 0.03750002384 1.184631237e-38
-0.08928570151 -0.3749999702 0.08928570151 1.184631237e-38
0.3249999881 -0.02500000596 0.1625000238 1.184631237e-38
0.03750002384 -0.4875000119 -0.0625 1.184631237e-38
0.3249999881 -0.337500006 -0.1875 1.184631237e-38
-0.1414062381 -0.5 -0.02070311829 1.184631237e-38
0.1120986417 -0.5 -0.1290137768 1.184631237e-38
-0.3881307244 -0.1721020639 -0.25 1.184631237e-38
0.1625000238 -0.400000006 0.1625000238 1.184631237e-38
0.02499997616 -0.462500006 -0.2624999881 1.184631237e-38
0.3374999762 0.02499997616 0.1499999762 1.184631237e-38
0.3289209902 -0.4502327144 -0.04731333256 1.184631237e-38
-0.1696347594 -0.4645234644 0.04096703976 1.184631237e-38
0.3311936259 -0.2968733907 0.01342514902 1.184631237e-38
0.2100233883 0.09375 0.09838141501 1.184631237e-38
-0.2658143938 -0.01457096171 -0.2652198672 1.184631237e-38
0.3264139295 0.06972854584 -0.01553841308 1.184631237e-38
-0.2014624178 -0.4153909683 -0.007356532849 1.184631237e-38
0.3125 -0.2662652135 -0.1398029476 1.184631237e-38
0.3374999762 0 -0.25 1.184631237e-38
-0.1746604443 -0.4665233493 -0.1098795161 1.184631237e-38
-0.2345457822 -0.109341234 -0.2643837929 1.184631237e-38
-0.07763113081 -0.3271991909 -0.28125 1.184631237e-38
0.174617365 -0.5 0.01275509223 1.184631237e-38
-0.3591053188 -0.2662617266 -0.28125 1.184631237e-38
-0.162499994 -0.474999994 -0.25 1.184631237e-38
-0.4785983562 0.0625 -0.1402820051 1.184631237e-38
-0.1031111106 -0.412243098 -0.1719509214 1.184631237e-38
0.34375 0.04642808437 -0.1694583893 1.184631237e-38
0.01709486172 -0.04674168304 -0.25 1.184631237e-38
0.01758472808 0.0625 -0.2053081244 1.184631237e-38
0.34375 -0.0759383589 0.01499452442 1.184631237e-38
-0.110312447 0.07190228999 -0.2812499702 1.184631237e-38
0.2025999129 0.0625 -0.1632243246 1.184631237e-38
0.34375 -0.2363517433 0.0131608583 1.184631237e-38
-0.4807146788 0.07785567641 -0.1687835157 1.184631237e-38
0.2658450305 -0.4875000119 -0.07922534645 1.184631237e-38
0.204815343 0.07816613466 0.1249999851 1.184631237e-38
0.1709440202 -0.1395471692 -0.28125 1.184631237e-38
0.3374999762 -0.150000006 -0.0625 1.184631237e-38
0.1386730969 0.07840527594 -0.2060850263 1.184631237e-38
0.2399408966 -0.4874985516 -0.04453920946 1.184631237e-38
0.08106423169 0.0625 -0.2070317119 1.184631237e-38
-0.2653558254 0.01384032331 -0.265499562 1.184631237e-38
0.3125 -0.01241524704 0.1085224748 1.184631237e-38
0.1690463573 -0.3601416945 -0.2457315475 1.184631237e-38
0.07634391636 -0.3750000298 0.1060318574 1.184631237e-38
0.01589728147 -0.3906490803 -0.2457155734 1.184631237e-38
0.2375303805 0.01450480148 -0.25 1.184631237e-38
0.1771212816 -0.4594609737 -0.07717779279 1.184631237e-38
-0.1875 -0.1999999881 -0.2624999881 1.184631237e-38
-0.1098593771 -0.112357989 -0.2812499702 1.184631237e-38
0.2305605412 -0.46875 -0.1444394886 1.184631237e-38
-0.4542910159 -0.4999999702 -0.147388041 1.184631237e-38
-0.1424249411 -0.07868500799 -0.25 1.184631237e-38
-0.2375000119 -0.462500006 0.07499998808 1.184631237e-38
-0.1346153915 -0.4091117382 -0.1737637371 1.184631237e-38
-0.3000000119 -0.474999994 -0.1125000119 1.184631237e-38
0.1625000238 -0.3750000596 0.1071428806 1.184631237e-38
-0.1356250048 -0.4820000231 -0.1662499905 1.184631237e-38
0.3000000119 -0.349999994 -0.2624999881 1.184631237e-38
0.3125 -0.01165809296 0.1390511841 1.184631237e-38
-0.01635498926 -0.3904813826 -0.2461089939 1.184631237e-38
-0.01588570885 -0.1748714894 -0.2643684149 1.184631237e-38
-0.5 -0.1015525758 -0.2630268931 1.184631237e-38
0.105452247 -0.4644823372 -0.168987453 1.184631237e-38
0.078612037 0.01319204643 -0.2656109035 1.184631237e-38
0.01314282697 0.04832473397 -0.2651440799 1.184631237e-38
-0.07499998808 -0.4875000119 0.08749997616 1.184631237e-38
0.259064883 -0.5 0.08635494858 1.184631237e-38
-0.04252561182 -0.3372713625 0.4687500298 1.184631237e-38
-0.412499994 -0.3249999881 -0.2624999881 1.184631237e-38
0.3374999762 -0.375 0.01249998808 1.184631237e-38
-0.150000006 -0.4875000119 -0.01249998808 1.184631237e-38
0.1499999762 0.07499998808 -0.212500006 1.184631237e-38
-0.0826453194 -0.4515320659 0.143909201 1.184631237e-38
0.04661989212 0.05056769401 -0.265396446 1.184631237e-38
-0.2346257269 0.09375 -0.04603306949 1.184631237e-38
-0.3571422994 -0.4212945998 -0.25 1.184631237e-38
-0.2650862038 -0.375 -0.04461207241 1.184631237e-38
0.07788306475 0.09375 -0.1106652096 1.184631237e-38
0.1102369279 0.07668343186 -0.01622106135 1.184631237e-38
0.2280102372 0.0625 -0.1404321194 1.184631237e-38
-0.1999999881 0.07499998808 -0.1125000119 1.184631237e-38
0.3253709376 -0.4767439067 0.03617437184 1.184631237e-38
0.3374999762 -0.4375 0.01249998808 1.184631237e-38
-0.01286007464 -0.4094649851 -0.1671810597 1.184631237e-38
-0.1718793362 -0.4772334993 -0.2385177165 1.184631237e-38
0.3125 -0.420284301 -0.2039940953 1.184631237e-38
-0.2328199893 0.07284486294 -0.2636460364 1.184631237e-38
-0.09999999404 -0.474999994 -0.1750000119 1.184631237e-38
0.0773088187 -0.3876837194 -0.1421409845 1.184631237e-38
-0.3125 -0.1374999881 -0.2624999881 1.184631237e-38
-0.3874999881 -0.150000006 -0.2624999881 1.184631237e-38
-0.5000000596 0.06943247467 -0.2628550828 1.184631237e-38
0.08006033301 -0.3855960369 -0.1711613387 1.184631237e-38
0.01249998808 -0.125 -0.2624999881 1.184631237e-38
-0.3882207274 -0.1408224255 -0.2646048367 1.184631237e-38
-0.4123019576 0.08013305813 0.03276300058 1.184631237e-38
-0.3614130318 -0.4999999702 0.0199275203 1.184631237e-38
0.3249999881 -0.1875 -0.02500000596 1.184631237e-38
-0.3909058273 -0.4192287624 -0.25 1.184631237e-38
0.3124999702 -0.1721823663 0.06249999255 1.184631237e-38
-0.07726129889 -0.4999999702 0.1081972346 1.184631237e-38
-0.2323008627 -0.4297565818 -0.2018805146 1.184631237e-38
-0.1402759701 -0.1394340098 -0.2643788457 1.184631237e-38
-0.01243344881 0.0625 -0.1662504971 1.184631237e-38
-0.40625 -0.4875000119 0 1.184631237e-38
0.3249999881 -0.337500006 -0.25 1.184631237e-38
-0.1418667287 -0.4728002846 0.1437164545 1.184631237e-38
-0.3020663261 -0.4043066204 0.01420207229 1.184631237e-38
-0.1716071367 -0.1734634489 -0.2812499702 1.184631237e-38
-0.2970703244 0.09375 -0.1419778764 1.184631237e-38
-0.2344848514 0.09375 0.008702442981 1.184631237e-38
0.1443407536 -0.4787343442 -0.1736038327 1.184631237e-38
-0.2297588438 -0.3906994462 0.04636637121 1.184631237e-38
-0.1388045996 -0.4802791476 -0.2066140771 1.184631237e-38
0.1399816573 -0.202185601 -0.25 1.184631237e-38
0.07647968829 0.07729507983 -0.01513892785 1.184631237e-38
0.0788282007 -0.2343731076 -0.25 1.184631237e-38
-0.1875 -0.4375 0.21875 1.184631237e-38
0.3000000119 0.03750002384 -0.2624999881 1.184631237e-38
-0.01566065103 -0.3106375933 0.4375 1.184631237e-38
-0.2904719412 -0.375 -0.07925784588 1.184631237e-38
-0.08610945195 -0.4062500298 0.1614588797 1.184631237e-38
0.1499999762 -0.474999994 -0.1374999881 1.184631237e-38
-0.3895166814 -0.4540885985 -0.247148037 1.184631237e-38
-0.23210226 0.09375000745 -0.2619934678 1.184631237e-38
0.1406359524 -0.4649875164 -0.07530042529 1.184631237e-38
-0.3582143784 -0.0145562496 -0.25 1.184631237e-38
0.3015553057 -0.4648617208 0.07862900198 1.184631237e-38
0.01777549833 -0.3909881711 -0.2812500298 1.184631237e-38
-0.1374999881 -0.462500006 0.125 1.184631237e-38
-0.1170550808 -0.3749999702 -0.01483050175 1.184631237e-38
0.3296495676 -0.03377933428 0.1061877757 1.184631237e-38
-0.05000001192 -0.462500006 -0.2624999881 1.184631237e-38
-0.3575819731 -0.5 -0.0409836024 1.184631237e-38
-0.07764725387 0.09375 -0.28125 1.184631237e-38
0.3125 -0.1099775508 0.0130840838 1.184631237e-38
0.2667210102 -0.2352272272 -0.2646268904 1.184631237e-38
-0.01249998808 -0.4875000119 0.08749997616 1.184631237e-38
-0.2926633656 -0.4424902797 0.1875 1.184631237e-38
0.3185912967 0.09374999255 0.06559735537 1.184631237e-38
-0.1347222179 -0.3902778029 -0.04583333805 1.184631237e-38
-0.5 -0.5 -0.1666666567 1.184631237e-38
0.32697317 -0.2353520989 -0.2587890029 1.184631237e-38
0.25 0.02499997616 -0.2624999881 1.184631237e-38
0.3249999881 -0.05000001192 -0.2375000119 1.184631237e-38
0.08273092657 -0.4654393494 -0.04613822326 1.184631237e-38
-0.1721613854 -0.4116987586 0.04737261683 1.184631237e-38
-0.3125 -0.4226797521 -0.144658953 1.184631237e-38
0.34375 -0.4192962945 -0.2325125337 1.184631237e-38
0.05000001192 -0.349999994 -0.2624999881 1.184631237e-38
0.3249999881 0.02499997616 -0.03749999404 1.184631237e-38
-0.4160567522 0.09375000745 -0.01708178036 1.184631237e-38
0.3295430243 -0.3263601363 -0.04771693051 1.184631237e-38
0.3288447857 0.01549175382 -0.07846806943 1.184631237e-38
0.1875 -0.1125000119 -0.2624999881 1.184631237e-38
-0.1437557787 -0.3945946097 -0.1142824143 1.184631237e-38
0.04873943329 -0.3867328167 -0.1109127551 1.184631237e-38
-0.4375 -0.5 -0.05000001192 1.184631237e-38
0.3065320253 -0.3898609281 -0.238233909 1.184631237e-38
0.25 -0.4875000119 -0.02500000596 1.184631237e-38
-0.08125521988 -0.4774541259 -0.04745223001 1.184631237e-38
-0.3897116482 -0.2964571714 -0.2647379935 1.184631237e-38
0.01689211279 -0.4231221974 -0.28125 1.184631237e-38
-0.1100000069 -0.375 0.09124998748 1.184631237e-38
0.1174117774 -0.40625 0.1875 1.184631237e-38
0.0452933833 -0.4222740233 -0.28125 1.184631237e-38
0.04520940036 -0.3911683559 -0.2812500298 1.184631237e-38
0.34375 -0.04979111254 -0.28125 1.184631237e-38
0.3295603395 -0.07761669159 -0.04745981097 1.184631237e-38
0.2668319046 -0.01219705679 -0.2643975317 1.184631237e-38
0.3437499702 -0.3896699548 -0.1088155955 1.184631237e-38
0.2023830414 -0.2646270394 -0.2812499702 1.184631237e-38
-0.107348226 -0.3294726014 -0.262940079 1.184631237e-38
-0.2980515063 0.09375000745 -0.28125 1.184631237e-38
0.07623164356 -0.3861669004 0.009954740293 1.184631237e-38
0.1057212204 -0.3750000298 -0.1155622527 1.184631237e-38
-0.162499994 -0.462500006 0.02499997616 1.184631237e-38
0.2655240297 -0.1731305271 -0.2649322152 1.184631237e-38
-0.2317044586 -0.4764660597 0.04472358897 1.184631237e-38
-0.3874999881 0.07499998808 -0.1875 1.184631237e-38
-0.2369266152 0.0625 0.03809798509 1.184631237e-38
0.3249999881 -0.02500000596 -0.0625 1.184631237e-38
0.04644859582 0.04970090836 -0.2812499702 1.184631237e-38
0.3307003379 -0.1707143635 -0.1693824381 1.184631237e-38
-0.232823506 0.09375 -0.28125 1.184631237e-38
-0.07499998808 -0.337500006 0.4499999881 1.184631237e-38
0.2968999445 0.01124190912 -0.2812500298 1.184631237e-38
-0.04849336296 0.09375 -0.28125 1.184631237e-38
-0.3124999702 -0.423416853 0.1645256728 1.184631237e-38
-0.1999999881 -0.462500006 -0.1999999881 1.184631237e-38
0.0183410719 -0.4158394933 0.04985028505 1.184631237e-38
-0.1704562157 -0.375 0.0147851482 1.184631237e-38
0.1123018041 -0.4040133953 0.1450630426 1.184631237e-38
0.104815878 0.0625 -0.1397676915 1.184631237e-38
0.1388768852 -0.4802641273 0.04602479935 1.184631237e-38
0.3249999881 -0.212500006 -0.1750000119 1.184631237e-38
-0.04045878723 -0.4264865816 0.1574449688 1.184631237e-38
-0.04757210612 -0.07924509048 -0.25 1.184631237e-38
-0.3886821866 -0.2033875287 -0.25 1.184631237e-38
-0.2660899758 0.06249999627 -0.1130982861 1.184631237e-38
-0.1374999881 -0.07499998808 -0.2624999881 1.184631237e-38
0.3293657899 -0.04640166834 -0.1107356101 1.184631237e-38
0.05000001192 0.07499998808 -0.1875 1.184631237e-38
0.1089426875 0.0722663179 -0.2639782131 1.184631237e-38
0.1160714328 -0.34375 -0.1875 1.184631237e-38
0.0625 -0.375 0.4375 1.184631237e-38
0.04010084644 -0.4313184321 0.1875 1.184631237e-38
0.1384182721 -0.04918396845 -0.2646461129 1.184631237e-38
0.1719642729 -0.2652902305 -0.28125 1.184631237e-38
-0.3543321192 -0.4874722064 -0.2038264871 1.184631237e-38
0.3374999762 -0.4375 0.02499997616 1.184631237e-38
-0.2969548106 -0.01439823955 -0.2650002837 1.184631237e-38
0.1875 -0.4875000119 0.05000001192 1.184631237e-38
0.07649797201 -0.3873981833 -0.1097633839 1.184631237e-38
0.3374999762 -0.4250000119 -0.1750000119 1.184631237e-38
0.1724299043 0.07571305335 0.07547940314 1.184631237e-38
0.3437500298 -0.07824289054 -0.169969514 1.184631237e-38
0.34375 -0.108889915 0.04273622856 1.184631237e-38
0.1096048057 0.05070503801 -0.281694591 1.184631237e-38
-0.08643617481 -0.4999999702 0.1595744789 1.184631237e-38
-0.1074517146 0.0625 -0.2042118162 1.184631237e-38
-0.2328115255 0.07466242462 -0.2389221936 1.184631237e-38
-0.1111859977 0.0469350256 -0.28125 1.184631237e-38
0.117171146 0.07702059299 0.09374999255 1.184631237e-38
-0.3125 -0.4375 0.1625000238 1.184631237e-38
0.1976327449 -0.3911386728 -0.264469713 1.184631237e-38
0.3125 0.01555242017 0.0153800277 1.184631237e-38
0.07499998808 -0.4875000119 -0.1875 1.184631237e-38
-0.3575000465 -0.5 -0.08583334088 1.184631237e-38
0.3315497339 -0.1428243965 0.0625 1.184631237e-38
-0.07756622136 -0.2976462841 -0.2646190822 1.184631237e-38
0.2956230938 0.0625 -0.2812500298 1.184631237e-38
0.2967437208 -0.5 -0.2505252361 1.184631237e-38
0.1114606261 -0.07842888683 -0.2812499702 1.184631237e-38
-0.212500006 -0.4875000119 -0.01249998808 1.184631237e-38
-0.125 -0.462500006 -0.09999999404 1.184631237e-38
0.07523474842 -0.4697372615 -0.262031436 1.184631237e-38
-0.05000001192 -0.1875 -0.2624999881 1.184631237e-38
-0.3594441116 -0.295973599 -0.264713496 1.184631237e-38
0.3374999762 0.02499997616 -0.07499998808 1.184631237e-38
-0.1442057192 -0.4120343029 0.1124618873 1.184631237e-38
0.34375 -0.2334140241 0.0625 1.184631237e-38
-0.0788378194 -0.01453146152 -0.28125 1.184631237e-38
0.01218366437 -0.4772406816 0.07651436329 1.184631237e-38
0.34375 0.04669617116 -0.04702439904 1.184631237e-38
-0.2447916716 -0.5 0.1708333492 1.184631237e-38
0.07829147577 -0.3908979595 -0.2640044391 1.184631237e-38
0.1152432039 -0.4122542143 0.1107400656 1.184631237e-38
0.3374999762 -0.3125 -0.02500000596 1.184631237e-38
-0.162499994 -0.474999994 0.1625000238 1.184631237e-38
0.3294247687 0.04674394429 -0.1688736677 1.184631237e-38
0.1402742416 -0.4556311667 0.1436969489 1.184631237e-38
-0.2650410831 0.01348348893 -0.25 1.184631237e-38
0.2875000238 0 -0.2624999881 1.184631237e-38
0.3374999762 -0.1750000119 -0.0625 1.184631237e-38
0.0453893207 -0.07789161056 -0.28125 1.184631237e-38
0.1052299961 -0.4649941921 -0.1092478931 1.184631237e-38
-0.02500000596 -0.212500006 -0.2624999881 1.184631237e-38
-0.3125 -0.4533885121 0.1107260808 1.184631237e-38
-0.275000006 -0.474999994 -0.25 1.184631237e-38
0.1352458894 -0.5 -0.04508197308 1.184631237e-38
0.3302874267 -0.3604198396 -0.1086120978 1.184631237e-38
0.04839972407 0.09375 -0.1086530685 1.184631237e-38
-0.2666027844 -0.4784151912 0.01705114357 1.184631237e-38
-0.142501533 0.07488718629 -0.1107027009 1.184631237e-38
-0.3125 -0.444721818 0.1628520787 1.184631237e-38
-0.3898694813 -0.3287141919 -0.2649425566 1.184631237e-38
-0.412499994 0.03750002384 -0.2624999881 1.184631237e-38
-0.287499994 -0.474999994 -0.0625 1.184631237e-38
0.3249999881 0 0.125 1.184631237e-38
-0.01458537579 -0.1409300119 -0.2638702393 1.184631237e-38
0.2250000238 -0.349999994 -0.2624999881 1.184631237e-38
-0.337500006 -0.4875000119 -0.03749999404 1.184631237e-38
-0.08333333582 -0.5 -0.28125 1.184631237e-38
-0.349999994 -0.4250000119 -0.2624999881 1.184631237e-38
-0.5 0.0625 -0.1498459429 1.184631237e-38
-0.2632268071 -0.418469131 -0.1406706125 1.184631237e-38
-0.3891967237 -0.2338012904 -0.28125 1.184631237e-38
-0.125 -0.1374999881 -0.2624999881 1.184631237e-38
0.3288471103 0.04611141235 -0.07881260663 1.184631237e-38
0.1875 -0.4170998335 0.1065259576 1.184631237e-38
-0.07856047153 0.09374999255 -0.170909673 1.184631237e-38
0.3249999881 -0.4250000119 -0.07499998808 1.184631237e-38
-0.1708314866 -0.4615603685 0.1108074412 1.184631237e-38
-0.287499994 -0.474999994 -0.2624999881 1.184631237e-38
-0.25 -0.34375 -0.1875 1.184631237e-38
0.1387198865 0.09375 -0.1709782481 1.184631237e-38
0.07679883391 -0.4629568756 -0.2030873597 1.184631237e-38
0.3437499702 -0.2010744661 -0.1413184106 1.184631237e-38
-0.2315109968 -0.4140146375 0.07981799543 1.184631237e-38
0.0185438823 0.06249999255 -0.1427890658 1.184631237e-38
0.1393405497 0.05032223091 -0.28125 1.184631237e-38
-0.1106603891 0.01504030451 -0.2499999851 1.184631237e-38
-0.125 -0.40625 0.4375 1.184631237e-38
0.04864690825 -0.479503274 -0.04572171718 1.184631237e-38
0.2023337483 -0.1403493434 -0.2654917836 1.184631237e-38
-0.04706407711 -0.2972590029 -0.2648829818 1.184631237e-38
-0.2049731165 -0.5 0.07526879758 1.184631237e-38
0.3374999762 -0.2375000119 -0.25 1.184631237e-38
-0.3911982477 0.09374999255 -0.1382686794 1.184631237e-38
-0.07903008163 0.01603362337 -0.2812499702 1.184631237e-38
-0.1101279557 0.09375 -0.04535925761 1.184631237e-38
-0.293910265 -0.5 -0.2551282048 1.184631237e-38
0.07894851267 -0.2341504097 -0.264169842 1.184631237e-38
-0.4536027908 -0.2030219734 -0.28125 1.184631237e-38
0.1999999732 -0.4841071069 0.04523810744 1.184631237e-38
0.3374999762 -0.3625000119 -0.03749999404 1.184631237e-38
0.2335448265 -0.2969118059 -0.28125 1.184631237e-38
-0.2970057726 -0.2653877735 -0.28125 1.184631237e-38
-0.259523809 -0.5 -0.07896825671 1.184631237e-38
0.1737805009 -0.5 0.1214430928 1.184631237e-38
-0.2368678898 -0.4767343402 -0.2389702052 1.184631237e-38
-0.1374999881 -0.3750000298 0.4062500298 1.184631237e-38
-0.478779912 0.07648188621 -0.1424688697 1.184631237e-38
-0.04045401514 -0.3590487838 0.4311939478 1.184631237e-38
0.3125 -0.07748390734 -0.0483212769 1.184631237e-38
-0.09374999255 -0.3125 0.4512133598 1.184631237e-38
0.08571427315 -0.3607142866 0.4517857134 1.184631237e-38
0.25 -0.5 -0.28125 1.184631237e-38
0.268365711 -0.3901414275 -0.2812500298 1.184631237e-38
-0.296490401 -0.172776863 -0.2645042539 1.184631237e-38
0.07912389189 -0.3580622673 -0.2630516291 1.184631237e-38
0.07565334439 -0.4544837177 -0.2444174141 1.184631237e-38
-0.3125 -0.4052549601 0.1640616655 1.184631237e-38
-0.4544607997 0.07172396034 -0.28125 1.184631237e-38
-0.04458237067 -0.4258086979 -0.04509592429 1.184631237e-38
0.202315554 0.01249252912 -0.2652213871 1.184631237e-38
0.2631654441 0.0625 0.04230923578 1.184631237e-38
-0.1875 -0.375 0.1565822512 1.184631237e-38
-0.1750000119 -0.4375 -0.2624999881 1.184631237e-38
-0.1551724076 -0.375 -0.1077586114 1.184631237e-38
-0.3299925923 0.09375000745 -0.04883770645 1.184631237e-38
0.07499998808 -0.4875000119 0.08749997616 1.184631237e-38
-0.2375000119 -0.4875000119 -0.07499998808 1.184631237e-38
0.3286954761 -0.1400339007 0.01341755874 1.184631237e-38
0.04737020656 -0.375 0.07324678451 1.184631237e-38
0.3249999881 -0.474999994 -0.08750000596 1.184631237e-38
-0.2717050016 -0.5 0.134414196 1.184631237e-38
0.125 -0.349999994 0.4375 1.184631237e-38
0.125 -0.462500006 -0.07499998808 1.184631237e-38
-0.02389825322 -0.4200356901 -0.04635416344 1.184631237e-38
0.3125 -0.00912128482 0.1875 1.184631237e-38
0.3249999881 -0.212500006 -0.01249998808 1.184631237e-38
0.3255387843 0.07007338852 0.01373216975 1.184631237e-38
-0.4250000119 0.07499998808 0 1.184631237e-38
0.3249999881 -0.02500000596 -0.1999999881 1.184631237e-38
-0.09999999404 0.07499998808 0.02499997616 1.184631237e-38
-0.1075864583 0.0757470578 -0.1105285585 1.184631237e-38
0.3000000119 -0.4875000119 0.15625 1.184631237e-38
0 -0.462500006 0.0625 1.184631237e-38
0.3249999881 -0.349999994 -0.1374999881 1.184631237e-38
-0.2963951826 -0.2655266523 -0.2639020085 1.184631237e-38
-0.01536927838 -0.4544795752 -0.2450846732 1.184631237e-38
0.3125 -0.25 -0.2624999881 1.184631237e-38
0.2124999762 -0.09999999404 -0.2624999881 1.184631237e-38
0.2653723955 -0.04510230571 -0.2812499702 1.184631237e-38
-0.2375000119 -0.3874999881 0.03750002384 1.184631237e-38
-0.04689102247 -0.3602612913 -0.2812499702 1.184631237e-38
-0.1075383648 0.09374999255 -0.2391150147 1.184631237e-38
-0.2963792682 -0.04699620232 -0.2648060918 1.184631237e-38
-0.0113828266 -0.4606615305 0.04910554364 1.184631237e-38
-0.0859375 -0.5 -0.1696428657 1.184631237e-38
0.09548745304 -0.3124999702 -0.2187499851 1.184631237e-38
0.1625000238 -0.400000006 0 1.184631237e-38
-0.2029425502 -0.4760653973 -0.01425612811 1.184631237e-38
-0.3585265875 0.0625 -0.04845551774 1.184631237e-38
0.3374999762 -0.1125000119 -0.150000006 1.184631237e-38
-0.412499994 0.07499998808 -0.01249998808 1.184631237e-38
0.01655760035 0.07531458884 -0.07762556523 1.184631237e-38
0.3034847379 0.09375 -0.0817560032 1.184631237e-38
0.3249999881 -0.212500006 -0.212500006 1.184631237e-38
0.05043790862 -0.4108799696 -0.006914394908 1.184631237e-38
-0.3625000119 -0.46875 0.0625 1.184631237e-38
-0.4815389812 0.01425491739 -0.2653681934 1.184631237e-38
0.3249999881 -0.4875000119 -0.0625 1.184631237e-38
-0.481739223 -0.01333128102 -0.2653672397 1.184631237e-38
-0.04791148379 -0.1116838977 -0.28125 1.184631237e-38
0.3374999762 0.03750002384 0.1000000238 1.184631237e-38
-0.09999999404 -0.474999994 -0.1999999881 1.184631237e-38
0.3286641538 -0.01274572592 0.1084751561 1.184631237e-38
0.08008793741 -0.482488364 0.04613324255 1.184631237e-38
-0.01640085131 -0.4139182866 -0.2118167579 1.184631237e-38
0.125 -0.349999994 0.4624999762 1.184631237e-38
-0.29296875 -0.5 -0.2812500298 1.184631237e-38
-0.0625 -0.4875000119 -0.224999994 1.184631237e-38
-0.1400396973 0.09375 0.006402640138 1.184631237e-38
-0.4146410823 0.07577846199 0.006879254244 1.184631237e-38
0.05000001192 -0.3874999881 -0.01249998808 1.184631237e-38
0.07742646337 -0.477352947 -0.2011029273 1.184631237e-38
-0.1410295069 0.07480507344 -0.2435887158 1.184631237e-38
-0.3917410672 -0.4687500298 -0.1422991008 1.184631237e-38
-0.1734557897 -0.466325134 -0.07717679441 1.184631237e-38
0.2994583845 -0.1731559038 -0.2624177635 1.184631237e-38
0.2987875044 -0.4862875044 0.08270782977 1.184631237e-38
-0.1407812834 -0.4653671086 -0.04220244288 1.184631237e-38
0.07499998808 -0.3874999881 -0.150000006 1.184631237e-38
0.1394325644 -0.41026631 0.01236247271 1.184631237e-38
-0.5 0.04612808675 -0.2654112875 1.184631237e-38
-0.07721495628 0.09375 -0.2062010467 1.184631237e-38
0.3125 -0.04853399843 -0.2039377093 1.184631237e-38
0.34375 0.06840953976 -0.0788923949 1.184631237e-38
-0.46875 0.08109284937 -0.03125 1.184631237e-38
-0.275000006 -0.474999994 0.1625000238 1.184631237e-38
-0.287499994 0 -0.2624999881 1.184631237e-38
-0.2003881931 -0.1404483318 -0.28125 1.184631237e-38
0.04696412012 -0.1738889366 -0.28125 1.184631237e-38
0.2319537699 0.09375000745 -0.2544912398 1.184631237e-38
-0.01258045714 -0.451041013 0.1455550343 1.184631237e-38
0.2254309803 0.09374999255 -0.2108582258 1.184631237e-38
-0.1396046728 -0.296456039 -0.2812500298 1.184631237e-38
-0.2341626585 -0.2641446292 -0.25 1.184631237e-38
-0.3839285672 -0.5 -0.2370129973 1.184631237e-38
0.329149127 -0.2022213936 -0.0179045219 1.184631237e-38
-0.08750000596 -0.4250000119 -0.02500000596 1.184631237e-38
0.2124999762 0.07499998808 0.0625 1.184631237e-38
0.3125000298 -0.2344367802 -0.1086867005 1.184631237e-38
0.1701997668 0.01239901967 -0.2812500298 1.184631237e-38
0.2935435176 -0.2953762114 -0.28125 1.184631237e-38
0.3262580037 0.01006399188 0.1639238 1.184631237e-38
-0.1002066061 -0.4013429582 -0.06663222611 1.184631237e-38
-0.01734581403 -0.4855727553 -0.08039647341 1.184631237e-38
0.02499997616 -0.412499994 -0.2624999881 1.184631237e-38
-0.01701130904 -0.2345481068 -0.28125 1.184631237e-38
0.1096824855 -0.3280938864 -0.28125 1.184631237e-38
-0.04793662578 -0.1114749312 -0.2641009092 1.184631237e-38
-0.453073889 -0.298233062 -0.2650254667 1.184631237e-38
0 -0.4499999881 -0.2624999881 1.184631237e-38
-0.4217895567 -0.2354881167 -0.2647552788 1.184631237e-38
-0.4375 -0.4875000417 -0.05000001192 1.184631237e-38
-0.05185440555 -0.5 0.04876376316 1.184631237e-38
0.125 -0.0625 -0.2624999881 1.184631237e-38
-0.4875000119 -0.474999994 -0.2624999881 1.184631237e-38
0.1615740955 -0.375 -0.1819444299 1.184631237e-38
-0.3260124624 0.09375 -0.28125 1.184631237e-38
-0.5 0.07778251916 -0.2091933042 1.184631237e-38
0.34375 -0.0472041145 -0.2042276561 1.184631237e-38
-0.02500000596 -0.474999994 -0.02500000596 1.184631237e-38
-0.40625 -0.5 0 1.184631237e-38
0.1421543658 -0.3896259665 -0.06860850006 1.184631237e-38
0.08351328224 -0.4062499702 0.1875 1.184631237e-38
-0.1955782175 -0.5 -0.2040816247 1.184631237e-38
-0.1875 0.07499998808 0.0625 1.184631237e-38
0.3374999762 0.02499997616 -0.1125000119 1.184631237e-38
0.34375 -0.4711182117 -0.01905286312 1.184631237e-38
0.07258063555 -0.5 -0.1317204237 1.184631237e-38
0.02499997616 -0.4375 -0.2624999881 1.184631237e-38
-0.01033059321 -0.4741735756 0.1875 1.184631237e-38
0.3033438325 -0.4807069302 -0.140380159 1.184631237e-38
-0.1875 -0.462500006 0.1000000238 1.184631237e-38
0.01249998808 -0.3874999881 -0.1875 1.184631237e-38
-0.0797804445 -0.4841976762 0.01570949331 1.184631237e-38
0.01249998808 -0.474999994 -0.2624999881 1.184631237e-38
-0.01663742028 -0.4014625847 0.07949041575 1.184631237e-38
-0.07988289744 -0.140312463 -0.264714092 1.184631237e-38
-0.01674758457 0.09375 -0.260790199 1.184631237e-38
-0.3596822917 0.09375 -0.28125 1.184631237e-38
-0.1374999881 -0.01249998808 -0.2624999881 1.184631237e-38
-0.1395089179 -0.5 0.02120534331 1.184631237e-38
-0.349999994 -0.162499994 -0.2624999881 1.184631237e-38
-0.1509050131 -0.375 0.01377360709 1.184631237e-38
0.01249998808 -0.2624999881 -0.2624999881 1.184631237e-38
0.07770828158 -0.3568223417 -0.238741681 1.184631237e-38
-0.2297589332 -0.4639987051 0.07455190271 1.184631237e-38
-0.3928571641 -0.46875 -0.07711038738 1.184631237e-38
0.1094588935 0.09375 -0.01717161573 1.184631237e-38
0.1409883499 -0.3749999702 -0.06852158159 1.184631237e-38
-0.162499994 -0.125 -0.2624999881 1.184631237e-38
0.2375000119 -0.4875000119 0 1.184631237e-38
0.1815723926 -0.4273085892 -0.1426268518 1.184631237e-38
-0.1393522024 -0.423322171 -0.2812499702 1.184631237e-38
0.34375 -0.2986851037 -0.1707930118 1.184631237e-38
0.1291962713 -0.3749999702 0.04165330529 1.184631237e-38
-0.09999999404 0.07499998808 0.01249998808 1.184631237e-38
-0.25 -0.3874999881 -0.03749999404 1.184631237e-38
0.08223705739 -0.4764899909 -0.1382454336 1.184631237e-38
0.3125000298 0.01184002124 0.1093147993 1.184631237e-38
-0.4125000238 -0.5 -0.07386362553 1.184631237e-38
-0.2362892032 0.0625 -0.1378071159 1.184631237e-38
-0.3125 -0.4045787156 0.04251138121 1.184631237e-38
-0.2951263487 -0.4999999702 -0.1177797839 1.184631237e-38
0.1942309141 -0.4620191157 0.01135840267 1.184631237e-38
-0.2299266011 -0.463514626 -0.140426293 1.184631237e-38
0.3124999702 -0.3597877622 -0.04850697517 1.184631237e-38
-0.474999994 0.07499998808 -0.125 1.184631237e-38
-0.3625000119 -0.4875000119 -0.08750000596 1.184631237e-38
0.02499997616 0.07499998808 0.02499997616 1.184631237e-38
0.3249999881 -0.1875 -0.1125000119 1.184631237e-38
0.3307763338 -0.1394494325 -0.2025901675 1.184631237e-38
-0.4791309834 -0.3599921763 -0.2642684281 1.184631237e-38
0.34375 -0.07751823962 -0.1416930258 1.184631237e-38
-0.125 -0.34375 -0.1875 1.184631237e-38
-0.3125 -0.462500006 -0.162499994 1.184631237e-38
-0.3601602912 0.09375 0.03208442405 1.184631237e-38
0.162544176 -0.4999999404 -0.1974381506 1.184631237e-38
0.3124999702 -0.2341038883 -0.01773740724 1.184631237e-38
0.265476197 -0.4875000119 -0.1702380776 1.184631237e-38
-0.46875 -0.4375 -0.3125 1.184631237e-38
-0.01235715486 -0.4845582843 -0.2098048031 1.184631237e-38
0.0791143477 -0.2641542554 -0.263756454 1.184631237e-38
0.3000000119 0.07499998808 -0.1374999881 1.184631237e-38
0.3103196323 -0.4520194232 0.01362797339 1.184631237e-38
0.04729557782 -0.1397308856 -0.2648587227 1.184631237e-38
0.3249999881 -0.25 -0.05000001192 1.184631237e-38
-0.2331393957 -0.4154978991 0.1453588158 1.184631237e-38
0.1875 -0.4003511071 -0.06741572171 2.348204041e-38
0.1000000238 -0.4875000119 -0.01249998808 2.348204041e-38
0.04099902883 -0.4529872239 0.1480795145 2.348204041e-38
-0.03125 -0.375 -0.0625 2.348204041e-38
-0.2331975847 -0.1743481308 -0.2812499702 2.348204041e-38
-0.474999994 -0.412499994 -0.2624999881 2.348204041e-38
-0.4794418812 -0.390599221 -0.2640935481 2.348204041e-38
-0.2977492809 -0.4025712907 0.08295746893 2.348204041e-38
-0.359881103 -0.3597464561 -0.25 2.348204041e-38
0.110367462 0.09375 -0.2037476897 2.348204041e-38
0.2654867172 -0.5 -0.2306415886 2.348204041e-38
0.125 -0.2624999881 -0.2624999881 2.348204041e-38
-0.162499994 -0.462500006 -0.01249998808 2.348204041e-38
0.331250906 -0.01498570666 -0.1696758121 2.348204041e-38
0.3249999881 -0.25 -0.0625 2.348204041e-38
-0.1107114479 0.05066626146 -0.2453163117 2.348204041e-38
-0.2951944768 -0.4482276142 0.1643162072 2.348204041e-38
0.09605265409 -0.4855263531 0.1875000149 2.348204041e-38
-0.2330039144 -0.4767496288 0.01826223917 2.348204041e-38
0.3284718096 -0.4722289443 -0.2369261533 2.348204041e-38
0.0625 -0.4250000119 -0.2624999881 2.348204041e-38
-0.3595889211 0.09375 -0.2365393788 2.348204041e-38
-0.2022795379 -0.3860705495 -0.28125 2.348204041e-38
-0.109500058 0.09375 -0.2042452842 2.348204041e-38
0.3299397528 -0.103907764 0.06249999627 2.348204041e-38
0.1750000119 -0.400000006 -0.212500006 2.348204041e-38
0 -0.337500006 -0.25 2.348204041e-38
0.3070956767 -0.0763380304 -0.2373005003 2.348204041e-38
0.1343911886 -0.375 -0.1156088263 2.348204041e-38
0.1875 -0.412499994 -0.25 2.348204041e-38
-0.2564858496 -0.375 0.04716981947 2.348204041e-38
-0.1095180437 -0.472273618 0.1619758457 2.348204041e-38
-0.3125 -0.4250000119 -0.150000006 2.348204041e-38
-0.1695786268 -0.4229726195 -0.2626346648 2.348204041e-38
0.07804915309 0.09374999255 -0.04875639081 2.348204041e-38
0.01540691406 0.09375 -0.07770698518 2.348204041e-38
-0.0625 -0.40625 0.4375 2.348204041e-38
0.140880689 -0.4660758972 -0.2039660364 2.348204041e-38
-0.275000006 0.07499998808 -0.01249998808 2.348204041e-38
0.34375 -0.2015108466 -0.2600026429 2.348204041e-38
0.1084771454 -0.4542143643 -0.2435298562 2.348204041e-38
-0.15625 -0.3125 -0.21875 2.348204041e-38
0.34375 -0.3276638985 -0.204196915 2.348204041e-38
0.05000001192 0.07499998808 -0.0625 2.348204041e-38
-0.3042313159 -0.4177320004 0.04435858503 2.348204041e-38
0.2566666603 -0.5 -0.04500000179 2.348204041e-38
-0.125 -0.3875000179 0.4062500298 2.348204041e-38
-0.3000000119 -0.400000006 -0.08750000596 2.348204041e-38
0.1732702255 0.0625 0.01424677484 2.348204041e-38
0.125 -0.349999994 0.46875 2.348204041e-38
0.3242179453 0.03706199303 -0.28125 2.348204041e-38
-0.2669604123 0.09375000745 -0.1417512 2.348204041e-38
0.08373117447 -0.375 0.07634712011 2.348204041e-38
-0.1704201698 -0.4767173827 0.01453555375 2.348204041e-38
-0.09914921224 0.07493176311 0.06785578281 2.348204041e-38
0.078671664 0.07330292463 -0.2357365489 2.348204041e-38
-0.1114303768 -0.398447454 0.03366457671 2.348204041e-38
0.3437499702 -0.01291110739 0.04602374882 2.348204041e-38
-0.04708750546 -0.3277378976 -0.2644494772 2.348204041e-38
0.2314817756 0.0625 -0.04802083597 2.348204041e-38
-0.2341404557 -0.477516681 -0.04413568228 2.348204041e-38
0.34375 0.06890868396 0.01416953653 2.348204041e-38
-0.2959956229 -0.4217544794 0.1665693372 2.348204041e-38
-0.01558257453 -0.4230243862 -0.28125 2.348204041e-38
-0.3899991214 -0.3283703625 -0.28125 2.348204041e-38
0.3374999762 0.02499997616 0.1000000238 2.348204041e-38
-0.329071492 0.07459495217 -0.07405349612 2.348204041e-38
-0.5 -0.5 -0.28125 2.348204041e-38
0.04762145877 0.09375 -0.141253069 2.348204041e-38
0.233519122 -0.01510235388 -0.28125 2.348204041e-38
-0.329059422 0.09374999255 -0.01497778483 2.348204041e-38
0.3303210139 -0.07567583025 0.04451265186 2.348204041e-38
-0.4211476445 -0.420274049 -0.28125 2.348204041e-38
-0.3269039094 0.05174065754 -0.2442039251 2.348204041e-38
0.2023542672 0.07675279677 -0.1650584042 2.348204041e-38
-0.07819033414 -0.1742837429 -0.2499999851 2.348204041e-38
0.3125 -0.3908025324 -0.1095485985 2.348204041e-38
0.08749997616 -0.462500006 -0.1750000119 2.348204041e-38
-0.3912315965 -0.4502857625 -0.28125 2.348204041e-38
0.1875 -0.2624999881 -0.2624999881 2.348204041e-38
-0.3914473653 -0.5 -0.1671052575 2.348204041e-38
0.05000001192 -0.1750000119 -0.2624999881 2.348204041e-38
-0.2346280813 0.0780980736 -0.01349232905 2.348204041e-38
-0.265791595 -0.01452605985 -0.25 2.348204041e-38
0.3249999881 -0.08750000596 -0.125 2.348204041e-38
-0.08750000596 -0.462500006 0.1625000238 2.348204041e-38
-0.46875 -0.5 -0.118750006 2.348204041e-38
-0.4230577052 0.0494279936 -0.2448028773 2.348204041e-38
0.1385132819 -0.4658915699 0.04568855092 2.348204041e-38
0.3125 -0.01369821653 0.07686315477 2.348204041e-38
-0.1717454195 0.07255070657 -0.2633250356 2.348204041e-38
-0.08750000596 -0.3625000119 0.4499999881 2.348204041e-38
0.3290727139 -0.2645599544 -0.2340858579 2.348204041e-38
0.3249999881 0.03750002384 -0.0625 2.348204041e-38
0.3249999881 0.03125 0.1875 2.348204041e-38
0.03125 0.0625 0.125 2.348204041e-38
0.1875 -0.4499999881 0.05000001192 2.348204041e-38
-0.3874999881 -0.4875000119 -0.1125000119 2.348204041e-38
0.1292728633 -0.3429180384 -0.2166700363 2.348204041e-38
-0.3898091018 -0.3597836494 -0.2644453347 2.348204041e-38
-0.5 -0.1755701303 -0.28125 2.348204041e-38
0.02499997616 -0.1875 -0.2624999881 2.348204041e-38
-0.5 0.08040868491 -0.125 2.348204041e-38
0.3249999881 -0.3249999881 -0.07499998808 2.348204041e-38
-0.5 -0.2024368346 -0.25 2.348204041e-38
-0.2286951989 -0.4752213657 -0.1414302438 2.348204041e-38
0.34375 -0.2650384009 -0.1086957157 2.348204041e-38
-0.2043222934 -0.3955285251 0.1401504278 2.348204041e-38
0.1374999881 -0.3874999881 -0.2624999881 2.348204041e-38
-0.2375000119 -0.337500006 -0.2375000119 2.348204041e-38
-0.296202451 -0.375 -0.172300607 2.348204041e-38
0.08749997616 0.07499998808 -0.2624999881 2.348204041e-38
0.04119195789 -0.4633416235 0.1156910807 2.348204041e-38
0.2124999762 -0.4875000119 -0.125 2.348204041e-38
-0.1433837265 -0.4326432049 0.1875 2.348204041e-38
-0.08750000596 -0.4499999881 -0.08750000596 2.348204041e-38
0.05769231915 -0.3125 -0.21875 2.348204041e-38
0.1411796808 -0.4758790731 0.1572426558 2.348204041e-38
0.2036877424 -0.2018340081 -0.2812499702 2.348204041e-38
-0.08180797845 -0.4204340279 -0.2441345006 2.348204041e-38
-0.2554873228 -0.3422636986 -0.2162728161 2.348204041e-38
-0.0787691623 -0.3884466887 -0.2620857358 2.348204041e-38
-0.2673456967 0.09375 -0.01569395885 2.348204041e-38
0.3301119804 -0.139400214 -0.1420660019 2.348204041e-38
0.2030508965 0.09375000745 0.07190287858 2.348204041e-38
0.1468008012 -0.4647791386 -0.01672654226 2.348204041e-38
-0.2371720523 0.06249999627 -0.1154570207 2.348204041e-38
0.3437499702 0.09374999255 -0.01182459947 2.348204041e-38
-0.4232304394 -0.01275828667 -0.2499999851 2.348204041e-38
-0.03561964631 0.09375 0.09375 2.348204041e-38
0.1079687998 -0.4767778516 0.1442082375 2.348204041e-38
0.01249998808 -0.400000006 0.08749997616 2.348204041e-38
0.375 -0.375 -0.15625 2.348204041e-38
-0.4251668155 0.09375 -0.2065965086 2.348204041e-38
0.1396947801 -0.4790410995 0.1119830981 2.348204041e-38
0.1374999881 -0.4875000119 -0.1875 2.348204041e-38
0 -0.3874999881 0.4125000238 2.348204041e-38
0.01718463749 -0.111483559 -0.28125 2.348204041e-38
-0.2615335584 -0.3750000298 0.07736020535 2.348204041e-38
-0.233540535 0.09375 -0.07443868369 2.348204041e-38
0.1703340411 0.09375000745 -0.2619574368 2.348204041e-38
0.1391346157 -0.2345592827 -0.28125 2.348204041e-38
0.1394450366 -0.07903995365 -0.2643730938 2.348204041e-38
0.04796164483 0.07339018583 -0.236496076 2.348204041e-38
-0.452714473 -0.1097647399 -0.2499999851 2.348204041e-38
-0.0445358716 0.04869152233 -0.2644307315 2.348204041e-38
-0.04322307557 -0.4799703062 0.01142270863 2.348204041e-38
-0.1985530406 0.06249999627 -0.0525412634 2.348204041e-38
-0.009413008578 -0.4022239149 0.1128326729 2.348204041e-38
-0.03749999404 -0.400000006 0.05000001192 2.348204041e-38
-0.3276124299 -0.1395541877 -0.25 2.348204041e-38
-0.4514505863 -0.1401520371 -0.2650695443 2.348204041e-38
0.3063274324 0.07206956297 -0.2343122661 2.348204041e-38
0.2658450603 -0.46875 -0.07922534645 2.348204041e-38
0.1749005616 0.09375 0.01495929807 2.348204041e-38
-0.3271999657 0.07720866054 -0.1091976911 2.348204041e-38
-0.2016113997 -0.2313562185 -0.28125 2.348204041e-38
0.04658205807 -0.1119769439 -0.28125 2.348204041e-38
0.3374999762 -0.1374999881 -0.224999994 2.348204041e-38
-0.1107613072 0.09375 -0.1705115139 2.348204041e-38
-0.1413073242 0.09375 -0.2018149048 2.348204041e-38
-0.1400785446 0.07566250116 -0.01509970985 2.348204041e-38
0.1121497229 -0.3868787885 0.01533915568 2.348204041e-38
0 -0.162499994 -0.2624999881 2.348204041e-38
0.1874999851 -0.4046886563 0.1426948756 2.348204041e-38
0.3374999762 -0.1875 -0.212500006 2.348204041e-38
0.1097452641 -0.4661581516 0.07871739566 2.348204041e-38
0.34375 -0.170928359 0.04198973998 2.348204041e-38
0.1055398881 -0.4483574629 0.1625743955 2.348204041e-38
0.07499998808 -0.3874999881 0.1125000119 2.348204041e-38
-0.01703486219 -0.3899805844 -0.2625564337 2.348204041e-38
0.1125000119 -0.162499994 -0.2624999881 2.348204041e-38
-0.1714449376 0.07088690996 -0.28125 2.348204041e-38
-0.2237044424 -0.375 0.1158887446 2.348204041e-38
-0.3125 -0.4499999881 -0.125 2.348204041e-38
-0.4225552976 0.01532476675 -0.2653540969 2.348204041e-38
-0.1402359158 -0.1395780146 -0.25 2.348204041e-38
0.3095828295 0.04923209548 -0.1385981441 2.348204041e-38
0.01696216315 -0.4501490295 -0.28125 2.348204041e-38
0.1721389741 0.0755513683 -0.01622307114 2.348204041e-38
0.0459036082 0.09375 0.0110163074 2.348204041e-38
-0.03125 -0.28125 0.4375 2.348204041e-38
0.2308443636 -0.08014062047 -0.2654905617 2.348204041e-38
-0.07789408416 -0.4872229099 0.04402711615 2.348204041e-38
0.06641103327 -0.3437499702 -0.1875 2.348204041e-38
0.2375000119 -0.474999994 -0.2624999881 2.348204041e-38
-0.0781314671 -0.2971477807 -0.25 2.348204041e-38
-0.2375000119 -0.4875000119 -0.0625 2.348204041e-38
0.1318012178 -0.375 -0.1392469406 2.348204041e-38
0 -0.400000006 0.1000000238 2.348204041e-38
0.1598968208 -0.3750000298 0.006199564785 2.348204041e-38
-0.4705882072 -0.5 -0.1691176444 2.348204041e-38
-0.0137581341 -0.4835713804 -0.1717389971 2.348204041e-38
-0.1104357466 -0.2328861803 -0.28125 2.348204041e-38
0.337500006 -0.0625 0.1374999881 2.348204041e-38
0.08255345374 -0.5 0.1437165439 2.348204041e-38
0.2337570637 -0.4999999702 -0.2584745586 2.348204041e-38
0.1380802542 -0.4009281397 0.1120479852 2.348204041e-38
-0.2020494342 0.0625 0.01084841322 2.348204041e-38
0.01249998808 -0.3749999702 0.15625 2.348204041e-38
-0.4218002856 -0.1403441429 -0.28125 2.348204041e-38
-0.3125 -0.5 0.15625 2.348204041e-38
-0.1875 -0.4375 0.21875 2.348204041e-38
-0.04298300669 -0.4716706574 -0.2611771822 2.348204041e-38
