# .PCD v0.7 - Point Cloud Data file format
VERSION 0.7
FIELDS x y z rgb
SIZE 4 4 4 4
TYPE F F F F
COUNT 1 1 1 1
WIDTH 905
HEIGHT 1
VIEWPOINT 0 0 0 1 0 0 0
POINTS 905
DATA ascii
0.1999999881 -0.474999994 -0.1125000119 1.184631237e-38
-0.0625 -0.53125 0.141707629 1.184631237e-38
-0.07597076148 -0.2077787519 0.1730846167 1.184631237e-38
-0.05110774934 -0.4836086333 0.1723553091 1.184631237e-38
-0.0625 -0.2650096714 0.01629221067 1.184631237e-38
0.15625 -0.53125 0.25 1.184631237e-38
-0.05039687827 -0.4822219014 -0.1416855454 1.184631237e-38
0.1625000238 -0.162499994 -0.162499994 1.184631237e-38
-0.0625 -0.412499994 0.1499999762 1.184631237e-38
0.3769237399 -0.28125 0.2861967683 1.184631237e-38
-0.0625 -0.412499994 -0.09999999404 1.184631237e-38
-0.09375 -0.2067077458 -0.1122093797 1.184631237e-38
-0.09375 -0.15625 0.1875 1.184631237e-38
0.1999999881 -0.4875000119 -0.1125000119 1.184631237e-38
-0.0625 -0.375 0.1875 1.184631237e-38
-0.06129742786 -0.265963912 0.3153377771 1.184631237e-38
-0.09375 -0.3125 0.375 1.184631237e-38
-0.05000001192 -0.3249999881 -0.162499994 1.184631237e-38
0.3874999881 -0.337500006 0.2250000238 1.184631237e-38
0.05000001192 -0.4875000119 -0.150000006 1.184631237e-38
0.108772032 -0.46875 0.2021947056 1.184631237e-38
-0.09999999404 -0.462500006 -0.162499994 1.184631237e-38
-0.07499998808 -0.462500006 0.3374999762 1.184631237e-38
-0.0625 -0.4250000119 0.3125 1.184631237e-38
-0.07499998808 -0.4499999881 0.1374999881 1.184631237e-38
0.01249998808 -0.4875000119 0.1875 1.184631237e-38
0.1097421944 -0.5 0.1096209958 1.184631237e-38
0.1750000119 -0.4875000119 0 1.184631237e-38
-0.03749999404 -0.150000006 0.3000000119 1.184631237e-38
-0.125 -0.4579812884 -0.1642046273 1.184631237e-38
0.1719632894 -0.5 0.2034537047 1.184631237e-38
0.01548201405 -0.4876268506 0.1406264305 1.184631237e-38
-0.07499998808 -0.3249999881 0.03750002384 1.184631237e-38
-0.05635391921 -0.4582823515 0.2972671092 1.184631237e-38
-0.09375 -0.3917686045 -0.07739518583 1.184631237e-38
0.3004002869 -0.4388201535 -0.1563439816 1.184631237e-38
-0.09648054838 -0.4221938252 -0.143456623 1.184631237e-38
0.2624999881 -0.400000006 -0.08750000596 1.184631237e-38
-0.09374999255 -0.3582730591 0.04732246697 1.184631237e-38
-0.04464285076 -0.1482142955 0.3125 1.184631237e-38
0.2322149128 -0.1494916081 -0.15625 1.184631237e-38
0.1103500128 -0.467862159 -0.1630911678 1.184631237e-38
0.1103504822 -0.4867289066 -0.04664578289 1.184631237e-38
-0.0625 -0.2375000119 -0.125 1.184631237e-38
0.1750000119 -0.4499999881 -0.125 1.184631237e-38
-0.09375 -0.53125 0.2989372909 1.184631237e-38
0.2749999762 -0.400000006 -0.125 1.184631237e-38
0.1093253568 -0.46875 0.04662102833 1.184631237e-38
0.125 -0.3958333433 -0.162499994 1.184631237e-38
0.375 -0.3875000179 -0.09375 1.184631237e-38
0.1875 -0.4875000119 0.2749999762 1.184631237e-38
0.3125 -0.4499999881 -0.1374999881 1.184631237e-38
0.07499998808 -0.4875000119 0.3500000238 1.184631237e-38
0.1404595971 -0.4686320126 -0.07774697989 1.184631237e-38
-0.07691945881 -0.5046802759 0.2357667387 1.184631237e-38
0.2632450759 -0.4144316316 -0.1596287787 1.184631237e-38
0.3828066289 -0.3080585003 0.2893829346 1.184631237e-38
0.08749997616 -0.4875000119 0.1374999881 1.184631237e-38
0.2778425813 -0.4064454138 -0.05797821656 1.184631237e-38
-0.07635778934 -0.2053808719 0.07710921764 1.184631237e-38
-0.07499998808 -0.400000006 -0.09999999404 1.184631237e-38
-0.0625 -0.4875000119 0.2749999762 1.184631237e-38
0.2124999762 -0.4499999881 -0.09999999404 1.184631237e-38
0.2749999762 -0.375 -0.1125000119 1.184631237e-38
0.07694004476 -0.4866042435 0.2970238328 2.348204041e-38
-0.0625 -0.2624999881 -0.150000006 2.348204041e-38
-0.07499998808 -0.3249999881 0.125 2.348204041e-38
0.01479797997 -0.4871383607 0.2024109513 2.348204041e-38
0.375 -0.3249999881 0.2624999881 2.348204041e-38
-0.125 -0.2601484656 -0.15625 2.348204041e-38
-0.0625 -0.3270001411 0.294574976 2.348204041e-38
-0.01576009206 -0.4874838591 0.1094810218 2.348204041e-38
-0.07499998808 -0.3249999881 0.2124999762 2.348204041e-38
0.1713939756 -0.5 -0.1101512536 2.348204041e-38
0.125 -0.4875000119 -0.125 2.348204041e-38
-0.05087395757 -0.4836354852 0.2031881809 2.348204041e-38
0.07787886262 -0.4866521657 0.0158495456 2.348204041e-38
-0.07499998808 -0.162499994 0.0625 2.348204041e-38
0.1731556803 -0.2032244653 -0.1875 2.348204041e-38
0.1467191428 -0.4603037834 -0.1433555633 2.348204041e-38
-0.06239858642 -0.2975985706 0.1408692896 2.348204041e-38
0.2645299733 -0.3848936558 -0.1875 2.348204041e-38
0.3000000119 -0.375 -0.05000001192 2.348204041e-38
-0.1625000089 -0.1875000149 -0.125 2.348204041e-38
0.139446184 -0.500539422 -0.1412625015 2.348204041e-38
-0.125 -0.4875000119 0.1750000119 2.348204041e-38
-0.08750000596 -0.1875 0.2250000238 2.348204041e-38
0.1395334601 -0.4687500298 0.07741393149 2.348204041e-38
-0.06207964569 -0.265984267 -0.1109722257 2.348204041e-38
0.231772691 -0.1552632302 -0.1874999851 2.348204041e-38
0.2624999881 -0.400000006 -0.162499994 2.348204041e-38
0.164634347 -0.5 0.3173121512 2.348204041e-38
-0.0625 -0.162499994 0.05000001192 2.348204041e-38
-0.101392068 -0.5033080578 -0.110327296 2.348204041e-38
-0.07434082031 -0.1785687953 -0.04098822549 2.348204041e-38
-0.07499998808 -0.2624999881 -0.07499998808 2.348204041e-38
-0.07499998808 -0.3249999881 0.2624999881 2.348204041e-38
0.2329849303 -0.3289847076 -0.1560169607 2.348204041e-38
0.221064806 -0.5 -0.04038125277 2.348204041e-38
0.1374999881 -0.4875000119 -0.02500000596 2.348204041e-38
0.1125000119 -0.4875000119 0.1374999881 2.348204041e-38
-0.07499998808 -0.224999994 0.1000000238 2.348204041e-38
-0.1125000119 -0.4875000119 0.1625000238 2.348204041e-38
0.4250000119 -0.25 0.25 2.348204041e-38
-0.125 -0.2240417451 -0.1875 2.348204041e-38
-0.09375 -0.2345744222 -0.01489209663 2.348204041e-38
-0.07499998808 -0.462500006 0.2875000238 2.348204041e-38
-0.0625 -0.349999994 -0.08750000596 2.348204041e-38
-0.07499998808 -0.337500006 0.08749997616 2.348204041e-38
0.07499998808 -0.4875000119 -0.125 2.348204041e-38
0.3486842215 -0.46875 -0.162499994 2.348204041e-38
-0.07587355375 -0.3587079048 0.04722172394 2.348204041e-38
-0.07601554692 -0.4824482203 -0.07726842165 2.348204041e-38
0.1994635761 -0.4519001544 -0.1421137601 2.348204041e-38
-0.02500000596 -0.4499999881 -0.150000006 2.348204041e-38
0.1755422652 -0.4543793201 -0.1425836533 2.348204041e-38
-0.0625 -0.4250000119 0.375 2.348204041e-38
-0.0625 -0.3874999881 0.2749999762 2.348204041e-38
0.01484544855 -0.5000000596 0.01594841108 2.348204041e-38
0.1875 -0.4875000119 0.2375000119 2.348204041e-38
-0.07499998808 -0.4375 0.3500000238 2.348204041e-38
-0.0761795789 -0.42214486 0.2963230908 2.348204041e-38
-0.07499998808 -0.349999994 -0.125 2.348204041e-38
0.1104303971 -0.4867837727 -0.1095026657 2.348204041e-38
-0.15625 -0.5 0.02271394432 2.348204041e-38
0.261300981 -0.2656333148 -0.1875000149 2.348204041e-38
-0.0625 -0.4875000119 -0.02500000596 2.348204041e-38
-0.06250000745 -0.4226368964 0.2033525407 2.348204041e-38
-0.07611057162 -0.4212350845 0.1410075277 2.348204041e-38
0.4250000119 -0.3249999881 0.1999999881 2.348204041e-38
0.4120168984 -0.3042006493 0.1854406595 2.348204041e-38
0.325820148 -0.4415515065 -0.1573937982 2.348204041e-38
-0.0625 -0.125 0.125 2.348204041e-38
-0.02188148163 -0.4589828253 -0.1466825157 2.348204041e-38
-0.0625 -0.349999994 -0.162499994 2.348204041e-38
0.07499998808 -0.4875000119 0.3874999881 2.348204041e-38
-0.02828205377 -0.4221631885 -0.1604959667 2.348204041e-38
-0.0625 -0.3249999881 0.2124999762 2.348204041e-38
-0.0625 -0.2624999881 0.1625000238 2.348204041e-38
0.15625 -0.53125 0.125 2.348204041e-38
0.1875 -0.3249999881 -0.162499994 2.348204041e-38
-0.0625 -0.3249999881 0.1875 2.348204041e-38
-0.05161040276 -0.4836009443 -0.1101991013 2.348204041e-38
-0.07499998808 -0.3874999881 0.3625000119 2.348204041e-38
0.3000000119 -0.375 -0.125 2.348204041e-38
0.156003356 -0.125 -0.156619966 2.348204041e-38
-0.0625 -0.1875 -0.0625 2.348204041e-38
-0.0625 -0.4875000119 0.1499999762 2.348204041e-38
0.1875 -0.4875000119 -0.09999999404 2.348204041e-38
-0.07499998808 -0.4250000119 0.1499999762 2.348204041e-38
-0.1125000119 -0.4875000119 -0.01249998808 2.348204041e-38
-0.162499994 -0.1750000119 -0.162499994 2.348204041e-38
-0.02500000596 -0.3625000119 -0.162499994 2.348204041e-38
0.125 -0.4875000119 -0.01249998808 2.348204041e-38
-0.0625 -0.53125 0.1724884212 2.348204041e-38
-0.09375 -0.4218361378 -0.1102022901 2.348204041e-38
-0.05267297104 -0.4842563868 -0.01551950071 2.348204041e-38
0.2124999762 -0.4875000119 0.2375000119 2.348204041e-38
0.3125 -0.1875 -0.1875 2.348204041e-38
-0.0758426711 -0.4230031371 0.3252321482 2.348204041e-38
-0.0625 -0.4224787951 0.2649809718 2.348204041e-38
0.125 -0.4924536347 0.4062499702 2.348204041e-38
-0.0625 -0.1785753369 -0.04097217321 2.348204041e-38
-0.07499998808 -0.25 0.0625 2.348204041e-38
-0.0625 -0.1875 -0.05000001192 2.348204041e-38
-0.105955027 -0.5026702881 0.2972287834 2.348204041e-38
0.3125 -0.1875 -0.15625 2.348204041e-38
-0.07513201237 -0.1854019165 0.2350597829 2.348204041e-38
-0.0625 -0.4250000119 0.2124999762 2.348204041e-38
0.2030076832 -0.3641990423 -0.1485623866 2.348204041e-38
-0.07569213212 -0.53125 0.01264117472 2.348204041e-38
0.1393820643 -0.4864007235 -0.0465797931 2.348204041e-38
-0.07499998808 -0.1875 0.0625 2.348204041e-38
0.2273067534 -0.46875 0.1751901656 2.348204041e-38
-0.125 -0.2250000089 0.1625000238 2.348204041e-38
-0.07499998808 -0.474999994 0.1875 2.348204041e-38
0.2341520339 -0.2357507497 -0.1875 2.348204041e-38
0.3139409423 -0.4385036826 -0.1177282259 2.348204041e-38
0.28125 -0.1525759548 -0.1562499851 2.348204041e-38
-0.07499998808 -0.400000006 0.2624999881 2.348204041e-38
-0.07499998808 -0.3625000119 0.1625000238 2.348204041e-38
-0.07499998808 -0.412499994 0.07499998808 2.348204041e-38
-0.0625 -0.474999994 0.1000000238 2.348204041e-38
-0.125 -0.46875 -0.04279352725 2.348204041e-38
0 -0.2125000209 -0.125 2.348204041e-38
-0.07598731667 -0.2974381149 0.01571976766 2.348204041e-38
-0.03125 -0.1854276508 0.2112895399 2.348204041e-38
-0.07618585974 -0.4828248024 0.1408092231 2.348204041e-38
0.09681642056 -0.4687499702 0.40625 2.348204041e-38
0.259850651 -0.2371555567 -0.1874999851 2.348204041e-38
-0.07499998808 -0.2624999881 0.1875 2.348204041e-38
0.2329061031 -0.1747408509 -0.1875 2.348204041e-38
0.34375 -0.34375 0.25 2.348204041e-38
-0.0625 -0.2624999881 0.3125 2.348204041e-38
0.1499999762 -0.212500006 -0.162499994 2.348204041e-38
-0.0625 -0.412499994 -0.02500000596 2.348204041e-38
-0.03086682037 -0.2350285053 -0.1874999851 2.348204041e-38
0.2377637625 -0.3860253096 -0.08883173764 2.348204041e-38
-0.05208963901 -0.5034031868 -0.04658680782 2.348204041e-38
0.04724080116 -0.5 -0.04705825076 2.348204041e-38
-0.07499998808 -0.4875000119 0.2749999762 2.348204041e-38
0.1875 -0.4375 -0.125 2.348204041e-38
-0.09375 -0.4216639996 0.2351813316 2.348204041e-38
0.04675368965 -0.46875 0.0167817995 2.348204041e-38
0.125 -0.150000006 -0.125 2.348204041e-38
-0.09999999404 -0.375 -0.162499994 2.348204041e-38
0.3374999762 -0.375 -0.1125000119 2.348204041e-38
-0.03125 -0.125 0.3125 2.348204041e-38
-0.09375000745 -0.2988145351 0.294333756 2.348204041e-38
-0.1125000119 -0.150000006 -0.162499994 2.348204041e-38
-0.0625 -0.1756294817 0.01594830491 2.348204041e-38
0.4375 -0.34375 0.1875 2.348204041e-38
-0.09375 -0.3287712336 0.2354717851 2.348204041e-38
0.1092216223 -0.4861930013 0.2022909969 2.348204041e-38
-0.0625 -0.3125 -0.02500000596 2.348204041e-38
-0.15625 -0.5 0.1707505733 2.348204041e-38
0.21875 -0.5 -0.15625 2.348204041e-38
-0.07499998808 -0.4875000119 -0.1374999881 2.348204041e-38
-0.0625 -0.4875000119 0.1000000238 2.348204041e-38
-0.0625 -0.287499994 -0.0625 2.348204041e-38
-0.0625 -0.3000000119 0.05000001192 2.348204041e-38
-0.1008074135 -0.5039029121 -0.04698306695 2.348204041e-38
-0.1875 -0.4994548857 0.3584560156 2.348204041e-38
-0.1125000119 -0.1374999881 -0.162499994 2.348204041e-38
-0.07612654567 -0.3594635129 0.2642421722 2.348204041e-38
0.1559423059 -0.125 -0.1558192372 2.348204041e-38
-0.07499998808 -0.212500006 0.0625 2.348204041e-38
-0.07221381366 -0.1817740053 -0.1158411577 2.348204041e-38
0.1955258399 -0.4999999702 -0.01578867808 2.348204041e-38
0.09375 -0.53125 0.0625 2.348204041e-38
-0.06114702299 -0.156153366 -0.1203678101 2.348204041e-38
0.3193842769 -0.4375 -0.08743941784 2.348204041e-38
-0.08750000596 -0.212500006 0.2375000119 2.348204041e-38
0.0625 -0.4875000119 0.08749997616 2.348204041e-38
-0.07499998808 -0.287499994 -0.02500000596 2.348204041e-38
-0.07499998808 -0.412499994 -0.125 2.348204041e-38
-0.0625 -0.53125 0.3245985806 2.348204041e-38
-0.0625 -0.3906322122 0.1714199036 2.348204041e-38
-0.02500000596 -0.4875000119 -0.08750000596 2.348204041e-38
-0.07499998808 -0.4375 -0.125 2.348204041e-38
-0.07448399812 -0.1844282597 0.2866420448 2.348204041e-38
0.1999999881 -0.1750000119 -0.162499994 2.348204041e-38
0.3442154229 -0.4099733531 -0.1875 2.348204041e-38
-0.0625 -0.400000006 0.1750000119 2.348204041e-38
0 -0.4270833731 -0.125 2.348204041e-38
-0.0625 -0.3249999881 0.3500000238 2.348204041e-38
-0.07607121766 -0.3277333081 0.2641801834 2.348204041e-38
0 -0.2648096085 -0.156863898 2.348204041e-38
0.1875 -0.4875000119 -0.03749999404 2.348204041e-38
-0.09374999255 -0.53125 0.2005443126 2.348204041e-38
-0.09375000745 -0.1530916691 0.2621474564 2.348204041e-38
-0.05000001192 -0.4875000119 0.1499999762 2.348204041e-38
-0.09388525039 -0.2351661623 0.2917521 2.348204041e-38
-0.0625 -0.287499994 -0.08750000596 2.348204041e-38
0.1935822964 -0.5 -0.07851567119 2.348204041e-38
-0.07499998808 -0.462500006 -0.1125000119 2.348204041e-38
-0.03749999404 -0.4875000119 0.1875 2.348204041e-38
-0.09375 -0.1823217571 0.2862050831 2.348204041e-38
-0.07589741051 -0.3595272601 0.2036087811 2.348204041e-38
0.375 -0.3249999881 0.2250000238 2.348204041e-38
-0.1354070455 -0.5 0.3794535697 2.348204041e-38
-0.07499998808 -0.400000006 0.1625000238 2.348204041e-38
-0.06249999627 -0.4251086712 0.3529004753 2.348204041e-38
-0.09374999255 -0.2624999881 0.3437499702 2.348204041e-38
-0.07627846301 -0.3910512328 0.2649091184 2.348204041e-38
-0.0625 -0.4375 -0.1125000119 2.348204041e-38
0.3342164755 -0.4687500298 -0.1608647555 2.348204041e-38
-0.0625 -0.2375000119 -0.02500000596 2.348204041e-38
-0.0625 -0.3625000119 0.1000000238 2.348204041e-38
0.1999999881 -0.3625000119 -0.162499994 2.348204041e-38
0.1105721742 -0.4999999702 -0.1097833961 2.348204041e-38
-0.5054465532 -0.1508089453 -0.15625 2.348204041e-38
0.2331031561 -0.1748481095 -0.1657021642 2.348204041e-38
-0.07499998808 -0.4875000119 0.0625 2.348204041e-38
-0.07499998808 -0.3000000119 -0.162499994 2.348204041e-38
-0.07499998808 -0.3625000119 0.1750000119 2.348204041e-38
-0.05000001192 -0.375 -0.162499994 2.348204041e-38
-0.0762309283 -0.45630759 0.3256299198 2.348204041e-38
-0.0625 -0.212500006 0.125 2.348204041e-38
-0.02962477691 -0.2039368898 -0.1548761278 2.348204041e-38
-0.07499998808 -0.1999999881 0.2124999762 2.348204041e-38
-0.07499998808 -0.4499999881 0.01249998808 2.348204041e-38
-0.0625 -0.375 -0.09999999404 2.348204041e-38
0.319372952 -0.365368247 -0.1612320989 2.348204041e-38
-0.07499998808 -0.400000006 0.2875000238 2.348204041e-38
-0.0625 -0.4250000119 0.3500000238 2.348204041e-38
0.125 -0.4317825437 -0.1581558436 2.348204041e-38
-0.1393050849 -0.4999999702 0.4062499702 2.348204041e-38
0.4074600637 -0.34375 0.2820566893 2.348204041e-38
0.1727132648 -0.480674088 -0.1416645199 2.348204041e-38
-0.1875 -0.1586538404 -0.125 2.348204041e-38
-0.4687500596 -0.1532427967 -0.1654421687 2.348204041e-38
-0.5016046166 -0.220656395 -0.165939495 2.348204041e-38
-0.07499998808 -0.349999994 0.01249998808 2.348204041e-38
-0.07499998808 -0.462500006 -0.09999999404 2.348204041e-38
-0.07386936247 -0.53125 -0.112576887 2.348204041e-38
-0.07499998808 -0.4875000119 0.1374999881 2.348204041e-38
-0.01550836861 -0.4869313836 0.2976188064 2.348204041e-38
0.07751899958 -0.5001288056 0.07835514843 2.348204041e-38
-0.1875 -0.5 0.375 2.348204041e-38
0.25 -0.3125 -0.162499994 2.348204041e-38
0.1988714039 -0.4518081844 -0.1587158889 2.348204041e-38
0.2375000119 -0.3125 -0.162499994 2.348204041e-38
-0.0625 -0.275000006 0.02499997616 2.348204041e-38
-0.07637795806 -0.4829065502 0.0468564108 2.348204041e-38
-0.0625 -0.2039153129 0.04624436796 2.348204041e-38
-0.05000001192 -0.4875000119 0.3625000119 2.348204041e-38
-0.0625 -0.412499994 0.3000000119 2.348204041e-38
-0.53125 -0.15625 -0.15625 2.348204041e-38
-0.07499998808 -0.3249999881 0.2749999762 2.348204041e-38
-0.1039906144 -0.5033233762 0.236350581 2.348204041e-38
-0.07499998808 -0.287499994 -0.09999999404 2.348204041e-38
0.1999999881 -0.4875000119 0.1499999762 2.348204041e-38
-0.03749999404 -0.224999994 0.2875000238 2.348204041e-38
-0.0625 -0.25 0.125 2.348204041e-38
-0.09375 -0.3283166587 0.01538132876 2.348204041e-38
0.1091638952 -0.4687500298 0.1409591287 2.348204041e-38
-0.07420110703 -0.2654456496 -0.1618338376 2.348204041e-38
0.25 -0.1875 -0.162499994 2.348204041e-38
-0.01524139382 -0.487393856 0.3265972733 2.348204041e-38
0.1000000238 -0.4875000119 0.2250000238 2.348204041e-38
-0.0625 -0.359572053 0.0157419797 2.348204041e-38
0.19559066 -0.485842526 0.0145064583 2.348204041e-38
0.2332869917 -0.2034488022 -0.1662303358 2.348204041e-38
-0.0625 -0.224999994 -0.03749999404 2.348204041e-38
0.0460915193 -0.46875 0.1723991036 2.348204041e-38
0.25 -0.5 0.01740766875 2.348204041e-38
0.2609476745 -0.2365443408 -0.166521132 2.348204041e-38
0.1958575994 -0.4685011506 -0.04542155936 2.348204041e-38
-0.0625 -0.1999999881 0.1374999881 2.348204041e-38
0.07701779157 -0.4687500298 -0.1411627829 2.348204041e-38
-0.07499998808 -0.400000006 0.02499997616 2.348204041e-38
-0.05038157105 -0.5021900535 0.1100278795 2.348204041e-38
0.3125 -0.46875 -0.1571398079 2.348204041e-38
0.4375 -0.28125 0.15625 2.348204041e-38
0.4125000238 -0.3249999881 0.2124999762 2.348204041e-38
-0.0625 -0.412499994 -0.1125000119 2.348204041e-38
-0.05227283016 -0.4839687943 -0.077834934 2.348204041e-38
0.2821457684 -0.2093849331 -0.1875 2.348204041e-38
-0.05438524485 -0.2995333672 -0.1875 2.348204041e-38
-0.1703804284 -0.1249999925 -0.1608695537 2.348204041e-38
0.04696622863 -0.46875 -0.1634702086 2.348204041e-38
0.34375 -0.34375 0.2422038317 2.348204041e-38
-0.0725286454 -0.46875 0.4062500298 2.348204041e-38
0.01249998808 -0.4875000119 -0.1374999881 2.348204041e-38
-0.01766463742 -0.4843117595 -0.1424075365 2.348204041e-38
-0.07499998808 -0.3625000119 -0.08750000596 2.348204041e-38
-0.0625 -0.2624999881 0.3374999762 2.348204041e-38
-0.09375 -0.3281705678 0.171996206 2.348204041e-38
-0.0625 -0.287499994 0.1000000238 2.348204041e-38
-0.0625 -0.4375 0.1875 2.348204041e-38
-0.5051099062 -0.1989119202 -0.15625 2.348204041e-38
-0.46875 -0.1684241444 -0.1636289209 2.348204041e-38
-0.03749999404 -0.224999994 0.2375000119 2.348204041e-38
-0.0625 -0.1999999881 0.05000001192 2.348204041e-38
0.2749999762 -0.224999994 -0.162499994 2.348204041e-38
-0.0625 -0.3000000119 0.2124999762 2.348204041e-38
0.1750000119 -0.4875000119 0.1374999881 2.348204041e-38
-0.07574830949 -0.297242552 0.1404790431 2.348204041e-38
-0.08750000596 -0.224999994 -0.162499994 2.348204041e-38
-0.07605302334 -0.4825211763 -0.04658771306 2.348204041e-38
-0.0625 -0.3249999881 0.1374999881 2.348204041e-38
-0.0625 -0.4215040207 0.1095764935 2.348204041e-38
-0.07499998808 -0.462500006 0.375 2.348204041e-38
0.3284090757 -0.4375 -0.0625 2.348204041e-38
-0.05000001192 -0.4875000119 -0.0625 2.348204041e-38
0.3783885837 -0.3081432283 0.3185510337 2.348204041e-38
0.2219934762 -0.474096328 -0.1437409669 2.348204041e-38
0.03125 -0.53125 0.0625 2.348204041e-38
-0.08750000596 -0.1875 0.25 2.348204041e-38
-0.5 -0.25 -0.15625 2.348204041e-38
0.25 -0.46875 0.25 2.348204041e-38
-0.07499998808 -0.2624999881 0.125 2.348204041e-38
-0.07499998808 -0.3625000119 0.1000000238 2.348204041e-38
0.1000000238 -0.4875000119 0.3625000119 2.348204041e-38
0.3236151636 -0.4115144014 -0.1128801554 2.348204041e-38
-0.0625 -0.474999994 -0.150000006 2.348204041e-38
0.01249998808 -0.4875000119 0.2250000238 2.348204041e-38
-0.0625 -0.224999994 0.2749999762 2.348204041e-38
-0.09999999404 -0.4875000119 0.03750002384 2.348204041e-38
0.3125 -0.375 -0.09999999404 2.348204041e-38
0.21875 -0.5 -0.144321844 2.348204041e-38
-0.07604276389 -0.2653835416 0.0159204714 2.348204041e-38
-0.08750000596 -0.1875 -0.162499994 2.348204041e-38
-0.0625 -0.1750000119 0.08749997616 2.348204041e-38
0.08749997616 -0.4875000119 0.3999999762 2.348204041e-38
-0.1875 -0.1588541567 -0.1875 2.348204041e-38
-0.03125 -0.53125 0 2.348204041e-38
-0.09999999404 -0.4875000119 0.1625000238 2.348204041e-38
0.01511757821 -0.487628758 0.2649136484 2.348204041e-38
-0.03124999814 -0.1562499851 0.2124999613 2.348204041e-38
-0.07499998808 -0.462500006 0.3500000238 2.348204041e-38
-0.09639634192 -0.3306027055 -0.1875 2.348204041e-38
-0.0625 -0.337500006 0.2375000119 2.348204041e-38
-0.0625 -0.3275409043 0.1086549461 2.348204041e-38
0.05000001192 -0.4875000119 0.2124999762 2.348204041e-38
0.1714345366 -0.2964345217 -0.125 2.348204041e-38
0.1999999881 -0.4499999881 -0.125 2.348204041e-38
0.01574167237 -0.5 -0.1875 2.348204041e-38
-0.05355660617 -0.1531630307 -0.1500434279 2.348204041e-38
0.2218385786 -0.4838652313 0.04430364817 2.348204041e-38
-0.0625 -0.53125 0.375 2.348204041e-38
-0.07499998808 -0.4250000119 0.2875000238 2.348204041e-38
-0.1566675752 -0.46875 0.3517882526 2.348204041e-38
0.03750002384 -0.4875000119 0.4125000238 2.348204041e-38
-0.1875 -0.46875 0.34375 2.348204041e-38
-0.0625 -0.224999994 -0.07499998808 2.348204041e-38
-0.0625 -0.1750000119 0.03750002384 2.348204041e-38
-0.03125 -0.1861979067 0.1796875149 2.348204041e-38
-0.09862275422 -0.4842498004 -0.04668350145 2.348204041e-38
-0.07698018849 -0.5032402277 0.3259101808 2.348204041e-38
0.25 -0.46875 -0.125 2.348204041e-38
-0.07499998808 -0.1999999881 -0.01249998808 2.348204041e-38
-0.0625 -0.3125 -0.0625 2.348204041e-38
0.125 -0.4875000119 -0.05000001192 2.348204041e-38
0.2297401577 -0.4181110561 -0.1436988711 2.348204041e-38
0.1750000119 -0.3874999881 -0.162499994 2.348204041e-38
-0.02500000596 -0.212500006 -0.150000006 2.348204041e-38
-0.09375 -0.1550576687 0.25 2.348204041e-38
-0.07425190508 -0.2356615812 -0.16237019 2.348204041e-38
0.2617589235 -0.2650958002 -0.1672395617 2.348204041e-38
-0.02500000596 -0.4875000119 0.2624999881 2.348204041e-38
0.05000001192 -0.4875000119 0.125 2.348204041e-38
-0.07499998808 -0.337500006 -0.08750000596 2.348204041e-38
0.2190117389 -0.4572562873 -0.08725045621 2.348204041e-38
0.07966344059 -0.46875 -0.078108266 2.348204041e-38
-0.07581112534 -0.4222419262 -0.04653699324 2.348204041e-38
-0.0625 -0.125 0.09868423641 2.348204041e-38
-0.03749999404 -0.4875000119 0.1625000238 2.348204041e-38
-0.01475297473 -0.5 0.2340938151 2.348204041e-38
0.3226881921 -0.375 -0.1114979535 2.348204041e-38
0.375 -0.46875 -0.15625 2.348204041e-38
-0.0625 -0.3625000119 0.3000000119 2.348204041e-38
-0.06499999762 -0.3125 0.375 2.348204041e-38
-0.0625 -0.224999994 -0.162499994 2.348204041e-38
-0.15625 -0.5 0.2377923578 2.348204041e-38
0 -0.3902733326 -0.1570366621 2.348204041e-38
0.375 -0.4562499821 -0.15625 2.348204041e-38
-0.03749999404 -0.4375 -0.150000006 2.348204041e-38
-0.01449861377 -0.500099957 0.04782067612 2.348204041e-38
-0.08750000596 -0.212500006 0.2250000238 2.348204041e-38
-0.125 -0.2250000089 0.3000000119 2.348204041e-38
-0.07499998808 -0.4875000119 -0.0625 2.348204041e-38
0.3437499702 -0.2974999845 0.3437499702 2.348204041e-38
-0.07499998808 -0.1999999881 -0.162499994 2.348204041e-38
-0.0625 -0.462500006 0.1750000119 2.348204041e-38
0.1697341949 -0.4687500298 0.2637716532 2.348204041e-38
-0.05000001192 -0.212500006 -0.162499994 2.348204041e-38
-0.07499998808 -0.275000006 0.2250000238 2.348204041e-38
-0.03749999404 -0.4875000119 -0.125 2.348204041e-38
-0.09375 -0.2358632833 -0.04583963007 2.348204041e-38
-0.0625 -0.3249999881 0.0625 2.348204041e-38
-0.08750000596 -0.1875 0.2124999762 2.348204041e-38
0 -0.3274315298 -0.1554502994 2.348204041e-38
0.1559699327 -0.53125 -0.0002800571965 2.348204041e-38
0.1806655377 -0.4242388606 -0.1219041497 2.348204041e-38
-0.0625 -0.4250000119 0.2375000119 2.348204041e-38
0.3000000119 -0.2624999881 -0.162499994 2.348204041e-38
0.2938628793 -0.3294132948 -0.1654419005 2.348204041e-38
-0.09375000745 -0.236846149 -0.07741930336 2.348204041e-38
0.1125000119 -0.4875000119 0.07499998808 2.348204041e-38
-0.05014635623 -0.5043683052 -0.1622917652 2.348204041e-38
-0.125 -0.46875 0.07987364382 2.348204041e-38
0.125 -0.53125 -0.15625 2.348204041e-38
-0.02500000596 -0.150000006 -0.150000006 2.348204041e-38
0.04626647383 -0.46875 0.04656179994 2.348204041e-38
0.0137851201 -0.4999999404 -0.04717906564 2.348204041e-38
-0.1298807859 -0.4927563369 0.2030158937 2.348204041e-38
-0.009176662192 -0.4687499702 0.4159052372 2.348204041e-38
-0.07499998808 -0.3625000119 0.1125000119 2.348204041e-38
-0.1039587781 -0.4845451713 0.2970157266 2.348204041e-38
-0.0625 -0.224999994 -0.125 2.348204041e-38
-0.0625 -0.400000006 0.2875000238 2.348204041e-38
-0.09375000745 -0.358602792 -0.1109453365 2.348204041e-38
-0.02500000596 -0.162499994 -0.150000006 2.348204041e-38
-0.07499998808 -0.474999994 0.1125000119 2.348204041e-38
-0.07499998808 -0.337500006 -0.162499994 2.348204041e-38
-0.07499998808 -0.4250000119 -0.01249998808 2.348204041e-38
0.2124999762 -0.462500006 -0.1125000119 2.348204041e-38
0.07767143101 -0.46875 0.1408283859 2.348204041e-38
0.2216065824 -0.4860975146 -0.01647570543 2.348204041e-38
-0.125 -0.46875 0.0148383379 2.348204041e-38
-0.07499998808 -0.224999994 0.2375000119 2.348204041e-38
-0.07623227686 -0.53125 0.1745089889 2.348204041e-38
-0.07499998808 -0.287499994 0 2.348204041e-38
-0.02500000596 -0.4875000119 0.1750000119 2.348204041e-38
0.1344256103 -0.4687499702 0.3204455972 2.348204041e-38
-0.03749999404 -0.4875000119 0.3000000119 2.348204041e-38
-0.15625 -0.5 0.1097459048 2.348204041e-38
0.1984115243 -0.4687499702 0.1730091125 2.348204041e-38
-0.05000001192 -0.4875000119 0.05000001192 2.348204041e-38
0.0625 -0.4875000119 -0.08750000596 2.348204041e-38
0.04726197571 -0.5001130104 0.0781057626 2.348204041e-38
0.1625000238 -0.4875000119 0.1625000238 2.348204041e-38
0.196765393 -0.4687499702 0.04620024562 2.348204041e-38
0.34375 -0.28125 0.15625 2.348204041e-38
-0.07499998808 -0.287499994 0.07499998808 2.348204041e-38
-0.02835734189 -0.2980363071 -0.1597966254 2.348204041e-38
-0.07499998808 -0.3874999881 0.2749999762 2.348204041e-38
0.1732369959 -0.2360066324 -0.1875 2.348204041e-38
-0.074918136 -0.2346006483 0.2639471889 2.348204041e-38
-0.0754288733 -0.4539372325 -0.110167399 2.348204041e-38
0.2959593236 -0.3677244186 -0.1457819939 2.348204041e-38
-0.1669643074 -0.1428571492 -0.1250000149 2.348204041e-38
-0.0625 -0.3625000119 -0.02500000596 2.348204041e-38
-0.0625 -0.400000006 0.3374999762 2.348204041e-38
-0.07550518215 -0.453217417 -0.1635898799 2.348204041e-38
-0.0625 -0.2047193199 -0.0441089198 2.348204041e-38
-0.09375 -0.3589834571 0.235085547 2.348204041e-38
-0.09375 -0.337500006 0.375 2.348204041e-38
-0.06231476367 -0.53125 0.01266275253 2.348204041e-38
-0.01522680651 -0.4868579507 0.04794801772 2.348204041e-38
-0.0625 -0.3273433745 0.01609976217 2.348204041e-38
0.1676034182 -0.4766933322 -0.1874999851 2.348204041e-38
0.4125000238 -0.3000000119 0.1750000119 2.348204041e-38
0.2675893307 -0.4067900479 -0.1875 2.348204041e-38
-0.0731613487 -0.125 0.01551607065 2.348204041e-38
-0.07501862943 -0.3272998929 -0.142165646 2.348204041e-38
-0.07590130717 -0.3278456628 -0.04736392573 2.348204041e-38
0.2932482362 -0.2972937822 -0.1663438827 2.348204041e-38
0.125 -0.4875000119 0.3125 2.348204041e-38
-0.09375 -0.125 -0.03125 2.348204041e-38
0.01449586544 -0.4889414907 -0.07729496807 2.348204041e-38
0.2015382946 -0.2966838479 -0.1654553115 2.348204041e-38
-0.0625 -0.3874999881 0.2375000119 2.348204041e-38
-0.0625 -0.474999994 -0.07499998808 2.348204041e-38
0.04701213911 -0.46875 0.3582164645 2.348204041e-38
0 -0.4875000119 0.2749999762 2.348204041e-38
-0.05423690379 -0.4223864079 -0.1453159302 2.348204041e-38
-0.07499998808 -0.1875 0.2124999762 2.348204041e-38
-0.0625 -0.4375 -0.09999999404 2.348204041e-38
-0.07895213366 -0.53125 0.1111582667 2.348204041e-38
0.3500000238 -0.375 -0.09999999404 2.348204041e-38
-0.07499998808 -0.25 0.03750002384 2.348204041e-38
0.03125 -0.53125 0.125 2.348204041e-38
-0.07426333427 -0.2038280964 -0.1436557621 2.348204041e-38
0.125 -0.4875000119 0.1625000238 2.348204041e-38
-0.07499998808 -0.4375 -0.01249998808 2.348204041e-38
-0.09667783231 -0.4569490552 0.110152252 2.348204041e-38
0.1625000238 -0.4875000119 0.2749999762 2.348204041e-38
-0.0625 -0.3249999881 -0.09999999404 2.348204041e-38
-0.07499998808 -0.349999994 -0.0625 2.348204041e-38
-0.07499998808 -0.1374999881 0.03750002384 2.348204041e-38
0.08749997616 -0.4875000119 0.2875000238 2.348204041e-38
0.1798329055 -0.3911258578 -0.1875 2.348204041e-38
-0.1344430149 -0.46875 0.2962310612 2.348204041e-38
0.1098853201 -0.5 0.2346950769 2.348204041e-38
-0.09375317395 -0.265152216 0.2025425583 2.348204041e-38
-0.03749999404 -0.275000006 -0.162499994 2.348204041e-38
-0.1004800647 -0.4829259217 -0.1417079717 2.348204041e-38
0.375 -0.34375 0.1875 2.348204041e-38
-0.07499998808 -0.275000006 0.25 2.348204041e-38
-0.09999999404 -0.4875000119 0.3249999881 2.348204041e-38
0.1000000238 -0.4875000119 0.1000000238 2.348204041e-38
-0.03125 -0.2244359106 0.1802633852 2.348204041e-38
0.1966759264 -0.5000004172 0.2612898052 2.348204041e-38
-0.09375000745 -0.3918511569 -0.04665467888 2.348204041e-38
-0.07499998808 -0.375 -0.1125000119 2.348204041e-38
0.2187500149 -0.4687500298 0.1091143116 2.348204041e-38
-0.09507290274 -0.297711581 -0.1416270137 2.348204041e-38
-0.5 -0.25 -0.15625 2.348204041e-38
0.03125 -0.53125 0.0625 2.348204041e-38
0.07692951709 -0.4863393009 0.2025295049 2.348204041e-38
-0.07499998808 -0.4499999881 0.3000000119 2.348204041e-38
0.1750000119 -0.4875000119 0.2124999762 2.348204041e-38
0.4375000298 -0.3104709983 0.186485514 2.348204041e-38
-0.0937877968 -0.2667397261 0.3127519786 2.348204041e-38
-0.07499998808 -0.2375000119 0.0625 2.348204041e-38
-0.07499998808 -0.2375000119 0.1374999881 2.348204041e-38
-0.07499998808 -0.4250000119 0.01249998808 2.348204041e-38
0.1625000238 -0.4875000119 0.02499997616 2.348204041e-38
-0.0625 -0.3277083337 0.3204970062 2.348204041e-38
0.3893947899 -0.3191358447 0.1863218844 2.348204041e-38
0.3249999881 -0.375 -0.1374999881 2.348204041e-38
-0.0625 -0.4875000119 -0.07499998808 2.348204041e-38
-0.0625 -0.474999994 0.1625000238 2.348204041e-38
-0.07499998808 -0.2375000119 0.07499998808 2.341805152e-38
0.01249998808 -0.4875000119 0.3000000119 2.341805152e-38
0.01554397959 -0.4687500596 0.07690162957 2.341805152e-38
-0.07597631961 -0.3917870522 0.2956438959 2.341805152e-38
0.375 -0.3249999881 0.1999999881 2.341805152e-38
-0.08750000596 -0.4250000119 -0.162499994 2.341805152e-38
0 -0.3275831342 -0.1565748751 2.341805152e-38
0.1750000119 -0.4875000119 -0.0625 2.341805152e-38
0.2023559362 -0.3581894934 -0.1875 2.341805152e-38
0.3874999881 -0.3000000119 0.3249999881 2.341805152e-38
0.3216142952 -0.4404123425 -0.1470236629 2.341805152e-38
-0.05057512969 -0.5026472211 0.1725039929 2.341805152e-38
-0.0625 -0.4499999881 -0.1374999881 2.341805152e-38
-0.09375 -0.3676470518 0.375 2.341805152e-38
-0.07499998808 -0.2624999881 -0.03749999404 2.341805152e-38
0.3000000119 -0.4375 -0.125 2.341805152e-38
-0.0625 -0.412499994 0.1000000238 2.341805152e-38
-0.0625 -0.3625000119 -0.08750000596 2.341805152e-38
-0.07499998808 -0.1999999881 0.02499997616 2.341805152e-38
-0.09374999255 -0.2655180395 0.2346162498 2.341805152e-38
0.08749997616 -0.4875000119 0.0625 2.341805152e-38
-0.07474659383 -0.3942892551 0.3486822546 2.341805152e-38
-0.09375 -0.1847845912 -0.1147324219 2.341805152e-38
0.25 -0.224999994 -0.162499994 2.341805152e-38
0.01422077324 -0.5001685023 0.2025390714 2.341805152e-38
0.4086796343 -0.34375 0.1875 2.341805152e-38
-0.0625 -0.3125 0.25 2.341805152e-38
0.04682444781 -0.4870663285 0.1407679915 2.341805152e-38
-0.06249999627 -0.3269179463 0.1404604167 2.341805152e-38
0.2016091794 -0.2353946269 -0.1666949391 2.341805152e-38
0 -0.4875000119 0.07499998808 2.341805152e-38
-0.07499998808 -0.3000000119 -0.09999999404 2.341805152e-38
-0.1125000119 -0.337500006 -0.162499994 2.341805152e-38
-0.07499998808 -0.375 0.25 2.341805152e-38
0.2250000238 -0.4499999881 -0.1374999881 2.341805152e-38
0.3779297173 -0.3125 0.34375 2.341805152e-38
0.2375000119 -0.275000006 -0.162499994 2.341805152e-38
0.3999999762 -0.337500006 0.25 2.341805152e-38
-0.07499998808 -0.3125 0.1625000238 2.341805152e-38
0.2241232097 -0.4741823077 -0.1567018777 2.341805152e-38
0.1417219192 -0.4833553135 -0.1622313559 2.341805152e-38
-0.05309318006 -0.3594974279 -0.1875 2.341805152e-38
-0.0625 -0.3874999881 0.3374999762 2.341805152e-38
0.125 -0.4875000119 -0.150000006 2.341805152e-38
-0.162499994 -0.162499994 -0.162499994 2.341805152e-38
0.3675888181 -0.3040401042 0.1861958206 2.341805152e-38
-0.01343541313 -0.4880372882 0.3856653273 2.341805152e-38
-0.0625 -0.3625000119 0.01249998808 2.341805152e-38
-0.05484060571 -0.3596461117 -0.1461317986 2.341805152e-38
0 -0.4875000119 0.2875000238 2.341805152e-38
0.07397458702 -0.5 0.3571560085 2.341805152e-38
-0.09375 -0.4045731425 0.375 2.341805152e-38
-0.0625 -0.4250000119 0.07499998808 2.341805152e-38
0.1738694608 -0.1501486301 -0.1633726358 2.341805152e-38
0.03125 -0.53125 0.0625 2.341805152e-38
-0.08750000596 -0.4875000119 0.1625000238 2.341805152e-38
-0.07621028274 -0.4829521179 0.1097905189 2.341805152e-38
-0.07499998808 -0.3000000119 0.1374999881 2.341805152e-38
-0.1357559264 -0.1677868664 -0.1558600366 2.341805152e-38
-0.0625 -0.3000000119 0.3125 2.341805152e-38
0.2522147 -0.4865432084 0.2049817443 2.341805152e-38
-0.060390044 -0.1854268909 0.262075007 2.341805152e-38
0.2624999881 -0.25 -0.162499994 2.341805152e-38
-0.0625 -0.3625000119 0.2124999762 2.341805152e-38
0.3661755323 -0.3045676649 0.2091278732 2.341805152e-38
0.109694384 -0.4867295921 0.140428707 2.341805152e-38
0.173162967 -0.1746544391 -0.1556408256 2.341805152e-38
0.34375 -0.40625 -0.03125 2.341805152e-38
-0.08750000596 -0.1875 0.2375000119 2.341805152e-38
0.0625 -0.4875000119 0.4125000238 2.341805152e-38
0.1125000119 -0.4875000119 0.0625 2.341805152e-38
0.3249999881 -0.4250000119 -0.08750000596 2.341805152e-38
-0.15625 -0.5 0.04970249161 2.341805152e-38
-0.06249999627 -0.1499999762 0.1249999925 2.341805152e-38
0.2906936705 -0.2376433313 -0.15625 2.341805152e-38
-0.01249998808 -0.4875000119 0.2375000119 2.341805152e-38
0.375 -0.4562500119 -0.162499994 2.341805152e-38
0.03125 -0.53125 0.375 2.341805152e-38
0.126663968 -0.4687499702 0.3513485491 2.341805152e-38
0.1000000238 -0.4875000119 -0.0625 2.341805152e-38
0.3500000238 -0.3000000119 0.1999999881 2.341805152e-38
0.01682417281 -0.46875 0.3877691627 2.341805152e-38
0.07859555632 -0.4869177639 -0.0149601344 2.341805152e-38
-0.03081474826 -0.2627592087 -0.1874999851 2.341805152e-38
0.2609160244 -0.4381926358 -0.1232999191 2.341805152e-38
0.3437500298 -0.2812500298 0.2614100575 2.341805152e-38
0.15625 -0.53125 0.25 2.341805152e-38
0.04462724924 -0.5 0.4146070778 2.341805152e-38
0.25 -0.5 -0.01596288383 2.341805152e-38
0 -0.3906250298 -0.125 2.341805152e-38
-0.09375 -0.3586649001 0.07836201787 2.341805152e-38
-0.0625 -0.150000006 -0.02500000596 2.341805152e-38
0.3865792155 -0.3064133525 0.2600594163 2.341805152e-38
-0.06237243488 -0.2974015772 0.1715306044 2.341805152e-38
-0.07499998808 -0.3125 0.25 2.341805152e-38
-0.0625 -0.287499994 -0.1125000119 2.341805152e-38
0.219702825 -0.46875 0.07569117844 2.341805152e-38
-0.05000001192 -0.4875000119 0.03750002384 2.341805152e-38
-0.07546431571 -0.3923451006 0.3243970573 2.341805152e-38
0.34375 -0.3984286189 -0.1875 2.341805152e-38
-0.07500243187 -0.206912607 -0.0770399943 2.341805152e-38
-0.07499998808 -0.1875 0.2749999762 2.341805152e-38
0.1399467289 -0.46875 0.04590304196 2.341805152e-38
0.2250000238 -0.3625000119 -0.162499994 2.341805152e-38
-0.07499998808 -0.1999999881 0.01249998808 2.341805152e-38
-0.0625 -0.21875 0.34375 2.341805152e-38
0.1397237331 -0.5008705854 0.01445650589 2.341805152e-38
-0.07499998808 -0.4250000119 0.2124999762 2.341805152e-38
0.1750000119 -0.1875 -0.150000006 2.341805152e-38
0.343965292 -0.4126659036 -0.1441953629 2.341805152e-38
0.01562255621 -0.4874685407 0.3873373866 2.341805152e-38
0.1625000238 -0.462500006 -0.150000006 2.341805152e-38
-0.09375000745 -0.1555424631 0.04454948008 2.341805152e-38
-0.0625 -0.275000006 0.3374999762 2.341805152e-38
-0.07499998808 -0.275000006 0.1625000238 2.341805152e-38
-0.0625 -0.3874999881 0.0625 2.341805152e-38
-0.07499998808 -0.2375000119 -0.162499994 2.341805152e-38
0.3151124716 -0.3308776617 -0.1562500149 2.341805152e-38
-0.01467130519 -0.5000953078 0.07795070112 2.341805152e-38
0.221068725 -0.4868261516 0.1099811867 2.341805152e-38
0.1749088764 -0.1249999925 -0.1565003991 2.341805152e-38
-0.02500000596 -0.4875000119 0.2250000238 2.341805152e-38
-0.08750000596 -0.25 -0.162499994 2.341805152e-38
-0.09375 -0.2061143517 -0.04419925809 2.341805152e-38
0.01530587766 -0.487875998 0.358741492 2.341805152e-38
0.0460793823 -0.46875 0.2656432688 2.341805152e-38
-0.09375 -0.2971348166 0.2023168057 2.341805152e-38
-0.0625 -0.3000000119 0.2875000238 2.341805152e-38
-0.0625 -0.1999999881 0.01249998808 2.341805152e-38
0.04633559287 -0.4869155288 0.2970740795 2.341805152e-38
0.2627106607 -0.3288583755 -0.1662313342 2.341805152e-38
-0.02500000596 -0.2624999881 -0.162499994 2.341805152e-38
0.1000000238 -0.474999994 -0.162499994 2.341805152e-38
-0.07499998808 -0.2624999881 0.1125000119 2.341805152e-38
0.0468596071 -0.4687500298 0.07824617624 2.341805152e-38
-0.0625 -0.3125 0.05000001192 2.341805152e-38
0.1722382009 -0.234824568 -0.1545250416 2.341805152e-38
0.375 -0.46875 -0.1875 2.341805152e-38
-0.09374999255 -0.3282539248 0.2641328275 2.341805152e-38
0.25 -0.5 -0.03125 2.341805152e-38
0.1875000149 -0.3000000119 -0.125 2.341805152e-38
0.1999999881 -0.4875000119 -0.03749999404 2.341805152e-38
-0.07499998808 -0.287499994 0.1000000238 2.341805152e-38
-0.07499998808 -0.412499994 -0.09999999404 2.341805152e-38
-0.02500000596 -0.375 -0.162499994 2.341805152e-38
-0.05759333447 -0.1552327722 -0.1875 2.341805152e-38
0.3625000119 -0.3000000119 0.2250000238 2.341805152e-38
-0.04962918907 -0.481109947 -0.1632245779 2.341805152e-38
-0.0625 -0.4375 -0.08750000596 2.341805152e-38
0.3784383535 -0.3131876588 0.316901058 2.341805152e-38
-0.09375000745 -0.204711169 0.04666380584 2.341805152e-38
-0.09375 -0.3913878202 0.2031414211 2.341805152e-38
0.1750000119 -0.162499994 -0.162499994 2.341805152e-38
-0.0625 -0.3000000119 -0.150000006 2.341805152e-38
0.2749999762 -0.3874999881 -0.125 2.341805152e-38
0.4120846987 -0.2805546522 0.2362620533 2.341805152e-38
-0.0625 -0.4499999881 0.1875 2.341805152e-38
0 -0.2111957073 -0.1582161784 2.341805152e-38
-0.07499998808 -0.474999994 0.05000001192 2.341805152e-38
-0.0625 -0.4375 -0.05000001192 2.341805152e-38
0.3041961789 -0.3915795088 -0.03125 2.341805152e-38
-0.09375 -0.53125 -0.04991239682 2.341805152e-38
0.1875 -0.3874999881 -0.150000006 2.341805152e-38
0.1625000238 -0.275000006 -0.162499994 2.341805152e-38
-0.09375 -0.53125 0.07439222187 2.341805152e-38
0.4375 -0.2790155113 0.247202456 2.341805152e-38
0.3874999881 -0.3000000119 0.2124999762 2.341805152e-38
0.07845176756 -0.46875 0.01616419852 2.341805152e-38
-0.09811812639 -0.4221796989 -0.1631996483 2.341805152e-38
0.3126188517 -0.2982372046 -0.1643814296 2.341805152e-38
-0.06249999627 -0.53125 0.3508757949 2.341805152e-38
-0.07599835098 -0.3601289988 0.2948620915 2.341805152e-38
0.125 -0.4875000119 0.1000000238 2.341805152e-38
-0.07592868805 -0.1541015208 0.07293170691 2.341805152e-38
-0.0199789796 -0.4811822176 -0.1875 2.341805152e-38
-0.0625 -0.3125 0.1999999881 2.341805152e-38
0.1875 -0.4875000119 0.2875000238 2.341805152e-38
0.07860738039 -0.4839276969 -0.1875 2.341805152e-38
-0.1125000119 -0.4875000119 -0.09999999404 2.341805152e-38
-0.09374999255 -0.3963875175 0.3490277529 2.341805152e-38
-0.0625 -0.3275541663 0.2348466367 2.341805152e-38
0.201332137 -0.2652635276 -0.1560874432 2.341805152e-38
-0.1875 -0.140625 -0.125 2.341805152e-38
-0.09586708993 -0.2984291315 -0.1620869786 2.341805152e-38
-0.1013590321 -0.4844355285 0.2031653374 2.341805152e-38
0.07859686762 -0.4869114757 -0.07818597555 2.341805152e-38
-0.09375 -0.3931671381 0.3235908747 2.341805152e-38
-0.09374999255 -0.177364856 0.3124999702 2.341805152e-38
-0.0625 -0.3000000119 0.1875 2.341805152e-38
-0.0625 -0.1999999881 0.1999999881 2.341805152e-38
0.1875000149 -0.4000000358 -0.0625 2.341805152e-38
-0.0625 -0.4214981794 0.04608976096 2.341805152e-38
0.1597827226 -0.5 -0.1875 2.341805152e-38
0.1560934186 -0.3584859371 -0.1607959867 2.341805152e-38
-0.0625 -0.3249999881 0.1125000119 2.341805152e-38
-0.125 -0.3266263604 -0.15625 2.341805152e-38
-0.07555399835 -0.2067185938 0.2036183178 2.341805152e-38
0.195720315 -0.4866757691 0.1421459764 2.341805152e-38
-0.01249998808 -0.4875000119 0.125 2.341805152e-38
-0.0625 -0.1536442488 0.01667536423 2.341805152e-38
-0.07521933317 -0.5 0.4062500298 2.341805152e-38
0.15625 -0.53125 -0.15625 2.341805152e-38
-0.07499998808 -0.287499994 -0.1125000119 2.341805152e-38
-0.0625 -0.212500006 -0.05000001192 2.341805152e-38
-0.07499998808 -0.462500006 0.3125 2.341805152e-38
-0.03125 -0.5 0.4434785843 2.341805152e-38
0.0625 -0.4875000119 -0.03749999404 2.341805152e-38
-0.0625 -0.3273344636 0.2031778991 2.341805152e-38
-0.0144220721 -0.5 0.297426939 2.341805152e-38
-0.0625 -0.3274675906 -0.07856540382 2.341805152e-38
0.01547093503 -0.4869383276 0.4161645174 2.341805152e-38
-0.07547652721 -0.3911312222 -0.07790642232 2.341805152e-38
-0.03749999404 -0.4875000119 -0.05000001192 2.341805152e-38
-0.09375000745 -0.2081445605 0.1079014093 2.341805152e-38
-0.03749999404 -0.2624999881 -0.150000006 2.341805152e-38
0.1750000119 -0.3249999881 -0.150000006 2.341805152e-38
-0.05475957319 -0.3269694746 -0.1455561817 2.341805152e-38
-0.4924072027 -0.1550080031 -0.1874999851 2.341805152e-38
-0.5026618242 -0.1985796094 -0.1875 2.341805152e-38
-0.46875 -0.1993561983 -0.15625 2.341805152e-38
-0.0625 -0.3625000119 0.1875 2.341805152e-38
-0.07495167851 -0.4220494926 -0.1630162299 2.341805152e-38
0.1562644839 -0.53125 0.25 2.341805152e-38
0.1659077406 -0.1776666939 -0.125 2.341805152e-38
-0.1125000119 -0.4875000119 0.01249998808 2.341805152e-38
-0.0625 -0.224999994 0.3125 2.341805152e-38
0.01249998808 -0.4875000119 -0.1125000119 2.341805152e-38
0.2628762722 -0.3590918183 -0.1874999851 2.341805152e-38
-0.07474893332 -0.4594338238 0.377671659 2.341805152e-38
-0.08750000596 -0.4875000119 0.08749997616 2.341805152e-38
0.2614847422 -0.2362451255 -0.15625 2.341805152e-38
0.34375 -0.3047218621 0.3183391392 2.341805152e-38
-0.06172739714 -0.5312499404 0.04611996189 2.341805152e-38
0.3646257818 -0.3128097355 0.3168358207 2.341805152e-38
-0.125 -0.224999994 0.1875 2.341805152e-38
-0.01249998808 -0.4875000119 0.25 2.341805152e-38
-0.1125000119 -0.4875000119 0.1875 2.341805152e-38
-0.07499998808 -0.412499994 0.3000000119 2.341805152e-38
-0.09999999404 -0.4875000119 -0.02500000596 2.341805152e-38
0.2874385118 -0.2062353045 -0.1622704118 2.341805152e-38
-0.05069105327 -0.4845565856 0.3571902812 2.341805152e-38
0.01249998808 -0.4875000119 0.2124999762 2.341805152e-38
0.1999999881 -0.4875000119 0.05000001192 2.341805152e-38
-0.0625 -0.3125 0.2624999881 2.341805152e-38
-0.09425940365 -0.2991819084 -0.1875 2.341805152e-38
-0.07499998808 -0.3874999881 -0.150000006 2.341805152e-38
0.2340498865 -0.2966607809 -0.166187197 2.341805152e-38
-0.02500000596 -0.3125 -0.150000006 2.341805152e-38
-0.09919096529 -0.4620019495 0.3768065572 2.341805152e-38
-0.5057519078 -0.1521875262 -0.1654932499 2.341805152e-38
-0.07499998808 -0.3249999881 -0.03749999404 2.341805152e-38
0.0625 -0.4875000119 0.375 2.341805152e-38
-0.0625 -0.4250000119 -0.05000001192 2.341805152e-38
0.125 -0.1785714328 -0.1875 2.341805152e-38
0.25 -0.4578125179 -0.1875 2.341805152e-38
0.3211825788 -0.3695220053 -0.1439566761 2.341805152e-38
-0.0625 -0.3249999881 -0.0625 2.341805152e-38
-0.0625 -0.4499999881 -0.07499998808 2.341805152e-38
-0.07499998808 -0.4499999881 0.1875 2.341805152e-38
0.01548763551 -0.46875 -0.07658409327 2.341805152e-38
0.3374999762 -0.400000006 -0.07499998808 2.341805152e-38
0.1730340868 -0.2029307783 -0.1659546047 2.341805152e-38
-0.06547618657 -0.3363095224 0.375 2.341805152e-38
0.2256125808 -0.4867184162 0.1456867605 2.341805152e-38
0.1625000238 -0.349999994 -0.150000006 2.341805152e-38
-0.07584102452 -0.42105335 0.07828461379 2.341805152e-38
-0.05385314301 -0.4220858812 -0.1875000149 2.341805152e-38
-0.02500000596 -0.4875000119 0.0625 2.341805152e-38
-0.09863158315 -0.4843542576 -0.07712505758 2.341805152e-38
-0.1562499851 -0.4987466335 0.1433020532 2.341805152e-38
-0.05849318206 -0.1822911352 0.3125 2.341805152e-38
0.40625 -0.28125 0.3249999881 2.341805152e-38
-0.07499998808 -0.375 0 2.341805152e-38
0.1944444329 -0.4236111045 -0.0625 2.341805152e-38
0.1999999881 -0.412499994 -0.162499994 2.341805152e-38
-0.06056385487 -0.2351900935 0.1725448668 2.341805152e-38
0.1962648481 -0.4799765348 -0.1130039543 2.341805152e-38
-0.168750003 -0.125 -0.125 2.341805152e-38
-0.08750000596 -0.224999994 0.2875000238 2.341805152e-38
-0.01560934633 -0.4873822331 0.2649822235 2.341805152e-38
0.05000001192 -0.4875000119 0.3249999881 2.341805152e-38
0.125 -0.2860883772 -0.1579918116 2.341805152e-38
-0.08750000596 -0.3625000119 -0.162499994 2.341805152e-38
-0.09375 -0.3918473721 -0.01563348249 2.341805152e-38
-0.1562499851 -0.4999999702 0.2029697597 2.341805152e-38
-0.03749999404 -0.4875000119 0.01249998808 2.341805152e-38
-0.0625 -0.2624999881 0.1000000238 2.341805152e-38
0.1499999762 -0.150000006 -0.150000006 2.341805152e-38
-0.0625 -0.2726342678 0.34375 2.341805152e-38
-0.0625 -0.224999994 -0.02500000596 2.341805152e-38
-0.07499998808 -0.1999999881 -0.125 2.341805152e-38
-0.1875 -0.150000006 -0.162499994 2.341805152e-38
-0.1335845441 -0.4999999404 0.2667089701 2.341805152e-38
-0.01249998808 -0.4875000119 0.2250000238 2.341805152e-38
-0.09375 -0.125 0.09868423641 2.341805152e-38
0.1750000119 -0.400000006 -0.125 2.341805152e-38
-0.03125 -0.28125 0.1625000238 2.341805152e-38
0.07740682364 -0.4867601991 0.1091936678 2.341805152e-38
-0.1311775148 -0.46875 0.2687590718 2.341805152e-38
-0.0625 -0.349999994 0.3500000238 2.341805152e-38
0.3125 -0.1875000149 -0.1569374949 2.341805152e-38
-0.05471693724 -0.3906933069 -0.1458887011 2.341805152e-38
0.1750000119 -0.3000000119 -0.150000006 2.341805152e-38
-0.0625 -0.275000006 0.1000000238 2.341805152e-38
0.2560375929 -0.1249999925 -0.1562499851 2.341805152e-38
-0.1125000119 -0.4875000119 -0.162499994 2.341805152e-38
0.4090909064 -0.3000000119 0.15625 2.341805152e-38
-0.03749999404 -0.4875000119 -0.162499994 2.341805152e-38
0.34375 -0.34375 0.21875 2.341805152e-38
0.125 -0.125 -0.15625 2.341805152e-38
0.01249998808 -0.4875000119 0.3500000238 2.341805152e-38
-0.0625 -0.3598659039 0.2343650758 2.341805152e-38
0.1403134614 -0.46875 -0.04657714069 2.341805152e-38
0.2735099494 -0.3850589097 -0.0588228628 2.341805152e-38
-0.07605151832 -0.2038814873 -0.01481121499 2.341805152e-38
0.1875 -0.400000006 -0.162499994 2.341805152e-38
-0.05000001192 -0.412499994 -0.150000006 2.341805152e-38
-0.09374999255 -0.53125 0.3192194998 2.341805152e-38
-0.0625 -0.349999994 0.07499998808 2.341805152e-38
0.1625000238 -0.25 -0.150000006 2.341805152e-38
-0.07436519861 -0.2362626791 -0.1425579041 2.341805152e-38
-0.05866913125 -0.23329629 0.2640280426 2.341805152e-38
0.109671779 -0.4852839112 -0.1875000149 2.341805152e-38
0.07749546319 -0.5001318455 0.04699971527 2.341805152e-38
-0.0625 -0.337500006 0.08749997616 2.341805152e-38
0 -0.53125 -0.15625 2.341805152e-38
0.3500000238 -0.400000006 -0.09999999404 2.341805152e-38
-0.09375 -0.147656247 0.2929687798 2.341805152e-38
0.1125000119 -0.4875000119 -0.05000001192 2.341805152e-38
