# .PCD v0.7 - Point Cloud Data file format
VERSION 0.7
FIELDS x y z rgb
SIZE 4 4 4 4
TYPE F F F F
COUNT 1 1 1 1
WIDTH 908
HEIGHT 1
VIEWPOINT 0 0 0 1 0 0 0
POINTS 908
DATA ascii
-0.1750000119 -0.375 -0.1875 6.490113838e-41
-0.2981555164 -0.4543296397 -0.204205066 6.490113838e-41
-0.07499998808 -0.0625 -0.1999999881 6.490113838e-41
0.1999999881 -0.275000006 -0.1875 6.490113838e-41
-0.2303603292 -0.01735610142 -0.21875 6.490113838e-41
-0.04668322951 -0.2028183788 -0.2007129192 6.490113838e-41
0.1750000119 -0.150000006 -0.1999999881 6.490113838e-41
-0.01249998808 -0.4250000119 -0.1999999881 6.490113838e-41
-0.3125 -0.2624999881 -0.2624999881 6.490113838e-41
0.1374999881 -0.224999994 -0.1875 6.490113838e-41
-0.125 -0.3125 -0.1999999881 6.490113838e-41
0.1750000119 -0.162499994 -0.1875 6.490113838e-41
0.1715360135 -0.0494501479 -0.1875 6.490113838e-41
-0.1731727719 -0.1395235509 -0.1999515891 6.490113838e-41
0.01538540609 -0.1732430905 -0.1875 6.490113838e-41
-0.275000006 -0.3125 -0.1999999881 6.490113838e-41
-0.1999999881 -0.412499994 -0.1875 6.490113838e-41
0 -0.03749999404 -0.1875 6.490113838e-41
-0.07499998808 0.07499998808 -0.2624999881 6.490113838e-41
0.1724589467 -0.04838218912 -0.21875 6.490113838e-41
-0.1097515002 -0.1390361339 -0.1875 6.490113838e-41
-0.3437499702 -0.3284679055 -0.3778030574 6.490113838e-41
0.1750000119 -0.09999999404 -0.1999999881 6.490113838e-41
-0.34375 -0.4213796556 -0.3551079035 6.490113838e-41
-0.162499994 -0.09999999404 -0.1875 6.490113838e-41
-0.150000006 -0.1999999881 -0.1875 6.490113838e-41
0.08749997616 -0.125 -0.1999999881 6.490113838e-41
-0.212500006 -0.2375000119 -0.1999999881 6.490113838e-41
0.1101407409 -0.1094268039 -0.2002611607 6.490113838e-41
0.2250000238 -0.1750000119 -0.1875 6.490113838e-41
-0.125 0.02499997616 -0.1999999881 6.490113838e-41
0.01449837815 -0.421102345 -0.1875000149 6.490113838e-41
-0.2347428203 -0.5002270937 -0.3569544256 6.490113838e-41
-0.3125 -0.08750000596 -0.212500006 6.490113838e-41
-0.2648808956 0.06507655978 -0.1875 6.490113838e-41
-0.162499994 0.03750002384 -0.1999999881 6.490113838e-41
-0.01499056537 -0.1725714207 -0.21875 6.490113838e-41
0 -0.162499994 -0.1999999881 6.490113838e-41
-0.25 -0.474999994 -0.1875 6.490113838e-41
-0.3194137514 -0.4563545883 -0.3815398812 6.490113838e-41
-0.2685765922 -0.1714794934 -0.2187500149 6.490113838e-41
0.3125 -0.02500000596 -0.1999999881 6.490113838e-41
0.3374999762 -0.212500006 -0.212500006 6.490113838e-41
-0.2042847872 0.06250000745 -0.3279750049 6.490113838e-41
-0.2043744177 0.07750733942 -0.2994337678 6.490113838e-41
-0.2646027207 0.06808972359 -0.375 6.490113838e-41
-0.2337670624 0.09374999255 -0.2358459979 6.490113838e-41
-0.2978203893 -0.5008673668 -0.2658031881 6.490113838e-41
0.1625000238 -0.02500000596 -0.1875 6.490113838e-41
0.05000001192 -0.09999999404 -0.1999999881 6.490113838e-41
0.1499999762 -0.3125 -0.1999999881 6.490113838e-41
-0.1091868803 -0.2654180825 -0.1993783861 6.490113838e-41
-0.07499998808 -0.2375000119 -0.1875 6.490113838e-41
-0.2375000119 -0.4875000119 -0.3625000119 6.490113838e-41
-0.3125 -0.3906565905 -0.3291814327 6.490113838e-41
-0.15625 -0.5 -0.40625 6.490113838e-41
-0.212500006 -0.4875000119 -0.1999999881 6.490113838e-41
0.3500000238 -0.1125000119 -0.212500006 6.490113838e-41
-0.05000001192 -0.4375 -0.1999999881 6.490113838e-41
-0.09999999404 0.01249998808 -0.1999999881 6.490113838e-41
-0.01249998808 -0.125 -0.1999999881 6.490113838e-41
-0.2662725151 -0.07841831446 -0.1875 6.490113838e-41
0.2375000119 -0.1875 -0.1999999881 6.490113838e-41
-0.08750000596 -0.400000006 -0.1875 6.490113838e-41
0.46875 -0.15625 -0.21875 6.490113838e-41
0.4062500298 -0.1625000089 -0.1875000149 6.490113838e-41
0.04804164916 -0.2637915015 -0.1875 6.490113838e-41
-0.03749999404 0.02499997616 -0.1875 6.490113838e-41
0.3261006176 -0.1112147197 -0.1875 6.490113838e-41
-0.3125 -0.2323069423 -0.4062499702 6.490113838e-41
-0.125 -0.212500006 -0.1999999881 6.490113838e-41
-0.1875 0.05000001192 -0.1875 6.490113838e-41
0.1374999881 -0.287499994 -0.1875 6.490113838e-41
-0.3125 -0.474999994 -0.25 6.490113838e-41
-0.1374999881 -0.462500006 -0.1999999881 6.490113838e-41
0.3496218026 -0.2985214591 -0.1874999851 6.490113838e-41
0.01249998808 -0.3874999881 -0.1875 6.490113838e-41
0.3374999762 -0.287499994 -0.1875 6.490113838e-41
-0.2022202462 -0.0486905016 -0.1989344507 6.490113838e-41
0.25 -0.08750000596 -0.1875 6.490113838e-41
-0.2857142687 0.09375 -0.375 6.490113838e-41
-0.3125 -0.53125 -0.3498934805 6.490113838e-41
0.0625 -0.09999999404 -0.1875 6.490113838e-41
-0.1750000119 0.05000001192 -0.1875 6.490113838e-41
-0.1085109711 -0.01609032229 -0.1986435056 6.490113838e-41
-0.2375000119 -0.25 -0.224999994 6.490113838e-41
0.2749999762 -0.25 -0.1999999881 6.490113838e-41
-0.2656820118 -0.2362148911 -0.1988898814 6.490113838e-41
0.2026215941 -0.04902374744 -0.1996809989 6.490113838e-41
-0.34375 -0.1433423758 -0.3299763203 6.490113838e-41
0.05000001192 -0.412499994 -0.1999999881 6.490113838e-41
0.01249998808 -0.25 -0.1999999881 6.490113838e-41
-0.3125 -0.212500006 -0.337500006 6.490113838e-41
-0.275000006 0.02499997616 -0.1875 6.490113838e-41
0.01469424926 -0.07758934051 -0.199793756 6.490113838e-41
-0.1091305241 -0.2979539931 -0.2001565546 6.490113838e-41
0.07499998808 0.02499997616 -0.1999999881 6.490113838e-41
0.01249998808 -0.01249998808 -0.1999999881 6.490113838e-41
0.2375000119 -0.2375000119 -0.1875 6.490113838e-41
0.375 -0.3125 -0.1875 6.490113838e-41
-0.02696077898 0.07499998063 -0.3198529184 6.490113838e-41
-0.03749999404 -0.162499994 -0.1999999881 6.490113838e-41
-0.125 -0.375 -0.1999999881 6.490113838e-41
-0.3162797987 -0.2084154934 -0.40625 6.490113838e-41
0.5 -0.1875 -0.1999999881 6.490113838e-41
-0.0625 -0.4250000119 -0.1875 6.490113838e-41
-0.3125 -0.150000006 -0.2624999881 6.490113838e-41
-0.09999999404 -0.03749999404 -0.1999999881 6.490113838e-41
0.2338173687 -0.2026813626 -0.1991514117 6.490113838e-41
0.125 0.02499997616 -0.1999999881 6.490113838e-41
0.1102253646 -0.2028760165 -0.1875 6.490113838e-41
-0.2375000119 -0.412499994 -0.1999999881 6.490113838e-41
-0.3125 -0.2031174302 -0.3565132618 6.490113838e-41
0.1374999881 -0.09999999404 -0.1875 6.490113838e-41
-0.34375 -0.3596619666 -0.21875 6.490113838e-41
0.1499999762 0 -0.1875 6.490113838e-41
-0.1999999881 -0.1125000119 -0.1875 6.490113838e-41
-0.125 0.03750002384 -0.1999999881 6.490113838e-41
-0.3125 -0.0625 -0.3125 6.490113838e-41
0.1125000119 -0.375 -0.1875 6.490113838e-41
0.1499999762 -0.1125000119 -0.1875 6.490113838e-41
0.2875000238 -0.1374999881 -0.1999999881 6.490113838e-41
-0.3125 0.02499997616 -0.1875 6.490113838e-41
-0.3125 -0.162499994 -0.212500006 6.490113838e-41
-0.2159259468 0.0625 -0.375 6.490113838e-41
0.375 -0.09999999404 -0.1999999881 6.490113838e-41
-0.02500000596 -0.0625 -0.1875 6.490113838e-41
-0.2624999881 -0.3000000119 -0.224999994 6.490113838e-41
0.2647270858 -0.110517174 -0.1874999851 6.490113838e-41
-0.3190371692 -0.01639105938 -0.3273334205 6.490113838e-41
-0.2974001467 -0.3589685559 -0.2017729729 6.490113838e-41
-0.02500000596 -0.1875 -0.1875 6.490113838e-41
0.05000001192 -0.02500000596 -0.1875 6.490113838e-41
0 -0.07499998808 -0.1999999881 6.490113838e-41
-0.3125 -0.2039242238 -0.381642729 6.490113838e-41
0.3165322244 0 -0.1907257885 6.490113838e-41
-0.275000006 0.07499998808 -0.212500006 6.490113838e-41
0.1625000238 0.0625 -0.1999999881 6.490113838e-41
-0.2624999881 0.05000001192 -0.1875 6.490113838e-41
-0.3125 -0.2023528069 -0.2968865931 6.490113838e-41
0.2014556825 -0.2349119633 -0.21875 6.490113838e-41
-0.1723971367 0.01302046049 -0.21875 6.490113838e-41
-0.2624999881 -0.05000001192 -0.1875 6.490113838e-41
0.01249998808 0.02499997616 -0.1875 6.490113838e-41
-0.09999999404 0.07499998808 -0.287499994 6.490113838e-41
0.1416023225 -0.1387383938 -0.1875000149 6.490113838e-41
0.01153434068 0.06615773588 -0.1875000149 6.490113838e-41
0.1096332446 -0.07944646478 -0.21875 6.490113838e-41
-0.3125 -0.53125 -0.21875 6.490113838e-41
-0.07499998808 -0.3125 -0.212500006 6.490113838e-41
0.3242714107 -0.3223050833 -0.2012540698 6.490113838e-41
-0.1374999881 -0.3625000119 -0.1875 6.490113838e-41
-0.01566639356 0.06541556865 -0.2028572112 6.490113838e-41
-0.28125 -0.46875 -0.4375 6.490113838e-41
-0.1786169559 0.0625 -0.3447572887 6.490113838e-41
-0.287499994 -0.4875000119 -0.375 6.490113838e-41
0.1721587628 -0.2028845102 -0.2187500298 6.490113838e-41
0.2624999881 -0.25 -0.1875 6.490113838e-41
-0.2624999881 -0.2624999881 -0.1999999881 6.490113838e-41
-0.224999994 -0.3874999881 -0.1999999881 6.490113838e-41
-0.08750000596 -0.275000006 -0.1875 6.490113838e-41
-0.3125 -0.3874999881 -0.1875 6.490113838e-41
-0.3206522465 -0.1404716372 -0.2962391675 6.490113838e-41
-0.0625 0.03750002384 -0.1875 6.490113838e-41
-0.34375 0.004623107612 -0.3243280351 6.490113838e-41
-0.224999994 -0.4875000119 -0.3125 6.490113838e-41
-0.3125 -0.05000001192 -0.1999999881 6.490113838e-41
-0.07499998808 0.07499998808 -0.3000000119 6.490113838e-41
0.1999999881 -0.2375000119 -0.1875 6.490113838e-41
0.0625 -0.46875 -0.2010270208 6.490113838e-41
-0.3202943802 -0.2336742878 -0.3575211465 6.490113838e-41
-0.2338270396 -0.5004910231 -0.2657872438 6.490113838e-41
-0.0625 0.07499998808 -0.337500006 6.490113838e-41
-0.3125 -0.3277988434 -0.40625 6.490113838e-41
-0.1715914905 -0.4687500298 -0.2645697296 6.490113838e-41
0.1000000238 0.02499997616 -0.1875 6.490113838e-41
0.2124999762 -0.150000006 -0.1999999881 6.490113838e-41
-0.2673045397 0.01378686819 -0.1961591989 6.490113838e-41
0.2932655513 -0.3476993144 -0.1874999851 6.490113838e-41
-0.224999994 -0.03749999404 -0.1875 6.490113838e-41
0.3249999881 -0.3125 -0.1999999881 6.490113838e-41
0.03750002384 -0.05000001192 -0.1999999881 6.490113838e-41
0.3000000119 -0.162499994 -0.1999999881 6.490113838e-41
0.5 -0.15625 -0.1999999881 6.490113838e-41
-0.3171072602 -0.4772388339 -0.4062499702 6.490113838e-41
0.3125 -0.275000006 -0.1875 6.490113838e-41
-0.275000006 -0.03749999404 -0.1999999881 6.490113838e-41
0.1079545468 0.0625 -0.21875 6.490113838e-41
-0.1125000119 0.07499998808 -0.3125 6.490113838e-41
0 -0.0625 -0.1999999881 6.490113838e-41
0.07767985761 -0.01415473595 -0.2001281977 6.490113838e-41
-0.1999999881 -0.07499998808 -0.1875 6.490113838e-41
-0.26651299 -0.1395345926 -0.1967996657 6.490113838e-41
0 -0.4250000119 -0.1875 6.490113838e-41
-0.01249998808 -0.3125 -0.212500006 6.490113838e-41
-0.212500006 -0.474999994 -0.1999999881 6.490113838e-41
-0.224999994 0.07499998808 -0.212500006 6.490113838e-41
-0.34375 -0.04312069714 -0.21875 6.490113838e-41
-0.01509533171 0.01302248053 -0.21875 6.490113838e-41
-0.1722609252 -0.4687500298 -0.2963958681 6.490113838e-41
-0.2041358352 0.04468087107 -0.2008988261 6.490113838e-41
-0.01448365673 0.06507219374 -0.1874999851 6.490113838e-41
-0.01249998808 -0.08750000596 -0.1875 6.490113838e-41
-0.3217205107 -0.1727245301 -0.2960065603 6.490113838e-41
-0.34375 -0.21875 -0.40625 6.490113838e-41
0.1728616655 -0.1400668621 -0.1997725368 6.490113838e-41
-0.1721510738 -0.359275192 -0.1874999851 6.490113838e-41
-0.3125000298 -0.0199166052 -0.3750000298 6.490113838e-41
-0.3024328053 -0.2975279093 -0.2278064191 6.490113838e-41
0.1094361991 -0.3890148401 -0.21875 6.490113838e-41
-0.3159694374 -0.2308018059 -0.4062499702 6.490113838e-41
-0.1750000119 -0.275000006 -0.1875 6.490113838e-41
-0.3125 -0.1397698224 -0.2665873468 6.490113838e-41
-0.3158187568 0.01379355602 -0.3263311982 6.490113838e-41
0.07722283155 -0.3895178735 -0.2187499851 6.490113838e-41
-0.150000006 -0.05000001192 -0.1875 6.490113838e-41
-0.109843865 -0.1394206285 -0.20064345 6.490113838e-41
-0.01837242208 0.07023387402 -0.2292451262 6.490113838e-41
-0.05000001192 -0.337500006 -0.1875 6.490113838e-41
-0.3125 -0.53125 -0.21875 6.490113838e-41
0.1625000238 -0.2624999881 -0.1875 6.490113838e-41
-0.05000001192 -0.212500006 -0.1999999881 6.490113838e-41
0.2124999762 -0.08750000596 -0.1875 6.490113838e-41
-0.3125 -0.349999994 -0.212500006 6.490113838e-41
-0.03749999404 -0.4499999881 -0.1875 6.490113838e-41
-0.2019313723 -0.3283665776 -0.2187499851 6.490113838e-41
0.1499999762 -0.400000006 -0.1875 6.490113838e-41
0.2250000238 -0.09999999404 -0.1875 6.490113838e-41
-0.1875 -0.224999994 -0.1999999881 6.490113838e-41
0.1000000238 -0.349999994 -0.1875 6.490113838e-41
0.3249999881 -0.212500006 -0.1875 6.490113838e-41
0.1625000238 -0.25 -0.1999999881 6.490113838e-41
-0.125 -0.4875000119 -0.287499994 6.490113838e-41
-0.224999994 0.07499998808 -0.1875 6.490113838e-41
-0.1714039743 0.06413073093 -0.1875000149 6.490113838e-41
-0.2162644565 0.09374999255 -0.3749999702 6.490113838e-41
-0.2375000119 -0.287499994 -0.1999999881 6.490113838e-41
-0.162499994 -0.3249999881 -0.1875 6.490113838e-41
0.04695500806 -0.01433850359 -0.1998945028 6.490113838e-41
-0.3125 -0.05000001192 -0.287499994 6.490113838e-41
-0.2624999881 -0.08750000596 -0.1999999881 6.490113838e-41
-0.3125 0.05000001192 -0.1999999881 6.490113838e-41
0.04699154198 -0.2649226189 -0.21875 6.490113838e-41
0.2025855631 -0.1403383613 -0.1875000149 6.490113838e-41
-0.2958664596 -0.3889877796 -0.1875 6.490113838e-41
-0.09999999404 -0.375 -0.1875 6.490113838e-41
0.08749997616 -0.287499994 -0.1875 6.490113838e-41
-0.3000000119 0.07499998808 -0.337500006 6.490113838e-41
0 -0.02500000596 -0.1999999881 6.490113838e-41
0.3000000119 -0.25 -0.1999999881 6.490113838e-41
-0.1374999881 0.07499998808 -0.1875 6.490113838e-41
-0.21875 -0.53125 -0.3108698428 6.490113838e-41
0.3506558239 -0.318418473 -0.2035277635 6.490113838e-41
-0.1404280961 0.0783746317 -0.3247614801 6.490113838e-41
0.1374999881 -0.3874999881 -0.1999999881 6.490113838e-41
-0.1999999881 -0.4875000119 -0.349999994 6.490113838e-41
0.2749999762 -0.05000001192 -0.1999999881 6.490113838e-41
0.1374999881 -0.1999999881 -0.1875 6.490113838e-41
-0.25 -0.3125 -0.1875 6.490113838e-41
0.2032504976 -0.04956492409 -0.1875000149 6.490113838e-41
0.08749997616 0 -0.1999999881 6.490113838e-41
-0.111410737 -0.5001785159 -0.2037124485 6.490113838e-41
-0.1125000119 0.03750002384 -0.1875 6.490113838e-41
0.3169963956 0 -0.1875 6.490113838e-41
0.1374999881 -0.3125 -0.1875 6.490113838e-41
-0.3125 -0.08750000596 -0.2624999881 6.490113838e-41
0.448359102 -0.06913609803 -0.1875 6.490113838e-41
-0.287499994 -0.1374999881 -0.1875 6.490113838e-41
-0.0625 -0.3625000119 -0.1875 6.490113838e-41
-0.2957640588 -0.2969942093 -0.2026085556 6.490113838e-41
-0.212500006 -0.337500006 -0.1999999881 6.490113838e-41
-0.1403930187 -0.3284390569 -0.1994261593 6.490113838e-41
0.07499998808 -0.275000006 -0.1875 6.490113838e-41
0.2124999762 -0.337500006 -0.1875 6.490113838e-41
-0.224999994 -0.25 -0.1875 6.490113838e-41
-0.3125 0.03750002384 -0.3125 6.490113838e-41
-0.34375 -0.2986718118 -0.2960788608 6.490113838e-41
0.05000001192 -0.2375000119 -0.1999999881 6.490113838e-41
0.3547277749 -0.23643139 -0.2063733935 6.490113838e-41
-0.01608720981 -0.4211950898 -0.1875000149 6.490113838e-41
0.1405784935 -0.1397564113 -0.2187500149 6.490113838e-41
0.2330755144 -0.351896435 -0.21875 6.490113838e-41
-0.224999994 -0.125 -0.1875 6.490113838e-41
-0.2911489606 0.09375 -0.3454209268 6.490113838e-41
0.01510559395 -0.2336470038 -0.200208351 6.490113838e-41
0.5 -0.162499994 -0.1875 6.490113838e-41
-0.3125 0 -0.3249999881 6.490113838e-41
0.1000000238 -0.2624999881 -0.1999999881 6.490113838e-41
-0.3125 -0.04811337218 -0.2968332469 6.490113838e-41
-0.1999999881 -0.1125000119 -0.1999999881 6.490113838e-41
-0.2375000119 -0.0625 -0.1875 6.490113838e-41
-0.3125 -0.3939191997 -0.4062499702 6.490113838e-41
0.07499998808 -0.162499994 -0.1999999881 6.490113838e-41
0.3825755119 -0.06129600108 -0.21875 6.490113838e-41
-0.2971256077 -0.07827644795 -0.2010880411 6.490113838e-41
-0.3000000119 -0.3625000119 -0.1875 6.490113838e-41
0.1252931654 -0.4375 -0.21875 6.490113838e-41
0.2646816373 -0.07852634043 -0.1991220117 6.490113838e-41
-0.01504241209 -0.1400907636 -0.2187499851 6.490113838e-41
-0.3125 -0.04825009778 -0.3530574739 6.490113838e-41
-0.3000000119 0.07499998808 -0.3125 6.490113838e-41
-0.224999994 -0.4875000119 -0.349999994 6.490113838e-41
0.01562498882 0.09374999255 -0.1979166567 6.490113838e-41
-0.2969655693 -0.01608726941 -0.2002652586 6.490113838e-41
0.5 -0.1875 -0.1875 6.490113838e-41
-0.267623812 -0.07959994674 -0.2187500149 6.490113838e-41
-0.01600868069 0.01247808803 -0.1875 6.490113838e-41
0.1875 0.0625 -0.1875 6.490113838e-41
0.09375 -0.25 -0.4375 6.490113838e-41
0.01395893283 -0.2994876802 -0.1875 6.490113838e-41
-0.2077921927 0.09375 -0.1875 6.490113838e-41
-0.05000001192 0.07499998808 -0.3125 6.490113838e-41
0.07499998808 -0.150000006 -0.1999999881 6.490113838e-41
-0.08750000596 -0.0625 -0.1875 6.490113838e-41
0.25 -0.125 -0.1875 6.490113838e-41
-0.3125 0.09375 -0.375 6.490113838e-41
-0.3161813915 -0.3288881183 -0.4062499702 6.490113838e-41
-0.246710524 -0.2605262995 -0.25 6.490113838e-41
-0.2356225252 0.04402571917 -0.1875 6.490113838e-41
0.2025192529 -0.1722545326 -0.1875000149 6.490113838e-41
-0.1999999881 0.05000001192 -0.1875 6.490113838e-41
0.07638921589 -0.4176553488 -0.2013829052 6.490113838e-41
-0.0625 -0.400000006 -0.1875 6.490113838e-41
0.5 -0.1875 -0.21875 6.490113838e-41
-0.3437499702 -0.2746946812 -0.2373313606 6.490113838e-41
-0.25 -0.375 -0.1875 6.490113838e-41
-0.1999999881 0.01249998808 -0.1875 6.490113838e-41
-0.2313427776 -0.2047439218 -0.21875 6.490113838e-41
-0.2018935233 -0.3588769138 -0.1990348399 6.490113838e-41
-0.05000001192 -0.3000000119 -0.1875 6.490113838e-41
0.07499998808 0 -0.1999999881 6.490113838e-41
-0.1724502742 -0.2028020173 -0.1993874013 6.490113838e-41
0.05000001192 -0.0625 -0.1875 6.490113838e-41
-0.2971769273 -0.5008553267 -0.206877619 6.490113838e-41
0.1083587259 -0.4153238833 -0.2013628185 6.490113838e-41
-0.3199703395 -0.3272775114 -0.3806880414 6.490113838e-41
-0.3125 -0.25 -0.275000006 6.490113838e-41
0.21875 -0.25 -0.4375 6.490113838e-41
-0.3000000119 -0.4375 -0.1999999881 6.490113838e-41
-0.3125 0.01249998808 -0.212500006 6.490113838e-41
-0.3167585433 -0.2332715839 -0.2329767197 6.490113838e-41
0.2749999762 -0.09999999404 -0.1999999881 6.490113838e-41
-0.3125 -0.1875 -0.212500006 6.490113838e-41
-0.01249998808 -0.349999994 -0.1999999881 6.490113838e-41
0.1720953435 -0.07919256389 -0.1995654553 6.490113838e-41
-0.34375 -0.1430637389 -0.35566172 6.490113838e-41
0.02499997616 -0.349999994 -0.1999999881 6.490113838e-41
-0.1875 0.01249998808 -0.1999999881 6.490113838e-41
0.4170920253 -0.05880910531 -0.2013566494 6.490113838e-41
0.2749999762 0 -0.1999999881 6.490113838e-41
-0.3125 0.0625 -0.349999994 6.490113838e-41
0.2649766803 -0.2347978801 -0.1995899975 6.490113838e-41
-0.3128021955 0.04617731646 -0.2338395417 6.490113838e-41
-0.2968186736 -0.421895802 -0.1874999851 6.490113838e-41
-0.2017662078 -0.1391975135 -0.1992123425 6.490113838e-41
-0.2028791606 -0.4813006818 -0.2039481401 6.490113838e-41
-0.03124999814 0.09374999255 -0.3499999642 6.490113838e-41
-0.224999994 -0.4875000119 -0.3249999881 6.490113838e-41
-0.07985652983 0.09375 -0.2932300568 6.490113838e-41
-0.3125945926 0.01340859942 -0.2043514848 6.490113838e-41
0.02499997616 -0.4250000119 -0.1875 6.490113838e-41
-0.1410784572 -0.2980107069 -0.1875000149 6.490113838e-41
-0.25 0.01249998808 -0.1875 6.490113838e-41
-0.01249998808 -0.212500006 -0.1875 6.490113838e-41
0.0625 0.09375 -0.21875 6.490113838e-41
-0.3204577863 -0.3583511412 -0.3569782972 6.490113838e-41
0.46875 -0.162499994 -0.1875 6.490113838e-41
0.1625000238 -0.400000006 -0.1999999881 6.490113838e-41
-0.3125 0.03750002384 -0.275000006 1.184631237e-38
-0.1875 -0.3625000119 -0.1999999881 1.184631237e-38
0.2124999762 -0.162499994 -0.1999999881 1.184631237e-38
-0.3125 0.06862343103 -0.2643527389 1.184631237e-38
-0.3139213324 -0.1396701783 -0.2053410411 1.184631237e-38
0.01563378237 -0.2030624002 -0.1875000149 1.184631237e-38
0.2875000238 -0.3125 -0.1999999881 1.184631237e-38
-0.1125000119 0.02499997616 -0.1999999881 1.184631237e-38
0.3625000119 -0.25 -0.212500006 1.184631237e-38
0.2953164577 -0.07837718725 -0.1875 1.184631237e-38
-0.3125 0.03750002384 -0.3000000119 1.184631237e-38
-0.07503526658 0.06249999627 -0.2639306486 1.184631237e-38
-0.2624999881 0.07499998808 -0.287499994 1.184631237e-38
-0.3124999702 0.01507368498 -0.2670251131 1.184631237e-38
0.1321475208 -0.4374999702 -0.1875 1.184631237e-38
-0.25 -0.3000000119 -0.1999999881 1.184631237e-38
0.2749999762 -0.08750000596 -0.1999999881 1.184631237e-38
0.01249998808 -0.07499998808 -0.1875 1.184631237e-38
-0.03749999404 0.07499998808 -0.1999999881 1.184631237e-38
-0.1726246625 -0.234768346 -0.1997642517 1.184631237e-38
0.3874999881 -0.07499998808 -0.212500006 1.184631237e-38
0.07499998808 -0.25 -0.1999999881 1.184631237e-38
0.1725333631 -0.07923273742 -0.21875 1.184631237e-38
-0.03749999404 -0.02500000596 -0.1875 1.184631237e-38
-0.3195995986 -0.5025557876 -0.3572054505 1.184631237e-38
0.02499997616 -0.1999999881 -0.1875 1.184631237e-38
-0.1721176803 0.01228907704 -0.1875 1.184631237e-38
-0.03749999404 -0.337500006 -0.1875 1.184631237e-38
0.01249998808 0.03750002384 -0.1875 1.184631237e-38
-0.3207604587 -0.2984833121 -0.3293277323 1.184631237e-38
-0.275000006 0.07499998808 -0.337500006 1.184631237e-38
-0.3202350438 -0.2668884695 -0.3580209613 1.184631237e-38
-0.125 -0.412499994 -0.1875 1.184631237e-38
-0.3437500298 -0.110366717 -0.2695493698 1.184631237e-38
-0.3125 -0.212500006 -0.1999999881 1.184631237e-38
0.2332170904 -0.2027655393 -0.1875 1.184631237e-38
0.04614214972 -0.04842161387 -0.2003602833 1.184631237e-38
-0.3125 -0.150000006 -0.3625000119 1.184631237e-38
-0.34375 -0.03125 -0.375 1.184631237e-38
-0.09999999404 -0.4875000119 -0.2375000119 1.184631237e-38
0.25 -0.1125000119 -0.1875 1.184631237e-38
-0.09999999404 -0.3125 -0.1875 1.184631237e-38
-0.3000000119 -0.1125000119 -0.1999999881 1.184631237e-38
-0.34375 -0.04567006603 -0.3294128478 1.184631237e-38
-0.3124291599 -0.3256354928 -0.2659795284 1.184631237e-38
-0.275000006 0 -0.1999999881 1.184631237e-38
-0.02500000596 0.02499997616 -0.1875 1.184631237e-38
0.2250000238 -0.2624999881 -0.1875 1.184631237e-38
-0.3125 -0.4250000119 -0.224999994 1.184631237e-38
-0.3172877431 -0.2982600033 -0.2327556759 1.184631237e-38
-0.1875 -0.53125 -0.28125 1.184631237e-38
-0.287499994 -0.375 -0.1875 1.184631237e-38
0.1125000119 -0.1750000119 -0.1999999881 1.184631237e-38
-0.3125 -0.287499994 -0.375 1.184631237e-38
-0.2027582973 0.01240696944 -0.1875000149 1.184631237e-38
-0.150000006 -0.474999994 -0.1875 1.184631237e-38
0.1070597172 0.03404736146 -0.1875000149 1.184631237e-38
-0.2658219934 0.04456776008 -0.1875 1.184631237e-38
0.01442581974 -0.4206997156 -0.2004372925 1.184631237e-38
0.3516434431 -0.263309449 -0.1875 1.184631237e-38
-0.2654044032 0.09374999255 -0.2667250633 1.184631237e-38
-0.3125 0.09375 -0.1875 1.184631237e-38
-0.3195458353 -0.2338208854 -0.380918324 1.184631237e-38
-0.162499994 -0.07499998808 -0.1999999881 1.184631237e-38
0.375 -0.2373439223 -0.2089424729 1.184631237e-38
0.3999999762 -0.07499998808 -0.1875 1.184631237e-38
-0.03749999404 -0.1750000119 -0.1999999881 1.184631237e-38
-0.1125000119 -0.349999994 -0.1999999881 1.184631237e-38
0.3625000119 -0.09999999404 -0.212500006 1.184631237e-38
-0.25 -0.2886904776 -0.25 1.184631237e-38
-0.3437500298 -0.4210689068 -0.3763389885 1.184631237e-38
-0.1999999881 -0.4250000119 -0.1999999881 1.184631237e-38
-0.09999999404 -0.275000006 -0.1999999881 1.184631237e-38
0.2007069439 -0.3545352519 -0.21875 1.184631237e-38
0.46875 -0.1875 -0.1875 1.184631237e-38
-0.07499998808 -0.412499994 -0.1999999881 1.184631237e-38
0.21875 -0.25 -0.4375 1.184631237e-38
-0.34375 -0.421167165 -0.2173457742 1.184631237e-38
0.4161345661 -0.0733897388 -0.2028451264 1.184631237e-38
-0.2703470588 -0.01707129739 -0.21875 1.184631237e-38
-0.0625 -0.03749999404 -0.1999999881 1.184631237e-38
-0.04700513929 -0.1399084777 -0.2003508657 1.184631237e-38
0.1499999762 -0.275000006 -0.1999999881 1.184631237e-38
-0.2987344861 0.07144320756 -0.3281407058 1.184631237e-38
-0.07786650211 -0.1095546335 -0.1874999851 1.184631237e-38
-0.3210251927 -0.3265850842 -0.2966539562 1.184631237e-38
0.08749997616 0.03750002384 -0.1875 1.184631237e-38
-0.3146645129 -0.2022134066 -0.2060866356 1.184631237e-38
0.3125 -0.1374999881 -0.1999999881 1.184631237e-38
-0.07878630608 -0.4527599812 -0.2001322657 1.184631237e-38
0.375 -0.162499994 -0.1999999881 1.184631237e-38
-0.03749999404 -0.2375000119 -0.1875 1.184631237e-38
0.05000001192 -0.1374999881 -0.1875 1.184631237e-38
0.2124999762 -0.3125 -0.1875 1.184631237e-38
0.169645533 0.00649865251 -0.21875 1.184631237e-38
-0.3125 -0.0625 -0.25 1.184631237e-38
-0.275000006 -0.400000006 -0.1999999881 1.184631237e-38
-0.3125 -0.4499999881 -0.224999994 1.184631237e-38
0.05000001192 -0.02500000596 -0.1999999881 1.184631237e-38
0.3524490893 -0.2370223403 -0.1875 1.184631237e-38
-0.1409121752 -0.04930628091 -0.1991117746 1.184631237e-38
0.07755182683 -0.3880527616 -0.1875 1.184631237e-38
-0.05000001565 0.0625 -0.3750000298 1.184631237e-38
0.2124999762 -0.275000006 -0.1875 1.184631237e-38
0.2624999881 -0.03749999404 -0.1875 1.184631237e-38
-0.3125 -0.462500006 -0.3249999881 1.184631237e-38
-0.04750610515 -0.3276661932 -0.2001921684 1.184631237e-38
0.2250000238 -0.275000006 -0.1875 1.184631237e-38
-0.04746509343 -0.3598383367 -0.1874999851 1.184631237e-38
-0.1125000119 -0.400000006 -0.1875 1.184631237e-38
-0.3125 -0.4250000119 -0.3000000119 1.184631237e-38
-0.3125 -0.4499999881 -0.375 1.184631237e-38
-0.2661751509 -0.3586547077 -0.1981552839 1.184631237e-38
0.1875 0.0625 -0.1999999881 1.184631237e-38
-0.2375000119 0.07499998808 -0.349999994 1.184631237e-38
0.40625 -0.1416734755 -0.1875000149 1.184631237e-38
-0.275000006 -0.375 -0.1999999881 1.184631237e-38
0 -0.275000006 -0.1875 1.184631237e-38
0.2956709564 -0.3451856375 -0.21875 1.184631237e-38
0 -0.1999999881 -0.1999999881 1.184631237e-38
-0.2375000119 -0.150000006 -0.1999999881 1.184631237e-38
-0.01788915694 -0.4735442698 -0.2004858106 1.184631237e-38
-0.07763160765 -0.328029573 -0.1875 1.184631237e-38
-0.01483458001 -0.2335464358 -0.21875 1.184631237e-38
0.03750002384 -0.3249999881 -0.1999999881 1.184631237e-38
-0.3009626567 0.07209898531 -0.2986575663 1.184631237e-38
0.2375000119 -0.3625000119 -0.1999999881 1.184631237e-38
0.37802279 -0.1105757952 -0.1875000149 1.184631237e-38
0.3374999762 -0.162499994 -0.212500006 1.184631237e-38
-0.34375 -0.2021742761 -0.21875 1.184631237e-38
-0.05000001192 -0.375 -0.1875 1.184631237e-38
-0.1374999881 -0.1750000119 -0.1999999881 1.184631237e-38
0.3485221863 -0.3189553618 -0.1875 1.184631237e-38
-0.1090387553 0.09375 -0.2957551181 1.184631237e-38
-0.03749999404 0.02499997616 -0.1999999881 1.184631237e-38
-0.3125 -0.2695131302 -0.40625 1.184631237e-38
-0.1089571044 0.01264305227 -0.1875 1.184631237e-38
-0.3125 -0.1106283814 -0.355269134 1.184631237e-38
-0.3125 -0.4250000119 -0.287499994 1.184631237e-38
-0.224999994 -0.4875000119 -0.275000006 1.184631237e-38
-0.1165783107 -0.5 -0.2619986236 1.184631237e-38
0.2124999762 -0.349999994 -0.1999999881 1.184631237e-38
-0.3000000119 -0.1999999881 -0.1875 1.184631237e-38
-0.275000006 0.01249998808 -0.1875 1.184631237e-38
0.1000000238 -0.150000006 -0.1999999881 1.184631237e-38
-0.3437499702 -0.3370455503 -0.4062499702 1.184631237e-38
-0.34375 -0.2686695755 -0.3573840857 1.184631237e-38
0.1125000119 -0.09999999404 -0.1999999881 1.184631237e-38
0.1720794141 -0.1101944596 -0.1875 1.184631237e-38
-0.1402210295 0.09375000745 -0.2968257964 1.184631237e-38
-0.20442909 -0.4687499702 -0.3571536243 1.184631237e-38
0.02499997616 0.01249998808 -0.1999999881 1.184631237e-38
-0.2335696518 0.0625 -0.3508423567 1.184631237e-38
-0.1409073174 -0.1089707315 -0.1874999851 1.184631237e-38
-0.2624999881 -0.474999994 -0.1875 1.184631237e-38
-0.1374999881 -0.4875000119 -0.25 1.184631237e-38
-0.1401810348 -0.2031476051 -0.1999053061 1.184631237e-38
-0.2341900468 -0.4872600734 -0.3570778072 1.184631237e-38
0.2375000119 -0.02500000596 -0.1875 1.184631237e-38
-0.3208235502 -0.3593478203 -0.2670275867 1.184631237e-38
-0.1999999881 0.07499998808 -0.224999994 1.184631237e-38
-0.1391645968 -0.4797970355 -0.1875 1.184631237e-38
-0.1374999881 0.07499998808 -0.1999999881 1.184631237e-38
-0.03749999404 0.07499998808 -0.337500006 1.184631237e-38
-0.02500000596 0.0625 -0.1875 1.184631237e-38
-0.3125 -0.5 -0.1875 1.184631237e-38
0.07809703797 -0.07858876139 -0.2187499851 1.184631237e-38
-0.2061321884 0.06669936329 -0.2051211149 1.184631237e-38
0.1706261635 -0.01589376852 -0.1875000149 1.184631237e-38
-0.2046226263 -0.4867150784 -0.381346941 1.184631237e-38
-0.2624999881 -0.337500006 -0.1875 1.184631237e-38
0.2648622394 -0.2640818357 -0.1875000149 1.184631237e-38
-0.03749999404 -0.03749999404 -0.1999999881 1.184631237e-38
0.2027355134 -0.2970712483 -0.1875 1.184631237e-38
-0.3125 -0.07724703103 -0.2970325649 1.184631237e-38
0.4750000536 -0.162499994 -0.21875 1.184631237e-38
0.02499997616 -0.150000006 -0.1875 1.184631237e-38
0.2617149353 -0.02184398659 -0.1874999851 1.184631237e-38
0.1643960178 -0.4088750184 -0.1875 1.184631237e-38
-0.34375 -0.1428438425 -0.375 1.184631237e-38
0.07499998808 -0.224999994 -0.1999999881 1.184631237e-38
-0.231237784 -0.04892014712 -0.2187500149 1.184631237e-38
0.1999999881 -0.337500006 -0.1875 1.184631237e-38
0.3000000119 -0.275000006 -0.1875 1.184631237e-38
-0.1794569194 0.07376030087 -0.375 1.184631237e-38
-0.01600939222 -0.3897754848 -0.2002438009 1.184631237e-38
-0.01249998808 -0.01249998808 -0.1875 1.184631237e-38
-0.2038494945 0.04225954041 -0.1875 1.184631237e-38
-0.275000006 0.05000001192 -0.1875 1.184631237e-38
-0.2978172004 -0.5008245707 -0.3810819387 1.184631237e-38
0.07499998808 -0.349999994 -0.1999999881 1.184631237e-38
-0.3185962737 -0.390822947 -0.3810101748 1.184631237e-38
0.2650133669 -0.1400971562 -0.2187500149 1.184631237e-38
0.1875 -0.150000006 -0.1999999881 1.184631237e-38
-0.1728378385 -0.488049984 -0.2962368429 1.184631237e-38
0.2014881074 -0.1103155091 -0.21875 1.184631237e-38
-0.3125 0.0625 -0.3125 1.184631237e-38
0.1410475671 -0.2986875176 -0.1875 1.184631237e-38
0.322003752 -0.34375 -0.21875 1.184631237e-38
-0.1875 -0.4250000119 -0.1875 1.184631237e-38
-0.03749999404 -0.09999999404 -0.1999999881 1.184631237e-38
-0.3125 -0.1731364727 -0.2661009431 1.184631237e-38
-0.04716890305 -0.2657909989 -0.1875 1.184631237e-38
0.46875 -0.15625 -0.1875 1.184631237e-38
0.1405434757 -0.2984082103 -0.2004027665 1.184631237e-38
0.1499999762 -0.1999999881 -0.1875 1.184631237e-38
-0.3125 0.07499998808 -0.337500006 1.184631237e-38
0.01249998808 -0.09999999404 -0.1875 1.184631237e-38
0.34375 0 -0.1875 1.184631237e-38
0.01249998808 -0.337500006 -0.1875 1.184631237e-38
0.1726477146 -0.1099879295 -0.21875 1.184631237e-38
0.5 -0.0625 -0.1999999881 1.184631237e-38
0.02499997616 0.07499998808 -0.2375000119 1.184631237e-38
-0.3124428093 -0.390424639 -0.266576767 1.184631237e-38
-0.04818491638 -0.4213221073 -0.1875 1.184631237e-38
-0.3125 -0.08750000596 -0.3000000119 1.184631237e-38
0.07637427747 -0.4174289703 -0.21875 1.184631237e-38
-0.01249998808 0.07499998808 -0.25 1.184631237e-38
0.2960516214 -0.2027692795 -0.1875 1.184631237e-38
-0.162499994 -0.349999994 -0.1875 1.184631237e-38
0.3000000119 -0.212500006 -0.1875 1.184631237e-38
-0.05347017199 0.07719284296 -0.3202115893 1.184631237e-38
-0.287499994 -0.05000001192 -0.1999999881 1.184631237e-38
-0.212500006 0.07499998808 -0.3625000119 1.184631237e-38
-0.0625 0.07499998808 -0.2375000119 1.184631237e-38
-0.224999994 0 -0.1999999881 1.184631237e-38
0.1095067412 -0.3877448142 -0.1875 1.184631237e-38
-0.1374999881 -0.162499994 -0.1999999881 1.184631237e-38
-0.01578680426 -0.3594949841 -0.1999372691 1.184631237e-38
0.04677216336 -0.2033037096 -0.21875 1.184631237e-38
-0.3033696711 -0.3269731104 -0.2279949933 1.184631237e-38
-0.162499994 0 -0.1875 1.184631237e-38
-0.3125 -0.375 -0.3249999881 1.184631237e-38
-0.125 -0.08750000596 -0.1999999881 1.184631237e-38
0.15625 -0.4375 -0.1875 1.184631237e-38
-0.275000006 -0.162499994 -0.1999999881 1.184631237e-38
0.110279195 -0.2030805349 -0.2005660832 1.184631237e-38
-0.2019899338 -0.07906740904 -0.199342832 1.184631237e-38
-0.3162799478 -0.04773673788 -0.2307992429 1.184631237e-38
-0.2025682628 -0.5 -0.1875 1.184631237e-38
-0.3125 -0.08750000596 -0.1875 1.184631237e-38
-0.162499994 0 -0.1999999881 1.184631237e-38
0.07802285999 -0.07864391804 -0.2007463872 1.184631237e-38
0.1094860658 -0.1399761736 -0.21875 1.184631237e-38
-0.1999999881 0.07499998808 -0.212500006 1.184631237e-38
0.2330558598 0.000649248017 -0.21875 1.184631237e-38
-0.04712236673 -0.1090066209 -0.21875 1.184631237e-38
0.15625 -0.4374999702 -0.1883627623 1.184631237e-38
0.07828973234 -0.2983247936 -0.1995355189 1.184631237e-38
-0.04805709422 -0.4209949374 -0.1999857426 1.184631237e-38
-0.3124999702 -0.1465392709 -0.4062499702 1.184631237e-38
-0.2656794488 0.04638277739 -0.1996495724 1.184631237e-38
-0.3125 -0.224999994 -0.3625000119 1.184631237e-38
-0.1737658381 0.09375 -0.3268297911 1.184631237e-38
-0.2324586213 -0.1095780954 -0.1979388595 1.184631237e-38
-0.25 -0.4154411554 -0.25 1.184631237e-38
-0.1729364693 -0.265437305 -0.21875 1.184631237e-38
-0.2987834811 -0.4219770432 -0.2032348663 1.184631237e-38
0.01520932559 -0.3894270062 -0.2004649192 1.184631237e-38
0.01249998808 -0.3249999881 -0.1999999881 1.184631237e-38
-0.3124999702 -0.04858217388 -0.2660465539 1.184631237e-38
0.01429893263 -0.2990873158 -0.2187500149 1.184631237e-38
0.25 -0.3249999881 -0.1875 1.184631237e-38
-0.2981193662 -0.5024217367 -0.3279313147 1.184631237e-38
-0.3437499702 -0.1731822342 -0.2670568824 1.184631237e-38
-0.09999999404 0.07499998808 -0.224999994 1.184631237e-38
-0.3125 -0.1125000119 -0.349999994 1.184631237e-38
-0.3172544241 -0.1405662 -0.2321446091 1.184631237e-38
0.2124999762 -0.224999994 -0.1875 1.184631237e-38
-0.1408689022 -0.1722174138 -0.2001754642 1.184631237e-38
-0.202163443 -0.2031019032 -0.1982696354 1.184631237e-38
-0.1400610059 0.07882254571 -0.2683202028 1.184631237e-38
-0.0549207963 0.06249999627 -0.2952531576 1.184631237e-38
-0.02575368807 0.09375 -0.2914574444 1.184631237e-38
-0.2993561625 -0.483173877 -0.3281869888 1.184631237e-38
-0.1999999881 0.07499998808 -0.1999999881 1.184631237e-38
0.4750000238 -0.1875 -0.1875 1.184631237e-38
0.02499997616 -0.125 -0.1999999881 1.184631237e-38
-0.2375000119 0.01249998808 -0.1875 1.184631237e-38
0.07499998808 -0.125 -0.1875 1.184631237e-38
0.2649197876 -0.07836003602 -0.1875 1.184631237e-38
-0.2637228966 0.09375 -0.3463697731 1.184631237e-38
-0.1724202931 -0.1709341705 -0.2187499851 1.184631237e-38
-0.298853755 -0.483425349 -0.297388196 1.184631237e-38
0.2018658817 -0.2351416647 -0.198452875 1.184631237e-38
-0.02451215871 0.09375000745 -0.2616496682 1.184631237e-38
-0.1083526984 -0.01568163 -0.1874999851 1.184631237e-38
-0.3202644587 -0.07968430221 -0.3546055555 1.184631237e-38
-0.3125 -0.03749999404 -0.3625000119 1.184631237e-38
0.2020800412 -0.3270299435 -0.198780477 1.184631237e-38
-0.1400045305 -0.4214268029 -0.1875 1.184631237e-38
-0.2994161248 -0.4831391573 -0.3568718731 1.184631237e-38
0.0625 -0.3125 -0.1875 1.184631237e-38
-0.0547775887 0.09375 -0.2915737331 1.184631237e-38
-0.3000000119 -0.4875000119 -0.337500006 1.184631237e-38
-0.05396827683 0.09375 -0.3480158448 1.184631237e-38
-0.2642918825 0.07580897212 -0.3299591243 1.184631237e-38
0.2344657332 -0.3263850808 -0.21875 1.184631237e-38
0.05000001192 -0.1999999881 -0.1999999881 1.184631237e-38
-0.05000001192 0.02499997616 -0.1999999881 1.184631237e-38
0.1875 -0.224999994 -0.1875 1.184631237e-38
0.284422487 -0.375 -0.1875 1.184631237e-38
0.01249998808 -0.224999994 -0.1999999881 1.184631237e-38
-0.1403838098 -0.3902334571 -0.1875 1.184631237e-38
-0.162499994 -0.4875000119 -0.287499994 1.184631237e-38
-0.1407047808 -0.1400454938 -0.2187499851 1.184631237e-38
-0.1726357043 -0.1716712117 -0.1995066851 1.184631237e-38
-0.34375 -0.1742073596 -0.375 1.184631237e-38
-0.34375 -0.04525776953 -0.2957355976 1.184631237e-38
-0.2342634946 -0.500698626 -0.297911644 1.184631237e-38
-0.2346432954 -0.4804534912 -0.1874999851 1.184631237e-38
-0.2624999881 -0.400000006 -0.224999994 1.184631237e-38
-0.2026853412 -0.2980143428 -0.1875 1.184631237e-38
0.294990629 -0.05080425367 -0.1875 1.184631237e-38
0.3000000119 -0.3000000119 -0.1999999881 1.184631237e-38
-0.3125 -0.375 -0.337500006 1.184631237e-38
0.3625000119 -0.2624999881 -0.1875 1.184631237e-38
-0.1248666719 -0.4907534122 -0.3215495646 1.184631237e-38
-0.01249998808 0.05000001192 -0.1875 1.184631237e-38
-0.2178621143 -0.5312500596 -0.3100282252 1.184631237e-38
-0.0478649959 -0.4205032885 -0.2187499851 1.184631237e-38
-0.3043097556 -0.1720819473 -0.2283523679 1.184631237e-38
0.04683423415 -0.048128739 -0.2187499851 1.184631237e-38
-0.265391767 0.0625 -0.3750000298 1.184631237e-38
-0.02426559106 0.07838429511 -0.2942210436 1.184631237e-38
-0.3125 -0.275000006 -0.375 1.184631237e-38
-0.150000006 0.07499998808 -0.287499994 1.184631237e-38
-0.125 0.01249998808 -0.1999999881 1.184631237e-38
-0.2332765162 -0.3271737099 -0.1979548633 1.184631237e-38
-0.2047267258 -0.46875 -0.3279637694 1.184631237e-38
-0.1731756777 -0.1394353509 -0.1875 1.184631237e-38
-0.1397396922 -0.4530906081 -0.1875 1.184631237e-38
0.1721699089 -0.2343752384 -0.21875 1.184631237e-38
0.2124999762 -0.0625 -0.1999999881 1.184631237e-38
0 0.05000001192 -0.1875 1.184631237e-38
-0.2375000119 -0.150000006 -0.1875 1.184631237e-38
-0.1999999881 -0.01249998808 -0.1999999881 1.184631237e-38
-0.125 -0.53125 -0.21875 1.184631237e-38
-0.1747634858 -0.5000000596 -0.3264674842 1.184631237e-38
-0.3125 -0.3000000119 -0.2375000119 1.184631237e-38
-0.2342265397 -0.4875237644 -0.3273848891 1.184631237e-38
-0.01765447855 -0.4733358622 -0.1875 1.184631237e-38
-0.2624999881 0.07499998808 -0.2624999881 1.184631237e-38
-0.224999994 -0.125 -0.1999999881 1.184631237e-38
-0.1999999881 -0.25 -0.1999999881 1.184631237e-38
0 -0.2624999881 -0.1999999881 1.184631237e-38
0.25 -0.1125000119 -0.1999999881 1.184631237e-38
-0.3125 -0.09999999404 -0.1999999881 1.184631237e-38
-0.3125 0.02499997616 -0.3000000119 1.184631237e-38
-0.2685130835 -0.04799257964 -0.21875 1.184631237e-38
-0.2639592886 -0.4800367951 -0.1875 1.184631237e-38
0.1750000119 -0.212500006 -0.1875 1.184631237e-38
-0.34375 -0.4793883562 -0.2394578606 1.184631237e-38
-0.01249998808 -0.02500000596 -0.1875 1.184631237e-38
-0.3125 -0.2022264302 -0.2658716738 1.184631237e-38
0.34375 -0.34375 -0.1875 1.184631237e-38
-0.3437499702 -0.0812202841 -0.3543218374 1.184631237e-38
0.01164466143 -0.4700960517 -0.1875 1.184631237e-38
-0.3000000119 0.07499998808 -0.25 1.184631237e-38
-0.01595973223 -0.298221916 -0.2002701908 1.184631237e-38
-0.0151221659 -0.07773727924 -0.2187500149 1.184631237e-38
0 0.01249998808 -0.1999999881 1.184631237e-38
0.2314841896 -0.375 -0.1984719932 1.184631237e-38
-0.3125 -0.2375000119 -0.212500006 1.184631237e-38
0.1375662684 0.03237404302 -0.1874999851 1.184631237e-38
0.01249998808 -0.03749999404 -0.1999999881 1.184631237e-38
-0.1999999881 0.07499998808 -0.275000006 1.184631237e-38
0.3625000119 -0.162499994 -0.1875 1.184631237e-38
0.235163033 -0.1104925573 -0.21875 1.184631237e-38
0.139718622 -0.2337441146 -0.21875 1.184631237e-38
-0.08750000596 -0.1875 -0.1875 1.184631237e-38
-0.3437500298 -0.35935238 -0.2688180804 1.184631237e-38
-0.09999999404 -0.3125 -0.1999999881 1.184631237e-38
0.07499998808 -0.4250000119 -0.1999999881 1.184631237e-38
-0.2973397672 -0.5014449358 -0.2979184985 1.184631237e-38
-0.1397228837 -0.390281111 -0.21875 1.184631237e-38
-0.3125 -0.1395660341 -0.2967398763 1.184631237e-38
-0.1125000119 -0.287499994 -0.1875 1.184631237e-38
-0.09375 -0.4687499702 -0.284722209 1.184631237e-38
-0.1875 -0.1125000119 -0.1999999881 1.184631237e-38
0.1750000119 -0.1750000119 -0.1875 1.184631237e-38
0.375 -0.2596031129 -0.1875 1.184631237e-38
0.04693367705 0.01097359136 -0.21875 1.184631237e-38
-0.02500000596 0.01249998808 -0.1875 1.184631237e-38
-0.1724317819 -0.3590105474 -0.1989171505 1.184631237e-38
-0.1750000119 -0.05000001192 -0.1999999881 1.184631237e-38
-0.2375000119 -0.474999994 -0.1875 1.184631237e-38
-0.212500006 -0.08750000596 -0.1875 1.184631237e-38
-0.08045405149 0.0799285695 -0.3196498454 1.184631237e-38
-0.3125 -0.2984579802 -0.358225584 1.184631237e-38
-0.3190385997 -0.01565486006 -0.2964144647 1.184631237e-38
0.03750002384 -0.1999999881 -0.1999999881 1.184631237e-38
-0.09375 -0.4966913462 -0.2821691036 1.184631237e-38
0.4485118985 -0.06160714477 -0.1875 1.184631237e-38
0.2343195975 -0.04938690364 -0.1875000149 1.184631237e-38
-0.0625 -0.375 -0.1999999881 1.184631237e-38
0.1408361048 -0.3276944757 -0.1875 1.184631237e-38
0.3125 -0.3249999881 -0.1999999881 1.184631237e-38
-0.212500006 -0.4875000119 -0.349999994 1.184631237e-38
0.04740292579 -0.3898202181 -0.21875 1.184631237e-38
0.1625000238 -0.400000006 -0.1875 1.184631237e-38
-0.176419273 -0.5 -0.3561888039 1.184631237e-38
0.0625 -0.4250000119 -0.1875 1.184631237e-38
0.3249999881 -0.03749999404 -0.1999999881 1.184631237e-38
-0.34375 -0.2686699033 -0.2949115932 1.184631237e-38
0.3249999881 -0.03749999404 -0.1875 1.184631237e-38
-0.3125 -0.400000006 -0.1999999881 1.184631237e-38
-0.2029543221 -0.5004535317 -0.2354512811 1.184631237e-38
-0.2022016644 0.0625 -0.2665217519 1.184631237e-38
-0.25 -0.412499994 -0.1875 1.184631237e-38
-0.3033145964 -0.1087054983 -0.2269906551 1.184631237e-38
-0.2692843676 0.01591944322 -0.2187500149 1.184631237e-38
-0.09999999404 -0.4375 -0.1999999881 1.184631237e-38
0.1315789521 0.0625 -0.2187499851 1.184631237e-38
-0.3437500298 -0.04406014085 -0.2352232635 1.184631237e-38
0.2963153124 -0.1724316478 -0.1874999851 1.184631237e-38
0.234585911 -0.2970582247 -0.21875 1.184631237e-38
0.2250000238 -0.3625000119 -0.1999999881 1.184631237e-38
-0.3124999702 0.06720001251 -0.2375825197 1.184631237e-38
-0.287499994 -0.03749999404 -0.1875 1.184631237e-38
-0.1875 0.0625 -0.1875 1.184631237e-38
0.4750000238 -0.15625 -0.1875 1.184631237e-38
-0.1750000119 -0.3125 -0.1999999881 1.184631237e-38
-0.2025172114 -0.2976826727 -0.1987564713 1.184631237e-38
-0.1102140099 -0.172982648 -0.1874999702 1.184631237e-38
0.3000000119 -0.0625 -0.1875 1.184631237e-38
0.1403465271 -0.2033153474 -0.2000635564 1.184631237e-38
-0.3130088151 0.04820470512 -0.32651335 1.184631237e-38
-0.3125 -0.275000006 -0.3125 1.184631237e-38
0.1374999881 -0.3125 -0.1999999881 1.184631237e-38
-0.2659279406 -0.4866933227 -0.3275097311 1.184631237e-38
-0.2936290503 0.09374999255 -0.2652139068 1.184631237e-38
-0.3199632764 -0.1408991665 -0.3298220336 1.184631237e-38
-0.1374999881 -0.25 -0.1999999881 1.184631237e-38
0.2943696976 -0.02760878392 -0.1988602281 1.184631237e-38
-0.287499994 -0.3000000119 -0.1999999881 1.184631237e-38
0.3750000298 -0.2366983593 -0.2187500149 1.184631237e-38
-0.25 -0.4875000119 -0.337500006 1.184631237e-38
-0.2971129119 -0.4800746441 -0.2055387795 1.184631237e-38
0.1729882061 -0.2345392257 -0.1874999851 1.184631237e-38
0.2624999881 -0.3125 -0.1875 1.184631237e-38
-0.1125000119 -0.3874999881 -0.1999999881 1.184631237e-38
0.3625000119 -0.212500006 -0.212500006 1.184631237e-38
0.4250000119 -0.07499998808 -0.212500006 1.184631237e-38
-0.3045237064 -0.4590076208 -0.3288071752 1.184631237e-38
0.29759565 -0.1717086732 -0.21875 1.184631237e-38
-0.05000001192 0.07499998808 -0.2624999881 1.184631237e-38
-0.34375 -0.2901851535 -0.40625 1.184631237e-38
-0.05000001192 -0.3874999881 -0.1875 1.184631237e-38
-0.2643577158 0.0625 -0.2630043924 1.184631237e-38
0.3530762196 -0.170318976 -0.1875 1.184631237e-38
-0.150000006 0.07499998808 -0.337500006 1.184631237e-38
0.4750000238 -0.162499994 -0.1999999881 1.184631237e-38
0.1107488126 -0.3280445635 -0.2187500149 1.184631237e-38
0 0.07499998808 -0.1999999881 1.184631237e-38
0.375 -0.1125000119 -0.1999999881 1.184631237e-38
-0.1714308858 -0.4796450436 -0.1875 1.184631237e-38
-0.1125000119 -0.412499994 -0.1875 1.184631237e-38
-0.150000006 0.07499998808 -0.3249999881 1.184631237e-38
-0.05000001192 0.05000001192 -0.1999999881 1.184631237e-38
0.46875 -0.1875 -0.21875 1.184631237e-38
-0.3125 0.02499997616 -0.25 1.184631237e-38
0.40625 -0.1875 -0.1875 1.184631237e-38
-0.1875 -0.2375000119 -0.1875 1.184631237e-38
0.1999999881 -0.2624999881 -0.1875 1.184631237e-38
0 -0.1875 -0.1875 1.184631237e-38
-0.04694036767 -0.1093584299 -0.2002052069 1.184631237e-38
-0.1731968969 -0.0156529583 -0.21875 1.184631237e-38
0.02499997616 -0.125 -0.1875 1.184631237e-38
0 -0.462500006 -0.1875 1.184631237e-38
0.1750000119 -0.0625 -0.1875 1.184631237e-38
0.3500000238 -0.3125 -0.212500006 1.184631237e-38
-0.2624999881 -0.02500000596 -0.1999999881 1.184631237e-38
-0.3125 -0.349999994 -0.349999994 1.184631237e-38
-0.125 0.07499998808 -0.337500006 1.184631237e-38
-0.1999999881 -0.275000006 -0.1999999881 1.184631237e-38
-0.02500000596 -0.462500006 -0.1875 1.184631237e-38
0.265193224 -0.2346247584 -0.2187499851 1.184631237e-38
-0.03125 0.07499998808 -0.349999994 1.184631237e-38
0.05000001192 0 -0.1875 1.184631237e-38
-0.01249998808 -0.07499998808 -0.1875 1.184631237e-38
-0.2372736782 0.06528800726 -0.1875 1.184631237e-38
0.1000000238 -0.3625000119 -0.1999999881 1.184631237e-38
-0.1102806032 -0.4577021599 -0.2238761038 1.184631237e-38
-0.3125 -0.337500006 -0.2624999881 1.184631237e-38
-0.01607817598 -0.04805155843 -0.1875 1.184631237e-38
0.03750002384 0.07499998808 -0.212500006 1.184631237e-38
-0.08750000596 -0.09999999404 -0.1875 1.184631237e-38
-0.3125 -0.234934032 -0.1875000149 1.184631237e-38
-0.2652287483 -0.4212569892 -0.1875 1.184631237e-38
0.07812291384 -0.2344250977 -0.1996767372 1.184631237e-38
-0.2671920061 -0.2660101652 -0.219388634 1.184631237e-38
-0.275000006 -0.07499998808 -0.1999999881 1.184631237e-38
-0.1374999881 -0.05000001192 -0.1875 1.184631237e-38
0.09375 -0.25 -0.4375 1.184631237e-38
-0.125 -0.4875000119 -0.1999999881 1.184631237e-38
-0.1414963305 -0.5000772476 -0.2649218142 1.184631237e-38
0.2261904627 0.03124999814 -0.1874999851 1.184631237e-38
-0.3125 -0.09375 -0.40625 1.184631237e-38
0.375 -0.3132432997 -0.2082308084 1.184631237e-38
0.1374999881 -0.03749999404 -0.1999999881 1.184631237e-38
-0.1723967642 -0.3278708458 -0.1875 1.184631237e-38
-0.3200702667 -0.2673852444 -0.3300244212 1.184631237e-38
-0.3437500298 -0.2691791356 -0.3771267831 1.184631237e-38
-0.1374999881 -0.4875000119 -0.3125 1.184631237e-38
0.1625000238 -0.287499994 -0.1999999881 1.184631237e-38
-0.08750000596 -0.4875000119 -0.1875 1.184631237e-38
-0.3200569153 -0.1732579321 -0.379789561 1.184631237e-38
-0.1374999881 0.07499998808 -0.349999994 1.184631237e-38
0.01497703698 -0.01587165147 -0.2187500149 1.184631237e-38
0.05000001192 -0.125 -0.1999999881 1.184631237e-38
0.140863061 -0.233940661 -0.1875 1.184631237e-38
-0.3125 0.09375 -0.2132175416 2.348204041e-38
-0.25 0.07499998808 -0.224999994 2.348204041e-38
-0.3125 -0.4220778644 -0.329487592 2.348204041e-38
0.3125 -0.375 -0.1875 2.348204041e-38
-0.02500000596 -0.1750000119 -0.1875 2.348204041e-38
0.1875 -0.40625 -0.198855266 2.348204041e-38
0.2875000238 -0.01249998808 -0.1875 2.348204041e-38
0.1107088625 -0.26514709 -0.21875 2.348204041e-38
0.03750002384 -0.1374999881 -0.1875 2.348204041e-38
-0.08750000596 -0.09999999404 -0.1999999881 2.348204041e-38
0.375 -0.08750000596 -0.212500006 2.348204041e-38
-0.224999994 -0.3249999881 -0.1875 2.348204041e-38
0.1000000238 0.01249998808 -0.1999999881 2.348204041e-38
0.07499998808 -0.4375 -0.1875 2.348204041e-38
-0.2375000119 -0.2375000119 -0.1999999881 2.348204041e-38
-0.224999994 -0.400000006 -0.1999999881 2.348204041e-38
-0.212500006 0.07499998808 -0.3000000119 2.348204041e-38
-0.25 -0.3625000119 -0.1875 2.348204041e-38
-0.3437499702 -0.1085503995 -0.375 2.348204041e-38
-0.3125 -0.375 -0.1875 2.348204041e-38
-0.3125 -0.25 -0.3625000119 2.348204041e-38
0.3749999702 -0.1735066175 -0.2187499851 2.348204041e-38
0.21875 -0.25 -0.4375 2.348204041e-38
0.2346336097 -0.04860809445 -0.21875 2.348204041e-38
-0.25 -0.2375000119 -0.1875 2.348204041e-38
-0.07499998808 -0.02500000596 -0.1999999881 2.348204041e-38
-0.01533336751 -0.07697220892 -0.1875 2.348204041e-38
-0.3000000119 -0.01249998808 -0.1999999881 2.348204041e-38
