# .PCD v0.7 - Point Cloud Data file format
VERSION 0.7
FIELDS x y z rgb
SIZE 4 4 4 4
TYPE F F F F
COUNT 1 1 1 1
WIDTH 826
HEIGHT 1
VIEWPOINT 0 0 0 1 0 0 0
POINTS 826
DATA ascii
-0.1521551907 -0.4904642403 -0.09817501903 8.742304551e-39
-0.2222637236 -0.476062417 -0.08753846586 8.742304551e-39
-0.231949538 -0.4036032856 -0.09224007279 8.742304551e-39
-0.188631922 -0.3821442127 -0.06354624033 8.742304551e-39
-0.2107174397 -0.4405055046 -0.03186983243 8.742304551e-39
-0.03878954798 -0.4836294949 -0.184260726 8.742304551e-39
-0.09286069125 -0.4658300281 -0.1928317547 8.742304551e-39
0.01343424246 -0.4507311285 -0.1619544029 8.742304551e-39
-0.04999709129 -0.4836754203 -0.1129500866 8.742304551e-39
-0.2381147444 -0.4722996652 -0.1542569846 8.742304551e-39
-0.2570997477 -0.392065376 -0.1754267067 8.742304551e-39
-0.2049054801 -0.3702257276 -0.1688203216 8.742304551e-39
-0.2197717428 -0.4317870736 -0.1427572072 8.742304551e-39
0.4009467065 -0.4781342447 -0.1960709393 8.742304551e-39
0.346372962 -0.4834811091 -0.2043973505 8.742304551e-39
0.3444238901 -0.4281844199 -0.1469703317 8.742304551e-39
0.4157208502 -0.458021462 -0.1303562224 8.742304551e-39
0.06881548464 -0.4853888452 -0.2028254271 8.742304551e-39
0.001650087535 -0.4715716541 -0.2125703096 8.742304551e-39
0.1168949455 -0.4529437125 -0.1908097267 8.742304551e-39
0.06670038402 -0.4856485724 -0.1463083029 8.742304551e-39
-0.1220041737 -0.4759888649 -0.1909066439 8.742304551e-39
-0.1530130208 -0.4192071259 -0.1937390268 8.742304551e-39
-0.08900440484 -0.4042185843 -0.187281847 8.742304551e-39
-0.09550506622 -0.4593556225 -0.158182025 8.742304551e-39
-0.05788743496 -0.479054898 -0.187933445 8.742304551e-39
-0.09480793029 -0.4379710555 -0.1986688673 8.742304551e-39
-0.02756161988 -0.418448776 -0.1719150543 8.742304551e-39
-0.04524800926 -0.4726822078 -0.1428806782 8.742304551e-39
-0.2224237621 -0.4581310451 -0.1663348377 8.742304551e-39
-0.2392774224 -0.3732844293 -0.1769060493 8.742304551e-39
-0.1989304125 -0.3538706005 -0.1736113429 8.742304551e-39
-0.2061656415 -0.4119018912 -0.1532183886 8.742304551e-39
-0.005837336183 -0.4831228256 -0.1474977583 8.742304551e-39
-0.04713382572 -0.4396913648 -0.1564433277 8.742304551e-39
0.03812459111 -0.427497983 -0.1487163305 8.742304551e-39
-0.004768297076 -0.4767223597 -0.1053490192 8.742304551e-39
-0.237428844 -0.4819594622 0.2120964825 8.742304551e-39
-0.2290321887 -0.4461166263 0.1586607993 8.742304551e-39
-0.1794366241 -0.4382830262 0.2160684168 8.742304551e-39
-0.2088876069 -0.4750319719 0.2599204481 8.742304551e-39
-0.1278901398 -0.474475354 -0.1824273914 8.742304551e-39
-0.155903101 -0.3969158232 -0.1893580556 8.742304551e-39
-0.11274492 -0.3860759139 -0.1809311509 8.742304551e-39
-0.1173870638 -0.4411041141 -0.1490203738 8.742304551e-39
-0.09207118303 -0.4765719771 -0.1934657991 8.742304551e-39
-0.1214368418 -0.4200099111 -0.206905961 8.742304551e-39
-0.07126899809 -0.3979952037 -0.1927656531 8.742304551e-39
-0.07864516228 -0.4612308145 -0.1644339263 8.742304551e-39
-0.1492947936 -0.4759441912 -0.1929306388 8.742304551e-39
-0.1791191399 -0.4062042534 -0.1959998012 8.742304551e-39
-0.1327965856 -0.3865735233 -0.1876444817 8.742304551e-39
-0.1327904761 -0.442527324 -0.1654503196 8.742304551e-39
0.2739206254 -0.4627835453 -0.2345964611 8.742304551e-39
0.2577884197 -0.397654891 -0.2386188507 8.742304551e-39
0.2922551632 -0.3806654215 -0.2162413299 8.742304551e-39
0.3085209429 -0.4171510935 -0.2150981426 8.742304551e-39
0.3974623382 -0.4638988972 -0.222576648 8.742304551e-39
0.3651804328 -0.4443954527 -0.2156129181 8.742304551e-39
0.3480004072 -0.3753073812 -0.1857027113 8.742304551e-39
0.4143182933 -0.4164323211 -0.1801402718 8.742304551e-39
-0.04249141365 -0.4785062969 -0.2265039086 8.742304551e-39
-0.07980465144 -0.4253109097 -0.2332239449 8.742304551e-39
-0.009431250393 -0.3854855895 -0.2210003138 8.742304551e-39
-0.0115781948 -0.4556022882 -0.2032051086 8.742304551e-39
-0.2241445184 -0.4414134026 -0.1501330137 8.742304551e-39
-0.2375275493 -0.3483037055 -0.1617347151 8.742304551e-39
-0.1908066273 -0.3189316392 -0.16957362 8.742304551e-39
-0.1990908086 -0.3786097169 -0.1547294706 8.742304551e-39
0.2838676274 -0.4591179192 -0.2465140224 8.742304551e-39
0.2650681734 -0.3894654214 -0.24959445 8.742304551e-39
0.3072293699 -0.3667621613 -0.2284977138 8.742304551e-39
0.3198060989 -0.4069660306 -0.2206432521 8.742304551e-39
0.3946404457 -0.456505686 -0.2784639299 8.742304551e-39
0.3561847806 -0.4290389419 -0.2723335326 8.742304551e-39
0.3651780188 -0.3566620946 -0.2482830584 8.742304551e-39
0.4050930142 -0.4066652954 -0.2315389812 8.742304551e-39
0.2851240039 -0.4617015421 -0.1866388321 8.742304551e-39
0.2733455598 -0.3985905945 -0.188752979 8.742304551e-39
0.3084380925 -0.3736871183 -0.1684459001 8.742304551e-39
0.3209060133 -0.4129037559 -0.1697875559 8.742304551e-39
0.258772403 -0.4395662546 -0.177839905 8.742304551e-39
0.2502726614 -0.3555921912 -0.186409235 8.742304551e-39
0.276899159 -0.3369548321 -0.1676085293 8.742304551e-39
0.2849315703 -0.3839615285 -0.1715398431 8.742304551e-39
-0.2565490305 -0.4730970562 0.176083684 8.742304551e-39
-0.2510867119 -0.4043793678 0.1399828196 8.742304551e-39
-0.2161523402 -0.3754035234 0.1889750361 8.742304551e-39
-0.2257924378 -0.4258217216 0.2286975384 8.742304551e-39
-0.05945859849 -0.4685152769 -0.1791359186 8.742304551e-39
-0.08220424503 -0.3901188374 -0.1847975254 8.742304551e-39
-0.03312183172 -0.3615507782 -0.1694357097 8.742304551e-39
-0.0186065957 -0.4154884517 -0.154448092 8.742304551e-39
-0.1252033114 -0.4499270022 -0.1772171855 8.742304551e-39
-0.1422073543 -0.3538401127 -0.1761133969 8.742304551e-39
-0.10341499 -0.3163494468 -0.1666282415 8.742304551e-39
-0.09262437373 -0.3754798174 -0.1644255519 8.742304551e-39
0.2715270221 -0.4537867308 -0.2502917349 8.742304551e-39
0.2549976707 -0.3749909699 -0.2554365695 8.742304551e-39
0.2954047322 -0.3528410792 -0.2341009378 8.742304551e-39
0.3071916699 -0.39852494 -0.2357937992 8.742304551e-39
0.3893299997 -0.4685817063 -0.2405194342 8.742304551e-39
0.3520646989 -0.4583092928 -0.2327022254 8.742304551e-39
0.3452442586 -0.3842259943 -0.20269382 8.742304551e-39
0.4104062617 -0.430224061 -0.1866856217 8.742304551e-39
0.3781534731 -0.4377504289 -0.2240871191 8.742304551e-39
0.3585475087 -0.3984294534 -0.2258225977 8.742304551e-39
0.3574508727 -0.3429341614 -0.2027747929 8.742304551e-39
0.3931302428 -0.3947574794 -0.192736268 8.742304551e-39
-0.2250000536 -0.0409292914 -0.1168713048 5.820783626e-39
-0.2349658608 0.007845375687 -0.1188570857 5.820783626e-39
-0.2022820711 0.01828430966 -0.0978795588 5.820783626e-39
-0.2059800029 0.04079085588 -0.08798017353 5.820783626e-39
0.34763062 -0.4303601682 -0.209540695 5.820783626e-39
0.3407914042 -0.3636814952 -0.2124423981 5.820783626e-39
0.3589199185 -0.3251719773 -0.1987226903 5.820783626e-39
0.3704277873 -0.3694614768 -0.1910019219 5.820783626e-39
-0.2333832383 -0.05379961058 -0.1734220982 5.820783626e-39
-0.2374933958 0.007404587232 -0.1767519116 5.820783626e-39
-0.2035694122 0.0188531857 -0.1662729681 5.820783626e-39
-0.2025531828 0.03323154151 -0.1574752927 5.820783626e-39
-0.03705496341 -0.4526842833 -0.1861728281 5.820783626e-39
-0.057158418 -0.3617021143 -0.1930859685 5.820783626e-39
-0.009488649666 -0.3262525201 -0.1824339926 5.820783626e-39
-0.003223948181 -0.3905441463 -0.1766158938 5.820783626e-39
-0.2215748727 -0.4045456946 -0.1982170641 5.820783626e-39
-0.2372576296 -0.2983419001 -0.2011744678 5.820783626e-39
-0.2331967652 -0.2564868927 -0.1944392025 5.820783626e-39
-0.227227211 -0.3387604058 -0.1870413423 5.820783626e-39
-0.2251448929 -0.4673035145 0.2676163614 5.820783626e-39
-0.2386510074 -0.4095718861 0.2339715064 5.820783626e-39
-0.2027197778 -0.3906015456 0.2727741897 5.820783626e-39
-0.2144671679 -0.4394369125 0.2922768295 5.820783626e-39
-0.2237791121 -0.1034274772 -0.1303370595 5.820783626e-39
-0.2323227525 -0.02122097835 -0.1394036412 5.820783626e-39
-0.2214560509 -0.001414888538 -0.1063794568 5.820783626e-39
-0.2125491202 0.008488262072 -0.1015380621 5.820783626e-39
-0.2507068813 -0.006512817927 -0.05702827871 5.820783626e-39
-0.2581531703 0.03337933868 -0.05734310299 5.820783626e-39
-0.2571893036 0.03970570862 0.01603226364 5.820783626e-39
-0.247754246 0.048964113 0.01639131457 5.820783626e-39
-0.2355028987 -0.06279680878 -0.04904457182 5.820783626e-39
-0.2411377132 0.01020277198 -0.05647753179 5.820783626e-39
-0.2493781745 0.003304193262 0.02004794031 5.820783626e-39
-0.2435055971 0.01747891679 0.0167202875 5.820783626e-39
-0.2757444084 -0.09196333587 -0.1703840047 5.820783626e-39
-0.2721752822 -0.01064575929 -0.1815287322 5.820783626e-39
-0.2652407289 0.001265256666 -0.1644852161 5.820783626e-39
-0.2648008168 -0.01797871664 -0.1626588404 5.820783626e-39
0.30561167 -0.4418230951 -0.1410247236 5.820783626e-39
0.300126642 -0.3871869743 -0.1451502144 5.820783626e-39
0.2977906168 -0.3451518118 -0.1058857441 5.820783626e-39
0.34532547 -0.3978615105 -0.1135862693 5.820783626e-39
-0.2395577729 -0.04515494779 0.06841231138 5.820783626e-39
-0.236218065 0.01966399699 0.0830328986 5.820783626e-39
-0.2293643653 0.02353428304 0.1267228127 5.820783626e-39
-0.2256492376 0.02232890762 0.1316379011 5.820783626e-39
-0.2537798882 -0.07257691026 -0.00794011727 5.820783626e-39
-0.2529759407 -0.002901425585 -0.013998501 5.820783626e-39
-0.2513595819 -0.006817623042 0.05132243782 5.820783626e-39
-0.2489144504 0.000694250688 0.05357646942 5.820783626e-39
-0.1864766181 -0.4156535268 -0.1935431063 5.820783626e-39
-0.2037155628 -0.3140939176 -0.1908330619 5.820783626e-39
-0.192068547 -0.2702138722 -0.1934807897 5.820783626e-39
-0.1904162467 -0.3572512865 -0.1747832894 5.820783626e-39
-0.2074667215 -0.09820429236 -0.05146339536 5.820783626e-39
-0.2055441439 -0.008613488637 -0.06395953894 5.820783626e-39
-0.2248513699 -0.01500711869 0.01354762167 5.820783626e-39
-0.2158925235 -0.003713139333 0.01367530972 5.820783626e-39
-0.243933022 -0.0630306378 -0.1818644106 5.820783626e-39
-0.2434480488 0.005682093091 -0.1852304637 5.820783626e-39
-0.2131474316 0.01323384792 -0.1804257631 5.820783626e-39
-0.2105188072 0.03026269004 -0.1717634201 5.820783626e-39
-0.113081567 -0.472481519 -0.1870133281 5.820783626e-39
-0.1331554949 -0.3903253675 -0.200489223 5.820783626e-39
-0.08475788683 -0.3750803173 -0.2130700648 5.820783626e-39
-0.08239955455 -0.4376255274 -0.1741273999 5.820783626e-39
-0.2498441935 -0.03820540383 0.07742581517 5.820783626e-39
-0.2474330366 0.01845026016 0.09446532279 5.820783626e-39
-0.2374517024 0.0172330495 0.1296535432 5.820783626e-39
-0.2417773902 0.0147382766 0.1358845532 5.820783626e-39
-0.1094849482 -0.4412302971 -0.1775586009 5.820783626e-39
-0.122467421 -0.3325638473 -0.1875546724 5.820783626e-39
-0.09289567918 -0.2980424762 -0.1839309931 5.820783626e-39
-0.09018545598 -0.3657814562 -0.1790402234 5.820783626e-39
-0.1577009261 -0.4250332117 -0.2089713812 5.820783626e-39
-0.1693439186 -0.3128452003 -0.2224949598 5.820783626e-39
-0.1554108262 -0.2734049559 -0.2209120095 5.820783626e-39
-0.1490859985 -0.3475292027 -0.2152153552 5.820783626e-39
-0.2210797071 -0.4304167628 -0.1173120216 5.820783626e-39
-0.2342244983 -0.3286003172 -0.132894069 5.820783626e-39
-0.2316977084 -0.3043436706 -0.1065090075 5.820783626e-39
-0.2337103486 -0.3692936897 -0.08970437944 5.820783626e-39
-0.2293951213 -0.4277059138 0.217710793 5.820783626e-39
-0.236740917 -0.35304299 0.1840455234 5.820783626e-39
-0.217314899 -0.3380026817 0.2348131835 5.820783626e-39
-0.217030555 -0.3776413202 0.2602508664 5.820783626e-39
-0.02720460296 -0.4563470781 -0.1802547872 5.820783626e-39
-0.04755794257 -0.364577502 -0.1899521351 5.820783626e-39
0.003252640367 -0.3466814458 -0.1801248491 5.820783626e-39
0.008600439876 -0.3990028501 -0.1613804549 5.820783626e-39
-0.2419126332 -0.05997312441 0.1335518062 5.820783626e-39
-0.2364412248 0.01369039901 0.1408179104 5.820783626e-39
-0.2355291247 0.00722189853 0.1660461128 5.820783626e-39
-0.2279704213 0.006183187012 0.174318701 5.820783626e-39
0.151231423 -0.4876864851 -0.2210803926 5.820783626e-39
0.08033313602 -0.4834006727 -0.238788873 5.820783626e-39
0.1910276413 -0.4636026919 -0.2182206213 5.820783626e-39
0.1417535692 -0.4882984757 -0.1422473788 5.820783626e-39
-0.1972061396 -0.4196067154 -0.2227159142 5.820783626e-39
-0.2190454006 -0.319989115 -0.2233069241 5.820783626e-39
-0.1892296374 -0.2899994552 -0.2268206775 5.820783626e-39
-0.1845304072 -0.3558182716 -0.2199070752 5.820783626e-39
0.07191532105 -0.4855968058 -0.2092904449 5.820783626e-39
0.01193737611 -0.4707050025 -0.2185112536 5.820783626e-39
0.1244394779 -0.4494675398 -0.1921522915 5.820783626e-39
0.08631723374 -0.4829008579 -0.1505436897 5.820783626e-39
-0.1633605957 -0.08986337483 -0.2237869501 5.820783626e-39
-0.1770231724 -0.01395157259 -0.2246651947 5.820783626e-39
-0.1368300617 -0.001129909419 -0.2114496529 5.820783626e-39
-0.1413622797 0.01991123706 -0.2078641355 5.820783626e-39
0.3004748821 -0.4187212884 -0.1763773859 5.820783626e-39
0.2962019742 -0.3401685357 -0.183041513 5.820783626e-39
0.3149763346 -0.3218395412 -0.1637786925 5.820783626e-39
0.3347387314 -0.3640814126 -0.1665261686 5.820783626e-39
-0.2106331587 -0.02482600138 0.08310068399 5.820783626e-39
-0.2093719542 0.02493926883 0.09902647883 5.820783626e-39
-0.2073945105 0.01920419931 0.1358139515 5.820783626e-39
-0.1950450242 0.02724436298 0.1442387104 5.820783626e-39
-0.2530137599 -0.1891381443 -0.1143783927 5.820783626e-39
-0.2559687793 -0.09401094168 -0.112982586 5.820783626e-39
-0.2353132665 -0.06095497683 -0.1069553792 5.820783626e-39
-0.2256265879 -0.1251784563 -0.09948288649 5.820783626e-39
-0.1541683078 -0.4369407296 -0.2059310079 5.820783626e-39
-0.1731255352 -0.3385786116 -0.2120659649 5.820783626e-39
-0.145909071 -0.3147090971 -0.2276501358 5.820783626e-39
-0.1418093145 -0.3810948431 -0.2050603926 5.820783626e-39
-0.2696458101 -0.08416614681 0.09269734472 2.898180898e-39
-0.2589533925 -0.005976543762 0.09626574069 2.898180898e-39
-0.2516289055 -0.0116188461 0.1373142302 2.898180898e-39
-0.2517421246 -0.02437479794 0.1461762488 2.898180898e-39
-0.2544681132 -0.2064382434 -0.1426922679 2.898180898e-39
-0.2592033148 -0.1106509492 -0.1429780871 2.898180898e-39
-0.2426037192 -0.07426904142 -0.1410803795 2.898180898e-39
-0.2298329473 -0.1410683542 -0.1411226988 2.898180898e-39
0.1306440234 -0.4855626225 -0.2260800302 2.898180898e-39
0.08851633966 -0.4530820847 -0.2379956841 2.898180898e-39
0.1679249108 -0.4373012483 -0.240806967 2.898180898e-39
0.1421837658 -0.4804162681 -0.1962540746 2.898180898e-39
0.02101432905 -0.467900455 -0.1746627986 2.898180898e-39
-0.002023667097 -0.3887140453 -0.1763291955 2.898180898e-39
0.05838739499 -0.3706908822 -0.1756973565 2.898180898e-39
0.06174925342 -0.4329069555 -0.1521949768 2.898180898e-39
-0.2581685781 -0.1884365231 -0.009586267173 2.898180898e-39
-0.2600969076 -0.08926195651 -0.03303114325 2.898180898e-39
-0.2575447559 -0.08561906964 0.004389867187 2.898180898e-39
-0.2467133701 -0.121142678 0.02783933282 2.898180898e-39
-0.1362149715 -0.4386489093 -0.1988378763 2.898180898e-39
-0.1530936956 -0.3355169594 -0.2041313052 2.898180898e-39
-0.1129651293 -0.3064577579 -0.2007858455 2.898180898e-39
-0.1084710583 -0.3724899888 -0.195223242 2.898180898e-39
-0.2226182222 -0.401815623 -0.195261389 2.898180898e-39
-0.2403734326 -0.3056170344 -0.195364356 2.898180898e-39
-0.2324120998 -0.2700506747 -0.1925483942 2.898180898e-39
-0.2268929183 -0.3482680321 -0.1828092337 2.898180898e-39
-0.1647250354 -0.1222620085 -0.2024317086 2.898180898e-39
-0.1749124825 -0.0415041782 -0.2087844014 2.898180898e-39
-0.1519205868 -0.02198163792 -0.1914133132 2.898180898e-39
-0.1468649507 -0.01583737135 -0.1878222674 2.898180898e-39
-0.2204675674 -0.09959099442 -0.1590119898 2.898180898e-39
-0.2281962335 -0.01718154177 -0.1689568162 2.898180898e-39
-0.2103725076 -0.002776859328 -0.157503292 2.898180898e-39
-0.2033914626 0.004780380987 -0.1507154703 2.898180898e-39
-0.2521934211 -0.2616225481 -0.1509374082 2.898180898e-39
-0.2602600753 -0.1629398763 -0.159393549 2.898180898e-39
-0.2760614455 -0.1103235856 -0.1259908974 2.898180898e-39
-0.2599897683 -0.1958225518 -0.1166686416 2.898180898e-39
-0.2837983072 -0.1166568622 -0.1682799757 2.898180898e-39
-0.2866150737 -0.02803844959 -0.1741062105 2.898180898e-39
-0.2767235935 -0.02359676734 -0.1516022086 2.898180898e-39
-0.2788392901 -0.04665529728 -0.1482888162 2.898180898e-39
-0.2400288284 -0.2902494967 -0.1970672309 2.898180898e-39
-0.2591232657 -0.1959495246 -0.196716696 2.898180898e-39
-0.2649601996 -0.1360209435 -0.1790644526 2.898180898e-39
-0.2490046322 -0.2325518727 -0.1804986596 2.898180898e-39
-0.2729032934 -0.1744789779 -0.1996454895 2.898180898e-39
-0.2751346231 -0.07536524534 -0.2061206102 2.898180898e-39
-0.2595827878 -0.05500813201 -0.2032458484 2.898180898e-39
-0.2536439598 -0.1162156239 -0.2058350444 2.898180898e-39
-0.1500089467 -0.08723004162 -0.1833541095 2.898180898e-39
-0.1674598753 -0.01141609717 -0.1891753823 2.898180898e-39
-0.1173867062 -0.0005344366655 -0.1762157977 2.898180898e-39
-0.1210153177 0.02935355529 -0.1604792625 2.898180898e-39
-0.1649760902 -0.07133038342 -0.192003876 2.898180898e-39
-0.1795092821 8.858833462e-05 -0.2015451789 2.898180898e-39
-0.1352505982 0.01322771423 -0.1795398742 2.898180898e-39
-0.1410298645 0.0378286466 -0.1643610299 2.898180898e-39
0.02248686925 -0.4478808343 -0.1921797097 2.898180898e-39
-0.000530526042 -0.3666748106 -0.1963414252 2.898180898e-39
0.05819720775 -0.3345127702 -0.1978344023 2.898180898e-39
0.05583228171 -0.4037260115 -0.1902702153 2.898180898e-39
-0.2573507726 -0.09016796947 -0.07272660732 2.898180898e-39
-0.2574861944 -0.01764339954 -0.07980018854 2.898180898e-39
-0.2551867962 -0.01254698727 -0.03535537422 2.898180898e-39
-0.257693857 -0.01457276475 -0.02857217565 2.898180898e-39
-0.2242457867 -0.3889304101 -0.2020892501 2.898180898e-39
-0.2436436415 -0.2959336638 -0.2024773061 2.898180898e-39
-0.2347950637 -0.2557952106 -0.2032388449 2.898180898e-39
-0.2298761904 -0.3425251842 -0.1904228628 2.898180898e-39
-0.246099025 -0.1085181981 -0.05945253372 2.898180898e-39
-0.2492797673 -0.02537008747 -0.07376877218 2.898180898e-39
-0.2594285905 -0.0214886032 -0.01046213135 2.898180898e-39
-0.2524418831 -0.02695890144 -0.003755673766 2.898180898e-39
-0.2493857443 -0.1622137427 -0.2204900384 2.898180898e-39
-0.2516786158 -0.06244697049 -0.221123606 2.898180898e-39
-0.2335085869 -0.04227336496 -0.2195209265 2.898180898e-39
-0.2199774981 -0.07971418649 -0.2240946889 2.898180898e-39
-0.2678132057 -0.1675120145 -0.176579684 2.898180898e-39
-0.2717199028 -0.07429620624 -0.1833713651 2.898180898e-39
-0.2615445554 -0.06035907939 -0.1736137569 2.898180898e-39
-0.2518306077 -0.1202501282 -0.1794842929 2.898180898e-39
-0.2356495559 -0.4188872874 -0.2058131099 2.898180898e-39
-0.2573548257 -0.3291028738 -0.2106741965 2.898180898e-39
-0.2405770421 -0.2960541844 -0.2174940407 2.898180898e-39
-0.2411561608 -0.3764614463 -0.1906776428 2.898180898e-39
-0.2184372246 -0.3240827024 -0.1971953213 2.898180898e-39
-0.2368327975 -0.2318515778 -0.1942903996 2.898180898e-39
-0.2368451059 -0.161141187 -0.1861818433 2.898180898e-39
-0.2184670269 -0.2708593905 -0.183203429 2.898180898e-39
-0.2545785606 -0.2996388376 -0.04993397743 2.898180898e-39
-0.2690315247 -0.1891572922 -0.07374839485 2.898180898e-39
-0.2682258487 -0.1505656242 -0.03344086558 2.898180898e-39
-0.2551343739 -0.2316660881 -0.01862362027 2.898180898e-39
-0.02099553496 -0.07450660318 -0.2466652989 2.898180898e-39
-0.04942964017 -0.006344645284 -0.2486228049 2.898180898e-39
0.0127533488 0.01456517633 -0.2442070544 2.898180898e-39
-0.002617709339 0.03411734104 -0.2201961577 2.898180898e-39
-0.2407460213 -0.137768954 0.1619913578 2.898180898e-39
-0.2286539674 -0.02967948839 0.1506234407 2.898180898e-39
-0.237670511 -0.0304813236 0.1851137578 2.898180898e-39
-0.2202631235 -0.05662990734 0.1977960765 2.898180898e-39
-0.1624633372 -0.1677908301 -0.2228199244 2.898180898e-39
-0.170410037 -0.07881630212 -0.2219065428 2.898180898e-39
-0.1642058194 -0.04084578156 -0.2085882425 2.898180898e-39
-0.1495048106 -0.06826708466 -0.2105530202 2.898180898e-39
-0.2350832224 -0.4401580095 0.2670254111 2.898180898e-39
-0.2446295321 -0.3703194559 0.2306498289 2.898180898e-39
-0.2280529737 -0.3614431918 0.277115047 2.898180898e-39
-0.2226843536 -0.3960660994 0.2952099144 2.898180898e-39
-0.2041991949 -0.2479554415 -0.2105273306 2.898180898e-39
-0.2168001533 -0.1440216601 -0.2059753835 2.898180898e-39
-0.208478272 -0.1017437279 -0.2024933696 2.898180898e-39
-0.1862598658 -0.1760397106 -0.2055569589 2.898180898e-39
-0.1888788939 -0.3664931059 -0.2110155523 2.898180898e-39
-0.2049300671 -0.2745789886 -0.2088295519 2.898180898e-39
-0.1927063465 -0.2263980955 -0.2148216367 2.898180898e-39
-0.1826823652 -0.3118120134 -0.2103844881 2.898180898e-39
-0.2362407148 -0.3177054524 -0.1202241331 2.898180898e-39
-0.2539943159 -0.209466368 -0.1315174103 2.898180898e-39
-0.2699646354 -0.1721812934 -0.09570645541 2.898180898e-39
-0.2605929375 -0.2511997819 -0.07649057359 2.898180898e-39
-0.20840469 -0.1380622983 -0.06103523821 2.898180898e-39
-0.2077722251 -0.04318808392 -0.07392787188 2.898180898e-39
-0.2298375368 -0.04128061607 -0.00746101141 2.898180898e-39
-0.2203992009 -0.05765587464 0.0001169592142 2.898180898e-39
-0.2511905432 -0.3286787868 -0.2095052898 6.490113838e-41
-0.2719329596 -0.2392802835 -0.2093606591 6.490113838e-41
-0.2613164186 -0.1937964857 -0.2072991729 6.490113838e-41
-0.2528125644 -0.2782532573 -0.2026201189 6.490113838e-41
-0.2393695116 -0.1137168407 -0.1273519695 6.490113838e-41
-0.2431198657 -0.03732350841 -0.1332662553 6.490113838e-41
-0.2329919636 -0.02686734498 -0.1196483374 6.490113838e-41
-0.2318867743 -0.04024514183 -0.112291187 6.490113838e-41
0.009289521724 -0.4309058785 -0.1982702017 6.490113838e-41
-0.002929210663 -0.3353379667 -0.2040248215 6.490113838e-41
0.04501547664 -0.2983926535 -0.2080124617 6.490113838e-41
0.03571700305 -0.3741706014 -0.2077879012 6.490113838e-41
-0.2157933414 -0.1086505875 -0.1225067675 6.490113838e-41
-0.2238066792 -0.02928712964 -0.1289199889 6.490113838e-41
-0.2157951295 -0.01925805211 -0.09847718477 6.490113838e-41
-0.2118122578 -0.01398002822 -0.09223353863 6.490113838e-41
-0.2442858219 -0.3064545393 -0.01621497795 6.490113838e-41
-0.2580904961 -0.1864560097 -0.04300457239 6.490113838e-41
-0.2606879175 -0.1602471769 0.005956411362 6.490113838e-41
-0.2509736419 -0.2270352691 0.02449634671 6.490113838e-41
-0.2248213291 -0.3872785568 -0.1945043802 6.490113838e-41
-0.2446569204 -0.2904615402 -0.1915297508 6.490113838e-41
-0.2372629941 -0.2557531297 -0.194442302 6.490113838e-41
-0.23410815 -0.3396537602 -0.1836944222 6.490113838e-41
-0.1814386845 -0.2118955702 -0.1726440489 6.490113838e-41
-0.1942720115 -0.1125093848 -0.1687377095 6.490113838e-41
-0.1807036698 -0.08009284735 -0.1709323823 6.490113838e-41
-0.1616561413 -0.1435663551 -0.1719548553 6.490113838e-41
-0.2378605306 -0.3764393926 -0.1002255902 6.490113838e-41
-0.2582352459 -0.2693587542 -0.1140637472 6.490113838e-41
-0.2509225607 -0.2330487669 -0.1014883369 6.490113838e-41
-0.2560218871 -0.3116220236 -0.06483586133 6.490113838e-41
-0.1840094626 -0.1701084822 -0.166084215 6.490113838e-41
-0.1937671602 -0.0803438127 -0.1605460346 6.490113838e-41
-0.1637076437 -0.04853788391 -0.152936548 6.490113838e-41
-0.1522491574 -0.08871688694 -0.1584761739 6.490113838e-41
-0.08432153612 -0.09186495841 -0.2132374048 6.490113838e-41
-0.1061965451 -0.01923266053 -0.2140857279 6.490113838e-41
-0.0599919185 -0.009406824596 -0.1971124709 6.490113838e-41
-0.06066199392 0.02555142343 -0.1876268983 6.490113838e-41
-0.2000777125 -0.3989094496 -0.1819418073 6.490113838e-41
-0.2202483118 -0.2942168713 -0.1788800806 6.490113838e-41
-0.2053941488 -0.254674226 -0.179659158 6.490113838e-41
-0.201269269 -0.3357681036 -0.1688631773 6.490113838e-41
-0.2076710165 -0.172800824 -0.1517050266 6.490113838e-41
-0.2110111415 -0.08351909369 -0.1513481438 6.490113838e-41
-0.1896746159 -0.05321956053 -0.1493031681 6.490113838e-41
-0.1796736419 -0.1008394286 -0.154385075 6.490113838e-41
0.2144708633 -0.4627020955 -0.1988833249 6.490113838e-41
0.2018783391 -0.3854682744 -0.1994003057 6.490113838e-41
0.2591620684 -0.3817488253 -0.187084049 6.490113838e-41
0.2634694576 -0.4204781353 -0.1812223792 6.490113838e-41
-0.2041259408 -0.324524343 -0.1050426587 6.490113838e-41
-0.217369318 -0.2062789202 -0.1061222255 6.490113838e-41
-0.1993580759 -0.1742473841 -0.1001727879 6.490113838e-41
-0.1947348714 -0.2557721734 -0.08354180306 6.490113838e-41
-0.2008998096 -0.485360086 -0.03473383933 6.490113838e-41
-0.2062334418 -0.4394745529 -0.05741859227 6.490113838e-41
-0.1559529603 -0.4218882918 -0.0185117498 6.490113838e-41
-0.1948487163 -0.4798923433 0.03915293515 6.490113838e-41
0.389331758 -0.1313827187 -0.2055360973 6.490113838e-41
0.3767817318 -0.0351161249 -0.2062524557 6.490113838e-41
0.3686670363 -0.04314642772 -0.1785238981 6.490113838e-41
0.4088490009 -0.06848160177 -0.1797470301 6.490113838e-41
-0.1902808249 -0.228742823 -0.1879518628 6.490113838e-41
-0.2009950578 -0.1311113238 -0.1819571853 6.490113838e-41
-0.1871551275 -0.08248801529 -0.1822310835 6.490113838e-41
-0.1701819301 -0.1573737115 -0.1839344949 6.490113838e-41
0.2328061759 -0.409219116 -0.1816526502 6.490113838e-41
0.2327693403 -0.3221459985 -0.1916374862 6.490113838e-41
0.2469301224 -0.3011798859 -0.1607471108 6.490113838e-41
0.2612894177 -0.3620769978 -0.1717398018 6.490113838e-41
-0.1786524653 -0.292239219 -0.1767120659 6.490113838e-41
-0.1905502081 -0.1808925569 -0.1678807735 6.490113838e-41
-0.1856606007 -0.1306671053 -0.1686618328 6.490113838e-41
-0.1670826674 -0.230225116 -0.1607693732 6.490113838e-41
-0.2300739586 -0.4223818183 0.1995820999 6.490113838e-41
-0.2311426699 -0.3500017524 0.1644377708 6.490113838e-41
-0.218949616 -0.3217867315 0.2057566941 6.490113838e-41
-0.2244654596 -0.3700988889 0.2371329665 6.490113838e-41
-0.2250555456 -0.3893612921 -0.1893549562 6.490113838e-41
-0.2435564697 -0.2903613448 -0.1864883602 6.490113838e-41
-0.230676204 -0.2615947127 -0.1938785017 6.490113838e-41
-0.2286871374 -0.3287571967 -0.1829563677 6.490113838e-41
-0.1030601487 -0.1009197906 -0.2214991748 6.490113838e-41
-0.123120971 -0.03461632133 -0.2252074182 6.490113838e-41
-0.09323871881 -0.01554301661 -0.2131713927 6.490113838e-41
-0.08688301593 0.005465269554 -0.2122433782 6.490113838e-41
0.1377298832 -0.4710674882 -0.2301181257 6.490113838e-41
0.1203701943 -0.3960179985 -0.2373520136 6.490113838e-41
0.1865613461 -0.3731048405 -0.236825794 6.490113838e-41
0.1824770868 -0.4301279783 -0.2177443504 6.490113838e-41
-0.2307848632 -0.1584454477 0.3250440955 6.490113838e-41
-0.2074054182 -0.05288300291 0.2814534009 6.490113838e-41
-0.2140791714 -0.06087954715 0.3391906023 6.490113838e-41
-0.2088569999 -0.1029568389 0.3406197727 6.490113838e-41
-0.2151429951 -0.184845686 0.2128304839 6.490113838e-41
-0.200548768 -0.0783738941 0.1808390319 6.490113838e-41
-0.2143318653 -0.07821457088 0.2241887748 6.490113838e-41
-0.2021183074 -0.1217817292 0.2341980934 6.490113838e-41
-0.2182596326 -0.3613440096 -0.17675969 6.490113838e-41
-0.2345907092 -0.2573055625 -0.1812321544 6.490113838e-41
-0.2311325967 -0.2062487006 -0.1719624549 6.490113838e-41
-0.2142678797 -0.2924740314 -0.1707894802 6.490113838e-41
-0.1221639439 -0.2368981987 -0.2090815306 6.490113838e-41
-0.1354401112 -0.1413630098 -0.2108136714 6.490113838e-41
-0.1286161244 -0.08721639961 -0.19988814 6.490113838e-41
-0.1063113734 -0.1649087965 -0.2054225504 6.490113838e-41
-0.1938102543 -0.2327296585 -0.09910599887 6.490113838e-41
-0.1946697235 -0.1270626932 -0.0997761488 6.490113838e-41
-0.1855520606 -0.08546452224 -0.0841948539 6.490113838e-41
-0.1762361526 -0.1651920378 -0.07040571421 6.490113838e-41
0.02191639319 -0.05301900581 -0.203455627 6.490113838e-41
-0.002905853093 0.009503152221 -0.1970656514 6.490113838e-41
0.06387389451 -0.000529948622 -0.179965198 6.490113838e-41
0.05290610343 0.03671595082 -0.1611357927 6.490113838e-41
-0.02589944005 -0.1013047174 -0.2187190354 6.490113838e-41
-0.05859388411 -0.02285022289 -0.2193502486 6.490113838e-41
0.006762467325 -0.01777065918 -0.1986167431 6.490113838e-41
0.00312114507 0.0041453382 -0.194139123 6.490113838e-41
0.4311721325 -0.0877481997 -0.2478294671 6.490113838e-41
0.4198205769 -0.002818042412 -0.2477332652 6.490113838e-41
0.363925308 -0.009325145744 -0.2005360723 6.490113838e-41
0.4460855126 -0.0508457683 -0.2115381062 6.490113838e-41
-0.05953013897 -0.1784739196 -0.1666559726 6.490113838e-41
-0.07244189829 -0.08444593847 -0.171502471 6.490113838e-41
-0.0424925983 -0.06117191538 -0.1503556222 6.490113838e-41
-0.02844262868 -0.08905612677 -0.1630392373 6.490113838e-41
-0.1508977711 -0.4882663786 -0.07282349467 3.015101038e-39
-0.1595861018 -0.4759918749 -0.1197675094 3.015101038e-39
-0.05177012831 -0.4654134512 -0.03946235403 3.015101038e-39
-0.1642193794 -0.4881132245 0.02946992218 3.015101038e-39
-0.2440986037 -0.1777667403 0.1994901896 3.015101038e-39
-0.2253254652 -0.07403916866 0.1733181179 3.015101038e-39
-0.246263206 -0.08315837383 0.2119218707 3.015101038e-39
-0.2306334972 -0.1170590743 0.2222422063 3.015101038e-39
-0.2663971782 -0.2980032861 -0.06186487153 3.015101038e-39
-0.2725490034 -0.1861455142 -0.08574715257 3.015101038e-39
-0.2723983824 -0.1535551399 -0.04417408258 3.015101038e-39
-0.2526031435 -0.2233144343 -0.04189007357 3.015101038e-39
0.3668179512 -0.4833017886 -0.1746269763 3.015101038e-39
0.3055324852 -0.4912035167 -0.1989195645 3.015101038e-39
0.2867483497 -0.4404480755 -0.1185710728 3.015101038e-39
0.3856234252 -0.4832271636 -0.09273035079 3.015101038e-39
-0.2661522329 -0.3018119633 -0.01122011244 3.015101038e-39
-0.2693129778 -0.1890749633 -0.03643467277 3.015101038e-39
-0.2633698583 -0.1601311415 0.01842881739 3.015101038e-39
-0.2518260181 -0.2232812941 0.0327308774 3.015101038e-39
0.3319076598 -0.1223644242 -0.2083639503 3.015101038e-39
0.3162283599 -0.02422622219 -0.2067739069 3.015101038e-39
0.3336383998 -0.03603189066 -0.2010008395 3.015101038e-39
0.3418145776 -0.0343346484 -0.1759975553 3.015101038e-39
-0.1313318014 -0.1447963864 -0.2157270014 3.015101038e-39
-0.1435061097 -0.06713254005 -0.215136826 3.015101038e-39
-0.1136094853 -0.03839773312 -0.2028927803 3.015101038e-39
-0.1018057391 -0.06371053308 -0.2156214118 3.015101038e-39
0.4104925096 -0.3448554575 -0.2143017054 3.015101038e-39
0.3930537105 -0.2803218961 -0.209828645 3.015101038e-39
0.3242107332 -0.2193727195 -0.1969822347 3.015101038e-39
0.4085046947 -0.2813630104 -0.2131180763 3.015101038e-39
-0.219055146 -0.1779655516 -0.01923724636 3.015101038e-39
-0.2134105563 -0.07475616038 -0.03475767374 3.015101038e-39
-0.2162843347 -0.05645694956 0.0130411759 3.015101038e-39
-0.2111995518 -0.09648212045 0.02853982896 3.015101038e-39
0.04311986268 -0.02326152101 -0.1878330708 3.015101038e-39
0.02709786966 0.02692045271 -0.1724402606 3.015101038e-39
0.09366457909 0.009228879586 -0.172026217 3.015101038e-39
0.08007717133 0.04640165344 -0.1427305639 3.015101038e-39
-0.206935823 -0.219512701 0.002115540206 3.015101038e-39
-0.203519851 -0.1091579944 -0.0130754821 3.015101038e-39
-0.1990308762 -0.08184817433 0.03352632374 3.015101038e-39
-0.1960483491 -0.1424432695 0.0444669798 3.015101038e-39
-0.2535240352 -0.3103725612 -0.04360255599 3.015101038e-39
-0.263728708 -0.1997606307 -0.06010822579 3.015101038e-39
-0.2449999154 -0.1568021774 -0.03311024234 3.015101038e-39
-0.2395297587 -0.2390755713 -0.009106557816 3.015101038e-39
0.4049683809 -0.1742985845 -0.234115988 3.015101038e-39
0.3912480772 -0.08172864467 -0.2439939082 3.015101038e-39
0.35542202 -0.07579152286 -0.206614852 3.015101038e-39
0.4183340371 -0.1175793186 -0.2138666809 3.015101038e-39
-0.1427948177 -0.2122464627 -0.2071384788 3.015101038e-39
-0.152551651 -0.12406414 -0.2066411674 3.015101038e-39
-0.1441486478 -0.07144363225 -0.1918693781 3.015101038e-39
-0.1209511235 -0.1384812295 -0.2026022375 3.015101038e-39
-0.2537749708 -0.2502063513 0.03049629182 3.015101038e-39
-0.2573397756 -0.1502384543 0.008303530514 3.015101038e-39
-0.2389720678 -0.1261722893 0.06157269329 3.015101038e-39
-0.225322485 -0.1825822294 0.07718608528 3.015101038e-39
0.3936709762 -0.1814150512 -0.2230442464 3.015101038e-39
0.3782889247 -0.08336183429 -0.22333318 3.015101038e-39
0.377464205 -0.07642944157 -0.1943768561 3.015101038e-39
0.4081378281 -0.1140358299 -0.1933786869 3.015101038e-39
-0.1696569324 -0.2876905799 -0.1930731833 3.015101038e-39
-0.1824246943 -0.1805848181 -0.1918432117 3.015101038e-39
-0.1628194451 -0.1229142025 -0.188450247 3.015101038e-39
-0.1369629204 -0.2153748721 -0.1886138767 3.015101038e-39
0.3398999274 -0.1205703393 -0.2067608833 3.015101038e-39
0.3230786324 -0.02694757283 -0.2099195719 3.015101038e-39
0.3434101343 -0.03539750353 -0.1935969591 3.015101038e-39
0.3507787883 -0.04440116137 -0.1665098667 3.015101038e-39
-0.2452766299 -0.4788585305 -0.03655008227 3.015101038e-39
-0.2486245632 -0.412098974 -0.05054710805 3.015101038e-39
-0.2125226557 -0.3795689344 -0.01350919902 3.015101038e-39
-0.2322356999 -0.4512744248 0.0269902274 3.015101038e-39
0.4164031446 -0.2230889946 -0.1749096662 3.015101038e-39
0.3991073966 -0.1298861355 -0.1854483485 3.015101038e-39
0.3614310026 -0.1118787676 -0.1420196593 3.015101038e-39
0.4227217138 -0.1494082361 -0.1612428427 3.015101038e-39
-0.1607622802 -0.2231380045 -0.1779847145 3.015101038e-39
-0.1650362909 -0.129135102 -0.1822712719 3.015101038e-39
-0.1661006808 -0.0792420283 -0.1744248867 3.015101038e-39
-0.1441037357 -0.141293183 -0.1727211326 3.015101038e-39
-0.2301970124 -0.2307438552 0.01288695633 3.015101038e-39
-0.229886353 -0.1228118911 -0.00538912788 3.015101038e-39
-0.2266375124 -0.1087138429 0.04646646231 3.015101038e-39
-0.2193718553 -0.1631638706 0.05910526216 3.015101038e-39
-0.2440264821 -0.4871143997 0.02415735275 3.015101038e-39
-0.2404019535 -0.4622131288 -0.02140463889 3.015101038e-39
-0.1632208228 -0.4529026449 0.04215238243 3.015101038e-39
-0.2329708934 -0.4816092551 0.1118549332 3.015101038e-39
-0.1886392832 -0.311388433 -0.1674903929 3.015101038e-39
-0.1995774209 -0.2019441128 -0.1656324565 3.015101038e-39
-0.1903333366 -0.1453582048 -0.1629313976 3.015101038e-39
-0.169934094 -0.2418806851 -0.1571529508 3.015101038e-39
-0.1208596453 -0.2754482627 -0.2024947405 3.015101038e-39
-0.1357006133 -0.1729644686 -0.2031426728 3.015101038e-39
-0.1168709323 -0.1166405752 -0.1992304921 3.015101038e-39
-0.09875985235 -0.2042344362 -0.2022573352 3.015101038e-39
-0.2697463334 -0.1885752678 0.1149640605 3.015101038e-39
-0.2534490228 -0.08846528828 0.09629576653 3.015101038e-39
-0.2555993795 -0.07892240584 0.1421780288 3.015101038e-39
-0.2504419982 -0.1234086975 0.1461687684 3.015101038e-39
0.04377008229 -0.1148814783 -0.2080719471 3.015101038e-39
0.01967245713 -0.02616076916 -0.2064200342 3.015101038e-39
0.09360642731 -0.03044177964 -0.1951536834 3.015101038e-39
0.09000715613 -0.02537030727 -0.1869007796 3.015101038e-39
0.3575950265 -0.1136826873 -0.2071607411 3.015101038e-39
0.3398098648 -0.01745579019 -0.2073674202 3.015101038e-39
0.3576695025 -0.02400392294 -0.1897086203 3.015101038e-39
0.3750075102 -0.03657626361 -0.1786780953 3.015101038e-39
0.03770942986 -0.4653039277 -0.2009515762 3.015101038e-39
0.01380430534 -0.3889155388 -0.2021605968 3.015101038e-39
0.07838232815 -0.3493100703 -0.1890901029 3.015101038e-39
0.08783244342 -0.4175575376 -0.1836463809 3.015101038e-39
0.2506315112 -0.07073711604 -0.2669844031 3.015101038e-39
0.2393197119 0.006736395415 -0.2671070695 3.015101038e-39
0.2928337157 -0.01420510467 -0.2595385313 3.015101038e-39
0.2783823311 0.01299694926 -0.2281245291 3.015101038e-39
0.2216793299 -0.03125966713 -0.2042627931 3.015101038e-39
0.2077928782 0.02501363121 -0.1984237731 3.015101038e-39
0.2634298503 0.00601904327 -0.1913261712 3.015101038e-39
0.2445158064 0.03565819934 -0.1558718979 3.015101038e-39
0.4021455348 -0.2383400202 -0.2272732258 3.015101038e-39
0.3885379136 -0.1412373632 -0.223673135 3.015101038e-39
0.3860579729 -0.1089262739 -0.2037906349 3.015101038e-39
0.4128021002 -0.1561491042 -0.2041635811 3.015101038e-39
-0.2670251131 -0.2430071533 -0.03213450685 5.962428276e-39
-0.2733842134 -0.1475746632 -0.04414867237 5.962428276e-39
-0.2447459698 -0.1202112809 -0.006435990334 5.962428276e-39
-0.2329664528 -0.1717879623 0.007283784449 5.962428276e-39
0.321529448 -0.2362523824 -0.2329609394 5.962428276e-39
0.315628618 -0.1347800046 -0.2276755869 5.962428276e-39
0.3270029426 -0.1113517955 -0.2110981047 5.962428276e-39
0.330988884 -0.1670773625 -0.2077522278 5.962428276e-39
0.1932520568 0.02375609428 -0.2028425336 5.962428276e-39
0.1715081036 0.04891544953 -0.2015726566 5.962428276e-39
0.2328011096 0.03066088259 -0.1905592084 5.962428276e-39
0.2015312612 0.05455794558 -0.147633329 5.962428276e-39
-0.216167897 -0.2347961217 0.228741467 5.962428276e-39
-0.2042070031 -0.1398905218 0.1904717982 5.962428276e-39
-0.2210012674 -0.1123448014 0.2435091436 5.962428276e-39
-0.208735913 -0.1749699563 0.2635183632 5.962428276e-39
-0.1215255037 -0.3067454994 -0.2032369971 5.962428276e-39
-0.1350095272 -0.1976639628 -0.2108743191 5.962428276e-39
-0.1193523481 -0.1421864778 -0.2066187561 5.962428276e-39
-0.09771638364 -0.2423499227 -0.2011880279 5.962428276e-39
-0.2526857555 -0.2382330447 -0.02669171989 5.962428276e-39
-0.2527238727 -0.1287368983 -0.04603325576 5.962428276e-39
-0.2468051314 -0.09545650333 -0.004792913795 5.962428276e-39
-0.2269737422 -0.1624804437 0.006718583405 5.962428276e-39
0.00465701893 -0.1900107116 -0.1961843967 5.962428276e-39
-0.01903022826 -0.0913432315 -0.1958781183 5.962428276e-39
0.02179636434 -0.07047018409 -0.1761799157 5.962428276e-39
0.02703866363 -0.1010806859 -0.1851999462 5.962428276e-39
-0.273663491 -0.4873438179 0.1501344144 5.962428276e-39
-0.25857535 -0.4739156067 0.08302073926 5.962428276e-39
-0.179186523 -0.4574174285 0.1548329294 5.962428276e-39
-0.2309466898 -0.4811748862 0.2259242237 5.962428276e-39
-0.04068216681 -0.416012913 -0.1862691939 5.962428276e-39
-0.05117981136 -0.3117281795 -0.1941154897 5.962428276e-39
-0.009216539562 -0.2793849111 -0.1800499856 5.962428276e-39
-0.008118323982 -0.3440006375 -0.178393662 5.962428276e-39
-0.2272399068 -0.4790303707 -0.06421792507 5.962428276e-39
-0.2318281233 -0.4138052762 -0.07096346468 5.962428276e-39
-0.194085151 -0.3917995095 -0.03486569226 5.962428276e-39
-0.2120231688 -0.455938518 -0.002872303128 5.962428276e-39
0.3806213439 -0.3238533735 -0.2228384912 5.962428276e-39
0.3702836037 -0.2418266237 -0.2233193815 5.962428276e-39
0.3589237332 -0.2069215924 -0.2112256885 5.962428276e-39
0.3907311261 -0.2403934896 -0.2153790593 5.962428276e-39
0.02410306036 -0.1134405062 -0.2085216343 5.962428276e-39
-0.002979539335 -0.03021275625 -0.2106687427 5.962428276e-39
0.0642029345 -0.02796915546 -0.1904590726 5.962428276e-39
0.0625872165 -0.02100332081 -0.1913569868 5.962428276e-39
0.001141265035 -0.02188548073 -0.2119997144 5.962428276e-39
-0.02784413844 0.02225685492 -0.2047910988 5.962428276e-39
0.04593771696 0.01048256177 -0.1915493011 5.962428276e-39
0.03026458994 0.0501523912 -0.1782778054 5.962428276e-39
-0.02122910321 -0.2033163309 -0.1916919053 5.962428276e-39
-0.04418102652 -0.109330304 -0.1921190321 5.962428276e-39
-0.0006594955921 -0.07341883332 -0.173403129 5.962428276e-39
0.01117860898 -0.1280491352 -0.1886773407 5.962428276e-39
0.349157095 -0.481790334 -0.1315024197 5.962428276e-39
0.2662099302 -0.492910713 -0.1537573934 5.962428276e-39
0.2976619005 -0.4551579654 -0.08136832714 5.962428276e-39
0.3557887375 -0.486081779 -0.0348303318 5.962428276e-39
-0.1604592502 -0.2794917226 -0.1952547431 5.962428276e-39
-0.173731178 -0.1756101251 -0.1869211793 5.962428276e-39
-0.1378644407 -0.137374118 -0.1926449239 5.962428276e-39
-0.1187578961 -0.215642944 -0.1910951436 5.962428276e-39
0.1717991978 -0.02855176106 -0.2128550708 5.962428276e-39
0.1603431702 0.02621366084 -0.2145243883 5.962428276e-39
0.2210510969 -0.001744496636 -0.2171527743 5.962428276e-39
0.2018336058 0.03464245796 -0.1803638935 5.962428276e-39
0.3395185769 -0.3449232578 -0.1880452335 5.962428276e-39
0.3350384235 -0.2586251795 -0.1921413541 5.962428276e-39
0.3350109756 -0.2077385187 -0.1845635474 5.962428276e-39
0.3540577292 -0.2597818673 -0.1889200509 5.962428276e-39
-0.2458283901 -0.4843147695 0.1660673916 5.962428276e-39
-0.2237303257 -0.4554772675 0.118602939 5.962428276e-39
-0.1805776358 -0.4185222089 0.1789395809 5.962428276e-39
-0.2022049129 -0.4696961939 0.2291140258 5.962428276e-39
-0.2146634161 -0.1666824371 0.02021729201 5.962428276e-39
-0.2049415112 -0.07779355347 0.001782588661 5.962428276e-39
-0.1884029508 -0.08013220131 0.04524637014 5.962428276e-39
-0.1832006574 -0.1042072847 0.05257800221 5.962428276e-39
0.2963730097 -0.148995772 -0.2372620702 5.962428276e-39
0.2881356478 -0.05444178358 -0.234149307 5.962428276e-39
0.3087210059 -0.06318385154 -0.2323847413 5.962428276e-39
0.3049877584 -0.08064842224 -0.2116203308 5.962428276e-39
0.3963359296 -0.2603820562 -0.209069699 5.962428276e-39
0.3811373413 -0.1668171585 -0.206522733 5.962428276e-39
0.3769579828 -0.1308511943 -0.1806105226 5.962428276e-39
0.4048290849 -0.1775184423 -0.1885658503 5.962428276e-39
0.3289432824 -0.3507173061 -0.2604010701 5.962428276e-39
0.3200021386 -0.2657682002 -0.2563112378 5.962428276e-39
0.3213121891 -0.1934778839 -0.2421910465 5.962428276e-39
0.3429119885 -0.2701419294 -0.250937283 5.962428276e-39
0.280474484 -0.145363003 -0.2401810884 5.962428276e-39
0.2755798101 -0.04456741735 -0.2374460697 5.962428276e-39
0.3008313179 -0.04699565843 -0.2330371141 5.962428276e-39
0.2877103686 -0.05717844144 -0.2090958059 5.962428276e-39
-0.09389650077 -0.3965365589 -0.1914024353 5.962428276e-39
-0.1037838534 -0.2914506495 -0.1999048591 5.962428276e-39
-0.05584590882 -0.2394671738 -0.1915268898 5.962428276e-39
-0.04661360383 -0.3159092665 -0.192633152 5.962428276e-39
0.2886574268 -0.4908498824 -0.1524738669 5.962428276e-39
0.1733281463 -0.4928180277 -0.2097463012 5.962428276e-39
0.284722954 -0.4649220407 -0.1290046573 5.962428276e-39
0.2632866204 -0.4956732094 -0.0375566557 5.962428276e-39
-0.2520520091 -0.4883145988 0.03159656376 5.962428276e-39
-0.245074898 -0.4665053487 -0.005755539984 5.962428276e-39
-0.1664530039 -0.4500110745 0.04007142037 5.962428276e-39
-0.2252624631 -0.4824625254 0.1097161248 5.962428276e-39
0.1834902465 -0.02298947051 -0.1607445776 5.962428276e-39
0.1644469947 0.02560823597 -0.1537841558 5.962428276e-39
0.2226487398 -0.0009312685579 -0.1435914636 5.962428276e-39
0.2106489539 0.03580706567 -0.1197919846 5.962428276e-39
0.04059562087 -0.09614624083 -0.2334809601 5.962428276e-39
0.01118572801 -0.0168899782 -0.2388936281 5.962428276e-39
0.09442205727 -0.01612335443 -0.2342717946 5.962428276e-39
0.08044984937 -0.002241979353 -0.221131891 5.962428276e-39
0.3628243804 -0.1344777495 -0.1876078844 5.962428276e-39
0.3491283953 -0.03917988017 -0.1943831742 5.962428276e-39
0.3480588496 -0.04144759849 -0.1600382924 5.962428276e-39
0.3861420155 -0.07096797973 -0.1640904993 5.962428276e-39
-0.03678661585 -0.2489297986 -0.1890510172 5.962428276e-39
-0.05350612849 -0.1511107236 -0.1859545708 5.962428276e-39
-0.02050945908 -0.09448961914 -0.1702572554 5.962428276e-39
-0.005429074168 -0.1763339192 -0.1854390204 5.962428276e-39
-0.09529735893 -0.3458639979 -0.1953410804 5.962428276e-39
-0.1103655472 -0.2394496799 -0.1986045241 5.962428276e-39
-0.05751471221 -0.1784708053 -0.1956958771 5.962428276e-39
-0.04510291666 -0.2825595737 -0.2007930875 5.962428276e-39
0.008347295225 -0.187311992 -0.1891965866 8.906165387e-39
-0.01595825702 -0.08893103153 -0.1876939833 8.906165387e-39
0.04017122462 -0.06178649887 -0.1636525393 8.906165387e-39
0.04833051935 -0.1101613566 -0.1748647839 8.906165387e-39
0.03150814399 -0.1660106182 -0.177562952 8.906165387e-39
0.01111672074 -0.06157075241 -0.1779154539 8.906165387e-39
0.05465720966 -0.04900188372 -0.1523637772 8.906165387e-39
0.0647226572 -0.07904607803 -0.1516998559 8.906165387e-39
-0.2479598224 -0.3419871628 -0.005690336227 8.906165387e-39
-0.2562304735 -0.2327957451 -0.02585038915 8.906165387e-39
-0.2435646057 -0.1972686499 0.009584024549 8.906165387e-39
-0.2465381026 -0.2655921876 0.04101537168 8.906165387e-39
0.1806733012 -0.04573308676 -0.1448802054 8.906165387e-39
0.1680358946 0.0121895615 -0.1351406723 8.906165387e-39
0.2162767649 -0.01195151079 -0.1224106103 8.906165387e-39
0.2036079466 0.02339033037 -0.1075797975 8.906165387e-39
-0.0790226087 -0.3976356089 -0.1710901558 8.906165387e-39
-0.09394236654 -0.2849062383 -0.171995014 8.906165387e-39
-0.05363288522 -0.2210219055 -0.1739428788 8.906165387e-39
-0.04992054403 -0.3265720606 -0.1886923909 8.906165387e-39
-0.2122496665 -0.28746894 0.02432797104 8.906165387e-39
-0.2146787941 -0.1663983464 0.01207605749 8.906165387e-39
-0.2154628634 -0.1304901391 0.06348445266 8.906165387e-39
-0.2027063072 -0.1979811937 0.06680542976 8.906165387e-39
-0.2011664212 -0.2954159081 -0.005451187491 8.906165387e-39
-0.2034225762 -0.1708979309 -0.024033539 8.906165387e-39
-0.2023844719 -0.1286099404 0.0338363722 8.906165387e-39
-0.191314429 -0.2098264843 0.03760454059 8.906165387e-39
-0.2416926026 -0.3321365714 0.004073247313 8.906165387e-39
-0.2477364838 -0.2025542706 -0.02179335803 8.906165387e-39
-0.2405849993 -0.179954201 0.03296715021 8.906165387e-39
-0.228432864 -0.243884176 0.04730947316 8.906165387e-39
-0.2181493044 -0.2025156021 0.0268965438 8.906165387e-39
-0.2104428709 -0.08800330013 0.00838008523 8.906165387e-39
-0.2132880688 -0.07617457211 0.06204961985 8.906165387e-39
-0.207292825 -0.126982227 0.07458115369 8.906165387e-39
0.276666075 -0.1507736892 -0.1901992559 8.906165387e-39
0.2729801834 -0.04982060194 -0.1876733601 8.906165387e-39
0.2877317965 -0.05954395607 -0.1898852736 8.906165387e-39
0.2838578224 -0.07003101707 -0.1722837389 8.906165387e-39
0.1265673339 -0.06306517124 -0.2386892736 8.906165387e-39
0.1254768968 0.0111446213 -0.2406719923 8.906165387e-39
0.1698927134 -0.004188290797 -0.2351348102 8.906165387e-39
0.1567718387 0.02146882564 -0.2084576488 8.906165387e-39
0.2956490517 -0.4899307787 -0.1784817278 8.906165387e-39
0.1903258562 -0.493152827 -0.2271252871 8.906165387e-39
0.2874388993 -0.460347265 -0.1542412937 8.906165387e-39
0.2886712849 -0.4933616817 -0.06827416271 8.906165387e-39
0.1650551856 -0.1271824539 -0.2380675077 8.906165387e-39
0.1583314091 -0.02629194781 -0.2447073162 8.906165387e-39
0.2128994763 -0.03199506178 -0.2249703109 8.906165387e-39
0.2017952204 -0.03906023875 -0.2124876976 8.906165387e-39
0.02967144176 -0.1935339123 -0.2004617751 8.906165387e-39
0.008740745485 -0.0959822461 -0.2000769079 8.906165387e-39
0.05996526405 -0.06804177165 -0.1754903495 8.906165387e-39
0.07115662098 -0.1195758805 -0.1828825176 8.906165387e-39
0.06478171796 -0.03083237261 -0.1729387641 8.906165387e-39
0.0443649739 0.02149659023 -0.1611181051 8.906165387e-39
0.110896796 -4.561338574e-05 -0.1500829756 8.906165387e-39
0.1000545546 0.04361584783 -0.1268653423 8.906165387e-39
-0.08439300209 -0.3734510839 -0.1738501042 8.906165387e-39
-0.09846363217 -0.2624033689 -0.1742787957 8.906165387e-39
-0.04916290939 -0.1947142184 -0.1657909155 8.906165387e-39
-0.04564224184 -0.3016877472 -0.1720370054 8.906165387e-39
-0.2039863467 -0.2662838101 0.0918476209 8.906165387e-39
-0.2016029954 -0.1549632996 0.07850883156 8.906165387e-39
-0.2096535861 -0.1351795197 0.1235662177 8.906165387e-39
-0.1954511702 -0.187641561 0.128749609 8.906165387e-39
0.1020673513 -0.4446925819 -0.2115206718 8.906165387e-39
0.09001362324 -0.3705153763 -0.2179179788 8.906165387e-39
0.1428842545 -0.3376110792 -0.211940378 8.906165387e-39
0.1437536329 -0.3988657892 -0.2079353333 8.906165387e-39
0.3010354936 -0.179377526 -0.1807718873 8.906165387e-39
0.297106564 -0.07414654642 -0.1851694733 8.906165387e-39
0.3032738268 -0.0780813843 -0.1675575078 8.906165387e-39
0.3118997514 -0.1118937209 -0.1579446197 8.906165387e-39
-0.2157025039 -0.2445301712 -0.01457810402 8.906165387e-39
