# .PCD v0.7 - Point Cloud Data file format
VERSION 0.7
FIELDS x y z rgb
SIZE 4 4 4 4
TYPE F F F F
COUNT 1 1 1 1
WIDTH 825
HEIGHT 1
VIEWPOINT 0 0 0 1 0 0 0
POINTS 825
DATA ascii
-0.2343602628 -0.01679391786 -0.1900566071 8.742304551e-39
-0.2484336942 -0.0373756066 -0.1765211821 8.742304551e-39
-0.2551985681 -0.01921224035 -0.117953226 8.742304551e-39
-0.2595357001 -0.04327362403 -0.1248564273 8.742304551e-39
-0.2442026585 -0.2365980744 -0.2061385214 8.742304551e-39
-0.2415343225 -0.2802787423 -0.2051081359 8.742304551e-39
-0.2402377129 -0.2123746872 -0.1573270708 8.742304551e-39
-0.2266263813 -0.3143001199 -0.1804476976 8.742304551e-39
-0.2264853567 0.02658990026 -0.1023488343 8.742304551e-39
-0.2455565482 6.164237857e-05 -0.09838269651 8.742304551e-39
-0.2593505383 0.02174219489 -0.03978631273 8.742304551e-39
-0.2622952461 -0.009983938187 -0.05544577911 8.742304551e-39
-0.2252784371 -0.1938436925 -0.2081612051 8.742304551e-39
-0.2185393125 -0.2437498271 -0.2049393654 8.742304551e-39
-0.224243328 -0.181091696 -0.1605106592 8.742304551e-39
-0.2122569829 -0.2836900949 -0.1762220263 8.742304551e-39
-0.2095396519 0.0386800915 -0.1797238886 8.742304551e-39
-0.2395796776 0.01628990099 -0.1639491916 8.742304551e-39
-0.2585061491 0.04025983065 -0.1054926962 8.742304551e-39
-0.2523269355 0.01128646731 -0.1136955693 8.742304551e-39
-0.1909684688 -0.1029764339 -0.02352434397 8.742304551e-39
-0.1889194995 -0.1448336393 -0.02343966812 8.742304551e-39
-0.1860153377 -0.08260060847 0.01695323735 8.742304551e-39
-0.1957174689 -0.173925519 0.01114156097 8.742304551e-39
-0.2496200353 -0.2373840213 -0.2154091299 8.742304551e-39
-0.2476411313 -0.280864507 -0.2178180516 8.742304551e-39
-0.2499184757 -0.2156445086 -0.1713038683 8.742304551e-39
-0.2369684726 -0.3146163523 -0.1921297908 8.742304551e-39
-0.2363747507 -0.08876524866 0.01002553105 5.820783626e-39
-0.2550643981 -0.1224971563 0.01906157285 5.820783626e-39
-0.2358818352 -0.07955211401 0.06228957325 5.820783626e-39
-0.248386398 -0.1504352242 0.04262097925 5.820783626e-39
-0.2589443922 -0.169051066 -0.005469173193 5.820783626e-39
-0.2784027457 -0.2068524361 0.004032969475 5.820783626e-39
-0.2646539509 -0.1494485736 0.05681610852 5.820783626e-39
-0.254755497 -0.2347802222 0.02972035855 5.820783626e-39
-0.2299051285 0.01968941838 -0.2030604184 5.820783626e-39
-0.2491339892 0.0003420524299 -0.1889670491 5.820783626e-39
-0.2620414197 0.02880065143 -0.1365184337 5.820783626e-39
-0.2672533989 -0.005854554474 -0.1420201212 5.820783626e-39
-0.1634098291 -0.1409044564 0.006807371974 5.820783626e-39
-0.1642869264 -0.177185446 0.001891873777 5.820783626e-39
-0.1724505574 -0.1186348423 0.04977106303 5.820783626e-39
-0.1752871722 -0.2225647569 0.04054176062 5.820783626e-39
-0.2693656981 -0.2366396785 -0.06320984662 5.820783626e-39
-0.2751955092 -0.2730758488 -0.06446191669 5.820783626e-39
-0.2599435747 -0.2166717052 -0.005062431097 5.820783626e-39
-0.2551374733 -0.3138233125 -0.02696106583 5.820783626e-39
-0.1455367208 -0.1441709995 -0.1988582313 5.820783626e-39
-0.1521054804 -0.1877922714 -0.1933759153 5.820783626e-39
-0.1525598019 -0.1284788251 -0.1600592881 5.820783626e-39
-0.1552552581 -0.2376206219 -0.1730750799 5.820783626e-39
-0.2096000612 0.03725412488 -0.07160785794 5.820783626e-39
-0.2245717496 0.005971193314 -0.06396662444 5.820783626e-39
-0.254715234 0.02998954803 -0.005258969963 5.820783626e-39
-0.2524281144 0.0004768446088 -0.02238173783 5.820783626e-39
-0.2354282588 -0.08628964424 0.004357814789 5.820783626e-39
-0.249390617 -0.1220767051 0.009743392467 5.820783626e-39
-0.2324997932 -0.08250981569 0.05922002345 5.820783626e-39
-0.2420298904 -0.1511315703 0.03639083356 5.820783626e-39
-0.2170775533 -0.1983855665 -0.2097057402 5.820783626e-39
-0.2074622959 -0.2549153864 -0.2154151648 5.820783626e-39
-0.2142136991 -0.190102905 -0.1598131657 5.820783626e-39
-0.2088222802 -0.2902022898 -0.1737412065 5.820783626e-39
-0.1971428841 0.03727067262 -0.06652734429 5.820783626e-39
-0.2107605636 0.006041757762 -0.05403636768 5.820783626e-39
-0.2395185083 0.02899457514 0.01196203381 5.820783626e-39
-0.2409354895 0.0006021596491 -0.006912209094 5.820783626e-39
-0.1846375614 -0.2683172524 -0.03556878865 5.820783626e-39
-0.1750615835 -0.3048598468 -0.03403476626 5.820783626e-39
-0.1724081337 -0.2213898301 0.01860836893 5.820783626e-39
-0.171756357 -0.3567661941 0.005192294717 5.820783626e-39
-0.2121362239 -0.2415210903 -0.05069377646 5.820783626e-39
-0.2100141793 -0.278393209 -0.05064192414 5.820783626e-39
-0.2084249705 -0.2038291991 0.008488714695 5.820783626e-39
-0.2035660297 -0.3178909421 -0.005853787065 5.820783626e-39
-0.2053174973 -0.1014256477 0.06602092832 5.820783626e-39
-0.2162667811 -0.1396955252 0.07629334182 5.820783626e-39
-0.2149440199 -0.1022778377 0.1102243587 5.820783626e-39
-0.2115071863 -0.185485363 0.09492553025 5.820783626e-39
-0.2248889357 -0.183221668 0.03632115573 5.820783626e-39
-0.2355562747 -0.2184952199 0.04339375347 5.820783626e-39
-0.2332333773 -0.1560355872 0.09295005351 5.820783626e-39
-0.2261949927 -0.2631480694 0.06947023422 5.820783626e-39
-0.2272191197 0.05192810297 -0.1342306137 5.820783626e-39
-0.251899749 0.02688333392 -0.1266226023 5.820783626e-39
-0.2693842351 0.04769536108 -0.05711263418 5.820783626e-39
-0.2584850788 0.02212609351 -0.07476685196 5.820783626e-39
-0.1734522879 -0.2159949541 -0.003371059895 5.820783626e-39
-0.1717263013 -0.2553589046 -0.008813709021 5.820783626e-39
-0.1774926037 -0.1843197644 0.04520822316 5.820783626e-39
-0.1770604402 -0.3123972714 0.03274680674 5.820783626e-39
-0.2339440435 -0.1845452487 -0.02353490144 5.820783626e-39
-0.2422525734 -0.2224449217 -0.01969979703 5.820783626e-39
-0.235634163 -0.1655845046 0.03526998311 5.820783626e-39
-0.2309457213 -0.2690615356 0.01215985417 5.820783626e-39
-0.1753583997 -0.184550494 0.06292907149 5.820783626e-39
-0.1839776337 -0.2291185558 0.06416740268 5.820783626e-39
-0.1969451606 -0.1764648259 0.1174511388 5.820783626e-39
-0.1905025095 -0.2763753235 0.09698013216 5.820783626e-39
-0.2480423003 -0.270342648 -0.2014231086 5.820783626e-39
-0.2489397079 -0.3103335202 -0.206019491 5.820783626e-39
-0.2349134386 -0.2465394139 -0.1654111147 5.820783626e-39
-0.2284520715 -0.3456373811 -0.1834208667 5.820783626e-39
-0.2143262476 0.01562082395 -0.1894477755 5.820783626e-39
-0.2298030406 -0.01425157674 -0.1849541068 5.820783626e-39
-0.2432841063 0.01699298993 -0.1190193743 5.820783626e-39
-0.2492467612 -0.01435173675 -0.1364008933 5.820783626e-39
-0.2249356806 -0.1860598624 -0.2067180276 5.820783626e-39
-0.2204753011 -0.2443475425 -0.2113262117 5.820783626e-39
-0.2193685919 -0.1753965318 -0.1641527861 5.820783626e-39
-0.2142980546 -0.2780507505 -0.1786510348 5.820783626e-39
-0.2180577815 0.03519589454 -0.1179704368 5.820783626e-39
-0.2310502678 0.003208179027 -0.1129331067 5.820783626e-39
-0.2540236413 0.02610155195 -0.04334610701 5.820783626e-39
-0.2501634657 -0.004411093891 -0.06655681878 5.820783626e-39
-0.2315604389 0.0001634843647 -0.2180321217 5.820783626e-39
-0.2436900288 -0.03162293136 -0.2174714506 5.820783626e-39
-0.2341109216 -0.004177030176 -0.172881484 5.820783626e-39
-0.2475795299 -0.0379445143 -0.1760623306 5.820783626e-39
-0.2338099778 -0.2816880047 -0.1992550492 5.820783626e-39
-0.2331110984 -0.3193664849 -0.2041758299 5.820783626e-39
-0.227372691 -0.2479472756 -0.1579579711 5.820783626e-39
-0.2219833881 -0.3515240252 -0.1741783917 5.820783626e-39
-0.2219790518 -0.05661021918 -0.201850459 5.820783626e-39
-0.2356737256 -0.0900297761 -0.1909692436 5.820783626e-39
-0.2321389765 -0.06283551455 -0.1410566419 5.820783626e-39
-0.2432709485 -0.1060026139 -0.1423677057 5.820783626e-39
-0.2185108662 0.03971458226 -0.1865003109 5.820783626e-39
-0.241208449 0.01222519949 -0.1769685149 5.820783626e-39
-0.2527690828 0.04121261835 -0.1254751533 5.820783626e-39
-0.2495011538 0.009796060622 -0.1402347684 5.820783626e-39
-0.2523284554 -0.2623580992 -0.07532108575 5.820783626e-39
-0.2585920095 -0.287794292 -0.0715957284 5.820783626e-39
-0.2486706823 -0.2247217894 -0.004798188806 5.820783626e-39
-0.2360195816 -0.3174741566 -0.02041452378 5.820783626e-39
-0.1711231917 -0.06646366417 0.02195303142 5.820783626e-39
-0.1678807884 -0.1009068638 0.02525567263 5.820783626e-39
-0.1847948581 -0.06820386648 0.06856632978 5.820783626e-39
-0.1815135777 -0.1347542703 0.06324688345 5.820783626e-39
-0.2594108582 -0.3079001307 -0.2031564415 5.820783626e-39
-0.2622714639 -0.3331599832 -0.2044824064 5.820783626e-39
-0.2351246029 -0.2768458724 -0.1684938669 5.820783626e-39
-0.2352446169 -0.3640628457 -0.1853207648 5.820783626e-39
-0.1956743151 -0.1999197304 0.06639938802 5.820783626e-39
-0.2044298649 -0.2364227176 0.06967749447 5.820783626e-39
-0.2093719095 -0.1797247231 0.1112370268 5.820783626e-39
-0.202326268 -0.2746601105 0.09693249315 5.820783626e-39
-0.2217299491 -0.1296984255 0.1005851999 5.820783626e-39
-0.2416517138 -0.1689043045 0.1066903695 5.820783626e-39
-0.2278831303 -0.1324062049 0.1303835809 5.820783626e-39
-0.2300553322 -0.2106416523 0.1172036603 5.820783626e-39
-0.1680086404 -0.06599258631 -0.2009098828 5.820783626e-39
-0.1786852777 -0.0979103148 -0.2027245164 5.820783626e-39
-0.1687140614 -0.06865471601 -0.1632921994 5.820783626e-39
-0.18973355 -0.1240838617 -0.1752438247 5.820783626e-39
-0.2157632411 -0.003679927438 -0.1100093126 2.898180898e-39
-0.2279754132 -0.03879418969 -0.1014437154 2.898180898e-39
-0.2379698008 -0.006678573787 -0.03563413024 2.898180898e-39
-0.2467990667 -0.04734344408 -0.0461252369 2.898180898e-39
-0.1565873474 -0.2275019884 0.02517514676 2.898180898e-39
-0.1522184163 -0.2716113925 0.01683916897 2.898180898e-39
-0.1691750884 -0.1952954233 0.06876353174 2.898180898e-39
-0.1665290594 -0.325504452 0.05515085906 2.898180898e-39
-0.1999417692 -0.05175966024 -0.1600448489 2.898180898e-39
-0.2112190574 -0.0823238045 -0.1490789354 2.898180898e-39
-0.2081426084 -0.04958611354 -0.09756255895 2.898180898e-39
-0.2215754688 -0.0930006355 -0.1004483178 2.898180898e-39
-0.2505463362 -0.2788932025 -0.2188411951 2.898180898e-39
-0.2527271211 -0.3212976456 -0.2227854133 2.898180898e-39
-0.2277981192 -0.2597974241 -0.1985789686 2.898180898e-39
-0.2266520113 -0.359097749 -0.2101697326 2.898180898e-39
-0.1818430722 -0.168135941 0.0551423803 2.898180898e-39
-0.1869301647 -0.2160475552 0.05678459257 2.898180898e-39
-0.1992886066 -0.1499964446 0.1097002998 2.898180898e-39
-0.1911677867 -0.2610889971 0.08697948605 2.898180898e-39
-0.1999130398 -0.03882658482 -0.1543861479 2.898180898e-39
-0.2094774097 -0.06950828433 -0.1417927444 2.898180898e-39
-0.2116401792 -0.03895385191 -0.08498739451 2.898180898e-39
-0.221696943 -0.08143976331 -0.0890692845 2.898180898e-39
-0.1753221452 -0.1159836724 0.09038955718 2.898180898e-39
-0.1748753637 -0.1556514204 0.09663576633 2.898180898e-39
-0.1831134111 -0.1149474606 0.1408401728 2.898180898e-39
-0.1704407781 -0.2120761871 0.1293635368 2.898180898e-39
-0.1842868924 -0.08149056137 0.0542184338 2.898180898e-39
-0.1873496026 -0.1195984036 0.06425455958 2.898180898e-39
-0.1983168274 -0.09338669479 0.1136890724 2.898180898e-39
-0.186342448 -0.1704671383 0.09904820472 2.898180898e-39
-0.2469431609 -0.2507367134 0.008187331259 2.898180898e-39
-0.2495890409 -0.2856677175 0.009546242654 2.898180898e-39
-0.2381807715 -0.2346259058 0.06027943641 2.898180898e-39
-0.2407925278 -0.3325624168 0.03621541709 2.898180898e-39
-0.2185410112 -0.05876956135 0.01686491817 2.898180898e-39
-0.2220508307 -0.09812089801 0.02808422595 2.898180898e-39
-0.2251954079 -0.07198452204 0.07666205615 2.898180898e-39
-0.2245714217 -0.1353815496 0.06052687019 2.898180898e-39
-0.1190856323 -0.1015725434 -0.2164002955 2.898180898e-39
-0.129425019 -0.1386821866 -0.2157941163 2.898180898e-39
-0.1038329974 -0.1006587371 -0.1822282076 2.898180898e-39
-0.1269563884 -0.1865139902 -0.1981238723 2.898180898e-39
-0.2245164216 -0.1166816577 0.08871524781 2.898180898e-39
-0.2326728553 -0.1596740931 0.09691879898 2.898180898e-39
-0.2235706896 -0.129203409 0.1330827177 2.898180898e-39
-0.224162817 -0.206625253 0.117794387 2.898180898e-39
-0.1804966927 -0.03156531602 -0.1926819384 2.898180898e-39
-0.1883471608 -0.05883913115 -0.1950281262 2.898180898e-39
-0.1694322228 -0.03243098408 -0.1577783823 2.898180898e-39
-0.1931791157 -0.07195009291 -0.1636068672 2.898180898e-39
-0.1316323429 -0.0924898684 -0.2065021992 2.898180898e-39
-0.1424322873 -0.1305474937 -0.2085559517 2.898180898e-39
-0.1194370091 -0.09063690901 -0.171882391 2.898180898e-39
-0.1439725608 -0.1743122339 -0.189782843 2.898180898e-39
-0.1516824961 -0.1016573757 -0.1784487069 2.898180898e-39
-0.1636745185 -0.1374066174 -0.1809515655 2.898180898e-39
-0.1398631334 -0.09284615517 -0.150649175 2.898180898e-39
-0.163162455 -0.17502895 -0.166066885 2.898180898e-39
-0.2541038692 -0.3187795281 -0.1435858756 2.898180898e-39
-0.2655765116 -0.344883889 -0.1539126635 2.898180898e-39
-0.2320002317 -0.2833369076 -0.1131846607 2.898180898e-39
-0.2317753136 -0.3785460591 -0.1260763258 2.898180898e-39
-0.2684282064 -0.3122899532 -0.1163541749 2.898180898e-39
-0.27286008 -0.3364296854 -0.1239788309 2.898180898e-39
-0.2514013052 -0.2769922912 -0.07901364565 2.898180898e-39
-0.2539171875 -0.3742185831 -0.08188966662 2.898180898e-39
-0.2050294429 -0.02764994092 -0.2191126645 2.898180898e-39
-0.2194691002 -0.06025540829 -0.222430408 2.898180898e-39
-0.2017399222 -0.0358610265 -0.1871817708 2.898180898e-39
-0.2226567715 -0.06676211953 -0.1952351928 2.898180898e-39
-0.1886630058 -0.1299781203 0.1312627792 2.898180898e-39
-0.1965957135 -0.1681285203 0.1400234401 2.898180898e-39
-0.2066869736 -0.1447722614 0.1765685678 2.898180898e-39
-0.2036642283 -0.2182987928 0.1737531126 2.898180898e-39
-0.1807987839 -0.09938338399 0.120078139 2.898180898e-39
-0.1810162812 -0.1339206994 0.1241610721 2.898180898e-39
-0.1937879771 -0.1099688262 0.1617201865 2.898180898e-39
-0.1825537533 -0.1791013777 0.1576718688 2.898180898e-39
-0.1399280876 -0.05314930528 -0.1750204116 2.898180898e-39
-0.1462920308 -0.08396130055 -0.1829437017 2.898180898e-39
-0.1375540048 -0.04839413241 -0.1340040565 2.898180898e-39
-0.1547245681 -0.1063206494 -0.1419315934 2.898180898e-39
-0.2064439803 -0.07040463388 -0.2059487551 2.898180898e-39
-0.2291480899 -0.1044006571 -0.1988425553 2.898180898e-39
-0.2034485936 -0.0679108575 -0.1704794168 2.898180898e-39
-0.2207129747 -0.114918761 -0.1811563373 2.898180898e-39
-0.1827688962 -0.2550552785 -0.1978623569 2.898180898e-39
-0.1802913994 -0.309782058 -0.2129867971 2.898180898e-39
-0.1679573059 -0.2282755375 -0.1876581609 2.898180898e-39
-0.1721213162 -0.3434853256 -0.1989663243 2.898180898e-39
-0.1574473381 0.01797792315 -0.1931093037 2.898180898e-39
-0.1691115797 -0.02464134619 -0.196041137 2.898180898e-39
-0.1677543074 0.01289347932 -0.1467449069 2.898180898e-39
-0.181267187 -0.02085499652 -0.1624267399 2.898180898e-39
-0.2082497329 -0.291903317 -0.0438866578 2.898180898e-39
-0.2069389373 -0.3158646226 -0.04000660032 2.898180898e-39
-0.1996125132 -0.2544066012 0.02096380293 2.898180898e-39
-0.2012555003 -0.3640673757 0.004490710795 2.898180898e-39
-0.2465948015 -0.2557248175 -0.2075765282 2.898180898e-39
-0.250525564 -0.3003786206 -0.2223282754 2.898180898e-39
-0.2173354626 -0.2489442825 -0.2023186684 2.898180898e-39
-0.2163337767 -0.3332505524 -0.2181168497 2.898180898e-39
-0.1387713253 -0.2164112628 0.07123003155 2.898180898e-39
-0.1370230317 -0.2568555772 0.06938425452 2.898180898e-39
-0.1587772965 -0.2045333385 0.1243469641 2.898180898e-39
-0.1481057405 -0.3116882741 0.1117779985 2.898180898e-39
-0.2856481373 -0.3073585927 -0.1192180738 2.898180898e-39
-0.2879171669 -0.329197377 -0.1227352321 2.898180898e-39
-0.2651716173 -0.2761032581 -0.07741410285 2.898180898e-39
-0.2664041221 -0.3686901629 -0.08446852863 2.898180898e-39
-0.1650911421 0.0378992632 -0.2064136714 2.898180898e-39
-0.1817936599 -0.004135765135 -0.2004148513 2.898180898e-39
-0.1724601835 0.03764826059 -0.1631639153 2.898180898e-39
-0.1742694527 -0.004489719868 -0.1789524555 2.898180898e-39
-0.1903869212 0.03539872915 -0.2254268527 2.898180898e-39
-0.2093747854 -0.003491550684 -0.2201426923 2.898180898e-39
-0.2012594342 0.04201781005 -0.1734697521 2.898180898e-39
-0.2025612444 0.000936832279 -0.1872877777 2.898180898e-39
-0.1594470888 -0.2012016773 0.06393858045 2.898180898e-39
-0.1649949551 -0.2412712574 0.06358555704 2.898180898e-39
-0.1829590052 -0.1902435422 0.1166906878 2.898180898e-39
-0.1765786558 -0.2886975706 0.1001675501 2.898180898e-39
-0.2264229059 -0.2303347886 0.04471602291 2.898180898e-39
-0.2288276106 -0.2662099004 0.04861459881 2.898180898e-39
-0.2211045325 -0.2241400182 0.09912677854 2.898180898e-39
-0.223208636 -0.3166502714 0.08173058182 2.898180898e-39
-0.2407464981 -0.2982607484 -0.202298373 6.490113838e-41
-0.2414295971 -0.3337543309 -0.2070094645 6.490113838e-41
-0.210541442 -0.2794545293 -0.1896798909 6.490113838e-41
-0.2131606191 -0.3724500537 -0.2009099573 6.490113838e-41
-0.1118720621 -0.0263804961 -0.187606439 6.490113838e-41
-0.1195892766 -0.05916011333 -0.1911381632 6.490113838e-41
-0.1108060926 -0.02037913539 -0.1609728336 6.490113838e-41
-0.1242121682 -0.07402984798 -0.1751796603 6.490113838e-41
-0.2252007425 -0.3125246167 -0.05499440804 6.490113838e-41
-0.2213323861 -0.3434447348 -0.04775285348 6.490113838e-41
-0.2132440805 -0.2783928514 -0.0006697997451 6.490113838e-41
-0.2209210247 -0.3887791932 -0.009213872254 6.490113838e-41
-0.2273090035 -0.1654395163 0.1223335192 6.490113838e-41
-0.2387083024 -0.2111259401 0.1299043596 6.490113838e-41
-0.239593327 -0.1723735332 0.1745087206 6.490113838e-41
-0.2342834622 -0.2697147727 0.1643182039 6.490113838e-41
-0.246867016 0.02108761668 0.1520641744 6.490113838e-41
-0.2580074072 -0.02069087327 0.1527250707 6.490113838e-41
-0.2848029733 0.005370762199 0.1792019606 6.490113838e-41
-0.2584585845 -0.05643944442 0.1872502863 6.490113838e-41
-0.07306987792 -0.09088031948 -0.2074318528 6.490113838e-41
-0.08090016991 -0.1352450252 -0.2095409185 6.490113838e-41
-0.06299030781 -0.09115721285 -0.1805969775 6.490113838e-41
-0.07459485531 -0.1859948039 -0.1881667078 6.490113838e-41
-0.2066843361 0.007764533162 0.1541359127 6.490113838e-41
-0.198785156 -0.03759874776 0.1590544879 6.490113838e-41
-0.221590668 -0.01212530583 0.1904041469 6.490113838e-41
-0.2076165974 -0.07519954443 0.1927861869 6.490113838e-41
-0.2782985568 -0.0367477797 -0.2385019362 6.490113838e-41
-0.2794416547 -0.07518133521 -0.2401838899 6.490113838e-41
-0.2446935326 -0.04696240276 -0.2208987176 6.490113838e-41
-0.2662175894 -0.1118315011 -0.2314590216 6.490113838e-41
-0.1433595717 0.005553092808 -0.228993386 6.490113838e-41
-0.1607803702 -0.03828437626 -0.2214643955 6.490113838e-41
-0.1531162262 0.007516331971 -0.1797200143 6.490113838e-41
-0.1697035879 -0.04626550898 -0.1983961165 6.490113838e-41
-0.1768696755 -0.1032657772 0.07806123048 6.490113838e-41
-0.176309377 -0.1448526084 0.08438808471 6.490113838e-41
-0.1683058441 -0.1001871824 0.126707375 6.490113838e-41
-0.1597321928 -0.2010699213 0.1206470504 6.490113838e-41
-0.1858964413 -0.1578706801 0.1047193632 6.490113838e-41
-0.1927274019 -0.1934049726 0.113052018 6.490113838e-41
-0.1910243481 -0.1627547443 0.1600700915 6.490113838e-41
-0.1842023581 -0.2548229992 0.1481387913 6.490113838e-41
-0.2269812524 -0.04566301405 0.2025889158 6.490113838e-41
-0.2214643359 -0.08072403073 0.20248124 6.490113838e-41
-0.2322156727 -0.05582971126 0.2242158055 6.490113838e-41
-0.2215410322 -0.1185657606 0.2268060148 6.490113838e-41
-0.1531673968 -0.2977241576 0.0461364314 6.490113838e-41
-0.1484868973 -0.3355701566 0.0448570922 6.490113838e-41
-0.1520379633 -0.2569372952 0.09229252487 6.490113838e-41
-0.1586972177 -0.3908495009 0.08161445707 6.490113838e-41
-0.2040957808 -0.1566798836 0.1288588047 6.490113838e-41
-0.2138525844 -0.2012163997 0.1327761114 6.490113838e-41
-0.2090082318 -0.163702473 0.1732700765 6.490113838e-41
-0.2025078386 -0.2644365728 0.166017592 6.490113838e-41
-0.2113232613 -0.004258520901 -0.2580965161 6.490113838e-41
-0.219254151 -0.04686894268 -0.2560527921 6.490113838e-41
-0.2114823014 -0.008199334145 -0.2311617136 6.490113838e-41
-0.2236328423 -0.07291825116 -0.2383242548 6.490113838e-41
-0.1090844348 -0.01635280997 -0.2093454003 6.490113838e-41
-0.1205883622 -0.05633832142 -0.2033621073 6.490113838e-41
-0.1071047932 -0.01386119425 -0.1701870412 6.490113838e-41
-0.1225377396 -0.0697375387 -0.1847147048 6.490113838e-41
-0.1743022054 -0.04920888692 0.1115440801 6.490113838e-41
-0.1607560515 -0.08821392059 0.1182721779 6.490113838e-41
-0.1629963219 -0.05995641649 0.1590425968 6.490113838e-41
-0.1583998054 -0.1424169391 0.1447514594 6.490113838e-41
-0.1966744065 -0.2996097207 -0.2214707732 6.490113838e-41
-0.192278266 -0.3332184255 -0.2299713194 6.490113838e-41
-0.1627769768 -0.2812191844 -0.1941568851 6.490113838e-41
-0.172987029 -0.3803549111 -0.2046341598 6.490113838e-41
-0.1703549773 -0.1701451838 0.1517074406 6.490113838e-41
-0.1708058417 -0.2115191817 0.1587556899 6.490113838e-41
-0.1714120209 -0.1798408329 0.1989283562 6.490113838e-41
-0.1597582549 -0.270388484 0.1960701644 6.490113838e-41
-0.2059238106 -0.277936399 0.06410285085 6.490113838e-41
-0.2061248124 -0.3101558089 0.06586303562 6.490113838e-41
-0.1868252903 -0.2595827579 0.1183873639 6.490113838e-41
-0.1922368854 -0.3660518825 0.1044779792 6.490113838e-41
-0.2177419066 -0.2035036683 0.1539937258 6.490113838e-41
-0.2302276343 -0.2541225255 0.1542099416 6.490113838e-41
-0.2200471461 -0.1997810304 0.1918288767 6.490113838e-41
-0.2164856941 -0.3060175478 0.1840550601 6.490113838e-41
-0.0427678749 0.02319795638 -0.228489399 6.490113838e-41
-0.05251569301 -0.02111068927 -0.2140649855 6.490113838e-41
-0.04820438847 0.02011769265 -0.179766655 6.490113838e-41
-0.05371179059 -0.02528297342 -0.1930081844 6.490113838e-41
-0.1724300236 -0.1964360476 0.1569283605 6.490113838e-41
-0.1768022031 -0.2457059324 0.1661764979 6.490113838e-41
-0.1784233451 -0.1937993765 0.2076885402 6.490113838e-41
-0.1684006751 -0.3020231426 0.1994224191 6.490113838e-41
-0.2166544944 -0.2600169182 0.06327951699 6.490113838e-41
-0.218159318 -0.3048523962 0.0714514032 6.490113838e-41
-0.20322676 -0.2389291227 0.1144984141 6.490113838e-41
-0.2064190656 -0.3580194712 0.1015306935 6.490113838e-41
-0.209170267 -0.07673433423 0.1769253016 6.490113838e-41
-0.1980971098 -0.1149029061 0.1765957177 6.490113838e-41
-0.2017913312 -0.09213557839 0.208231777 6.490113838e-41
-0.1971939206 -0.1609003544 0.2024099529 6.490113838e-41
-0.247506395 -0.3185684383 0.03649372607 6.490113838e-41
-0.2444330901 -0.3511897326 0.04344605654 6.490113838e-41
-0.2337549478 -0.2966884673 0.1001884118 6.490113838e-41
-0.2325859815 -0.3959982097 0.07921328396 6.490113838e-41
-0.2004114985 -0.1524241269 0.147973001 6.490113838e-41
-0.205720216 -0.1987787783 0.1498157382 6.490113838e-41
-0.2030899078 -0.1699402928 0.1860251129 6.490113838e-41
-0.1933669895 -0.2556907535 0.1781039238 6.490113838e-41
-0.1704727858 -0.3234374225 -0.01662124693 6.490113838e-41
-0.1636443287 -0.3444758654 -0.01005198807 6.490113838e-41
-0.1531487554 -0.2769404948 0.04449825734 6.490113838e-41
-0.159859255 -0.3958163857 0.03470941633 6.490113838e-41
-0.05541545525 -0.07066072524 -0.1945697665 6.490113838e-41
-0.05848965049 -0.1195262447 -0.1955646127 6.490113838e-41
-0.02716691419 -0.0747160539 -0.1671566069 6.490113838e-41
-0.0465830043 -0.1618021131 -0.1764649451 6.490113838e-41
-0.2328298688 -0.2522727251 0.04745838791 6.490113838e-41
-0.2340045273 -0.2914133668 0.05015551299 6.490113838e-41
-0.2146585137 -0.227063328 0.09272647649 6.490113838e-41
-0.2155873924 -0.3406774104 0.0730260089 6.490113838e-41
-0.06110872701 0.01509333774 -0.2214350104 6.490113838e-41
-0.07624977082 -0.03605533019 -0.196769923 6.490113838e-41
-0.05353843048 0.004626624286 -0.1782486737 6.490113838e-41
-0.06197085604 -0.04702922702 -0.1864057183 6.490113838e-41
-0.2147948444 -0.2936426103 -0.01751732826 6.490113838e-41
-0.2127830833 -0.3225149512 -0.01225562394 6.490113838e-41
-0.1919176877 -0.2639677823 0.03472713381 6.490113838e-41
-0.1978020668 -0.3782939315 0.02008931339 6.490113838e-41
-0.000589390751 -0.1702097952 -0.2165275514 3.015101038e-39
0.003830019385 -0.2089770734 -0.2163521051 3.015101038e-39
0.03311491013 -0.1619029045 -0.1877451688 3.015101038e-39
0.02087802812 -0.2686883509 -0.1932886243 3.015101038e-39
-0.1682521105 -0.334849745 -0.03879870847 3.015101038e-39
-0.1678649932 -0.366238147 -0.03035865352 3.015101038e-39
-0.1448122859 -0.2980572283 0.02145466954 3.015101038e-39
-0.1576303244 -0.4131034017 0.01689083874 3.015101038e-39
-0.1720209569 -0.3540316224 0.02570149302 3.015101038e-39
-0.1829666197 -0.3904823959 0.03296414763 3.015101038e-39
-0.160445407 -0.3212594092 0.09445893019 3.015101038e-39
-0.1707760543 -0.4255078733 0.07638401538 3.015101038e-39
-0.1658556163 -0.05363719165 0.1256724596 3.015101038e-39
-0.1507517546 -0.1044376642 0.1265264153 3.015101038e-39
-0.166116789 -0.07139199972 0.1810080111 3.015101038e-39
-0.1577614397 -0.1529977322 0.1672651768 3.015101038e-39
-0.2314303517 0.04830333591 0.1121902093 3.015101038e-39
-0.2465141565 0.003848217428 0.1272335947 3.015101038e-39
-0.2810678482 0.0331948474 0.1691091955 3.015101038e-39
-0.2495986968 -0.02237361483 0.1716177762 3.015101038e-39
0.01058508642 -0.1038363129 -0.2083081305 3.015101038e-39
0.02078736573 -0.1605390608 -0.2119611204 3.015101038e-39
0.04581626132 -0.1016082615 -0.1860327423 3.015101038e-39
0.02760143951 -0.2235652208 -0.1936942637 3.015101038e-39
-0.2159997672 -0.2665336132 0.04787313193 3.015101038e-39
-0.2110560387 -0.3148115575 0.06149876863 3.015101038e-39
-0.2213189304 -0.2450793087 0.1227419302 3.015101038e-39
-0.2239329517 -0.3819212914 0.1023650095 3.015101038e-39
-0.2089967728 -0.01292503998 0.141490519 3.015101038e-39
-0.2052429467 -0.06756240129 0.1470352411 3.015101038e-39
-0.2225130498 -0.02751435898 0.1837786436 3.015101038e-39
-0.2062507719 -0.1147446409 0.1831484437 3.015101038e-39
-0.2211622596 0.03393366933 0.1761041284 3.015101038e-39
-0.2282349616 -0.01132430881 0.1886813939 3.015101038e-39
-0.2540535033 0.02628878504 0.2240484059 3.015101038e-39
-0.223030448 -0.04224917665 0.2305057049 3.015101038e-39
-0.2213545889 0.02829732746 0.1715812087 3.015101038e-39
-0.2246587873 -0.017239457 0.1832155287 3.015101038e-39
-0.2550041378 0.01891867071 0.214956224 3.015101038e-39
-0.2241860032 -0.04574783891 0.2210499346 3.015101038e-39
-0.2115799636 -0.3568886817 -0.06724134088 3.015101038e-39
-0.2047103196 -0.3879408538 -0.05339300632 3.015101038e-39
-0.20673199 -0.3318441808 0.009293213487 3.015101038e-39
-0.2107520103 -0.4400828779 0.0003879442811 3.015101038e-39
-0.2664141059 -0.3321833014 -0.1881432533 3.015101038e-39
-0.2683513165 -0.3707070649 -0.1977388859 3.015101038e-39
-0.2566682398 -0.3196167946 -0.1595797241 3.015101038e-39
-0.253093034 -0.4156518877 -0.1612802297 3.015101038e-39
-0.2262055725 -0.3352594972 -0.1109376922 3.015101038e-39
-0.2217845321 -0.3694039285 -0.117875047 3.015101038e-39
-0.2196064591 -0.3206283152 -0.06544758379 3.015101038e-39
-0.2277514488 -0.4188653529 -0.0653770417 3.015101038e-39
-0.249615863 -0.02049124427 0.2161376178 3.015101038e-39
-0.2433974743 -0.06255090982 0.2227282226 3.015101038e-39
-0.2682173848 -0.04382856563 0.2502878308 3.015101038e-39
-0.2573408782 -0.09345977008 0.2536347806 3.015101038e-39
-0.02820422128 -0.1990827322 -0.2021784782 3.015101038e-39
-0.03072343767 -0.2336681783 -0.200976342 3.015101038e-39
0.002660722006 -0.1915360689 -0.1843363196 3.015101038e-39
-0.004169926513 -0.3067094386 -0.1850616038 3.015101038e-39
-0.271363765 -0.2693409026 -0.008659653366 3.015101038e-39
-0.2739673853 -0.3120063543 -0.01003195345 3.015101038e-39
-0.2759538293 -0.2565914989 0.05370188504 3.015101038e-39
-0.2699273527 -0.3605052233 0.02564957738 3.015101038e-39
-0.05948059633 0.05492669344 -0.2013475746 3.015101038e-39
-0.08510202169 0.01073133945 -0.1843296289 3.015101038e-39
-0.04222201928 0.04314758629 -0.1664644033 3.015101038e-39
-0.04014183208 0.002538073808 -0.1883426011 3.015101038e-39
-0.1877831221 -0.2682317197 -0.1834282279 3.015101038e-39
-0.181940794 -0.3122684062 -0.2010481954 3.015101038e-39
-0.1512822807 -0.2524890006 -0.1794046313 3.015101038e-39
-0.1613051295 -0.3675153852 -0.1889557242 3.015101038e-39
-0.2765391469 -0.3323021531 -0.2119632959 3.015101038e-39
-0.2939301729 -0.3661348224 -0.22013098 3.015101038e-39
-0.2580871582 -0.3325083256 -0.1979347616 3.015101038e-39
-0.253246516 -0.4098589718 -0.1997472942 3.015101038e-39
0.08699665964 -0.01406252384 0.09161306173 3.015101038e-39
0.08945730329 -0.03465038538 0.09614457935 3.015101038e-39
0.1094498411 -0.02218029462 0.1416810155 3.015101038e-39
0.09405303001 -0.07137989998 0.1356195509 3.015101038e-39
-0.07023379207 0.06059921533 -0.1668877304 3.015101038e-39
-0.094969742 0.02962035686 -0.1501799226 3.015101038e-39
-0.05288286507 0.05352485925 -0.1316142976 3.015101038e-39
-0.04209510982 0.01997854561 -0.1620725989 3.015101038e-39
-0.2403345406 -0.3036687672 -0.05440103263 3.015101038e-39
-0.2398286462 -0.3402833045 -0.04423832893 3.015101038e-39
-0.2257968783 -0.2866594791 0.001369036734 3.015101038e-39
-0.2316963375 -0.3944952488 -0.006752453744 3.015101038e-39
-0.2298559994 -0.3022376895 0.1242811307 3.015101038e-39
-0.2342087924 -0.3404077291 0.1267867386 3.015101038e-39
-0.2271992564 -0.2856290936 0.1783227623 3.015101038e-39
-0.2225675732 -0.3898544908 0.1574378908 3.015101038e-39
0.06834889203 -0.002659600228 -0.1989963949 3.015101038e-39
0.07214614749 -0.07233621925 -0.2011208981 3.015101038e-39
0.08717226237 -0.03013207018 -0.1703087986 3.015101038e-39
0.07876171172 -0.1134172827 -0.1755664349 3.015101038e-39
-0.2065844238 -0.2954342961 0.04457529634 3.015101038e-39
-0.2028090656 -0.3308847845 0.05994965881 3.015101038e-39
-0.1978970021 -0.2757173777 0.1205320582 3.015101038e-39
-0.2059349865 -0.3975612223 0.09913507849 3.015101038e-39
-0.2289869636 -0.2889247537 0.2080352306 3.015101038e-39
-0.2290315032 -0.3280242085 0.2102744579 3.015101038e-39
-0.2263944894 -0.2909220159 0.2541640699 3.015101038e-39
-0.2252684385 -0.3702875972 0.2542539537 3.015101038e-39
-0.2249887437 -0.1750112772 0.1782505512 3.015101038e-39
-0.2312133759 -0.235810101 0.1772788167 3.015101038e-39
-0.2285439968 -0.1857682765 0.22192505 3.015101038e-39
-0.2276144326 -0.2944828272 0.2090761065 3.015101038e-39
-0.2129481733 -0.3270797729 0.04103849083 3.015101038e-39
-0.2123084664 -0.3524810076 0.05209536105 3.015101038e-39
-0.2015533 -0.3128910065 0.1169931367 3.015101038e-39
-0.2077559382 -0.4147048295 0.09402485937 3.015101038e-39
-0.0941894725 -0.2967299223 -0.2146374583 3.015101038e-39
-0.08340795338 -0.337939769 -0.2128142118 3.015101038e-39
-0.06100038812 -0.2780484557 -0.1880746037 3.015101038e-39
-0.07035969943 -0.3967575133 -0.1891501397 3.015101038e-39
-0.02272810787 0.003187179565 -0.1952273846 3.015101038e-39
-0.03852561861 -0.04794163257 -0.1800195277 3.015101038e-39
-0.007489710115 -0.01526220515 -0.1548794806 3.015101038e-39
-0.02577441931 -0.08090287447 -0.1572770178 3.015101038e-39
-0.1797203869 -0.0549852252 0.2475531101 3.015101038e-39
-0.1666557342 -0.1038730666 0.2511734664 3.015101038e-39
-0.1844395548 -0.07950127125 0.2659837604 3.015101038e-39
-0.180727765 -0.1446085274 0.2723147571 3.015101038e-39
-0.07108258456 -0.2120159566 -0.2013157159 3.015101038e-39
-0.07570789009 -0.254466176 -0.2035441399 3.015101038e-39
-0.03033268824 -0.2027585804 -0.1824324429 3.015101038e-39
-0.04146555066 -0.3239018917 -0.1874411702 3.015101038e-39
-0.08077505976 -0.2451193929 -0.2003966868 5.962428276e-39
-0.07835751027 -0.2873304188 -0.2036188245 5.962428276e-39
-0.04112584889 -0.2216777802 -0.1836579591 5.962428276e-39
-0.05171931908 -0.3470270634 -0.1911851913 5.962428276e-39
-0.2792390287 -0.3352626562 0.004240147769 5.962428276e-39
-0.2865299881 -0.3680252731 0.002156272531 5.962428276e-39
-0.2650390267 -0.3214772046 0.0642112568 5.962428276e-39
-0.2639996111 -0.4065234661 0.0435493663 5.962428276e-39
0.0484794341 -0.1392015368 -0.1822547019 5.962428276e-39
0.05813770369 -0.1823447943 -0.1958558261 5.962428276e-39
0.08798182756 -0.1475941241 -0.1609471738 5.962428276e-39
0.07711204141 -0.2569362223 -0.170498997 5.962428276e-39
0.1091937572 -0.05236876383 0.1026995555 5.962428276e-39
0.1143325716 -0.07462288439 0.1019756719 5.962428276e-39
0.1114010438 -0.06169304624 0.1607010961 5.962428276e-39
0.1039974168 -0.1327326596 0.1517693996 5.962428276e-39
-0.1743861586 -0.3544871807 -0.07117705792 5.962428276e-39
-0.1789465249 -0.3892784119 -0.06680870056 5.962428276e-39
-0.1462054849 -0.3214895129 -0.01377281547 5.962428276e-39
-0.1618210524 -0.4248809218 -0.01594242454 5.962428276e-39
-0.1851516366 -0.1631413698 0.2518871725 5.962428276e-39
-0.1898063123 -0.2233196795 0.2571735084 5.962428276e-39
-0.1834094375 -0.1751670241 0.2855230868 5.962428276e-39
-0.1803086847 -0.2761936486 0.286021471 5.962428276e-39
-0.2400294244 -0.3148617148 0.09455918521 5.962428276e-39
-0.2435215116 -0.3442234695 0.09658717364 5.962428276e-39
-0.2304287702 -0.3069573045 0.1632969379 5.962428276e-39
-0.2264805287 -0.4021113515 0.1355534792 5.962428276e-39
0.03512798995 -0.07734681666 -0.2123063803 5.962428276e-39
0.04538371414 -0.1376680583 -0.2247968614 5.962428276e-39
0.07916563004 -0.0994893983 -0.191628471 5.962428276e-39
0.0658082515 -0.2171263993 -0.2045950592 5.962428276e-39
0.005229024217 -0.02278718352 -0.1926936507 5.962428276e-39
0.003335712245 -0.07769288123 -0.1937068999 5.962428276e-39
0.04160286859 -0.05066723004 -0.1721114516 5.962428276e-39
0.02130856737 -0.1371846199 -0.1761243939 5.962428276e-39
0.04178868234 -0.0007341913879 -0.1872188449 5.962428276e-39
0.03551756591 -0.05912504345 -0.1866039485 5.962428276e-39
0.07695806772 -0.033404883 -0.1586553752 5.962428276e-39
0.05788123608 -0.1274407357 -0.1622098088 5.962428276e-39
0.01621896215 -0.0872502774 -0.1902613342 5.962428276e-39
0.02262319997 -0.1581543982 -0.1937972456 5.962428276e-39
0.0688727051 -0.09916330874 -0.1688392162 5.962428276e-39
0.04969527945 -0.2371627986 -0.1747554094 5.962428276e-39
-0.2078291923 0.0006716102362 0.256085813 5.962428276e-39
-0.2038204819 -0.03883895651 0.27058056 5.962428276e-39
-0.208352834 -0.005344197154 0.2869024873 5.962428276e-39
-0.1991623193 -0.06875228882 0.2947819829 5.962428276e-39
0.05919405073 -0.09048180282 -0.1960557848 5.962428276e-39
0.06557477266 -0.1489926577 -0.2119950503 5.962428276e-39
0.1002346352 -0.09975616634 -0.1751721054 5.962428276e-39
0.08933320642 -0.2216336429 -0.1859635413 5.962428276e-39
-0.2117606103 -0.06398377568 0.276471585 5.962428276e-39
-0.2084820569 -0.1186538339 0.2836717069 5.962428276e-39
-0.2090731114 -0.0830803141 0.2972348928 5.962428276e-39
-0.2074037194 -0.1599152684 0.2982853055 5.962428276e-39
-0.01295717712 -0.2571049631 -0.1778552681 5.962428276e-39
-0.003318818752 -0.3021142483 -0.1768257618 5.962428276e-39
0.02890666574 -0.2349058092 -0.1553851962 5.962428276e-39
0.02236336842 -0.3708204925 -0.1615112424 5.962428276e-39
-0.2318493128 0.01693727076 0.1934222579 5.962428276e-39
-0.2366847694 -0.02660961263 0.2064956129 5.962428276e-39
-0.2616821826 0.01582892984 0.2185502648 5.962428276e-39
-0.2305916697 -0.05163933337 0.2239492238 5.962428276e-39
0.1614587307 0.0009802281857 0.04000823945 5.962428276e-39
0.1598460674 -0.02887869626 0.04734107107 5.962428276e-39
0.1541474015 -0.01042086259 0.1095489785 5.962428276e-39
0.1447919458 -0.0561867021 0.1045489535 5.962428276e-39
-0.09101819992 -0.317220211 -0.1886746287 5.962428276e-39
-0.07413251698 -0.3623793423 -0.1961309463 5.962428276e-39
-0.03085495904 -0.2869297564 -0.1802846491 5.962428276e-39
-0.03949974477 -0.4085479677 -0.1807830632 5.962428276e-39
-0.1865631193 -0.3074589968 -0.1907853186 5.962428276e-39
-0.183405757 -0.343601048 -0.2112771571 5.962428276e-39
-0.1352805793 -0.3039699197 -0.191706419 5.962428276e-39
-0.1548685282 -0.3913172185 -0.2003951818 5.962428276e-39
-0.1745457798 -0.3327605724 -0.1697686762 5.962428276e-39
-0.1617878526 -0.3728198707 -0.184089452 5.962428276e-39
-0.1312136203 -0.3252014816 -0.1550417542 5.962428276e-39
-0.1453895122 -0.4219377339 -0.1625390053 5.962428276e-39
-0.2166768163 -0.3451074958 0.06317099184 5.962428276e-39
-0.2279603928 -0.3741640747 0.05690085143 5.962428276e-39
-0.2106431872 -0.3302852511 0.1196813509 5.962428276e-39
-0.2138646096 -0.420840472 0.09764886647 5.962428276e-39
0.07299358398 -0.1338718385 -0.2286005914 5.962428276e-39
0.08149953932 -0.1727315784 -0.2360160947 5.962428276e-39
0.1042339951 -0.1419110894 -0.2013600767 5.962428276e-39
0.09544584155 -0.2437113822 -0.2160686553 5.962428276e-39
-0.1360512376 -0.2887598276 -0.1812054813 5.962428276e-39
-0.1211881861 -0.3275967836 -0.1940519214 5.962428276e-39
-0.08716364205 -0.272710681 -0.1697704941 5.962428276e-39
-0.1014735252 -0.383187294 -0.1798320115 5.962428276e-39
-0.05121770129 -0.2608618736 -0.2103191316 5.962428276e-39
-0.05114500225 -0.3047179878 -0.2147496939 5.962428276e-39
-0.001180847641 -0.2423015535 -0.1882303059 5.962428276e-39
-0.01242962759 -0.373983711 -0.1907802522 5.962428276e-39
-0.2484627515 -0.3410853744 0.1090994701 5.962428276e-39
-0.261112541 -0.3748974204 0.1029478386 5.962428276e-39
-0.2415104359 -0.3241250813 0.1562461555 5.962428276e-39
-0.2356533706 -0.4097903371 0.138510257 5.962428276e-39
0.06038757041 -0.002513680607 -0.1796185374 5.962428276e-39
0.05926575512 -0.06064998358 -0.1801118851 5.962428276e-39
0.09377320111 -0.03480190784 -0.1569956839 5.962428276e-39
0.08105786145 -0.1139290333 -0.16084975 5.962428276e-39
0.0074664196 -0.190018177 -0.1804205775 5.962428276e-39
0.01662802696 -0.2321015596 -0.1861203015 5.962428276e-39
0.04808751866 -0.1868090332 -0.1606592834 5.962428276e-39
0.03637844324 -0.3128967285 -0.1663891971 5.962428276e-39
-0.08988797665 -0.2558945119 -0.1852061749 5.962428276e-39
-0.08647563308 -0.3041524887 -0.1921644807 5.962428276e-39
-0.04135873914 -0.2357360125 -0.1680507511 5.962428276e-39
-0.05277189985 -0.3706818819 -0.1738672853 5.962428276e-39
-0.2340364009 -0.3601204455 0.05303435773 5.962428276e-39
-0.2516543865 -0.3913846016 0.05116512626 5.962428276e-39
-0.231068939 -0.3455944359 0.1184407845 5.962428276e-39
-0.2285696864 -0.4267006218 0.09493487328 5.962428276e-39
0.0851753056 0.02258394659 -0.1848982275 5.962428276e-39
0.07650635391 -0.03500599414 -0.1865632236 5.962428276e-39
0.1030585915 -0.01293458045 -0.1612536311 5.962428276e-39
0.100413695 -0.07255733013 -0.1621285826 5.962428276e-39
-0.1882737428 -0.3556917608 0.01606931537 5.962428276e-39
-0.2009798437 -0.3846432567 0.02109382302 5.962428276e-39
-0.1779370457 -0.3395211101 0.08631182462 5.962428276e-39
-0.1847964376 -0.4327784479 0.06641609222 5.962428276e-39
-0.1181796566 -0.2964841425 -0.2004128397 5.962428276e-39
-0.1052991971 -0.3374577761 -0.205181092 5.962428276e-39
-0.06887947768 -0.2925348282 -0.1840254366 5.962428276e-39
-0.08300898969 -0.3998373747 -0.1890493333 5.962428276e-39
-0.03622297198 -0.2649529576 -0.2076580971 8.906165387e-39
-0.03353944421 -0.3097160459 -0.214137584 8.906165387e-39
0.005423876457 -0.2410756648 -0.1878296584 8.906165387e-39
-0.002780832816 -0.3755072057 -0.1888606697 8.906165387e-39
0.01901134104 0.009390883148 -0.1901503354 8.906165387e-39
0.003565384308 -0.04490906 -0.1860926002 8.906165387e-39
0.0476161465 -0.01672880352 -0.1586728394 8.906165387e-39
0.03006499633 -0.09184719622 -0.1632432789 8.906165387e-39
-0.2072562575 0.01360666379 0.2825443447 8.906165387e-39
-0.1998686939 -0.03293715417 0.3105345368 8.906165387e-39
-0.2152203619 -0.0006033219397 0.3404187858 8.906165387e-39
-0.2125034183 -0.06701426208 0.3405531347 8.906165387e-39
0.04930831492 0.01775401458 -0.1920915246 8.906165387e-39
0.03743911907 -0.03150644526 -0.1912306547 8.906165387e-39
0.08086983114 -0.005647867918 -0.1708660424 8.906165387e-39
0.07423758507 -0.07926681638 -0.1688774228 8.906165387e-39
0.0939437747 -0.1234326065 -0.1957850158 8.906165387e-39
0.1072990298 -0.1762624681 -0.2017786503 8.906165387e-39
0.1213510633 -0.1282761842 -0.1694198847 8.906165387e-39
0.1167467311 -0.2519194782 -0.1811206639 8.906165387e-39
-0.2196540385 -0.3639383018 0.0521306172 8.906165387e-39
-0.2347622067 -0.394138664 0.0524116978 8.906165387e-39
-0.2183373123 -0.3570849597 0.1209709272 8.906165387e-39
-0.2164450139 -0.441370368 0.0985705778 8.906165387e-39
-0.213011533 -0.3777388036 -0.01164770126 8.906165387e-39
-0.2349649668 -0.4125555754 -0.002723529935 8.906165387e-39
-0.2171607316 -0.3767737448 0.07197529823 8.906165387e-39
-0.2150476873 -0.454537183 0.05145389587 8.906165387e-39
-0.269593358 -0.3408819437 -0.2207221091 8.906165387e-39
-0.2843333185 -0.3743211031 -0.2287350595 8.906165387e-39
-0.2401255071 -0.3523891568 -0.2080962956 8.906165387e-39
-0.2391204536 -0.4199145436 -0.2127867788 8.906165387e-39
0.01473763492 -0.2592253983 -0.1911699474 8.906165387e-39
0.02434802055 -0.2883594632 -0.1970344484 8.906165387e-39
0.06713255495 -0.2394783795 -0.1752374321 8.906165387e-39
0.05888751522 -0.3620731831 -0.180596441 8.906165387e-39
-0.1756196916 -0.3441058397 0.1043816879 8.906165387e-39
-0.1709583253 -0.3637639284 0.1193426922 8.906165387e-39
-0.1668033451 -0.3323078156 0.1786313653 8.906165387e-39
-0.1666914821 -0.4301950634 0.1658480465 8.906165387e-39
-0.2225862145 -0.2559126318 0.2087737322 8.906165387e-39
-0.2169089764 -0.3007487059 0.2154007852 8.906165387e-39
-0.2230568379 -0.2728246152 0.2547243834 8.906165387e-39
-0.2189000249 -0.3583258688 0.2542696595 8.906165387e-39
-0.1734213829 -0.3539417982 -0.1860723495 8.906165387e-39
-0.1662563235 -0.3899211287 -0.1974628866 8.906165387e-39
-0.119257383 -0.3490410149 -0.1645969152 8.906165387e-39
-0.1328841448 -0.4359122813 -0.1736774594 8.906165387e-39
0.06062825024 0.03676540405 -0.1577865481 8.906165387e-39
0.0486339964 -0.008963033557 -0.1497173309 8.906165387e-39
0.0747371614 0.009742155671 -0.120495677 8.906165387e-39
0.07214853168 -0.03775762767 -0.1300447881 8.906165387e-39
-0.1644079536 -0.354015708 -0.01299913228 8.906165387e-39
-0.1720207036 -0.3821040392 -0.01041439176 8.906165387e-39
-0.1301497072 -0.3272692263 0.0505175069 8.906165387e-39
-0.1389204711 -0.4310379028 0.03797218949 8.906165387e-39
0.09456308931 0.0336073637 -0.1865758747 8.906165387e-39
0.084676072 -0.02920820005 -0.185430795 8.906165387e-39
0.1019430161 -0.001916319132 -0.151763469 8.906165387e-39
0.1008794904 -0.06005598605 -0.1556669176 8.906165387e-39
-0.1458165646 -0.3613469303 0.1153688058 8.906165387e-39
-0.1474078 -0.3943707943 0.1281718612 8.906165387e-39
-0.1327158809 -0.3390459418 0.1816520989 8.906165387e-39
-0.1330719888 -0.4379286766 0.1700625718 8.906165387e-39
-0.2468043417 -0.3296062946 0.2199833989 8.906165387e-39
-0.2464338094 -0.3712740541 0.2178614736 8.906165387e-39
-0.2294764072 -0.332375437 0.2648067176 8.906165387e-39
-0.2341066748 -0.3943633139 0.2625344992 8.906165387e-39
0.07853864878 -0.1411109567 -0.2263179421 8.906165387e-39
0.08602124453 -0.1793567538 -0.2283348739 8.906165387e-39
0.1045143008 -0.1353756189 -0.1950630099 8.906165387e-39
0.09730342031 -0.2514248788 -0.2052095532 8.906165387e-39
-0.1976919621 -0.06959799677 0.2969408929 8.906165387e-39
-0.1999066323 -0.1377820373 0.3019557893 8.906165387e-39
-0.2030288428 -0.102013275 0.3248344958 8.906165387e-39
-0.2016122937 -0.1780395806 0.3215163946 8.906165387e-39
0.08528591692 -0.03807127476 -0.2065505087 8.906165387e-39
0.08891848475 -0.09624041617 -0.2152077556 8.906165387e-39
0.1232388914 -0.06013710797 -0.1866472065 8.906165387e-39
0.1062352434 -0.1633475423 -0.1917982846 8.906165387e-39
0.0923640877 0.05476608872 -0.1841157228 8.906165387e-39
0.07613559812 0.01452158391 -0.1795924306 8.906165387e-39
0.1063371673 0.02464232594 -0.1365545243 8.906165387e-39
0.1062363163 -0.02104013041 -0.1492881477 8.906165387e-39
-0.2261797637 -0.3768646419 0.03182782978 8.906165387e-39
-0.247249499 -0.4055588841 0.03383816034 8.906165387e-39
-0.2257190198 -0.3689855039 0.109354578 8.906165387e-39
-0.2216893733 -0.4500756264 0.08655848354 8.906165387e-39
-0.102597408 -0.3200559616 -0.1682146192 8.906165387e-39
-0.0925443843 -0.3579718769 -0.177036345 8.906165387e-39
-0.05278365687 -0.3122998476 -0.151599139 8.906165387e-39
-0.06227240339 -0.4174821377 -0.156477496 8.906165387e-39
-0.1335964799 -0.3654242158 -0.2053432763 8.906165387e-39
-0.1355010271 -0.4037333727 -0.2201278508 8.906165387e-39
-0.08190432936 -0.3526115119 -0.1772776544 8.906165387e-39
-0.09841561317 -0.4410021603 -0.1909946799 8.906165387e-39
-0.1823515296 -0.3645069003 0.06780032068 8.906165387e-39
-0.1949776411 -0.3896431327 0.07260518521 8.906165387e-39
-0.160207361 -0.3504195511 0.1482967734 8.906165387e-39
-0.1660919935 -0.440356642 0.1234414354 8.906165387e-39
0.1215869859 -0.1110542938 -0.2101953328 8.906165387e-39
0.1315442324 -0.1569002867 -0.2168647945 8.906165387e-39
0.1455216706 -0.1151500121 -0.1855042577 8.906165387e-39
0.1374439746 -0.2171695828 -0.1976376474 8.906165387e-39
-0.1993366033 -0.3124396503 0.1101125255 8.906165387e-39
-0.2060967088 -0.3396178186 0.1110062972 8.906165387e-39
-0.1784379929 -0.3051617742 0.1700104177 8.906165387e-39
-0.1844484955 -0.3992752433 0.144995898 8.906165387e-39
-0.2154976577 -0.397913456 -0.1814940274 8.906165387e-39
-0.2438638657 -0.432233572 -0.1826191843 8.906165387e-39
-0.2008916289 -0.3963347375 -0.1471532434 8.906165387e-39
-0.1916882694 -0.4662593305 -0.1597048342 8.906165387e-39
0.09154023975 -0.02450045012 -0.1785383523 8.906165387e-39
0.08931268752 -0.0797759071 -0.1731418073 8.906165387e-39
0.1055605337 -0.04424262792 -0.1428269148 8.906165387e-39
0.09134314209 -0.1080489159 -0.1544227004 8.906165387e-39
-0.1755650342 -0.3164625466 0.1310195625 8.906165387e-39
-0.1709288359 -0.3400783539 0.1438582838 8.906165387e-39
-0.1546930373 -0.3045206666 0.198082 8.906165387e-39
-0.1597343683 -0.4101644158 0.1841380894 8.906165387e-39
-0.2747786939 -0.3253434002 0.1910844147 8.906165387e-39
-0.2746755183 -0.3615089655 0.185916096 8.906165387e-39
-0.259028852 -0.3267224729 0.2341242135 8.906165387e-39
-0.2605682313 -0.3923369944 0.2327102721 8.906165387e-39
-0.1325304359 -0.416171968 -0.06211008132 8.906165387e-39
-0.1606084406 -0.4628561437 -0.05319039151 8.906165387e-39
-0.1334468275 -0.4137714803 0.01948935539 8.906165387e-39
-0.1241470948 -0.4804207981 0.01073835045 8.906165387e-39
0.02686699107 -0.2434689701 -0.1679454148 1.184631237e-38
0.03146356717 -0.2785333395 -0.176642701 1.184631237e-38
0.0747577101 -0.2350354791 -0.1538918316 1.184631237e-38
0.06769922376 -0.3611414135 -0.1562607884 1.184631237e-38
0.185468778 -0.01850847341 -0.1910060346 1.184631237e-38
0.1836515963 -0.06972133368 -0.1932881922 1.184631237e-38
0.1939008236 -0.02975716069 -0.1609199494 1.184631237e-38
0.1808775812 -0.10923969 -0.1616713554 1.184631237e-38
-0.183542043 -0.2777484953 0.1012826338 1.184631237e-38
-0.1813742369 -0.3167728484 0.1123194769 1.184631237e-38
-0.1663514078 -0.2585939467 0.1641905606 1.184631237e-38
-0.1740861982 -0.382576555 0.1468234658 1.184631237e-38
-0.1985990107 -0.2940755785 0.2142605782 1.184631237e-38
-0.1934065223 -0.3330740929 0.2228257954 1.184631237e-38
-0.1922264695 -0.2971570194 0.2643932998 1.184631237e-38
-0.1881417781 -0.3803262711 0.2599553466 1.184631237e-38
-0.1810071617 -0.2422470152 0.2282062769 1.184631237e-38
-0.1762098074 -0.2846221626 0.238184303 1.184631237e-38
-0.1635855138 -0.2502317429 0.281583786 1.184631237e-38
-0.1698204875 -0.3515759706 0.2748203278 1.184631237e-38
-0.1243262216 -0.3509190977 -0.1765170991 1.184631237e-38
-0.1127341464 -0.3815723658 -0.1775599569 1.184631237e-38
-0.07354968786 -0.3463977873 -0.141569823 1.184631237e-38
-0.08754378557 -0.4440997541 -0.1513165981 1.184631237e-38
-0.1090277657 -0.3297083378 -0.2071359605 1.184631237e-38
-0.09911870211 -0.3641890585 -0.2126876116 1.184631237e-38
-0.05740220472 -0.32371068 -0.1861057132 1.184631237e-38
-0.07515049726 -0.4219022095 -0.1909288913 1.184631237e-38
-0.1510841846 -0.4005264938 -0.06316635013 1.184631237e-38
