# .PCD v0.7 - Point Cloud Data file format
VERSION 0.7
FIELDS x y z rgb
SIZE 4 4 4 4
TYPE F F F F
COUNT 1 1 1 1
WIDTH 808
HEIGHT 1
VIEWPOINT 0 0 0 1 0 0 0
POINTS 808
DATA ascii
-0.1022336856 -0.03240048513 -0.2841878533 1.093308476e-38
0.02753641084 -0.05218157172 -0.04015640914 1.093308476e-38
-0.03744745255 -0.04992233589 -0.08763683587 1.093308476e-38
-0.05962964892 -0.04670292139 -0.1438117623 1.093308476e-38
-0.09839031845 -0.03453107178 -0.2614088953 1.093308476e-38
-0.001610128675 -0.0513833873 -0.05819597095 1.093308476e-38
-0.04276206344 -0.04922292009 -0.1000571176 1.093308476e-38
-0.064550668 -0.04527535662 -0.1588158458 1.093308476e-38
-0.09665080905 -0.03493322805 -0.2551719844 1.093308476e-38
-0.03705420718 -0.04990325496 -0.08732435852 1.093308476e-38
-0.04773893207 -0.04848758131 -0.1132871807 1.093308476e-38
-0.0690035671 -0.04384463653 -0.1729642302 1.093308476e-38
0.3580359519 0.002943051048 -0.001207174151 1.020306431e-38
0.2235602736 0.00514332531 -0.007094953209 1.020306431e-38
0.3802611232 -0.002066771267 -0.0005752723082 1.020306431e-38
0.2977212667 0.006466411985 -0.004068113863 1.020306431e-38
0.3241375983 0.005990729667 -0.002623444889 1.020306431e-38
0.1375966221 0.001253585564 -0.01111728232 1.020306431e-38
0.4085005224 -0.01061319187 0.0002407617867 1.020306431e-38
0.2502988875 0.0055308952 -0.006262027659 1.020306431e-38
0.3241375983 0.005990729667 -0.002623444889 1.020306431e-38
0.1375966221 0.001253585564 -0.01111728232 1.020306431e-38
0.4085005224 -0.01061319187 0.0002407617867 1.020306431e-38
0.2502988875 0.0055308952 -0.006262027659 1.020306431e-38
0.3390604556 0.005025268067 -0.001923329663 1.020306431e-38
0.1650443971 0.002458975418 -0.009330690838 1.020306431e-38
0.3979098797 -0.007396993227 -6.028264761e-05 1.020306431e-38
0.2760625184 0.006544028874 -0.005240358878 1.020306431e-38
0.290930748 0.006785437465 -0.004309696611 1.020306431e-38
0.08127427101 -0.0004851165868 -0.01531632338 1.020306431e-38
0.4188743234 -0.01505211648 0.0004546977289 1.020306431e-38
0.2077188194 0.003961144015 -0.007951191626 1.020306431e-38
0.2863405347 0.006868262775 -0.004539425019 1.020306431e-38
0.07350765914 -0.0007552335737 -0.01588447951 1.020306431e-38
0.4170964658 -0.01392661128 0.0004620756663 1.020306431e-38
0.1917963028 0.003341904609 -0.008569546975 1.020306431e-38
0.3248523176 0.005971411243 -0.002582520014 1.020306431e-38
0.1430613697 0.001491260598 -0.01067193504 1.020306431e-38
0.4088945389 -0.01071945485 0.0002547781914 1.020306431e-38
0.2496605664 0.005512475967 -0.006282004062 1.020306431e-38
0.330163002 0.005714063533 -0.002313029487 1.020306431e-38
0.1706029475 0.002756925765 -0.009131549858 1.020306431e-38
0.3938133419 -0.006032153498 -0.0001595225185 1.020306431e-38
0.259434849 0.005967002362 -0.005855251104 1.020306431e-38
0.04991185665 -0.02941467799 -0.03080897778 9.472685133e-39
0.2317854017 -0.02199998684 -0.03365969285 9.472685133e-39
-0.008028022014 -0.03672193363 -0.02926227823 9.472685133e-39
0.1344528496 -0.02425140329 -0.03544813767 9.472685133e-39
0.1087230518 -0.02572325245 -0.03419788554 9.472685133e-39
0.2866236269 -0.02209907211 -0.02960342355 9.472685133e-39
-0.08298397064 -0.03143972903 -0.0225459151 9.472685133e-39
0.1931710988 -0.02291640639 -0.03475874662 9.472685133e-39
0.1087230518 -0.02572325245 -0.03419788554 9.472685133e-39
0.2866236269 -0.02209907211 -0.02960342355 9.472685133e-39
-0.08298397064 -0.03143972903 -0.0225459151 9.472685133e-39
0.1931710988 -0.02291640639 -0.03475874662 9.472685133e-39
0.08420334756 -0.02735996805 -0.03283847868 9.472685133e-39
0.2640223801 -0.02177388407 -0.03134282306 9.472685133e-39
-0.04849385098 -0.03570346907 -0.0256806016 9.472685133e-39
0.1657931507 -0.02366261184 -0.03530550748 9.472685133e-39
0.1306786537 -0.02499820665 -0.0359104909 9.472685133e-39
0.3201080859 -0.02323978581 -0.02658627182 9.472685133e-39
-0.1285194755 -0.03216143698 -0.02091642469 9.472685133e-39
0.2262238711 -0.02206070162 -0.03376096115 9.472685133e-39
0.1439714581 -0.02482151985 -0.03598137945 9.472685133e-39
0.328535229 -0.02352115698 -0.02596113458 9.472685133e-39
-0.1361447573 -0.03215853125 -0.02040151134 9.472685133e-39
0.2276358753 -0.02183747292 -0.03351534531 9.472685133e-39
0.1124575287 -0.02555991895 -0.03454374522 9.472685133e-39
0.288844645 -0.02198028751 -0.02935982682 9.472685133e-39
-0.08592806011 -0.03146141768 -0.02238306962 9.472685133e-39
0.1934120953 -0.02284856513 -0.03471919894 9.472685133e-39
0.1008155793 -0.02622024529 -0.03379295766 9.472685133e-39
0.2630126178 -0.02176649496 -0.03154944256 9.472685133e-39
-0.05386400223 -0.03239627555 -0.02411423251 9.472685133e-39
0.1764059514 -0.02341285162 -0.03510695696 9.472685133e-39
0.3814870417 -0.04506072029 -0.01301147696 8.742304551e-39
0.2512127757 -0.05074982345 -0.02030653134 8.742304551e-39
0.3109421432 -0.05045928061 -0.01773934998 8.742304551e-39
0.1698711216 -0.04709290713 -0.02267128602 8.742304551e-39
0.3303004205 -0.04853553325 -0.01641782932 8.742304551e-39
0.2103103697 -0.04818074033 -0.02147896774 8.742304551e-39
0.2733801901 -0.05144754797 -0.01955907233 8.742304551e-39
0.1164533123 -0.04815169424 -0.0245403517 8.742304551e-39
0.3303004205 -0.04853553325 -0.01641782932 8.742304551e-39
0.2103103697 -0.04818074033 -0.02147896774 8.742304551e-39
0.2733801901 -0.05144754797 -0.01955907233 8.742304551e-39
0.1164533123 -0.04815169424 -0.0245403517 8.742304551e-39
0.3554356396 -0.0468102172 -0.01469569467 8.742304551e-39
0.2295837253 -0.04957448691 -0.02096626908 8.742304551e-39
0.2927871644 -0.05097805709 -0.01867819577 8.742304551e-39
0.1437018961 -0.04754731432 -0.02356284298 8.742304551e-39
0.3080657125 -0.05057600141 -0.01791564561 8.742304551e-39
0.182652995 -0.04709872603 -0.02226985618 8.742304551e-39
0.2456627488 -0.05050482973 -0.02053565532 8.742304551e-39
0.07945986092 -0.04671356827 -0.02559338696 8.742304551e-39
0.2978053689 -0.05105252191 -0.01846995577 8.742304551e-39
0.1756780744 -0.0469596535 -0.02248043939 8.742304551e-39
0.2431643754 -0.05040654168 -0.02061063424 8.742304551e-39
0.07203310728 -0.04639476165 -0.02583451569 8.742304551e-39
0.3279791176 -0.0487867333 -0.01657902449 8.742304551e-39
0.2099910378 -0.0481569767 -0.02148990147 8.742304551e-39
0.2717430294 -0.05148306862 -0.01963333227 8.742304551e-39
0.1141048148 -0.0481647253 -0.02462461032 8.742304551e-39
0.3532675505 -0.04713258147 -0.014863736 8.742304551e-39
0.232689321 -0.04978471994 -0.0208897721 8.742304551e-39
0.2860743999 -0.05114615336 -0.01898342557 8.742304551e-39
0.1279930621 -0.04791368917 -0.02412917838 8.742304551e-39
-0.0883090049 -0.03731746599 -0.03816381842 8.012284103e-39
-0.03908093274 -0.03689956293 -0.03701364994 8.012284103e-39
-0.1140391007 -0.03717565164 -0.03872535378 8.012284103e-39
0.07323926687 -0.03361110389 -0.03424408287 8.012284103e-39
-0.0127873756 -0.03554897383 -0.03630769998 8.012284103e-39
0.04922759533 -0.03247651085 -0.03457917646 8.012284103e-39
-0.1743744612 -0.03278860822 -0.03786899149 8.012284103e-39
0.1614150554 -0.03182065487 -0.03297063336 8.012284103e-39
-0.0127873756 -0.03554897383 -0.03630769998 8.012284103e-39
0.04922759533 -0.03247651085 -0.03457917646 8.012284103e-39
-0.1743744612 -0.03278860822 -0.03786899149 8.012284103e-39
0.1614150554 -0.03182065487 -0.03297063336 8.012284103e-39
-0.05201531202 -0.03737426549 -0.03733879328 8.012284103e-39
0.01049481519 -0.0343709439 -0.03564956039 8.012284103e-39
-0.1556367725 -0.03501076251 -0.03863667324 8.012284103e-39
0.1147495285 -0.0329031758 -0.03379071504 8.012284103e-39
0.01371668652 -0.03427940235 -0.03556111082 8.012284103e-39
0.08457788825 -0.03251561522 -0.03410600871 8.012284103e-39
-0.1978771985 -0.0289392937 -0.03698885441 8.012284103e-39
0.2127604485 -0.03268693015 -0.03249714896 8.012284103e-39
0.01912301779 -0.03398920968 -0.03539649025 8.012284103e-39
0.1050759926 -0.0321354568 -0.03383757547 8.012284103e-39
-0.1913247705 -0.03102660552 -0.0369858481 8.012284103e-39
0.2207229882 -0.03264841065 -0.03239944577 8.012284103e-39
-0.006206574384 -0.03532163426 -0.03614256904 8.012284103e-39
0.05828271434 -0.03234555945 -0.03444638848 8.012284103e-39
-0.1761705279 -0.03259507567 -0.03780021146 8.012284103e-39
0.1655932218 -0.03164212033 -0.03288194165 8.012284103e-39
-0.02800553851 -0.03636082634 -0.0367189385 8.012284103e-39
0.04332448915 -0.03266245872 -0.03466999531 8.012284103e-39
-0.1561610103 -0.03532544151 -0.03863234445 8.012284103e-39
0.145777598 -0.03247294575 -0.03331162781 8.012284103e-39
-0.2088582814 -0.01725884527 -0.04654746503 7.281903522e-39
-0.2604183257 -0.01867187582 -0.04973283038 7.281903522e-39
-0.213504374 -0.01717670821 -0.04765828326 7.281903522e-39
-0.2403483838 -0.01594749093 -0.05705226213 7.281903522e-39
-0.1949710399 -0.01840366796 -0.04401640967 7.281903522e-39
-0.283644259 -0.01741506346 -0.03948776796 7.281903522e-39
-0.2323159575 -0.01604351215 -0.05357181281 7.281903522e-39
-0.2555912137 -0.01540475618 -0.05929110572 7.281903522e-39
-0.1949710399 -0.01840366796 -0.04401640967 7.281903522e-39
-0.283644259 -0.01741506346 -0.03948776796 7.281903522e-39
-0.2323159575 -0.01604351215 -0.05357181281 7.281903522e-39
-0.2555912137 -0.01540475618 -0.05929110572 7.281903522e-39
-0.2004406303 -0.01786019653 -0.04494713619 7.281903522e-39
-0.269705683 -0.01803383231 -0.04685786366 7.281903522e-39
-0.2201692611 -0.01694152877 -0.04937785119 7.281903522e-39
-0.2475738376 -0.0157316681 -0.05837927386 7.281903522e-39
-0.1850619614 -0.01977731474 -0.04278644919 7.281903522e-39
-0.2832364142 -0.01765864715 -0.01737172529 7.281903522e-39
-0.2383655608 -0.01687635481 -0.05558383837 7.281903522e-39
-0.2640001178 -0.01470844541 -0.05894621089 7.281903522e-39
-0.1856441796 -0.01969174482 -0.04283896834 7.281903522e-39
-0.2838050127 -0.01759255864 -0.01162059419 7.281903522e-39
-0.2401083708 -0.01651644334 -0.05600589141 7.281903522e-39
-0.2683399022 -0.01491199154 -0.05830660462 7.281903522e-39
-0.1935954392 -0.01869831979 -0.04374832287 7.281903522e-39
-0.2836885452 -0.01721863449 -0.04060003161 7.281903522e-39
-0.233059153 -0.01604256965 -0.05378127471 7.281903522e-39
-0.2562596202 -0.01538107637 -0.05919276178 7.281903522e-39
-0.2036431432 -0.01765105128 -0.04541947693 7.281903522e-39
-0.2681316435 -0.01710156165 -0.05044525117 7.281903522e-39
-0.2315173596 -0.01606640592 -0.05327006057 7.281903522e-39
-0.2522364557 -0.01538436208 -0.05927577987 7.281903522e-39
-0.1467619985 0.01479363535 0.005320364609 6.55152294e-39
-0.3419724107 0.0401384756 -0.004062261432 6.55152294e-39
-0.313485682 0.03226638585 -0.002995351795 6.55152294e-39
-0.136593774 0.01475896779 0.005423503928 6.55152294e-39
-0.000752061489 0.00396570703 0.01250644401 6.55152294e-39
-0.386910826 0.06005169451 -0.00462146895 6.55152294e-39
-0.2569866478 0.0232402999 -0.001647910452 6.55152294e-39
-0.2690460682 0.02178504504 -0.001444703783 6.55152294e-39
-0.000752061489 0.00396570703 0.01250644401 6.55152294e-39
-0.386910826 0.06005169451 -0.00462146895 6.55152294e-39
-0.2569866478 0.0232402999 -0.001647910452 6.55152294e-39
-0.2690460682 0.02178504504 -0.001444703783 6.55152294e-39
-0.0509198457 0.00893225614 0.009569531307 6.55152294e-39
-0.3675566912 0.04902189225 -0.004836152773 6.55152294e-39
-0.2930919528 0.02720206231 -0.002484305296 6.55152294e-39
-0.2236617059 0.02061948739 0.0007042697398 6.55152294e-39
0.0502688624 -0.00504896231 0.01690606959 6.55152294e-39
-0.3992379606 0.06935510039 -0.003622977994 6.55152294e-39
-0.2148587406 0.02058755234 0.0005737952306 6.55152294e-39
-0.293482691 0.02580905333 -0.00205327291 6.55152294e-39
0.04978880286 -0.006154444534 0.0181276463 6.55152294e-39
-0.400696665 0.07205109298 -0.003280687379 6.55152294e-39
-0.184507519 0.01828001998 0.002402874641 6.55152294e-39
-0.3068773746 0.03019503318 -0.002720170422 6.55152294e-39
0.002342652064 0.002993828151 0.01276895311 6.55152294e-39
-0.3785024583 0.05532227457 -0.004943520762 6.55152294e-39
-0.2488896549 0.02218748815 -0.001270066248 6.55152294e-39
-0.2720380127 0.02230307087 -0.001508029876 6.55152294e-39
-0.03862290084 0.008030771278 0.009980406612 6.55152294e-39
-0.3276313245 0.0349843502 -0.003137950785 6.55152294e-39
-0.2439272255 0.02161695808 -0.0007903425139 6.55152294e-39
-0.245660454 0.02105080709 -0.0002378150821 6.55152294e-39
-0.04192477465 -0.05803624541 -0.01123002637 5.820783626e-39
-0.001218916266 -0.0616447106 -0.0388129577 5.820783626e-39
0.006738742348 -0.06041713059 0.01978998818 5.820783626e-39
-0.06052010879 -0.05311348289 0.01493669208 5.820783626e-39
-0.1089036986 -0.04558152705 0.01268457342 5.820783626e-39
0.005394291133 -0.05102438852 -0.0537796095 5.820783626e-39
0.004233825952 -0.05997707322 -0.01307232678 5.820783626e-39
-0.001128544565 -0.06259970367 -0.01189490221 5.820783626e-39
-0.1089036986 -0.04558152705 0.01268457342 5.820783626e-39
0.005394291133 -0.05102438852 -0.0537796095 5.820783626e-39
0.004233825952 -0.05997707322 -0.01307232678 5.820783626e-39
-0.001128544565 -0.06259970367 -0.01189490221 5.820783626e-39
-0.08633279055 -0.05053079128 0.01084769424 5.820783626e-39
0.002104704967 -0.05304091796 -0.05244868621 5.820783626e-39
0.006379690021 -0.06003933027 0.01776344515 5.820783626e-39
-0.0297479555 -0.05819534138 -0.0008713302668 5.820783626e-39
-0.1353794932 -0.03961449862 0.0154655911 5.820783626e-39
0.01138303801 -0.05106110498 -0.05074813962 5.820783626e-39
0.007509654853 -0.0561144501 -0.01500569936 5.820783626e-39
0.0004947129055 -0.06249369681 -0.0219315663 5.820783626e-39
-0.1327893734 -0.04046903551 0.01411458943 5.820783626e-39
0.01301754732 -0.05195746943 -0.05151068792 5.820783626e-39
0.007489103358 -0.05669156834 -0.02301154099 5.820783626e-39
-0.0002079512924 -0.06228568405 -0.027035404 5.820783626e-39
-0.1108179837 -0.04530250654 0.01221701782 5.820783626e-39
0.006128543522 -0.05136693642 -0.05361122265 5.820783626e-39
0.004040665459 -0.05996705964 -0.01768012904 5.820783626e-39
-0.0009368431638 -0.06256706268 -0.0128580099 5.820783626e-39
-0.08303557336 -0.05120923743 0.009702631272 5.820783626e-39
0.0143298395 -0.05101791024 -0.04116380587 5.820783626e-39
0.002239081077 -0.06169282645 -0.0111055728 5.820783626e-39
-0.01198164001 -0.06090964004 -0.007878676988 5.820783626e-39
0.1933760792 -0.0577968508 0.02108817175 5.090401643e-39
0.3245568871 -0.0510911122 0.02199578471 5.090401643e-39
0.2708971798 -0.04940161109 0.02091376483 5.090401643e-39
0.3431808054 -0.04280174896 0.01995630935 5.090401643e-39
0.08153743297 -0.06033287197 0.01853343844 5.090401643e-39
0.2607807219 -0.0528094545 0.0216367431 5.090401643e-39
0.2298615873 -0.05642377585 0.02193449624 5.090401643e-39
0.3962838948 -0.04821811244 0.02191465534 5.090401643e-39
0.08153743297 -0.06033287197 0.01853343844 5.090401643e-39
0.2607807219 -0.0528094545 0.0216367431 5.090401643e-39
0.2298615873 -0.05642377585 0.02193449624 5.090401643e-39
0.3962838948 -0.04821811244 0.02191465534 5.090401643e-39
0.1339851469 -0.05895578116 0.01972926036 5.090401643e-39
0.3049660027 -0.05087609589 0.02170003019 5.090401643e-39
0.2572906315 -0.05158182234 0.02137753926 5.090401643e-39
0.3924248517 -0.0453871116 0.0212658979 5.090401643e-39
0.02594434842 -0.06249395013 0.01730972528 5.090401643e-39
0.2295602113 -0.05127248168 0.02058395557 5.090401643e-39
0.1872627586 -0.05761773512 0.02102885582 5.090401643e-39
0.4196277857 -0.04915766418 0.02224144712 5.090401643e-39
-0.0114285592 -0.06311214715 0.01640789025 5.090401643e-39
0.2050792575 -0.05183592066 0.01999831945 5.090401643e-39
0.168302685 -0.05857067928 0.02039582655 5.090401643e-39
0.4096432328 -0.04981766269 0.02233918384 5.090401643e-39
0.06776090711 -0.06077826023 0.01817317866 5.090401643e-39
0.2408894897 -0.05350422487 0.02149260975 5.090401643e-39
0.2263770252 -0.05660812929 0.02183454856 5.090401643e-39
0.394131422 -0.04836376756 0.02192717232 5.090401643e-39
0.1271231771 -0.05905730277 0.01953856088 5.090401643e-39
0.2434607595 -0.05629551783 0.02202158794 5.090401643e-39
0.2443178743 -0.05558106303 0.02200251073 5.090401643e-39
0.3944251239 -0.04577194154 0.02138767019 5.090401643e-39
0.1250059903 -0.05196847394 0.03299805149 4.359662329e-39
0.2791350186 -0.04946311563 0.02126732841 4.359662329e-39
0.1810393482 -0.04999745637 0.02812430449 4.359662329e-39
0.3457814455 -0.05101250485 0.01544419024 4.359662329e-39
0.07366155088 -0.053498514 0.04041187465 4.359662329e-39
0.2200959474 -0.04752756655 0.02450968698 4.359662329e-39
0.1486904472 -0.05173238367 0.03120834008 4.359662329e-39
0.4053279459 -0.05404317006 0.002716515912 4.359662329e-39
0.07366155088 -0.053498514 0.04041187465 4.359662329e-39
0.2200959474 -0.04752756655 0.02450968698 4.359662329e-39
0.1486904472 -0.05173238367 0.03120834008 4.359662329e-39
0.4053279459 -0.05404317006 0.002716515912 4.359662329e-39
0.08633306623 -0.05278587341 0.03672356158 4.359662329e-39
0.2376612574 -0.04737004638 0.02260886692 4.359662329e-39
0.1634463221 -0.05100154504 0.02978470549 4.359662329e-39
0.3691156805 -0.05263213813 0.008749634027 4.359662329e-39
0.04303018376 -0.05338897556 0.05466294289 4.359662329e-39
0.2065267265 -0.04863568768 0.0265615657 4.359662329e-39
0.128176704 -0.05202998966 0.03249039128 4.359662329e-39
0.3810918927 -0.05851763859 0.02058756351 4.359662329e-39
0.05286665261 -0.05355268717 0.04910236597 4.359662329e-39
0.2060322762 -0.04858137667 0.02652991377 4.359662329e-39
0.1239987388 -0.05188819021 0.03282062337 4.359662329e-39
0.3678947091 -0.05953711644 0.02374312654 4.359662329e-39
0.07737428695 -0.05339250341 0.03940197453 4.359662329e-39
0.2207238823 -0.04745420441 0.02436487563 4.359662329e-39
0.1469608992 -0.05172092468 0.03130469099 4.359662329e-39
0.40656057 -0.05420568585 0.002962345956 4.359662329e-39
0.09998183697 -0.05254368484 0.03482561186 4.359662329e-39
0.2393010408 -0.0473933816 0.0225417912 4.359662329e-39
0.1622383446 -0.05098744854 0.0299566444 4.359662329e-39
0.3863913417 -0.05352873728 0.005769803654 4.359662329e-39
-0.3407579064 0.05870172009 -0.002229046077 3.628921614e-39
-0.35675928 0.06892072409 -0.005424450152 3.628921614e-39
-0.3510530591 0.04138436913 -0.003074192908 3.628921614e-39
-0.4058552682 0.08447322994 -0.008955928497 3.628921614e-39
-0.3543358147 0.07225801796 -0.00561369257 3.628921614e-39
-0.3965833187 0.07898443937 -0.009427294135 3.628921614e-39
-0.3380966783 0.04944748059 -0.003236252582 3.628921614e-39
-0.411650151 0.086994268 0.006625253707 3.628921614e-39
-0.3543358147 0.07225801796 -0.00561369257 3.628921614e-39
-0.3965833187 0.07898443937 -0.009427294135 3.628921614e-39
-0.3380966783 0.04944748059 -0.003236252582 3.628921614e-39
-0.411650151 0.086994268 0.006625253707 3.628921614e-39
-0.3540839255 0.06578262895 -0.004510807805 3.628921614e-39
-0.3796018362 0.07396330684 -0.008321465924 3.628921614e-39
-0.3482388854 0.04241617769 -0.003251094138 3.628921614e-39
-0.4106582403 0.0856788978 -0.003341204254 3.628921614e-39
-0.3535357416 0.080816634 -0.006645075046 3.628921614e-39
-0.412280947 0.08121548593 -0.007840100676 3.628921614e-39
-0.3256658614 0.05196645483 -0.003676133463 3.628921614e-39
-0.4039524198 0.0859927088 0.02146469429 3.628921614e-39
-0.3567793071 0.08439271897 -0.007179811131 3.628921614e-39
-0.4121648967 0.0823372677 -0.007379051298 3.628921614e-39
-0.3258649707 0.05316625535 -0.003426638898 3.628921614e-39
-0.4101116359 0.08937203139 0.01231592428 3.628921614e-39
-0.3522865176 0.07333590835 -0.005427866243 3.628921614e-39
-0.3986578882 0.07973873615 -0.009335380979 3.628921614e-39
-0.3342015147 0.05109726638 -0.003278497141 3.628921614e-39
-0.4116388261 0.08709259331 0.006627764553 3.628921614e-39
-0.3557707071 0.06921985 -0.005293625407 3.628921614e-39
-0.3893508315 0.07681459188 -0.009293210693 3.628921614e-39
-0.3434423208 0.0530236885 -0.002655559452 3.628921614e-39
-0.411935091 0.0846311748 -0.001301939832 3.628921614e-39
0.005941190757 -0.0518309623 -0.1455253363 2.898180898e-39
0.03936719522 -0.04531615973 -0.09212318808 2.898180898e-39
-0.03386092186 -0.05003325269 -0.2050044835 2.898180898e-39
-0.01199887134 -0.05302369222 -0.1350146532 2.898180898e-39
0.02816200815 -0.04995492101 -0.1247569025 2.898180898e-39
-0.007954806089 -0.05366043001 -0.09716790915 2.898180898e-39
-0.008622311987 -0.05181851611 -0.1675682515 2.898180898e-39
-0.03154269233 -0.05248690397 -0.1700053811 2.898180898e-39
0.02816200815 -0.04995492101 -0.1247569025 2.898180898e-39
-0.007954806089 -0.05366043001 -0.09716790915 2.898180898e-39
-0.008622311987 -0.05181851611 -0.1675682515 2.898180898e-39
-0.03154269233 -0.05248690397 -0.1700053811 2.898180898e-39
0.01418216806 -0.05127432942 -0.1336233318 2.898180898e-39
0.009250272997 -0.05037938803 -0.1035354733 2.898180898e-39
-0.02181076817 -0.050823614 -0.1869511753 2.898180898e-39
-0.02499205247 -0.05399656296 -0.1570616663 2.898180898e-39
0.05095922947 -0.04679401591 -0.1033670008 2.898180898e-39
-0.02883095853 -0.05593400076 -0.05917843431 2.898180898e-39
0.01099795476 -0.0512583591 -0.1493396014 2.898180898e-39
-0.04702066258 -0.05237964168 -0.1878362 2.898180898e-39
0.05155106261 -0.04675462842 -0.1039861292 2.898180898e-39
-0.02961701527 -0.05056718737 -0.0497145392 2.898180898e-39
0.02057079971 -0.05105290562 -0.1434711516 2.898180898e-39
-0.04602789879 -0.05197175592 -0.1907572299 2.898180898e-39
0.02905393206 -0.04985386878 -0.1243646964 2.898180898e-39
-0.007026612759 -0.05354972556 -0.09895011038 2.898180898e-39
-0.005391415209 -0.05154019967 -0.1670082062 2.898180898e-39
-0.03118728846 -0.05244266987 -0.1703957021 2.898180898e-39
0.02575445175 -0.05007748678 -0.1243867651 2.898180898e-39
0.01464413851 -0.04945119098 -0.1009973511 2.898180898e-39
-0.01392682735 -0.05170510337 -0.1742773652 2.898180898e-39
-0.03053303994 -0.05308449641 -0.163939178 2.898180898e-39
-0.3279296458 -0.001711453544 0.004991013091 2.167082852e-39
-0.03363955021 0.01052876562 0.005882061087 2.167082852e-39
-0.2220540792 0.006242028903 0.00456562452 2.167082852e-39
-0.2468081564 0.001529257628 0.006843959447 2.167082852e-39
-0.3659598231 -0.0140864579 0.0001300796866 2.167082852e-39
0.06713818014 0.005275616888 0.01335773151 2.167082852e-39
-0.2831186652 0.002771541243 0.004662442487 2.167082852e-39
-0.1394083202 0.008015042171 0.005284394138 2.167082852e-39
-0.3659598231 -0.0140864579 0.0001300796866 2.167082852e-39
0.06713818014 0.005275616888 0.01335773151 2.167082852e-39
-0.2831186652 0.002771541243 0.004662442487 2.167082852e-39
-0.1394083202 0.008015042171 0.005284394138 2.167082852e-39
-0.3575959206 -0.01036827918 0.002192799235 2.167082852e-39
0.02225837484 0.00805248227 0.009645744227 2.167082852e-39
-0.2440260649 0.005656577181 0.004650745541 2.167082852e-39
-0.1870022267 0.00559978094 0.006051376928 2.167082852e-39
-0.3751481473 -0.01776634715 -0.005634121597 2.167082852e-39
0.1060661525 0.003256576834 0.01713120192 2.167082852e-39
-0.3233086765 -0.0002126905601 0.005037332419 2.167082852e-39
-0.07827813923 0.0104251001 0.005674390588 2.167082852e-39
-0.3746511936 -0.0178315267 -0.005133337807 2.167082852e-39
0.1193315536 0.002099674428 0.01812337898 2.167082852e-39
-0.3272043467 -0.001396748936 0.005475458689 2.167082852e-39
-0.07036608458 0.01023041736 0.005761969369 2.167082852e-39
-0.3672810197 -0.01471375301 -0.0001571625471 2.167082852e-39
0.06540875137 0.005190634169 0.01306138374 2.167082852e-39
-0.2847957313 0.002575017046 0.004755706992 2.167082852e-39
-0.1353422105 0.008132745512 0.005246814806 2.167082852e-39
-0.3632928133 -0.01244980935 0.0009959336603 2.167082852e-39
0.003732813057 0.00874413643 0.007624135818 2.167082852e-39
-0.2828584015 0.002694592811 0.004710788373 2.167082852e-39
-0.1839446127 0.006020745728 0.005464476999 2.167082852e-39
0.06385266781 -0.02001953125 0.03045669384 1.435982003e-39
0.162275672 -0.01588291861 0.02958390862 1.435982003e-39
0.2495151907 -0.01945447177 0.02887319773 1.435982003e-39
0.07992444187 -0.0193169415 0.03036529012 1.435982003e-39
6.559491158e-05 -0.0178342592 0.02891661227 1.435982003e-39
0.2059507519 -0.01787351817 0.02940025553 1.435982003e-39
0.2931554615 -0.02084586211 0.02877421677 1.435982003e-39
0.1575113088 -0.01581403986 0.02955993451 1.435982003e-39
6.559491158e-05 -0.0178342592 0.02891661227 1.435982003e-39
0.2059507519 -0.01787351817 0.02940025553 1.435982003e-39
0.2931554615 -0.02084586211 0.02877421677 1.435982003e-39
0.1575113088 -0.01581403986 0.02955993451 1.435982003e-39
0.02597734705 -0.02139236033 0.03025815636 1.435982003e-39
0.1933442652 -0.01731701382 0.02951429598 1.435982003e-39
0.288497299 -0.02079293691 0.02870916948 1.435982003e-39
0.1180587336 -0.01729639992 0.02987768687 1.435982003e-39
-0.04388010129 -0.01509597991 0.029473681 1.435982003e-39
0.2220273912 -0.01883237064 0.02929248847 1.435982003e-39
0.3031100631 -0.02102581412 0.02869068645 1.435982003e-39
0.1910478622 -0.01712936908 0.02955180965 1.435982003e-39
-0.0650234893 -0.01552564651 0.03067200445 1.435982003e-39
0.234222129 -0.01896210387 0.02912301943 1.435982003e-39
0.296176374 -0.02101761103 0.02885273285 1.435982003e-39
0.2110861838 -0.01858894899 0.02978310175 1.435982003e-39
-0.01258270349 -0.01692517102 0.02903132513 1.435982003e-39
0.2025248408 -0.01765475981 0.02948502824 1.435982003e-39
0.2848424613 -0.02062808536 0.02884711325 1.435982003e-39
0.157130301 -0.01580811106 0.02958364785 1.435982003e-39
0.01923497394 -0.0208376497 0.03017062508 1.435982003e-39
0.2002931386 -0.01849276945 0.03009986691 1.435982003e-39
0.2777186334 -0.02092674747 0.02901502512 1.435982003e-39
0.1365336329 -0.01644580811 0.02976657636 1.435982003e-39
-0.4194301069 0.0985718444 -0.06767197698 7.045238224e-40
-0.3918640912 0.0894170478 0.006271056365 7.045238224e-40
-0.3803496063 0.08821465075 0.04439960048 7.045238224e-40
-0.3883765042 0.08740518987 0.05997052044 7.045238224e-40
-0.3827138841 0.08616473526 -0.04345383495 7.045238224e-40
-0.4149494171 0.09501053393 -0.05294778943 7.045238224e-40
-0.3889608383 0.08901334554 0.01794801094 7.045238224e-40
-0.4019759893 0.08616052568 0.07669779658 7.045238224e-40
-0.3827138841 0.08616473526 -0.04345383495 7.045238224e-40
-0.4149494171 0.09501053393 -0.05294778943 7.045238224e-40
-0.3889608383 0.08901334554 0.01794801094 7.045238224e-40
-0.4019759893 0.08616052568 0.07669779658 7.045238224e-40
-0.3975125253 0.09286625683 -0.05921463296 7.045238224e-40
-0.4070708454 0.09275560826 -0.03299371898 7.045238224e-40
-0.3852199614 0.08839614689 0.02476662397 7.045238224e-40
-0.395909667 0.0863827914 0.07069652528 7.045238224e-40
-0.3639450967 0.07869841903 -0.0265142452 7.045238224e-40
-0.4174413085 0.09860022366 -0.06843990833 7.045238224e-40
-0.4005033076 0.09049224854 -0.008921103552 7.045238224e-40
-0.4076449871 0.08647880703 0.08617817611 7.045238224e-40
-0.3603021502 0.07746376097 -0.02368031256 7.045238224e-40
-0.4179499745 0.09905534238 -0.06991828233 7.045238224e-40
-0.4019901454 0.0909499079 -0.01016717404 7.045238224e-40
-0.4089180231 0.08655252308 0.08627528697 7.045238224e-40
-0.380017966 0.08497056365 -0.04051527008 7.045238224e-40
-0.415789187 0.09512946755 -0.05417649075 7.045238224e-40
-0.3916841149 0.08940584213 0.01287947875 7.045238224e-40
-0.4021478891 0.08620331436 0.07691302896 7.045238224e-40
-0.399261713 0.09349357337 -0.06098342314 7.045238224e-40
-0.4023936987 0.0916313529 -0.02310840599 7.045238224e-40
-0.3851609826 0.08873866498 0.02521187626 7.045238224e-40
-0.3951740861 0.08582758158 0.06732232869 7.045238224e-40
-0.3020894229 0.04190248251 0.004428328015 6.490113838e-41
-0.2251674086 0.02935589477 0.01795420796 6.490113838e-41
-0.1290701032 0.004044317175 0.02315744385 6.490113838e-41
-0.289251864 0.04247009009 0.00710005872 6.490113838e-41
-0.3446135521 0.03610663489 0.0002851542085 6.490113838e-41
-0.1850294769 0.02202825062 0.01947776228 6.490113838e-41
-0.02148198336 0.001536800293 0.02402057499 6.490113838e-41
-0.2570028603 0.03762643039 0.01304453053 6.490113838e-41
-0.3446135521 0.03610663489 0.0002851542085 6.490113838e-41
-0.1850294769 0.02202825062 0.01947776228 6.490113838e-41
-0.02148198336 0.001536800293 0.02402057499 6.490113838e-41
-0.2570028603 0.03762643039 0.01304453053 6.490113838e-41
-0.3183652163 0.03929698095 0.002799120033 6.490113838e-41
-0.2010287195 0.02607713081 0.01872328855 6.490113838e-41
-0.07255146652 0.002291437006 0.02358750254 6.490113838e-41
-0.2721769512 0.03944205865 0.01082216483 6.490113838e-41
-0.3652907908 0.03392193839 -0.001468582894 6.490113838e-41
-0.1639015526 0.01624093391 0.02062729001 6.490113838e-41
0.005754932761 -0.0004044919915 0.02505720779 6.490113838e-41
-0.2312499434 0.03515104577 0.01679110155 6.490113838e-41
-0.3709275424 0.03335147351 -0.001810701448 6.490113838e-41
-0.1569499522 0.01355243195 0.02077035792 6.490113838e-41
0.006316026673 -0.000352539093 0.02508114837 6.490113838e-41
-0.2326040715 0.03813992068 0.01559999026 6.490113838e-41
-0.3494162858 0.03568645567 -0.000472806365 6.490113838e-41
-0.1854867339 0.02174538188 0.01950301602 6.490113838e-41
-0.0191417262 0.001642896212 0.0240076445 6.490113838e-41
-0.2563905716 0.03792275488 0.01299630292 6.490113838e-41
-0.3212311268 0.03930700943 0.002220774069 6.490113838e-41
-0.2044079006 0.02513754368 0.01891235635 6.490113838e-41
-0.04746485129 0.001184507622 0.02396569401 6.490113838e-41
-0.2629732192 0.03808391467 0.01228747237 6.490113838e-41
-0.006616086233 -0.05569445714 -0.05381730571 8.028094954e-40
-0.04676178098 -0.04715225101 0.1454584748 8.028094954e-40
-0.01297246199 -0.05907745659 -0.0304122474 8.028094954e-40
-0.02478736266 -0.0598224327 0.02914545499 8.028094954e-40
0.01487465203 -0.05320266634 -0.05135169998 8.028094954e-40
-0.06089320406 -0.0424509868 0.1815752685 8.028094954e-40
-0.02060929127 -0.06013713032 0.02195281163 8.028094954e-40
-0.03468786925 -0.05318436399 0.106827721 8.028094954e-40
0.01487465203 -0.05320266634 -0.05135169998 8.028094954e-40
-0.06089320406 -0.0424509868 0.1815752685 8.028094954e-40
-0.02060929127 -0.06013713032 0.02195281163 8.028094954e-40
-0.03468786925 -0.05318436399 0.106827721 8.028094954e-40
0.005295666866 -0.05362959579 -0.05652513355 8.028094954e-40
-0.05227016658 -0.04441545159 0.1680425406 8.028094954e-40
-0.01360963844 -0.05943643674 -0.01712791808 8.028094954e-40
-0.02680660225 -0.05757769942 0.06609150022 8.028094954e-40
0.04095423222 -0.0515778698 -0.04260298982 8.028094954e-40
-0.06840717793 -0.04118579626 0.2002150118 8.028094954e-40
-0.0283610113 -0.05679547414 0.07165757567 8.028094954e-40
-0.04709694162 -0.04709545523 0.1471037418 8.028094954e-40
0.04333596677 -0.05160551891 -0.04161921516 8.028094954e-40
-0.07426230609 -0.04120092094 0.2028719485 8.028094954e-40
-0.0272454191 -0.05765161291 0.06249341369 8.028094954e-40
-0.05081664398 -0.04581009597 0.1537810564 8.028094954e-40
0.01750341058 -0.05324862152 -0.05011513457 8.028094954e-40
-0.0637794435 -0.04195091873 0.1868615597 8.028094954e-40
-0.02179287188 -0.06025030091 0.0266796872 8.028094954e-40
-0.03569603711 -0.0526698716 0.1114260852 8.028094954e-40
0.004872540478 -0.05372967944 -0.05602119491 8.028094954e-40
-0.05504482612 -0.04350503162 0.1758724749 8.028094954e-40
-0.01471774932 -0.05981436744 -0.01177097857 8.028094954e-40
-0.02993776277 -0.05581031367 0.08230353147 8.028094954e-40
-0.1184924021 -0.04282063246 -0.274523437 1.540360521e-39
-0.08089573681 -0.03867073357 -0.2299499661 1.540360521e-39
-0.0458137393 -0.04007507861 -0.1703212708 1.540360521e-39
0.01146512199 -0.05129405111 -0.1155190319 1.540360521e-39
-0.08689958602 -0.04031141102 -0.2523358464 1.540360521e-39
-0.02749075368 -0.04130560532 -0.1675215364 1.540360521e-39
-0.0556836389 -0.03918514028 -0.1887898445 1.540360521e-39
0.0343458876 -0.05704206973 -0.07961197942 1.540360521e-39
-0.08689958602 -0.04031141102 -0.2523358464 1.540360521e-39
-0.02749075368 -0.04130560532 -0.1675215364 1.540360521e-39
-0.0556836389 -0.03918514028 -0.1887898445 1.540360521e-39
0.0343458876 -0.05704206973 -0.07961197942 1.540360521e-39
-0.09743244946 -0.04088808969 -0.2592577934 1.540360521e-39
-0.04371252283 -0.03855162114 -0.1868753731 1.540360521e-39
-0.04873857275 -0.03979557008 -0.1740176976 1.540360521e-39
0.02530758083 -0.05528628081 -0.09078647196 1.540360521e-39
-0.07155746967 -0.03929233924 -0.238889426 1.540360521e-39
-0.006247114856 -0.04537459835 -0.1366999596 1.540360521e-39
-0.06336700171 -0.03902541474 -0.2101521045 1.540360521e-39
0.05758591369 -0.0607297644 -0.06010156125 1.540360521e-39
-0.06904315203 -0.03939342871 -0.2375150919 1.540360521e-39
-0.01168591995 -0.04430494085 -0.147347793 1.540360521e-39
-0.06306985766 -0.03957958892 -0.2162529677 1.540360521e-39
0.04701712728 -0.05903123319 -0.0686179921 1.540360521e-39
-0.08591085672 -0.04035604745 -0.250790298 1.540360521e-39
-0.02719881758 -0.04181582108 -0.1678479165 1.540360521e-39
-0.05866464227 -0.03947960958 -0.194279924 1.540360521e-39
0.03255591542 -0.05684084818 -0.08143921196 1.540360521e-39
-0.09053070098 -0.04042476788 -0.2524246275 1.540360521e-39
-0.0216673892 -0.04279620945 -0.1617425978 1.540360521e-39
-0.04066673294 -0.04099813849 -0.1694614142 1.540360521e-39
0.04037556052 -0.05756464601 -0.07379955798 1.540360521e-39
-0.2174977362 -0.02484353818 0.052263733 2.277910146e-39
-0.2423639297 -0.02279180847 0.05510159209 2.277910146e-39
-0.07836036384 -0.04112692922 0.0669490546 2.277910146e-39
-0.2961304784 -0.02028476074 0.03949785605 2.277910146e-39
-0.1448891908 -0.03096390888 0.05386642367 2.277910146e-39
-0.2124484032 -0.02556995489 0.05866514519 2.277910146e-39
-0.01713524573 -0.04351834953 0.09491783381 2.277910146e-39
-0.2624041438 -0.02152683586 0.0507850796 2.277910146e-39
-0.1448891908 -0.03096390888 0.05386642367 2.277910146e-39
-0.2124484032 -0.02556995489 0.05866514519 2.277910146e-39
-0.01713524573 -0.04351834953 0.09491783381 2.277910146e-39
-0.2624041438 -0.02152683586 0.0507850796 2.277910146e-39
-0.1849818528 -0.0269803144 0.0557240285 2.277910146e-39
-0.231066063 -0.02354916185 0.05705467239 2.277910146e-39
-0.05550928786 -0.04293338209 0.08128726482 2.277910146e-39
-0.2816792428 -0.02078026533 0.0453369692 2.277910146e-39
-0.1134806797 -0.03465301171 0.05164253339 2.277910146e-39
-0.1740989089 -0.03048552014 0.06342406571 2.277910146e-39
0.02203010023 -0.04126364738 0.1051393971 2.277910146e-39
-0.2326238602 -0.02319316007 0.05681036413 2.277910146e-39
-0.1081672162 -0.03506698459 0.05150040984 2.277910146e-39
-0.1561351568 -0.03298683092 0.06821092218 2.277910146e-39
0.0192619767 -0.04155535623 0.1020034775 2.277910146e-39
-0.2187178731 -0.02451177314 0.05829439312 2.277910146e-39
-0.1405903548 -0.03143889084 0.05402801186 2.277910146e-39
-0.2078356296 -0.02598285303 0.05860580504 2.277910146e-39
-0.009843482636 -0.0436293371 0.09438165277 2.277910146e-39
-0.2603785396 -0.02164611593 0.05137418956 2.277910146e-39
-0.1651338339 -0.0291707702 0.05623194575 2.277910146e-39
-0.2281283438 -0.02389051206 0.05748443305 2.277910146e-39
-0.0367224291 -0.04298793152 0.08988764882 2.277910146e-39
-0.2742452323 -0.02090829983 0.04745948315 2.277910146e-39
0.0472471863 -0.04797157645 -0.0348896049 3.015101038e-39
0.2326654494 -0.06163208932 -0.0238684155 3.015101038e-39
-0.07959287614 -0.04513181746 -0.03535056114 3.015101038e-39
0.05188096687 -0.04750058427 -0.03391478583 3.015101038e-39
-0.008997651748 -0.04802881554 -0.03393383697 3.015101038e-39
0.2306683213 -0.0615577288 -0.02376448549 3.015101038e-39
-0.160928607 -0.04068987817 -0.0368032679 3.015101038e-39
0.1035132334 -0.04811232165 -0.03358511627 3.015101038e-39
-0.008997651748 -0.04802881554 -0.03393383697 3.015101038e-39
0.2306683213 -0.0615577288 -0.02376448549 3.015101038e-39
-0.160928607 -0.04068987817 -0.0368032679 3.015101038e-39
0.1035132334 -0.04811232165 -0.03358511627 3.015101038e-39
0.02182260528 -0.04806986824 -0.03454641253 3.015101038e-39
0.2614888251 -0.06594439596 -0.0180649031 3.015101038e-39
-0.12255992 -0.04249665514 -0.03701758012 3.015101038e-39
0.08214908093 -0.04669735953 -0.03289460763 3.015101038e-39
-0.03857575729 -0.04698037356 -0.03451694548 3.015101038e-39
0.1698198915 -0.0528161265 -0.03350098059 3.015101038e-39
-0.2060380429 -0.03836986795 -0.03691379726 3.015101038e-39
0.127840057 -0.0494373776 -0.03426434845 3.015101038e-39
-0.05243233964 -0.04660492018 -0.03436787054 3.015101038e-39
0.127785176 -0.04907492176 -0.03476389498 3.015101038e-39
-0.212132141 -0.03833147138 -0.03655364364 3.015101038e-39
0.1266646981 -0.04956995323 -0.03388401493 3.015101038e-39
-0.01544650737 -0.0478874445 -0.033747565 3.015101038e-39
0.2223905623 -0.06039831787 -0.02547809295 3.015101038e-39
-0.1648479998 -0.04053778574 -0.03674328327 3.015101038e-39
0.1042498872 -0.04816514254 -0.0336323157 3.015101038e-39
0.005878448021 -0.04828554764 -0.0335010998 3.015101038e-39
0.1998064518 -0.05695718527 -0.03024314903 3.015101038e-39
-0.1444959641 -0.04153995216 -0.03675434738 3.015101038e-39
0.08224245906 -0.04675084725 -0.03272482008 3.015101038e-39
-0.2388872653 -0.04728808254 0.01740906015 3.75229193e-39
-0.1390596032 -0.05711629987 0.01518515777 3.75229193e-39
-0.1662770659 -0.05594983324 0.01401940547 3.75229193e-39
-0.165627569 -0.0534415096 0.01903993078 3.75229193e-39
-0.2882338464 -0.04100736976 0.01416967995 3.75229193e-39
-0.0492474176 -0.05714637414 0.01995053329 3.75229193e-39
-0.2052001804 -0.05157765001 0.01477164589 3.75229193e-39
-0.1346734762 -0.05553201213 0.0194198247 3.75229193e-39
-0.2882338464 -0.04100736976 0.01416967995 3.75229193e-39
-0.0492474176 -0.05714637414 0.01995053329 3.75229193e-39
-0.2052001804 -0.05157765001 0.01477164589 3.75229193e-39
-0.1346734762 -0.05553201213 0.0194198247 3.75229193e-39
-0.270832479 -0.04361776635 0.01545230579 3.75229193e-39
-0.09444409609 -0.05727968737 0.01734654978 3.75229193e-39
-0.1849821061 -0.05310096592 0.01485275757 3.75229193e-39
-0.1544404775 -0.05483214185 0.01897676475 3.75229193e-39
-0.3117201328 -0.03687591851 0.0104644727 3.75229193e-39
-0.01883573085 -0.05541252345 0.02099110186 3.75229193e-39
-0.231965512 -0.04784278944 0.01467169914 3.75229193e-39
-0.1082937419 -0.05549552664 0.02084596828 3.75229193e-39
-0.3106438518 -0.03724002838 0.01094917394 3.75229193e-39
-0.01220418978 -0.05480428413 0.02139115334 3.75229193e-39
-0.2399014086 -0.04663728923 0.01491781324 3.75229193e-39
-0.1012544334 -0.05576998368 0.02075118944 3.75229193e-39
-0.2888019085 -0.04084889591 0.0140724387 3.75229193e-39
-0.04341040552 -0.05695181713 0.02025761455 3.75229193e-39
-0.2061402351 -0.05148332939 0.01485253032 3.75229193e-39
-0.1314679682 -0.05578262359 0.01933727041 3.75229193e-39
-0.2820165455 -0.04183633998 0.01454732753 3.75229193e-39
-0.09082701057 -0.05738703161 0.01753272675 3.75229193e-39
-0.1966222227 -0.05227489397 0.01470852364 3.75229193e-39
-0.1463269144 -0.05547949672 0.01870388724 3.75229193e-39
-0.1549591869 0.01987842098 0.008247745223 4.48912409e-39
-0.1203301772 0.01573246531 0.008862118237 4.48912409e-39
-0.07554357499 0.01733087748 0.007305931766 4.48912409e-39
-0.3399797976 0.04144446552 -0.01353889704 4.48912409e-39
-0.2089454532 0.02820435725 0.001906500664 4.48912409e-39
-0.08319415897 0.01659034006 0.007705308963 4.48912409e-39
0.03744533285 0.007956463844 0.01113902312 4.48912409e-39
-0.2930825651 0.03740344197 -0.01123335585 4.48912409e-39
-0.2089454532 0.02820435725 0.001906500664 4.48912409e-39
-0.08319415897 0.01659034006 0.007705308963 4.48912409e-39
0.03744533285 0.007956463844 0.01113902312 4.48912409e-39
-0.2930825651 0.03740344197 -0.01123335585 4.48912409e-39
-0.1905027479 0.02497307211 0.00581121631 4.48912409e-39
-0.08750327677 0.0164895989 0.008171976544 4.48912409e-39
-0.01471424103 0.01467505563 0.007007929496 4.48912409e-39
-0.3264208436 0.04005718604 -0.01323269028 4.48912409e-39
-0.2254227847 0.0311422497 -0.001674029394 4.48912409e-39
-0.04109119996 0.01593764685 0.007928900421 4.48912409e-39
0.1093672886 0.004331636243 0.0161333885 4.48912409e-39
-0.2425151467 0.03333399445 -0.005668943282 4.48912409e-39
-0.2265256047 0.03169717267 -0.001502661733 4.48912409e-39
-0.03727613389 0.01601978391 0.007641351316 4.48912409e-39
0.116881609 0.004058785737 0.01659004949 4.48912409e-39
-0.2131442726 0.02798181213 0.0001121368259 4.48912409e-39
-0.2116302252 0.02877173573 0.001413944177 4.48912409e-39
-0.08302593231 0.01653853431 0.007677951828 4.48912409e-39
0.0414166972 0.007495404687 0.01145677269 4.48912409e-39
-0.2908656597 0.03728215024 -0.01110014319 4.48912409e-39
-0.1942855418 0.02571578324 0.005478891544 4.48912409e-39
-0.09366643429 0.01643953659 0.008826777339 4.48912409e-39
0.0008337980253 0.01212042104 0.008268425241 4.48912409e-39
-0.3091406226 0.03872137144 -0.01213174406 4.48912409e-39
-0.1247685477 -0.06488215178 -0.006250215694 5.225597518e-39
-0.3143000305 -0.04839658737 -0.009263717569 5.225597518e-39
-0.2203806192 -0.06336478889 -0.009948246181 5.225597518e-39
-0.2475776672 -0.06093166769 -0.0103318179 5.225597518e-39
-0.05002136528 -0.06606375426 -0.003341294127 5.225597518e-39
-0.3471056223 -0.03545294702 -0.009261242114 5.225597518e-39
-0.1945486218 -0.06410253793 -0.008891310543 5.225597518e-39
-0.268586874 -0.0574314259 -0.0099249864 5.225597518e-39
-0.05002136528 -0.06606375426 -0.003341294127 5.225597518e-39
-0.3471056223 -0.03545294702 -0.009261242114 5.225597518e-39
-0.1945486218 -0.06410253793 -0.008891310543 5.225597518e-39
-0.268586874 -0.0574314259 -0.0099249864 5.225597518e-39
-0.0798008889 -0.06515790522 -0.004671746399 5.225597518e-39
-0.3369416595 -0.04004604742 -0.009116129018 5.225597518e-39
-0.2122815847 -0.06359419227 -0.009590888396 5.225597518e-39
-0.2590143383 -0.058796525 -0.0100025516 5.225597518e-39
-0.007442690898 -0.06701296568 -0.001101677888 5.225597518e-39
-0.3626256287 -0.02843709104 -0.009442771785 5.225597518e-39
-0.1554654986 -0.06475966424 -0.007374097593 5.225597518e-39
-0.2891380787 -0.05361848325 -0.00963333901 5.225597518e-39
-0.005694525316 -0.06702842563 -0.001016870141 5.225597518e-39
-0.3575834334 -0.03084800392 -0.009406062774 5.225597518e-39
-0.1527649909 -0.06490264833 -0.007304159924 5.225597518e-39
-0.2911290228 -0.05352744088 -0.009706168436 5.225597518e-39
-0.04799782485 -0.06611898541 -0.003239523387 5.225597518e-39
-0.3458893895 -0.0361286141 -0.009254374541 5.225597518e-39
-0.194650501 -0.06410504878 -0.008897733875 5.225597518e-39
-0.2689886689 -0.05738114566 -0.009924659505 5.225597518e-39
-0.07171566039 -0.06517709047 -0.004379328806 5.225597518e-39
-0.3239902854 -0.04604323953 -0.009051418863 5.225597518e-39
-0.2029451877 -0.06381007284 -0.00919340644 5.225597518e-39
-0.2586576343 -0.05890971795 -0.01003796235 5.225597518e-39
0.06001684815 -0.05023005232 0.07786925137 5.962428276e-39
0.01917049661 -0.04958352447 0.08754852414 5.962428276e-39
-0.02428213693 -0.03949371725 0.146151334 5.962428276e-39
0.02692600712 -0.04459134117 0.1122539192 5.962428276e-39
0.07516968995 -0.05012485385 0.09510707855 5.962428276e-39
-0.01747564599 -0.04903313518 0.08433932811 5.962428276e-39
0.01176560856 -0.0433212705 0.1178087667 5.962428276e-39
0.01066458318 -0.04849464074 0.08709526807 5.962428276e-39
0.07516968995 -0.05012485385 0.09510707855 5.962428276e-39
-0.01747564599 -0.04903313518 0.08433932811 5.962428276e-39
0.01176560856 -0.0433212705 0.1178087667 5.962428276e-39
0.01066458318 -0.04849464074 0.08709526807 5.962428276e-39
0.07796129584 -0.04942527413 0.09130834043 5.962428276e-39
-0.003317179391 -0.0480546616 0.08815945685 5.962428276e-39
-0.008061624132 -0.04051958025 0.138691932 5.962428276e-39
0.02174584195 -0.04619836807 0.09904003143 5.962428276e-39
0.05302471295 -0.04920146987 0.09812761843 5.962428276e-39
-0.04486721009 -0.05151832104 0.08020430803 5.962428276e-39
0.02836817503 -0.04732640833 0.0986899063 5.962428276e-39
-0.002318232553 -0.05200493336 0.08209080994 5.962428276e-39
0.03622467816 -0.04774962738 0.09637373686 5.962428276e-39
-0.04453586414 -0.05132900178 0.08070093393 5.962428276e-39
0.02924394421 -0.04918900505 0.09042690694 5.962428276e-39
-0.009149329737 -0.05201649666 0.08191346377 5.962428276e-39
0.06854878366 -0.04944775999 0.09143588692 5.962428276e-39
-0.01913195103 -0.04938745499 0.08399692923 5.962428276e-39
0.01625105366 -0.04423838854 0.1141809672 5.962428276e-39
0.01031851955 -0.04862726852 0.08693818003 5.962428276e-39
0.0531283915 -0.05132744834 0.08480328321 5.962428276e-39
-0.02306623943 -0.04925685748 0.08609967679 5.962428276e-39
0.0007429198595 -0.04241199419 0.1245843843 5.962428276e-39
0.0119733233 -0.04701476917 0.08926959336 5.962428276e-39
-0.221275121 -0.01220409293 0.05430324748 6.698542971e-39
-0.2701162994 -0.01008817647 0.04297399521 6.698542971e-39
-0.2206733227 -0.01187525038 0.05507836491 6.698542971e-39
-0.2319813073 -0.01053322665 0.05554137006 6.698542971e-39
-0.2349399179 -0.01158690732 0.05394563079 6.698542971e-39
-0.2860015333 -0.01025949884 0.0344395265 6.698542971e-39
-0.2048383206 -0.01166314632 0.06000040472 6.698542971e-39
-0.2560562193 -0.01011826564 0.05057091266 6.698542971e-39
-0.2349399179 -0.01158690732 0.05394563079 6.698542971e-39
-0.2860015333 -0.01025949884 0.0344395265 6.698542971e-39
-0.2048383206 -0.01166314632 0.06000040472 6.698542971e-39
-0.2560562193 -0.01011826564 0.05057091266 6.698542971e-39
-0.2291370779 -0.01133576687 0.05454389751 6.698542971e-39
-0.2773829401 -0.01065898594 0.03774295375 6.698542971e-39
-0.2085252851 -0.01132011507 0.05897053331 6.698542971e-39
-0.2454613894 -0.01021799631 0.0539544411 6.698542971e-39
-0.2410311401 -0.01091691665 0.05392462388 6.698542971e-39
-0.2981299162 -0.007582362741 0.01976997964 6.698542971e-39
-0.1978423446 -0.01215196215 0.0618587248 6.698542971e-39
-0.2624519169 -0.01056803204 0.04787450656 6.698542971e-39
-0.2443087846 -0.01103002578 0.05277777836 6.698542971e-39
-0.2980911434 -0.007419405505 0.02030482888 6.698542971e-39
-0.1994767636 -0.01221540198 0.06115078181 6.698542971e-39
-0.2652218342 -0.0111166425 0.04604741186 6.698542971e-39
-0.2365397215 -0.01174603775 0.05367091298 6.698542971e-39
-0.2855317593 -0.01040909812 0.03506837785 6.698542971e-39
-0.2049514204 -0.01164368074 0.06001351029 6.698542971e-39
-0.2567234933 -0.01025550626 0.05018176511 6.698542971e-39
-0.2336252034 -0.01163688675 0.05391030759 6.698542971e-39
-0.2817663252 -0.01056509651 0.03653302044 6.698542971e-39
-0.2106760591 -0.01149602979 0.05821119621 6.698542971e-39
-0.2529364526 -0.009892423637 0.0519717373 6.698542971e-39
-0.3039147258 -0.03942939639 0.006391974632 7.434656265e-39
-0.2305471897 -0.05110889673 0.01427444723 7.434656265e-39
-0.2106843591 -0.05434195697 0.01504166238 7.434656265e-39
-0.1371147037 -0.06350748241 0.01349802315 7.434656265e-39
-0.2175958008 -0.05266991258 0.005575926974 7.434656265e-39
-0.2854533792 -0.04098551348 0.01214241143 7.434656265e-39
-0.1450349241 -0.06145117059 -0.001519142417 7.434656265e-39
-0.07251512259 -0.06588130444 0.009370291606 7.434656265e-39
-0.2175958008 -0.05266991258 0.005575926974 7.434656265e-39
-0.2854533792 -0.04098551348 0.01214241143 7.434656265e-39
-0.1450349241 -0.06145117059 -0.001519142417 7.434656265e-39
-0.07251512259 -0.06588130444 0.009370291606 7.434656265e-39
-0.277292639 -0.04384045303 0.005028190557 7.434656265e-39
-0.2678951621 -0.04471432045 0.01205464918 7.434656265e-39
-0.1765258312 -0.05852625892 0.007050293032 7.434656265e-39
-0.1168811768 -0.06403011829 0.01133513357 7.434656265e-39
-0.185090676 -0.05690016598 0.002018821426 7.434656265e-39
-0.308850944 -0.03630424663 0.01268636156 7.434656265e-39
-0.1039047316 -0.0636087209 -0.01052524056 7.434656265e-39
-0.03209182248 -0.06606646627 -0.001506819157 7.434656265e-39
-0.1773617268 -0.05778953061 0.0004138946242 7.434656265e-39
-0.3121314645 -0.03518903255 0.01266911626 7.434656265e-39
-0.1006018519 -0.06373240799 -0.01189178787 7.434656265e-39
-0.01771230437 -0.06562110037 -0.009000952356 7.434656265e-39
-0.2108962536 -0.05358740315 0.005521554034 7.434656265e-39
-0.2829732597 -0.04145027325 0.01215737779 7.434656265e-39
-0.1424211413 -0.06166990101 -0.002343307715 7.434656265e-39
-0.06555825472 -0.06609601527 0.008643516339 7.434656265e-39
