# .PCD v0.7 - Point Cloud Data file format
VERSION 0.7
FIELDS x y z rgb
SIZE 4 4 4 4
TYPE F F F F
COUNT 1 1 1 1
WIDTH 806
HEIGHT 1
VIEWPOINT 0 0 0 1 0 0 0
POINTS 806
DATA ascii
-0.06021887809 0.005912495777 -0.00975987874 1.551683013e-38
0.2041428238 -2.971477807e-05 -0.01149091963 1.551683013e-38
-0.002563485876 0.005835068412 -0.009849170223 1.551683013e-38
0.1008333862 0.004281707108 -0.009624679573 1.551683013e-38
-0.02839890681 0.00673689181 -0.008921479806 1.551683013e-38
-0.1969382316 -0.02084704489 0.03928819299 1.625043089e-38
-0.2540851831 -0.03492092714 0.03011116013 1.625043089e-38
-0.2259672135 -0.01568798535 0.04094861075 1.625043089e-38
-0.2553372085 -0.03849716857 0.02765000053 1.625043089e-38
-0.2386862934 -0.01575157605 0.04023770615 1.625043089e-38
-0.2389798909 -0.04225607216 0.02939961851 1.625043089e-38
-0.04186208174 -0.04701473564 0.03278797492 1.625043089e-38
-0.1450604051 -0.05139865354 0.02952329069 1.625043089e-38
-0.1112764403 -0.03360088542 0.0360570848 1.625043089e-38
-0.2447764277 -0.04650658742 0.0249498114 1.625043089e-38
-0.01640543714 -0.05031373352 0.03179322556 1.625043089e-38
-0.1064111143 -0.05046667904 0.03077927791 1.625043089e-38
-0.09206968546 -0.03430632129 0.03589214012 1.625043089e-38
-0.2436895221 -0.04293216765 0.0279738456 1.625043089e-38
-0.1185149923 -0.03365642577 0.03623646498 1.625043089e-38
-0.2136374414 -0.05011088401 0.02511154115 1.625043089e-38
-0.2121487558 -0.01375777833 0.04068575799 1.625043089e-38
-0.2581018209 -0.03397901729 0.02984732762 1.625043089e-38
-0.0489910394 -0.03874890134 0.03515648097 1.625043089e-38
-0.1026485264 -0.0476567708 0.03138222173 1.625043089e-38
-0.1526089013 -0.0263780877 0.03701486066 1.625043089e-38
-0.2196975946 -0.02517612465 0.03906188533 1.625043089e-38
-0.1709057093 -0.02090754174 0.03777396679 1.625043089e-38
-0.1809597611 -0.04101251438 0.03283337504 1.625043089e-38
-0.2096900791 -0.0137781119 0.04064532369 1.625043089e-38
-0.2507659793 -0.01785885543 0.03855965659 1.625043089e-38
-0.01567289792 -0.03481711075 0.03779102117 1.625043089e-38
-0.07192482054 -0.04858119041 0.03168137744 1.625043089e-38
-0.1139090657 -0.02764902823 0.03650730848 1.625043089e-38
-0.1959472448 -0.03287475184 0.03581903502 1.625043089e-38
-0.2205738425 -0.01555629354 0.04105950147 1.625043089e-38
-0.2210379243 -0.03277929872 0.03614116833 1.625043089e-38
-0.008321734145 -0.04699420184 -0.05232999846 1.698367293e-38
0.04225164652 -0.05411700904 -0.02985588275 1.698367293e-38
-0.01939181797 -0.04458327591 -0.06462137401 1.698367293e-38
0.05312016979 -0.05685442314 -0.0257091932 1.698367293e-38
0.06932912767 -0.04422898218 -0.04461750016 1.698367293e-38
0.008053724654 -0.05620796233 -0.02033177018 1.698367293e-38
0.03490142897 -0.04631959647 -0.0696029067 1.698367293e-38
0.03849748522 -0.05984883383 -0.01639211923 1.698367293e-38
-0.05757547915 -0.04785260558 -0.04880344123 1.698367293e-38
0.04261718318 -0.05346187577 -0.03888417408 1.698367293e-38
0.004256610293 -0.04656926543 -0.07165524364 1.698367293e-38
-0.0006964503555 -0.06143250689 -0.005175499711 1.698367293e-38
-0.07995901257 -0.04848682508 -0.04344826564 1.698367293e-38
0.01996126771 -0.05263390392 -0.03287578747 1.698367293e-38
-0.0773242563 -0.04567667469 -0.0604156293 1.698367293e-38
0.02265837416 -0.05287742242 -0.03231984749 1.698367293e-38
0.02354329824 -0.05078342929 -0.05089039728 1.698367293e-38
-0.01457610261 -0.05269804224 -0.02888736874 1.698367293e-38
0.009272965603 -0.04750237986 -0.06918774545 1.698367293e-38
0.0942883864 -0.03848879039 -0.0431179069 1.698367293e-38
-0.09424788505 -0.04795094952 -0.04796658456 1.698367293e-38
0.02545121498 -0.05115095526 -0.0505540967 1.698367293e-38
-0.07656028867 -0.04490827397 -0.06585635245 1.698367293e-38
0.07999695092 -0.0434047617 -0.04305246472 1.698367293e-38
0.002121773083 -0.04742464423 -0.05216418207 1.698367293e-38
-0.005233403761 -0.04685735703 -0.05137135088 1.698367293e-38
0.005053030327 -0.04704323784 -0.06566280872 1.698367293e-38
0.08230301738 -0.04265668988 -0.04327198118 1.698367293e-38
-0.1076445058 -0.0488739647 -0.04373696074 1.698367293e-38
0.03316879645 -0.05036091432 -0.05005475879 1.698367293e-38
-0.1046736762 -0.04673410952 -0.06059893221 1.698367293e-38
0.08875396103 -0.04174133018 -0.04230239615 1.698367293e-38
0.02735929191 -0.0545133017 0.06713409722 1.771655483e-38
0.02632577717 -0.05617517978 0.08556142449 1.771655483e-38
0.0008521077689 -0.05620703474 0.1611532569 1.771655483e-38
0.02182382718 -0.05795228481 0.1264346242 1.771655483e-38
0.03416037187 -0.05446205288 0.06088561192 1.771655483e-38
0.03307084367 -0.05531012267 0.0746973753 1.771655483e-38
-0.045306243 -0.05474959686 0.2295456976 1.771655483e-38
-0.05726257712 -0.05647167191 0.2008935958 1.771655483e-38
0.01253629383 -0.05746743456 0.1184054241 1.771655483e-38
0.02611589432 -0.05705796927 0.1145147085 1.771655483e-38
-0.04763431847 -0.05445877835 0.2291876525 1.771655483e-38
-0.06085082889 -0.05670716614 0.2028570771 1.771655483e-38
0.01442614663 -0.0575940758 0.1229995638 1.771655483e-38
0.02473426238 -0.05747390911 0.1198013499 1.771655483e-38
-0.01951079629 -0.05523406342 0.1924786568 1.771655483e-38
-0.01575156488 -0.05434060469 0.1547912657 1.771655483e-38
0.02659172378 -0.0558006689 0.08248248696 1.771655483e-38
0.02737811394 -0.05720551684 0.1083746552 1.771655483e-38
-0.03660222515 -0.05535777286 0.2218117267 1.771655483e-38
-0.04423868656 -0.05538246781 0.1795413494 1.771655483e-38
0.02155509219 -0.05778072029 0.1204814613 1.771655483e-38
0.02745054103 -0.05694647878 0.1219230965 1.771655483e-38
-0.005223357119 -0.0556060113 0.1648911685 1.771655483e-38
-0.002576773986 -0.05617937073 0.1427642554 1.771655483e-38
0.03465777636 -0.05706767738 0.09898707271 1.771655483e-38
0.03134829551 -0.05660178885 0.1201791763 1.771655483e-38
-0.02579987422 -0.0552854538 0.2074286342 1.771655483e-38
-0.05316471681 -0.05631869286 0.1913820803 1.771655483e-38
0.0207522586 -0.05800357088 0.1235672832 1.771655483e-38
0.02862242609 -0.05683982 0.1258829832 1.771655483e-38
0.001631791238 -0.05634415895 0.152533412 1.771655483e-38
0.01268514711 -0.05749799684 0.1188288033 1.771655483e-38
-0.05115990341 0.007185608614 0.01121023856 1.844943813e-38
-0.3015493751 0.04404458776 -0.0003072721884 1.844943813e-38
-0.2303189188 0.02837835252 0.003174864221 1.844943813e-38
-0.3772585988 0.05630268902 -0.003669558326 1.844943813e-38
-0.02750266343 0.006898382213 0.01176642347 1.844943813e-38
-0.3495503366 0.05418637767 -0.003766114824 1.844943813e-38
0.02757956833 0.005281628575 0.01393544674 1.844943813e-38
-0.3057256341 0.04367009178 -0.0003197276965 1.844943813e-38
0.1330070347 0.002112885471 0.01806383394 1.844943813e-38
-0.2515330613 0.03067332692 0.003168347757 1.844943813e-38
0.02280142531 0.003932991065 0.01447237376 1.844943813e-38
-0.2985149622 0.04176828265 0.0001550493762 1.844943813e-38
0.153415516 0.001776622143 0.01854600944 1.844943813e-38
-0.2621878088 0.03483951092 0.001660701237 1.844943813e-38
-0.111496985 0.007212602999 0.0104595311 1.844943813e-38
-0.3466816545 0.05226881057 -0.003059044247 1.844943813e-38
0.05309382454 0.004654708318 0.01489889435 1.844943813e-38
-0.3359200358 0.05200500041 -0.003197880695 1.844943813e-38
-0.02961456403 0.005363089964 0.01296598744 1.844943813e-38
-0.2962667048 0.04155082256 0.0003795353405 1.844943813e-38
0.06908718497 0.002746350598 0.01618407108 1.844943813e-38
-0.2849202156 0.04044967145 0.0003528287343 1.844943813e-38
-0.08401508629 0.003768601222 0.01301061083 1.844943813e-38
-0.3536787629 0.05391379073 -0.0036540539 1.844943813e-38
-0.1146319285 0.007090930827 0.009468968026 1.844943813e-38
-0.3053168058 0.0449157767 -0.0006685535191 1.844943813e-38
-0.0390840508 0.003852021182 0.01359880995 1.844943813e-38
-0.2734752893 0.03515818715 0.002286731964 1.844943813e-38
0.04908422753 0.003856793279 0.01515238266 1.844943813e-38
-0.2289102525 0.02236875892 0.005819682498 1.844943813e-38
-0.1608415097 0.006950292271 0.01027972344 1.844943813e-38
-0.3812237084 0.05712014809 -0.003501928179 1.844943813e-38
-0.08939040452 -0.05151713639 -0.1976564378 1.91819627e-38
-0.05030586198 -0.06248812377 -0.05941345543 1.91819627e-38
-0.07889076322 -0.05485415459 -0.1368608773 1.91819627e-38
-0.06621430814 -0.07032544911 0.003538932884 1.91819627e-38
-0.1102990881 -0.04881640896 -0.2476746291 1.91819627e-38
-0.04905001819 -0.05617312714 -0.1039715037 1.91819627e-38
-0.06092818826 -0.05829215795 -0.07377903908 1.91819627e-38
-0.077789478 -0.0636408776 0.08081585914 1.91819627e-38
-0.08339500427 -0.052174557 -0.1785590947 1.91819627e-38
-0.05563464016 -0.06821089983 -0.02698278986 1.91819627e-38
-0.06043856591 -0.05911033228 -0.06557765603 1.91819627e-38
-0.07825539261 -0.06354270875 0.07781039923 1.91819627e-38
-0.07951253653 -0.05320014432 -0.1608546972 1.91819627e-38
-0.05645179376 -0.06802985072 -0.02687540092 1.91819627e-38
-0.0735944435 -0.0562106967 -0.1083567291 1.91819627e-38
-0.07300201058 -0.06850282848 0.04582272843 1.91819627e-38
-0.1053702086 -0.04958741739 -0.2327952534 1.91819627e-38
-0.04991540313 -0.06211929768 -0.06219284609 1.91819627e-38
-0.05701489747 -0.05812062696 -0.07999112457 1.91819627e-38
-0.07714878768 -0.06475325674 0.06857587397 1.91819627e-38
-0.09247716516 -0.05124498531 -0.2043891549 1.91819627e-38
-0.05299336836 -0.06527836621 -0.03932861984 1.91819627e-38
-0.0649638474 -0.05623736978 -0.1068821177 1.91819627e-38
-0.0706667006 -0.06956799328 0.03303429112 1.91819627e-38
-0.1101275757 -0.04889087006 -0.245186314 1.91819627e-38
-0.04697939754 -0.05863720551 -0.08693926036 1.91819627e-38
-0.05595607683 -0.05755097419 -0.09080792218 1.91819627e-38
-0.07724075019 -0.06428779662 0.07492563128 1.91819627e-38
-0.09072671086 -0.05123973265 -0.2028939277 1.91819627e-38
-0.05454724655 -0.06686086953 -0.03249361366 1.91819627e-38
-0.07393297553 -0.05278610066 -0.1612602025 1.91819627e-38
-0.0631467998 -0.07065369934 -0.001717260224 1.91819627e-38
-0.02633443847 -0.04028986022 -0.05719396845 1.991448586e-38
-0.167043969 -0.03284369409 -0.04023914784 1.991448586e-38
-0.02853325196 -0.04648480564 -0.04426406696 1.991448586e-38
-0.199394539 -0.03285546973 -0.03197858483 1.991448586e-38
0.01055112854 -0.04172518104 -0.04477306083 1.991448586e-38
-0.09222748131 -0.04744201899 -0.04167632759 1.991448586e-38
0.03708571941 -0.04234851524 -0.03889647871 1.991448586e-38
-0.2805982232 -0.02022267133 -0.01901839115 1.991448586e-38
-0.1391563267 -0.03537137434 -0.04338187724 1.991448586e-38
-0.174909547 -0.03435986862 -0.03731415048 1.991448586e-38
0.02252853848 -0.04595651105 -0.0412703082 1.991448586e-38
-0.2737374306 -0.02319603413 -0.01858796552 1.991448586e-38
-0.125986591 -0.03767234087 -0.04438896105 1.991448586e-38
-0.1725611389 -0.03458275273 -0.03777569532 1.991448586e-38
-0.0136143947 -0.04519369081 -0.0447268486 1.991448586e-38
-0.2349327654 -0.02855934389 -0.02433743142 1.991448586e-38
-0.05854524672 -0.04074015841 -0.05717315152 1.991448586e-38
-0.1041802093 -0.0469857119 -0.04057316482 1.991448586e-38
0.0395132117 -0.0369277969 -0.03914231434 1.991448586e-38
-0.2456127405 -0.02607753687 -0.0236140471 1.991448586e-38
-0.09840282053 -0.03939489648 -0.05219094083 1.991448586e-38
-0.1196417436 -0.04296648875 -0.04203188047 1.991448586e-38
0.002813868225 -0.04112203792 -0.04737280682 1.991448586e-38
-0.1947193593 -0.03555392101 -0.03020900488 1.991448586e-38
-0.01618716307 -0.0430633761 -0.04797394201 1.991448586e-38
-0.0846278891 -0.0486276634 -0.04146561772 1.991448586e-38
0.05704182759 -0.03390307352 -0.03574126959 1.991448586e-38
-0.2533064187 -0.02255563065 -0.02405242808 1.991448586e-38
-0.09344308823 -0.03970427439 -0.05287358165 1.991448586e-38
-0.1200954393 -0.04316695407 -0.04182239622 1.991448586e-38
-0.04108441249 -0.03907059133 -0.06654250622 1.991448586e-38
-0.173205018 -0.04126261547 -0.03140634671 1.991448586e-38
-0.06254091859 -0.06109685823 -0.1263303757 2.06466517e-38
-0.0804945752 -0.05754731596 -0.2150567919 2.06466517e-38
-0.05878344178 -0.06205076724 -0.1077537984 2.06466517e-38
-0.101980947 -0.0470206663 -0.2969119847 2.06466517e-38
-0.06958369166 -0.05989318341 -0.1647614837 2.06466517e-38
-0.08337826282 -0.05697275326 -0.2256234586 2.06466517e-38
-0.01845191419 -0.06520376354 -0.04876675457 2.06466517e-38
-0.09258467704 -0.05150319636 -0.2701331675 2.06466517e-38
-0.05422776937 -0.06278608739 -0.08741621673 2.06466517e-38
-0.07259915769 -0.05929119885 -0.1848238409 2.06466517e-38
-0.01439711079 -0.06530565768 -0.04597159475 2.06466517e-38
-0.09104613215 -0.05190618709 -0.2658215165 2.06466517e-38
-0.0552338399 -0.0626828447 -0.090466775 2.06466517e-38
-0.07219739258 -0.0593569316 -0.1820044219 2.06466517e-38
-0.04446359724 -0.06410111487 -0.06880860031 2.06466517e-38
-0.09541463107 -0.05040396005 -0.2778281271 2.06466517e-38
-0.06212165579 -0.06122720987 -0.1223031357 2.06466517e-38
-0.07316780835 -0.0593335703 -0.1909193993 2.06466517e-38
-0.02428902499 -0.06522929668 -0.05351782963 2.06466517e-38
-0.08669099957 -0.05610540137 -0.2410082519 2.06466517e-38
-0.0577050671 -0.06223769858 -0.1024634615 2.06466517e-38
-0.07148959488 -0.05961984023 -0.1805082858 2.06466517e-38
-0.05446381494 -0.06251867115 -0.09206388146 2.06466517e-38
-0.09018208086 -0.05477168038 -0.2525452077 2.06466517e-38
-0.06517799944 -0.06041252241 -0.1392125487 2.06466517e-38
-0.07099994272 -0.05988232791 -0.1785018891 2.06466517e-38
-0.02754160762 -0.0651210323 -0.05558330566 2.06466517e-38
-0.08446855098 -0.05662195757 -0.231733337 2.06466517e-38
-0.05736931041 -0.06228365749 -0.1012254506 2.06466517e-38
-0.06955424696 -0.05970454216 -0.1678231061 2.06466517e-38
-0.06283712387 -0.06104423106 -0.1304548979 2.06466517e-38
-0.08637881279 -0.05626735836 -0.234604463 2.06466517e-38
-0.1137255877 -0.03599708155 -0.04205710813 2.137881613e-38
-0.1752860099 -0.0355838351 -0.03863611445 2.137881613e-38
-0.03222604841 -0.04259647056 -0.04546887428 2.137881613e-38
-0.2398164421 -0.03032897599 -0.01675098203 2.137881613e-38
-0.1250384003 -0.03066157363 -0.04123499244 2.137881613e-38
-0.135204345 -0.03023825027 -0.04054270312 2.137881613e-38
0.0222055912 -0.05056672916 -0.03998962045 2.137881613e-38
-0.1906246692 -0.02993083559 -0.03597127646 2.137881613e-38
-0.0388488546 -0.0420916751 -0.04546640813 2.137881613e-38
-0.149151355 -0.03724485263 -0.04101917148 2.137881613e-38
0.03037765808 -0.05129760876 -0.0395296663 2.137881613e-38
-0.217851311 -0.03378735483 -0.02639252134 2.137881613e-38
-0.02914803848 -0.04178966954 -0.04462438449 2.137881613e-38
-0.1786542088 -0.03396391124 -0.03853794187 2.137881613e-38
0.005472374614 -0.04748414829 -0.04231147841 2.137881613e-38
-0.2359071821 -0.03060792014 -0.01795677841 2.137881613e-38
-0.06488908827 -0.03966422752 -0.04378608614 2.137881613e-38
-0.1479832083 -0.03048259765 -0.04025526717 2.137881613e-38
0.008188132197 -0.04761087894 -0.04165652767 2.137881613e-38
-0.1969266683 -0.03250226378 -0.03423818946 2.137881613e-38
-0.04415526241 -0.04090120271 -0.04439479858 2.137881613e-38
-0.1597472131 -0.03381172195 -0.04025640711 2.137881613e-38
-0.02799006179 -0.04304039478 -0.04551964998 2.137881613e-38
-0.2235448509 -0.03560639918 -0.0220494587 2.137881613e-38
-0.07168319076 -0.03994581476 -0.04407815635 2.137881613e-38
-0.1156114712 -0.03299216554 -0.04128102586 2.137881613e-38
0.002587774536 -0.04814552516 -0.04298968986 2.137881613e-38
-0.184201166 -0.03124988824 -0.03755995259 2.137881613e-38
-0.01568474434 -0.04281621799 -0.0446485132 2.137881613e-38
-0.1253077537 -0.03256397694 -0.04205231741 2.137881613e-38
-0.0598907806 -0.0432163626 -0.04662117735 2.137881613e-38
-0.2269866318 -0.03377233818 -0.02374762855 2.137881613e-38
-0.2996834517 -0.04970029742 0.01405944955 2.211062324e-38
-0.2705357969 -0.0518540144 0.01405860204 2.211062324e-38
-0.3357804716 -0.04221414775 0.009275147691 2.211062324e-38
-0.2089710832 -0.05705514923 0.00878302753 2.211062324e-38
-0.2961478531 -0.05021211132 0.01392913144 2.211062324e-38
-0.2834941149 -0.05102872103 0.0136999134 2.211062324e-38
-0.3831085563 -0.03576748073 0.004192179535 2.211062324e-38
-0.1321699023 -0.06181631982 0.006006240379 2.211062324e-38
-0.3256652951 -0.04544669762 0.01333713997 2.211062324e-38
-0.2449100614 -0.0532755442 0.01270298846 2.211062324e-38
-0.385088861 -0.03536423296 0.004195987713 2.211062324e-38
-0.1413902491 -0.06138441339 0.006203185767 2.211062324e-38
-0.3245662451 -0.04555610195 0.01326400694 2.211062324e-38
-0.2548589706 -0.05269356444 0.01334789861 2.211062324e-38
-0.3633352518 -0.03843927756 0.006431383081 2.211062324e-38
-0.1788186431 -0.05934744701 0.00735211838 2.211062324e-38
-0.3012778759 -0.04931354895 0.01398991607 2.211062324e-38
-0.2775461078 -0.05141784251 0.01364228223 2.211062324e-38
-0.370031625 -0.03764148802 0.005664113909 2.211062324e-38
-0.166979745 -0.06053717434 0.007725188509 2.211062324e-38
-0.3128466904 -0.04713116214 0.01321539842 2.211062324e-38
-0.2442766279 -0.05331254378 0.01202150621 2.211062324e-38
-0.3454216719 -0.04065095261 0.007924441248 2.211062324e-38
-0.2007538825 -0.05806547031 0.008045146242 2.211062324e-38
-0.2985411882 -0.05013790727 0.01378101949 2.211062324e-38
-0.271623075 -0.05178692937 0.01307230443 2.211062324e-38
-0.3692693412 -0.03754001856 0.005773643497 2.211062324e-38
-0.1723099053 -0.05950694904 0.007932904176 2.211062324e-38
-0.3083833456 -0.04785458371 0.01366396528 2.211062324e-38
-0.2406062335 -0.05339107662 0.01115920674 2.211062324e-38
-0.3452267051 -0.04072374478 0.008368989453 2.211062324e-38
-0.2161830515 -0.05568479002 0.01048715878 2.211062324e-38
-0.2458250225 -0.01551601943 0.07078281045 2.284242894e-38
-0.2002347261 -0.01372355688 0.06251176447 2.284242894e-38
-0.244192183 -0.01483048499 0.06936068833 2.284242894e-38
-0.2249842733 -0.01539303549 0.06893720478 2.284242894e-38
-0.2466904074 -0.01444182172 0.06699233502 2.284242894e-38
-0.2286918163 -0.0139573263 0.06334384531 2.284242894e-38
-0.2715783119 -0.008060997352 0.05843932554 2.284242894e-38
-0.1892044842 -0.01330682077 0.06738966703 2.284242894e-38
-0.2094797343 -0.02111644857 0.08139360696 2.284242894e-38
-0.1905171573 -0.01316035539 0.06152816489 2.284242894e-38
-0.2676877677 -0.01143009868 0.06563172489 2.284242894e-38
-0.1929229647 -0.01314464025 0.0665082112 2.284242894e-38
-0.2051569372 -0.02085575275 0.07972711325 2.284242894e-38
-0.1840396225 -0.0131066544 0.0573053062 2.284242894e-38
-0.2526703477 -0.01410302147 0.06789141893 2.284242894e-38
-0.2133040726 -0.01443082839 0.0672467351 2.284242894e-38
-0.2373060733 -0.01569922268 0.06944401562 2.284242894e-38
-0.2128876597 -0.01417862531 0.06202308461 2.284242894e-38
-0.2558789849 -0.01402235217 0.06970532984 2.284242894e-38
-0.2101795971 -0.01396122575 0.06563344598 2.284242894e-38
-0.2254904211 -0.01744021662 0.07487139851 2.284242894e-38
-0.196957171 -0.0136407325 0.06241248548 2.284242894e-38
-0.2391498834 -0.01626270637 0.07360692322 2.284242894e-38
-0.2202298045 -0.01531432383 0.06785178185 2.284242894e-38
-0.2378746867 -0.01536467206 0.06884863973 2.284242894e-38
-0.2120975107 -0.01433752757 0.0630761683 2.284242894e-38
-0.2569847703 -0.01447350811 0.07073288411 2.284242894e-38
-0.2123960704 -0.01408550516 0.06527450681 2.284242894e-38
-0.2249948382 -0.01809811965 0.07649563253 2.284242894e-38
-0.184092775 -0.01275935955 0.06451481581 2.284242894e-38
-0.233861804 -0.01643761247 0.07383663952 2.284242894e-38
-0.2275519818 -0.0146648651 0.06539980322 2.284242894e-38
-0.02885847725 -0.05771631002 -0.1416669488 2.348204041e-38
-0.04797086492 -0.05332347751 -0.1890972257 2.348204041e-38
-0.09169422835 -0.04859387875 -0.2640576065 2.348204041e-38
-0.08074753731 -0.04951502383 -0.2456219196 2.348204041e-38
-0.01370633952 -0.0586954914 -0.1180868521 2.348204041e-38
-0.04796333611 -0.05366338044 -0.190717265 2.348204041e-38
-0.0823219046 -0.04684189335 -0.2756751776 2.348204041e-38
-0.07075151056 -0.05198159069 -0.2107925862 2.348204041e-38
0.02917628177 -0.05596282333 -0.03496027738 2.348204041e-38
-0.03162447363 -0.05666239932 -0.1378026456 2.348204041e-38
-0.07294748724 -0.04768760875 -0.2672398984 2.348204041e-38
-0.06327689439 -0.0514593944 -0.2064684629 2.348204041e-38
0.03353967518 -0.05599917099 -0.0295490399 2.348204041e-38
-0.02792717516 -0.05682227761 -0.1319333762 2.348204041e-38
-0.08380275965 -0.0484418869 -0.2582347095 2.348204041e-38
-0.07313237339 -0.04988694191 -0.2322173864 2.348204041e-38
0.006833760068 -0.05749337375 -0.0785856396 2.348204041e-38
-0.0402584672 -0.05552488565 -0.1594324708 2.348204041e-38
-0.07613156736 -0.04866352677 -0.2493457645 2.348204041e-38
-0.05175408348 -0.05359029397 -0.203474015 2.348204041e-38
0.02371237613 -0.05674669147 -0.04650170729 2.348204041e-38
-0.03040791675 -0.05669651553 -0.1349552274 2.348204041e-38
-0.09936073422 -0.04805324972 -0.2549816072 2.348204041e-38
-0.06017950922 -0.05124298856 -0.2241656035 2.348204041e-38
0.005047963932 -0.0576634109 -0.08223398775 2.348204041e-38
-0.03971068934 -0.05538342148 -0.1571288556 2.348204041e-38
-0.08225776255 -0.04987465218 -0.2452953905 2.348204041e-38
-0.0468493551 -0.05480611697 -0.1860049516 2.348204041e-38
0.02190592512 -0.05704250187 -0.05058384314 2.348204041e-38
-0.02370139398 -0.05663793534 -0.1220437214 2.348204041e-38
-0.09951447695 -0.04855316132 -0.2524510324 2.348204041e-38
-0.05947563052 -0.05049439147 -0.2273126543 2.348204041e-38
-0.1359020919 0.009821401909 0.001164422487 2.347880341e-38
-0.07532121241 0.008465077728 0.0006434243405 2.347880341e-38
-0.2442937195 0.01885415055 0.002557031345 2.347880341e-38
0.08982413262 0.005945477635 0.0007357915165 2.347880341e-38
-0.07951582968 0.008978889324 0.0004275657411 2.347880341e-38
-0.02834128588 0.008287862875 0.0007877741591 2.347880341e-38
-0.314864248 0.01731952094 0.003463874105 2.347880341e-38
-0.006819557864 0.007801349275 0.0009742807015 2.347880341e-38
-0.2027932703 0.01435240731 0.002194011351 2.347880341e-38
-0.1143100709 0.008130157366 0.001131344354 2.347880341e-38
-0.3165410161 0.01702981256 0.003496368416 2.347880341e-38
0.02342474647 0.006866036914 0.001054103603 2.347880341e-38
-0.222078532 0.01637417078 0.002429785905 2.347880341e-38
-0.09464080632 0.008266871795 0.0009454003884 2.347880341e-38
-0.2867795527 0.0195551347 0.003036110196 2.347880341e-38
0.0632968992 0.006457107607 0.0009012096561 2.347880341e-38
-0.1362652332 0.00883495342 0.00102956465 2.347880341e-38
-0.04839447141 0.008337969892 0.0005643569748 2.347880341e-38
-0.2856793702 0.01978616975 0.003387793433 2.347880341e-38
0.01048281789 0.007233350072 0.001023133169 2.347880341e-38
-0.1819184572 0.01023076195 0.001543006743 2.347880341e-38
-0.0997300595 0.008192877285 0.0009870516369 2.347880341e-38
-0.2359631509 0.01807238348 0.002138842829 2.347880341e-38
0.08001419157 0.006277642678 0.0007959993673 2.347880341e-38
-0.1250265837 0.008478252217 0.0008865287527 2.347880341e-38
-0.06433031708 0.008356068283 0.0005936945672 2.347880341e-38
-0.2751803994 0.0181405656 0.002816238441 2.347880341e-38
-0.01020379364 0.008182018995 0.0009632622241 2.347880341e-38
-0.217826426 0.01526436675 0.002092423616 2.347880341e-38
-0.132384792 0.008545015007 0.001240923186 2.347880341e-38
-0.2280081809 0.01645629667 0.00274104299 2.347880341e-38
0.109604314 0.005356200971 0.000704543083 2.347880341e-38
0.1779548079 0.0003774156503 0.02062825672 2.347520768e-38
-0.04202115908 0.004756127018 0.02316371165 2.347520768e-38
0.1186338961 0.0004715136893 0.02194404788 2.347520768e-38
-0.02221098356 -0.004572407342 0.02780873701 2.347520768e-38
0.2448253781 0.0002899952233 0.01952462271 2.347520768e-38
0.001321531017 -0.0003051506355 0.0259545166 2.347520768e-38
-0.00086482591 0.004820794798 0.02264559828 2.347520768e-38
-0.128931284 0.002232803963 0.02142649889 2.347520768e-38
0.07375636697 0.0003977995075 0.02250573784 2.347520768e-38
-0.105874747 0.004153962713 0.02130463906 2.347520768e-38
0.0003939345188 0.003386083059 0.02317420766 2.347520768e-38
-0.1372789443 0.004243013915 0.0199022945 2.347520768e-38
0.08572560549 -0.0004798853479 0.02246593311 2.347520768e-38
-0.1080034971 0.003262030426 0.02170888148 2.347520768e-38
0.03300367668 0.003244933439 0.02277554199 2.347520768e-38
-0.06529653072 -0.002593870973 0.02643388882 2.347520768e-38
0.1656980067 -0.00299248891 0.02276040614 2.347520768e-38
-0.03931794316 0.002056663856 0.02463016845 2.347520768e-38
0.009330880828 0.004132933449 0.02302952297 2.347520768e-38
-0.09730646014 -0.000125400722 0.02403238229 2.347520768e-38
0.07802328467 0.001077107619 0.02201416157 2.347520768e-38
-0.1308670491 0.006242163479 0.01900867559 2.347520768e-38
0.05855154246 0.003794483375 0.02138580568 2.347520768e-38
-0.05461388826 -0.0004794718407 0.02547625825 2.347520768e-38
0.1723187715 -0.003000861267 0.0226869937 2.347520768e-38
-0.08887188137 0.006800104398 0.02040494047 2.347520768e-38
0.0009260174702 0.006271360908 0.02182941884 2.347520768e-38
-0.107757017 0.001553865732 0.02262283675 2.347520768e-38
0.02122604102 0.002355499426 0.023530012 2.347520768e-38
-0.2038564086 0.005849558394 0.01696709171 2.347520768e-38
0.1573834717 0.001501463121 0.02056564204 2.347520768e-38
-0.01278810482 4.609301686e-05 0.02558366954 2.347520768e-38
-0.03624434397 -0.04729030281 -0.1456087679 2.347161195e-38
0.02657580189 -0.04850868881 -0.08914808929 2.347161195e-38
0.02725242637 -0.05104745552 -0.06858094037 2.347161195e-38
-0.1279840469 -0.04147883505 -0.2574406862 2.347161195e-38
-0.026908556 -0.04768034071 -0.1338325292 2.347161195e-38
-0.07741694897 -0.04391474649 -0.2015786022 2.347161195e-38
0.07819382846 -0.05916012079 -0.03216557205 2.347161195e-38
-0.06304143369 -0.04496034235 -0.1843777299 2.347161195e-38
0.01901260763 -0.05058040842 -0.07691109926 2.347161195e-38
0.004393910058 -0.0485922955 -0.1097529605 2.347161195e-38
0.08663512021 -0.06066450104 -0.02584150247 2.347161195e-38
-0.05261024088 -0.04603564367 -0.1683867574 2.347161195e-38
0.02579046041 -0.05081024766 -0.06953899562 2.347161195e-38
-0.01257550344 -0.04863068089 -0.1218475848 2.347161195e-38
0.05569039285 -0.05618123338 -0.04601787403 2.347161195e-38
-0.1026602387 -0.04334081337 -0.2238518894 2.347161195e-38
-0.002449529478 -0.04925687239 -0.1050717905 2.347161195e-38
-0.07970251143 -0.04374918714 -0.2044705302 2.347161195e-38
0.06949217618 -0.0579114221 -0.03759055957 2.347161195e-38
-0.04462979361 -0.04660094157 -0.1600926071 2.347161195e-38
0.004838732537 -0.04963186383 -0.09568686038 2.347161195e-38
-0.04519297555 -0.04630222172 -0.1699393094 2.347161195e-38
0.04041125998 -0.05372218415 -0.05784539133 2.347161195e-38
-0.1111603454 -0.04351171479 -0.2344485372 2.347161195e-38
-0.01468334813 -0.0488729924 -0.1184196547 2.347161195e-38
-0.08642093837 -0.04333760962 -0.2102452815 2.347161195e-38
0.07441438735 -0.05845874548 -0.03529256582 2.347161195e-38
-0.03902456164 -0.0469494015 -0.1561975926 2.347161195e-38
0.009055580944 -0.05012058094 -0.08854854107 2.347161195e-38
-0.02079690993 -0.04774901271 -0.1345860809 2.347161195e-38
0.02825251222 -0.05133154616 -0.0676215142 2.347161195e-38
-0.1164793447 -0.04291898757 -0.2441063374 2.347161195e-38
0.2276653647 -0.03156531602 -0.02838017233 2.346801622e-38
0.147532627 -0.03330163285 -0.03002492711 2.346801622e-38
0.3107648194 -0.03086706251 -0.02737933211 2.346801622e-38
0.09234632552 -0.03346074745 -0.03107096441 2.346801622e-38
0.2842208743 -0.02733829618 -0.02718177065 2.346801622e-38
0.213124916 -0.03118809685 -0.02848037332 2.346801622e-38
0.3803570569 -0.02761058323 -0.02571148984 2.346801622e-38
-0.02095615678 -0.03301514313 -0.033005815 2.346801622e-38
0.2160901874 -0.03352569789 -0.02862212062 2.346801622e-38
0.1067712307 -0.03385107592 -0.03113916889 2.346801622e-38
0.3785777092 -0.02912041731 -0.02513756976 2.346801622e-38
-0.01951094717 -0.03208805993 -0.03272238001 2.346801622e-38
0.2284687608 -0.03306662664 -0.02843715623 2.346801622e-38
0.1175152957 -0.03353270888 -0.03083254211 2.346801622e-38
0.3434648514 -0.03102373891 -0.02740599401 2.346801622e-38
0.04462372512 -0.03399838507 -0.03181643412 2.346801622e-38
0.2720393538 -0.02870207839 -0.02753634192 2.346801622e-38
0.2065580934 -0.03216386214 -0.02863163501 2.346801622e-38
0.3540813923 -0.03112382255 -0.02694747038 2.346801622e-38
0.008111222647 -0.03463772684 -0.0320613198 2.346801622e-38
0.2401394248 -0.03063085303 -0.02809684165 2.346801622e-38
0.1415522248 -0.03329661861 -0.03016999178 2.346801622e-38
0.2928262949 -0.03494004533 -0.02692075074 2.346801622e-38
0.07693529129 -0.03348098695 -0.0316940099 2.346801622e-38
0.2749031186 -0.03007168882 -0.02728209272 2.346801622e-38
0.2552938759 -0.03112215921 -0.02803137898 2.346801622e-38
0.3394860029 -0.03330168501 -0.02695097029 2.346801622e-38
0.01193669718 -0.03527294844 -0.03196268901 2.346801622e-38
0.2448488176 -0.0321598351 -0.02816378325 2.346801622e-38
0.1693372875 -0.0334664695 -0.02947444096 2.346801622e-38
0.2899027765 -0.03383534402 -0.02705128677 2.346801622e-38
0.09631805122 -0.03312857822 -0.03137009218 2.346801622e-38
0.04869081452 -0.05626190454 0.05190142244 2.346406175e-38
0.01765157655 -0.05291616917 0.124280788 2.346406175e-38
0.2055143863 -0.0653200224 0.01759484597 2.346406175e-38
0.01553397439 -0.05256851017 0.1283361018 2.346406175e-38
0.1290276498 -0.06104200706 0.02243864909 2.346406175e-38
0.04435582086 -0.05584735051 0.07477271557 2.346406175e-38
0.3805513978 -0.07108855993 0.008506271988 2.346406175e-38
0.00635798648 -0.05099996924 0.1635312885 2.346406175e-38
0.06750573963 -0.05732950196 0.04031375051 2.346406175e-38
0.01700697467 -0.05301483348 0.1203769743 2.346406175e-38
0.4145737588 -0.06846203655 0.008390319534 2.346406175e-38
0.02327461727 -0.05304614082 0.1399761438 2.346406175e-38
0.1091835722 -0.05810495839 0.0278608948 2.346406175e-38
0.0492731221 -0.05661509931 0.06371925026 2.346406175e-38
0.3316710591 -0.06996089965 0.01170715876 2.346406175e-38
0.03237148374 -0.05498658493 0.08350807428 2.346406175e-38
0.1625780016 -0.06181535125 0.02102787793 2.346406175e-38
0.05906119943 -0.05797338113 0.04460253939 2.346406175e-38
0.3726068437 -0.07151592523 0.008303406648 2.346406175e-38
-0.01692759618 -0.05412431061 0.07798615843 2.346406175e-38
0.09389557689 -0.05932889506 0.02574301139 2.346406175e-38
0.06006557494 -0.05867237598 0.02472994477 2.346406175e-38
0.2846214473 -0.06986859441 0.01184935495 2.346406175e-38
0.02086025663 -0.05434240028 0.04333212972 2.346406175e-38
0.18864806 -0.0634418726 0.0204904303 2.346406175e-38
0.0710856989 -0.05880195647 0.02520715632 2.346406175e-38
0.3788127005 -0.07168832421 0.008137463592 2.346406175e-38
-0.02717842348 -0.05576784909 0.07235985994 2.346406175e-38
0.1212091818 -0.05992870033 0.02472317033 2.346406175e-38
0.08652926981 -0.06135942787 0.02184686996 2.346406175e-38
0.1993759722 -0.06483269483 0.01847818308 2.346406175e-38
0.02761350572 -0.05486650392 0.0404150188 2.346406175e-38
0.3417862058 0.0005982443108 -0.01922223903 2.346010729e-38
0.4189065993 -0.01813791692 -0.01949047856 2.346010729e-38
0.3752645552 -0.0131653538 -0.02636023797 2.346010729e-38
0.4745315611 -0.03193549067 -0.01284069754 2.346010729e-38
0.4222421944 -0.01122972835 -0.01141705643 2.346010729e-38
0.3679445982 -0.004154978786 -0.01926471293 2.346010729e-38
0.2198676467 0.001921889838 -0.03188912198 2.346010729e-38
0.4481607676 -0.02565523423 -0.01870648563 2.346010729e-38
0.3308395147 -0.002582745394 -0.02356146649 2.346010729e-38
0.432161659 -0.02175643481 -0.01984259859 2.346010729e-38
0.1874969304 0.003406012198 -0.03206256405 2.346010729e-38
0.4515187144 -0.0270819962 -0.01840804517 2.346010729e-38
0.3290170133 -0.000412352354 -0.02222218364 2.346010729e-38
0.4150471389 -0.01714701578 -0.02010212466 2.346010729e-38
0.274995923 -0.002129253466 -0.02977871895 2.346010729e-38
0.4551956952 -0.0275585819 -0.01705308259 2.346010729e-38
0.4072766602 -0.01435500104 -0.01622079313 2.346010729e-38
0.3870627284 -0.009067145176 -0.02012044564 2.346010729e-38
0.2929088175 -0.005252767354 -0.02995349467 2.346010729e-38
0.4435757399 -0.0200945586 -0.01384348609 2.346010729e-38
0.3842455447 -0.009176845662 -0.02107480168 2.346010729e-38
0.4203943312 -0.01730286516 -0.01615319028 2.346010729e-38
0.3755525351 -0.01207158156 -0.02576543018 2.346010729e-38
0.4516706467 -0.01692461222 -0.008388158865 2.346010729e-38
0.4224411547 -0.01351032127 -0.0127515737 2.346010729e-38
0.3982828557 -0.01189984847 -0.0164707303 2.346010729e-38
0.3005233109 -0.005005399697 -0.02920395881 2.346010729e-38
0.4375177026 -0.01477805991 -0.01094909944 2.346010729e-38
0.3867181242 -0.009615140036 -0.02038346976 2.346010729e-38
0.4234146476 -0.01561785117 -0.01397464331 2.346010729e-38
0.375759691 -0.01220229082 -0.02586960234 2.346010729e-38
0.450858742 -0.01964725181 -0.01120980829 2.346010729e-38
0.2389096022 0.005908755586 -0.008587711491 2.345615283e-38
0.1958394796 0.007652252447 -0.002090346767 2.345615283e-38
0.3827703595 0.005366951693 -0.001687906915 2.345615283e-38
0.3541478813 0.005703759845 0.00052560115 2.345615283e-38
0.2003073692 0.007385671139 -0.005824351218 2.345615283e-38
0.2555262446 0.00548124034 0.0007643399877 2.345615283e-38
0.4244775772 0.004688653164 0.0003221714869 2.345615283e-38
0.2932870686 0.004317435436 0.009565151297 2.345615283e-38
0.2974562049 0.005476509221 -0.006417916622 2.345615283e-38
0.1436324865 0.008592967875 -0.002815745771 2.345615283e-38
0.4137291312 0.005399897229 -3.526452929e-05 2.345615283e-38
0.3053155541 0.004619922955 0.005809948314 2.345615283e-38
0.2760723531 0.005442677531 -0.00746153621 2.345615283e-38
0.1401886046 0.009017908946 -0.004195449408 2.345615283e-38
0.3898854554 0.005717393942 0.0008884917479 2.345615283e-38
0.3362421393 0.00532537885 0.003087080549 2.345615283e-38
0.2295718342 0.006322955247 -0.007619713899 2.345615283e-38
0.2266798615 0.006164308637 0.001942852861 2.345615283e-38
0.4161835313 0.00538379699 0.002045030706 2.345615283e-38
0.2906885445 0.004247133154 0.01020725723 2.345615283e-38
0.303747952 0.005567038432 -0.004389410373 2.345615283e-38
0.1691590548 0.007219308522 0.0003375001252 2.345615283e-38
0.3775593936 0.005388975143 -0.001389293 2.345615283e-38
0.3284408152 0.005297961645 0.002838945715 2.345615283e-38
0.2579665482 0.00547128683 -0.007366859354 2.345615283e-38
0.2372652888 0.005912071094 0.002178964438 2.345615283e-38
0.4253689647 0.004146157298 0.003536691191 2.345615283e-38
0.2596954107 0.004667784553 0.008717830293 2.345615283e-38
0.3371600509 0.005361215211 -0.003812842304 2.345615283e-38
0.1580394059 0.007609339897 -0.0001272074878 2.345615283e-38
0.3856246769 0.005770626478 0.0004093981988 2.345615283e-38
0.3347834349 0.005523342174 0.0009178507607 2.345615283e-38
-0.2313764095 -0.01987985522 -0.06594466418 2.345219836e-38
-0.1902941912 -0.0185889937 -0.06589275599 2.345219836e-38
-0.2535073161 -0.01973646879 -0.06474114209 2.345219836e-38
-0.1859527975 -0.02237594686 -0.0701097399 2.345219836e-38
-0.2316293418 -0.0184435863 -0.0656651631 2.345219836e-38
-0.2094757408 -0.0210416466 -0.07000990957 2.345219836e-38
-0.2761577964 -0.01991700009 -0.0631102547 2.345219836e-38
-0.1552382261 -0.02058274485 -0.06335513294 2.345219836e-38
-0.2055784464 -0.01526272949 -0.06531876326 2.345219836e-38
-0.1832562238 -0.01898962259 -0.06533107907 2.345219836e-38
-0.2733235359 -0.01989156939 -0.06340023875 2.345219836e-38
-0.1508968621 -0.02170839347 -0.06311295927 2.345219836e-38
-0.2059471011 -0.01614024304 -0.06583455205 2.345219836e-38
-0.1851526946 -0.01936548576 -0.0657139942 2.345219836e-38
-0.2574855387 -0.01895985752 -0.06393142045 2.345219836e-38
-0.1737518758 -0.02276664972 -0.06802829355 2.345219836e-38
-0.2208283693 -0.01806731522 -0.06618851423 2.345219836e-38
-0.1990387291 -0.0204539746 -0.06842945516 2.345219836e-38
-0.2729762495 -0.01970104687 -0.06331049651 2.345219836e-38
-0.1674160808 -0.02023372985 -0.06423509121 2.345219836e-38
-0.2048273683 -0.01639967225 -0.06595437974 2.345219836e-38
-0.1895781904 -0.01873669215 -0.06594263762 2.345219836e-38
-0.2622511387 -0.01893227361 -0.06376089156 2.345219836e-38
-0.1790009588 -0.02268299274 -0.06899005175 2.345219836e-38
-0.2202156186 -0.01745593175 -0.06608837843 2.345219836e-38
-0.1991108805 -0.0188998282 -0.06666178256 2.345219836e-38
-0.2760581672 -0.01957078278 -0.06300411373 2.345219836e-38
-0.1570724398 -0.01893454976 -0.0630177781 2.345219836e-38
-0.2026004642 -0.01549168397 -0.06543181837 2.345219836e-38
-0.1834755391 -0.01779610105 -0.06490790099 2.345219836e-38
-0.2526931465 -0.02044738084 -0.06522059441 2.345219836e-38
-0.1857816577 -0.02297328413 -0.07108917087 2.345219836e-38
-0.05363606662 -0.04334367067 0.05678227171 2.344788516e-38
-0.1873321831 -0.005570055917 0.03572640941 2.344788516e-38
-0.09416089952 -0.03167720139 0.05432642251 2.344788516e-38
-0.01796711609 -0.03628739342 0.04245907068 2.344788516e-38
-0.06876785308 -0.02575941198 0.04517111555 2.344788516e-38
-0.1573897004 -0.007731609512 0.03539150953 2.344788516e-38
-0.2192824483 -0.003529561916 0.03894795105 2.344788516e-38
0.1134154797 -0.04983257875 0.03670302033 2.344788516e-38
0.008362158202 -0.05074331537 0.04975095019 2.344788516e-38
-0.2230929583 -0.0003671273298 0.03060346842 2.344788516e-38
-0.1874267906 -0.0117386831 0.04484735057 2.344788516e-38
0.08965241909 -0.05129663274 0.04029266909 2.344788516e-38
-0.003268103581 -0.04750104621 0.04863293841 2.344788516e-38
-0.2156643271 -0.0003008209169 0.03047220781 2.344788516e-38
-0.1559952199 -0.01915002614 0.04847949371 2.344788516e-38
0.0389480032 -0.04965031892 0.04241541401 2.344788516e-38
-0.09348061681 -0.026303472 0.05029956996 2.344788516e-38
-0.1718962789 -0.006566331256 0.03478451446 2.344788516e-38
-0.1908769161 -0.01002595667 0.04305183142 2.344788516e-38
0.1001209915 -0.05086510628 0.03915793821 2.344788516e-38
-0.0421179086 -0.03838221729 0.04928619415 2.344788516e-38
-0.2314895988 -0.0004010833509 0.03099943325 2.344788516e-38
-0.1365023702 -0.0240644291 0.0518440865 2.344788516e-38
0.02869999968 -0.05021158606 0.04533307254 2.344788516e-38
-0.1327341348 -0.02361233905 0.05115059018 2.344788516e-38
-0.1957418174 -0.003124174662 0.03326295689 2.344788516e-38
-0.2086654156 -0.005914099514 0.04053078964 2.344788516e-38
0.106311366 -0.05013560131 0.03749062493 2.344788516e-38
-0.07096996158 -0.03766825795 0.05444247276 2.344788516e-38
-0.248409763 -9.88766551e-05 0.02905073389 2.344788516e-38
-0.06506465375 -0.03905764967 0.05439533666 2.344788516e-38
0.01815682836 -0.04718917236 0.04369905964 2.344788516e-38
0.3610199988 -0.02683292329 0.02674519457 2.344357197e-38
0.1274163574 -0.03585744649 0.03654058278 2.344357197e-38
0.3834772706 -0.02726266533 0.02300694957 2.344357197e-38
0.2915989459 -0.03072553314 0.03161294013 2.344357197e-38
0.3658177555 -0.02643909305 0.02628669515 2.344357197e-38
0.1787987798 -0.03472949937 0.03638731688 2.344357197e-38
0.4089774191 -0.0346368812 0.01775975712 2.344357197e-38
0.2004319876 -0.03623601049 0.03616962209 2.344357197e-38
0.3207601905 -0.02928080782 0.02997066826 2.344357197e-38
0.04141203314 -0.03775721788 0.03705364466 2.344357197e-38
0.3981856108 -0.03165490553 0.01995174028 2.344357197e-38
0.2055616826 -0.0360859856 0.0359211266 2.344357197e-38
0.3178291619 -0.02950656787 0.0300742127 2.344357197e-38
0.04978809878 -0.0373115316 0.03694288805 2.344357197e-38
0.387932688 -0.02814623341 0.02209106646 2.344357197e-38
0.2515396774 -0.03264420107 0.03352090344 2.344357197e-38
0.3503195345 -0.02726028673 0.02766498737 2.344357197e-38
0.1198022962 -0.03530408442 0.03627468273 2.344357197e-38
0.3961503208 -0.02896462008 0.020300759 2.344357197e-38
0.2193797678 -0.03427268192 0.03505440056 2.344357197e-38
0.3305641711 -0.02904990688 0.02933915332 2.344357197e-38
0.08346804976 -0.03638235852 0.03632289544 2.344357197e-38
0.3798049986 -0.0253329128 0.02368453518 2.344357197e-38
0.2664504051 -0.03135218844 0.03271476179 2.344357197e-38
0.3443762064 -0.02774698474 0.02810640819 2.344357197e-38
0.1275641769 -0.0352505669 0.03642829508 2.344357197e-38
0.396624893 -0.02860007621 0.02003833465 2.344357197e-38
0.2119731009 -0.03476021439 0.03540572152 2.344357197e-38
0.3292796612 -0.02909986489 0.02946001105 2.344357197e-38
0.06899351627 -0.0369907096 0.03664442152 2.344357197e-38
0.365169853 -0.02359472774 0.02580375224 2.344357197e-38
0.2895095646 -0.0309663862 0.03180195019 2.344357197e-38
-0.08013652265 -0.04006560147 0.0378196165 2.343925737e-38
-0.05427157134 -0.04096047208 0.04093091935 2.343925737e-38
-0.2051798254 -0.03993833065 0.0305948779 2.343925737e-38
-0.2291447818 -0.04059033096 0.02888294682 2.343925737e-38
-0.09197492152 -0.03811473027 0.04472674429 2.343925737e-38
-0.04473363236 -0.04195323586 0.03965303302 2.343925737e-38
-0.1263319999 -0.04028298333 0.0344873108 2.343925737e-38
-0.3307619095 -0.03557841852 0.008215734735 2.343925737e-38
-0.05932758003 -0.04021213949 0.04249934852 2.343925737e-38
-0.0618336834 -0.04007586464 0.04247046262 2.343925737e-38
-0.1287862211 -0.04022730887 0.03446852788 2.343925737e-38
-0.3484554291 -0.034514267 0.004669200163 2.343925737e-38
-0.1001529321 -0.03846931085 0.04279441386 2.343925737e-38
-0.1094518527 -0.03736197576 0.04465825483 2.343925737e-38
-0.1709084511 -0.04060538858 0.03263453394 2.343925737e-38
-0.3002501726 -0.03855911642 0.01923811063 2.343925737e-38
-0.1403851211 -0.03991451487 0.03499453887 2.343925737e-38
-0.1484596133 -0.03953718767 0.03504510224 2.343925737e-38
-0.1713732779 -0.04229843989 0.03229600936 2.343925737e-38
-0.3535195589 -0.03407363594 0.0002452731133 2.343925737e-38
-0.1362977773 -0.0416607596 0.03357611224 2.343925737e-38
-0.2350749671 -0.04047951475 0.02853209712 2.343925737e-38
-0.2023983151 -0.04099281877 0.03045262955 2.343925737e-38
-0.3219030797 -0.03671050072 0.01204359438 2.343925737e-38
-0.1593877375 -0.04208447784 0.03261531144 2.343925737e-38
-0.2402088046 -0.0408753939 0.02811254933 2.343925737e-38
-0.1490057409 -0.0419964157 0.03338047117 2.343925737e-38
-0.3600441515 -0.03425157815 -0.001650227583 2.343925737e-38
-0.05460335687 -0.04264801741 0.03543284163 2.343925737e-38
-0.2989136279 -0.03959283605 0.02032555826 2.343925737e-38
-0.2314336747 -0.03948428854 0.02880705148 2.343925737e-38
-0.3018704355 -0.03763504326 0.01834258251 2.343925737e-38
0.3574857116 -0.05061266199 -0.0254854206 2.343458544e-38
0.4345697463 -0.04797875136 -0.02510772273 2.343458544e-38
0.2853872776 -0.05300978199 -0.02346474491 2.343458544e-38
0.4502422512 -0.05199334398 -0.01866724342 2.343458544e-38
0.3660005629 -0.05045947805 -0.02635377459 2.343458544e-38
0.4476589262 -0.04942500964 -0.02011116594 2.343458544e-38
0.2115222812 -0.05012752861 -0.02355195023 2.343458544e-38
0.422126323 -0.04950457811 -0.02724325657 2.343458544e-38
0.2982895374 -0.05070186779 -0.02492908202 2.343458544e-38
0.3634087443 -0.05063952133 -0.0264576599 2.343458544e-38
0.1681690067 -0.04939082265 -0.02067099325 2.343458544e-38
0.4495761991 -0.05266636983 -0.01891816407 2.343458544e-38
0.3074174821 -0.0510160923 -0.02437617444 2.343458544e-38
0.372993201 -0.05097804964 -0.02696783282 2.343458544e-38
0.231547609 -0.05042347312 -0.02447757684 2.343458544e-38
0.4524227381 -0.0535569638 -0.01781634241 2.343458544e-38
0.3224392533 -0.04914360866 -0.02742364258 2.343458544e-38
0.39986673 -0.05080708489 -0.02804905362 2.343458544e-38
0.2014723867 -0.05069613457 -0.02229348756 2.343458544e-38
0.4155192375 -0.05033298209 -0.02744220197 2.343458544e-38
0.2913818955 -0.05038512126 -0.02519491501 2.343458544e-38
0.3558146358 -0.05069301277 -0.02654933557 2.343458544e-38
0.2339660674 -0.05312277004 -0.02116002887 2.343458544e-38
0.4486462176 -0.05365594476 -0.01914423704 2.343458544e-38
0.304765135 -0.0492842868 -0.02685969137 2.343458544e-38
0.3799555302 -0.05078594759 -0.02752787806 2.343458544e-38
0.169702217 -0.05202094465 -0.01940552145 2.343458544e-38
0.4143216312 -0.04975980148 -0.02854203619 2.343458544e-38
0.265401274 -0.04932919145 -0.02620335482 2.343458544e-38
0.3425227404 -0.04946901277 -0.02793574519 2.343458544e-38
0.2628536522 -0.05334277824 -0.02141941525 2.343458544e-38
0.4690940678 -0.05593041331 -0.01091603003 2.343458544e-38
0.2735547125 -0.06800008565 -0.01448029745 2.343027224e-38
-0.004300890025 -0.06804165244 -0.01569759101 2.343027224e-38
0.1793694943 -0.06950651854 -0.01579763368 2.343027224e-38
-0.08876933157 -0.06666893512 -0.01386126131 2.343027224e-38
0.2848524153 -0.06767121702 -0.01426810678 2.343027224e-38
0.07936543226 -0.0709445253 -0.01587219536 2.343027224e-38
0.09587854892 -0.07149771601 -0.01602185331 2.343027224e-38
-0.2382878214 -0.06524570286 -0.007727033459 2.343027224e-38
0.2336046994 -0.06800229102 -0.01529170852 2.343027224e-38
-0.07769034803 -0.06606398523 -0.01437464822 2.343027224e-38
0.1062631831 -0.07153370976 -0.0159986522 2.343027224e-38
-0.2423960865 -0.06412770599 -0.007565144449 2.343027224e-38
0.2372114509 -0.06784421951 -0.01517327968 2.343027224e-38
-0.06011591107 -0.06640301645 -0.01508836448 2.343027224e-38
0.1428790241 -0.07074923068 -0.01597780921 2.343027224e-38
-0.1694731265 -0.07045403868 -0.01091546658 2.343027224e-38
0.2858153582 -0.06735809147 -0.01416243985 2.343027224e-38
0.0216797255 -0.06926381588 -0.01564145461 2.343027224e-38
0.1030670553 -0.07159894705 -0.01600382291 2.343027224e-38
-0.2289957106 -0.06608285755 -0.008228666149 2.343027224e-38
0.2225831449 -0.06778255105 -0.01518218406 2.343027224e-38
-0.04876673967 -0.06679412723 -0.01536695939 2.343027224e-38
0.1485258043 -0.07060588896 -0.01599681191 2.343027224e-38
-0.1596499681 -0.06969903409 -0.0113156084 2.343027224e-38
0.28336972 -0.0671076104 -0.01411115937 2.343027224e-38
-0.0259376429 -0.06775071472 -0.01544380188 2.343027224e-38
0.0800582543 -0.0709682405 -0.01597575657 2.343027224e-38
-0.2356817722 -0.06483432651 -0.007921764627 2.343027224e-38
0.1966924965 -0.06830005348 -0.01553872321 2.343027224e-38
-0.08106645942 -0.06596300751 -0.01426723879 2.343027224e-38
0.1684207171 -0.07004099339 -0.01592455618 2.343027224e-38
-0.1361338794 -0.06826620549 -0.01222553849 2.343027224e-38
-0.2720547915 -0.01240968704 -0.04411429912 2.342559891e-38
-0.1860287189 -0.03346388415 -0.04031934962 2.342559891e-38
-0.2022889853 -0.01632414572 -0.06782113761 2.342559891e-38
-0.1835519224 -0.0202658549 -0.06372314692 2.342559891e-38
-0.2513731718 -0.01716656797 -0.06563506275 2.342559891e-38
-0.1586101353 -0.03358328715 -0.03590928018 2.342559891e-38
-0.2843945622 -0.006217332557 -0.01311342511 2.342559891e-38
-0.2068830431 -0.02080573142 -0.0645898357 2.342559891e-38
-0.3071066737 -0.008875368163 -0.02466748841 2.342559891e-38
-0.1996409148 -0.0285359174 -0.04955472797 2.342559891e-38
-0.2796709239 -0.002822250128 -0.003010606626 2.342559891e-38
-0.2197757065 -0.01939124428 -0.06718183309 2.342559891e-38
-0.3091624677 -0.008876988664 -0.0250106398 2.342559891e-38
-0.1929745823 -0.02878024802 -0.0487819165 2.342559891e-38
-0.2483597845 -0.008578686044 -0.03130887449 2.342559891e-38
-0.2099648714 -0.01726432703 -0.07093623281 2.342559891e-38
-0.2800912857 -0.01340467669 -0.04900043458 2.342559891e-38
-0.1688769907 -0.03334556147 -0.03739258647 2.342559891e-38
-0.2529138923 -0.00963569805 -0.03758953512 2.342559891e-38
-0.1997545063 -0.02116829529 -0.06408689171 2.342559891e-38
-0.2776980102 -0.01098886225 -0.04110806435 2.342559891e-38
-0.1784292161 -0.03243586794 -0.04053650051 2.342559891e-38
-0.2012639642 -0.01169495191 -0.0563224107 2.342559891e-38
-0.2164954841 -0.01847770624 -0.06887453794 2.342559891e-38
-0.2641410828 -0.01257125754 -0.05320147425 2.342559891e-38
-0.1795785427 -0.03342578933 -0.03908861801 2.342559891e-38
-0.2331358045 -0.008890274912 -0.04279082641 2.342559891e-38
-0.2058603019 -0.02052097209 -0.06580283493 2.342559891e-38
-0.284291327 -0.01082451828 -0.03589998186 2.342559891e-38
-0.1989324391 -0.02859140374 -0.04954135418 2.342559891e-38
-0.195966959 -0.01361447666 -0.06229805946 2.342559891e-38
-0.1941039264 -0.02109475434 -0.06299064308 2.342559891e-38
-0.04366459697 -0.04660627618 -0.151680395 2.342128572e-38
