# .PCD v0.7 - Point Cloud Data file format
VERSION 0.7
FIELDS x y z rgb
SIZE 4 4 4 4
TYPE F F F F
COUNT 1 1 1 1
WIDTH 808
HEIGHT 1
VIEWPOINT 0 0 0 1 0 0 0
POINTS 808
DATA ascii
-0.08297885954 -0.04742304236 -0.07487568259 1.037659831e-38
-0.01956020668 -0.04732108861 -0.05453806743 1.037659831e-38
-0.2054236978 -0.04891254008 -0.04606768116 1.037659831e-38
-0.1327784508 -0.04511460289 -0.04988868907 1.037659831e-38
-0.07907752693 -0.0466930829 -0.07294161618 1.037659831e-38
-0.01956006512 -0.04732108861 -0.05453809723 1.037659831e-38
-0.2054237425 -0.04891253263 -0.04606766626 1.037659831e-38
-0.1327784657 -0.04511459917 -0.04988865182 1.037659831e-38
-0.07907758653 -0.04669307917 -0.07294159383 1.037659831e-38
-0.01945500448 -0.0473241806 -0.05456642807 1.037659831e-38
-0.2054408491 -0.04891145602 -0.04605223984 1.037659831e-38
-0.1328354478 -0.04511568323 -0.04986861721 1.037659831e-38
-0.07918091118 -0.04668116197 -0.07289238274 1.037659831e-38
-0.07875286788 -0.04238438979 -0.04532371461 1.037659831e-38
-0.1681673229 -0.05000295863 -0.05911170691 1.037659831e-38
-0.07591678947 -0.0444637537 -0.06494100392 1.037659831e-38
-0.003124133684 -0.05815629289 -0.09747531265 1.037659831e-38
-0.07203543931 -0.02667301707 -0.02378435247 1.111163541e-38
0.05498434976 -0.02178945392 -0.02221797593 1.111163541e-38
-0.2371199727 -0.03843021765 -0.02433628216 1.111163541e-38
-0.08780554682 -0.02900304645 -0.02458158508 1.111163541e-38
-0.2468443662 -0.04203518853 -0.02490315586 1.111163541e-38
0.2454749197 -0.02847907692 -0.02899705805 1.111163541e-38
-0.3223057985 -0.05278791487 -0.02213911526 1.111163541e-38
0.1249626428 -0.01997747459 -0.02220487036 1.111163541e-38
-0.1671732664 -0.03572404757 -0.02578875422 1.111163541e-38
0.1501045078 -0.02363628149 -0.02650809847 1.111163541e-38
-0.2956315279 -0.04505880922 -0.02212825604 1.111163541e-38
0.03053949773 -0.02250398695 -0.02243201621 1.111163541e-38
-0.1295709461 -0.03239108995 -0.02520459145 1.111163541e-38
0.1363272518 -0.02362061478 -0.02622709237 1.111163541e-38
-0.2850852609 -0.04308191314 -0.02245771885 1.111163541e-38
0.0004188716121 -0.02326491103 -0.02300077677 1.111163541e-38
-0.153774336 -0.03442617133 -0.02566204779 1.111163541e-38
0.163950935 -0.02467165142 -0.02728215605 1.111163541e-38
-0.2996983826 -0.04762773961 -0.02233630419 1.111163541e-38
0.0184341874 -0.02261644043 -0.02271617018 1.111163541e-38
-0.1537745744 -0.03442619368 -0.02566204593 1.111163541e-38
0.1639510244 -0.02467168868 -0.02728216909 1.111163541e-38
-0.2996983826 -0.04762776196 -0.02233630419 1.111163541e-38
0.01843435131 -0.02261644043 -0.02271617576 1.111163541e-38
-0.1539801955 -0.03444442526 -0.02566351183 1.111163541e-38
0.1640466005 -0.02467908151 -0.02728723176 1.111163541e-38
-0.2997427881 -0.04763588682 -0.02233488671 1.111163541e-38
0.01855752617 -0.02261358872 -0.02271360345 1.111163541e-38
-0.06796532869 -0.02606656589 -0.02357482538 1.111163541e-38
0.09888873249 -0.02114351839 -0.02245453745 1.111163541e-38
-0.254119575 -0.04023958743 -0.02404926158 1.111163541e-38
-0.05769073218 -0.02535939217 -0.02366351895 1.111163541e-38
-0.1585731655 0.01236547064 -0.007464915048 1.184631237e-38
-0.3022100925 0.07480613887 -0.001058337861 1.184631237e-38
-0.2375291139 0.04620418325 -0.002390705049 1.184631237e-38
0.09546726942 -0.03695226461 -0.02841515467 1.184631237e-38
0.001084468793 -0.02154481784 -0.0252700951 1.184631237e-38
-0.136728555 0.008336589672 -0.01095908973 1.184631237e-38
-0.04783051461 -0.01881173253 -0.02475467883 1.184631237e-38
-0.1134299934 -0.004448652733 -0.0187186487 1.184631237e-38
-0.06152888015 -0.01168561447 -0.02098368295 1.184631237e-38
-0.240285486 0.04453451559 -0.002282364061 1.184631237e-38
-0.1398518831 0.005091474392 -0.01151285507 1.184631237e-38
0.01705011912 -0.02468824759 -0.02702635713 1.184631237e-38
-0.07109472156 -0.008439668454 -0.01943227649 1.184631237e-38
-0.2705965936 0.05849658325 -0.001460815663 1.184631237e-38
-0.1647639722 0.01347533241 -0.006662392989 1.184631237e-38
0.05159736797 -0.03056983091 -0.02746948041 1.184631237e-38
-0.06305119395 -0.01001367811 -0.02030512504 1.184631237e-38
-0.2559457123 0.05710017309 -0.001838188386 1.184631237e-38
-0.1514356434 0.01030939072 -0.008644628339 1.184631237e-38
0.02312409692 -0.02465701848 -0.02692704089 1.184631237e-38
-0.06305105239 -0.01001366321 -0.02030513249 1.184631237e-38
-0.2559455335 0.05710012093 -0.001838193042 1.184631237e-38
-0.1514355391 0.01030934602 -0.008644652553 1.184631237e-38
0.0231239479 -0.02465697378 -0.02692704089 1.184631237e-38
-0.0629356876 -0.01003540121 -0.02031492814 1.184631237e-38
-0.2557989657 0.05704713613 -0.001842165133 1.184631237e-38
-0.1513188928 0.01026965305 -0.008670682088 1.184631237e-38
0.02296905778 -0.02462833747 -0.02692364901 1.184631237e-38
-0.1680477262 0.01497626118 -0.006331433542 1.184631237e-38
-0.303746134 0.07419595122 -0.00101179129 1.184631237e-38
-0.2119316757 0.03257441893 -0.003296993906 1.184631237e-38
0.07959872484 -0.03468950838 -0.02790238895 1.184631237e-38
0.1533041596 -0.0346047841 -0.02780248225 1.258099074e-38
-0.04743215069 -0.02875780687 -0.03442077339 1.258099074e-38
0.03220195323 -0.03177706525 -0.03265774623 1.258099074e-38
0.02837504819 -0.02791227959 -0.03163797781 1.258099074e-38
0.2966814041 -0.04482474923 -0.02097806893 1.258099074e-38
-0.1903853863 -0.03425454721 -0.0334250778 1.258099074e-38
0.1648502052 -0.036634285 -0.02766570635 1.258099074e-38
-0.1724094748 -0.03182720765 -0.03393372521 1.258099074e-38
0.2254936397 -0.03856992349 -0.02583966218 1.258099074e-38
-0.1324388385 -0.03072459809 -0.03457921743 1.258099074e-38
0.09475388378 -0.03085883334 -0.02934248187 1.258099074e-38
-0.0797245279 -0.03138583899 -0.03546804562 1.258099074e-38
0.1996524334 -0.03687870502 -0.02681390196 1.258099074e-38
-0.113684088 -0.03105423227 -0.034915369 1.258099074e-38
0.07566028833 -0.03080043942 -0.02976992726 1.258099074e-38
-0.0564520061 -0.02949234657 -0.03506901115 1.258099074e-38
0.2294367403 -0.03877182305 -0.02555916272 1.258099074e-38
-0.1467766464 -0.03039981052 -0.03436763957 1.258099074e-38
0.08619292825 -0.03131183237 -0.02953186631 1.258099074e-38
-0.08693297952 -0.0314251557 -0.03555921465 1.258099074e-38
0.2294368595 -0.0387718007 -0.02555916272 1.258099074e-38
-0.1467768103 -0.03039981052 -0.03436763212 1.258099074e-38
0.08619298786 -0.03131183237 -0.02953187376 1.258099074e-38
-0.08693316579 -0.0314251706 -0.035559237 1.258099074e-38
0.2295559496 -0.0387792699 -0.02555190213 1.258099074e-38
-0.1469084471 -0.03039780073 -0.03436462581 1.258099074e-38
0.08625164628 -0.03131183237 -0.02953043766 1.258099074e-38
-0.08708766848 -0.03142458946 -0.03555759788 1.258099074e-38
0.1641510874 -0.03543370217 -0.02755828388 1.258099074e-38
-0.03624282777 -0.0309322793 -0.03545812517 1.258099074e-38
0.04727204517 -0.03194939345 -0.03172763065 1.258099074e-38
0.007270260248 -0.02935852297 -0.03311523423 1.258099074e-38
0.3681698143 -0.06209716201 -0.008687947877 1.331530897e-38
0.3527725339 -0.06233189255 -0.01051733643 1.331530897e-38
0.2443495691 -0.06465648115 -0.019530138 1.331530897e-38
0.3721108735 -0.05433764681 0.006866682321 1.331530897e-38
0.3659877181 -0.06123263016 -0.01017255988 1.331530897e-38
0.2264670134 -0.06574673951 -0.02036343701 1.331530897e-38
0.0826491192 -0.06142887473 -0.02789026126 1.331530897e-38
0.2025863081 -0.03148945794 0.009710721672 1.331530897e-38
0.398368746 -0.06086616591 -0.0009956430877 1.331530897e-38
0.2983228862 -0.06327196956 -0.01510537229 1.331530897e-38
0.1637593061 -0.06489092112 -0.02399940602 1.331530897e-38
0.2936840355 -0.04561274126 0.02210189961 1.331530897e-38
0.3984856308 -0.06167311221 -0.00293213781 1.331530897e-38
0.3190771639 -0.06261367351 -0.01349153463 1.331530897e-38
0.186820522 -0.06511108577 -0.02306567691 1.331530897e-38
0.3051112592 -0.04702571034 0.02187033556 1.331530897e-38
0.3987975121 -0.06085743383 -0.001349761267 1.331530897e-38
0.3042152822 -0.06286495179 -0.01478318498 1.331530897e-38
0.1534645557 -0.06411734223 -0.02460922301 1.331530897e-38
0.2728308737 -0.04214152321 0.01821525022 1.331530897e-38
0.3987974524 -0.06085742638 -0.001349746366 1.331530897e-38
0.304215014 -0.06286495924 -0.01478319243 1.331530897e-38
0.1534643769 -0.06411734968 -0.02460923791 1.331530897e-38
0.2728307545 -0.04214149714 0.01821522787 1.331530897e-38
0.3987825811 -0.0608494617 -0.001337326248 1.331530897e-38
0.3041081131 -0.06286837161 -0.01479112543 1.331530897e-38
0.153326869 -0.06411308795 -0.02461495623 1.331530897e-38
0.2727538049 -0.04212924466 0.01820144244 1.331530897e-38
0.3895520866 -0.06244723126 -0.005809353665 1.331530897e-38
0.3594601154 -0.0623566471 -0.009859741665 1.331530897e-38
0.2413369864 -0.06462890655 -0.01985470764 1.331530897e-38
0.3442647755 -0.05064596981 0.01363022439 1.331530897e-38
-0.08911523223 -0.05915401503 -0.219626829 1.404926846e-38
-0.08737780154 -0.05923936144 -0.1423934847 1.404926846e-38
-0.1052750573 -0.05622441322 -0.09450882673 1.404926846e-38
-0.07321608812 -0.05740662292 -0.02717998065 1.404926846e-38
-0.09330998361 -0.06264509261 -0.2781528234 1.404926846e-38
-0.07730491459 -0.06038227677 -0.2269759178 1.404926846e-38
0.04588190839 -0.05197896808 -0.07611384243 1.404926846e-38
-0.1071601138 -0.05736946315 -0.1305883825 1.404926846e-38
-0.08037561923 -0.06263354421 -0.263196975 1.404926846e-38
-0.06567691267 -0.06035552919 -0.19238545 1.404926846e-38
-0.003309314139 -0.05287200958 -0.1055347621 1.404926846e-38
-0.09573134035 -0.05524442717 -0.07396037877 1.404926846e-38
-0.07856608927 -0.06256963313 -0.2609864771 1.404926846e-38
-0.0659500137 -0.06156676635 -0.1817339212 1.404926846e-38
-0.01928018592 -0.05394295976 -0.1220384911 1.404926846e-38
-0.08047204465 -0.05636420473 -0.06324777752 1.404926846e-38
-0.08917231113 -0.06311576813 -0.2821723521 1.404926846e-38
-0.06531637907 -0.06032668799 -0.1940553486 1.404926846e-38
0.001759826206 -0.0535848774 -0.09816069156 1.404926846e-38
-0.1175574064 -0.05488601327 -0.07394759357 1.404926846e-38
-0.08917234093 -0.06311576068 -0.2821724117 1.404926846e-38
-0.06531637907 -0.06032668799 -0.1940554827 1.404926846e-38
0.001759919338 -0.0535848774 -0.09816066176 1.404926846e-38
-0.1175573915 -0.05488601699 -0.07394763827 1.404926846e-38
-0.08918409795 -0.06311373413 -0.2822194695 1.404926846e-38
-0.06532158703 -0.06031994522 -0.1941227019 1.404926846e-38
0.001842090627 -0.05359315872 -0.09812942147 1.404926846e-38
-0.1175624877 -0.05488259718 -0.07399360836 1.404926846e-38
-0.07603953034 -0.06071388721 -0.2416509539 1.404926846e-38
-0.0788032487 -0.06043215096 -0.1504417509 1.404926846e-38
-0.07439487427 -0.05800378695 -0.1134462953 1.404926846e-38
-0.07381819189 -0.05754605308 -0.04020746797 1.404926846e-38
-0.184032321 -0.04560882598 0.04557836801 1.478322936e-38
-0.2762507796 -0.03241614997 0.01253031287 1.478322936e-38
-0.2062661052 -0.03911804035 0.03500883281 1.478322936e-38
-0.2004453689 -0.04258514941 0.04454897717 1.478322936e-38
-0.1148856804 -0.04831097648 0.0466776602 1.478322936e-38
-0.2569212019 -0.03507245705 0.01712871902 1.478322936e-38
-0.1696570218 -0.05501255393 0.05114631355 1.478322936e-38
-0.2608903646 -0.03388978168 0.01878891885 1.478322936e-38
-0.1590936184 -0.04887047783 0.04449548945 1.478322936e-38
-0.325761497 -0.024151925 -0.003402494127 1.478322936e-38
-0.1784429252 -0.05045654997 0.05007483438 1.478322936e-38
-0.2306796163 -0.03669532016 0.02670769393 1.478322936e-38
-0.1706091166 -0.04997696728 0.04455183819 1.478322936e-38
-0.3188782036 -0.02614039555 -0.0002889793832 1.478322936e-38
-0.1789388806 -0.05019502714 0.05017203838 1.478322936e-38
-0.2219139934 -0.03744933382 0.03105838411 1.478322936e-38
-0.1553881168 -0.04988719523 0.04517754167 1.478322936e-38
-0.327114135 -0.02413053997 -0.00330566871 1.478322936e-38
-0.1753169596 -0.05237083882 0.05106206611 1.478322936e-38
-0.2310225815 -0.03647217527 0.02714091167 1.478322936e-38
-0.1553880572 -0.04988719523 0.0451775454 1.478322936e-38
-0.327114135 -0.02413053997 -0.003305668244 1.478322936e-38
-0.1753169298 -0.05237084627 0.05106206983 1.478322936e-38
-0.231022656 -0.03647216037 0.02714087814 1.478322936e-38
-0.1553216577 -0.04988476634 0.04517799988 1.478322936e-38
-0.3271062672 -0.02413256466 -0.003305425635 1.478322936e-38
-0.1753077209 -0.05237517133 0.05106070265 1.478322936e-38
-0.2310734391 -0.03646738455 0.02711925283 1.478322936e-38
-0.1825768352 -0.04617801309 0.04517628253 1.478322936e-38
-0.2762961984 -0.03225052729 0.01170722954 1.478322936e-38
-0.1951462328 -0.04477274418 0.04748634994 1.478322936e-38
-0.2062689215 -0.03976737335 0.04051269963 1.478322936e-38
-0.1069748178 -0.02998294123 -0.01897713169 1.551683013e-38
0.06095776334 -0.02154878899 -0.01363090146 1.551683013e-38
-0.1732182205 -0.02297477983 -0.01815051027 1.551683013e-38
-0.001675155596 -0.03169417381 -0.02221061476 1.551683013e-38
0.0421484448 -0.02166824788 -0.01429739594 1.551683013e-38
0.1336915791 -0.02154298872 -0.01329483744 1.551683013e-38
-0.01829168759 -0.02936427481 -0.001637030742 1.551683013e-38
-0.1633768827 -0.04006097838 -0.03264373541 1.551683013e-38
-0.04366063327 -0.02443228848 -0.01533601433 1.551683013e-38
0.1030205563 -0.02008733153 -0.01398165151 1.551683013e-38
-0.1267328113 -0.02867381833 -0.01225104928 1.551683013e-38
-0.1034120619 -0.03657913953 -0.02478025295 1.551683013e-38
-0.06837310642 -0.02658895031 -0.01694259048 1.551683013e-38
0.09373464435 -0.02025654726 -0.01390086301 1.551683013e-38
-0.1573515385 -0.02527065761 -0.01560832467 1.551683013e-38
-0.08795560896 -0.03535100818 -0.02351218276 1.551683013e-38
-0.04237831011 -0.02452873811 -0.01520525012 1.551683013e-38
0.1053327695 -0.02020466141 -0.01393947843 1.551683013e-38
-0.1149489209 -0.02910884097 -0.01126083452 1.551683013e-38
-0.09152386338 -0.03866863251 -0.02669262514 1.551683013e-38
-0.04237816483 -0.02452873997 -0.0152052436 1.551683013e-38
0.1053327993 -0.02020466328 -0.0139394775 1.551683013e-38
-0.1149488091 -0.02910884842 -0.01126080938 1.551683013e-38
-0.09152396023 -0.03866863251 -0.02669263259 1.551683013e-38
-0.0422571525 -0.02452599816 -0.01520208269 1.551683013e-38
0.105368495 -0.02020726912 -0.01393752266 1.551683013e-38
-0.1148326695 -0.02911081165 -0.01124615036 1.551683013e-38
-0.09160730988 -0.03866996616 -0.02669822238 1.551683013e-38
-0.1181299835 -0.03060605004 -0.02012119628 1.551683013e-38
0.04872007668 -0.02163442597 -0.01404796168 1.551683013e-38
-0.1699056625 -0.02340853214 -0.01782109775 1.551683013e-38
-0.04175727442 -0.03228522837 -0.02205146663 1.551683013e-38
-0.0513278842 -0.04745401442 0.1316585541 1.625043089e-38
-0.05110551044 -0.04659439623 0.1789019406 1.625043089e-38
-0.06093242764 -0.04854951426 0.1260424554 1.625043089e-38
-0.07096368074 -0.04779767245 0.1564724892 1.625043089e-38
-0.09595917165 -0.04953761026 0.1981426924 1.625043089e-38
-0.1171656847 -0.05152368918 0.2556079328 1.625043089e-38
0.01644904353 -0.04778903723 0.0970114246 1.625043089e-38
-0.09904402494 -0.04607922584 0.2458405048 1.625043089e-38
-0.07817336172 -0.04939578846 0.1675665826 1.625043089e-38
-0.0957654044 -0.04680071026 0.2439187765 1.625043089e-38
-0.01007951889 -0.04770584777 0.1162128225 1.625043089e-38
-0.09071879834 -0.04827199504 0.2132539898 1.625043089e-38
-0.07428926229 -0.04892184958 0.1587988138 1.625043089e-38
-0.09105048329 -0.04648046196 0.2371063381 1.625043089e-38
-0.02551323362 -0.04749657959 0.1263378561 1.625043089e-38
-0.08843969554 -0.04866087809 0.2055058628 1.625043089e-38
-0.08323405683 -0.04995099828 0.1638657302 1.625043089e-38
-0.09325140715 -0.04615762085 0.2431661636 1.625043089e-38
-0.01030761003 -0.04737540334 0.1126257777 1.625043089e-38
-0.08524411917 -0.04801892489 0.205909431 1.625043089e-38
-0.08323410898 -0.04995099828 0.16386576 1.625043089e-38
-0.0932514444 -0.04615762457 0.2431662083 1.625043089e-38
-0.0103075169 -0.04737540707 0.1126257032 1.625043089e-38
-0.08524411917 -0.04801891744 0.2059094757 1.625043089e-38
-0.08325434476 -0.04995431751 0.1638982743 1.625043089e-38
-0.0932751596 -0.04615827277 0.2432032228 1.625043089e-38
-0.01021648757 -0.04737515748 0.1125696748 1.625043089e-38
-0.08525159955 -0.04801499844 0.2059579492 1.625043089e-38
-0.06339600682 -0.04759990051 0.1430497468 1.625043089e-38
-0.07370115072 -0.04665561393 0.2149638981 1.625043089e-38
-0.05761403963 -0.04667811841 0.1485770196 1.625043089e-38
-0.07889457047 -0.04919488356 0.1820636094 1.625043089e-38
-0.1580418646 -0.05349440128 0.1259731054 1.698367293e-38
-0.0652609989 -0.05573316291 0.2436661869 1.698367293e-38
-0.1419810951 -0.05886903405 0.08135200292 1.698367293e-38
-0.1587645411 -0.05199571699 0.1448399276 1.698367293e-38
-0.1068858355 -0.05314925313 0.2461713403 1.698367293e-38
0.008173816837 -0.05394937471 0.1732425839 1.698367293e-38
-0.06504711509 -0.06788054854 -0.02140890807 1.698367293e-38
-0.06190810353 -0.0569364205 0.2221658677 1.698367293e-38
-0.1190168038 -0.05190212652 0.2134988904 1.698367293e-38
-0.03465378657 -0.05598668754 0.2160344124 1.698367293e-38
-0.08097397536 -0.0650107488 0.03001595661 1.698367293e-38
-0.1111523062 -0.05510584265 0.2379924655 1.698367293e-38
-0.1215532869 -0.05190402642 0.2014453411 1.698367293e-38
-0.03692053631 -0.05604375154 0.2172762603 1.698367293e-38
-0.08679709584 -0.0633000657 0.04219159484 1.698367293e-38
-0.1169968173 -0.05436430126 0.2388251126 1.698367293e-38
-0.1218003258 -0.05216913298 0.2092937976 1.698367293e-38
-0.02242182568 -0.05552731827 0.2030033171 1.698367293e-38
-0.07353047282 -0.06535938382 0.0189271234 1.698367293e-38
-0.1191367283 -0.05417959392 0.2337295711 1.698367293e-38
-0.1218002737 -0.05216913298 0.2092938572 1.698367293e-38
-0.02242177725 -0.05552731827 0.2030032426 1.698367293e-38
-0.07353045791 -0.06535939127 0.01892710105 1.698367293e-38
-0.1191365942 -0.05417960882 0.2337296456 1.698367293e-38
-0.1217690781 -0.05216766894 0.2093687207 1.698367293e-38
-0.02238466032 -0.05552591011 0.202959314 1.698367293e-38
-0.0735091567 -0.065362297 0.01888224296 1.698367293e-38
-0.1190306917 -0.05418875068 0.233771041 1.698367293e-38
-0.1452413499 -0.05147092789 0.152622804 1.698367293e-38
-0.04899276793 -0.05647973716 0.2218503654 1.698367293e-38
-0.1136857495 -0.05932976678 0.06895493716 1.698367293e-38
-0.1502129287 -0.05145766586 0.1868240833 1.698367293e-38
0.279622525 -0.03883705288 -0.01117603108 1.771655483e-38
0.1846248955 -0.0384051539 -0.01877018809 1.771655483e-38
0.09767860919 -0.04199681059 -0.02334826626 1.771655483e-38
0.1170692295 -0.04104373232 -0.02208352089 1.771655483e-38
0.353993237 -0.03884330764 0.00817199517 1.771655483e-38
0.2776153088 -0.03673588485 -0.01234798692 1.771655483e-38
0.1950360388 -0.03875909373 -0.01748068631 1.771655483e-38
-0.03820117936 -0.04912564158 -0.02864453569 1.771655483e-38
0.3347307146 -0.03754999861 -0.0006347000017 1.771655483e-38
0.2070161551 -0.0382611081 -0.01749807037 1.771655483e-38
0.1620786637 -0.04066757113 -0.02007383108 1.771655483e-38
0.04093668982 -0.0444951728 -0.02597673982 1.771655483e-38
0.3226266503 -0.03667427227 -0.006022648886 1.771655483e-38
0.1762894839 -0.03680174425 -0.0194207374 1.771655483e-38
0.1434744596 -0.04053011909 -0.02147669904 1.771655483e-38
0.04725394398 -0.04333817959 -0.02563636377 1.771655483e-38
0.3228626847 -0.03654538095 -0.005187606439 1.771655483e-38
0.1942096055 -0.03602939844 -0.01782496646 1.771655483e-38
0.1423199922 -0.04043218866 -0.02141108923 1.771655483e-38
-0.003418462118 -0.04683347046 -0.02769003622 1.771655483e-38
0.3228626847 -0.0365453735 -0.005187561736 1.771655483e-38
0.1942098141 -0.03602939472 -0.01782495901 1.771655483e-38
0.1423200071 -0.04043218493 -0.02141108178 1.771655483e-38
-0.003418551525 -0.04683347791 -0.02769005112 1.771655483e-38
0.3229269385 -0.03654495254 -0.005160233937 1.771655483e-38
0.1943940371 -0.03603081778 -0.01781105436 1.771655483e-38
0.142381236 -0.04043212533 -0.02140743285 1.771655483e-38
-0.003438295331 -0.0468342118 -0.02769078128 1.771655483e-38
0.2908596098 -0.03701313585 -0.0106883971 1.771655483e-38
0.1557179987 -0.03574617952 -0.02068107016 1.771655483e-38
0.11293412 -0.04101593047 -0.02295922861 1.771655483e-38
0.07259715348 -0.04207360372 -0.02467398904 1.771655483e-38
0.1812489331 -0.08722604811 -0.004706531297 1.844943813e-38
0.2533287108 -0.08286689967 0.001793989097 1.844943813e-38
0.1732036471 -0.08718054742 -0.005707634147 1.844943813e-38
0.05537932739 -0.08047051728 -0.01288553607 1.844943813e-38
0.06661646068 -0.08449801803 -0.01509204321 1.844943813e-38
0.3214391768 -0.08267766237 0.005212812684 1.844943813e-38
0.2455667257 -0.08407828212 0.0008423154359 1.844943813e-38
-0.05941128731 -0.07949098945 -0.02089773118 1.844943813e-38
0.1376875937 -0.08731836081 -0.009933990426 1.844943813e-38
0.2917265892 -0.08252221346 0.003960327711 1.844943813e-38
0.219717145 -0.08546487242 -0.001338485745 1.844943813e-38
-0.01514296699 -0.0807364583 -0.0192705486 1.844943813e-38
0.1491871625 -0.08767443895 -0.008496474475 1.844943813e-38
0.2806583047 -0.08253786713 0.003454372054 1.844943813e-38
0.2112276256 -0.08546000719 -0.001963482006 1.844943813e-38
-0.001417472027 -0.08074783534 -0.01816032454 1.844943813e-38
0.1327605993 -0.08703555912 -0.01066636853 1.844943813e-38
0.2858282328 -0.08245314658 0.003702890361 1.844943813e-38
0.217718333 -0.08569865674 -0.001586313243 1.844943813e-38
-0.01036259718 -0.08037258685 -0.01814799756 1.844943813e-38
0.1327605247 -0.08703555167 -0.01066638064 1.844943813e-38
0.2858282328 -0.08245313913 0.003702892223 1.844943813e-38
0.2177183628 -0.08569866419 -0.001586313243 1.844943813e-38
-0.01036271639 -0.08037258685 -0.01814801246 1.844943813e-38
0.1327081919 -0.08703309298 -0.01067405753 1.844943813e-38
0.2858884037 -0.08245274425 0.00370573136 1.844943813e-38
0.2177726775 -0.08569504321 -0.001581604243 1.844943813e-38
-0.01043371204 -0.08037276566 -0.01815411635 1.844943813e-38
0.1692622304 -0.08756737411 -0.006020024884 1.844943813e-38
0.2498642653 -0.08316922188 0.001422758913 1.844943813e-38
0.1744317114 -0.08680516481 -0.005534304772 1.844943813e-38
0.043482963 -0.08137958497 -0.01434515323 1.844943813e-38
0.09945838898 -0.05915900692 -0.04588732868 1.91819627e-38
-0.03161041439 -0.04668543488 -0.1386522651 1.91819627e-38
0.06795216352 -0.05826263875 -0.05832534283 1.91819627e-38
0.05405094102 -0.05165685713 -0.08817791939 1.91819627e-38
-0.04226961359 -0.04213128984 -0.1706001759 1.91819627e-38
-0.1354745775 -0.0395709984 -0.1835655123 1.91819627e-38
0.2015751898 -0.0696252957 -0.006105384324 1.91819627e-38
-0.07539073378 -0.03222939745 -0.2542484105 1.91819627e-38
0.04430377856 -0.05144920573 -0.08944994211 1.91819627e-38
-0.08489174396 -0.0337061733 -0.2057477832 1.91819627e-38
0.137462303 -0.06576793641 -0.01962175965 1.91819627e-38
-0.04413880408 -0.04050632194 -0.1860568374 1.91819627e-38
0.05642896518 -0.05287588388 -0.07967895269 1.91819627e-38
-0.07763252407 -0.03504190594 -0.195473969 1.91819627e-38
0.1183278784 -0.06446983665 -0.02430564351 1.91819627e-38
-0.03318766877 -0.04182220995 -0.1679807007 1.91819627e-38
0.03460063785 -0.04959122837 -0.1005422547 1.91819627e-38
-0.09635298699 -0.03244124353 -0.2085437924 1.91819627e-38
0.1380419582 -0.06601009518 -0.01944086514 1.91819627e-38
-0.0356096141 -0.04116621986 -0.1753763855 1.91819627e-38
0.03460052609 -0.04959120974 -0.1005423442 1.91819627e-38
-0.0963530615 -0.03244123235 -0.2085437924 1.91819627e-38
0.1380420625 -0.06601011008 -0.01944084279 1.91819627e-38
-0.03560969606 -0.04116621614 -0.1753765345 1.91819627e-38
0.03452749923 -0.04958135635 -0.1006063521 1.91819627e-38
-0.09640889615 -0.03243581578 -0.2085411996 1.91819627e-38
0.1381428838 -0.06601706892 -0.01941604167 1.91819627e-38
-0.03567930311 -0.04115822539 -0.1755034924 1.91819627e-38
0.0861254409 -0.05683530495 -0.05836201087 1.91819627e-38
-0.05024405569 -0.04312438518 -0.1513323784 1.91819627e-38
0.07122948766 -0.05855033919 -0.05659142137 1.91819627e-38
0.03400389478 -0.04833981767 -0.1060585529 1.91819627e-38
-0.3076410592 -0.0502803959 0.0245572906 1.991448586e-38
-0.2657531202 -0.05111852661 0.02733721398 1.991448586e-38
-0.02202025242 -0.04140874743 0.03791986778 1.991448586e-38
-0.2884024084 -0.04471733049 0.02468194813 1.991448586e-38
-0.173145324 -0.04559897631 0.03647021949 1.991448586e-38
-0.05670499802 -0.0524106361 0.04104305804 1.991448586e-38
0.1537125707 -0.05200919509 0.03459100425 1.991448586e-38
-0.3611393869 -0.02684535086 0.009739412926 1.991448586e-38
-0.2499263287 -0.04537382349 0.02771127596 1.991448586e-38
-0.1849296391 -0.05256614834 0.03714956716 1.991448586e-38
0.06016912684 -0.03939647973 0.03526775911 1.991448586e-38
-0.3445981145 -0.03283141181 0.01846676506 1.991448586e-38
-0.2697476447 -0.04463225231 0.02600729838 1.991448586e-38
-0.2089292705 -0.05146112293 0.03396350145 1.991448586e-38
0.01481746789 -0.03989892825 0.03657998517 1.991448586e-38
-0.3353393972 -0.03143791854 0.01884376071 1.991448586e-38
-0.2480255365 -0.04702298343 0.02809810638 1.991448586e-38
-0.1731529087 -0.05037173256 0.03766147792 1.991448586e-38
0.08062696457 -0.03891926259 0.03411573917 1.991448586e-38
-0.3471799195 -0.03108882159 0.01796134934 1.991448586e-38
-0.2480253875 -0.04702298343 0.02809811942 1.991448586e-38
-0.1731527597 -0.05037173256 0.03766149655 1.991448586e-38
0.08062709123 -0.03891930729 0.03411573917 1.991448586e-38
-0.3471799493 -0.03108877689 0.01796133816 1.991448586e-38
-0.2479517162 -0.04702283442 0.02810364775 1.991448586e-38
-0.1730253547 -0.05037397519 0.03767556325 1.991448586e-38
0.08073512465 -0.03896003962 0.03411550447 1.991448586e-38
-0.347238332 -0.03108871728 0.017957367 1.991448586e-38
-0.2797415257 -0.0497781001 0.02593789995 1.991448586e-38
-0.2447487116 -0.04977622628 0.02880843543 1.991448586e-38
-0.008086686023 -0.04203391075 0.03758086637 1.991448586e-38
-0.2790672779 -0.04166767001 0.02485799976 1.991448586e-38
0.1795617342 -0.01517627668 0.01349175628 2.06466517e-38
0.0587375313 -0.01646528393 0.01083266269 2.06466517e-38
0.2079411447 -0.01453760453 0.01393466815 2.06466517e-38
0.03047933057 -0.02027072757 0.0137092974 2.06466517e-38
-0.03682784364 -0.02036244795 0.01038112771 2.06466517e-38
0.2323920578 -0.01575078815 0.01451301388 2.06466517e-38
0.333188355 -0.03543332964 0.01223843545 2.06466517e-38
-0.1246306375 -0.01773621887 0.01177041419 2.06466517e-38
0.08078452945 -0.01640765369 0.01081367861 2.06466517e-38
0.1365330517 -0.01549541391 0.01308455318 2.06466517e-38
0.2928553522 -0.02764487639 0.01371060964 2.06466517e-38
-0.02242624201 -0.01858334243 0.01208091807 2.06466517e-38
0.1015075967 -0.0159420222 0.01153069269 2.06466517e-38
0.1124872342 -0.01547504868 0.01248127408 2.06466517e-38
0.2706678212 -0.02389427461 0.01382643636 2.06466517e-38
-0.002348999726 -0.01987867616 0.01310946979 2.06466517e-38
0.04056122527 -0.01688473113 0.01005621254 2.06466517e-38
0.1517254859 -0.01600631885 0.01360797044 2.06466517e-38
0.2901742756 -0.02829544432 0.01321165543 2.06466517e-38
-0.0485197939 -0.01777495444 0.01207615621 2.06466517e-38
0.0405610539 -0.01688473485 0.0100562023 2.06466517e-38
0.1517256796 -0.0160063263 0.01360797696 2.06466517e-38
0.290174365 -0.02829545923 0.01321165077 2.06466517e-38
-0.04851991311 -0.01777495444 0.01207615528 2.06466517e-38
0.04042436555 -0.01688889228 0.01005202532 2.06466517e-38
0.1519104242 -0.01600840501 0.01361225452 2.06466517e-38
0.2902742028 -0.02831237018 0.01320924424 2.06466517e-38
-0.04859485105 -0.01777100936 0.01207504794 2.06466517e-38
0.1410583109 -0.01529207639 0.01272947341 2.06466517e-38
0.03477165848 -0.016507525 0.01062353048 2.06466517e-38
0.219060719 -0.01480196882 0.01387000177 2.06466517e-38
0.01596434414 -0.02005422302 0.01340280194 2.06466517e-38
-0.2240423709 -0.05860836431 -0.04168614745 2.137881613e-38
-0.2151616067 -0.0629947111 -0.03922885284 2.137881613e-38
-0.1779748052 -0.0485869348 -0.05914032087 2.137881613e-38
-0.2246117592 -0.06004209816 -0.04077192023 2.137881613e-38
-0.2529942989 -0.06075930223 -0.03050335869 2.137881613e-38
-0.1160312667 -0.06589466333 -0.03938103467 2.137881613e-38
-0.08265161514 -0.05463179573 -0.05340510607 2.137881613e-38
-0.1772913933 -0.04882667214 -0.05913554505 2.137881613e-38
-0.2380231172 -0.06202856079 -0.03425640613 2.137881613e-38
-0.170589149 -0.06439997256 -0.04178884253 2.137881613e-38
-0.1336703897 -0.04907029122 -0.05883916095 2.137881613e-38
-0.1940047145 -0.05433328077 -0.05222599581 2.137881613e-38
-0.2287507057 -0.05925463885 -0.03916903585 2.137881613e-38
-0.1790155619 -0.06402346492 -0.04210231826 2.137881613e-38
-0.1396213025 -0.04826690257 -0.05951024592 2.137881613e-38
-0.2029622793 -0.05551812053 -0.04934691638 2.137881613e-38
-0.2370416075 -0.06053574011 -0.03517913818 2.137881613e-38
-0.1731851399 -0.06182810664 -0.0446732007 2.137881613e-38
-0.125405103 -0.04647698626 -0.06108933315 2.137881613e-38
-0.193083331 -0.05309099331 -0.05300207064 2.137881613e-38
-0.2370416969 -0.06053574383 -0.03517912328 2.137881613e-38
-0.1731850952 -0.06182809919 -0.0446732156 2.137881613e-38
-0.1254050583 -0.04647699371 -0.06108933315 2.137881613e-38
-0.1930832863 -0.05309097841 -0.05300207809 2.137881613e-38
-0.2370721847 -0.06053864956 -0.03516699374 2.137881613e-38
-0.1731486022 -0.06182424352 -0.04467777535 2.137881613e-38
-0.1253528744 -0.04648406431 -0.06108477712 2.137881613e-38
-0.1930418462 -0.05308591202 -0.05301378667 2.137881613e-38
-0.2178660482 -0.05602045357 -0.04511037469 2.137881613e-38
-0.1992071569 -0.06582345814 -0.03838109598 2.137881613e-38
-0.1636956036 -0.04603242129 -0.06190504134 2.137881613e-38
-0.2195574194 -0.05849421397 -0.04316029698 2.137881613e-38
0.08908580244 -0.03244362772 0.03444457427 2.211062324e-38
0.2370705605 -0.04865447432 0.02768954635 2.211062324e-38
-0.06801940501 -0.03104300611 0.0367981419 2.211062324e-38
0.165245533 -0.03676468879 0.02757759206 2.211062324e-38
0.1423581392 -0.04192445427 0.04120772704 2.211062324e-38
0.2888429761 -0.04995131865 0.02322826535 2.211062324e-38
0.06074471772 -0.03105919622 0.03631359711 2.211062324e-38
0.2425551265 -0.04653896764 0.02487073652 2.211062324e-38
0.09430707991 -0.03720606863 0.04220919311 2.211062324e-38
0.2667293847 -0.04828209057 0.02422278747 2.211062324e-38
0.03339363635 -0.03204923496 0.03840978071 2.211062324e-38
0.2135644853 -0.04485002905 0.02755097486 2.211062324e-38
0.07204876095 -0.03504435718 0.04266830534 2.211062324e-38
0.2568333745 -0.04839529097 0.02561431751 2.211062324e-38
0.02274098806 -0.03242374212 0.03857434914 2.211062324e-38
0.202262044 -0.04443458095 0.02898491919 2.211062324e-38
0.07186617702 -0.03481711075 0.04258970544 2.211062324e-38
0.2612322569 -0.04993771762 0.02675963379 2.211062324e-38
0.02202651463 -0.03132273629 0.03750793636 2.211062324e-38
0.2120043188 -0.04553903267 0.02881974913 2.211062324e-38
0.07186619192 -0.0348171331 0.04258970171 2.211062324e-38
0.2612323165 -0.04993770272 0.02675962634 2.211062324e-38
0.02202660404 -0.03132272139 0.03750793263 2.211062324e-38
0.2120043784 -0.04553904757 0.02881973982 2.211062324e-38
0.07194257528 -0.03482329473 0.04258697107 2.211062324e-38
0.2612832189 -0.04993764311 0.02675291151 2.211062324e-38
0.02211574465 -0.03131965175 0.03750739992 2.211062324e-38
0.2120604813 -0.0455432348 0.02881543525 2.211062324e-38
0.05803297833 -0.03297114 0.04043712094 2.211062324e-38
0.2247883379 -0.04850348458 0.02942061424 2.211062324e-38
-0.01917269453 -0.03261353076 0.03810154647 2.211062324e-38
0.1816188544 -0.04206554219 0.03094470873 2.211062324e-38
0.1332941055 -0.07429552078 0.005800405517 2.284242894e-38
0.2311152816 -0.06393497437 0.005815306213 2.284242894e-38
0.3148735464 -0.06204106659 0.008617470972 2.284242894e-38
0.1163171157 -0.07578035444 0.01092835981 2.284242894e-38
-0.04797175527 -0.08275187761 0.009872950613 2.284242894e-38
0.08634573966 -0.07612638921 0.007620991673 2.284242894e-38
0.1557576805 -0.0732768327 0.009153407998 2.284242894e-38
0.2430743575 -0.06425029784 0.007364959456 2.284242894e-38
0.02277953178 -0.07962284982 0.006684009917 2.284242894e-38
0.1611207724 -0.07294866443 0.009159264155 2.284242894e-38
0.242386654 -0.0636837855 0.00533314934 2.284242894e-38
0.178254813 -0.07130052894 0.009582136758 2.284242894e-38
0.05258031562 -0.07797724754 0.005622268189 2.284242894e-38
0.1900598556 -0.06883516908 0.007396846078 2.284242894e-38
0.2796761692 -0.06251348555 0.00301322923 2.284242894e-38
0.1653843969 -0.0728822425 0.009579260834 2.284242894e-38
0.04273533449 -0.07874968648 0.005531999748 2.284242894e-38
0.1605522335 -0.07352491468 0.009869046509 2.284242894e-38
0.2661431134 -0.06241391972 0.005229440518 2.284242894e-38
0.187097773 -0.07098898292 0.009946495295 2.284242894e-38
0.04273514077 -0.07874967903 0.005532014649 2.284242894e-38
0.1605520993 -0.07352490723 0.009869001806 2.284242894e-38
0.2661429346 -0.06241392344 0.005229410715 2.284242894e-38
0.1870978624 -0.07098896801 0.009946525097 2.284242894e-38
0.04259013385 -0.07875867933 0.005536172073 2.284242894e-38
0.1603990346 -0.07353581488 0.009861790575 2.284242894e-38
0.2659564912 -0.06241674721 0.005239766557 2.284242894e-38
0.1871617287 -0.07098101825 0.009943827987 2.284242894e-38
0.1125452295 -0.07523800433 0.005206791218 2.284242894e-38
0.2446376383 -0.06373804063 0.004236151464 2.284242894e-38
0.3271309435 -0.06209174171 0.003854792099 2.284242894e-38
0.1416840106 -0.07464905828 0.009111375548 2.284242894e-38
0.02237952501 -0.05434159935 0.1491218656 2.348204041e-38
0.1097454429 -0.04655382037 0.04997710139 2.348204041e-38
0.1573503613 -0.04625036567 0.02913171984 2.348204041e-38
0.1320199072 -0.04583457485 0.03806554526 2.348204041e-38
-0.07135376334 -0.0507221669 0.3151154518 2.348204041e-38
-0.03998499364 -0.05636361241 0.2589159608 2.348204041e-38
0.2761972547 -0.04967817664 -0.01148452051 2.348204041e-38
0.005998881999 -0.05633024871 0.177942872 2.348204041e-38
-0.01198514551 -0.0575745441 0.2169573307 2.348204041e-38
0.01961302385 -0.05434631556 0.1517889351 2.348204041e-38
0.2018340528 -0.04836544767 0.01054559276 2.348204041e-38
0.09169309586 -0.04753354564 0.06688385457 2.348204041e-38
0.005662712269 -0.05685311928 0.1828277111 2.348204041e-38
0.03111145645 -0.05212209746 0.1300527006 2.348204041e-38
0.1880357563 -0.04788453132 0.0159782581 2.348204041e-38
0.116294764 -0.04609315097 0.04679422081 2.348204041e-38
-0.04274747148 -0.05349180475 0.2765458822 2.348204041e-38
0.004573022947 -0.05669942126 0.1830544472 2.348204041e-38
0.2053467184 -0.04766961187 0.01013795566 2.348204041e-38
0.0836166665 -0.04772750661 0.07478802651 2.348204041e-38
-0.04274760559 -0.0534917675 0.276546061 2.348204041e-38
0.004572903737 -0.05669943616 0.1830546856 2.348204041e-38
0.2053468227 -0.04766961932 0.01013789605 2.348204041e-38
0.08361652493 -0.04772749916 0.07478816807 2.348204041e-38
-0.04283945262 -0.05347868428 0.2766712606 2.348204041e-38
0.004486940335 -0.05671240762 0.1832251847 2.348204041e-38
0.2054422498 -0.04767186567 0.01010685973 2.348204041e-38
0.08354330808 -0.0477299206 0.0748577714 2.348204041e-38
0.03008099645 -0.0526557304 0.1339068264 2.348204041e-38
0.0804182142 -0.04746733978 0.0765632242 2.348204041e-38
0.1640273482 -0.04653628543 0.02636380307 2.348204041e-38
0.138316676 -0.04595573619 0.03581957892 2.348204041e-38
0.3188413978 -0.04202865809 -0.01203853078 2.347880341e-38
0.2891519666 -0.03711191937 -0.01159377769 2.347880341e-38
0.3223166466 -0.04144875705 -0.01433394011 2.347880341e-38
0.1964307278 -0.02311853133 -0.0141862426 2.347880341e-38
0.1531608552 -0.02273873612 -0.018303046 2.347880341e-38
0.0681155175 -0.02040966041 -0.02032832801 2.347880341e-38
0.3142980635 -0.04199978709 -0.01139906421 2.347880341e-38
-0.07514821738 -0.01996451616 -0.02751453035 2.347880341e-38
0.2925816476 -0.03625405952 -0.01402712334 2.347880341e-38
0.2138182372 -0.02642696165 -0.009570272639 2.347880341e-38
0.3883466423 -0.04972416908 -0.01041881274 2.347880341e-38
0.08446921408 -0.02096399106 -0.02220439352 2.347880341e-38
0.2925409675 -0.03632558882 -0.01381983794 2.347880341e-38
0.2303410023 -0.02928146534 -0.008819872513 2.347880341e-38
0.3820022047 -0.04916933179 -0.01080062892 2.347880341e-38
0.1107472703 -0.02119014971 -0.02030080743 2.347880341e-38
0.2629637718 -0.03188354895 -0.01403462794 2.347880341e-38
0.1782554686 -0.02341921441 -0.0134674916 2.347880341e-38
0.3813813329 -0.04943066463 -0.01071287692 2.347880341e-38
0.06334155798 -0.02063422464 -0.02226638421 2.347880341e-38
0.2629636824 -0.03188352659 -0.0140346298 2.347880341e-38
0.1782551706 -0.02341921069 -0.01346750371 2.347880341e-38
0.3813813031 -0.0494306609 -0.01071288064 2.347880341e-38
0.06334132701 -0.02063422464 -0.02226639539 2.347880341e-38
0.2629336119 -0.0318781808 -0.01403634436 2.347880341e-38
0.178129375 -0.02341963723 -0.01347775757 2.347880341e-38
0.3814119101 -0.04943444207 -0.01071032695 2.347880341e-38
0.06318970025 -0.02063111402 -0.02227271721 2.347880341e-38
0.2908682823 -0.03676709533 -0.01226942334 2.347880341e-38
0.2486721724 -0.0312029887 -0.01030816697 2.347880341e-38
0.3382926881 -0.04473682866 -0.01368705649 2.347880341e-38
0.1574966311 -0.02322974056 -0.01548728999 2.347880341e-38
-0.1857682765 0.01420961786 0.0002265125513 2.347520768e-38
-0.212608248 0.02099779062 9.596347809e-05 2.347520768e-38
-0.1347393841 0.0007695777458 -0.003160972847 2.347520768e-38
-0.1272773445 -0.02004728839 0.002151575405 2.347520768e-38
-0.2561853528 0.04338908568 0.0003150254488 2.347520768e-38
-0.2860666513 0.056420926 0.0006544961361 2.347520768e-38
-0.05374510214 -0.01257968601 -0.007353538182 2.347520768e-38
-0.2235288769 0.02600111999 0.0002438724041 2.347520768e-38
-0.2245111465 0.02763644792 0.0001828223467 2.347520768e-38
-0.2640201449 0.0445863232 0.0005242227926 2.347520768e-38
-0.08697517216 -0.007558723446 -0.005585522857 2.347520768e-38
-0.1908489317 0.006870087236 0.000104598701 2.347520768e-38
-0.2137137949 0.02315167896 0.0002693161368 2.347520768e-38
-0.2573803663 0.04116679356 0.0003562196798 2.347520768e-38
-0.1042851433 -0.004699568264 -0.004718104843 2.347520768e-38
-0.1801440418 0.0006017535343 -0.000209517777 2.347520768e-38
-0.2274440676 0.02917873114 0.0002229213715 2.347520768e-38
-0.2686392367 0.04821116105 0.0007896272582 2.347520768e-38
-0.09445087612 -0.006233119871 -0.005167169962 2.347520768e-38
-0.1817500144 0.0007998867077 0.0002641156316 2.347520768e-38
-0.2274441123 0.0291787833 0.0002229213715 2.347520768e-38
-0.2686392963 0.0482112132 0.0007896347088 2.347520768e-38
-0.09445080161 -0.006233134773 -0.005167169962 2.347520768e-38
-0.1817500889 0.00079991651 0.0002641156316 2.347520768e-38
-0.2274941355 0.02920188196 0.0002230256796 2.347520768e-38
-0.2686680555 0.04824018851 0.0007918400806 2.347520768e-38
-0.09437838942 -0.006245994009 -0.005171021912 2.347520768e-38
-0.1818173379 0.000839158718 0.0002662539482 2.347520768e-38
-0.2010971606 0.01842965931 0.0004557445354 2.347520768e-38
-0.232900843 0.03134460375 0.0002936348319 2.347520768e-38
-0.1407005787 0.001914193388 -0.002599464497 2.347520768e-38
-0.1476875395 -0.01672134362 0.001152231824 2.347520768e-38
-0.1145481542 -0.04710441455 -0.2537290156 2.347161195e-38
-0.1064324304 -0.04941154271 -0.2291245162 2.347161195e-38
-0.1210550666 -0.05565380678 -0.1886147261 2.347161195e-38
-0.1126577631 -0.05158554018 -0.2124375552 2.347161195e-38
-0.1404730529 -0.0486045219 -0.2752887607 2.347161195e-38
-0.1503154486 -0.05137639865 -0.2500676513 2.347161195e-38
-0.1338095665 -0.04915171862 -0.243050769 2.347161195e-38
-0.08016896993 -0.05443481728 -0.1398504823 2.347161195e-38
-0.1284391135 -0.04748425633 -0.27019611 2.347161195e-38
-0.1280105561 -0.04909959435 -0.2398374528 2.347161195e-38
-0.1236885414 -0.0501989685 -0.2278875858 2.347161195e-38
-0.09037412703 -0.05419330299 -0.1618030071 2.347161195e-38
-0.1193645149 -0.0464817211 -0.2660123706 2.347161195e-38
-0.1209038422 -0.0491922982 -0.2363347709 2.347161195e-38
-0.1201446801 -0.05088064447 -0.2222116143 2.347161195e-38
-0.09314772487 -0.05418190733 -0.167502299 2.347161195e-38
-0.1298026294 -0.0470578894 -0.2748322785 2.347161195e-38
-0.133007437 -0.04911739007 -0.2431856543 2.347161195e-38
-0.1261961907 -0.05044932663 -0.2269280106 2.347161195e-38
-0.09636701643 -0.05473805219 -0.1683857143 2.347161195e-38
-0.129802689 -0.0470578894 -0.2748323381 2.347161195e-38
-0.1330075115 -0.04911739379 -0.2431856841 2.347161195e-38
-0.1261962205 -0.05044932663 -0.2269280255 2.347161195e-38
-0.09636698663 -0.05473805219 -0.1683856696 2.347161195e-38
-0.1298386455 -0.04705875739 -0.274853617 2.347161195e-38
-0.1330550611 -0.04911827296 -0.2432040423 2.347161195e-38
-0.1262172014 -0.05044513568 -0.226962924 2.347161195e-38
-0.09634965658 -0.05473835021 -0.1683553904 2.347161195e-38
-0.1123665869 -0.04686056077 -0.254435271 2.347161195e-38
-0.09880764037 -0.05025236309 -0.2200917006 2.347161195e-38
-0.1180959418 -0.05449242517 -0.1951627284 2.347161195e-38
-0.1053658649 -0.05196993425 -0.2018796951 2.347161195e-38
-0.05283949897 -0.04256112874 -0.1376114935 2.346801622e-38
0.04235217348 -0.05222213641 -0.04303889349 2.346801622e-38
-0.01990655437 -0.0467514433 -0.1679241061 2.346801622e-38
-0.08120723814 -0.04213571176 -0.1454069167 2.346801622e-38
-0.111166507 -0.04613345489 -0.07015062869 2.346801622e-38
-0.009198491462 -0.04768265411 -0.1689305902 2.346801622e-38
-0.08395581692 -0.04665134102 -0.2004364878 2.346801622e-38
-0.07335174084 -0.04727448151 -0.2025991231 2.346801622e-38
-0.05413802713 -0.047769811 -0.08483662456 2.346801622e-38
0.0326975286 -0.04967250675 -0.07772856951 2.346801622e-38
-0.0398718901 -0.04541543871 -0.1600262076 2.346801622e-38
-0.0802410692 -0.04314585775 -0.1637263596 2.346801622e-38
-0.04922520369 -0.04751975834 -0.08904221654 2.346801622e-38
0.03168243915 -0.05072984099 -0.04556541517 2.346801622e-38
-0.02716617286 -0.04457553104 -0.1479334086 2.346801622e-38
-0.08294744045 -0.04262348637 -0.1553242654 2.346801622e-38
-0.054519739 -0.04812959582 -0.07792124152 2.346801622e-38
0.03253684193 -0.04945242777 -0.08246349543 2.346801622e-38
-0.04225194827 -0.04714627191 -0.1857599616 2.346801622e-38
-0.08459848166 -0.04395757988 -0.1716649532 2.346801622e-38
-0.05451979488 -0.04812958464 -0.07792122662 2.346801622e-38
0.03253684193 -0.04945242405 -0.0824637264 2.346801622e-38
-0.04225202277 -0.04714625701 -0.1857600212 2.346801622e-38
-0.0845984593 -0.04395758733 -0.1716650128 2.346801622e-38
-0.05457251146 -0.04812804982 -0.07789942622 2.346801622e-38
0.03251703084 -0.04944222048 -0.08265917748 2.346801622e-38
-0.04235800728 -0.04714493826 -0.1858230978 2.346801622e-38
-0.08458872885 -0.043960087 -0.1716978103 2.346801622e-38
-0.05210762843 -0.04300462455 -0.1313335001 2.346801622e-38
0.0378982015 -0.05440116674 -0.01382885594 2.346801622e-38
-0.02462637238 -0.04647212476 -0.167910099 2.346801622e-38
-0.08533978462 -0.04213646427 -0.1478739977 2.346801622e-38
0.08113273978 -0.05021115765 0.05207062885 2.346406175e-38
0.02428611368 -0.04304118082 0.09362518787 2.346406175e-38
-0.09952712804 -0.041050639 0.1447497308 2.346406175e-38
0.1273185164 -0.05413516238 0.04459045455 2.346406175e-38
-0.06544848531 -0.04555604979 0.1094359607 2.346406175e-38
-0.1080064774 -0.0433947593 0.180782631 2.346406175e-38
-0.2536068261 -0.0472433418 0.0494764559 2.346406175e-38
0.001386134885 -0.04359347746 0.1286228448 2.346406175e-38
0.03108308278 -0.04717513174 0.08878768235 2.346406175e-38
-0.04532011226 -0.04133970663 0.1467102766 2.346406175e-38
-0.2062352002 -0.04735976085 0.09100309014 2.346406175e-38
0.07538346946 -0.04873442277 0.06550566852 2.346406175e-38
0.0387201719 -0.04645277187 0.07980328798 2.346406175e-38
-0.03299878165 -0.04134199023 0.1422297657 2.346406175e-38
-0.1777708232 -0.04674093053 0.1132131964 2.346406175e-38
0.08672630787 -0.04952543974 0.05503731221 2.346406175e-38
0.03240293264 -0.0450791046 0.07513640821 2.346406175e-38
-0.05850170553 -0.0408811532 0.1573552936 2.346406175e-38
-0.1908995211 -0.04621720314 0.1003817692 2.346406175e-38
0.07151336223 -0.04752112553 0.06901565939 2.346406175e-38
0.03240283579 -0.04507908598 0.07513649017 2.346406175e-38
-0.05850180984 -0.04088114202 0.1573553532 2.346406175e-38
-0.1908995956 -0.04621719569 0.1003816947 2.346406175e-38
0.07151328772 -0.04752112925 0.0690157786 2.346406175e-38
0.03234744072 -0.04507891834 0.0751684159 2.346406175e-38
-0.05858889222 -0.04087907448 0.1574009806 2.346406175e-38
-0.1910155565 -0.04621889815 0.1002872437 2.346406175e-38
0.07147256285 -0.04751596227 0.06908846647 2.346406175e-38
0.05760557577 -0.04657258838 0.0635727495 2.346406175e-38
0.01349465549 -0.04389119893 0.1162548661 2.346406175e-38
-0.1144443676 -0.04225054383 0.1523036063 2.346406175e-38
0.1180330962 -0.0526326485 0.04678540304 2.346406175e-38
-0.07233174145 -0.05328573659 -0.02980380505 2.346010729e-38
-0.184032917 -0.05008839443 -0.03261490166 2.346010729e-38
-0.2569682896 -0.05045460165 -0.02760419995 2.346010729e-38
-0.05454858765 -0.05626984686 -0.02932527103 2.346010729e-38
-0.1687749326 -0.05324224383 -0.03156108409 2.346010729e-38
-0.2592795491 -0.05804869533 -0.006911786273 2.346010729e-38
-0.3615390956 -0.03612003475 0.001867780113 2.346010729e-38
0.1029610112 -0.07071819156 -0.0320299007 2.346010729e-38
-0.1311701238 -0.05112957582 -0.03147343919 2.346010729e-38
-0.2123950273 -0.05625261366 -0.02840299904 2.346010729e-38
-0.3018912673 -0.04720906541 -0.01456780452 2.346010729e-38
0.02317122556 -0.07306150347 -0.02792853862 2.346010729e-38
-0.1152625233 -0.05081082135 -0.03082761168 2.346010729e-38
-0.2008869946 -0.05394547805 -0.03067865223 2.346010729e-38
-0.2817310095 -0.05060153827 -0.02024049684 2.346010729e-38
0.01132889837 -0.07164309174 -0.02813525498 2.346010729e-38
-0.133343786 -0.05164028704 -0.03132075071 2.346010729e-38
-0.2135858685 -0.0573438555 -0.0277086366 2.346010729e-38
-0.3130629957 -0.04541139305 -0.01315394137 2.346010729e-38
0.03547783569 -0.07502286881 -0.02762727253 2.346010729e-38
-0.1333438456 -0.05164028704 -0.03132074699 2.346010729e-38
-0.2135860026 -0.0573438704 -0.02770862542 2.346010729e-38
-0.3130632043 -0.04541137815 -0.01315389294 2.346010729e-38
0.0354779847 -0.07502289861 -0.02762727626 2.346010729e-38
-0.1334046423 -0.05164204165 -0.03132179379 2.346010729e-38
-0.2136399448 -0.05735492334 -0.02769642323 2.346010729e-38
-0.3131482303 -0.04539768398 -0.0131301824 2.346010729e-38
0.03557094187 -0.07503476739 -0.02762567438 2.346010729e-38
-0.08435301483 -0.05194137618 -0.02999211662 2.346010729e-38
-0.1919251084 -0.05068010464 -0.03257067502 2.346010729e-38
-0.2662086487 -0.05181664601 -0.0249823723 2.346010729e-38
-0.04540811479 -0.05692948774 -0.02929548547 2.346010729e-38
0.130149588 -0.01670252159 0.004003644921 2.345615283e-38
0.1064582989 -0.01909018122 0.008307009004 2.345615283e-38
0.1864435822 -0.01950329542 0.01134397369 2.345615283e-38
0.001389360987 -0.01389372349 0.00424682023 2.345615283e-38
0.08876203001 -0.01477978751 0.004682938568 2.345615283e-38
-0.07140798867 -0.01315707806 -0.003368331352 2.345615283e-38
0.3387562037 -0.02817492932 0.01506154705 2.345615283e-38
-0.2210570425 -0.01719014905 -0.01029830519 2.345615283e-38
0.2114599198 -0.01692841202 0.003893163987 2.345615283e-38
0.03816387802 -0.0143260248 0.00136089616 2.345615283e-38
0.2780357301 -0.02200202085 0.0132655669 2.345615283e-38
-0.1028291136 -0.01251563616 -0.001501290826 2.345615283e-38
0.2025332004 -0.01686424389 0.004691903479 2.345615283e-38
0.05141019449 -0.01490830444 0.001715535531 2.345615283e-38
0.2571914494 -0.02126104385 0.0140947476 2.345615283e-38
-0.07902558893 -0.01246677525 -0.0005863606348 2.345615283e-38
0.2015945464 -0.01641828567 0.004978444427 2.345615283e-38
0.01984113082 -0.01424769778 0.0008846407291 2.345615283e-38
0.2895126343 -0.02298993059 0.0131728109 2.345615283e-38
-0.1362603158 -0.01287211198 -0.00286668865 2.345615283e-38
0.2015944272 -0.01641826332 0.004978429526 2.345615283e-38
0.01984105632 -0.01424772758 0.0008846370038 2.345615283e-38
0.2895126939 -0.02298993804 0.01317281462 2.345615283e-38
