# .PCD v0.7 - Point Cloud Data file format
VERSION 0.7
FIELDS x y z rgb
SIZE 4 4 4 4
TYPE F F F F
COUNT 1 1 1 1
WIDTH 804
HEIGHT 1
VIEWPOINT 0 0 0 1 0 0 0
POINTS 804
DATA ascii
-0.04592811316 -0.05373951793 0.1956285983 6.698542971e-39
-0.07706000656 -0.04996491969 0.2524960637 6.698542971e-39
0.001293911831 -0.06365679204 0.125364691 6.698542971e-39
-0.1166825965 -0.05244863778 0.2786091864 6.698542971e-39
-0.03372046724 -0.05564401671 0.17278409 6.698542971e-39
-0.07832925022 -0.0502383858 0.255148083 6.698542971e-39
-0.001298583345 -0.06283710152 0.1274912655 6.698542971e-39
-0.1142581701 -0.05256779864 0.2799035311 6.698542971e-39
-0.03954873234 -0.05433702096 0.1833675206 6.698542971e-39
-0.07213264704 -0.05090694875 0.2396561354 6.698542971e-39
-0.01270801667 -0.06021772698 0.1417472064 6.698542971e-39
-0.1051429212 -0.0517783165 0.2758588195 6.698542971e-39
-0.04623674974 -0.05408381298 0.195650816 6.698542971e-39
-0.071250543 -0.05065682158 0.2376604825 6.698542971e-39
-0.02123448998 -0.05707286671 0.1527569294 6.698542971e-39
-0.09576045722 -0.0516390875 0.2698974907 6.698542971e-39
-0.04653410614 -0.05411422625 0.1960502267 6.698542971e-39
-0.07843578607 -0.05132830888 0.2566047013 6.698542971e-39
-0.001427217387 -0.06194891781 0.1281351149 6.698542971e-39
-0.1097745001 -0.05286992341 0.2798463404 6.698542971e-39
-0.02951876633 -0.05670314655 0.1649039239 6.698542971e-39
-0.07335596532 -0.05304443464 0.2447857559 6.698542971e-39
0.0009420138667 -0.06399185956 0.1244361028 6.698542971e-39
-0.1075655073 -0.05359202251 0.2812984586 6.698542971e-39
-0.04562726617 -0.0543009527 0.1937358975 6.698542971e-39
-0.06379826367 -0.05249699205 0.2235438973 6.698542971e-39
-0.04432307929 -0.0539891161 0.1917245984 6.698542971e-39
0.04820451513 -0.07747901976 0.01280243043 7.434656265e-39
-0.2001599073 -0.07688288391 -0.0006856023101 7.434656265e-39
-0.09443023801 -0.08155497909 -0.0110432636 7.434656265e-39
-0.08266156167 -0.07911130041 0.01240538526 7.434656265e-39
0.01451771054 -0.07546183467 0.03183821589 7.434656265e-39
-0.172143057 -0.07763256133 0.008148817345 7.434656265e-39
-0.01081108674 -0.07990925759 0.02000102401 7.434656265e-39
-0.1507362425 -0.07918352634 0.005588860717 7.434656265e-39
0.05001049861 -0.06759725511 0.04901444539 7.434656265e-39
-0.2402017415 -0.07404030114 -0.0077840304 7.434656265e-39
0.0009097305592 -0.07952423394 0.02032622136 7.434656265e-39
-0.1372090727 -0.07914359123 0.004399643745 7.434656265e-39
0.04043763876 -0.06656836718 0.05694042519 7.434656265e-39
-0.2361484915 -0.07427424192 -0.005768324714 7.434656265e-39
-0.06954728067 -0.08122242987 -0.004122502171 7.434656265e-39
-0.117419675 -0.07874753326 0.00744747743 7.434656265e-39
-0.02453876846 -0.0796482563 0.01817874052 7.434656265e-39
-0.2210235596 -0.07483907044 -0.0003917514987 7.434656265e-39
-0.07311213017 -0.08282434195 -0.01252476964 7.434656265e-39
-0.1004396453 -0.07920923084 0.004604843445 7.434656265e-39
-0.06169307232 -0.0791067481 0.01462421566 7.434656265e-39
-0.2043927461 -0.07557694614 0.004056416452 7.434656265e-39
-0.01536881644 -0.08222012222 0.001616297755 7.434656265e-39
-0.1429551691 -0.07923156768 0.001978484215 7.434656265e-39
0.04220439494 -0.06743917614 0.0525168553 7.434656265e-39
-0.2572418153 -0.07207240909 -0.007762037683 7.434656265e-39
-0.02783533745 -0.08334468305 -0.009647547267 7.434656265e-39
-0.1371360272 -0.07892107964 0.006138083525 7.434656265e-39
-0.007459137123 -0.0775365606 0.02790367231 7.434656265e-39
-0.2431299388 -0.07325781137 -0.003981733229 7.434656265e-39
-0.1147532761 -0.08377875388 -0.02523686364 7.434656265e-39
-0.02408778295 -0.08320900053 -0.007602977101 7.434656265e-39
0.07223577797 -0.03449173272 0.01794306561 8.170410826e-39
0.06120189279 -0.05222423747 0.03004737757 8.170410826e-39
0.1317132711 -0.031200286 0.01541165449 8.170410826e-39
-0.01021066587 -0.05845511332 0.08140483499 8.170410826e-39
0.08435706049 -0.04271146655 0.02236178145 8.170410826e-39
0.1191160604 -0.0455853641 0.02476383932 8.170410826e-39
0.235893786 -0.03436779603 0.01469894405 8.170410826e-39
-0.08556972444 -0.0572566092 0.1586575657 8.170410826e-39
0.1339997798 -0.03589073941 0.01810599491 8.170410826e-39
0.06450358778 -0.05403396115 0.03151902184 8.170410826e-39
0.2436470836 -0.03472551331 0.01454847492 8.170410826e-39
-0.06280209869 -0.0592635572 0.1337096989 8.170410826e-39
0.1821059138 -0.03343514353 0.0157289356 8.170410826e-39
0.07057037205 -0.05273250118 0.0296502877 8.170410826e-39
0.2269240767 -0.03350436687 0.01458878163 8.170410826e-39
-0.01848201081 -0.05921928212 0.09230238944 8.170410826e-39
0.1178054363 -0.0426138714 0.02220082469 8.170410826e-39
0.09274392575 -0.04778024927 0.02688443102 8.170410826e-39
0.2191172689 -0.03329370916 0.01469738781 8.170410826e-39
-0.007417587563 -0.05859455466 0.08204481006 8.170410826e-39
0.09710345417 -0.04464532435 0.02393848449 8.170410826e-39
0.08429151028 -0.04707777873 0.02629866451 8.170410826e-39
0.2717325389 -0.0366076231 0.01436840184 8.170410826e-39
-0.03200971335 -0.05974191055 0.1026750281 8.170410826e-39
0.1905276775 -0.03370987624 0.01570076309 8.170410826e-39
0.05040597916 -0.0546678938 0.03323543444 8.170410826e-39
0.2763099968 -0.0359021686 0.01378144976 8.170410826e-39
-0.06420326233 -0.05910653993 0.1358288825 8.170410826e-39
0.1621087193 -0.03575186804 0.01742915064 8.170410826e-39
0.06791397929 -0.05193350837 0.02897843532 8.170410826e-39
0.2470843643 -0.03482306749 0.01446337719 8.170410826e-39
0.02362409234 -0.05729214847 0.05701322481 8.170410826e-39
-0.0184566509 -0.05827126652 0.1290005594 8.906165387e-39
-0.09937959164 -0.0570278056 0.1752985865 8.906165387e-39
-0.05913979933 -0.05978376791 0.1630007774 8.906165387e-39
-0.1125050932 -0.05510729924 0.1988436133 8.906165387e-39
-0.0168275293 -0.05927303433 0.1309595704 8.906165387e-39
-0.0847600922 -0.05864463001 0.1410952508 8.906165387e-39
-0.1170984656 -0.05452807993 0.2105753422 8.906165387e-39
-0.1506905258 -0.05269658938 0.2531116605 8.906165387e-39
-0.02784098685 -0.0613822937 0.1387731135 8.906165387e-39
-0.1092318892 -0.05574886501 0.185145095 8.906165387e-39
-0.1149355695 -0.0547157079 0.212093845 8.906165387e-39
-0.15027982 -0.05278860778 0.2585178316 8.906165387e-39
-0.03836722672 -0.06102048606 0.1434116364 8.906165387e-39
-0.1116156504 -0.0557583496 0.1830025464 8.906165387e-39
-0.09208842367 -0.0571429953 0.1834727824 8.906165387e-39
-0.1425984055 -0.05261623859 0.2222365588 8.906165387e-39
-0.03836722672 -0.06102048606 0.1434116364 8.906165387e-39
-0.09436643124 -0.05729410052 0.1760823429 8.906165387e-39
-0.07140275091 -0.05849954486 0.1813999265 8.906165387e-39
-0.1354881823 -0.05259986594 0.2289435565 8.906165387e-39
-0.03287434205 -0.06118954718 0.1409378946 8.906165387e-39
-0.09224194288 -0.05747469515 0.1768152416 8.906165387e-39
-0.09144260734 -0.05539833382 0.2107694149 8.906165387e-39
-0.1511256248 -0.05267176405 0.2529855371 8.906165387e-39
-0.04716425389 -0.0606565848 0.1570911407 8.906165387e-39
-0.130392164 -0.05404141173 0.1953717917 8.906165387e-39
-0.1168651357 -0.05442186445 0.2081982344 8.906165387e-39
-0.1495067179 -0.0525065735 0.2415117919 8.906165387e-39
-0.05633576587 -0.0600772202 0.1638146937 8.906165387e-39
-0.1259187162 -0.05436048657 0.1933370382 8.906165387e-39
-0.05485864356 -0.06029202789 0.1750501692 8.906165387e-39
-0.1104364395 -0.05533542112 0.1937587261 8.906165387e-39
0.02343641222 -0.03622935712 0.02884601429 9.641561216e-39
-0.03564093262 -0.06005204469 0.04944871739 9.641561216e-39
-0.1302178651 -0.0368183963 0.03141644597 9.641561216e-39
-0.2872093916 -0.03844596073 0.02895555831 9.641561216e-39
0.04604944214 -0.03317685053 0.02683310397 9.641561216e-39
-0.02164800465 -0.06262820214 0.05263405666 9.641561216e-39
-0.2185348719 -0.03411017358 0.02900999226 9.641561216e-39
-0.3599318266 -0.03389032185 0.01555471588 9.641561216e-39
-0.09147986025 -0.03359949589 0.03049064428 9.641561216e-39
-0.109849669 -0.05276969075 0.04320525005 9.641561216e-39
-0.230892241 -0.03591978922 0.02943172865 9.641561216e-39
-0.3540681005 -0.03282643482 0.01417966466 9.641561216e-39
-0.11640843 -0.0339233689 0.03043516725 9.641561216e-39
-0.07075943798 -0.04744606465 0.0379524231 9.641561216e-39
-0.1638240963 -0.03474222496 0.03022546321 9.641561216e-39
-0.3398418128 -0.0353282094 0.01861906238 9.641561216e-39
-0.04196189344 -0.03541555628 0.03053842671 9.641561216e-39
0.01817745902 -0.03992415592 0.03015627339 9.641561216e-39
-0.1286973953 -0.03569681942 0.03099060617 9.641561216e-39
-0.3101949394 -0.03744714335 0.02559516951 9.641561216e-39
-0.01536839921 -0.03600333631 0.02997692116 9.641561216e-39
0.03099225089 -0.04037920758 0.02995215543 9.641561216e-39
-0.2214320749 -0.0352178961 0.02934093215 9.641561216e-39
-0.3562083542 -0.03581883013 0.01783509739 9.641561216e-39
-0.09121952206 -0.03744742647 0.03195801377 9.641561216e-39
-0.07735044509 -0.04433692247 0.0355376713 9.641561216e-39
-0.2130788714 -0.03734481335 0.03021260723 9.641561216e-39
-0.3546129167 -0.03498499095 0.01726651751 9.641561216e-39
-0.06767836958 -0.03532759473 0.03105988912 9.641561216e-39
-0.03214618564 -0.03877554089 0.03099815361 9.641561216e-39
-0.078663297 -0.03621027246 0.03143407032 9.641561216e-39
-0.2921844721 -0.04032180458 0.03021039627 9.641561216e-39
-0.05282230675 -0.06020745263 0.2007832378 1.037659831e-38
0.02841112018 -0.07601136714 0.04407357052 1.037659831e-38
-0.04406286031 -0.06402532011 0.1662655473 1.037659831e-38
0.131845504 -0.07919564098 0.01172356959 1.037659831e-38
-0.04863037542 -0.06468845904 0.1429448426 1.037659831e-38
-0.02780899033 -0.07230181247 0.08948104829 1.037659831e-38
-0.01832694188 -0.07228451967 0.1107989103 1.037659831e-38
0.265530169 -0.0835846439 0.01354697905 1.037659831e-38
-0.06550338864 -0.05860928446 0.2161440998 1.037659831e-38
0.09113223106 -0.07953570038 0.02166028507 1.037659831e-38
-0.01922767609 -0.07211025059 0.1127183437 1.037659831e-38
0.251499474 -0.08313585818 0.01300337259 1.037659831e-38
-0.0561029911 -0.05972685665 0.2008610815 1.037659831e-38
0.06530076265 -0.07776565105 0.03134834766 1.037659831e-38
-0.03851887584 -0.06659378856 0.1473456174 1.037659831e-38
0.2210507095 -0.08296049386 0.01256073546 1.037659831e-38
-0.05783206224 -0.05872704089 0.2104045749 1.037659831e-38
-0.008524702862 -0.07459616661 0.07419250906 1.037659831e-38
-0.04163944349 -0.06691232324 0.153501302 1.037659831e-38
0.1842695624 -0.08024864644 0.01218941808 1.037659831e-38
-0.05164159462 -0.06184125692 0.1837662011 1.037659831e-38
-0.01820025034 -0.07392493635 0.08080328256 1.037659831e-38
-0.02504462749 -0.07176155597 0.11695043 1.037659831e-38
0.2304344475 -0.08186522871 0.01212555729 1.037659831e-38
-0.06127562001 -0.05824247375 0.2141345441 1.037659831e-38
0.07352927327 -0.07832893729 0.02850788459 1.037659831e-38
-0.03496239707 -0.06766314059 0.1408865303 1.037659831e-38
0.2560644448 -0.08385331929 0.01377782226 1.037659831e-38
-0.07042121887 -0.05774788186 0.215858683 1.037659831e-38
0.03875514492 -0.07641126961 0.04261982068 1.037659831e-38
-0.04611684009 -0.06245484576 0.1803658456 1.037659831e-38
0.156085521 -0.08164861053 0.01172867976 1.037659831e-38
0.03553694487 -0.03870521486 -0.03467045724 1.111163541e-38
0.008808973245 -0.030900741 -0.03163191676 1.111163541e-38
-0.09126646817 -0.03029230982 -0.03272011504 1.111163541e-38
0.1536090821 -0.02433907986 -0.0228366591 1.111163541e-38
0.01786062121 -0.03489005193 -0.03291567042 1.111163541e-38
0.01256067585 -0.02878929116 -0.03066141345 1.111163541e-38
-0.1701484472 -0.02854347415 -0.03016138263 1.111163541e-38
0.269505173 -0.02484895475 -0.01569703594 1.111163541e-38
0.02845099755 -0.03955864161 -0.03520675004 1.111163541e-38
0.08274918795 -0.02704442106 -0.02858420834 1.111163541e-38
-0.186484769 -0.03093472309 -0.03071101755 1.111163541e-38
0.2641578317 -0.02423121408 -0.01559232827 1.111163541e-38
-0.01352240425 -0.03386783227 -0.03330143169 1.111163541e-38
0.0513240695 -0.02713407762 -0.02934079431 1.111163541e-38
-0.1589535326 -0.02678472549 -0.02989190072 1.111163541e-38
0.215686366 -0.02439413033 -0.01922881417 1.111163541e-38
-0.02623268962 -0.02969042398 -0.03213701025 1.111163541e-38
0.02339926921 -0.02602569386 -0.02914164774 1.111163541e-38
-0.1552848518 -0.02837763354 -0.03056550212 1.111163541e-38
0.1821295619 -0.02506707981 -0.02230587788 1.111163541e-38
-0.05430897325 -0.02673820965 -0.03121636622 1.111163541e-38
0.009273472242 -0.02537547052 -0.02884839289 1.111163541e-38
-0.1877234876 -0.03167456761 -0.03089262359 1.111163541e-38
0.2265704274 -0.02451962046 -0.01839360595 1.111163541e-38
-0.04299466684 -0.02803841978 -0.03162782639 1.111163541e-38
0.1115772948 -0.02519353293 -0.02610003762 1.111163541e-38
-0.1854443103 -0.03265190497 -0.03133575246 1.111163541e-38
0.2499558032 -0.02570432052 -0.0174286589 1.111163541e-38
-0.02377695963 -0.02732156217 -0.03096214868 1.111163541e-38
0.04740155861 -0.02650094777 -0.02915304527 1.111163541e-38
-0.1356253177 -0.02939864993 -0.03154341877 1.111163541e-38
0.1188851744 -0.02558548562 -0.02580463514 1.111163541e-38
0.03052039817 -0.08252990246 -0.02781731263 1.184631237e-38
-0.1974670142 -0.07325877994 -0.004555730149 1.184631237e-38
0.06367638707 -0.08355142176 -0.02976839431 1.184631237e-38
-0.2193906009 -0.06492847949 -0.02274771221 1.184631237e-38
-0.1013325155 -0.07340925932 -0.032190945 1.184631237e-38
-0.1178184897 -0.07858229429 -0.007377550472 1.184631237e-38
0.1654930711 -0.08592021465 -0.01841705665 1.184631237e-38
-0.08684275299 -0.07347662747 -0.03554537147 1.184631237e-38
0.02410379238 -0.08191411197 -0.02824033052 1.184631237e-38
0.01814591698 -0.08342733234 -0.01620931551 1.184631237e-38
0.153183803 -0.08525874466 -0.0200241711 1.184631237e-38
-0.1403514594 -0.07008519024 -0.03264942765 1.184631237e-38
0.03429628164 -0.08247450739 -0.0266421549 1.184631237e-38
-0.006443135906 -0.08274810761 -0.01442336105 1.184631237e-38
0.04008847475 -0.08203810453 -0.0312618725 1.184631237e-38
-0.1791423708 -0.06760124117 -0.02818739042 1.184631237e-38
-0.02958563529 -0.08003171533 -0.02502838708 1.184631237e-38
-0.08946755528 -0.07962249964 -0.009791135788 1.184631237e-38
0.03311542422 -0.08172748983 -0.03101064265 1.184631237e-38
-0.201314643 -0.06601900607 -0.02504783683 1.184631237e-38
-0.03673098981 -0.07968909293 -0.02514956892 1.184631237e-38
-0.09939329326 -0.07960058749 -0.009176219814 1.184631237e-38
0.100885734 -0.08402974904 -0.02571930364 1.184631237e-38
-0.1366005391 -0.06984828413 -0.03404854983 1.184631237e-38
0.06862950325 -0.08400996029 -0.0200348068 1.184631237e-38
0.005370408762 -0.0833478421 -0.01377081219 1.184631237e-38
0.1243213564 -0.08165704459 -0.02956308052 1.184631237e-38
-0.08354504406 -0.07461947948 -0.03396074846 1.184631237e-38
0.08355312794 -0.08511048555 -0.02070318907 1.184631237e-38
-0.008475406095 -0.08245337754 -0.01520275138 1.184631237e-38
0.02073661983 -0.08192171156 -0.03088987246 1.184631237e-38
-0.2481547445 -0.06308402121 -0.02032168582 1.184631237e-38
-0.3484469652 -0.02848737873 0.002784719924 1.258099074e-38
-0.2394931763 -0.02254449762 0.001949416357 1.258099074e-38
-0.349835068 -0.02275226265 0.002278589876 1.258099074e-38
-0.3473691046 -0.03329381347 0.00301879691 1.258099074e-38
-0.3467333913 -0.03251193091 0.002756060334 1.258099074e-38
-0.2500280142 -0.01684257574 0.002386172535 1.258099074e-38
-0.3595577776 0.007361427881 -0.0007078362396 1.258099074e-38
-0.3272509277 -0.01932583004 0.001745486283 1.258099074e-38
-0.3224822581 -0.003445998998 0.0009655767935 1.258099074e-38
-0.2097085267 -0.03208531067 0.003811561968 1.258099074e-38
-0.3598312736 0.007506065536 -0.0008282142808 1.258099074e-38
-0.3443149626 -0.02673599496 0.001940180431 1.258099074e-38
-0.3073890209 -0.005332523491 0.001312857261 1.258099074e-38
-0.1914815903 -0.04045964777 0.006397002377 1.258099074e-38
-0.3552326858 0.005188358948 1.270510256e-05 1.258099074e-38
-0.3521605134 0.01464943867 -0.002831737278 1.258099074e-38
-0.304174006 -0.005089373328 0.001385865733 1.258099074e-38
-0.2025483251 -0.03922476992 0.00594395306 1.258099074e-38
-0.3466180563 0.002934387885 0.0005782334483 1.258099074e-38
-0.3540054262 0.02215714194 -0.004577320535 1.258099074e-38
-0.2873616517 -0.007774628699 0.001830897061 1.258099074e-38
-0.2084669769 -0.03698705509 0.005302471109 1.258099074e-38
-0.3585082889 0.01448149327 -0.001949685044 1.258099074e-38
-0.3417616785 0.02090235241 -0.005830373615 1.258099074e-38
-0.2975274324 -0.006162267178 0.001634010114 1.258099074e-38
-0.1595921814 -0.04954575375 0.01036989503 1.258099074e-38
-0.3586512208 0.01492452063 -0.001870984328 1.258099074e-38
-0.310231328 0.01375581697 -0.01169191767 1.258099074e-38
-0.3041976392 -0.004621010739 0.001514934236 1.258099074e-38
-0.1689669192 -0.04867227376 0.009718728252 1.258099074e-38
-0.3410566449 0.005223494954 0.0005977493129 1.258099074e-38
-0.3541425169 0.02702588215 -0.004595716018 1.258099074e-38
-0.2671840191 -0.07009222358 -0.02734118886 1.331530897e-38
-0.1608106792 -0.08796153218 -0.003588109743 1.331530897e-38
-0.2560491562 -0.08855101466 -0.008975666948 1.331530897e-38
-0.08898895979 -0.08675663918 -0.00257573463 1.331530897e-38
-0.2438001931 -0.08025540411 -0.01950783096 1.331530897e-38
-0.2415204346 -0.08804699779 -0.00701609673 1.331530897e-38
-0.3463273644 -0.0668861866 -0.01538249943 1.331530897e-38
0.07585473359 -0.08464992046 0.008229621686 1.331530897e-38
-0.2852300406 -0.06747801602 -0.02749372087 1.331530897e-38
-0.08888272196 -0.08849307895 0.003761825152 1.331530897e-38
-0.3313233852 -0.07134981453 -0.01335100457 1.331530897e-38
0.06002107635 -0.08533810824 0.009371452965 1.331530897e-38
-0.2888014913 -0.06963948905 -0.02470763028 1.331530897e-38
-0.1164553836 -0.08760104328 0.0002668499947 1.331530897e-38
-0.3072308302 -0.07839154452 -0.009901468642 1.331530897e-38
0.0254549142 -0.08676378429 0.00490716612 1.331530897e-38
-0.2815291286 -0.0737760216 -0.02025233395 1.331530897e-38
-0.1814800203 -0.08824681491 -0.006475373171 1.331530897e-38
-0.2858537138 -0.08302484453 -0.007799839601 1.331530897e-38
-0.06429231167 -0.08753732592 0.0005818157806 1.331530897e-38
-0.2610054612 -0.07848808169 -0.01844030246 1.331530897e-38
-0.198979184 -0.08862493187 -0.006592342164 1.331530897e-38
-0.3284464777 -0.07379373163 -0.01006762963 1.331530897e-38
0.02632003278 -0.08707176894 0.006550516468 1.331530897e-38
-0.294339776 -0.06966069341 -0.02383918129 1.331530897e-38
-0.1231174022 -0.08783704042 0.000246822834 1.331530897e-38
-0.3351844549 -0.06972548366 -0.01518782414 1.331530897e-38
0.05132437497 -0.08578708023 0.009131460451 1.331530897e-38
-0.300676167 -0.0708001107 -0.02167641558 1.331530897e-38
-0.1372178644 -0.08776319772 -0.003058483591 1.331530897e-38
-0.2792443335 -0.08373370022 -0.008529352024 1.331530897e-38
-0.1141930744 -0.08630634099 -0.006603592075 1.331530897e-38
0.1499649137 -0.02898768149 -0.01153581496 1.404926846e-38
0.2201800644 -0.04100139439 -0.01294805389 1.404926846e-38
-0.01695664413 -0.01716660522 -0.00880099088 1.404926846e-38
0.2068769336 -0.03973803669 -0.01249299385 1.404926846e-38
0.07949712873 -0.02115503885 -0.0106002856 1.404926846e-38
0.1606024355 -0.03429342434 -0.01195299719 1.404926846e-38
-0.1171329543 -0.01466116309 -0.004882978741 1.404926846e-38
0.1911831349 -0.03564754874 -0.01267029718 1.404926846e-38
0.007825504988 -0.01974496618 -0.009078018367 1.404926846e-38
0.1170094386 -0.02668705769 -0.01099104527 1.404926846e-38
-0.1702903807 -0.015737582 -0.006126032677 1.404926846e-38
0.1383601725 -0.02835679427 -0.01093101501 1.404926846e-38
-0.009303979576 -0.01769588143 -0.008559342474 1.404926846e-38
0.006382579915 -0.01625516079 -0.008477816358 1.404926846e-38
-0.1401933283 -0.0150624821 -0.004770622589 1.404926846e-38
0.1064308584 -0.0177468732 -0.007665823214 1.404926846e-38
-0.02403064445 -0.01494632382 -0.007693328895 1.404926846e-38
0.004138892982 -0.01457435265 -0.008557830006 1.404926846e-38
-0.1873381883 -0.01670219377 -0.006691471674 1.404926846e-38
0.09210070968 -0.01621964574 -0.007554562297 1.404926846e-38
-0.03080660664 -0.01456484757 -0.007702164818 1.404926846e-38
0.03451902792 -0.01506027672 -0.009083524346 1.404926846e-38
-0.2450570464 -0.01524953824 -0.0098948339 1.404926846e-38
0.140635103 -0.02307791263 -0.007338507567 1.404926846e-38
-0.01234348398 -0.01421787124 -0.008038239554 1.404926846e-38
0.04464425519 -0.014407048 -0.009173288941 1.404926846e-38
-0.1617621183 -0.01375775412 -0.006492177024 1.404926846e-38
0.2121870667 -0.03260068595 -0.009423048235 1.404926846e-38
0.02892134525 -0.01357346121 -0.008777061477 1.404926846e-38
0.118683666 -0.01675436273 -0.009219069034 1.404926846e-38
-0.1028745696 -0.01387308165 -0.005143027287 1.404926846e-38
0.06902036816 -0.01426447276 -0.008576447144 1.404926846e-38
-0.2055009305 0.01464246586 -0.0002242550254 1.478322936e-38
-0.2108612061 0.00858017616 -0.01498414017 1.478322936e-38
-0.001091956627 -0.0428856425 -0.03218716383 1.478322936e-38
-0.09073574841 -0.02227402851 -0.02511771023 1.478322936e-38
-0.2283643931 0.02209139988 0.005286484957 1.478322936e-38
-0.1945950091 0.005247865338 -0.0152809741 1.478322936e-38
0.08118660748 -0.05775876343 -0.03639182448 1.478322936e-38
-0.1626289636 -0.003875325667 -0.01892837323 1.478322936e-38
-0.1502262801 -0.002577254316 -0.01281547826 1.478322936e-38
-0.2297857404 0.01257631928 -0.01424794924 1.478322936e-38
0.09604945779 -0.05878893286 -0.03625942394 1.478322936e-38
-0.1527283937 -0.006194229238 -0.02020300366 1.478322936e-38
-0.08320798725 -0.0193728786 -0.02359315753 1.478322936e-38
-0.2384242415 0.01397329476 -0.01392534468 1.478322936e-38
0.02848018706 -0.0511136651 -0.03489287943 1.478322936e-38
-0.1634728462 -0.006543706637 -0.02074067295 1.478322936e-38
-0.1861474216 0.004323231988 -0.0143567184 1.478322936e-38
-0.2308441103 0.01289799809 -0.01431928854 1.478322936e-38
-0.001700563589 -0.04290908203 -0.03218701482 1.478322936e-38
-0.151569739 -0.007143934723 -0.02067297697 1.478322936e-38
-0.189343363 0.005059504416 -0.01424139738 1.478322936e-38
-0.2237049043 0.0126820039 -0.01389012951 1.478322936e-38
0.05965809897 -0.05534252897 -0.03605807573 1.478322936e-38
-0.194069013 0.002127726097 -0.01806790568 1.478322936e-38
-0.0500597842 -0.02753272466 -0.0261951033 1.478322936e-38
-0.2565395534 0.01627997309 -0.01309318189 1.478322936e-38
0.06037941948 -0.0566615276 -0.03642346337 1.478322936e-38
-0.194800362 0.0005160495057 -0.01878149249 1.478322936e-38
-0.08817584068 -0.02243523858 -0.02511196584 1.478322936e-38
-0.2595729232 0.01586906798 -0.01331891492 1.478322936e-38
-0.03852330893 -0.0320780389 -0.02794632129 1.478322936e-38
-0.1557614058 -0.008383830078 -0.0212987978 1.478322936e-38
0.2587551177 -0.01852765121 -0.00304986327 1.551683013e-38
0.02243185602 -0.01050820854 -0.00695288321 1.551683013e-38
0.08826562762 -0.01142234821 -0.005995332263 1.551683013e-38
-0.1363838613 -0.01011435315 -0.01276298333 1.551683013e-38
0.2722617984 -0.01971340925 0.001600862946 1.551683013e-38
0.1199830174 -0.01368803903 -0.007961888798 1.551683013e-38
0.1765253991 -0.01513414178 -0.005225270987 1.551683013e-38
-0.1003125608 -0.009520229883 -0.009422809817 1.551683013e-38
0.2203652114 -0.01702097431 -0.006226991303 1.551683013e-38
-0.02333915979 -0.01042225678 -0.008028718643 1.551683013e-38
0.1353836805 -0.01300151553 -0.005194299854 1.551683013e-38
-0.09226512909 -0.009726674296 -0.009289207868 1.551683013e-38
0.2076966763 -0.01692611538 -0.006540812086 1.551683013e-38
-0.001465364243 -0.01101652067 -0.009005471133 1.551683013e-38
0.09891633689 -0.01214693487 -0.006331904791 1.551683013e-38
-0.04910770059 -0.01033236738 -0.008598035201 1.551683013e-38
0.2041481733 -0.01751936786 -0.007871878333 1.551683013e-38
0.09285139292 -0.0132587105 -0.009232545272 1.551683013e-38
0.106442377 -0.01341326348 -0.008151730523 1.551683013e-38
-0.08413888514 -0.01033303421 -0.01001515612 1.551683013e-38
0.2363633513 -0.01721954532 -0.005516565405 1.551683013e-38
0.09226863086 -0.01301333401 -0.008711752482 1.551683013e-38
0.1407465339 -0.01440117974 -0.007275149692 1.551683013e-38
-0.03313515708 -0.01026604604 -0.007818345912 1.551683013e-38
0.1880804449 -0.01851981878 -0.009694326669 1.551683013e-38
-0.03860220313 -0.01043673512 -0.008483254351 1.551683013e-38
0.09777182341 -0.01163594984 -0.005556855351 1.551683013e-38
-0.0712255612 -0.01021537185 -0.009102763608 1.551683013e-38
0.1862188578 -0.01660986058 -0.006860841997 1.551683013e-38
0.006115740165 -0.01058649737 -0.00753391115 1.551683013e-38
0.07975592464 -0.01161754597 -0.007077400573 1.551683013e-38
-0.04619981721 -0.0103241615 -0.008466606028 1.551683013e-38
-0.2235529423 -0.06886532903 0.03287011385 1.625043089e-38
-0.2757790387 -0.07320776582 0.01588606648 1.625043089e-38
-0.2897157967 -0.04775678739 0.03151684254 1.625043089e-38
-0.3088268042 -0.06412176788 7.184967399e-05 1.625043089e-38
-0.2907532156 -0.0409559682 0.03831436485 1.625043089e-38
-0.2708873451 -0.07186374068 0.01769715175 1.625043089e-38
-0.2148389667 -0.07701624185 0.02078562416 1.625043089e-38
-0.2333488017 -0.07838459313 0.01090609655 1.625043089e-38
-0.2355049253 -0.06900237501 0.03085972741 1.625043089e-38
-0.2864867449 -0.07114563882 0.003571081674 1.625043089e-38
-0.1763691902 -0.08012910932 0.02065530419 1.625043089e-38
-0.2331837714 -0.07747081667 0.01526622847 1.625043089e-38
-0.2299771607 -0.06778410077 0.03332211077 1.625043089e-38
-0.2858923078 -0.06922207028 0.01590999588 1.625043089e-38
-0.2497218102 -0.06471939385 0.03242848814 1.625043089e-38
-0.2340433151 -0.07631801069 0.01800183021 1.625043089e-38
-0.247187838 -0.0516589731 0.03932616115 1.625043089e-38
-0.2890118062 -0.04886112735 0.03060595877 1.625043089e-38
-0.2464056909 -0.06020641327 0.03636799008 1.625043089e-38
-0.2552776337 -0.06950180978 0.02443140186 1.625043089e-38
-0.2586535513 -0.04365602136 0.04142433777 1.625043089e-38
-0.2828071415 -0.05010164902 0.03142237663 1.625043089e-38
-0.1507233083 -0.07560027391 0.03197029978 1.625043089e-38
-0.234540984 -0.07408069074 0.02301182039 1.625043089e-38
-0.2139706165 -0.06710876524 0.03364572674 1.625043089e-38
-0.2761203945 -0.06496152282 0.02166035026 1.625043089e-38
-0.1647178829 -0.07521144301 0.03157841787 1.625043089e-38
-0.1911070645 -0.0802051127 0.01614934392 1.625043089e-38
-0.2273510993 -0.06421221048 0.03490662575 1.625043089e-38
-0.2656042278 -0.06214689091 0.02874720283 1.625043089e-38
-0.2812556326 -0.05282733962 0.0301734861 1.625043089e-38
-0.2670368552 -0.06849324703 0.02146355622 1.625043089e-38
-0.04856119677 -0.06055191904 -0.05924218521 1.698367293e-38
0.02002874389 -0.06626802683 -0.03074314632 1.698367293e-38
-0.04867365584 -0.05814429 -0.0851719752 1.698367293e-38
0.07151013613 -0.06585701555 -0.01203452051 1.698367293e-38
0.02669407986 -0.06202958152 -0.07107517123 1.698367293e-38
-0.0006078928127 -0.06667281687 -0.03971764818 1.698367293e-38
0.01157586742 -0.06328827143 -0.09188661724 1.698367293e-38
0.007650643121 -0.06656292826 -0.03312549368 1.698367293e-38
-0.1000325903 -0.05992432684 -0.06112119183 1.698367293e-38
0.00911063049 -0.063385427 -0.05344254151 1.698367293e-38
-0.004802860785 -0.06106797233 -0.09388203174 1.698367293e-38
0.00644305395 -0.06657657772 -0.03947104514 1.698367293e-38
-0.1188943386 -0.05959009752 -0.0554504618 1.698367293e-38
-0.01373779774 -0.06099087 -0.06229782104 1.698367293e-38
-0.05902196467 -0.05793935806 -0.08404233307 1.698367293e-38
0.0355412811 -0.06138670817 -0.06640625 1.698367293e-38
-0.0497274287 -0.058671128 -0.07332161069 1.698367293e-38
-0.04955367744 -0.05962993205 -0.06265635043 1.698367293e-38
-0.07640901208 -0.05832273886 -0.08679958433 1.698367293e-38
0.05464037135 -0.06164913997 -0.07010506839 1.698367293e-38
-0.02229890041 -0.05962539837 -0.06962839514 1.698367293e-38
-0.05622794852 -0.06139906496 -0.05654149875 1.698367293e-38
-0.04117762297 -0.05809652433 -0.09234454483 1.698367293e-38
0.08227329701 -0.05289465562 -0.06369540095 1.698367293e-38
-0.1227775887 -0.0593396686 -0.05143273994 1.698367293e-38
-0.002855084604 -0.06053806841 -0.06440736353 1.698367293e-38
-0.05776097625 -0.05850181729 -0.07140339911 1.698367293e-38
0.0451663062 -0.06168887019 -0.06879019737 1.698367293e-38
-0.1008551195 -0.05970526114 -0.06013714522 1.698367293e-38
-0.04186842591 -0.0594047904 -0.06477957219 1.698367293e-38
-0.1500784457 -0.05950671807 -0.07420755923 1.698367293e-38
0.05108261853 -0.06174945086 -0.06892272085 1.698367293e-38
0.07495574653 -0.05020039156 0.05505374074 1.771655483e-38
0.07325258851 -0.05545776337 0.08590307832 1.771655483e-38
0.01997932605 -0.05990688875 0.1538075954 1.771655483e-38
0.04197990149 -0.06027666852 0.131556347 1.771655483e-38
0.09372255951 -0.05042290688 0.04233072698 1.771655483e-38
0.09552544355 -0.05609990656 0.07273499668 1.771655483e-38
-0.04331959784 -0.0573483482 0.1843392253 1.771655483e-38
-0.02618530765 -0.05496012047 0.1593899876 1.771655483e-38
0.02812456153 -0.05781433731 0.1197781414 1.771655483e-38
0.05006784946 -0.05905198306 0.1155846715 1.771655483e-38
-0.05102423206 -0.05749070644 0.1862164289 1.771655483e-38
-0.02422446571 -0.05441952497 0.1551438421 1.771655483e-38
0.03517876938 -0.05878829584 0.1226387173 1.771655483e-38
0.0441829972 -0.06036219746 0.1303735673 1.771655483e-38
0.01011349075 -0.0585424006 0.1635097712 1.771655483e-38
0.008555956185 -0.05732106417 0.1438590586 1.771655483e-38
0.06538693607 -0.05873901397 0.1064444259 1.771655483e-38
0.05824671313 -0.05956088752 0.1141659617 1.771655483e-38
0.01513731666 -0.0592350997 0.1556172073 1.771655483e-38
0.03253045678 -0.05962390825 0.1325586587 1.771655483e-38
0.07795254141 -0.05943471193 0.1013185903 1.771655483e-38
0.06904144585 -0.05946389586 0.1084935144 1.771655483e-38
-0.03412653878 -0.05669822544 0.1775137335 1.771655483e-38
0.02344398759 -0.06018513069 0.147321552 1.771655483e-38
0.04203763232 -0.05923434347 0.1214026138 1.771655483e-38
0.04938554019 -0.06100760773 0.131635502 1.771655483e-38
-0.02738208324 -0.05745011568 0.1824152917 1.771655483e-38
-0.03292064369 -0.05359243974 0.1504564732 1.771655483e-38
0.04480551928 -0.05979430676 0.1260456443 1.771655483e-38
0.04780655727 -0.06178351119 0.1383711398 1.771655483e-38
0.0210328903 -0.06023611501 0.1523930728 1.771655483e-38
0.03118968196 -0.05847229436 0.1257813275 1.771655483e-38
-0.02325976454 -0.005618129391 0.0138522489 1.844943813e-38
-0.2115200013 0.0069370321 0.008885008283 1.844943813e-38
-0.1481097639 -0.005492427852 0.01151936222 1.844943813e-38
-0.3004166484 0.03202231601 -0.0007790362579 1.844943813e-38
-0.08058019727 -0.004095423501 0.01219381578 1.844943813e-38
-0.2669133544 0.02627770416 0.001766050234 1.844943813e-38
-0.04028884694 -0.006660383195 0.01412016526 1.844943813e-38
-0.2305165082 0.01419734955 0.00610872684 1.844943813e-38
0.01858829334 -0.00794801116 0.01570790634 1.844943813e-38
-0.2046967298 0.005328771658 0.009056178853 1.844943813e-38
-0.02782855555 -0.008156125434 0.01508339774 1.844943813e-38
-0.2272130996 0.0128499018 0.006802479271 1.844943813e-38
0.02047216892 -0.009007054381 0.01629493386 1.844943813e-38
-0.2184037864 0.01113825757 0.006937169004 1.844943813e-38
-0.09248565137 -0.007577167358 0.01409930084 1.844943813e-38
-0.2325611115 0.01516982168 0.00583552476 1.844943813e-38
-0.1089465693 -0.004600136541 0.01202761661 1.844943813e-38
-0.2584308386 0.02384863049 0.002805167809 1.844943813e-38
-0.07476452738 -0.01108647976 0.01630739123 1.844943813e-38
-0.2715611756 0.02652363665 0.001652447856 1.844943813e-38
-0.1699330658 -0.00145355321 0.00919879321 1.844943813e-38
-0.2510665357 0.02237747982 0.003051732434 1.844943813e-38
-0.009497296996 -0.01220937446 0.01742587611 1.844943813e-38
-0.2364056259 0.01565734856 0.006005940493 1.844943813e-38
-0.02155679278 -0.007785342634 0.01511012111 1.844943813e-38
-0.1656253487 -0.008601236157 0.01362978108 1.844943813e-38
-0.02163611911 -0.008747640066 0.01546691637 1.844943813e-38
-0.2128579021 0.00770337088 0.008643318899 1.844943813e-38
-0.004634228069 -0.008419859223 0.01559163909 1.844943813e-38
-0.1791899204 -0.004622581881 0.01270467322 1.844943813e-38
-0.1073804721 -0.009228322655 0.01480993442 1.844943813e-38
-0.2852336764 0.02924741246 -0.0002640420571 1.844943813e-38
-0.07560222596 -0.05000632629 -0.1418212354 1.91819627e-38
-0.03167276829 -0.0570553802 -0.04578077793 1.91819627e-38
-0.08951660246 -0.05088734999 -0.1256097704 1.91819627e-38
-0.06820888072 -0.05993900076 0.01278571039 1.91819627e-38
-0.0729913041 -0.04656191543 -0.2110245526 1.91819627e-38
-0.002317029517 -0.0485814251 -0.1492305547 1.91819627e-38
-0.054023467 -0.05343943462 -0.09177692235 1.91819627e-38
-0.07710618526 -0.05064185336 0.1433107555 1.91819627e-38
-0.0514434129 -0.04934545979 -0.1509775668 1.91819627e-38
-0.03212583065 -0.05827322602 -0.02492888086 1.91819627e-38
-0.04621817917 -0.05369357765 -0.09006668627 1.91819627e-38
-0.07562817633 -0.0510895662 0.1390154809 1.91819627e-38
-0.05322870985 -0.04793481901 -0.1794237643 1.91819627e-38
-0.02731419727 -0.05695717037 -0.04450616986 1.91819627e-38
-0.03566585109 -0.05112035573 -0.1227161139 1.91819627e-38
-0.07120729983 -0.05348645896 0.1168338805 1.91819627e-38
-0.062865071 -0.04697712138 -0.2052879333 1.91819627e-38
0.003431627061 -0.05004768074 -0.1182272434 1.91819627e-38
-0.03210601211 -0.05184334144 -0.1080012843 1.91819627e-38
-0.07412272692 -0.05663998425 0.07632144541 1.91819627e-38
-0.07644924521 -0.04674314335 -0.2209251672 1.91819627e-38
0.002870819997 -0.04974951968 -0.120723173 1.91819627e-38
-0.03466089442 -0.05287876725 -0.09676165879 1.91819627e-38
-0.06911144406 -0.05438454822 0.107559219 1.91819627e-38
-0.0618818514 -0.04775694385 -0.1836177856 1.91819627e-38
-0.03267666325 -0.05823711678 -0.02618039213 1.91819627e-38
-0.03035283275 -0.05176366866 -0.1122134775 1.91819627e-38
-0.06651383638 -0.05292215943 0.1233770624 1.91819627e-38
-0.05873123184 -0.04752844945 -0.1959618032 1.91819627e-38
-0.02394964732 -0.0564481318 -0.05442734808 1.91819627e-38
-0.0342499502 -0.05028834194 -0.1461575627 1.91819627e-38
-0.05058309436 -0.0561263971 0.053731516 1.91819627e-38
0.009783268906 -0.03508333489 -0.06980050355 1.991448586e-38
-0.1823190153 -0.03424603865 -0.07934676856 1.991448586e-38
-0.04757132381 -0.05326988921 -0.0596052967 1.991448586e-38
-0.1609390825 -0.03923372552 -0.07487913966 1.991448586e-38
0.03326337412 -0.0389068909 -0.05146555975 1.991448586e-38
-0.06669747829 -0.04954660684 -0.07248787582 1.991448586e-38
0.03133509681 -0.04511901364 -0.04672681168 1.991448586e-38
-0.2462137043 -0.03003694117 -0.04146236181 1.991448586e-38
-0.1487307996 -0.03758354113 -0.1051064953 1.991448586e-38
-0.153029412 -0.04060843959 -0.07623440772 1.991448586e-38
0.03904277831 -0.04342088476 -0.04624620453 1.991448586e-38
-0.2469519377 -0.03145920858 -0.03934002295 1.991448586e-38
-0.1360819042 -0.03958136588 -0.1053746268 1.991448586e-38
-0.1231235415 -0.04420467839 -0.08242920041 1.991448586e-38
0.006309008226 -0.03746231273 -0.06507223845 1.991448586e-38
-0.2112630904 -0.03517321497 -0.04926281795 1.991448586e-38
-0.01973409951 -0.04197629169 -0.06850410253 1.991448586e-38
-0.08067409694 -0.04803721234 -0.08033659309 1.991448586e-38
0.01033936068 -0.03643195704 -0.06508039683 1.991448586e-38
-0.1904388666 -0.03841423616 -0.05308146402 1.991448586e-38
0.006168413907 -0.04111382365 -0.05952661484 1.991448586e-38
-0.08035428822 -0.04905216396 -0.07688730955 1.991448586e-38
0.05117777362 -0.04185043648 -0.04475364834 1.991448586e-38
-0.2192197442 -0.03489254788 -0.04516573995 1.991448586e-38
-0.1138166115 -0.04107526317 -0.1050306186 1.991448586e-38
-0.1406809092 -0.04195253178 -0.08306226879 1.991448586e-38
0.04908981174 -0.03449716792 -0.04789263383 1.991448586e-38
-0.2456868142 -0.03160299733 -0.03948967531 1.991448586e-38
-0.09910640866 -0.04433479905 -0.09402090311 1.991448586e-38
-0.1112375781 -0.04686144739 -0.07511496544 1.991448586e-38
-0.07449185103 -0.03719390929 -0.1051597446 1.991448586e-38
-0.1743268371 -0.04208673909 -0.0517295301 1.991448586e-38
-0.04569943622 -0.05909572914 -0.08888725191 2.06466517e-38
-0.07697701454 -0.05686520785 -0.186265409 2.06466517e-38
-0.03372340649 -0.05952276289 -0.08184352517 2.06466517e-38
-0.09128206223 -0.05079674348 -0.2920402288 2.06466517e-38
-0.07055590302 -0.05829864368 -0.1419439316 2.06466517e-38
-0.09326148033 -0.05724567175 -0.2014537603 2.06466517e-38
0.03305936232 -0.06125294417 -0.04768220335 2.06466517e-38
-0.086307019 -0.0557330288 -0.2481924742 2.06466517e-38
-0.009400076233 -0.05947717652 -0.06555244327 2.06466517e-38
-0.07422481477 -0.05751250684 -0.1691524684 2.06466517e-38
0.05472909659 -0.06235249341 -0.03761607036 2.06466517e-38
-0.08657263964 -0.05584714189 -0.2446946502 2.06466517e-38
-0.02699033171 -0.059216097 -0.07422930002 2.06466517e-38
-0.07291658223 -0.05790201202 -0.1625771075 2.06466517e-38
-0.001376270433 -0.05993350223 -0.0638256222 2.06466517e-38
-0.0928382501 -0.05642005801 -0.2281770259 2.06466517e-38
-0.0681944266 -0.05873896554 -0.123932831 2.06466517e-38
-0.07445399463 -0.05757745728 -0.1698329002 2.06466517e-38
-0.02006263845 -0.06015276164 -0.08093252778 2.06466517e-38
-0.09653572738 -0.05664214119 -0.2262220234 2.06466517e-38
-0.0706505999 -0.05810641125 -0.1400639862 2.06466517e-38
-0.07505850494 -0.05746208504 -0.1733860075 2.06466517e-38
0.04623384029 -0.06196756288 -0.0420849137 2.06466517e-38
-0.0919546783 -0.05660134554 -0.2193505317 2.06466517e-38
-0.03354314342 -0.05908288807 -0.07701203227 2.06466517e-38
-0.07087919861 -0.05850808322 -0.1500985771 2.06466517e-38
0.039951507 -0.06167026237 -0.03856573999 2.06466517e-38
-0.08832083642 -0.05670513958 -0.2048858553 2.06466517e-38
-0.03191222996 -0.05884989724 -0.07392552495 2.06466517e-38
-0.06911484152 -0.05882235989 -0.1379027218 2.06466517e-38
-0.05101372302 -0.0596960336 -0.1003664508 2.06466517e-38
-0.09549938887 -0.05683605373 -0.2015291154 2.06466517e-38
-0.0787223205 -0.03796381503 -0.04332601652 2.137881613e-38
-0.1243982539 -0.04927421361 -0.04158760235 2.137881613e-38
-0.03039369173 -0.04398307204 -0.0455526337 2.137881613e-38
-0.2294493169 -0.05135339871 -0.02674253285 2.137881613e-38
-0.0929614827 -0.03550266847 -0.0424365662 2.137881613e-38
-0.1176243722 -0.03507835045 -0.04008545354 2.137881613e-38
0.0112868147 -0.05464651436 -0.0375165455 2.137881613e-38
-0.1766548157 -0.04222044721 -0.03773014992 2.137881613e-38
-0.06930521131 -0.03904574737 -0.04351884499 2.137881613e-38
-0.1012323946 -0.04331660643 -0.04622147605 2.137881613e-38
0.02269101329 -0.05671212822 -0.03490530699 2.137881613e-38
-0.1880706251 -0.04451724514 -0.0357631743 2.137881613e-38
-0.04974256083 -0.04199139029 -0.04704266787 2.137881613e-38
-0.1341966093 -0.0413515754 -0.04087902233 2.137881613e-38
-0.01529972069 -0.04691480845 -0.04365696758 2.137881613e-38
-0.1945117414 -0.04657687619 -0.03430323303 2.137881613e-38
-0.06552634388 -0.03986654803 -0.04420021921 2.137881613e-38
-0.124864392 -0.03807507083 -0.04057132825 2.137881613e-38
-0.04818764701 -0.04223372787 -0.04908677191 2.137881613e-38
-0.2058962882 -0.05063832551 -0.0316436626 2.137881613e-38
-0.06923627853 -0.03902504966 -0.04345261678 2.137881613e-38
-0.1296700388 -0.03791152686 -0.04060604796 2.137881613e-38
-0.003320875578 -0.05193764716 -0.04371856526 2.137881613e-38
-0.1793942302 -0.0441041626 -0.03782411665 2.137881613e-38
-0.05284067243 -0.04148090258 -0.04684684798 2.137881613e-38
-0.1345948428 -0.04018565267 -0.04045485705 2.137881613e-38
0.01743786596 -0.05632455274 -0.03634442762 2.137881613e-38
-0.1662342399 -0.04206266999 -0.03892202303 2.137881613e-38
-0.009000978433 -0.04802913591 -0.04067741334 2.137881613e-38
-0.09398026019 -0.03406425938 -0.04209208488 2.137881613e-38
-0.04393928871 -0.04301677644 -0.05281728134 2.137881613e-38
-0.2071422189 -0.05091787875 -0.03221344575 2.137881613e-38
-0.2757835686 -0.07783988863 0.01785625145 2.211062324e-38
-0.2251424342 -0.08212301135 0.01499623153 2.211062324e-38
-0.3715115488 -0.06791856885 0.008372815326 2.211062324e-38
-0.1293271631 -0.08524058014 0.009646688588 2.211062324e-38
-0.275600493 -0.07762899995 0.01674670912 2.211062324e-38
-0.250769645 -0.0808801949 0.01531539112 2.211062324e-38
-0.4127040803 -0.06397909671 -0.0002626569476 2.211062324e-38
-0.02244935744 -0.0870089829 0.012232407 2.211062324e-38
-0.3265480101 -0.07350427657 0.01824307628 2.211062324e-38
-0.1648776233 -0.08527155966 0.01397930458 2.211062324e-38
-0.4133239686 -0.06355532259 -0.0005217983271 2.211062324e-38
-0.03391170502 -0.0868633315 0.01176816877 2.211062324e-38
-0.3275383413 -0.07374094427 0.01753843576 2.211062324e-38
-0.1697514802 -0.08486872166 0.01332860254 2.211062324e-38
-0.3855587244 -0.06732854247 0.005707387347 2.211062324e-38
-0.08687814325 -0.085705854 0.01075046789 2.211062324e-38
-0.2869096994 -0.07751971483 0.01678437926 2.211062324e-38
-0.2120674998 -0.08314716816 0.01289761998 2.211062324e-38
-0.3792950511 -0.0677087158 0.006199409254 2.211062324e-38
-0.1027867496 -0.08557511121 0.01111123618 2.211062324e-38
-0.2678252757 -0.07924250513 0.01614826918 2.211062324e-38
-0.2278653532 -0.08247208595 0.0128962677 2.211062324e-38
-0.4112865925 -0.06279695779 -0.0006485107588 2.211062324e-38
-0.07602389157 -0.08586582541 0.01120657474 2.211062324e-38
-0.3204803765 -0.0747410059 0.01705322228 2.211062324e-38
-0.1764576435 -0.0846157521 0.01352665387 2.211062324e-38
-0.4103989899 -0.06478688121 0.0009058262222 2.211062324e-38
-0.05406636 -0.08649981022 0.009678759612 2.211062324e-38
-0.2983130515 -0.07646037638 0.01698372141 2.211062324e-38
-0.1854688972 -0.08416435868 0.01282219309 2.211062324e-38
-0.3810348809 -0.06758625805 0.007059695199 2.211062324e-38
-0.1275072396 -0.08615014702 0.01214270573 2.211062324e-38
-0.1774010956 -0.05818735436 0.06383631378 2.284242894e-38
-0.05593306199 -0.03639553487 0.01059973054 2.284242894e-38
-0.1767084301 -0.0518312715 0.0504261665 2.284242894e-38
-0.1113020182 -0.04925183952 0.06580094248 2.284242894e-38
-0.1692046374 -0.0559912473 0.0608599335 2.284242894e-38
-0.1232148483 -0.04567601532 0.04483935982 2.284242894e-38
-0.2128664106 -0.05153800547 0.04077236727 2.284242894e-38
-0.04347204044 -0.04629898444 0.04161635786 2.284242894e-38
-0.07824531943 -0.06228464842 0.1057940573 2.284242894e-38
-0.0431516692 -0.03842993826 0.01424556691 2.284242894e-38
-0.210608691 -0.05313805863 0.04451220855 2.284242894e-38
-0.05309642479 -0.0460899435 0.04332289845 2.284242894e-38
-0.09484991431 -0.05922456831 0.09026221186 2.284242894e-38
-0.02647025138 -0.03989941627 0.01590785943 2.284242894e-38
-0.171044603 -0.05721698329 0.06809144467 2.284242894e-38
-0.1034463942 -0.04252714291 0.0381196551 2.284242894e-38
-0.1481546015 -0.05508288369 0.07005467266 2.284242894e-38
-0.0943518579 -0.04501129314 0.04501219839 2.284242894e-38
-0.1847251803 -0.05723524839 0.06706319749 2.284242894e-38
-0.1046174914 -0.04570988193 0.04820955545 2.284242894e-38
-0.1487463117 -0.05272072181 0.06296960264 2.284242894e-38
-0.1184213087 -0.04666959494 0.04755433276 2.284242894e-38
-0.2080160528 -0.0599684976 0.0655990839 2.284242894e-38
-0.09226490557 -0.04295093566 0.04373855144 2.284242894e-38
-0.1313061863 -0.05507747829 0.08104387671 2.284242894e-38
-0.02306272089 -0.03863501921 0.01171044353 2.284242894e-38
-0.1966920346 -0.05832747743 0.06196920946 2.284242894e-38
-0.07465412468 -0.04312963784 0.03967094421 2.284242894e-38
-0.1546288729 -0.05609940737 0.07159557194 2.284242894e-38
-0.04023801163 -0.03976958618 0.0173304677 2.284242894e-38
-0.1470745653 -0.05578211322 0.07922945917 2.284242894e-38
-0.1077506989 -0.0439000465 0.042545259 2.284242894e-38
-0.03147343174 -0.05600890145 -0.1522929519 2.348204041e-38
-0.06812141836 -0.05525674671 -0.2064423859 2.348204041e-38
-0.1043642238 -0.05411460251 -0.2776276469 2.348204041e-38
-0.1033978015 -0.05380515754 -0.255037576 2.348204041e-38
-0.01846547611 -0.05479586869 -0.1382580549 2.348204041e-38
-0.07049068063 -0.05495389551 -0.204462707 2.348204041e-38
-0.0887067765 -0.05371398851 -0.2708082199 2.348204041e-38
-0.09041011333 -0.05420665815 -0.2041390836 2.348204041e-38
0.0675913617 -0.05778897926 -0.06578638405 2.348204041e-38
-0.04800049961 -0.05571544915 -0.159594655 2.348204041e-38
-0.09037744999 -0.05371176079 -0.2691858411 2.348204041e-38
-0.08813370019 -0.05399410427 -0.2099629343 2.348204041e-38
0.07328474522 -0.05863032863 -0.06590797752 2.348204041e-38
-0.0407246165 -0.05530111864 -0.1510862112 2.348204041e-38
-0.1071106419 -0.05360099301 -0.2470268607 2.348204041e-38
-0.06933535635 -0.05543949828 -0.2089671195 2.348204041e-38
0.01036210544 -0.05460845307 -0.113441363 2.348204041e-38
-0.05189314857 -0.0561103709 -0.165165171 2.348204041e-38
-0.1139369085 -0.05350160226 -0.24479644 2.348204041e-38
-0.07903121412 -0.05349787325 -0.2195691615 2.348204041e-38
-0.008532280102 -0.05420817435 -0.1299019903 2.348204041e-38
-0.05425294116 -0.05568793789 -0.1685906351 2.348204041e-38
-0.1033973992 -0.05351380259 -0.2480741441 2.348204041e-38
-0.07065586746 -0.05532737076 -0.2063214034 2.348204041e-38
0.05608362705 -0.057863608 -0.07978205383 2.348204041e-38
-0.04246669263 -0.05547679961 -0.1540443003 2.348204041e-38
-0.107322596 -0.05355781317 -0.2408256978 2.348204041e-38
-0.06889808178 -0.05600392446 -0.196804747 2.348204041e-38
0.04503682256 -0.05791941658 -0.09282626212 2.348204041e-38
-0.03545756638 -0.05480943248 -0.1444696486 2.348204041e-38
-0.1158056632 -0.05336041749 -0.2412888706 2.348204041e-38
-0.07158437371 -0.05471910536 -0.2175785452 2.348204041e-38
-0.09444823116 -0.00235996698 -2.647517249e-05 2.347880341e-38
-0.0454143472 -0.00515905302 0.000456462818 2.347880341e-38
-0.1913245916 0.002536481479 0.0009637921466 2.347880341e-38
0.1146031842 -0.04654211923 -0.0002406914718 2.347880341e-38
-0.05234672129 -0.003984108102 0.0005508292816 2.347880341e-38
3.69483605e-05 -0.006452551112 0.0008263982018 2.347880341e-38
-0.2174172252 0.006982903928 0.001379975816 2.347880341e-38
0.04466897249 -0.008918851614 0.001035614987 2.347880341e-38
-0.1127912626 -0.001032426604 0.0003352179192 2.347880341e-38
-0.07239888608 -0.005257431418 6.79101795e-05 2.347880341e-38
-0.2295093387 0.00601775758 0.001507176319 2.347880341e-38
0.05285087228 -0.009601454251 0.001050685649 2.347880341e-38
-0.1145361066 -0.0002697333694 0.0004033031582 2.347880341e-38
-0.07519747317 -0.005100850482 5.890708417e-05 2.347880341e-38
-0.1936889738 0.002224591561 0.0009871182265 2.347880341e-38
0.07700370252 -0.01138197258 0.0007778320578 2.347880341e-38
-0.07853310555 -0.003337449161 0.0002156207338 2.347880341e-38
-0.04403612018 -0.005215770565 0.0004030307464 2.347880341e-38
-0.1679262966 -0.0001167487353 0.0006702396786 2.347880341e-38
0.09619215876 -0.02424542047 0.0003265298437 2.347880341e-38
-0.06841971725 -0.003381241346 0.0003458568826 2.347880341e-38
-0.04026746005 -0.005454100668 0.0004314398102 2.347880341e-38
-0.1941341758 0.0006171967252 0.001000649645 2.347880341e-38
0.06274999678 -0.01009759586 0.001043998054 2.347880341e-38
-0.1282596886 -0.001823074999 0.0003337855451 2.347880341e-38
-0.08052035421 -0.004855479114 4.399800673e-06 2.347880341e-38
-0.2264566422 0.003125084564 0.001187323476 2.347880341e-38
0.03071243688 -0.007486835122 0.000922417501 2.347880341e-38
-0.1446388513 -0.002292787423 0.00013741781 2.347880341e-38
-0.07725860178 -0.005048282444 2.846750431e-05 2.347880341e-38
-0.1788991541 0.001094735693 0.0009695793851 2.347880341e-38
0.1062617451 -0.02810186334 0.0002280056942 2.347880341e-38
0.1085582748 -0.01438653748 0.02271374874 2.347520768e-38
-0.1323304474 -0.02029159293 0.02744023129 2.347520768e-38
0.05503556505 -0.01370626688 0.02215084434 2.347520768e-38
-0.05586469173 -0.01752050966 0.02756484412 2.347520768e-38
0.1750318408 -0.01418311801 0.02252881974 2.347520768e-38
-0.04357578605 -0.01733128913 0.02708761208 2.347520768e-38
-0.06373557448 -0.01852225326 0.0263381172 2.347520768e-38
-0.1877120286 -0.01967881806 0.02666406333 2.347520768e-38
0.0412077494 -0.01554840896 0.02476809546 2.347520768e-38
