# .PCD v0.7 - Point Cloud Data file format
VERSION 0.7
FIELDS x y z rgb
SIZE 4 4 4 4
TYPE F F F F
COUNT 1 1 1 1
WIDTH 844
HEIGHT 1
VIEWPOINT 0 0 0 1 0 0 0
POINTS 844
DATA ascii
-0.2321561128 -0.1717231125 -0.01628330909 7.281903522e-39
-0.2194977999 -0.06073985994 -0.39806059 7.281903522e-39
-0.2196453661 -0.1651874334 -0.2257783115 7.281903522e-39
-0.2138451338 -0.1429831386 -0.3743533194 7.281903522e-39
-0.2335248291 -0.1740868539 0.07199145854 7.281903522e-39
-0.2235299051 0.06749303639 -0.4049528837 7.281903522e-39
-0.2207325101 -0.1646109521 -0.1933295727 7.281903522e-39
-0.2161334008 -0.143961817 -0.3842010498 7.281903522e-39
-0.2329795957 -0.1732797027 0.03728726134 7.281903522e-39
-0.2239276618 0.008993338794 -0.4040758014 7.281903522e-39
-0.2199046016 -0.1641819179 -0.2326898277 7.281903522e-39
-0.2137359232 -0.1410478503 -0.3721608222 7.281903522e-39
-0.2330383509 -0.1739388108 0.08380173147 7.281903522e-39
-0.2236372381 0.07987695187 -0.4053820372 7.281903522e-39
-0.2204710394 0.1785251945 0.02281985618 6.55152294e-39
-0.2175973058 0.1778309196 -0.05821672082 6.55152294e-39
-0.2050426006 0.1491484493 0.07509902865 6.55152294e-39
-0.2097043544 0.1717066914 -0.07927808166 6.55152294e-39
-0.2155347914 0.1616975516 0.1633674502 6.55152294e-39
-0.2104840577 0.1785922647 -0.1920944005 6.55152294e-39
-0.2126726955 0.1742388904 -0.0677934438 6.55152294e-39
-0.204012841 0.1611482203 0.01727719791 6.55152294e-39
-0.2120999247 0.1583674699 0.1956485361 6.55152294e-39
-0.2068938315 0.1801603138 -0.2330316752 6.55152294e-39
-0.2086077332 0.1748708189 -0.1298370957 6.55152294e-39
-0.1985520124 0.1667558998 -0.02827129513 6.55152294e-39
-0.2177381814 0.1667032242 0.1399981827 6.55152294e-39
-0.2123964131 0.1792400777 -0.1633159369 6.55152294e-39
-0.2141584605 0.1722508669 -0.01553604566 6.55152294e-39
-0.2091231197 0.1566753238 0.07503785193 6.55152294e-39
-0.219247669 0.1718848795 0.09691952169 6.55152294e-39
-0.2132330835 0.180473879 -0.1295071542 6.55152294e-39
-0.2125241905 0.1612766534 0.08536756039 6.55152294e-39
-0.2128842324 0.1696753204 -0.02640399709 6.55152294e-39
-0.2155379653 0.1617469192 0.1597885787 6.55152294e-39
-0.210802421 0.1790212542 -0.1938257515 6.55152294e-39
-0.2117176354 0.1694720387 -0.03732582927 6.55152294e-39
-0.2021657377 0.1623836458 0.01773491502 6.55152294e-39
-0.2170283794 0.1658754349 0.1320860535 6.55152294e-39
-0.2124951929 0.1793406159 -0.1627688855 6.55152294e-39
-0.2136993706 0.1715454161 -0.02119878866 6.55152294e-39
-0.2088537663 0.1566239893 0.07199124992 6.55152294e-39
-0.2143110633 0.1598057449 0.1580356508 6.55152294e-39
-0.2106469274 0.1790963709 -0.1956764013 6.55152294e-39
-0.2105351388 0.1698899269 -0.04686643183 6.55152294e-39
-0.2004809827 0.1649305671 0.009043815546 6.55152294e-39
-0.1659807265 -0.1583394408 -0.3062424362 5.820783626e-39
0.07811500877 -0.1458044648 -0.3488330245 5.820783626e-39
-0.26182881 -0.1734247804 -0.3252975345 5.820783626e-39
-0.2533665299 -0.1704682857 -0.3246935308 5.820783626e-39
0.01267146878 -0.1586081684 -0.3243934214 5.820783626e-39
0.1443679929 -0.1572587788 -0.3637837172 5.820783626e-39
-0.1996340901 -0.1461969316 -0.2539001405 5.820783626e-39
-0.1348453313 -0.1648256034 -0.3340599835 5.820783626e-39
0.07282599062 -0.147165969 -0.3416743875 5.820783626e-39
0.1726335585 -0.1565652341 -0.3325151801 5.820783626e-39
-0.1527034789 -0.1421558559 -0.285374254 5.820783626e-39
-0.07259080559 -0.1603527218 -0.3272984922 5.820783626e-39
-0.02041843906 -0.1576319188 -0.3126735389 5.820783626e-39
0.1259025037 -0.1555074751 -0.3768921793 5.820783626e-39
-0.2293660641 -0.1544525921 -0.249704659 5.820783626e-39
-0.1673574001 -0.1635082811 -0.3335404098 5.820783626e-39
-0.06883834302 -0.1557397544 -0.3019218743 5.820783626e-39
0.1051683575 -0.1521512717 -0.3778561056 5.820783626e-39
-0.2539101839 -0.1650466919 -0.2843329608 5.820783626e-39
-0.2295054942 -0.1630370617 -0.3311602771 5.820783626e-39
0.0227400437 -0.15776366 -0.3197126389 5.820783626e-39
0.1440807581 -0.1573028862 -0.3641667068 5.820783626e-39
-0.2007869482 -0.1461090595 -0.2494684309 5.820783626e-39
-0.1228651032 -0.1644649804 -0.3322019875 5.820783626e-39
-0.0003568939574 -0.1571339071 -0.307050705 5.820783626e-39
0.1264339238 -0.1555996388 -0.3769282997 5.820783626e-39
-0.2299013436 -0.1549313962 -0.2516573668 5.820783626e-39
-0.1686514765 -0.163571611 -0.3343014419 5.820783626e-39
0.05324839428 -0.1537501514 -0.3116642237 5.820783626e-39
0.1490369439 -0.157389909 -0.3585010171 5.820783626e-39
-0.1947871745 -0.1449047327 -0.2561928332 5.820783626e-39
-0.1036558077 -0.1625965834 -0.3284366131 5.820783626e-39
-0.1697777063 -0.1481277347 0.2079218477 5.090401643e-39
-0.1352746785 -0.154591009 0.1371011585 5.090401643e-39
-0.138305366 -0.1519095004 0.1766068339 5.090401643e-39
-0.1035247594 -0.1725568622 0.06469096243 5.090401643e-39
-0.180933401 -0.1499014646 0.1262361407 5.090401643e-39
-0.1552714556 -0.1768675148 -0.0633258 5.090401643e-39
-0.1244657636 -0.1496134549 0.2364135236 5.090401643e-39
-0.04882865399 -0.1440543234 0.1562743634 5.090401643e-39
-0.1815051287 -0.1579339206 0.07579530776 5.090401643e-39
-0.1655733138 -0.1821271479 -0.1364901215 5.090401643e-39
-0.1064981744 -0.1498696804 0.2514281571 5.090401643e-39
-0.003074479755 -0.1411252469 0.1770927161 5.090401643e-39
-0.1811418831 -0.1480733603 0.1592199057 5.090401643e-39
-0.14977853 -0.177406922 -0.02102041245 5.090401643e-39
-0.1362887472 -0.1491856575 0.2324718237 5.090401643e-39
-0.07207111269 -0.1523662806 0.1281694025 5.090401643e-39
-0.1747113019 -0.1494395733 0.1805389524 5.090401643e-39
-0.1500028521 -0.1665777415 0.05081788078 5.090401643e-39
-0.1383811235 -0.1489718258 0.2088928819 5.090401643e-39
-0.07971701771 -0.161958918 0.09998709708 5.090401643e-39
-0.180394724 -0.1497164369 0.1277423948 5.090401643e-39
-0.1524872482 -0.1763346791 -0.06106605753 5.090401643e-39
-0.1244638562 -0.1494622082 0.2384747118 5.090401643e-39
-0.06450133771 -0.1469362527 0.1458431929 5.090401643e-39
-0.1784545779 -0.1487469524 0.1560660154 5.090401643e-39
-0.149634257 -0.1770393997 -0.02347563021 5.090401643e-39
-0.1336873174 -0.149344638 0.2299758345 5.090401643e-39
-0.07112107426 -0.1520799398 0.129056856 5.090401643e-39
-0.1801129282 -0.1513036042 0.1190014854 5.090401643e-39
-0.1562309414 -0.1766421646 -0.07995694876 5.090401643e-39
-0.1249349043 -0.1495508999 0.2414391786 5.090401643e-39
-0.06354122609 -0.1462183744 0.14904733 5.090401643e-39
0.2425353378 -0.1707322747 0.01379075367 4.359662329e-39
0.2414552271 -0.164821133 -0.09017267078 4.359662329e-39
0.2439053208 -0.1723204702 0.01925309189 4.359662329e-39
0.2255821526 -0.1869491935 0.1576945037 4.359662329e-39
0.2265745997 -0.1720489711 -0.1203607619 4.359662329e-39
0.1997751445 -0.1737793386 -0.2802173793 4.359662329e-39
0.2393613905 -0.171964705 0.2635894716 4.359662329e-39
0.222142309 -0.175923422 0.02031296864 4.359662329e-39
0.2197698653 -0.1711631268 -0.1644691676 4.359662329e-39
0.1911668628 -0.1726703048 -0.3103792071 4.359662329e-39
0.2399774194 -0.1683713049 0.3075107038 4.359662329e-39
0.2155572921 -0.171980083 -0.03279257193 4.359662329e-39
0.2314674556 -0.1721016616 -0.09137175977 4.359662329e-39
0.2089519054 -0.1729798615 -0.2486783862 4.359662329e-39
0.2367149144 -0.1768731922 0.2098038942 4.359662329e-39
0.2218853384 -0.1802674383 0.04701272026 4.359662329e-39
0.2370496988 -0.1737036407 -0.04766476527 4.359662329e-39
0.2196084112 -0.1702458709 -0.1940593272 4.359662329e-39
0.2403342575 -0.1779690236 0.1331729889 4.359662329e-39
0.2216310948 -0.1846631616 0.09649839252 4.359662329e-39
0.2272198051 -0.1717902571 -0.1194271818 4.359662329e-39
0.2017132491 -0.1735228747 -0.2756165266 4.359662329e-39
0.238699168 -0.1726435125 0.2588970661 4.359662329e-39
0.2219082266 -0.1757215858 0.01988996938 4.359662329e-39
0.2305310667 -0.1722721905 -0.09432265162 4.359662329e-39
0.208252117 -0.1731828749 -0.2487517446 4.359662329e-39
0.2363843918 -0.1768634468 0.2131619751 4.359662329e-39
0.2216035873 -0.1802139878 0.04586843774 4.359662329e-39
0.2245626748 -0.171791032 -0.1320350766 4.359662329e-39
0.200150013 -0.1739565134 -0.278106451 4.359662329e-39
0.2381234318 -0.172588259 0.26585114 4.359662329e-39
0.2201950103 -0.1754567921 0.01246113982 4.359662329e-39
-0.2456304133 0.1794913411 -0.4178842902 3.628921614e-39
-0.2453636825 0.2456217259 -0.4270680249 3.628921614e-39
-0.2343788743 0.07566842437 -0.3927694261 3.628921614e-39
-0.2463358939 0.2103609592 -0.4337804615 3.628921614e-39
-0.2473890781 0.2498472482 -0.4381697476 3.628921614e-39
-0.2310952693 0.196367681 -0.0494861342 3.628921614e-39
-0.2320914567 0.0272727944 -0.3848097324 3.628921614e-39
-0.2377245873 0.2242421955 -0.3294175565 3.628921614e-39
-0.2458662689 0.2486824393 -0.40720281 3.628921614e-39
-0.2300575078 0.1938466579 0.02451832034 3.628921614e-39
-0.2309668064 -0.001143618952 -0.3791145086 3.628921614e-39
-0.2336671799 0.2083804756 -0.2305931598 3.628921614e-39
-0.2481078953 0.2449328899 -0.4422401488 3.628921614e-39
-0.2318431586 0.1994261146 -0.1208980232 3.628921614e-39
-0.2321015447 0.05027745292 -0.3868342042 3.628921614e-39
-0.2426134497 0.2385029644 -0.3908724487 3.628921614e-39
-0.2474259734 0.2223529369 -0.4377608895 3.628921614e-39
-0.2342189848 0.2134007066 -0.2744871378 3.628921614e-39
-0.2330465615 0.06040210277 -0.3892195225 3.628921614e-39
-0.2468628138 0.2451455891 -0.4393499494 3.628921614e-39
-0.2473577708 0.2494308949 -0.4382922649 3.628921614e-39
-0.2313057482 0.1973773539 -0.05895557627 3.628921614e-39
-0.2317208946 0.02831553854 -0.3835607767 3.628921614e-39
-0.2365060598 0.2211939096 -0.3098770976 3.628921614e-39
-0.2471193224 0.2370992452 -0.4422980845 3.628921614e-39
-0.2313212156 0.1997966766 -0.1454266012 3.628921614e-39
-0.2319969386 0.04183088988 -0.3863278925 3.628921614e-39
-0.2427584529 0.2387699783 -0.3960080743 3.628921614e-39
-0.246402666 0.2435864359 -0.4389348924 3.628921614e-39
-0.2308561206 0.1949114949 -0.04724698886 3.628921614e-39
-0.2315916121 0.01710819826 -0.3813419342 3.628921614e-39
-0.2353442013 0.2174011171 -0.291554898 3.628921614e-39
-0.0682092905 0.2003550231 -0.4821241796 2.898180898e-39
-0.002587409457 0.1863369048 -0.482242614 2.898180898e-39
0.04510183632 0.1911851913 -0.4830361903 2.898180898e-39
-0.04932575673 0.1779269278 -0.4809978902 2.898180898e-39
-0.1375848055 0.2041209042 -0.4185447693 2.898180898e-39
-0.1507988274 0.1850295514 -0.4838726819 2.898180898e-39
0.2012799829 0.1978959143 -0.4848159254 2.898180898e-39
0.1217711642 0.1871307194 -0.4852461815 2.898180898e-39
-0.1289037913 0.2099575847 -0.332690239 2.898180898e-39
-0.2002563775 0.1877874136 -0.4875037074 2.898180898e-39
0.2438567579 0.203067854 -0.4798928499 2.898180898e-39
0.1546388566 0.19093135 -0.4858280122 2.898180898e-39
-0.1480349004 0.1976673305 -0.469263047 2.898180898e-39
-0.1341279596 0.1840062588 -0.4822995961 2.898180898e-39
0.1473506242 0.1934103221 -0.4856381714 2.898180898e-39
0.07775587589 0.1825130433 -0.4836017489 2.898180898e-39
-0.1605411172 0.195596844 -0.4909396172 2.898180898e-39
-0.09229165316 0.1852191389 -0.4816707373 2.898180898e-39
0.08735246211 0.1898553371 -0.4837837517 2.898180898e-39
0.006837540772 0.176690951 -0.482360661 2.898180898e-39
-0.135874927 0.2051293552 -0.4073141515 2.898180898e-39
-0.1520058215 0.1850390285 -0.4839597046 2.898180898e-39
0.1954703629 0.1982308775 -0.4845353663 2.898180898e-39
0.1089217067 0.1853566468 -0.4847233295 2.898180898e-39
-0.1487566531 0.1980618387 -0.465182811 2.898180898e-39
-0.1320254058 0.184600696 -0.4822977781 2.898180898e-39
0.1478238255 0.1935878694 -0.4855693877 2.898180898e-39
0.07623536885 0.1820909083 -0.4836314023 2.898180898e-39
-0.1371974647 0.2052850872 -0.3937036991 2.898180898e-39
-0.1622922719 0.1857370287 -0.4850502014 2.898180898e-39
0.200319618 0.1988257319 -0.4835588038 2.898180898e-39
0.116070658 0.1854845285 -0.4849998355 2.898180898e-39
-0.1967297196 0.1323156506 -0.348800391 2.167082852e-39
-0.2179694623 0.1880181134 0.2299276441 2.167082852e-39
-0.2269901931 0.1593685299 0.3526594937 2.167082852e-39
-0.2224318236 0.2156533897 0.2524186671 2.167082852e-39
-0.2142061144 0.1772721857 -0.1488216668 2.167082852e-39
-0.2180977464 0.1862805188 0.1650963724 2.167082852e-39
-0.2225955874 0.1251433343 0.1511089057 2.167082852e-39
-0.241333589 0.1886153668 0.3888920844 2.167082852e-39
-0.2188869417 0.1860824674 -0.08225923777 2.167082852e-39
-0.2278024852 0.2044634521 0.31530267 2.167082852e-39
-0.2162063569 0.08687981963 0.09887839854 2.167082852e-39
-0.2459406704 0.1336250752 0.4110733271 2.167082852e-39
-0.2096246779 0.1765194088 -0.1833876371 2.167082852e-39
-0.2171930224 0.1898883283 0.05725748837 2.167082852e-39
-0.2190352082 0.1358605921 0.2327528596 2.167082852e-39
-0.2371739149 0.2096301764 0.3555054367 2.167082852e-39
-0.2006134689 0.1757539958 -0.2349948734 2.167082852e-39
-0.2149585783 0.1678939611 -0.0501460731 2.167082852e-39
-0.2174549848 0.1484779716 0.298286736 2.167082852e-39
-0.2338598818 0.2231907398 0.318993479 2.167082852e-39
-0.2150890827 0.1802177876 -0.1453202963 2.167082852e-39
-0.2203691602 0.1911985129 0.1773405522 2.167082852e-39
-0.2211035341 0.1113820747 0.1554323435 2.167082852e-39
-0.2413258255 0.19171305 0.3859186172 2.167082852e-39
-0.21019198 0.178696543 -0.180970788 2.167082852e-39
-0.2172089368 0.1906074435 0.04480324686 2.167082852e-39
-0.2190228999 0.1376372129 0.2200271785 2.167082852e-39
-0.2380644381 0.2101320326 0.3598626554 2.167082852e-39
-0.2165168077 0.1818357259 -0.1326033324 2.167082852e-39
-0.2228404582 0.1986548603 0.202554822 2.167082852e-39
-0.2194409072 0.1012701765 0.1453704685 2.167082852e-39
-0.2415327579 0.1886645705 0.3876070082 2.167082852e-39
0.0301866103 -0.159940362 0.177561447 1.435982003e-39
0.148154676 -0.1627643257 0.2392591685 1.435982003e-39
0.09675877541 -0.1664636582 0.3212650418 1.435982003e-39
0.176655665 -0.1676380932 0.3091828823 1.435982003e-39
0.1452058554 -0.1672772616 0.354693532 1.435982003e-39
0.09806408733 -0.1579080224 0.1770043969 1.435982003e-39
-0.0008854044136 -0.159204185 0.138314873 1.435982003e-39
0.1728818715 -0.1604969352 0.1722359359 1.435982003e-39
0.101079762 -0.1684688926 0.3725228012 1.435982003e-39
0.07316620648 -0.1551306993 0.1469129622 1.435982003e-39
-0.01708998345 -0.1517181396 0.06530846655 1.435982003e-39
0.1769374311 -0.1566732824 0.1278409958 1.435982003e-39
0.1347324699 -0.1652913988 0.3211331964 1.435982003e-39
0.1099225283 -0.1595038623 0.1735349447 1.435982003e-39
0.02996086515 -0.1653058529 0.2233897746 1.435982003e-39
0.167897746 -0.1646595448 0.2197703719 1.435982003e-39
0.1056325436 -0.1643354893 0.2457472086 1.435982003e-39
0.1263669431 -0.1599369645 0.1893459857 1.435982003e-39
0.06798300147 -0.1720903367 0.2848771513 1.435982003e-39
0.1713361144 -0.1671185791 0.2675888538 1.435982003e-39
0.1447955817 -0.1669344306 0.3498835862 1.435982003e-39
0.1047602519 -0.1556734145 0.1284558773 1.435982003e-39
0.0124969678 -0.158927083 0.1454122216 1.435982003e-39
0.171336785 -0.1613940448 0.1821531355 1.435982003e-39
0.1331531107 -0.164981842 0.307354182 1.435982003e-39
0.1116533726 -0.158553049 0.1604461074 1.435982003e-39
0.03476888314 -0.1646061391 0.2124336064 1.435982003e-39
0.168216303 -0.1642165333 0.2155291587 1.435982003e-39
0.1421479732 -0.1662443876 0.3418946862 1.435982003e-39
0.1063578501 -0.1541045457 0.1009057313 1.435982003e-39
0.0189912729 -0.156869933 0.1197275743 1.435982003e-39
0.1701871753 -0.1610642076 0.1765344292 1.435982003e-39
-0.2291747481 0.189208433 0.4121927023 7.045238224e-40
0.06082460284 0.1951895952 0.4320247769 7.045238224e-40
-0.1650641859 0.1532474905 0.4148339033 7.045238224e-40
-0.1721600592 0.1786681116 0.4359512627 7.045238224e-40
-0.2483319938 0.0153695792 0.3614518046 7.045238224e-40
-0.1152176708 0.2187575251 0.4207849205 7.045238224e-40
-0.229234159 0.08730938286 0.3786863089 7.045238224e-40
-0.03146446869 0.175520733 0.4533610046 7.045238224e-40
-0.2505052686 -0.09011789411 0.3529424965 7.045238224e-40
-0.1705202013 0.2242711782 0.4125217497 7.045238224e-40
-0.2341559231 0.02616273612 0.3706879616 7.045238224e-40
0.01176045276 0.1773359329 0.4475119114 7.045238224e-40
-0.239965409 0.07916907966 0.3759273887 7.045238224e-40
-0.07172178477 0.2140192389 0.423747927 7.045238224e-40
-0.2236053348 0.1138647795 0.3848547637 7.045238224e-40
-0.07283207774 0.1789473593 0.4525994956 7.045238224e-40
-0.2337056845 0.1466217041 0.3951156139 7.045238224e-40
-0.024045242 0.2071334869 0.4284452796 7.045238224e-40
-0.212999329 0.1501917392 0.4032527208 7.045238224e-40
-0.1199081987 0.1779862046 0.4460619986 7.045238224e-40
-0.2488938272 -0.001816751319 0.3619001508 7.045238224e-40
-0.1066738069 0.2182047516 0.4211536944 7.045238224e-40
-0.2290932983 0.08612681925 0.3789109588 7.045238224e-40
-0.03524566069 0.1757106334 0.4538314939 7.045238224e-40
-0.2404561639 0.07460588217 0.3751298189 7.045238224e-40
-0.07331171632 0.2133185416 0.4243336916 7.045238224e-40
-0.2231131792 0.116411373 0.3871467412 7.045238224e-40
-0.07212717086 0.178600058 0.4525577426 7.045238224e-40
-0.249589324 -0.01600559428 0.3581278622 7.045238224e-40
-0.1160096377 0.2187390924 0.4212143421 7.045238224e-40
-0.2303745747 0.0785792619 0.3779365718 7.045238224e-40
-0.02879156731 0.1759983897 0.452934444 7.045238224e-40
0.002543685958 0.1956181675 0.3801989257 6.490113838e-41
0.01841845363 0.1964621693 0.2190798223 6.490113838e-41
-0.1050914153 0.194369629 0.4504049718 6.490113838e-41
-0.08532618731 0.1955329478 0.4093896449 6.490113838e-41
0.08435641974 0.1865102351 0.3618579507 6.490113838e-41
0.01390024927 0.200008437 0.3266107738 6.490113838e-41
0.01490608044 0.1879791319 0.4169175923 6.490113838e-41
-0.03762130812 0.1987172216 0.2577181756 6.490113838e-41
0.1298077255 0.1834976673 0.3583640754 6.490113838e-41
0.05142679811 0.1928649545 0.3159046769 6.490113838e-41
0.06124068797 0.1890339404 0.4077507854 6.490113838e-41
-0.03492980823 0.1998815089 0.215863958 6.490113838e-41
0.06714761257 0.1868874431 0.3673480451 6.490113838e-41
-0.001548434258 0.202886343 0.3268486261 6.490113838e-41
-0.02485898696 0.1901669651 0.4226669669 6.490113838e-41
-0.04993427545 0.2005975842 0.3025463521 6.490113838e-41
0.03160856664 0.191484794 0.364533484 6.490113838e-41
-0.004935544915 0.1987860799 0.3068320751 6.490113838e-41
-0.06371593475 0.1904680431 0.4306798875 6.490113838e-41
-0.06514398754 0.1991419196 0.3519434035 6.490113838e-41
0.08983170986 0.1869343817 0.3667861223 6.490113838e-41
0.01697892323 0.1995987594 0.3267995715 6.490113838e-41
0.01472643483 0.1879421771 0.4172512293 6.490113838e-41
-0.04020866752 0.1988976747 0.2657024264 6.490113838e-41
0.06729643047 0.1869497001 0.3650136292 6.490113838e-41
-0.002469690982 0.2029264867 0.328428477 6.490113838e-41
-0.0224418398 0.1901172847 0.4223980606 6.490113838e-41
-0.04921583086 0.2004769892 0.3004056513 6.490113838e-41
0.1000790149 0.1869484186 0.3646300733 6.490113838e-41
0.02281353064 0.1988564432 0.3253695965 6.490113838e-41
0.01916805096 0.1878105849 0.4130711555 6.490113838e-41
-0.04023823142 0.1987743527 0.2611834407 6.490113838e-41
-0.1854348034 -0.1621923149 -0.2927061617 8.028094954e-40
-0.08971275389 -0.1497871727 -0.1477061659 8.028094954e-40
-0.1505835801 -0.1602355838 -0.2377478629 8.028094954e-40
-0.06042109057 -0.1599533111 -0.3368378282 8.028094954e-40
0.04030915722 -0.1596020162 -0.331840843 8.028094954e-40
-0.08559558541 -0.160106957 -0.3240271509 8.028094954e-40
-0.07447876781 -0.1568028778 0.04375223443 8.028094954e-40
-0.09904239327 -0.1560736746 -0.1813477427 8.028094954e-40
0.06754794717 -0.162132591 -0.3084042668 8.028094954e-40
-0.06067161635 -0.159926489 -0.3381215036 8.028094954e-40
-0.04903517663 -0.1538709253 0.1156280339 8.028094954e-40
-0.08718046546 -0.1527393162 -0.1337999552 8.028094954e-40
-0.02463905141 -0.1571019143 -0.3583158851 8.028094954e-40
-0.08553757519 -0.160343051 -0.2916715145 8.028094954e-40
-0.07920479774 -0.1553668231 -0.0003820731945 8.028094954e-40
-0.1044832543 -0.1596142501 -0.231935665 8.028094954e-40
-0.1470085979 -0.158335954 -0.3300460279 8.028094954e-40
-0.09261214733 -0.1583164483 -0.2501639426 8.028094954e-40
-0.1104506701 -0.1522076428 -0.1082058549 8.028094954e-40
-0.08820236474 -0.159908548 -0.3044088185 8.028094954e-40
0.02585494518 -0.1588094831 -0.3384355009 8.028094954e-40
-0.08366580307 -0.1602845639 -0.3261139691 8.028094954e-40
-0.06357125938 -0.1559923589 0.06046991795 8.028094954e-40
-0.09515505284 -0.1562233865 -0.1781450808 8.028094954e-40
-0.04851953685 -0.156667456 -0.3640929163 8.028094954e-40
-0.0873291418 -0.1601902246 -0.2918304205 8.028094954e-40
-0.0764022395 -0.1558893174 0.006918282714 8.028094954e-40
-0.1052860543 -0.1597070992 -0.2328235507 8.028094954e-40
0.01122792158 -0.1575933695 -0.3468202353 8.028094954e-40
-0.08570179343 -0.1602937132 -0.323536396 8.028094954e-40
-0.05484423786 -0.1551591307 0.08052174747 8.028094954e-40
-0.08911254257 -0.1553038359 -0.1609237045 8.028094954e-40
0.07601211965 -0.1266201884 -0.3731087148 1.540360521e-39
0.1578326225 -0.1656110138 -0.2036353797 1.540360521e-39
0.1355355233 -0.1550256461 -0.2603372931 1.540360521e-39
0.1690559089 -0.1555580795 -0.2885139287 1.540360521e-39
0.1659349054 -0.1546872705 -0.3056129515 1.540360521e-39
0.1210927591 -0.161476016 -0.0253707841 1.540360521e-39
0.01760780625 -0.137137264 -0.3785783052 1.540360521e-39
0.1514611542 -0.1655375361 -0.1222320274 1.540360521e-39
0.1635355651 -0.1566422433 -0.2586967945 1.540360521e-39
0.1194586977 -0.1649193466 0.03587234765 1.540360521e-39
-0.0161048919 -0.1369788796 -0.3820046484 1.540360521e-39
0.1370605379 -0.1653161347 -0.07182539254 1.540360521e-39
0.1569195092 -0.1639545858 -0.3482412994 1.540360521e-39
0.1281822175 -0.1603711396 -0.08147108555 1.540360521e-39
0.06443821639 -0.1590401381 -0.3717413843 1.540360521e-39
0.1616161466 -0.1689763367 -0.1587389261 1.540360521e-39
0.1317930222 -0.1603331715 -0.3681958616 1.540360521e-39
0.1484309435 -0.1627701968 -0.1401038915 1.540360521e-39
0.1202364564 -0.1677794755 -0.3494991958 1.540360521e-39
0.1690407246 -0.1667567343 -0.2188556492 1.540360521e-39
0.1634667665 -0.1588510126 -0.3158272505 1.540360521e-39
0.1204909608 -0.1616226435 -0.01842870563 1.540360521e-39
0.02211125754 -0.1427301466 -0.3774889708 1.540360521e-39
0.1515996009 -0.16561988 -0.1179058477 1.540360521e-39
0.1555488259 -0.1645390838 -0.3529885709 1.540360521e-39
0.1291331798 -0.160498485 -0.08313144743 1.540360521e-39
0.06912794709 -0.1605015695 -0.3708072901 1.540360521e-39
0.1599803418 -0.1683557928 -0.1584551632 1.540360521e-39
0.1604993641 -0.1601522565 -0.3224690557 1.540360521e-39
0.1193929091 -0.1602346301 -0.02691333368 1.540360521e-39
0.02117042802 -0.1421548128 -0.3777378798 1.540360521e-39
0.1504188329 -0.1651242375 -0.1175538972 1.540360521e-39
0.08247552812 0.1931690574 0.423389852 2.277910146e-39
-0.2147924751 0.1864831448 0.223819986 2.277910146e-39
-0.1450432986 0.1694633365 0.4296903014 2.277910146e-39
-0.1642331332 0.1473263949 0.405872345 2.277910146e-39
-0.0801583454 0.1861651987 0.4352944791 2.277910146e-39
-0.2143129408 0.1720431596 0.4338411689 2.277910146e-39
0.1759009808 0.1813367158 0.4110974967 2.277910146e-39
-0.2174855769 0.1665524542 0.306771338 2.277910146e-39
-0.1448234469 0.1845835894 0.4428934753 2.277910146e-39
-0.1257294118 0.1742697358 0.4337396026 2.277910146e-39
0.1824091077 0.1832136512 0.349388212 2.277910146e-39
-0.2142836303 0.1772740334 0.2453448474 2.277910146e-39
-0.03687475622 0.1897110939 0.429228276 2.277910146e-39
-0.2299353331 0.1802185476 0.422246635 2.277910146e-39
0.1247537881 0.1867690533 0.4304596782 2.277910146e-39
-0.2172546238 0.1612699628 0.3408696353 2.277910146e-39
0.01576872915 0.1913848072 0.4253799021 2.277910146e-39
-0.2234435827 0.1793425828 0.3537913263 2.277910146e-39
-0.006726353429 0.1879779845 0.4318802655 2.277910146e-39
-0.2222567201 0.1537124515 0.3896308541 2.277910146e-39
-0.07496982068 0.1856413633 0.4352849126 2.277910146e-39
-0.2128789276 0.1713646352 0.4336252213 2.277910146e-39
0.1575628519 0.1864519566 0.4285769165 2.277910146e-39
-0.2177811563 0.1668909639 0.3098323643 2.277910146e-39
-0.0371921286 0.1886503398 0.4300248921 2.277910146e-39
-0.2293339074 0.1794677228 0.4242019057 2.277910146e-39
0.1148687303 0.1880155653 0.4302629232 2.277910146e-39
-0.2171298862 0.1607552469 0.3420304656 2.277910146e-39
-0.07775378227 0.1851694733 0.4358709753 2.277910146e-39
-0.1968374699 0.1696187258 0.4346942902 2.277910146e-39
0.1588114202 0.1882998049 0.4272678494 2.277910146e-39
-0.2178711593 0.1674992591 0.3080266416 2.277910146e-39
0.08535198867 0.1710923761 -0.4075773358 3.015101038e-39
0.25717026 0.1619105637 -0.3687330484 3.015101038e-39
0.2531749904 0.155404821 -0.2639596164 3.015101038e-39
0.2534735203 0.160330981 -0.3648834229 3.015101038e-39
-0.04074963555 0.1857782006 -0.4121261835 3.015101038e-39
0.1827669591 0.1643263847 -0.4013608098 3.015101038e-39
0.1674229354 0.150675565 -0.3679030836 3.015101038e-39
0.2499436438 0.1581584066 -0.2254184335 3.015101038e-39
-0.09609772265 0.1863393486 -0.4068288505 3.015101038e-39
0.1469388604 0.1646398902 -0.4084894359 3.015101038e-39
0.1296324283 0.1468023211 -0.3652352393 3.015101038e-39
0.2402755767 0.154905498 -0.1895442605 3.015101038e-39
-0.02750987001 0.1858683527 -0.4119157195 3.015101038e-39
0.2103613317 0.1645290405 -0.3950634897 3.015101038e-39
0.1905292422 0.1519695073 -0.3658654988 3.015101038e-39
0.2570043504 0.1608951986 -0.2685031891 3.015101038e-39
0.004130377434 0.1842686385 -0.4102039933 3.015101038e-39
0.2371813506 0.1636452526 -0.386053741 3.015101038e-39
0.2356829941 0.1504188925 -0.3419843316 3.015101038e-39
0.2592657208 0.1600796431 -0.3224546015 3.015101038e-39
-0.06528114527 0.1865635216 -0.4061632752 3.015101038e-39
0.1788037419 0.1645979881 -0.4025172293 3.015101038e-39
0.1715251505 0.1512543112 -0.368661195 3.015101038e-39
0.2509181499 0.1585106403 -0.2294787616 3.015101038e-39
-0.04153565317 0.1863278002 -0.4095043242 3.015101038e-39
0.2011452913 0.1640598476 -0.3965620697 3.015101038e-39
0.1937423497 0.1516069472 -0.3642603755 3.015101038e-39
0.2566316426 0.1607940197 -0.2694165409 3.015101038e-39
-0.09338409454 0.186653927 -0.4011014998 3.015101038e-39
0.1654081494 0.1641457081 -0.4037112892 3.015101038e-39
0.1693558991 0.1510401517 -0.3685183227 3.015101038e-39
0.2492433339 0.1579610705 -0.2240828425 3.015101038e-39
-0.218235299 -0.2092887312 -0.03549259156 3.75229193e-39
-0.2146520168 -0.174764514 0.2975805104 3.75229193e-39
-0.2139090747 -0.1974818856 0.1432321519 3.75229193e-39
-0.2296274006 -0.1797205061 0.2290458679 3.75229193e-39
-0.2200591117 -0.2069204152 -0.1314092577 3.75229193e-39
-0.2087320089 -0.1931895912 0.1715927273 3.75229193e-39
-0.2154563218 -0.2001969218 0.01809946261 3.75229193e-39
-0.2211450785 -0.1661297977 0.4244290888 3.75229193e-39
-0.2219994515 -0.2018750161 -0.1743618995 3.75229193e-39
-0.2109593153 -0.1965847462 0.1081794053 3.75229193e-39
-0.2144083679 -0.2008949965 -0.03873990104 3.75229193e-39
-0.2171983719 -0.0964609012 0.4446313977 3.75229193e-39
-0.2189279795 -0.2116519809 -0.1090470627 3.75229193e-39
-0.2097843885 -0.1894876063 0.1964292675 3.75229193e-39
-0.2152029872 -0.1991675347 0.07954121381 3.75229193e-39
-0.2257789224 -0.1662950367 0.381331116 3.75229193e-39
-0.2192610204 -0.2114624679 -0.07981768996 3.75229193e-39
-0.2111694962 -0.1829538792 0.2428890169 3.75229193e-39
-0.2135816067 -0.1968631297 0.116928786 3.75229193e-39
-0.2298935354 -0.1636062562 0.3122167885 3.75229193e-39
-0.2201057225 -0.2070399672 -0.1345815212 3.75229193e-39
-0.2087704837 -0.1930012703 0.1732131988 3.75229193e-39
-0.2153123319 -0.1998700052 0.02029383555 3.75229193e-39
-0.2218142748 -0.1678377539 0.4157935977 3.75229193e-39
-0.2188288271 -0.2099436969 -0.1057421118 3.75229193e-39
-0.2103753984 -0.1885828227 0.2020771056 3.75229193e-39
-0.2155440599 -0.1988637745 0.07766917348 3.75229193e-39
-0.225905031 -0.1662962884 0.3839048147 3.75229193e-39
-0.2201919705 -0.2040302306 -0.1371667534 3.75229193e-39
-0.2085989118 -0.1941482872 0.1668653339 3.75229193e-39
-0.2153039575 -0.1996442825 0.0107091926 3.75229193e-39
-0.2220213711 -0.1673726141 0.4195865989 3.75229193e-39
-0.1342457235 0.1991742998 -0.1369903535 4.48912409e-39
-0.09583187848 0.1988625526 -0.1748318225 4.48912409e-39
-0.01314116642 0.1965135783 -0.1296110302 4.48912409e-39
-0.1135125831 0.2006192356 -0.2249761522 4.48912409e-39
-0.1241521761 0.1930302382 0.02364851534 4.48912409e-39
0.01328281779 0.1937229931 0.02862908505 4.48912409e-39
-0.005600498058 0.1879536211 -0.2527941763 4.48912409e-39
-0.01682141423 0.1810580641 -0.3185910583 4.48912409e-39
-0.09369958192 0.193814382 0.06820639968 4.48912409e-39
0.04743361846 0.1944763064 0.07978835702 4.48912409e-39
0.06495423615 0.180527553 -0.2325264812 4.48912409e-39
0.06490107626 0.1719428152 -0.2865359187 4.48912409e-39
-0.1262692511 0.1934767067 -0.008718616329 4.48912409e-39
-0.009287052788 0.1930901855 -0.00332075078 4.48912409e-39
-0.03860234469 0.1919411719 -0.2462808937 4.48912409e-39
-0.06901390851 0.1896745861 -0.3199192882 4.48912409e-39
-0.1370688826 0.1956932247 -0.06398420036 4.48912409e-39
-0.04722480476 0.1937024593 -0.06049673632 4.48912409e-39
-0.05234403163 0.1965703964 -0.2189799845 4.48912409e-39
-0.1025289297 0.1984682828 -0.291426301 4.48912409e-39
-0.1145388633 0.1928011924 0.03644151241 4.48912409e-39
0.008100425825 0.1935754418 0.02406622283 4.48912409e-39
-0.01591500081 0.1888126582 -0.2628904283 4.48912409e-39
-0.02165697888 0.1816588193 -0.3208824694 4.48912409e-39
-0.1211412624 0.1930833012 0.009072714485 4.48912409e-39
-0.0117401192 0.1930404603 -0.003639396513 4.48912409e-39
-0.03405322134 0.1914000213 -0.2454494089 4.48912409e-39
-0.06165206432 0.1888888925 -0.3174383938 4.48912409e-39
-0.0983447209 0.1932095885 0.05455904081 4.48912409e-39
0.01003345288 0.1936310679 0.0287459176 4.48912409e-39
-0.003837723052 0.1872774363 -0.2603753209 4.48912409e-39
-0.01036793087 0.1802324653 -0.3195322454 4.48912409e-39
-0.1711165458 -0.17390275 -0.257045716 5.225597518e-39
-0.1794305742 -0.1761900783 -0.159829706 5.225597518e-39
-0.1991312206 -0.1838175654 -0.09727728367 5.225597518e-39
-0.01675786823 -0.151162982 -0.009903454222 5.225597518e-39
0.03029040247 -0.1691444516 -0.1797542125 5.225597518e-39
-0.196644485 -0.1942907125 0.05157156289 5.225597518e-39
-0.06909187138 -0.1644251496 -0.2467103899 5.225597518e-39
-0.108750321 -0.1801988333 -0.2125825733 5.225597518e-39
0.07220705599 -0.1676523983 -0.1278617978 5.225597518e-39
-0.1989862472 -0.2067232281 0.1394991428 5.225597518e-39
-0.0153567642 -0.1627403498 -0.2011948079 5.225597518e-39
-0.1578178555 -0.1810465753 -0.1868877858 5.225597518e-39
0.00804364495 -0.1699541807 -0.2140485197 5.225597518e-39
-0.1910035014 -0.1857254058 -0.04296605289 5.225597518e-39
-0.1403736621 -0.1722278744 -0.2646676302 5.225597518e-39
-0.04769398645 -0.1678069085 -0.154943496 5.225597518e-39
-0.03449809924 -0.1684202105 -0.2507427335 5.225597518e-39
-0.1847123802 -0.1809311062 -0.08437409252 5.225597518e-39
-0.192677632 -0.1806407273 -0.2070322931 5.225597518e-39
-0.03279932216 -0.1570066512 -0.09664407372 5.225597518e-39
0.02940766886 -0.1695955694 -0.1845359951 5.225597518e-39
-0.195280537 -0.1951289773 0.0527025871 5.225597518e-39
-0.06526338309 -0.1643662006 -0.2492245138 5.225597518e-39
-0.1101103202 -0.1800742596 -0.2121108174 5.225597518e-39
0.006958379876 -0.169889003 -0.217326507 5.225597518e-39
-0.1897495687 -0.1869786829 -0.03315612301 5.225597518e-39
-0.1368952096 -0.1701668948 -0.2672277391 5.225597518e-39
-0.05344954878 -0.1696038246 -0.1611495614 5.225597518e-39
0.03046191297 -0.1700904518 -0.1879701614 5.225597518e-39
-0.1919044107 -0.1963233948 0.05176797137 5.225597518e-39
-0.05775559321 -0.164136529 -0.2452073842 5.225597518e-39
-0.1207561046 -0.1798675656 -0.2128100693 5.225597518e-39
0.09889326245 0.1627554595 0.3047726452 5.962428276e-39
0.1589994133 0.1459997147 0.3909231722 5.962428276e-39
0.1448282599 0.1459093243 0.3707970679 5.962428276e-39
-0.1041547656 0.1805500388 0.2780563533 5.962428276e-39
0.2274737805 0.1454552412 0.3734332323 5.962428276e-39
0.05598485097 0.161695376 0.3403677046 5.962428276e-39
0.03787826002 0.178476572 0.2670973241 5.962428276e-39
-0.04781020805 0.1578070968 0.3766508698 5.962428276e-39
0.2575623691 0.1397298276 0.3829879463 5.962428276e-39
-0.0007106602425 0.1708393395 0.3075708449 5.962428276e-39
0.04214597493 0.1898816377 0.2010059655 5.962428276e-39
0.01258960273 0.1507146955 0.3947313428 5.962428276e-39
0.1888299286 0.1495633125 0.3634850681 5.962428276e-39
0.08222035319 0.1511458904 0.3641805053 5.962428276e-39
0.03146510571 0.1648734659 0.3265923858 5.962428276e-39
-0.08067148179 0.1679161191 0.3543362617 5.962428276e-39
0.1272729635 0.1627820432 0.3353362679 5.962428276e-39
0.1667043716 0.1462297738 0.3796914816 5.962428276e-39
0.06988350302 0.1567347348 0.3498556912 5.962428276e-39
-0.09609355032 0.1723494381 0.3434686959 5.962428276e-39
0.2263638824 0.14543657 0.3740349412 5.962428276e-39
0.05056683719 0.1626196504 0.3392846882 5.962428276e-39
0.03167657182 0.176815927 0.2765484154 5.962428276e-39
-0.04980310798 0.1580181867 0.3768196404 5.962428276e-39
0.1938109696 0.1488941014 0.3663704991 5.962428276e-39
0.08251733333 0.1510169655 0.3646061718 5.962428276e-39
0.03232204169 0.1646126062 0.3270152509 5.962428276e-39
-0.07303693146 0.167138651 0.3539979458 5.962428276e-39
0.2337923795 0.1434632391 0.379735291 5.962428276e-39
0.03311259672 0.1651165783 0.3356971145 5.962428276e-39
0.02994765714 0.1783612072 0.2713415325 5.962428276e-39
-0.0446270369 0.1571162045 0.3793418407 5.962428276e-39
0.06293549389 0.1911262274 0.3708686233 6.698542971e-39
-0.1517116576 0.2071427405 0.3260841668 6.698542971e-39
-0.1816932857 0.199855417 0.3851082027 6.698542971e-39
-0.008411402814 0.2008289099 0.3552859724 6.698542971e-39
-0.1045527831 0.2023970485 0.3561309576 6.698542971e-39
-0.08531311899 0.2133112699 0.003917193506 6.698542971e-39
-0.07858899236 0.1936838776 0.3894508779 6.698542971e-39
-0.04615147784 0.2082616091 0.2191259712 6.698542971e-39
-0.1146580651 0.2067060769 0.3224304318 6.698542971e-39
-0.06014297903 0.2109321505 -0.07311327755 6.698542971e-39
-0.04404959455 0.1906937063 0.3871712387 6.698542971e-39
-0.02834503911 0.208989352 0.175227493 6.698542971e-39
-0.06535384059 0.1972021461 0.3750708699 6.698542971e-39
-0.1070527881 0.2136124671 0.09684345871 6.698542971e-39
-0.1042441502 0.1954599768 0.3886522651 6.698542971e-39
-0.04113012552 0.205883503 0.2423897684 6.698542971e-39
-0.008462644182 0.1963470131 0.3745179176 6.698542971e-39
-0.1518705189 0.2124856263 0.1967907548 6.698542971e-39
-0.135221526 0.1965604872 0.3881898522 6.698542971e-39
-0.03445060179 0.2042689472 0.3013266325 6.698542971e-39
-0.09315730631 0.2003590316 0.3639089167 6.698542971e-39
-0.08425267786 0.21327582 0.005977876019 6.698542971e-39
-0.07999715209 0.1938008368 0.3892811239 6.698542971e-39
-0.0454595983 0.2082807124 0.2153522968 6.698542971e-39
-0.06418952346 0.1970368922 0.375846684 6.698542971e-39
-0.1017749906 0.2136539966 0.09438597411 6.698542971e-39
-0.1058647782 0.1954606026 0.3889800906 6.698542971e-39
-0.04395674914 0.2062604129 0.2413512319 6.698542971e-39
-0.09272930026 0.2009886056 0.3614090681 6.698542971e-39
-0.06872053444 0.212013945 -0.01643608324 6.698542971e-39
-0.07856482267 0.1935792416 0.3893897235 6.698542971e-39
-0.04026086256 0.2081877738 0.2097275406 6.698542971e-39
-0.1709260941 -0.1619738787 0.213675037 7.434656265e-39
-0.2033440471 -0.1401012838 0.1967359483 7.434656265e-39
-0.1327633858 -0.1193739399 -0.1115484014 7.434656265e-39
-0.1871315092 -0.09308171272 0.2011900544 7.434656265e-39
-0.02623283863 0.1862995625 -0.1057996303 7.434656265e-39
-0.1540469229 -0.1624682099 0.2874893546 7.434656265e-39
-0.1259504706 -0.1549145132 0.1524644494 7.434656265e-39
-0.1418193579 0.1312106252 0.02020312846 7.434656265e-39
0.005860634148 0.1759614795 -0.20752047 7.434656265e-39
-0.1351145655 -0.158015281 0.3069211245 7.434656265e-39
-0.1163266152 -0.1555552483 0.2042556405 7.434656265e-39
-0.1193672717 0.1733835042 -0.06631984562 7.434656265e-39
-0.09504193813 0.1537002325 0.01435158961 7.434656265e-39
-0.1756376177 -0.1662764698 0.2695916295 7.434656265e-39
-0.1292224824 -0.1505579203 0.1226824448 7.434656265e-39
-0.1580337435 0.09271410108 0.08346549422 7.434656265e-39
-0.1534244865 -0.06357501447 0.1415750086 7.434656265e-39
-0.2023456246 -0.1676855981 0.2384617776 7.434656265e-39
-0.1283507645 -0.1488444954 0.02776697837 7.434656265e-39
-0.1778071225 -0.02473962493 0.1496882737 7.434656265e-39
-0.03766742349 0.186207816 -0.08248598874 7.434656265e-39
-0.1551102251 -0.1624184847 0.2878805101 7.434656265e-39
-0.1244085208 -0.1552262753 0.1588618904 7.434656265e-39
-0.141478315 0.1334271878 0.02208684944 7.434656265e-39
-0.08856779337 0.1172438562 0.02739724889 7.434656265e-39
-0.1746192425 -0.1661458015 0.2685942352 7.434656265e-39
-0.1277229339 -0.1491002738 0.1128589138 7.434656265e-39
-0.1546447873 0.08382868022 0.0742353797 7.434656265e-39
-0.03304674104 0.1865237057 -0.0858598873 7.434656265e-39
-0.1490813196 -0.1617750078 0.2892295718 7.434656265e-39
-0.1219890043 -0.155356735 0.1633879095 7.434656265e-39
-0.138101086 0.1433239877 0.00501416903 7.434656265e-39
0.1799474955 0.1808556765 -0.2592187226 8.170410826e-39
0.2400400043 0.1873278022 -0.01224069111 8.170410826e-39
0.1946427673 0.2025614381 -0.05059700832 8.170410826e-39
0.1754284352 0.1944846511 0.1907703578 8.170410826e-39
0.1545983851 0.19668293 -0.0339461863 8.170410826e-39
0.2279964685 0.1845051199 -0.1383820772 8.170410826e-39
0.1936651915 0.1926196069 -0.2950949073 8.170410826e-39
0.2044759095 0.2016582787 0.09103048593 8.170410826e-39
0.1483766884 0.1952385902 0.03526600823 8.170410826e-39
0.2292084694 0.1828030646 -0.1691318601 8.170410826e-39
0.1975274533 0.1962827593 -0.3406502604 8.170410826e-39
0.2220001221 0.1984717101 0.03338568658 8.170410826e-39
0.1584270447 0.1937332004 -0.1014364287 8.170410826e-39
0.2321929187 0.1840003431 -0.12377882 8.170410826e-39
0.1866108328 0.1914421767 -0.2665818334 8.170410826e-39
0.1950160414 0.2006722093 0.10965278 8.170410826e-39
0.1639734805 0.1870691627 -0.1737621129 8.170410826e-39
0.2412801683 0.1832389981 -0.0850257799 8.170410826e-39
0.1853257269 0.1916908175 -0.2284899801 8.170410826e-39
0.1837255359 0.1971359104 0.1456616372 8.170410826e-39
0.1567984223 0.196405679 -0.03184262291 8.170410826e-39
0.2299607247 0.1839967668 -0.1340762526 8.170410826e-39
0.1914038062 0.192876488 -0.2987752855 8.170410826e-39
0.2049343735 0.2016920745 0.08719583601 8.170410826e-39
0.1603759378 0.1941653639 -0.09142863005 8.170410826e-39
0.2321262062 0.1841923296 -0.1187900901 8.170410826e-39
0.1840404719 0.1916192174 -0.2648440003 8.170410826e-39
0.1958228201 0.2008026093 0.1164563745 8.170410826e-39
0.1594326049 0.1962695867 -0.01599664241 8.170410826e-39
0.2241918445 0.1846389621 -0.1381178051 8.170410826e-39
0.1888476908 0.1930947155 -0.3036518991 8.170410826e-39
0.2071976364 0.2016846836 0.07913006097 8.170410826e-39
-0.2440712452 0.2063585073 0.4889423549 8.906165387e-39
0.1562896222 0.2032002509 0.487526238 8.906165387e-39
0.03108185716 0.1883543432 0.4890884459 8.906165387e-39
0.09823533148 0.2033863068 0.4896862805 8.906165387e-39
-0.1056763753 0.2005452514 0.4921491742 8.906165387e-39
0.2139108926 0.1907594949 0.4822787046 8.906165387e-39
-0.2011574954 0.1866736114 0.4904139936 8.906165387e-39
0.03717008606 0.1989427954 0.4898914099 8.906165387e-39
-0.01269400679 0.2016565949 0.4903322756 8.906165387e-39
0.2337495089 0.1868168563 0.4802469015 8.906165387e-39
-0.2263160497 0.1946997046 0.4766988456 8.906165387e-39
-0.04415267333 0.1896119267 0.4892782569 8.906165387e-39
-0.1661229134 0.1989839077 0.4926098883 8.906165387e-39
0.2004385144 0.1939289868 0.483846426 8.906165387e-39
-0.1505607069 0.1865680069 0.4903666973 8.906165387e-39
0.0840946883 0.2011673898 0.4899658263 8.906165387e-39
-0.2147196978 0.1972914785 0.4926155806 8.906165387e-39
0.1844943464 0.1969546974 0.4854939878 8.906165387e-39
-0.06298589706 0.1882192343 0.4889406264 8.906165387e-39
0.1230834648 0.2008477896 0.4894509315 8.906165387e-39
-0.1020204127 0.2008667141 0.4920585454 8.906165387e-39
0.2122641951 0.1911565363 0.4824652076 8.906165387e-39
-0.1981409341 0.1864291281 0.490260303 8.906165387e-39
0.02861310542 0.1972834915 0.490034461 8.906165387e-39
-0.1523451209 0.1987248957 0.4924542606 8.906165387e-39
0.2001144439 0.1937259585 0.483822614 8.906165387e-39
-0.1455950141 0.1866825521 0.4902644157 8.906165387e-39
0.07688040286 0.2008680701 0.4899495244 8.906165387e-39
-0.06801889092 0.2004306316 0.4909633696 8.906165387e-39
0.2154408544 0.1902216822 0.4820534885 8.906165387e-39
-0.2011529505 0.1871300936 0.4900356829 8.906165387e-39
0.00885393098 0.1930309087 0.4901462197 8.906165387e-39
0.08188374341 -0.1292047054 0.0522989817 9.641561216e-39
0.06950871646 -0.1367761493 0.2085641474 9.641561216e-39
-0.08413730562 -0.1373600215 0.2735514641 9.641561216e-39
0.1103976369 -0.1339828819 0.09496363252 9.641561216e-39
0.1116861925 -0.1108115315 -0.07161257416 9.641561216e-39
-0.05259340629 -0.1432056576 0.3032525182 9.641561216e-39
-0.2044352442 -0.1413174123 0.3128807843 9.641561216e-39
0.05860432237 -0.1340688914 0.1679328233 9.641561216e-39
0.1177746132 -0.09733168781 -0.1182272956 9.641561216e-39
-0.1058079004 -0.1457771063 0.3107893169 9.641561216e-39
-0.2291934937 -0.1537162066 0.3151219487 9.641561216e-39
0.03944424912 -0.1378962994 0.2013002038 9.641561216e-39
0.106771864 -0.1157628521 -0.047316093 9.641561216e-39
-0.01467005908 -0.1412222236 0.2858566046 9.641561216e-39
-0.1889346093 -0.1385671645 0.3085244298 9.641561216e-39
0.07249301672 -0.1331976056 0.147711575 9.641561216e-39
0.09849578887 -0.1196251959 -0.001900342759 9.641561216e-39
0.0396530889 -0.1448511034 0.2592550218 9.641561216e-39
-0.1499450207 -0.1367306113 0.2924154103 9.641561216e-39
0.09685070813 -0.1339185685 0.1241831481 9.641561216e-39
0.1158548817 -0.112038143 -0.0816462785 9.641561216e-39
-0.04644363746 -0.1432013065 0.3028116226 9.641561216e-39
-0.2103514671 -0.1438408494 0.3157345653 9.641561216e-39
0.05822743848 -0.1335961521 0.16786246 9.641561216e-39
0.1090298817 -0.1168474481 -0.04435696453 9.641561216e-39
-0.002640461084 -0.1415761113 0.2836148143 9.641561216e-39
-0.1861773431 -0.1378750801 0.3071190417 9.641561216e-39
0.07316007465 -0.1327037513 0.1500951201 9.641561216e-39
0.1169658378 -0.1113137975 -0.08925212175 9.641561216e-39
-0.04706645757 -0.1429564357 0.3015229404 9.641561216e-39
-0.2136820406 -0.1447279155 0.3165329695 9.641561216e-39
0.05600165576 -0.133603245 0.1678878665 9.641561216e-39
0.1334926039 0.1551659256 -0.2444923669 1.037659831e-38
0.1767448336 0.1577311456 -0.3029206097 1.037659831e-38
0.1518923789 0.04867563769 -0.3657902479 1.037659831e-38
0.1834886521 0.1569947451 -0.3576248288 1.037659831e-38
0.1323864609 0.1446321458 -0.02828674763 1.037659831e-38
0.1659827679 0.1517066509 -0.1825744361 1.037659831e-38
-0.07477188855 0.08020894229 -0.2071571052 1.037659831e-38
0.1660687029 0.129106015 -0.3587647378 1.037659831e-38
0.1331299543 0.1449531019 0.03235744312 1.037659831e-38
0.1612371951 0.1487576813 -0.1318613738 1.037659831e-38
-0.1538803428 0.05149486288 -0.09283121675 1.037659831e-38
0.1279212981 0.1471996307 -0.3531491458 1.037659831e-38
0.1316219568 0.1447735578 -0.07120133936 1.037659831e-38
0.1701369435 0.154846698 -0.2398606837 1.037659831e-38
0.01448414288 0.07578597218 -0.3076475859 1.037659831e-38
0.1766484082 0.09826121479 -0.3617169857 1.037659831e-38
0.1347934455 0.1464966089 -0.1363729089 1.037659831e-38
0.177756846 0.1567718536 -0.2848167121 1.037659831e-38
0.1263877451 0.07742450386 -0.3555096686 1.037659831e-38
0.1797463149 0.1480506659 -0.3605711162 1.037659831e-38
0.133617118 0.1446036845 -0.02731072716 1.037659831e-38
0.1663746536 0.1524198949 -0.1913391352 1.037659831e-38
-0.1100497916 0.06585019827 -0.1564418674 1.037659831e-38
0.1609367132 0.1285779327 -0.3580130637 1.037659831e-38
0.1340423375 0.1448532045 -0.0706622228 1.037659831e-38
0.170786351 0.1546320021 -0.2354548872 1.037659831e-38
0.004565471783 0.09535839409 -0.2998953164 1.037659831e-38
0.1735576689 0.1142658219 -0.3598611355 1.037659831e-38
0.1350658536 0.1445225477 -0.02002936602 1.037659831e-38
0.166069001 0.1519435197 -0.1850853562 1.037659831e-38
-0.124742128 0.07133885473 -0.1209098399 1.037659831e-38
0.153630197 0.1329490095 -0.3562366962 1.037659831e-38
-0.07029606402 0.2107324749 -0.07687566429 1.111163541e-38
-0.1215691492 0.2046956867 0.109120138 1.111163541e-38
-0.106465593 0.2045022994 0.2758243382 1.111163541e-38
-0.03630069643 0.1915771216 -0.2045685798 1.111163541e-38
-0.0463908799 0.1972139776 -0.2117523104 1.111163541e-38
-0.07995434105 0.1974389255 0.2765540183 1.111163541e-38
-0.1052645743 0.2095525712 0.08477357775 1.111163541e-38
-0.06981893629 0.2082418799 0.02859842591 1.111163541e-38
-0.04182849452 0.1929278672 -0.2680221498 1.111163541e-38
-0.02029913478 0.1919798255 0.2588314414 1.111163541e-38
-0.09432729334 0.2123058885 0.01899793744 1.111163541e-38
-0.07227003574 0.2006722242 0.1304095089 1.111163541e-38
-0.05049004778 0.2009224594 -0.1683066934 1.111163541e-38
-0.1176356301 0.2015760094 0.2792773545 1.111163541e-38
-0.1089075878 0.2010198683 0.1705359668 1.111163541e-38
-0.05505485833 0.2065868378 -0.03815034032 1.111163541e-38
-0.05835859478 0.204823643 -0.1319670081 1.111163541e-38
-0.1500405967 0.1964550316 0.2545810342 1.111163541e-38
-0.1003685221 0.1974345446 0.2181786448 1.111163541e-38
-0.03422718868 0.1964803636 -0.1399445236 1.111163541e-38
-0.04482470825 0.19702968 -0.2081913948 1.111163541e-38
-0.08359250426 0.1977251172 0.2796089947 1.111163541e-38
-0.1018677577 0.2111662179 0.07792515308 1.111163541e-38
-0.06894318014 0.2080882639 0.02381006069 1.111163541e-38
-0.04831724614 0.2002980858 -0.1704822183 1.111163541e-38
-0.1144472361 0.2014750689 0.2772372961 1.111163541e-38
-0.1080030277 0.2017233074 0.1683538258 1.111163541e-38
-0.05320584401 0.2061678767 -0.04357432947 1.111163541e-38
-0.04244938865 0.1958018541 -0.2150241286 1.111163541e-38
-0.06969683617 0.1962166429 0.2755516768 1.111163541e-38
-0.09981132299 0.212107867 0.07126886398 1.111163541e-38
-0.06987129152 0.2085531652 0.03300350159 1.111163541e-38
-0.1524502486 0.2080439478 -0.241971463 1.184631237e-38
-0.2452179939 0.2044219673 -0.2792971134 1.184631237e-38
-0.1173345223 0.2116811872 -0.2564446032 1.184631237e-38
-0.1835849732 0.2047296464 -0.1200104952 1.184631237e-38
-0.1788725406 0.2056570798 -0.08447644114 1.184631237e-38
-0.1179808825 0.2097774297 -0.4396436214 1.184631237e-38
0.06758914143 0.2097599953 -0.4043699205 1.184631237e-38
-0.1843913645 0.2063968182 -0.3258123994 1.184631237e-38
-0.1798735857 0.2072966397 -0.02422274835 1.184631237e-38
-0.0270839911 0.2075170875 -0.446516484 1.184631237e-38
0.1075716987 0.20475097 -0.398617655 1.184631237e-38
-0.1448957771 0.2087300718 -0.3897018433 1.184631237e-38
-0.1793475598 0.204783842 -0.1315022111 1.184631237e-38
-0.1709492952 0.2094589323 -0.428627789 1.184631237e-38
0.008516672067 0.213401407 -0.3872959018 1.184631237e-38
-0.1924353987 0.2054059654 -0.2820315957 1.184631237e-38
-0.1772629917 0.2044950724 -0.177397266 1.184631237e-38
-0.2118487805 0.2075808346 -0.3931248486 1.184631237e-38
-0.02405787818 0.2132727653 -0.3529810905 1.184631237e-38
-0.1884711236 0.2046436071 -0.2171566337 1.184631237e-38
-0.1785984486 0.205933705 -0.07375574857 1.184631237e-38
-0.1134866849 0.2097239643 -0.4406885207 1.184631237e-38
0.07049725205 0.2096442878 -0.4033761919 1.184631237e-38
-0.1847514063 0.2064252794 -0.3330167234 1.184631237e-38
-0.1793778241 0.2050570548 -0.1098098606 1.184631237e-38
-0.1786508411 0.2090828568 -0.4254865348 1.184631237e-38
0.01700056531 0.2132300586 -0.396779269 1.184631237e-38
-0.1954320818 0.2051701695 -0.2735328972 1.184631237e-38
-0.18232131 0.2070317119 -0.04810950905 1.184631237e-38
-0.1161685362 0.2094605118 -0.44200176 1.184631237e-38
