# .PCD v0.7 - Point Cloud Data file format
VERSION 0.7
FIELDS x y z rgb
SIZE 4 4 4 4
TYPE F F F F
COUNT 1 1 1 1
WIDTH 846
HEIGHT 1
VIEWPOINT 0 0 0 1 0 0 0
POINTS 846
DATA ascii
-0.1789601892 -0.1649138778 0.3662413061 8.742304551e-39
-0.09235532582 -0.1583194733 0.3195166886 8.742304551e-39
0.04951193184 -0.1504360139 0.2649158537 8.742304551e-39
-0.2513426244 -0.2074124217 0.3722294867 8.742304551e-39
-0.1068687364 -0.1495992392 0.3536323905 8.742304551e-39
-0.1326935887 -0.1728167385 0.3314365447 8.742304551e-39
-0.001334204455 -0.1488621831 0.2909920514 8.742304551e-39
-0.251526475 -0.1981541365 0.3696343005 8.742304551e-39
-0.2273167372 -0.2029901147 0.3751911819 8.742304551e-39
-0.03271412477 -0.1508003622 0.3212875426 8.742304551e-39
0.02052882873 -0.150881812 0.3083942533 8.742304551e-39
-0.1685325056 -0.1656464487 0.3578143418 8.742304551e-39
-0.06843198091 -0.1438628435 0.345054239 8.742304551e-39
-0.02773810737 -0.1518752873 0.3386709988 8.742304551e-39
-0.04022518918 -0.1459637433 0.3242545426 8.742304551e-39
-0.1558987349 -0.156891644 0.3559253514 8.742304551e-39
0.06860221922 -0.1556017995 0.3262449205 8.742304551e-39
-0.132626906 -0.1525409073 0.3482575715 8.742304551e-39
-0.1309165359 -0.1447119266 0.3536756635 8.742304551e-39
-0.1216058657 -0.164356932 0.3216192126 8.742304551e-39
-0.07860111445 -0.1560587138 0.3100638092 8.742304551e-39
-0.2052054703 -0.1830507964 0.3367328048 8.742304551e-39
-0.2080587596 0.1902759224 0.4094034731 8.012284103e-39
-0.05123135075 0.188273862 0.461656183 8.012284103e-39
0.1419954002 0.1924419105 0.4465514123 8.012284103e-39
0.008190478198 0.1877314299 0.4613747299 8.012284103e-39
-0.1689104438 0.1860963106 0.4457469285 8.012284103e-39
-0.190252915 0.1925934106 0.3916072249 8.012284103e-39
0.1648610532 0.1851775646 0.3986312747 8.012284103e-39
0.1135721579 0.193789497 0.4561061859 8.012284103e-39
-0.2024703473 0.191882506 0.2914773822 8.012284103e-39
-0.06601148844 0.1881958693 0.4623752534 8.012284103e-39
0.1519286186 0.1902206391 0.434235096 8.012284103e-39
0.04307299107 0.1884309351 0.4576272666 8.012284103e-39
-0.2079317719 0.1903036684 0.3732148707 8.012284103e-39
-0.1428094953 0.1889665127 0.459002763 8.012284103e-39
0.1144503579 0.1878937632 0.410230428 8.012284103e-39
0.05722665042 0.1891355366 0.457903564 8.012284103e-39
-0.2085753977 0.1900062859 0.3232162595 8.012284103e-39
-0.0908004716 0.1880731434 0.4611566961 8.012284103e-39
0.0555841513 0.1924216896 0.4488733113 8.012284103e-39
-0.0120857209 0.1879990101 0.4628809392 8.012284103e-39
-0.2249399424 0.1832976192 0.4146381319 8.012284103e-39
-0.1789352596 0.1902643591 0.4512895942 8.012284103e-39
-0.07646673918 0.1853469163 0.3960693777 8.012284103e-39
-0.0304280892 0.1894668192 0.4471182823 8.012284103e-39
-0.07015565038 0.1861829013 0.4083188176 8.012284103e-39
-0.04534634203 0.1898604035 0.4350432754 8.012284103e-39
-0.1320388615 0.1835292876 0.4181451201 8.012284103e-39
-0.05855949596 0.188282162 0.4535058737 8.012284103e-39
0.06908161938 0.1855834574 0.4035223424 8.012284103e-39
0.1461478323 0.1894659251 0.4286061227 8.012284103e-39
-0.1574736089 0.1875178516 0.4537213147 8.012284103e-39
0.0006874202518 0.1857935786 0.4150370955 8.012284103e-39
-0.1613650173 0.1795751899 0.213507086 7.281903522e-39
-0.1622999907 0.1812737137 0.3632229269 7.281903522e-39
-0.1975482106 0.1858386248 0.003599498188 7.281903522e-39
-0.02350654267 0.1824230403 -0.03567969799 7.281903522e-39
-0.1731501073 0.1829196066 0.08676274121 7.281903522e-39
-0.1688281298 0.1789758205 0.2364332527 7.281903522e-39
-0.1305527836 0.1810082495 -0.2704145014 7.281903522e-39
-0.009736811742 0.1746497154 -0.2586700022 7.281903522e-39
-0.1020342261 0.1790291071 0.1251858473 7.281903522e-39
-0.1191600338 0.1788876504 0.3711950183 7.281903522e-39
-0.1626973897 0.1843129694 -0.1081882119 7.281903522e-39
-0.01750805788 0.1811412722 -0.1160065159 7.281903522e-39
-0.1324250251 0.1791560948 0.09922923148 7.281903522e-39
-0.1433119178 0.1826652139 0.2760397792 7.281903522e-39
-0.1504819393 0.182200253 -0.2139896452 7.281903522e-39
-0.03677178547 0.1765443534 -0.1838591546 7.281903522e-39
-0.1203469187 0.1778629571 0.1319740266 7.281903522e-39
-0.1158203036 0.1808398068 0.3201920986 7.281903522e-39
-0.1444919109 0.182724461 -0.01827722602 7.281903522e-39
-0.06241970509 0.1816740036 -0.06942664087 7.281903522e-39
-0.1000285149 0.1811967045 0.02335751615 7.281903522e-39
-0.1064684242 0.1799032241 0.2243710458 7.281903522e-39
-0.171897471 0.1827281564 0.1059884205 7.281903522e-39
-0.08816882968 0.1778195649 -0.142775625 7.281903522e-39
-0.1082414165 0.1825723201 -0.02026195265 7.281903522e-39
-0.02047820203 0.1805289537 0.03620304912 7.281903522e-39
-0.0872797519 0.1823794842 0.1634868085 7.281903522e-39
-0.1701754779 0.1793700308 0.1752085537 7.281903522e-39
-0.07100766897 0.1824193746 -0.03385753557 7.281903522e-39
-0.01960388385 0.1768729389 -0.1910752654 7.281903522e-39
-0.0236612726 0.1801089495 0.03854778036 7.281903522e-39
-0.02152759209 0.1766632795 0.2712541819 7.281903522e-39
0.1117180809 0.1682330072 -0.06373866647 6.55152294e-39
0.1572224796 0.1881506592 -0.3526440561 6.55152294e-39
0.1246128157 0.1741033196 0.1058128774 6.55152294e-39
-0.07717690617 0.1809760928 -0.3542407453 6.55152294e-39
0.1275546998 0.1697569489 0.03025501408 6.55152294e-39
0.1612508446 0.1779556721 -0.231258437 6.55152294e-39
0.1341759562 0.1846812367 0.3483123183 6.55152294e-39
0.1020956784 0.1846923679 -0.3726049662 6.55152294e-39
0.1500886977 0.1722521633 -0.1641507894 6.55152294e-39
0.1646378636 0.192833066 -0.3906172514 6.55152294e-39
0.1443431228 0.1770696491 0.2399688512 6.55152294e-39
0.008072795346 0.1827423573 -0.3611962199 6.55152294e-39
0.1222295836 0.1683012545 -0.08583576977 6.55152294e-39
0.1719651967 0.1846549809 -0.3013172746 6.55152294e-39
0.1106642336 0.1806682199 0.3098780811 6.55152294e-39
0.03275075927 0.1824051291 -0.3287546039 6.55152294e-39
0.07556577027 0.1652737707 -0.1286549419 6.55152294e-39
0.1586567312 0.1883082241 -0.3518604636 6.55152294e-39
0.1075540781 0.1752137244 0.1276877373 6.55152294e-39
-0.1134778485 0.178002879 -0.322801739 6.55152294e-39
0.1029160097 0.1663734913 -0.04715692624 6.55152294e-39
0.1094567552 0.1766103506 -0.2554442883 6.55152294e-39
0.1054657251 0.1793057323 0.2192547172 6.55152294e-39
0.07239380479 0.1785088629 -0.2907540202 6.55152294e-39
0.0913335681 0.1658912301 -0.0193753168 6.55152294e-39
0.1277922839 0.1843836606 -0.3217927217 6.55152294e-39
0.09970144182 0.1773819923 0.1449937671 6.55152294e-39
0.1593972743 0.1822140962 -0.2767737806 6.55152294e-39
0.133311525 0.1743411571 0.1169226691 6.55152294e-39
0.1152835861 0.184511736 -0.3594872057 6.55152294e-39
0.1409933716 0.1703770161 -0.1104350537 6.55152294e-39
0.1477239281 0.1906854063 -0.3797137737 6.55152294e-39
-0.1666102409 -0.1521188915 0.2784021497 5.820783626e-39
-0.04038670659 -0.1554425359 -0.1813490242 5.820783626e-39
-0.1413889825 -0.1698107868 0.08333421499 5.820783626e-39
-0.1924353391 -0.1200895011 -0.1053226814 5.820783626e-39
-0.2039845884 -0.1417983621 0.2856342196 5.820783626e-39
-0.1785520911 -0.1493294239 0.2239421904 5.820783626e-39
-0.1031174734 -0.1603645235 0.1995632946 5.820783626e-39
-0.1103627384 -0.1657669246 -0.2568739057 5.820783626e-39
-0.05059695244 -0.165342778 0.2647182941 5.820783626e-39
-0.0939143002 -0.155126363 -0.07726513594 5.820783626e-39
-0.1711899191 -0.1673126817 0.1494975239 5.820783626e-39
-0.1679677814 -0.1531919241 -0.1334930509 5.820783626e-39
-0.1200209036 -0.1544121653 0.2848632932 5.820783626e-39
-0.136559844 -0.1562136561 0.1045275107 5.820783626e-39
-0.07227789611 -0.1641861945 0.1931854337 5.820783626e-39
-0.1398492455 -0.1632650495 -0.1975684017 5.820783626e-39
-0.04829481617 -0.1657231003 0.2626452446 5.820783626e-39
-0.1277801394 -0.1588205397 0.04860843346 5.820783626e-39
-0.1124377102 -0.1652307212 0.1409719139 5.820783626e-39
-0.1646139622 -0.1621872038 -0.0175808724 5.820783626e-39
-0.1228913814 -0.1591431648 0.2347735614 5.820783626e-39
-0.1797186881 -0.150999397 0.1687732637 5.820783626e-39
-0.07190189511 -0.1617170423 0.05024987459 5.820783626e-39
-0.09922108054 -0.1673774123 0.1152241454 5.820783626e-39
-0.1522866637 -0.1617552936 0.1971078962 5.820783626e-39
-0.1795781553 -0.165307045 0.1722392589 5.820783626e-39
-0.08998052031 -0.1624269336 -0.03848653659 5.820783626e-39
-0.1915082932 -0.1498205215 0.2712920904 5.820783626e-39
0.007619650569 -0.170894593 0.2072444558 5.820783626e-39
-0.07084259391 -0.1661652476 0.1424773932 5.820783626e-39
-0.1644919217 -0.1608620286 0.2458749563 5.820783626e-39
-0.2211685777 -0.04191273823 0.2763855457 5.820783626e-39
0.2219546288 -0.1566994786 -0.2424454689 5.090401643e-39
0.2148014754 -0.1497676224 -0.1914311051 5.090401643e-39
0.1857958436 -0.1547331512 0.287363857 5.090401643e-39
0.199160859 -0.1560081989 0.08247167617 5.090401643e-39
0.2253892571 -0.1587388068 -0.1047215536 5.090401643e-39
0.2194131017 -0.1530336291 -0.1361881793 5.090401643e-39
0.2186878622 -0.1303453147 0.03304497153 5.090401643e-39
0.2216501385 -0.1542947441 -0.1555865705 5.090401643e-39
0.2281037867 -0.1653976887 -0.3383720517 5.090401643e-39
0.2257016003 -0.1603885591 -0.3070494533 5.090401643e-39
0.198040098 -0.1515684575 0.2597509027 5.090401643e-39
0.2156987935 -0.1547148377 -0.07485941052 5.090401643e-39
0.2279024124 -0.160421595 -0.2130180597 5.090401643e-39
0.2215289474 -0.1535796374 -0.2570406199 5.090401643e-39
0.2076106966 -0.1347079873 0.08722544461 5.090401643e-39
0.193838492 -0.1509770453 -0.02598598599 5.090401643e-39
0.2290040106 -0.1561081409 -0.2872503996 5.090401643e-39
0.2220540643 -0.1667650789 -0.3292043209 5.090401643e-39
0.1933174878 -0.1430820674 0.2265004367 5.090401643e-39
0.1815716624 -0.1534101665 0.05415508524 5.090401643e-39
0.2228858918 -0.1579711735 -0.1274018288 5.090401643e-39
0.2072239667 -0.1472409219 -0.1993324906 5.090401643e-39
0.2130277157 -0.1553218961 -0.1438943893 5.090401643e-39
0.1869351268 -0.1492949575 -0.02556396462 5.090401643e-39
0.218748644 -0.1623346806 -0.1369696558 5.090401643e-39
0.1885927767 -0.1562292725 0.05633779988 5.090401643e-39
0.2213439792 -0.1577951014 -0.2166840285 5.090401643e-39
0.2105522603 -0.1493604928 -0.07934952527 5.090401643e-39
0.1730276048 -0.1514603943 0.2357212305 5.090401643e-39
0.2063395977 -0.155436635 0.0692018047 5.090401643e-39
0.2185724378 -0.1784447432 -0.3482926786 5.090401643e-39
0.2077553719 -0.1546615809 0.04852312803 5.090401643e-39
0.2323563844 0.031477198 0.3429113328 4.359662329e-39
0.246317476 0.1741546839 0.1866036206 4.359662329e-39
0.2485066503 0.1547019035 0.3926296234 4.359662329e-39
0.231907323 0.1779198647 0.07618755847 4.359662329e-39
0.2115872204 0.1680585146 0.1360331029 4.359662329e-39
0.2536406815 0.1783265918 0.3335267305 4.359662329e-39
0.193990469 0.03742479533 0.3483101428 4.359662329e-39
0.216295287 0.1740597785 -0.1333994716 4.359662329e-39
0.2319848984 -0.02025431208 0.3438174129 4.359662329e-39
0.2447405607 0.1703594476 0.04314883798 4.359662329e-39
0.2409993261 0.1067417264 0.3817596734 4.359662329e-39
0.2293319404 0.1751959622 0.001666291035 4.359662329e-39
0.2215899825 0.03502020985 0.3333625495 4.359662329e-39
0.2515254021 0.1725279987 0.2280775905 4.359662329e-39
0.2316618711 0.06761095673 0.363989532 4.359662329e-39
0.2145812064 0.1742446125 -0.05454166979 4.359662329e-39
0.2296132594 -0.0009046865162 0.3416170776 4.359662329e-39
0.2415731102 0.173191011 0.1626612246 4.359662329e-39
0.241469115 0.1424299628 0.3726866841 4.359662329e-39
0.2202505767 0.1765914261 0.0881139636 4.359662329e-39
0.2208956331 0.1014594808 0.3154420257 4.359662329e-39
0.2412146777 0.1692136526 0.3204820454 4.359662329e-39
0.2337340862 0.1310117096 0.3510043919 4.359662329e-39
0.2268423587 0.1461341381 0.2940993011 4.359662329e-39
0.2285788208 -0.01574702002 0.3390412629 4.359662329e-39
0.228720814 0.158830151 0.28775087 4.359662329e-39
0.2227586061 0.05365143716 0.3303116262 4.359662329e-39
0.2466892004 0.1624273658 0.3648759723 4.359662329e-39
0.2257978469 -0.1026400849 0.3206856549 4.359662329e-39
0.2125290185 0.1744920611 -0.1783937663 4.359662329e-39
0.2336084992 -0.1172762513 0.328009367 4.359662329e-39
0.24032408 0.1783783734 0.0857674405 4.359662329e-39
-0.2443254739 -0.1786636412 -0.1926586926 3.628921614e-39
-0.2152135372 -0.1719758362 -0.003019165481 3.628921614e-39
-0.1923160553 -0.1604422182 0.07417407632 3.628921614e-39
-0.2307848781 -0.1673595905 0.1058477759 3.628921614e-39
-0.2176569551 -0.1732503474 -0.3454040289 3.628921614e-39
-0.2054579556 -0.1641540825 -0.1957796067 3.628921614e-39
-0.2113773972 -0.1717861444 -0.09156391025 3.628921614e-39
-0.2135163248 -0.16964145 0.3194291592 3.628921614e-39
-0.2447411269 -0.1795729101 -0.118174538 3.628921614e-39
-0.2421216667 -0.1715667397 -0.007460934576 3.628921614e-39
-0.2052523345 -0.1699485481 -0.008305163123 3.628921614e-39
-0.2274465412 -0.1642385572 0.1926343441 3.628921614e-39
-0.2397226542 -0.1758781224 -0.2463619262 3.628921614e-39
-0.2243172675 -0.1776894331 -0.09369730949 3.628921614e-39
-0.2016340643 -0.1668701321 -0.08221746981 3.628921614e-39
-0.2141887546 -0.1682921052 0.2493593544 3.628921614e-39
-0.2432592511 -0.1797484756 -0.1916861236 3.628921614e-39
-0.243260175 -0.1768071204 -0.04495660961 3.628921614e-39
-0.1975778341 -0.1647203416 0.03159359097 3.628921614e-39
-0.2333882749 -0.1629550606 0.1522428095 3.628921614e-39
-0.2223493457 -0.1722480506 -0.2777469158 3.628921614e-39
-0.2100598365 -0.1695325077 -0.1362366378 3.628921614e-39
-0.1955311149 -0.165827319 -0.05921321362 3.628921614e-39
-0.1896986812 -0.165763855 0.1580230445 3.628921614e-39
-0.2063612491 -0.1638733745 -0.2133334875 3.628921614e-39
-0.2132500559 -0.1692365855 0.03809141368 3.628921614e-39
-0.2278503776 -0.1738979518 -0.2982382774 3.628921614e-39
-0.202600643 -0.1679590344 0.02336698771 3.628921614e-39
-0.2196465433 -0.1733891666 -0.05448770151 3.628921614e-39
-0.2267346829 -0.1653405726 0.2243879884 3.628921614e-39
-0.2447638065 -0.1799582541 -0.09204626828 3.628921614e-39
-0.2382618338 -0.1660661846 0.01570527069 3.628921614e-39
-0.04175813496 -0.1552463323 0.3109679222 2.898180898e-39
0.193692103 -0.15384157 0.2803695202 2.898180898e-39
0.1886387914 -0.1586752087 -0.02764476277 2.898180898e-39
0.2291027457 -0.1527178884 0.3272960186 2.898180898e-39
0.1225298867 -0.1599159688 0.3325414658 2.898180898e-39
0.160517633 -0.1598195881 0.3316420317 2.898180898e-39
0.1862696707 -0.163015753 -0.2252041101 2.898180898e-39
0.1987860054 -0.1567890793 0.08083183318 2.898180898e-39
-0.1314961612 -0.1567249745 0.3045883179 2.898180898e-39
0.1955132931 -0.1531818211 0.1691509634 2.898180898e-39
0.1822393835 -0.1531732082 -0.08455113322 2.898180898e-39
0.2074968517 -0.1557955742 0.1754420996 2.898180898e-39
0.01613657176 -0.1563552469 0.3227432966 2.898180898e-39
0.1834925562 -0.1572544724 0.320813328 2.898180898e-39
0.1788684875 -0.1534881592 -0.1297305524 2.898180898e-39
0.1945872903 -0.1561870724 0.1164518967 2.898180898e-39
-0.05334445834 -0.1546683609 0.3116005659 2.898180898e-39
0.1970713586 -0.1543875486 0.3051898777 2.898180898e-39
0.1709755063 -0.155755505 -0.02238604799 2.898180898e-39
0.1905877888 -0.1510873884 0.1802346706 2.898180898e-39
0.06738276035 -0.1585944444 0.313564539 2.898180898e-39
0.1439764202 -0.1567182094 0.2958840728 2.898180898e-39
0.1885893047 -0.1554724872 0.06167053804 2.898180898e-39
0.1762081087 -0.1504272819 0.1554404944 2.898180898e-39
0.1861633509 -0.144463256 0.3153173327 2.898180898e-39
0.2112681717 -0.1467434764 0.3587959707 2.898180898e-39
0.06140579656 -0.1571472734 0.3519302905 2.898180898e-39
0.1494196355 -0.1510425061 0.3148421645 2.898180898e-39
0.2126034945 -0.1553474218 -0.1465629786 2.898180898e-39
0.2351142913 -0.1532356441 0.3552929461 2.898180898e-39
-0.1494086534 -0.15687491 0.3295835257 2.898180898e-39
0.2184961587 -0.1513794661 0.3126644194 2.898180898e-39
0.04893377796 0.1514793038 0.1538203657 2.167082852e-39
-0.03275591508 0.1463885754 -0.2973710895 2.167082852e-39
-0.01465425827 0.1516484469 0.2066770047 2.167082852e-39
0.1173973083 0.1533540934 -0.1586034 2.167082852e-39
-0.05323765427 0.1486010104 -0.02236355469 2.167082852e-39
-0.1075356752 0.1541838944 -0.1727638245 2.167082852e-39
0.1190052107 0.1609955728 0.2405261248 2.167082852e-39
0.09604958445 0.1562256366 -0.005523431581 2.167082852e-39
0.1292058825 0.1578875631 0.1423165649 2.167082852e-39
0.02423249371 0.1458330005 -0.2812113166 2.167082852e-39
-0.01081767213 0.152861461 0.2298143506 2.167082852e-39
0.1045573503 0.1566750705 -0.1147862002 2.167082852e-39
0.00443441933 0.148482129 0.01960544847 2.167082852e-39
-0.06247242168 0.1512414217 -0.2110148519 2.167082852e-39
0.04506008327 0.1583346277 0.2362203747 2.167082852e-39
0.07498285174 0.1573244929 -0.08781067282 2.167082852e-39
0.07567849755 0.1516414136 0.1046198905 2.167082852e-39
-0.00574933365 0.149152562 -0.2516334653 2.167082852e-39
-0.0564122051 0.1484133005 0.1156363338 2.167082852e-39
0.02159613185 0.1514565647 -0.1568025798 2.167082852e-39
-0.03082339279 0.1479073167 -0.06690442562 2.167082852e-39
-0.03239610046 0.1497101933 -0.2014036477 2.167082852e-39
-0.1024444699 0.148434341 -0.03402869403 2.167082852e-39
-0.1059883535 0.1504845768 -0.1011777148 2.167082852e-39
0.09666748345 0.1510811001 0.03458587825 2.167082852e-39
0.08402887732 0.1513667852 -0.1937749535 2.167082852e-39
0.1381170452 0.1595670283 0.02938892506 2.167082852e-39
-0.02034852467 0.1418706626 -0.04199442267 2.167082852e-39
0.1771532446 0.1613635421 0.1688646823 2.167082852e-39
0.1110375449 0.1501475722 -0.1619400382 2.167082852e-39
0.1853579283 0.1633644998 0.08687154949 2.167082852e-39
0.1714476645 0.1322809905 -0.2474443614 2.167082852e-39
-0.03946369141 0.174548775 -0.1089954749 1.435982003e-39
-0.1181593761 0.1643541306 0.2170786262 1.435982003e-39
-0.03953656927 0.1762899905 -0.2065330595 1.435982003e-39
-0.1199033931 0.176879257 0.006676708814 1.435982003e-39
-0.03318275139 0.1744227111 -0.1925134063 1.435982003e-39
-0.1333914697 0.171114102 0.1586022824 1.435982003e-39
0.009282635525 0.1739442497 -0.3330287933 1.435982003e-39
-0.09367832541 0.1705780029 0.1550930142 1.435982003e-39
-0.0163227506 0.1738263667 0.04534900934 1.435982003e-39
-0.07167777419 0.1615185142 0.2739119828 1.435982003e-39
-0.02487616241 0.1752254367 -0.2734697759 1.435982003e-39
-0.1080455408 0.1787509173 0.07194314152 1.435982003e-39
-0.06319071352 0.1762038171 -0.0940880999 1.435982003e-39
-0.09118312597 0.1684443951 0.170225367 1.435982003e-39
-0.03902730346 0.1764443815 -0.3088010252 1.435982003e-39
-0.1248187274 0.1774608344 0.08109265566 1.435982003e-39
-0.07301343977 0.1763335466 -0.0551158227 1.435982003e-39
-0.1067922413 0.1637203097 0.2243228108 1.435982003e-39
-0.07243163139 0.1828599721 -0.2287601382 1.435982003e-39
-0.1373173743 0.1761008203 -0.06820495427 1.435982003e-39
-0.09143576026 0.1768046618 -0.1525420398 1.435982003e-39
-0.154769361 0.176084131 0.09416358173 1.435982003e-39
-0.05039004236 0.1809216738 -0.2836554348 1.435982003e-39
-0.1448999047 0.1766440123 -0.1116334274 1.435982003e-39
-0.07187008858 0.177169472 -0.08640739322 1.435982003e-39
-0.1367154121 0.1766310781 0.004200910684 1.435982003e-39
-0.008017487824 0.1714387536 -0.2034331858 1.435982003e-39
-0.1961565316 0.1781215966 0.08744253963 1.435982003e-39
-0.02912433632 0.1739148051 -0.1747207195 1.435982003e-39
-0.07056480646 0.176985234 0.07416270673 1.435982003e-39
0.002408186905 0.1720434427 -0.006627533585 1.435982003e-39
-0.1609818637 0.1688443273 0.1828355491 1.435982003e-39
-0.2165604234 0.1507519484 0.2074712366 7.045238224e-40
0.1251807958 0.1759623736 0.2254044414 7.045238224e-40
-0.1861107051 0.1486547738 0.2288291901 7.045238224e-40
-0.2163915187 0.1004251167 0.3586442769 7.045238224e-40
-0.2454730719 0.06384775788 0.3558375835 7.045238224e-40
0.09773627669 0.1451440156 0.356826514 7.045238224e-40
0.03213109076 0.1685958803 0.1912757754 7.045238224e-40
-0.002425360493 0.1514741629 0.3296867013 7.045238224e-40
-0.2167847455 0.1472765803 0.1857621968 7.045238224e-40
0.1279567927 0.1800481975 0.1900495589 7.045238224e-40
-0.06382941455 0.1480111033 0.2254278362 7.045238224e-40
-0.1036072448 0.1468236297 0.3679668605 7.045238224e-40
-0.2548017204 0.1605274081 0.3134625554 7.045238224e-40
0.07874641567 0.1642843336 0.2818524837 7.045238224e-40
-0.03909326717 0.1502525508 0.232014358 7.045238224e-40
-0.03648798913 0.1474334449 0.3558881581 7.045238224e-40
-0.2467648238 0.1586672366 0.2622891068 7.045238224e-40
0.09517623484 0.1699048728 0.2470422238 7.045238224e-40
-0.1396778524 0.1534260511 0.3087208569 7.045238224e-40
-0.1670889407 0.1435229033 0.3643283546 7.045238224e-40
-0.2442812175 0.1176593676 0.3593260646 7.045238224e-40
0.01163354144 0.1485038698 0.350210458 7.045238224e-40
-0.1132829636 0.1440585405 0.3685910404 7.045238224e-40
-0.1419191509 0.153326571 0.3386375308 7.045238224e-40
-0.2449844927 0.1399082392 0.3547886014 7.045238224e-40
-0.05074214563 0.1495141685 0.2176188082 7.045238224e-40
-0.2218798101 0.09448757023 0.3627952635 7.045238224e-40
0.06374907494 0.1483078748 0.3621037602 7.045238224e-40
0.014336803 0.1554711908 0.2960344255 7.045238224e-40
0.09449480474 0.1763693839 0.1991640478 7.045238224e-40
-0.1227106974 0.1473111361 0.1576136798 7.045238224e-40
0.1527444124 0.16164653 0.3174755275 7.045238224e-40
-0.2370214164 -0.09359788895 -0.3786873817 6.490113838e-41
-0.2277016044 0.1642106175 -0.1463171542 6.490113838e-41
-0.2227857858 0.1504726708 0.184643805 6.490113838e-41
-0.2432640493 0.1475445777 -0.408336401 6.490113838e-41
-0.2411937714 0.1444151253 -0.3938800693 6.490113838e-41
-0.2400089651 0.1710784733 -0.4122907221 6.490113838e-41
-0.2360776365 0.1565746367 -0.06927105039 6.490113838e-41
-0.2410823107 -0.06504753977 -0.4018698633 6.490113838e-41
-0.2355664372 -0.1442913115 -0.3870171309 6.490113838e-41
-0.2338756025 0.1600131392 -0.1180137545 6.490113838e-41
-0.2267946005 0.1540906578 0.09276708215 6.490113838e-41
-0.2420526147 0.04928063601 -0.4040216506 6.490113838e-41
-0.2381749004 -0.05551883951 -0.3856117427 6.490113838e-41
-0.2316977978 0.1650001109 -0.2783269584 6.490113838e-41
-0.223280251 0.1590837389 0.02976709791 6.490113838e-41
-0.2374374568 -0.07612525672 -0.3834432364 6.490113838e-41
-0.2368367165 -0.1097335443 -0.3842853606 6.490113838e-41
-0.2285681516 0.1636871845 -0.182242319 6.490113838e-41
-0.212731123 0.1562683433 0.1712587029 6.490113838e-41
-0.2412814647 0.0802276656 -0.3856155574 6.490113838e-41
-0.2379571348 0.01143917255 -0.3791828454 6.490113838e-41
-0.2330045551 0.1744860113 -0.3469253778 6.490113838e-41
-0.2261052579 0.1634929776 -0.06055977196 6.490113838e-41
-0.2419820875 0.127410993 -0.3625758588 6.490113838e-41
-0.2355162352 0.1520150602 -0.3632288873 6.490113838e-41
-0.2217395604 0.1666493863 -0.1910038441 6.490113838e-41
-0.2363951206 0.1534830183 -0.3788731694 6.490113838e-41
-0.2346661538 0.1723005176 -0.3703072667 6.490113838e-41
-0.2285301387 0.1677539498 -0.3490894139 6.490113838e-41
-0.2378901839 -0.123068355 -0.3924505711 6.490113838e-41
-0.2391368151 0.0486365445 -0.3813847601 6.490113838e-41
-0.2321981937 0.1679876149 -0.2888160944 6.490113838e-41
0.02664596029 -0.1398194581 -0.1162970215 8.028094954e-40
0.1087402552 -0.1474324763 0.1595660448 8.028094954e-40
0.2081439793 -0.1539995521 0.1714909077 8.028094954e-40
0.1919298768 -0.1448015124 -0.179905057 8.028094954e-40
0.03821443021 -0.1398110986 0.02472811006 8.028094954e-40
0.1485994011 -0.1482298821 -0.0176245831 8.028094954e-40
0.1260599494 -0.1545819044 0.2430555075 8.028094954e-40
0.1967087388 -0.1520664692 0.00878206268 8.028094954e-40
0.02967338264 -0.140380159 -0.1846573949 8.028094954e-40
0.1849253774 -0.1494973898 0.1203359738 8.028094954e-40
0.1939456612 -0.1559461802 0.2011015415 8.028094954e-40
0.1996580362 -0.1494399011 -0.1172798723 8.028094954e-40
0.05010595918 -0.1426243037 -0.07661808282 8.028094954e-40
0.1448884457 -0.1482938081 0.0953707099 8.028094954e-40
0.1689419001 -0.1567704827 0.2304688692 8.028094954e-40
0.1887836307 -0.1526151747 -0.05256794393 8.028094954e-40
0.07222762704 -0.144211024 -0.1388782412 8.028094954e-40
0.141182974 -0.1482524872 0.1294526011 8.028094954e-40
0.1824373603 -0.1529365331 0.1692165136 8.028094954e-40
0.1673040986 -0.1431695819 -0.1964530647 8.028094954e-40
0.1119583324 -0.1470608264 -0.03105758131 8.028094954e-40
0.1294611543 -0.1467208564 0.05836865306 8.028094954e-40
0.05799231678 -0.1445415467 0.1614735425 8.028094954e-40
0.1149417236 -0.1431868225 -0.2114176303 8.028094954e-40
0.1140844822 -0.1472737789 -0.05118235946 8.028094954e-40
0.1979639679 -0.1497687846 -0.1012295336 8.028094954e-40
0.02478458732 -0.1409282982 0.0951673463 8.028094954e-40
0.04910212383 -0.1412797272 -0.009931300767 8.028094954e-40
0.0575177446 -0.142420724 0.07176240534 8.028094954e-40
0.1748827845 -0.1476263404 -0.1282650232 8.028094954e-40
0.1051591411 -0.1445666403 -0.1347916126 8.028094954e-40
0.2042352557 -0.1501771212 0.07246503979 8.028094954e-40
-0.2230500579 -0.09813795239 -0.34129861 1.540360521e-39
-0.01375391055 -0.1649512202 -0.3132894337 1.540360521e-39
-0.1809805632 0.1055754423 -0.3267186582 1.540360521e-39
0.02369879 -0.1697899997 -0.3152812123 1.540360521e-39
-0.2144324929 0.006627671421 -0.3355008364 1.540360521e-39
-0.2088954151 -0.1487209499 -0.3477664292 1.540360521e-39
0.09755408764 0.1415655166 -0.3002152145 1.540360521e-39
0.1507647634 -0.1637373865 -0.3066817522 1.540360521e-39
-0.17170389 -0.1623480022 -0.341609627 1.540360521e-39
0.03468018025 -0.1598830074 -0.2983085811 1.540360521e-39
-0.1301234066 0.134841457 -0.3245365918 1.540360521e-39
0.04582319781 -0.1794951856 -0.3304330707 1.540360521e-39
-0.2248072475 -0.1128379405 -0.3404385746 1.540360521e-39
-0.1350340843 -0.1611221731 -0.3423679471 1.540360521e-39
0.005815887358 0.1431832463 -0.3046671152 1.540360521e-39
0.09418936819 -0.1802045405 -0.3287021816 1.540360521e-39
-0.2193511128 -0.1377257407 -0.339982599 1.540360521e-39
-0.06602801383 -0.1714093089 -0.3420573771 1.540360521e-39
-0.1763086468 0.08325570822 -0.3214274645 1.540360521e-39
0.03213207796 -0.1782431751 -0.3306721449 1.540360521e-39
-0.2107465118 -0.00460079778 -0.3293320537 1.540360521e-39
-0.1577558666 -0.1573467702 -0.3422748148 1.540360521e-39
-0.2084240466 -0.005561931524 -0.3161477745 1.540360521e-39
-0.05326264352 -0.1611492336 -0.329020977 1.540360521e-39
-0.2152502835 -0.04421111569 -0.3261765838 1.540360521e-39
-0.06929019094 -0.164815262 -0.3368843496 1.540360521e-39
-0.213355571 -0.07864861935 -0.3292619884 1.540360521e-39
-0.1523685008 -0.1480517685 -0.3313628435 1.540360521e-39
-0.1040365547 0.1426581442 -0.301800251 1.540360521e-39
0.1584371477 -0.1644807011 -0.3102135658 1.540360521e-39
-0.101948671 -0.1585084349 -0.3191834688 1.540360521e-39
-0.05981956795 -0.1634171754 -0.3334338665 1.540360521e-39
-0.2599667907 0.2063888907 -0.1404553503 2.277910146e-39
-0.2651941776 0.2083142698 -0.2625854909 2.277910146e-39
-0.2594661415 0.1992474198 0.2738568783 2.277910146e-39
-0.258458823 0.2000610679 -0.03190742433 2.277910146e-39
-0.2502058744 0.2013153285 0.03213430941 2.277910146e-39
-0.2623599768 0.2062300593 -0.1533950269 2.277910146e-39
-0.2321560681 0.1919861585 0.3880209029 2.277910146e-39
-0.2534525394 0.1987457871 0.2023665309 2.277910146e-39
-0.253412962 0.2079944611 -0.1760389358 2.277910146e-39
-0.2632334232 0.2073588073 -0.2949440777 2.277910146e-39
-0.256008029 0.1979275346 0.3353069127 2.277910146e-39
-0.2564865947 0.1928221136 0.09185270965 2.277910146e-39
-0.2462801933 0.2099110484 -0.05319902673 2.277910146e-39
-0.2640300691 0.2033051103 -0.1845680475 2.277910146e-39
-0.2509516478 0.1957015395 0.3554617465 2.277910146e-39
-0.2602244914 0.1905542016 0.17698434 2.277910146e-39
-0.2468862087 0.2100110948 -0.07836715877 2.277910146e-39
-0.265316844 0.2057404667 -0.2283591628 2.277910146e-39
-0.2604351342 0.1994149238 0.2908834219 2.277910146e-39
-0.2587350309 0.1954393536 0.02124960907 2.277910146e-39
-0.2492651045 0.2050528973 -0.02038893662 2.277910146e-39
-0.2631906569 0.2036332339 -0.1670201868 2.277910146e-39
-0.258862555 0.1980229169 0.2617739737 2.277910146e-39
-0.2582490146 0.1922186315 0.08452700078 2.277910146e-39
-0.251326263 0.2037998587 -0.006836128887 2.277910146e-39
-0.2581471205 0.2014604658 -0.07633766532 2.277910146e-39
-0.2553144395 0.1960793138 0.1504990458 2.277910146e-39
-0.2559846342 0.1965570897 0.05897554755 2.277910146e-39
-0.2533146739 0.2005040497 0.3178732097 2.277910146e-39
-0.2594759464 0.1930196881 0.1283994913 2.277910146e-39
-0.2535356879 0.2073097974 -0.05266802013 2.277910146e-39
-0.2607358992 0.2060500681 -0.1399315 2.277910146e-39
-0.1180711836 0.1558382809 -0.0405832231 3.015101038e-39
-0.08927033842 0.1564214081 0.2398703098 3.015101038e-39
-0.103800036 0.1582464278 0.02549635433 3.015101038e-39
-0.2131223828 0.1601541191 0.2743395269 3.015101038e-39
-0.1587080359 0.1544626504 -0.1669342965 3.015101038e-39
-0.1823172569 0.1575974524 -0.2424238771 3.015101038e-39
0.1108631864 0.1492926627 0.1965976655 3.015101038e-39
0.04272760078 0.1525705308 0.2839151621 3.015101038e-39
-0.1792556494 0.1567699164 0.2107799798 3.015101038e-39
-0.05520819128 0.1542380303 0.2665712535 3.015101038e-39
-0.02821003646 0.1563990414 0.1773289591 3.015101038e-39
-0.09533666819 0.1539167911 0.2794628143 3.015101038e-39
-0.1920670867 0.1511069089 -0.05985635892 3.015101038e-39
-0.1295142025 0.1549569517 -0.004261148628 3.015101038e-39
0.0690049082 0.1527584046 0.1991180778 3.015101038e-39
-0.02095076069 0.1535951495 0.2728992701 3.015101038e-39
-0.2012193799 0.1560861021 0.1077308804 3.015101038e-39
-0.1099715829 0.1564459652 0.2039945573 3.015101038e-39
-0.06350132823 0.1578898728 0.1157639101 3.015101038e-39
-0.1977583468 0.1578812003 0.2381165624 3.015101038e-39
-0.1949745864 0.1537401676 0.01609612629 3.015101038e-39
-0.1493494064 0.1563604623 0.1113716885 3.015101038e-39
-0.03488824517 0.1579931229 0.08085210621 3.015101038e-39
-0.203179881 0.1560807675 0.1336021125 3.015101038e-39
-0.1956509799 0.1551516503 0.160869509 3.015101038e-39
-0.1373922378 0.1563671529 0.2407524735 3.015101038e-39
-0.137365669 0.1549351513 -0.1720362753 3.015101038e-39
-0.1479352117 0.1572000235 0.1675731391 3.015101038e-39
0.1458318979 0.1477180123 0.2635450959 3.015101038e-39
0.06475811452 0.1523956209 0.2854853272 3.015101038e-39
-0.1271754205 0.1562905908 0.1515617669 3.015101038e-39
-0.03343551233 0.1548980474 0.2300479412 3.015101038e-39
0.1157397404 0.1065318435 0.3775605857 3.75229193e-39
0.2213131934 0.05832549557 0.3433732688 3.75229193e-39
0.1144800931 0.03746753186 0.3614323735 3.75229193e-39
0.2070657909 0.0772851482 0.3829655647 3.75229193e-39
-0.06211165339 0.153857857 0.3707542419 3.75229193e-39
0.1866585463 -0.06442031264 0.3607171178 3.75229193e-39
-0.1551655084 0.1398010552 0.3219592571 3.75229193e-39
0.227379486 0.04417984188 0.3694005609 3.75229193e-39
0.1884150952 0.07112304121 0.3844779432 3.75229193e-39
0.2141340375 0.06564855576 0.2182974964 3.75229193e-39
0.01735443249 0.07561755925 0.3458121419 3.75229193e-39
0.2413672656 0.09988609701 0.3948268294 3.75229193e-39
0.04493238404 0.1340664029 0.375446558 3.75229193e-39
0.2168718576 0.02428547293 0.3486700058 3.75229193e-39
-0.06909473985 0.1284953803 0.3283686936 3.75229193e-39
0.2311742902 0.1027137265 0.3719599545 3.75229193e-39
0.1078396887 0.1230912656 0.3829680681 3.75229193e-39
0.2169810534 0.06856018305 0.3045168817 3.75229193e-39
0.1339830905 0.06294757873 0.3454948068 3.75229193e-39
0.2309366763 0.1063806936 0.3915011287 3.75229193e-39
-0.06718742847 0.1557499468 0.3710286319 3.75229193e-39
0.2145841867 0.003018599236 0.3629634082 3.75229193e-39
0.1852472425 0.04416178539 0.361512959 3.75229193e-39
0.2255476713 0.1091209278 0.3899317384 3.75229193e-39
-0.04583146796 0.150909856 0.3608473539 3.75229193e-39
0.2148358971 0.08773248643 0.3761135638 3.75229193e-39
0.03557156771 0.1532927305 0.3810318708 3.75229193e-39
0.1161302254 0.01905036904 0.3612136841 3.75229193e-39
-0.06890856475 0.143782109 0.3523684144 3.75229193e-39
0.1969155222 0.0615063794 0.3825829029 3.75229193e-39
0.07450655103 0.1216204911 0.3773435652 3.75229193e-39
0.1442824453 0.08966103196 0.374263823 3.75229193e-39
0.2511021197 0.1729330122 0.03007597849 4.48912409e-39
0.2479164451 0.1732439101 -0.3589572608 4.48912409e-39
0.2470389754 0.1718316972 0.2584999204 4.48912409e-39
0.2389774024 0.1786128879 0.1288579404 4.48912409e-39
0.2520149648 0.1680579036 0.1405984759 4.48912409e-39
0.251462698 0.176627025 -0.114870593 4.48912409e-39
0.2437112778 0.1604688168 0.3528403342 4.48912409e-39
0.2494071424 0.1711783409 -0.3423118293 4.48912409e-39
0.2557615042 0.169743225 -0.07036409527 4.48912409e-39
0.2454020232 0.1691688746 -0.3951558173 4.48912409e-39
0.2499391437 0.1652656496 0.2646006048 4.48912409e-39
0.2534492612 0.1721084416 -0.1726174504 4.48912409e-39
0.2546410859 0.168938458 0.04074887186 4.48912409e-39
0.2491451949 0.1756983399 -0.2408960164 4.48912409e-39
0.245584175 0.1660637856 0.3184847534 4.48912409e-39
0.2484544218 0.1756533831 -0.2589609325 4.48912409e-39
0.2557145357 0.170299083 -0.01692241989 4.48912409e-39
0.2482151538 0.1748086512 -0.299949646 4.48912409e-39
0.2552220821 0.1652407646 0.1606167704 4.48912409e-39
0.2468573004 0.1780648977 0.06173507497 4.48912409e-39
0.2565801144 0.1666229367 0.06845200062 4.48912409e-39
0.252774924 0.1730063111 -0.1769824028 4.48912409e-39
0.2479911298 0.1724326164 0.2347769439 4.48912409e-39
0.2444843948 0.1816252619 0.06382391602 4.48912409e-39
0.2573017776 0.170071885 0.0851706937 4.48912409e-39
0.2418290079 0.1806646138 0.06958974898 4.48912409e-39
0.2580779791 0.1721582115 0.08696161211 4.48912409e-39
0.2559676766 0.1687785685 -0.1137369573 4.48912409e-39
0.2584430873 0.1691393852 0.01979613304 4.48912409e-39
0.2442552745 0.1796646416 -0.0855672732 4.48912409e-39
0.2554561496 0.1644890904 -0.1102809384 4.48912409e-39
0.252910465 0.1563147455 -0.2550600469 4.48912409e-39
-0.07430469245 -0.1419811398 -0.3350311518 5.225597518e-39
-0.1283784062 -0.1638433486 -0.01095203497 5.225597518e-39
-0.1807564646 -0.1480598748 -0.3011954427 5.225597518e-39
-0.04151424766 -0.1514140964 -0.2313422412 5.225597518e-39
0.1464660317 -0.1336874664 -0.3523001671 5.225597518e-39
-0.1217691749 -0.161131978 -0.1133998483 5.225597518e-39
-0.1803595424 -0.1556163281 -0.08394674957 5.225597518e-39
0.1745792031 -0.1648128033 -0.3298794031 5.225597518e-39
-0.1646270454 -0.1268913448 -0.3341387808 5.225597518e-39
-0.1525611877 -0.1649460047 0.1093014032 5.225597518e-39
-0.1840940863 -0.1479450613 -0.220108673 5.225597518e-39
0.05621888861 -0.153510645 -0.2644945085 5.225597518e-39
0.04564190656 -0.1349184215 -0.3399649858 5.225597518e-39
-0.1193962768 -0.1684621423 0.01740312763 5.225597518e-39
-0.1681226343 -0.1580862105 -0.1544721872 5.225597518e-39
0.1014535055 -0.160477519 -0.2985523343 5.225597518e-39
-0.08093747497 -0.1426430643 -0.3338107765 5.225597518e-39
-0.1196166277 -0.1698226631 0.02423111536 5.225597518e-39
-0.1565894485 -0.1558270603 -0.2963500619 5.225597518e-39
-0.04608056322 -0.1510895789 -0.2073500007 5.225597518e-39
0.06776036322 -0.1480543762 -0.3401481211 5.225597518e-39
-0.07288275659 -0.1692642272 -0.04984107241 5.225597518e-39
-0.1224757507 -0.1624781787 -0.2410592139 5.225597518e-39
-0.06276234239 -0.1643097848 -0.136871174 5.225597518e-39
-0.06420698762 -0.1577024758 -0.2930588126 5.225597518e-39
-0.05341715738 -0.1592281908 -0.1896387339 5.225597518e-39
0.04734518752 -0.1523839384 -0.3129332066 5.225597518e-39
-0.09661912918 -0.1640901864 -0.1512587816 5.225597518e-39
-0.1432306021 -0.1556462795 -0.1442875117 5.225597518e-39
0.0221091453 -0.1493869126 -0.3072194457 5.225597518e-39
-0.07625065744 -0.1575674862 -0.2800966501 5.225597518e-39
-0.1408956498 -0.1630502194 0.1420569122 5.225597518e-39
0.04318416491 0.1813069731 -0.1157252342 5.962428276e-39
0.03667123616 0.1796105057 -0.3565605283 5.962428276e-39
0.02789017186 0.1823446751 -0.1604033262 5.962428276e-39
0.1302827448 0.1833405346 0.03505302593 5.962428276e-39
0.1932183802 0.1819556057 -0.2399642617 5.962428276e-39
0.1461010277 0.1831075996 -0.3501412868 5.962428276e-39
-0.1071717069 0.1862798184 -0.2588388324 5.962428276e-39
0.08680443466 0.1818130463 -0.1218816265 5.962428276e-39
0.07163628936 0.1841223091 -0.02686170861 5.962428276e-39
-0.09837772697 0.185047105 -0.29133901 5.962428276e-39
-0.02124308795 0.1849633306 -0.2161983997 5.962428276e-39
0.1309137642 0.1812397093 -0.03022930771 5.962428276e-39
0.1555725932 0.1802370399 -0.03211784363 5.962428276e-39
0.06520376354 0.1845302582 -0.3200127184 5.962428276e-39
-0.01769985072 0.1858768016 -0.2618329227 5.962428276e-39
0.1360196918 0.1810492426 -0.07692794502 5.962428276e-39
0.1369118243 0.1794158816 -0.03849164024 5.962428276e-39
0.02132206969 0.1815776378 -0.3125510216 5.962428276e-39
0.06038120389 0.1844017357 -0.2178111523 5.962428276e-39
0.1640145332 0.1815213114 -0.1021376178 5.962428276e-39
0.2171618342 0.1771778166 -0.04971349984 5.962428276e-39
0.1168860644 0.1855590791 -0.2863840759 5.962428276e-39
-0.02921243943 0.1827566028 -0.310603857 5.962428276e-39
0.2356715649 0.1777781397 -0.3517335057 5.962428276e-39
0.2005612254 0.1766578853 0.03673196584 5.962428276e-39
0.2179287225 0.1722744107 -0.005912421271 5.962428276e-39
0.2157669365 0.1825072169 -0.3246806264 5.962428276e-39
0.1928864121 0.177108407 -0.4046015441 5.962428276e-39
-0.02703961916 0.1851662397 -0.2039966583 5.962428276e-39
0.2524593771 0.1649047583 -0.2939836085 5.962428276e-39
0.05925983563 0.1859614998 -0.20150204 5.962428276e-39
0.04246732593 0.1868741065 -0.24812904 5.962428276e-39
0.1449833214 -0.07610370964 0.3179244995 6.698542971e-39
-0.01902672835 -0.166027382 0.330553472 6.698542971e-39
0.1535159498 -0.1630644351 0.3302243054 6.698542971e-39
-0.09519860893 -0.1557413638 0.3287406266 6.698542971e-39
0.06307782978 -0.1672159582 0.3111558557 6.698542971e-39
0.01683244482 -0.1686982512 0.3178058863 6.698542971e-39
0.2491471469 -0.1138655394 0.3104744256 6.698542971e-39
-0.1670006663 -0.1316258609 0.3275995255 6.698542971e-39
-0.03392094001 -0.173613295 0.3343834877 6.698542971e-39
-0.1278614849 -0.1854731739 0.330331862 6.698542971e-39
0.1582036614 -0.1572599262 0.3292163312 6.698542971e-39
-0.1418436915 -0.1603306681 0.3277654648 6.698542971e-39
0.05073288828 -0.1702556759 0.3216786683 6.698542971e-39
-0.07128223032 -0.1752174795 0.3211031258 6.698542971e-39
0.2270791382 -0.1335117817 0.3314876258 6.698542971e-39
-0.1357010752 -0.1165245324 0.320318073 6.698542971e-39
0.04067782685 -0.1656578928 0.3307803869 6.698542971e-39
-0.07535271347 -0.1767615229 0.327519834 6.698542971e-39
0.15733096 -0.1627294868 0.3272621632 6.698542971e-39
-0.01802050136 -0.03935278952 0.31330055 6.698542971e-39
0.107475616 -0.163719058 0.3262058496 6.698542971e-39
0.009444827214 -0.1702551097 0.3275767565 6.698542971e-39
0.179244563 -0.1393275708 0.3206616342 6.698542971e-39
0.08753691614 0.02060303651 0.3130711913 6.698542971e-39
0.06377195567 -0.154457137 0.3289987445 6.698542971e-39
-0.06720435619 -0.1680652201 0.3283858299 6.698542971e-39
0.1617002487 -0.008894514292 0.3136469722 6.698542971e-39
0.06874454021 -0.137755245 0.329636693 6.698542971e-39
0.1979148388 0.1078424528 0.3162530363 6.698542971e-39
-0.1005125865 -0.0744009316 0.3175223172 6.698542971e-39
0.03452816606 -0.09935906529 0.3288934529 6.698542971e-39
-0.1205593273 -0.1800331324 0.3315525949 6.698542971e-39
0.2023509443 -0.1502686888 0.3422532678 7.434656265e-39
-0.002747118939 -0.1544418931 0.1066286862 7.434656265e-39
-0.110926047 -0.1573787481 0.05721986294 7.434656265e-39
0.2135568857 -0.1684760302 0.2503597438 7.434656265e-39
0.05383655056 -0.1537797302 0.3276171982 7.434656265e-39
0.0742078498 -0.1562777162 0.2381345779 7.434656265e-39
-0.0531941466 -0.1582196653 0.2186053395 7.434656265e-39
0.0758992359 -0.1497808397 0.01935530081 7.434656265e-39
0.2495309711 -0.1771128923 0.3437608182 7.434656265e-39
0.0147025492 -0.1515791565 -0.02993767709 7.434656265e-39
-0.08247535676 -0.1571469009 0.1077605262 7.434656265e-39
0.1518292427 -0.1622066647 0.1220600903 7.434656265e-39
0.2145604789 -0.1560094655 0.3541286588 7.434656265e-39
0.02679546922 -0.1542085111 0.1375084966 7.434656265e-39
-0.05434071645 -0.157810986 0.1560026407 7.434656265e-39
0.1209973395 -0.1575807929 0.08026776463 7.434656265e-39
0.2294262499 -0.1684604436 0.3571814597 7.434656265e-39
0.0310525354 -0.1522951722 0.08175715059 7.434656265e-39
-0.05605589971 -0.1548098922 0.07584522665 7.434656265e-39
0.1852104068 -0.1728900522 0.233327195 7.434656265e-39
0.1708635837 -0.1473180205 0.334274888 7.434656265e-39
0.07724557072 -0.15511778 0.153823629 7.434656265e-39
-0.02901814319 -0.1570639163 0.2493618578 7.434656265e-39
0.1473863572 -0.1562007815 0.2636038363 7.434656265e-39
0.2071425319 -0.1569723189 0.3430504501 7.434656265e-39
0.1446556449 -0.1589155793 0.14973481 7.434656265e-39
0.1661718786 -0.1409210563 0.3479028642 7.434656265e-39
0.07256355882 -0.15454638 0.2917487621 7.434656265e-39
0.146463424 -0.1507150382 0.2945223153 7.434656265e-39
0.1249211356 -0.1523204446 0.02220792137 7.434656265e-39
0.2392311841 -0.1702375561 0.3476413786 7.434656265e-39
0.06060661376 -0.1537385136 -0.01450204477 7.434656265e-39
0.2572713792 -0.1619865 0.2702718675 8.170410826e-39
0.2185970694 -0.1523844749 0.3711968064 8.170410826e-39
0.2494597882 -0.1773441583 0.3455041945 8.170410826e-39
0.2426751256 -0.1272888035 0.2466809154 8.170410826e-39
0.2044228464 -0.1371934861 0.3214659095 8.170410826e-39
0.1253543347 -0.1522583514 0.3572944105 8.170410826e-39
0.2376377732 -0.2223837078 0.3960990012 8.170410826e-39
0.1665884852 -0.1062312126 0.2687093616 8.170410826e-39
0.2585182786 -0.1656904668 0.2445758432 8.170410826e-39
0.2539433837 -0.168910116 0.3208582997 8.170410826e-39
0.2480902523 -0.189586848 0.3580553532 8.170410826e-39
0.2286204994 -0.1211017221 0.2538145185 8.170410826e-39
0.252645582 -0.1423648 0.2892729342 8.170410826e-39
0.2128622681 -0.1464084089 0.348179996 8.170410826e-39
0.2383522391 -0.2023358047 0.393065393 8.170410826e-39
0.1867228448 -0.1148277968 0.2771799564 8.170410826e-39
0.2591392398 -0.1500312537 0.2588936388 8.170410826e-39
0.2404245734 -0.15361996 0.3429084122 8.170410826e-39
0.2446140945 -0.1654186696 0.3656201065 8.170410826e-39
0.2014090866 -0.129127562 0.3079413772 8.170410826e-39
0.2358517349 -0.1349259466 0.2999058366 8.170410826e-39
0.2056447864 -0.1418110877 0.3422127664 8.170410826e-39
0.2403574586 -0.1630668938 0.3638667166 8.170410826e-39
0.2056950182 -0.1358614862 0.3131274581 8.170410826e-39
0.2416695058 -0.1522720754 0.3029190898 8.170410826e-39
0.2484439611 -0.1473646015 0.2938492 8.170410826e-39
0.1759516895 -0.151956588 0.3743472993 8.170410826e-39
0.1602272391 -0.1489127278 0.3570295572 8.170410826e-39
0.2361638248 -0.204918921 0.3712035716 8.170410826e-39
0.1871063411 -0.113459602 0.2544843853 8.170410826e-39
0.2471100837 -0.1689583659 0.3123615384 8.170410826e-39
0.1815101951 -0.1453066915 0.3480856121 8.170410826e-39
-0.248290047 0.003043657169 0.375905931 8.906165387e-39
-0.1144731417 0.180752337 0.1783164591 8.906165387e-39
-0.1610340625 0.1260750294 0.367046684 8.906165387e-39
-0.06078143045 0.1804349273 -0.08910755813 8.906165387e-39
-0.1550791711 0.1726544052 0.2720318139 8.906165387e-39
-0.04056829214 0.1776092499 0.276086241 8.906165387e-39
-0.2399660349 -0.1674210578 0.3695975542 8.906165387e-39
-0.1654161364 0.1842842996 0.1655235142 8.906165387e-39
-0.2452497035 -0.06782018393 0.3721728027 8.906165387e-39
-0.1772026271 0.1864412278 0.2532948256 8.906165387e-39
-0.2307806462 -0.05512119457 0.3666604757 8.906165387e-39
-0.1142918393 0.1789318919 0.02655066736 8.906165387e-39
-0.2275140584 0.2043826431 0.3666096926 8.906165387e-39
-0.08691448718 0.1764296889 0.2311345935 8.906165387e-39
-0.2416192442 -0.1043934748 0.3715325892 8.906165387e-39
-0.1208317131 0.1800621599 0.105050154 8.906165387e-39
-0.2369553447 0.1287705451 0.3750945628 8.906165387e-39
-0.1168762445 0.1787697524 0.2031973302 8.906165387e-39
-0.1801445782 0.1394143403 0.36948511 8.906165387e-39
-0.05439043418 0.1812439114 -0.01137431059 8.906165387e-39
-0.1632015854 0.183677882 0.2963318825 8.906165387e-39
-0.03683505952 0.1793610901 0.2516991496 8.906165387e-39
-0.1306313276 0.1547859609 0.3606221378 8.906165387e-39
-0.1055519134 0.1697406173 0.302744329 8.906165387e-39
-0.1875009388 0.1857846528 0.3404503167 8.906165387e-39
-0.1105841771 0.181739375 0.1580201983 8.906165387e-39
-0.2344629616 0.1140932441 0.3775698543 8.906165387e-39
-0.1758975089 0.1719827801 0.3569030762 8.906165387e-39
-0.2386114895 -0.1910194308 0.3684664369 8.906165387e-39
-0.1719115227 0.1836770773 0.2709823251 8.906165387e-39
-0.2410580963 0.09731332958 0.3765601218 8.906165387e-39
-0.1161585674 0.1776448488 0.02876796015 8.906165387e-39
-0.2618638277 -0.1497708112 0.3242975175 9.641561216e-39
-0.2553964555 -0.1077233255 0.3867609501 9.641561216e-39
-0.2359811813 -0.1537551135 0.1838717759 9.641561216e-39
-0.2474392951 -0.03197899833 0.4137260616 9.641561216e-39
-0.2566743791 -0.1527553797 0.2477255613 9.641561216e-39
-0.2589867115 -0.1597582251 0.4002406299 9.641561216e-39
-0.2250795662 -0.1608831435 0.05458873883 9.641561216e-39
-0.2411770672 0.1069421023 0.4019186497 9.641561216e-39
-0.2589239478 -0.1635102034 0.3647915423 9.641561216e-39
-0.2519592941 -0.1575526893 0.3655976057 9.641561216e-39
-0.2293746024 -0.156577751 0.1681052893 9.641561216e-39
-0.2391151339 0.02876668796 0.4062268734 9.641561216e-39
-0.2610213757 -0.1498278528 0.3001644909 9.641561216e-39
-0.2578582466 -0.1297599077 0.391599983 9.641561216e-39
-0.2155005187 -0.1597376615 0.1277171969 9.641561216e-39
-0.2409631759 0.06932285428 0.4069639146 9.641561216e-39
-0.2592594326 -0.162695691 0.3417242467 9.641561216e-39
-0.2531695366 -0.1219348013 0.3751243353 9.641561216e-39
-0.2338985354 -0.1561629921 0.2067173868 9.641561216e-39
-0.2513884306 -0.0476006642 0.412234515 9.641561216e-39
-0.2577986717 -0.1566616893 0.2844488621 9.641561216e-39
-0.2574162483 -0.1701857895 0.3640294075 9.641561216e-39
-0.235127598 -0.1544189006 0.2114404887 9.641561216e-39
-0.2567561865 -0.1181338057 0.406493336 9.641561216e-39
-0.2563832104 -0.1611418277 0.3100253642 9.641561216e-39
-0.2562860548 -0.1468929648 0.3916599751 9.641561216e-39
-0.240903303 -0.1734838933 0.3394414186 9.641561216e-39
-0.259418726 -0.1447222531 0.4130025506 9.641561216e-39
-0.2233340293 -0.1540253162 0.2252918631 9.641561216e-39
-0.2390588075 0.1416431218 0.3781391084 9.641561216e-39
-0.2548294067 -0.1677176654 0.3420530856 9.641561216e-39
-0.2408696115 -0.04858844727 0.3801032901 9.641561216e-39
0.08879040927 -0.1642601788 0.3276594877 1.037659831e-38
0.155436337 -0.1405011415 -0.3074142933 1.037659831e-38
0.1973058283 -0.1306910217 -0.09785748273 1.037659831e-38
0.1891093403 -0.1421751678 -0.3265344799 1.037659831e-38
0.1333229244 -0.1392210573 -0.02918964811 1.037659831e-38
0.1063698456 -0.1326175779 -0.1300348043 1.037659831e-38
0.2004821599 -0.1417995989 0.1883669496 1.037659831e-38
0.1858087927 -0.1498905718 -0.4097086787 1.037659831e-38
0.05110599101 -0.1428909153 0.3265241385 1.037659831e-38
0.1873052716 -0.1390960366 -0.2865408659 1.037659831e-38
0.1996728927 -0.1320380419 0.03458629176 1.037659831e-38
0.1836058348 -0.1445186138 -0.3489762843 1.037659831e-38
0.1394167989 -0.1313337833 0.1450727135 1.037659831e-38
0.1578924209 -0.1337262392 -0.213697359 1.037659831e-38
0.1993651837 -0.1316983104 0.08486947417 1.037659831e-38
0.1777866185 -0.1463883519 -0.3836025894 1.037659831e-38
0.0783476457 -0.137334168 0.2586874664 1.037659831e-38
0.1637854129 -0.1364411414 -0.2563107908 1.037659831e-38
0.1980689317 -0.1306810826 -0.04838745669 1.037659831e-38
0.1437472999 -0.1371465325 -0.3238428831 1.037659831e-38
0.1529682875 -0.1370268017 0.0225713253 1.037659831e-38
0.1623668671 -0.1311605722 -0.1736639291 1.037659831e-38
0.1533407569 -0.1363839358 -0.09570942819 1.037659831e-38
0.09238825738 -0.1375515312 -0.3088749945 1.037659831e-38
