# .PCD v0.7 - Point Cloud Data file format
VERSION 0.7
FIELDS x y z rgb
SIZE 4 4 4 4
TYPE F F F F
COUNT 1 1 1 1
WIDTH 833
HEIGHT 1
VIEWPOINT 0 0 0 1 0 0 0
POINTS 833
DATA ascii
0.1012957618 -0.07975179702 -0.06009834632 5.962428276e-39
-0.2915321589 0.01808960736 0.1578586847 6.698542971e-39
-0.03913652897 -0.01975612529 0.1642487049 6.698542971e-39
-0.1972131282 -0.01754832081 0.1604896039 6.698542971e-39
-0.2699714601 0.05836963281 0.1518463194 6.698542971e-39
-0.2932595313 -0.0187874902 0.1603612304 6.698542971e-39
-0.0485233292 -0.03961995244 0.1653761715 6.698542971e-39
-0.2427446842 -0.1371631473 0.1702018827 6.698542971e-39
0.1603173763 -0.1455536038 0.1750754118 6.698542971e-39
-0.3807447851 -0.05883074179 0.1636541039 6.698542971e-39
-0.02318821475 -0.1141694114 0.1719783545 6.698542971e-39
-0.1686576605 -0.1796473116 0.1694838554 6.698542971e-39
0.02767978422 -0.2900788784 0.1749662906 6.698542971e-39
-0.2813815176 -0.09499187022 0.1685913205 6.698542971e-39
-0.08055723459 -0.2222191244 0.1668860018 6.698542971e-39
-0.1707613617 -0.2100135386 0.1589452922 6.698542971e-39
0.1105977148 -0.2810212672 0.1737707406 6.698542971e-39
-0.2811688483 -0.1290115863 0.165607661 6.698542971e-39
-0.09455104917 -0.1794901937 0.1683028787 6.698542971e-39
-0.1820803732 -0.2124718279 0.1545173824 6.698542971e-39
0.2147417814 -0.2276119292 0.1753849685 6.698542971e-39
-0.3144022524 -0.1425186992 0.1551960409 6.698542971e-39
0.01404912677 -0.2576602697 0.172559768 6.698542971e-39
-0.0432071723 -0.2410035282 0.1681761295 6.698542971e-39
0.06888873875 -0.2646517456 0.1782491058 6.698542971e-39
-0.2057112753 -0.1420839578 0.167137742 6.698542971e-39
-0.01524893846 -0.202864036 0.1698382199 6.698542971e-39
-0.04751000926 -0.1579278708 0.166544348 6.698542971e-39
0.1306317449 -0.2489856333 0.1786427349 6.698542971e-39
-0.2223939151 -0.218889758 0.1409440488 6.698542971e-39
0.06118072197 -0.2588114738 0.1786449999 6.698542971e-39
-0.007605119143 -0.2318860888 0.1701778471 6.698542971e-39
0.01375608519 -0.2271684408 0.1725850403 6.698542971e-39
0.309373647 -0.2075331956 0.1645213366 7.434656265e-39
-0.1357395947 -0.2718663812 0.1826915443 7.434656265e-39
0.1943450272 -0.2868104875 0.1798561066 7.434656265e-39
0.1334637254 -0.2991145551 0.1769766361 7.434656265e-39
0.2648540437 -0.2153486609 0.1687336117 7.434656265e-39
-0.05440590903 -0.2876592875 0.1859689653 7.434656265e-39
0.3329772353 -0.2945974767 0.1688826084 7.434656265e-39
-0.03698790818 -0.3079963624 0.1762889475 7.434656265e-39
0.3981912136 -0.2563170791 0.1594176441 7.434656265e-39
-0.185940221 -0.2589555383 0.1846460551 7.434656265e-39
0.2762848735 -0.3077971041 0.1645606458 7.434656265e-39
0.05194950104 -0.2922371328 0.1811545938 7.434656265e-39
0.2707214653 -0.2776136696 0.174594447 7.434656265e-39
-0.1218730807 -0.2839744389 0.1809797287 7.434656265e-39
0.2876636684 -0.3077874184 0.1638163626 7.434656265e-39
0.0275509581 -0.2992465496 0.1800353676 7.434656265e-39
0.2885240614 -0.3001228869 0.1759142727 7.434656265e-39
-0.1315978914 -0.281896919 0.1805173755 7.434656265e-39
0.2901838422 -0.3088422716 0.1678334028 7.434656265e-39
-0.02485193312 -0.3068994582 0.1775993258 7.434656265e-39
0.3345224857 -0.2907014787 0.1703408808 7.434656265e-39
-0.1890193969 -0.2824325264 0.1839165539 7.434656265e-39
0.0809205249 -0.31183213 0.1735645384 7.434656265e-39
0.05632437021 -0.2672829032 0.1856067479 7.434656265e-39
0.1765470356 -0.2850263417 0.1800926328 7.434656265e-39
-0.08428135514 -0.2898322344 0.1833865196 7.434656265e-39
0.1871239692 -0.2893463969 0.1796533465 7.434656265e-39
0.004388847854 -0.2700658739 0.1869149655 7.434656265e-39
0.2808711231 -0.2273939252 0.1666486859 7.434656265e-39
-0.2364169955 -0.2627403736 0.1886124015 7.434656265e-39
0.1129643321 -0.3135809004 0.173388958 7.434656265e-39
0.2146374285 -0.3144673705 0.16667068 7.434656265e-39
0.1977523118 -0.1569331884 0.1918906718 8.170410826e-39
-0.006722155493 -0.1567626745 0.1951987594 8.170410826e-39
0.4312133491 -0.1647846848 0.1857148558 8.170410826e-39
-0.01261521969 -0.1424085945 0.1914436072 8.170410826e-39
0.1928531229 -0.1442973167 0.1902125925 8.170410826e-39
0.07460261881 -0.1449936032 0.1931652725 8.170410826e-39
0.4392459393 -0.1937400401 0.1554259658 8.170410826e-39
-0.238524884 -0.1811178625 0.1989508122 8.170410826e-39
0.3672278523 -0.1521029323 0.1876866817 8.170410826e-39
-0.02093924768 -0.1606772691 0.1962440014 8.170410826e-39
0.4293997288 -0.1569732726 0.1866916716 8.170410826e-39
-0.07759832591 -0.1589791328 0.1916274726 8.170410826e-39
0.3057652116 -0.1385863721 0.1897705048 8.170410826e-39
0.1366914213 -0.142501846 0.1928364038 8.170410826e-39
0.4535495639 -0.1492151767 0.1823820919 8.170410826e-39
-0.1165692955 -0.1655701697 0.1923859715 8.170410826e-39
0.3098893464 -0.1420051754 0.1899518222 8.170410826e-39
0.06482763588 -0.1700354815 0.1954532862 8.170410826e-39
0.4641627967 -0.1434849054 0.169086352 8.170410826e-39
-0.2148962915 -0.1801798642 0.1985244453 8.170410826e-39
0.2986505628 -0.1504223496 0.1902832538 8.170410826e-39
-0.03020575084 -0.1986985803 0.2006569803 8.170410826e-39
0.219550997 -0.1405687779 0.1906902492 8.170410826e-39
-0.1307441294 -0.1847776026 0.1997489333 8.170410826e-39
0.1678879708 -0.1435574591 0.1915172338 8.170410826e-39
0.1185040399 -0.1453424394 0.1927978396 8.170410826e-39
0.03142184764 -0.1555668563 0.1952649355 8.170410826e-39
-0.1414807439 -0.1869291812 0.1993766874 8.170410826e-39
0.2987587154 -0.09692991525 0.186561957 8.170410826e-39
-0.02131108753 -0.1566469967 0.1946849823 8.170410826e-39
0.3840824664 -0.1033205986 0.1830607653 8.170410826e-39
-0.02201264165 -0.1594742388 0.1945985258 8.170410826e-39
0.01591126435 -0.0990222916 0.2050382197 8.906165387e-39
-0.2101445347 -0.04741990566 0.1936244071 8.906165387e-39
-0.1534345001 -0.143580839 0.1984729469 8.906165387e-39
-0.2632643282 -0.03764851019 0.190727815 8.906165387e-39
0.06155496463 -0.06718975306 0.2073240429 8.906165387e-39
-0.0914779231 -0.07095295191 0.2031499892 8.906165387e-39
-0.3534377515 -0.1750280112 0.1869630665 8.906165387e-39
-0.4034558237 -0.1459498405 0.1795676649 8.906165387e-39
-0.2041874677 -0.09445641935 0.1960005909 8.906165387e-39
-0.3433119655 -0.03930487856 0.1866001189 8.906165387e-39
-0.2268176526 -0.1619913727 0.1968254149 8.906165387e-39
-0.3285487294 -0.1181733385 0.1916696429 8.906165387e-39
-0.01229036506 -0.06131002307 0.2059425414 8.906165387e-39
-0.1978314817 -0.01607248373 0.191698432 8.906165387e-39
-0.2623916864 -0.1591110975 0.1951396614 8.906165387e-39
-0.3502920866 -0.1370138824 0.187269628 8.906165387e-39
-0.04526011646 -0.06153923646 0.2044392824 8.906165387e-39
-0.2227656692 -0.006180140655 0.189657867 8.906165387e-39
-0.2844530344 -0.1512227058 0.19370915 8.906165387e-39
-0.3907610178 -0.1356431842 0.1815452427 8.906165387e-39
-0.1604083329 -0.08033619821 0.1977416277 8.906165387e-39
-0.2974396646 0.01188617852 0.1853249669 8.906165387e-39
-0.09213617444 -0.1158007681 0.1989952624 8.906165387e-39
-0.3112285733 -0.07157485932 0.1922204643 8.906165387e-39
-0.05404181406 -0.06002114713 0.2032521665 8.906165387e-39
-0.1507832408 -0.01160000358 0.1923063397 8.906165387e-39
-0.1988714635 -0.1049048156 0.1960901618 8.906165387e-39
-0.3797819018 -0.0615427494 0.1840007007 8.906165387e-39
-0.22202003 -0.1249802783 0.1962851286 8.906165387e-39
-0.4025298655 -0.03800676391 0.178753525 8.906165387e-39
-0.03728536516 -0.1038526073 0.2024631798 8.906165387e-39
-0.2690365314 -0.0433008112 0.1908962727 8.906165387e-39
-0.350020647 -0.09507296979 0.1931960881 9.641561216e-39
-0.2879812717 -0.06063335389 0.1898908615 9.641561216e-39
-0.3935928047 -0.1515344083 0.1939492524 9.641561216e-39
-0.4453541636 -0.1896550804 0.175121665 9.641561216e-39
-0.3546199501 -0.1327814609 0.1897469312 9.641561216e-39
-0.09861109406 -0.01806476153 0.1783462018 9.641561216e-39
-0.4497601092 -0.2070799321 0.1731111258 9.641561216e-39
-0.4647922218 -0.217129454 0.06846337765 9.641561216e-39
-0.3724690378 -0.1295843124 0.1906062812 9.641561216e-39
-0.4004462063 -0.2961443961 0.1450376958 9.641561216e-39
-0.3895525932 -0.1982605159 0.1885948628 9.641561216e-39
-0.4359937608 -0.2685449123 0.1594484001 9.641561216e-39
-0.3423398435 -0.07206709683 0.1953529418 9.641561216e-39
-0.1333309859 -0.03895740956 0.174660176 9.641561216e-39
-0.3957182169 -0.2152917236 0.1866958886 9.641561216e-39
-0.4416272342 -0.261397481 0.1372222304 9.641561216e-39
-0.3426370025 -0.08907715976 0.1947948039 9.641561216e-39
-0.2203854769 -0.1636971533 0.1733243018 9.641561216e-39
-0.4075908065 -0.2350535989 0.1801797301 9.641561216e-39
-0.4427742362 -0.2603228688 0.1256534457 9.641561216e-39
-0.3469242752 -0.08339811116 0.1949405968 9.641561216e-39
-0.2172329724 -0.1672887206 0.1718093902 9.641561216e-39
-0.366558522 -0.2793973386 0.1781605631 9.641561216e-39
-0.3831152618 -0.3101804256 0.1732017398 9.641561216e-39
-0.229261443 -0.03209793195 0.1859630048 9.641561216e-39
-0.09171960503 0.04970754683 0.1877672523 9.641561216e-39
-0.3630623221 -0.3135098815 0.1681839526 9.641561216e-39
-0.403064996 -0.314655304 0.1642100811 9.641561216e-39
-0.3506795168 -0.3056200743 0.171342805 9.641561216e-39
-0.309581548 -0.03847863898 0.1952688992 9.641561216e-39
-0.2779155374 -0.1984348744 0.1770114005 9.641561216e-39
-0.3830386996 -0.3181230426 0.1680408269 9.641561216e-39
-0.06190032884 -0.1988716871 -0.01803688891 1.037659831e-38
0.1905260086 -0.1968041956 -0.08050663769 1.037659831e-38
0.1688493788 -0.2017730623 -0.05110208318 1.037659831e-38
0.3848045468 -0.1855193228 -0.06132435054 1.037659831e-38
-0.09374837577 -0.2028914392 -0.06514362991 1.037659831e-38
0.03312113509 -0.1854078323 -0.06289068609 1.037659831e-38
-0.1498454511 -0.179143697 -0.01993583143 1.037659831e-38
0.4155629575 -0.1794017255 -0.0581096597 1.037659831e-38
-0.2588767707 -0.1710400581 -0.0178898368 1.037659831e-38
0.2438176274 -0.1852031797 -0.05856724828 1.037659831e-38
0.08980181813 -0.1573209167 -0.03484105319 1.037659831e-38
0.3508147895 -0.1752780825 -0.05888557434 1.037659831e-38
-0.06935362518 -0.1690426469 -0.02906127274 1.037659831e-38
0.2070755064 -0.1624862999 -0.05057863146 1.037659831e-38
0.1243893579 -0.1560486704 -0.03220810369 1.037659831e-38
0.3641844392 -0.1755908579 -0.05878847837 1.037659831e-38
-0.06680700928 -0.1754260212 -0.02670945413 1.037659831e-38
0.2123119235 -0.1764082015 -0.05741015077 1.037659831e-38
0.1426407397 -0.1614231616 -0.03222713992 1.037659831e-38
0.3711287081 -0.1795027554 -0.06104369089 1.037659831e-38
-0.1734265387 -0.1950473785 -0.04203242064 1.037659831e-38
0.2300377786 -0.1950068176 -0.07024204731 1.037659831e-38
0.09009440988 -0.1973837018 -0.08820135891 1.037659831e-38
0.2533409595 -0.1807664484 -0.06712254137 1.037659831e-38
-0.04524534196 -0.1938689202 -0.03480870649 1.037659831e-38
0.1548808366 -0.1934994608 -0.07906589657 1.037659831e-38
0.04266865924 -0.1804092675 -0.03534700722 1.037659831e-38
0.3114492893 -0.1732465029 -0.0522705242 1.037659831e-38
-0.1806976795 -0.1842680126 -0.02620400675 1.037659831e-38
0.2801539302 -0.1851680875 -0.07160820067 1.037659831e-38
-0.02337025665 -0.192066133 -0.02833341435 1.037659831e-38
0.2524885833 -0.1744148582 -0.05670426786 1.037659831e-38
-0.1460534781 0.04340340197 -0.1671498865 1.111163541e-38
0.1142068803 -0.003135978244 -0.07540766895 1.111163541e-38
-0.1521253139 0.0574728027 -0.1544273496 1.111163541e-38
0.220690161 -0.03093085438 -0.07461737841 1.111163541e-38
-0.1425281465 0.06845241785 -0.1354577839 1.111163541e-38
0.006917254534 0.04126111418 -0.1249626875 1.111163541e-38
-0.2776633501 -0.0532550998 -0.1569702774 1.111163541e-38
0.3405191302 -0.07421505451 -0.02209685557 1.111163541e-38
0.1072640494 0.03057304956 -0.1499106437 1.111163541e-38
0.1659849435 -0.01882978715 -0.05337295681 1.111163541e-38
-0.18928729 0.01523298305 -0.1643743515 1.111163541e-38
0.3101730049 -0.06085876748 -0.0621644184 1.111163541e-38
-0.03093215264 0.008715535514 -0.1841964424 1.111163541e-38
0.1610311121 0.01483295485 -0.1531818807 1.111163541e-38
-0.2084057927 -0.009471911937 -0.1608446687 1.111163541e-38
0.3247289956 -0.06610133499 -0.04708120599 1.111163541e-38
-0.007178868633 0.01193562429 -0.1826037914 1.111163541e-38
0.1904730201 -0.004366394132 -0.1231046319 1.111163541e-38
-0.2207027227 -0.01087491959 -0.1572243869 1.111163541e-38
0.3559447229 -0.07204096764 -0.02220524102 1.111163541e-38
0.1049400643 0.03885223716 -0.1644129157 1.111163541e-38
0.2320334017 -0.02767715044 -0.09053266793 1.111163541e-38
0.003511779476 0.05679885298 -0.1545301229 1.111163541e-38
0.2900564075 -0.04556655884 -0.07133124024 1.111163541e-38
0.03892779723 0.03862057254 -0.1729408354 1.111163541e-38
0.164456144 0.006759078708 -0.1352051347 1.111163541e-38
-0.05526699126 0.0636267364 -0.1420197934 1.111163541e-38
0.3012623787 -0.04555050656 -0.05166747421 1.111163541e-38
0.008261045441 0.04863373563 -0.1319354326 1.111163541e-38
0.292029798 -0.04126817361 -0.05892951414 1.111163541e-38
0.01743330061 0.05650576204 -0.1514060795 1.111163541e-38
0.1788138002 -0.01503440924 -0.09328205138 1.111163541e-38
-0.2256559879 -0.1064971238 -0.1767467409 1.184631237e-38
-0.3547560573 -0.01933391765 -0.1700482666 1.184631237e-38
-0.1364230663 -0.05076580495 -0.1981435716 1.184631237e-38
-0.3759640753 0.04488309473 -0.1638883203 1.184631237e-38
-0.255734086 -0.08124943078 -0.1704658717 1.184631237e-38
-0.3403002918 -0.009241921827 -0.1718345135 1.184631237e-38
-0.04845415428 -0.1240647733 -0.16637218 1.184631237e-38
-0.3319092691 0.09427183867 -0.1689644456 1.184631237e-38
-0.1368700415 -0.1189871505 -0.1643602401 1.184631237e-38
-0.2835767269 -0.02225393616 -0.175051257 1.184631237e-38
-0.1174565777 -0.06594677269 -0.2015323043 1.184631237e-38
-0.367112875 0.02898356505 -0.1719564348 1.184631237e-38
-0.2542084455 -0.08698356152 -0.1647588462 1.184631237e-38
-0.310379535 -0.05629393831 -0.1728686243 1.184631237e-38
-0.08783232421 -0.08440873027 -0.1942946017 1.184631237e-38
-0.3435718715 0.029930925 -0.1752712727 1.184631237e-38
-0.2208785415 -0.1057714224 -0.1736900508 1.184631237e-38
-0.2758213282 -0.04089059681 -0.1822559237 1.184631237e-38
-0.07155012339 -0.1108481139 -0.183699742 1.184631237e-38
-0.3081282675 0.04021884501 -0.1778736711 1.184631237e-38
-0.2033962607 -0.05877420306 -0.1901816577 1.184631237e-38
-0.2219272554 -0.05330316722 -0.1903208792 1.184631237e-38
-0.2689952254 0.07630717009 -0.1712709516 1.184631237e-38
-0.3594705462 0.02230287343 -0.1740694195 1.184631237e-38
-0.2299219668 -0.1224664748 -0.1739380211 1.184631237e-38
-0.2871413231 -0.1221866533 -0.1706861258 1.184631237e-38
-0.2358094603 0.04137405753 -0.1799356341 1.184631237e-38
-0.299841553 -0.001600917894 -0.1817768663 1.184631237e-38
-0.194744736 -0.1239716336 -0.153436169 1.184631237e-38
-0.2618276775 -0.05176991597 -0.1779573262 1.184631237e-38
-0.2898281217 0.02535927854 -0.181469366 1.184631237e-38
-0.3306352198 -0.02434047312 -0.180122301 1.184631237e-38
-0.3514972329 0.1418431997 -0.02639599703 1.258099074e-38
-0.3472385705 0.2365894318 0.1760905236 1.258099074e-38
-0.3511934578 0.2256553322 -0.06420513242 1.258099074e-38
-0.3562167585 0.2770419121 0.1844535917 1.258099074e-38
-0.3845250607 0.2766337991 0.0564028509 1.258099074e-38
-0.381831795 0.1795603335 0.1065733135 1.258099074e-38
-0.3497958779 0.3166259229 -0.07804039121 1.258099074e-38
-0.3486383259 0.2038476765 -0.07947212458 1.258099074e-38
-0.3686699569 0.3300810456 -0.04590833932 1.258099074e-38
-0.3099643588 0.2485065609 0.1675942838 1.258099074e-38
-0.3512807786 0.369513005 0.04672113061 1.258099074e-38
-0.3602212965 0.3376395404 0.11759644 1.258099074e-38
-0.3160263896 0.3773911893 0.1727971733 1.258099074e-38
-0.3485021591 0.273273319 0.1825371683 1.258099074e-38
-0.3595630229 0.3568581939 0.008540214039 1.258099074e-38
-0.3766128123 0.3137426376 0.06196192652 1.258099074e-38
-0.3232591152 0.3744521141 0.1616038829 1.258099074e-38
-0.3405087292 0.2915100157 0.1810046434 1.258099074e-38
-0.3720988035 0.3317839205 -0.01195111685 1.258099074e-38
-0.3561298549 0.2548604906 -0.05757797137 1.258099074e-38
-0.3778937757 0.2708663642 -0.00539141614 1.258099074e-38
-0.3450163603 0.3088305891 0.1818759292 1.258099074e-38
-0.3675584793 0.2705295682 -0.03591777384 1.258099074e-38
-0.3743379116 0.3201189041 0.01030987222 1.258099074e-38
-0.3611423075 0.3237712979 0.1329790205 1.258099074e-38
-0.3664497733 0.2924369574 0.1406095177 1.258099074e-38
-0.3534356654 0.3006994128 -0.08562391996 1.258099074e-38
-0.3473905325 0.2592403293 -0.09575303644 1.258099074e-38
-0.3754356503 0.3258926272 0.03009807691 1.258099074e-38
-0.3617782593 0.3085093498 0.1438763738 1.258099074e-38
-0.3556930721 0.2024934292 -0.1250791103 1.258099074e-38
-0.3824506104 0.2708307207 0.01758392341 1.258099074e-38
-0.4044555426 -0.270552665 -0.1779039353 1.331530897e-38
-0.2715728283 -0.2426305562 0.03124845028 1.331530897e-38
-0.3394240439 -0.2628814578 0.01670567319 1.331530897e-38
-0.1757086068 -0.3011856973 -0.1604765207 1.331530897e-38
-0.3705015182 -0.3124768734 -0.1396537721 1.331530897e-38
-0.3880269527 -0.2501804829 0.008992668241 1.331530897e-38
-0.4227974713 -0.2407042533 -0.1332798004 1.331530897e-38
-0.1090046614 -0.2433431745 -0.1344705224 1.331530897e-38
-0.3401345015 -0.2394435257 -0.1916256696 1.331530897e-38
-0.1173685119 -0.2079884261 0.09660592675 1.331530897e-38
-0.3922118247 -0.2768377662 -0.09133085608 1.331530897e-38
-0.1558211595 -0.2960391343 -0.1662507057 1.331530897e-38
-0.2740395665 -0.3313224614 -0.1742780209 1.331530897e-38
-0.3022869527 -0.2264734954 0.1210486144 1.331530897e-38
-0.4007451236 -0.2671386003 -0.1184884831 1.331530897e-38
-0.1567604393 -0.2866456211 -0.1619101167 1.331530897e-38
-0.2883517742 -0.3221284151 -0.1799621284 1.331530897e-38
-0.2994740307 -0.2285818905 0.1046919599 1.331530897e-38
-0.4089533687 -0.2497169822 -0.1414691508 1.331530897e-38
-0.2578773499 -0.2912110388 -0.1484083682 1.331530897e-38
-0.3270121515 -0.2257859111 -0.1954459101 1.331530897e-38
-0.3701006472 -0.2560183406 0.01440818701 1.331530897e-38
-0.4260945916 -0.2091514319 -0.1037922874 1.331530897e-38
-0.377438575 -0.3135550618 -0.1631093621 1.331530897e-38
-0.3151736259 -0.3273340166 -0.1702295542 1.331530897e-38
-0.3464029729 -0.3183091283 -0.1546886265 1.331530897e-38
-0.4160967469 -0.145069465 -0.1721601188 1.331530897e-38
-0.3175160885 -0.2856035829 -0.1287754774 1.331530897e-38
-0.3862634599 -0.2088700682 -0.1845761687 1.331530897e-38
-0.2376609743 -0.2512578666 -0.04240875691 1.331530897e-38
-0.3631296754 -0.2608278692 -0.1890674531 1.331530897e-38
-0.3666282594 -0.3179035187 -0.1506162435 1.331530897e-38
-0.1241045445 0.2191708386 0.07845049351 1.404926846e-38
0.001479758765 0.1412257403 0.03594501689 1.404926846e-38
-0.2415728867 0.05566696823 0.1209120005 1.404926846e-38
0.05557481572 0.1187511459 -0.02097464725 1.404926846e-38
-0.2483283877 0.1364884079 0.1230548769 1.404926846e-38
-0.06825711578 0.1778028607 0.07160653919 1.404926846e-38
-0.2595913112 -0.0378373079 0.1111984625 1.404926846e-38
0.1080933139 0.07453424484 -0.0622061938 1.404926846e-38
-0.09860900044 0.2536656857 -0.005907839164 1.404926846e-38
0.04556562006 0.1322596222 -0.03372971341 1.404926846e-38
-0.2625610828 0.07858373225 0.1162020788 1.404926846e-38
0.03824280575 0.1399119347 -0.05589960515 1.404926846e-38
-0.2562392354 0.2887300849 0.09613873065 1.404926846e-38
-0.1092007086 0.2572843134 0.01509537268 1.404926846e-38
-0.2681556046 0.07982175797 0.1114837229 1.404926846e-38
0.0679634437 0.1085477173 -0.05798490718 1.404926846e-38
-0.2398054302 0.2941111326 0.08804563433 1.404926846e-38
-0.06091720611 0.2324036509 -0.02559623867 1.404926846e-38
-0.2744011879 0.08173441142 0.1060617566 1.404926846e-38
0.0855095163 0.09284026176 -0.0573900193 1.404926846e-38
-0.1059746146 0.2552627325 0.01257370785 1.404926846e-38
0.05493949726 0.1231207103 -0.05982684717 1.404926846e-38
-0.2039462477 0.2715345025 0.08582184464 1.404926846e-38
-0.02909490094 0.2024098337 -0.02214129828 1.404926846e-38
-0.2079965174 0.2737249136 0.08490400761 1.404926846e-38
-0.05733753741 0.2282460779 -0.03913888708 1.404926846e-38
-0.1617585868 0.2647977173 0.06561232358 1.404926846e-38
-0.01368577965 0.1898800284 -0.03886981681 1.404926846e-38
-0.2460112572 0.3082553148 0.06937005371 1.404926846e-38
0.07543250173 0.09970074892 -0.06502255797 1.404926846e-38
-0.1454745829 0.2687734962 0.04962401465 1.404926846e-38
-0.07907024771 0.2486429513 -0.03076488525 1.404926846e-38
-0.1037931964 -0.02388344891 0.08280859143 1.478322936e-38
-0.3531963229 0.2759416997 -0.02279823646 1.478322936e-38
-0.2293449938 0.141438663 0.1650807261 1.478322936e-38
-0.2548702955 0.135752365 0.1176857501 1.478322936e-38
-0.1852321923 0.009754020721 0.07759711146 1.478322936e-38
-0.3065074384 0.2423551232 0.0665813759 1.478322936e-38
-0.02684531733 -0.001307896571 0.168081969 1.478322936e-38
-0.2188205868 0.09191905707 0.1394034177 1.478322936e-38
0.06066246703 -0.06986559927 0.07530508935 1.478322936e-38
-0.3733502924 0.2780759037 -0.02492636815 1.478322936e-38
-0.2032411546 0.079383187 0.1560287327 1.478322936e-38
-0.28717646 0.1706645489 0.1246268973 1.478322936e-38
-0.1408067495 -0.03300613537 0.05895762891 1.478322936e-38
-0.3303293586 0.2340895087 0.04903615266 1.478322936e-38
-0.1642762572 0.02862679586 0.1404500753 1.478322936e-38
-0.2681590319 0.1280815899 0.1185254306 1.478322936e-38
-0.1118317246 -0.04914272204 0.04733344913 1.478322936e-38
-0.3458923995 0.2305872589 0.03344718739 1.478322936e-38
-0.1316206604 -0.0008716729935 0.1280507445 1.478322936e-38
-0.2807246745 0.1319111437 0.1082818508 1.478322936e-38
-0.1379642338 -0.03999334201 0.04675918818 1.478322936e-38
-0.3780702651 0.2173552066 -0.02459005825 1.478322936e-38
-0.3130505681 0.2281942815 0.06704740971 1.478322936e-38
-0.3305825591 0.1802987605 0.002686149441 1.478322936e-38
-0.3102254868 0.1890839636 0.04950541258 1.478322936e-38
-0.3240802884 0.2192161381 0.03113087825 1.478322936e-38
-0.3366451561 0.1939719021 -0.06738770008 1.478322936e-38
-0.3341661096 0.1717766076 -0.0230454579 1.478322936e-38
-0.1872246712 -0.01803952642 0.04645670578 1.478322936e-38
-0.3666269481 0.1919565499 -0.07965610921 1.478322936e-38
-0.3117637634 0.1443166435 -0.01882940903 1.478322936e-38
-0.3377116919 0.1918717474 -0.06089791283 1.478322936e-38
0.2634887695 -0.1633062959 -0.02763360739 1.551683013e-38
0.1845075339 -0.08120976388 0.04503336549 1.551683013e-38
-0.03025869839 -0.1537109911 -0.1476257741 1.551683013e-38
-0.1081153825 -0.125739783 -0.1053962111 1.551683013e-38
0.3170490265 -0.1888711751 0.009874014184 1.551683013e-38
0.207006529 -0.1006185561 0.05650200322 1.551683013e-38
0.1857933998 -0.07891200483 0.03865169361 1.551683013e-38
-0.111468032 -0.08636495471 -0.07459431887 1.551683013e-38
0.08685135096 -0.1096229181 -0.1285465509 1.551683013e-38
-0.03485995159 -0.04676173255 -0.01508477051 1.551683013e-38
0.01861107722 -0.1014285013 -0.1221394762 1.551683013e-38
-0.1750135869 -0.1627524793 -0.1148981228 1.551683013e-38
0.2503149807 -0.1534629762 -0.02753545344 1.551683013e-38
0.1091984957 -0.03431376815 0.05675259605 1.551683013e-38
0.04774693027 -0.08703611791 -0.1010317132 1.551683013e-38
-0.1711646467 -0.1452603936 -0.1054574251 1.551683013e-38
0.218094781 -0.1361643374 -0.03454285115 1.551683013e-38
0.05970440805 -0.0323253125 0.04583432525 1.551683013e-38
0.0957325995 -0.06693633646 -0.05378298834 1.551683013e-38
-0.1365230531 -0.1066945195 -0.09369053692 1.551683013e-38
0.07153921574 -0.0737753585 -0.07023796439 1.551683013e-38
0.007349932566 -0.03444843739 0.034501452 1.551683013e-38
-0.03951053321 -0.08162480593 -0.08808775246 1.551683013e-38
-0.05204215646 -0.1123090535 -0.1155711859 1.551683013e-38
0.1727744192 -0.08902247995 -0.008598070592 1.551683013e-38
-0.07086423784 -0.08370376378 -0.09314174205 1.551683013e-38
0.186230123 -0.0820004642 0.02944712713 1.551683013e-38
-0.04046832025 -0.07371728122 -0.06723840535 1.551683013e-38
0.1253958493 -0.06326660514 -0.02087924257 1.551683013e-38
-0.07339412719 -0.05904943496 -0.05623327196 1.551683013e-38
-0.08243140578 -0.09367514402 -0.1028850898 1.551683013e-38
-0.1082602516 -0.09577062726 -0.09555374086 1.551683013e-38
-0.3741947114 -0.07474723458 0.1208810508 1.625043089e-38
-0.3814900815 -0.04759975895 0.0824405849 1.625043089e-38
-0.3633927107 -0.1261319518 0.09797079116 1.625043089e-38
-0.3775411546 -0.03586075455 -0.05988300219 1.625043089e-38
-0.3972529769 0.01077031437 0.08748593181 1.625043089e-38
-0.4031869471 0.0606562905 0.1091888547 1.625043089e-38
-0.3681634068 -0.08015555888 0.02501081862 1.625043089e-38
-0.3410066664 -0.06143818796 -0.1432875842 1.625043089e-38
-0.375813663 -0.05838664621 0.1269364953 1.625043089e-38
-0.3990004063 0.007987901568 0.06123490632 1.625043089e-38
-0.3726638258 -0.0669106096 0.08446792513 1.625043089e-38
-0.3676787615 -0.01783840731 -0.1341581196 1.625043089e-38
-0.3892817199 -0.009046266787 0.13044855 1.625043089e-38
-0.4087958038 0.03323596716 0.02398412488 1.625043089e-38
-0.3692030907 -0.0673045367 0.06575582176 1.625043089e-38
-0.3547714055 -0.0409932211 -0.1308642477 1.625043089e-38
-0.389719367 -0.009112663567 0.1229368821 1.625043089e-38
-0.403370738 0.01127649564 0.01286213659 1.625043089e-38
-0.3701656759 -0.06163113192 0.05422159284 1.625043089e-38
-0.3501282334 -0.06267429143 -0.1017719582 1.625043089e-38
-0.3813112974 -0.04025516659 0.1285848916 1.625043089e-38
-0.3991141617 -0.003851025831 0.00912530534 1.625043089e-38
-0.3932445347 -0.002252338454 0.1029849723 1.625043089e-38
-0.383667767 -0.02321799286 -0.05648395792 1.625043089e-38
-0.3888030052 -0.0170128569 0.1229587495 1.625043089e-38
-0.4044726193 0.05201219395 0.1043995991 1.625043089e-38
-0.4004867673 0.03628712147 0.1140533909 1.625043089e-38
-0.3916702271 -0.02728492953 0.009761455469 1.625043089e-38
-0.3809181452 -0.05498746037 0.0588811785 1.625043089e-38
-0.3936854303 -0.02266829833 0.009216720238 1.625043089e-38
-0.4129557014 0.04518945515 0.04475546628 1.625043089e-38
-0.3991159201 0.003170773853 0.003055797657 1.625043089e-38
0.23429434 -0.1685962975 -0.199674502 1.698367293e-38
0.2891338468 -0.1784174442 -0.1989395469 1.698367293e-38
0.03135849163 -0.1760223955 -0.20540452 1.698367293e-38
0.3586538434 -0.2563507855 -0.1811967939 1.698367293e-38
0.3059278429 -0.1951456666 -0.1985469759 1.698367293e-38
0.2746130228 -0.1322895437 -0.1955069304 1.698367293e-38
0.1546714157 -0.2396904677 -0.2001732737 1.698367293e-38
0.3109682202 -0.2900915742 -0.1652236879 1.698367293e-38
0.09036578983 -0.1224337146 -0.1805789918 1.698367293e-38
0.3169955313 -0.2330318689 -0.1960843205 1.698367293e-38
0.1270078868 -0.1430460066 -0.2008145005 1.698367293e-38
0.3563949466 -0.2677395642 -0.176932618 1.698367293e-38
0.2866642773 -0.103102684 -0.1882805824 1.698367293e-38
0.358567059 -0.1251035035 -0.1877936125 1.698367293e-38
0.1221347302 -0.1729815751 -0.2042412013 1.698367293e-38
0.3379025459 -0.2896649539 -0.1766019315 1.698367293e-38
0.2732648849 -0.08225584775 -0.1833986938 1.698367293e-38
0.3538773656 -0.1600974053 -0.1946397126 1.698367293e-38
0.1840916723 -0.2047109455 -0.1987946779 1.698367293e-38
0.3103539944 -0.2935019433 -0.1724559963 1.698367293e-38
0.2634854317 -0.08879480511 -0.1861329675 1.698367293e-38
0.3356874585 -0.2043786496 -0.1960373223 1.698367293e-38
0.3035738766 -0.1767371744 -0.1982718855 1.698367293e-38
0.3140354156 -0.2546000481 -0.1934552491 1.698367293e-38
0.3147292733 -0.1882861704 -0.198134914 1.698367293e-38
0.3324638605 -0.1560149938 -0.1957739294 1.698367293e-38
0.2488211989 -0.278249234 -0.1946672201 1.698367293e-38
0.3253307939 -0.2163823098 -0.1969491839 1.698367293e-38
0.2496471405 -0.1976029724 -0.1987686902 1.698367293e-38
0.2627522647 -0.2525039315 -0.197938174 1.698367293e-38
0.2266531438 -0.1818456948 -0.1994752288 1.698367293e-38
0.297129631 -0.2727882564 -0.1940589249 1.698367293e-38
0.0522819683 0.01318487618 0.09869983047 1.771655483e-38
-0.1262049228 0.05202129111 0.1350010633 1.771655483e-38
-0.1228098348 0.04857615009 0.03913588077 1.771655483e-38
-0.1604327261 0.06469628215 0.1143842414 1.771655483e-38
0.1857794374 -0.06891784817 0.1540972739 1.771655483e-38
-0.01121657621 0.01821619086 0.1697678417 1.771655483e-38
-0.2065317631 0.06586904824 0.09433676302 1.771655483e-38
-0.2671941221 0.06400942802 0.1072725281 1.771655483e-38
-0.01921195351 0.0248651877 0.05405850708 1.771655483e-38
-0.1555590034 0.04569434747 0.1461408585 1.771655483e-38
-0.14076069 0.05219432712 0.1178142577 1.771655483e-38
-0.2022552043 0.04873839766 0.1381093711 1.771655483e-38
0.06823210418 0.01491416153 0.1372330189 1.771655483e-38
-0.0657120496 0.01905647852 0.1692998409 1.771655483e-38
-0.1687141806 0.0529617779 0.115800418 1.771655483e-38
-0.2148955613 0.04556638002 0.1380193084 1.771655483e-38
0.05482634902 0.02077433281 0.1380406916 1.771655483e-38
-0.08044704795 0.0201223027 0.1682153791 1.771655483e-38
-0.1895135492 0.05585406721 0.1118064225 1.771655483e-38
-0.2255982757 0.05470257625 0.1155913845 1.771655483e-38
0.08159970492 -0.002225564793 0.1620506793 1.771655483e-38
-0.07999522984 0.008354034275 0.1753479391 1.771655483e-38
-0.03391292691 0.02862209827 0.1585864723 1.771655483e-38
-0.01181219704 0.03091685846 0.1290480047 1.771655483e-38
0.1536819786 -0.09693626314 0.1813905239 1.771655483e-38
0.09955187142 -0.07682572305 0.186253041 1.771655483e-38
-0.04780073464 0.02909288183 0.1570333242 1.771655483e-38
-0.1904980242 0.0574118644 0.07618466765 1.771655483e-38
0.08031667769 -0.005418474786 0.1655378938 1.771655483e-38
0.03228301182 -0.01158290543 0.178503871 1.771655483e-38
0.03209657967 0.01124424767 0.1639409959 1.771655483e-38
-0.01226459071 0.02725337073 0.1606655717 1.771655483e-38
-0.3975167274 0.1697648913 -0.07505851239 1.844943813e-38
-0.387911886 0.1315774024 0.1448880434 1.844943813e-38
-0.3860097528 0.0868223384 0.1187275425 1.844943813e-38
-0.4008904397 0.1550150067 -0.09175587445 1.844943813e-38
-0.3977848887 0.1419779807 -0.06609971821 1.844943813e-38
-0.4002756476 0.1549669951 0.09653182328 1.844943813e-38
-0.3906522691 0.1095981896 -0.0259943027 1.844943813e-38
-0.3890296817 0.1196034253 0.1587325484 1.844943813e-38
-0.3977236748 0.2425228208 -0.1666021347 1.844943813e-38
-0.3715087473 0.119042851 0.128704533 1.844943813e-38
-0.3829250038 0.1487473547 0.005716522224 1.844943813e-38
-0.4102037847 0.2446212918 0.0961689651 1.844943813e-38
-0.4014211595 0.2729198039 -0.09804278612 1.844943813e-38
-0.3855274916 0.1808431 0.1667323112 1.844943813e-38
-0.3792443275 0.1481565088 -0.0467598252 1.844943813e-38
-0.4031855762 0.2371075153 0.1221896857 1.844943813e-38
-0.4060042799 0.2629466653 -0.06741660088 1.844943813e-38
-0.3848415911 0.1861434579 0.1657697409 1.844943813e-38
-0.3871943653 0.1554697305 -0.09405890852 1.844943813e-38
-0.389873147 0.1765535921 0.1608421504 1.844943813e-38
-0.4019282162 0.2627434134 -0.1065173224 1.844943813e-38
-0.3781141043 0.1679626405 0.1671721041 1.844943813e-38
-0.3948140144 0.1769041717 -0.08772630244 1.844943813e-38
-0.409497261 0.2344104499 0.05602743849 1.844943813e-38
-0.4043654203 0.2316467613 -0.08016695827 1.844943813e-38
-0.3866787851 0.2000916451 0.1671827883 1.844943813e-38
-0.4010122716 0.1686366051 -0.1221727133 1.844943813e-38
-0.4068458378 0.2279035002 0.07960294932 1.844943813e-38
-0.4075480998 0.2461534292 -0.02930319868 1.844943813e-38
-0.3944612741 0.1596658975 0.09807565063 1.844943813e-38
-0.4035717845 0.1841507852 0.04624577984 1.844943813e-38
-0.4180645347 0.1930251867 -0.004037065897 1.844943813e-38
-0.361456871 -0.1822828054 -0.05029143021 1.91819627e-38
0.01571552642 -0.2639742792 0.1383575946 1.91819627e-38
-0.1462163627 -0.2582860291 0.178801775 1.91819627e-38
-0.04150006175 -0.2599620819 0.1717501581 1.91819627e-38
-0.3675364256 -0.1932786554 -0.09139116108 1.91819627e-38
-0.09973462671 -0.2598997355 0.002052654512 1.91819627e-38
0.08298512548 -0.2615546286 0.1615592837 1.91819627e-38
0.2858352661 -0.2521487474 0.1228127256 1.91819627e-38
-0.205054462 -0.2348317206 0.1086207405 1.91819627e-38
0.2040068805 -0.2567089498 0.1347252727 1.91819627e-38
-0.1300891489 -0.2735076845 0.1766474843 1.91819627e-38
0.1450109184 -0.2691909969 0.1383037418 1.91819627e-38
-0.3696423471 -0.2050792277 -0.1069103628 1.91819627e-38
0.04407964647 -0.2694289088 0.1402601302 1.91819627e-38
-0.1050073877 -0.2751520872 0.1748566478 1.91819627e-38
0.1803850681 -0.2664454281 0.1338751316 1.91819627e-38
-0.3515613377 -0.212358743 -0.1099961996 1.91819627e-38
0.06107261777 -0.2679623663 0.136587441 1.91819627e-38
-0.05081825331 -0.2756273746 0.167686671 1.91819627e-38
0.2046167105 -0.2644459903 0.1223235279 1.91819627e-38
-0.3369216621 -0.229803443 -0.1243109107 1.91819627e-38
0.02207291685 -0.2682427168 0.1311257482 1.91819627e-38
-0.2270468622 -0.2146318704 -0.04728566483 1.91819627e-38
0.02111383341 -0.2706033885 0.1180985272 1.91819627e-38
-0.3757673502 -0.214421615 -0.1360449642 1.91819627e-38
-0.2010134608 -0.2204981297 -0.09253263474 1.91819627e-38
-0.1083724722 -0.2686921954 0.01698761247 1.91819627e-38
0.2216137648 -0.2639885247 0.1156799346 1.91819627e-38
-0.01829780079 -0.2699659765 0.1424884796 1.91819627e-38
0.1044285148 -0.2578838468 0.07507868111 1.91819627e-38
-0.2368927598 -0.2154454142 -0.08972389251 1.91819627e-38
0.0262993779 -0.2690601051 0.06052859873 1.91819627e-38
0.280048579 -0.2685658336 -0.1873705834 1.991448586e-38
0.09044563025 -0.2737258375 -0.1582266092 1.991448586e-38
0.262270987 -0.2784888446 -0.149487108 1.991448586e-38
0.07495900244 -0.2879341543 -0.1358471513 1.991448586e-38
0.3644554615 -0.2332427353 -0.1870731562 1.991448586e-38
0.143614471 -0.281359911 -0.1676004827 1.991448586e-38
0.3424844146 -0.2518718839 -0.137005657 1.991448586e-38
-0.08321584016 -0.2472176999 -0.1383202672 1.991448586e-38
0.1066542044 -0.2706910968 -0.195257321 1.991448586e-38
0.0166500695 -0.2572464943 -0.1644712538 1.991448586e-38
0.2518180311 -0.2788664997 -0.1634379476 1.991448586e-38
-0.02856737748 -0.256627053 -0.1295816749 1.991448586e-38
0.1984573454 -0.2766780853 -0.1738862693 1.991448586e-38
0.1197994053 -0.2781061232 -0.1221829578 1.991448586e-38
0.2837600708 -0.2722125649 -0.165476352 1.991448586e-38
-0.03542933613 -0.2524317503 -0.1298397183 1.991448586e-38
0.1743492633 -0.2756458819 -0.174918294 1.991448586e-38
0.1152498648 -0.2743955553 -0.1283323765 1.991448586e-38
0.3123556376 -0.2645681202 -0.1519241929 1.991448586e-38
0.03489005938 -0.2618272603 -0.1300645024 1.991448586e-38
0.1452072263 -0.272306174 -0.1935873777 1.991448586e-38
0.09186790884 -0.2717445195 -0.1303882003 1.991448586e-38
0.2873760462 -0.2798464894 -0.1357181668 1.991448586e-38
0.1617214978 -0.2841072679 -0.110504806 1.991448586e-38
0.2759870887 -0.2708670497 -0.1961313337 1.991448586e-38
0.1964437515 -0.277826488 -0.1251845509 1.991448586e-38
0.3624119461 -0.2348427176 -0.1422944367 1.991448586e-38
-2.756714821e-06 -0.2420022041 -0.1918095946 1.991448586e-38
0.3056280315 -0.2746025622 -0.09854009748 1.991448586e-38
0.0954362154 -0.2678614557 -0.1768831313 1.991448586e-38
0.1829054803 -0.2753626704 -0.1966687441 1.991448586e-38
0.05421344191 -0.259347558 -0.1803162843 1.991448586e-38
-0.01125263609 -0.130595088 0.1989745051 2.06466517e-38
-0.1958936155 -0.1381509751 -0.1138423979 2.06466517e-38
0.04871117696 -0.0886734575 0.2148943096 2.06466517e-38
-0.3361877799 -0.1685969085 -0.1963516772 2.06466517e-38
-0.1513831615 -0.1226705611 0.08523177356 2.06466517e-38
-0.1816180944 -0.1511911452 -0.1223044544 2.06466517e-38
0.2539860904 -0.1282669306 0.1611686498 2.06466517e-38
-0.2520647347 -0.09537407756 -0.1079502925 2.06466517e-38
-0.05593645573 -0.07478473336 0.2106551826 2.06466517e-38
-0.2125191838 -0.09659837186 0.04394877702 2.06466517e-38
0.1204327121 -0.09806974977 0.1909164637 2.06466517e-38
-0.3440248668 -0.03510328755 -0.1705347449 2.06466517e-38
-0.1642691046 -0.07122300565 0.1613354087 2.06466517e-38
-0.2748782635 -0.04846708104 -0.07270936668 2.06466517e-38
0.1451569051 -0.09547246248 0.1783680469 2.06466517e-38
-0.3350992501 -0.04836236686 -0.1637503654 2.06466517e-38
-0.1600584686 -0.05266001448 0.1720757484 2.06466517e-38
-0.2577919662 -0.06658793986 -0.0467040427 2.06466517e-38
0.1357700378 -0.08913893253 0.1775000393 2.06466517e-38
-0.3201402426 -0.1038276702 -0.1754213572 2.06466517e-38
-0.1595884264 -0.06821797788 0.1633091122 2.06466517e-38
-0.2302811444 -0.08742682636 0.01094653923 2.06466517e-38
-0.04086266086 -0.05056131631 0.207012713 2.06466517e-38
-0.3676855564 -0.109744668 -0.1887996942 2.06466517e-38
-0.186458841 -0.09671679884 0.03917845339 2.06466517e-38
-0.2263612747 -0.1193665415 -0.1072851792 2.06466517e-38
0.05221629143 -0.08200772852 0.192796886 2.06466517e-38
-0.2830332518 -0.1082633361 -0.1459887326 2.06466517e-38
-0.05847142637 -0.08617538959 0.1802340597 2.06466517e-38
-0.1813214719 -0.1020458564 0.03380095214 2.06466517e-38
-0.1051816568 -0.1146447733 0.08697360754 2.06466517e-38
-0.3748865128 -0.04124525562 -0.1834052652 2.06466517e-38
-0.152213797 0.1279579401 -0.1283720434 2.137881613e-38
-0.3106675446 0.111001201 -0.1509414762 2.137881613e-38
0.0428561382 -0.03749319166 -0.1774468273 2.137881613e-38
-0.3362069726 0.2361710668 -0.1028652787 2.137881613e-38
-0.2093035579 0.1858227402 -0.1235076487 2.137881613e-38
-0.2915220261 0.2587327361 -0.1366297603 2.137881613e-38
0.04856796935 -0.003734168829 -0.1446519494 2.137881613e-38
-0.3173866868 0.239160493 -0.1289869994 2.137881613e-38
-0.01622625627 0.1061231792 -0.13967821 2.137881613e-38
-0.1268428266 0.08352630585 -0.1611395478 2.137881613e-38
0.02267800272 -0.02923174948 -0.190115571 2.137881613e-38
-0.3569793999 0.1676928699 -0.06215148047 2.137881613e-38
-0.183249265 0.1658917814 -0.1435804665 2.137881613e-38
-0.2970824838 0.1990604401 -0.1433619857 2.137881613e-38
0.05269248784 -0.01377936359 -0.1783467829 2.137881613e-38
-0.3521034718 0.1709085703 -0.08899621665 2.137881613e-38
-0.1765594482 0.1525690109 -0.142632246 2.137881613e-38
-0.2670178115 0.1873343289 -0.1406974345 2.137881613e-38
0.1102733836 -0.01198972668 -0.1684191972 2.137881613e-38
-0.3469384313 0.1863097399 -0.08955001831 2.137881613e-38
-0.1591521502 0.1768339872 -0.1224419326 2.137881613e-38
-0.1786907166 0.1388004571 -0.1216503605 2.137881613e-38
-0.1238152906 0.08161540329 -0.1499439031 2.137881613e-38
-0.3641203642 0.2011002004 -0.03761254624 2.137881613e-38
-0.2388298959 0.205665946 -0.1321137398 2.137881613e-38
-0.2518695593 0.2365972251 -0.1079424769 2.137881613e-38
-0.04734427482 0.1052251458 -0.1178278103 2.137881613e-38
-0.3041447699 0.2766729593 -0.1079206616 2.137881613e-38
-0.1631990671 0.1828221381 -0.1158557162 2.137881613e-38
-0.226730898 0.2344654202 -0.1048319191 2.137881613e-38
-0.1804916859 0.161441043 -0.125864163 2.137881613e-38
-0.03174614161 0.0862442404 -0.144726336 2.137881613e-38
-0.3786216974 -0.1667684019 0.05398916453 2.211062324e-38
-0.1874635071 -0.2072134316 0.009985577315 2.211062324e-38
-0.4422222376 0.01024866011 -0.06897769123 2.211062324e-38
-0.3418751657 -0.1741638929 0.012479892 2.211062324e-38
-0.4144954085 -0.105278112 -0.04439293593 2.211062324e-38
-0.1787704825 -0.2068180591 0.0139925899 2.211062324e-38
-0.441485554 0.06330770999 -0.1618041545 2.211062324e-38
-0.06975162774 -0.22217758 0.07829810679 2.211062324e-38
-0.4523618817 -0.08067125082 -0.0002496903762 2.211062324e-38
-0.1080917791 -0.2233398706 0.05965524167 2.211062324e-38
-0.4426114559 -0.03683144599 -0.1348089874 2.211062324e-38
-0.102032952 -0.2111422867 0.04182964563 2.211062324e-38
-0.4469154179 -0.09247104824 0.003290520282 2.211062324e-38
-0.3304671645 -0.1834543496 0.03523047268 2.211062324e-38
-0.4409714639 -0.02061334252 -0.145582363 2.211062324e-38
-0.1112047285 -0.2185549289 0.06750377268 2.211062324e-38
-0.4497360885 -0.08868742734 -0.007991039194 2.211062324e-38
-0.2813258171 -0.1972283274 0.0573913902 2.211062324e-38
-0.4405782223 -0.004198027309 -0.1496747434 2.211062324e-38
-0.1047784314 -0.2183716595 0.0645237416 2.211062324e-38
-0.4462952912 -0.06933087111 0.005501247477 2.211062324e-38
-0.2226232588 -0.2084102035 0.06749837101 2.211062324e-38
-0.4381655753 -0.060662698 -0.06406056881 2.211062324e-38
-0.2358305454 -0.1978508681 0.04084378853 2.211062324e-38
-0.4138739705 -0.1157785431 0.03435668722 2.211062324e-38
-0.3786329925 -0.1454714984 0.03700932115 2.211062324e-38
-0.4404921234 -0.02763053216 -0.07775206119 2.211062324e-38
-0.1213302463 -0.2055641413 0.02290128544 2.211062324e-38
-0.4270098209 -0.09104230255 -0.07742489874 2.211062324e-38
-0.2398582399 -0.1948206127 -0.007217925042 2.211062324e-38
-0.4436668754 -0.02517369017 -0.106877245 2.211062324e-38
-0.2041749954 -0.2146881968 0.06961952895 2.211062324e-38
-0.01227331348 -0.01848700829 0.06660205871 2.284242894e-38
0.1929707676 -0.06474975497 0.09556664526 2.284242894e-38
-0.1138852239 -0.01657410525 0.1318952739 2.284242894e-38
0.2420887798 -0.1038509011 0.1610781103 2.284242894e-38
-0.01915814169 -0.009261878207 0.09571151435 2.284242894e-38
0.05836328864 -0.0291507002 0.1014007777 2.284242894e-38
-0.3028227687 0.07752070576 0.1307755858 2.284242894e-38
0.298794508 -0.1246000975 0.169211328 2.284242894e-38
0.1012207791 -0.009898508899 0.178976953 2.284242894e-38
0.306907028 -0.1116848513 0.1301146299 2.284242894e-38
-0.2164761871 0.04442918673 0.1108283848 2.284242894e-38
0.2138927579 -0.04063229263 0.1565343738 2.284242894e-38
-0.05077338964 0.02952236123 0.1556987613 2.284242894e-38
0.1595311314 -0.02066031843 0.1297395527 2.284242894e-38
-0.2490217984 0.05849520862 0.1224668398 2.284242894e-38
0.2240710706 -0.04472537339 0.1567611098 2.284242894e-38
-0.009814245626 0.02243795618 0.1589315832 2.284242894e-38
0.1798429042 -0.03560997173 0.1310242862 2.284242894e-38
-0.2627809048 0.06807219237 0.1435107589 2.284242894e-38
0.2365110815 -0.05501949787 0.157322973 2.284242894e-38
0.02989709564 0.001572263078 0.1863672733 2.284242894e-38
0.2302945256 -0.05930667371 0.1308020651 2.284242894e-38
-0.2234152853 0.06116577238 0.1609586626 2.284242894e-38
0.1200127974 -0.003211502684 0.1524726599 2.284242894e-38
0.08840695024 -0.01463361457 0.09783687443 2.284242894e-38
0.1393600851 -0.01632206142 0.1401457489 2.284242894e-38
-0.207441926 0.04377477989 0.1654474735 2.284242894e-38
0.007173579186 0.03241466358 0.08152708411 2.284242894e-38
-0.302475661 0.09944207221 0.1239709035 2.284242894e-38
0.2755119801 -0.07783028483 0.1159537807 2.284242894e-38
-0.02803463303 0.02108042873 0.1741895527 2.284242894e-38
-0.1030533463 0.02032289654 0.09108624607 2.284242894e-38
-0.2788527608 0.1659111381 -0.1511222124 2.348204041e-38
-0.2521184683 0.1617418379 -0.1395759135 2.348204041e-38
-0.3832949996 0.1256947219 -0.1452035457 2.348204041e-38
-0.2818800509 0.1764930487 -0.1470641494 2.348204041e-38
-0.2332998961 0.1332027614 -0.1536126286 2.348204041e-38
-0.2757989168 0.1810642183 -0.1395893097 2.348204041e-38
-0.3094766736 0.1422401816 -0.1644116193 2.348204041e-38
-0.1968464851 0.08992145211 -0.164523676 2.348204041e-38
-0.0505498983 0.07113800198 -0.1359841973 2.348204041e-38
-0.1634759903 0.11734391 -0.1259533465 2.348204041e-38
-0.3605443537 0.08572365344 -0.1839186549 2.348204041e-38
-0.2945074439 0.09117928892 -0.1805558056 2.348204041e-38
-0.08518918604 0.07399451733 -0.1508158594 2.348204041e-38
-0.2342586666 0.1348659396 -0.1532665938 2.348204041e-38
-0.3505313396 0.0717253089 -0.191479221 2.348204041e-38
-0.2745149136 0.06508279592 -0.1857548058 2.348204041e-38
-0.07108895481 0.06311026961 -0.1505957097 2.348204041e-38
-0.2270081788 0.1252564341 -0.1551290751 2.348204041e-38
-0.3430281579 0.05535508692 -0.1972369701 2.348204041e-38
-0.3063722551 0.03493358567 -0.2030517161 2.348204041e-38
-0.06280820817 0.06246449426 -0.1454367638 2.348204041e-38
-0.2419288158 0.1200755835 -0.1584786177 2.348204041e-38
-0.364463985 -0.07622025162 -0.1993279159 2.348204041e-38
-0.3334030509 -0.03730995581 -0.2016452104 2.348204041e-38
-0.1683285385 0.08241510391 -0.1625708044 2.348204041e-38
-0.3090950251 0.1230832413 -0.1716003418 2.348204041e-38
-0.3375175297 0.004146850202 -0.1991331726 2.348204041e-38
-0.3379780948 0.01550559141 -0.1967652589 2.348204041e-38
-0.2482261062 0.08852344751 -0.171054095 2.348204041e-38
-0.2642641664 0.1156786755 -0.1679042131 2.348204041e-38
-0.3589370251 0.01957293227 -0.1946278214 2.348204041e-38
-0.3140398562 0.1157135144 -0.1783658564 2.348204041e-38
-0.2010075301 0.1096642613 0.0722387135 2.347880341e-38
0.05768733844 0.0003106798977 0.05183075368 2.347880341e-38
-0.1813905835 0.07404016703 0.0499544777 2.347880341e-38
0.2588843107 -0.1138118505 -0.1254318208 2.347880341e-38
-0.09770917147 0.07057481259 0.07151404768 2.347880341e-38
0.1022802517 -0.02471511997 0.08178271353 2.347880341e-38
-0.2957000434 0.1305645853 0.09424571693 2.347880341e-38
0.145624131 -0.02760538459 0.0469468683 2.347880341e-38
-0.2769889832 0.1412744075 0.08097885549 2.347880341e-38
-0.07663299888 0.04763517901 0.03407245502 2.347880341e-38
-0.3020215333 0.1444346756 0.01320436783 2.347880341e-38
0.2566440701 -0.08537086844 -0.1163619608 2.347880341e-38
-0.1893603504 0.111251235 0.01437385753 2.347880341e-38
0.04744283482 0.02140987292 0.04202572256 2.347880341e-38
-0.3114577234 0.1571885496 0.01709164307 2.347880341e-38
0.227896437 -0.06172768772 -0.07503046095 2.347880341e-38
-0.198625505 0.1262494475 0.02832739428 2.347880341e-38
0.02889267914 0.03195783868 0.039018929 2.347880341e-38
-0.3125169277 0.1657963544 0.04131281003 2.347880341e-38
0.1215933189 -0.002386854263 0.05525215343 2.347880341e-38
-0.258554101 0.1541509926 0.06121812761 2.347880341e-38
-0.0313414 0.04952389747 0.03303909302 2.347880341e-38
-0.2552032471 0.129907459 -0.01758400537 2.347880341e-38
0.2108976841 -0.05210029706 0.0712877214 2.347880341e-38
-0.1473162472 0.1187961474 0.05318216607 2.347880341e-38
0.004064802546 0.03455421329 0.07239279896 2.347880341e-38
-0.2781860828 0.1428171247 -0.01053582504 2.347880341e-38
-0.2967737615 0.1903886497 0.09565014392 2.347880341e-38
-0.1990312636 0.1155112982 0.08975137025 2.347880341e-38
-0.1712260097 0.1102852598 0.1007165685 2.347880341e-38
-0.3071748912 0.1781234294 0.09825083613 2.347880341e-38
-0.1619258672 0.1439836174 0.1030981317 2.347880341e-38
0.05154532939 0.05566232651 0.1437379867 2.347520768e-38
-0.3415127695 0.1234560013 0.09887614101 2.347520768e-38
-0.03719081357 0.1037350446 0.1442375183 2.347520768e-38
-0.169462502 0.1545584351 0.116326116 2.347520768e-38
0.2078375369 -0.002375645796 0.124593921 2.347520768e-38
-0.2682802379 0.1535504907 0.1035920978 2.347520768e-38
-0.1408506036 0.1364181936 0.1294128448 2.347520768e-38
-0.2587018907 0.1428706348 0.1072643474 2.347520768e-38
0.002404245548 0.07944662124 0.1472073048 2.347520768e-38
-0.382828027 -0.1074020416 0.01768632233 2.347520768e-38
-0.080703713 0.09969849885 0.1444874555 2.347520768e-38
-0.2200368643 0.1131844744 0.1217004359 2.347520768e-38
0.134421438 0.03034924157 0.1586779803 2.347520768e-38
-0.3652635813 -0.01323738322 0.10645926 2.347520768e-38
-0.08949341625 0.1017037183 0.143839106 2.347520768e-38
-0.2338276505 0.1121456027 0.1192864105 2.347520768e-38
0.05767737702 0.04976296797 0.1573833227 2.347520768e-38
-0.3721460402 -0.08960556239 0.09251260012 2.347520768e-38
-0.134725064 0.1162060127 0.1340903193 2.347520768e-38
-0.2588434815 0.1107146591 0.1140742898 2.347520768e-38
-0.02920309268 0.08013527095 0.1514207125 2.347520768e-38
-0.383310318 -0.1115494743 0.07030900568 2.347520768e-38
-0.053154964 0.08556495607 0.1556740254 2.347520768e-38
-0.178698644 0.145463109 0.1233960092 2.347520768e-38
-0.04143169895 0.04951094091 0.1361504048 2.347520768e-38
-0.3270115256 0.06625539064 0.1120024994 2.347520768e-38
-0.1773810238 0.1066127047 0.1270601153 2.347520768e-38
-0.29257828 0.09088625759 0.1136613935 2.347520768e-38
-0.1973477006 0.1159494147 0.1199754328 2.347520768e-38
-0.3890125751 -0.04674023762 0.0807608217 2.347520768e-38
-0.139465332 0.059720736 0.1309897602 2.347520768e-38
-0.2894393802 0.01632759161 0.1190409958 2.347520768e-38
