# .PCD v0.7 - Point Cloud Data file format
VERSION 0.7
FIELDS x y z rgb
SIZE 4 4 4 4
TYPE F F F F
COUNT 1 1 1 1
WIDTH 833
HEIGHT 1
VIEWPOINT 0 0 0 1 0 0 0
POINTS 833
DATA ascii
-0.03677873686 -0.0935537219 -0.1329150349 1.020306431e-38
0.2727404833 -0.1451435685 -0.04897318408 1.020306431e-38
0.02149638534 -0.08379501849 -0.04851593822 1.020306431e-38
0.2844307423 -0.1454999 -0.07854583859 1.020306431e-38
0.1207733601 -0.141245544 -0.06776355207 1.020306431e-38
0.1704474092 -0.1056880876 0.03368345648 1.020306431e-38
-0.09354067594 -0.1027114168 -0.03818874434 1.020306431e-38
0.3026565909 -0.1476913393 -0.1354403794 1.020306431e-38
0.03599730134 -0.1176128387 -0.1111217067 1.020306431e-38
0.1398977786 -0.09692332149 0.03540746123 1.020306431e-38
-0.09943725914 -0.1091586575 -0.01089624502 1.020306431e-38
0.2854852378 -0.1498843729 -0.1388058215 1.020306431e-38
-0.06103348359 -0.08777222782 -0.09630189091 1.020306431e-38
0.2881317437 -0.1302577406 -0.02129967883 1.020306431e-38
0.04963658378 -0.08042953163 -0.02239709347 1.020306431e-38
0.2915068865 -0.1381561458 -0.05767306313 1.020306431e-38
0.1593734473 -0.1287365556 -0.01421434805 1.020306431e-38
0.2874642611 -0.128595233 -0.01804889366 1.020306431e-38
0.06040908769 -0.08224675804 -0.005209244322 1.020306431e-38
0.2893133759 -0.1483206451 -0.1066653579 1.020306431e-38
0.1492150277 -0.1298335493 -0.02743411623 1.020306431e-38
0.3671147227 -0.07211405784 -0.1650562584 9.472685133e-39
0.4187904298 -0.2699272931 -0.1787937433 9.472685133e-39
0.3689702749 -0.1830329895 -0.1855854094 9.472685133e-39
0.306430608 -0.1805642396 -0.1962103993 9.472685133e-39
0.3561982512 -0.1682520807 -0.1912600249 9.472685133e-39
0.4041419327 -0.2105188072 -0.1822753698 9.472685133e-39
0.401168853 -0.1002714932 -0.1598552763 9.472685133e-39
0.3550208509 -0.3250546157 -0.2028051168 9.472685133e-39
0.364931196 -0.1849889457 -0.1916972101 9.472685133e-39
0.4209873378 -0.2018760443 -0.1754401773 9.472685133e-39
0.3801095784 -0.08236183226 -0.1614800543 9.472685133e-39
0.3640765548 -0.3162462711 -0.1990903169 9.472685133e-39
0.4006087184 -0.1245350987 -0.1757597625 9.472685133e-39
0.3946768343 -0.286724031 -0.1872829199 9.472685133e-39
0.401365906 -0.1614087671 -0.1748372614 9.472685133e-39
0.3371707499 -0.2357590497 -0.2025062144 9.472685133e-39
0.3688132465 -0.1771850586 -0.1886103153 9.472685133e-39
0.4227708876 -0.2234036028 -0.1755992472 9.472685133e-39
0.3702709973 -0.08562405407 -0.1644919962 9.472685133e-39
0.3728898168 -0.2778962255 -0.1988630891 9.472685133e-39
0.3654550612 -0.1916064173 -0.190969348 9.472685133e-39
0.4248012304 -0.1960675865 -0.1734262854 9.472685133e-39
0.3447380364 -0.07656823844 -0.165106982 9.472685133e-39
0.3725497127 -0.2986503839 -0.1962073892 9.472685133e-39
0.4166020155 -0.1009580716 -0.1627282202 9.472685133e-39
0.4055630267 -0.2713961303 -0.1839704961 9.472685133e-39
0.3597114682 -0.131116271 -0.178210631 9.472685133e-39
0.3664374948 -0.2013665438 -0.1913391799 9.472685133e-39
0.3972283006 -0.1159265861 -0.1669165194 9.472685133e-39
0.4280796349 -0.253446579 -0.1735769957 9.472685133e-39
0.3389156759 -0.1181270778 -0.1773646027 9.472685133e-39
0.3885565996 -0.2080032825 -0.1881256253 9.472685133e-39
0.3676273227 -0.2087533921 0.07898800075 8.742304551e-39
0.1838049442 -0.1784359515 -0.04521015659 8.742304551e-39
0.08209830523 -0.164958477 -0.03401565552 8.742304551e-39
0.04642257467 -0.1793930531 -0.05539620295 8.742304551e-39
0.2746653855 -0.1872214079 -0.05056938156 8.742304551e-39
0.1001510993 -0.197567001 -0.1028076261 8.742304551e-39
0.1827571094 -0.1730163693 -0.001355196466 8.742304551e-39
-0.1377648115 -0.15334934 -0.08588833362 8.742304551e-39
0.2637544572 -0.1880030036 -0.06436868757 8.742304551e-39
0.06776033342 -0.1958226413 -0.1040600166 8.742304551e-39
0.1869804114 -0.1738568097 0.003109270008 8.742304551e-39
-0.1948341131 -0.1301093847 -0.08875952661 8.742304551e-39
0.3282310367 -0.1952034384 0.005115969107 8.742304551e-39
0.2346780151 -0.1837281436 -0.0581631884 8.742304551e-39
-0.04546296597 -0.1739650667 -0.05508581549 8.742304551e-39
0.001902957913 -0.1841586977 -0.06768210232 8.742304551e-39
0.2920354903 -0.1878006011 -0.05285796896 8.742304551e-39
0.1076313406 -0.195885092 -0.09650290757 8.742304551e-39
0.1263358444 -0.1695694178 -0.03234503418 8.742304551e-39
-0.1452714503 -0.1499351412 -0.08335220814 8.742304551e-39
0.2218998224 -0.1887728423 -0.08476792276 8.742304551e-39
0.004813469946 -0.1913462281 -0.1041619107 8.742304551e-39
0.1811446846 -0.1743379384 0.005418461747 8.742304551e-39
-0.2209243476 -0.1185917258 -0.09120642394 8.742304551e-39
0.357522279 -0.1954318732 0.02031963132 8.742304551e-39
0.2550912797 -0.182828635 -0.04994411394 8.742304551e-39
-0.02527176403 -0.174867332 -0.05658359453 8.742304551e-39
0.01845628582 -0.183746621 -0.06374418736 8.742304551e-39
0.352235198 -0.1938671619 0.003632752923 8.742304551e-39
0.1694510132 -0.1872211993 -0.07154475898 8.742304551e-39
0.06944607943 -0.1662957817 -0.03716194257 8.742304551e-39
-0.1312985271 -0.1572612971 -0.08332372457 8.742304551e-39
-0.3656795621 -0.1837722212 -0.0650652945 8.012284103e-39
-0.1842837781 -0.1404589564 -0.2410905361 8.012284103e-39
-0.2855498791 -0.1558078676 -0.2146061361 8.012284103e-39
-0.1932751387 -0.1736124754 -0.2136529088 8.012284103e-39
0.04284630716 -0.1532484442 -0.2270085067 8.012284103e-39
0.005898034666 -0.2101687789 -0.07871732116 8.012284103e-39
-0.3985416889 -0.1801428497 0.06822362542 8.012284103e-39
-0.2457315624 -0.201137051 -0.02896629274 8.012284103e-39
0.0321020335 -0.1570612341 -0.224629432 8.012284103e-39
0.02627759427 -0.2067990303 -0.08346698433 8.012284103e-39
-0.4018757939 -0.1788315624 0.07655060291 8.012284103e-39
-0.254561305 -0.1967375576 -0.01812701114 8.012284103e-39
-0.1949402839 -0.1772690862 -0.2207841426 8.012284103e-39
-0.1500789076 -0.2038481832 -0.1196089312 8.012284103e-39
-0.392118305 -0.1749652177 -0.06556527317 8.012284103e-39
-0.2144471854 -0.176365152 -0.2157025933 8.012284103e-39
-0.01988694072 -0.1663277298 -0.221305415 8.012284103e-39
-0.02777938172 -0.2034673393 -0.1080716997 8.012284103e-39
-0.4044546485 -0.1757404506 0.05714024231 8.012284103e-39
-0.278976351 -0.1995970905 -0.09797005355 8.012284103e-39
0.01311678439 -0.1641019881 -0.2202455699 8.012284103e-39
0.08001936972 -0.2040996403 -0.07767121494 8.012284103e-39
-0.3888992965 -0.1816934049 0.07431080937 8.012284103e-39
-0.2614502609 -0.1988795698 -0.06896136701 8.012284103e-39
-0.2540089488 -0.1825563461 -0.206655398 8.012284103e-39
-0.1385406405 -0.1975304931 -0.1551325768 8.012284103e-39
-0.3692581952 -0.1688870639 -0.12124791 8.012284103e-39
-0.2210243195 -0.1729177833 -0.2148502618 8.012284103e-39
-0.2711833715 -0.1779493392 -0.2071759701 8.012284103e-39
-0.06225128099 -0.156643182 -0.2316310555 8.012284103e-39
-0.3687449992 -0.1555874497 -0.1406036764 8.012284103e-39
-0.1874999106 -0.1743934602 -0.2037895918 8.012284103e-39
-0.411416024 -0.2403393537 -0.1019620448 7.281903522e-39
-0.3793068826 -0.2722004354 -0.211894989 7.281903522e-39
-0.3987633884 -0.2492949814 -0.1753679961 7.281903522e-39
-0.3780499399 -0.2038998604 -0.2051657289 7.281903522e-39
-0.4051527083 -0.2412438244 -0.1640780568 7.281903522e-39
-0.3903504908 -0.2452403456 -0.19727768 7.281903522e-39
-0.4126020968 -0.2562057078 0.134267509 7.281903522e-39
-0.354826659 0.02021744289 -0.1994324476 7.281903522e-39
-0.3969360292 -0.2477922291 -0.1840852052 7.281903522e-39
-0.405413419 -0.241876483 -0.1633599401 7.281903522e-39
-0.4121108949 -0.2556763887 0.1186473221 7.281903522e-39
-0.35190323 0.01815698482 -0.1986121237 7.281903522e-39
-0.4113296866 -0.2377676815 -0.1274190694 7.281903522e-39
-0.3657076061 -0.1397173107 -0.1853887737 7.281903522e-39
-0.4214130044 -0.2434004545 -0.03454552218 7.281903522e-39
-0.3741092086 -0.1247761622 -0.2021283358 7.281903522e-39
-0.396129787 -0.247950688 -0.1815446913 7.281903522e-39
-0.3973660171 -0.2481060773 -0.1836191416 7.281903522e-39
-0.4146690071 -0.2542434335 0.04448543489 7.281903522e-39
-0.3638618886 -0.07036554068 -0.1975955814 7.281903522e-39
-0.3955539763 -0.2434871644 -0.1864752322 7.281903522e-39
-0.4206957817 -0.2373286039 -0.09329602122 7.281903522e-39
-0.413988024 -0.2556184828 0.1380789429 7.281903522e-39
-0.3707168102 -0.03922514245 -0.1939679533 7.281903522e-39
-0.4080128968 -0.2419329882 -0.1343681365 7.281903522e-39
-0.3672310114 -0.1550043225 -0.1931278557 7.281903522e-39
-0.4140943885 -0.2396879643 -0.1107952297 7.281903522e-39
-0.3748619854 -0.1372345537 -0.2038180232 7.281903522e-39
-0.3997527659 -0.2513836026 -0.1522714794 7.281903522e-39
-0.4033495784 -0.2634916902 -0.1368029714 7.281903522e-39
-0.4163660407 -0.2398329526 -0.08605924249 7.281903522e-39
-0.3934443295 -0.2436694801 -0.1871988475 7.281903522e-39
-0.3517249227 0.2191386074 0.08148284256 6.55152294e-39
-0.3539781868 0.1457762569 -0.0687636435 6.55152294e-39
-0.3586201668 0.1832024455 -0.02504788525 6.55152294e-39
-0.3576968014 0.2207214832 0.02988877892 6.55152294e-39
-0.348349601 0.200390026 0.1103462353 6.55152294e-39
-0.3483179808 0.179595083 -0.1451666057 6.55152294e-39
-0.3471583724 0.06586363167 0.115446724 6.55152294e-39
-0.3574741781 0.1895114183 -0.06838531792 6.55152294e-39
-0.3464451432 0.1699072868 0.1301811785 6.55152294e-39
-0.3458768129 0.1848608404 -0.1500204057 6.55152294e-39
-0.3461278081 0.09212287515 0.1245517284 6.55152294e-39
-0.3554091752 0.1859458536 -0.07816700637 6.55152294e-39
-0.3513190746 0.2172015011 0.0785690397 6.55152294e-39
-0.3519741297 0.1333776116 -0.09593261778 6.55152294e-39
-0.3553577363 0.1719376296 0.01541406009 6.55152294e-39
-0.3621250987 0.1973151565 0.007983075455 6.55152294e-39
-0.3468363881 0.1781497002 0.126979962 6.55152294e-39
-0.3476971984 0.1619641483 -0.1397954524 6.55152294e-39
-0.3472216427 0.1346751004 0.05780661851 6.55152294e-39
-0.358408004 0.1880154759 -0.0518319048 6.55152294e-39
-0.3442778289 0.1409079134 0.1431580335 6.55152294e-39
-0.3463044167 0.1898482591 -0.146813944 6.55152294e-39
-0.3485872149 0.1994473189 0.08438698202 6.55152294e-39
-0.3545059264 0.1837624311 -0.08124809712 6.55152294e-39
-0.3500196934 0.2105625272 0.09528531879 6.55152294e-39
-0.3518997133 0.1323003173 -0.09151499718 6.55152294e-39
-0.3553114235 0.1744299531 0.01093066949 6.55152294e-39
-0.3592598438 0.1913354695 0.01489091478 6.55152294e-39
-0.3521541953 0.209474951 0.1179528311 6.55152294e-39
-0.3517592847 0.1418645531 -0.09311834723 6.55152294e-39
-0.3564678729 0.1965849251 0.02409071662 6.55152294e-39
-0.3658025265 0.2012430429 -0.01339504123 6.55152294e-39
-0.05466196314 -0.2123130858 -0.1420443654 5.820783626e-39
-0.172858268 -0.1989554912 -0.1440217942 5.820783626e-39
-0.3006000221 -0.2303981781 -0.1414353848 5.820783626e-39
-0.3184493482 -0.2261906862 -0.1534083486 5.820783626e-39
0.2781817019 -0.1999668479 -0.1239486858 5.820783626e-39
0.05045986548 -0.2143819332 -0.1559848189 5.820783626e-39
-0.00864605885 -0.1990794241 -0.1261257976 5.820783626e-39
-0.1730999053 -0.2016727328 -0.1444580108 5.820783626e-39
0.27462852 -0.2079531401 -0.1224886328 5.820783626e-39
0.1158393919 -0.2178324014 -0.141904667 5.820783626e-39
0.03920918331 -0.2005040348 -0.1345726103 5.820783626e-39
-0.1562916189 -0.2011922747 -0.1448129565 5.820783626e-39
0.02803898416 -0.2141600251 -0.1411262155 5.820783626e-39
-0.0801891461 -0.2076884806 -0.1475799233 5.820783626e-39
-0.1419462711 -0.2125680298 -0.1181841344 5.820783626e-39
-0.2433673888 -0.2137215883 -0.1491621584 5.820783626e-39
0.2098439634 -0.2114739716 -0.1426525563 5.820783626e-39
0.07211653888 -0.2159883231 -0.1495299786 5.820783626e-39
-0.03372458369 -0.205308646 -0.1319294572 5.820783626e-39
-0.1860888302 -0.1991647333 -0.1446299553 5.820783626e-39
0.2681745291 -0.2087041885 -0.1242006794 5.820783626e-39
0.200236544 -0.2208068967 -0.128294304 5.820783626e-39
0.06465759128 -0.2008372992 -0.139974162 5.820783626e-39
-0.07867125422 -0.2039872259 -0.1392276734 5.820783626e-39
0.006852483377 -0.2155540586 -0.1405991018 5.820783626e-39
-0.07648617774 -0.2062372714 -0.1438449621 5.820783626e-39
-0.2264335006 -0.2275706381 -0.1428227574 5.820783626e-39
-0.2609486878 -0.2198543847 -0.1512377709 5.820783626e-39
-0.03153879941 -0.2094627172 -0.1382441074 5.820783626e-39
-0.0498602055 -0.208268255 -0.1420140713 5.820783626e-39
-0.2153517753 -0.2247853279 -0.1451526284 5.820783626e-39
-0.2855296731 -0.2296799272 -0.1509948075 5.820783626e-39
-0.3014467657 -0.2205710411 0.06840179861 5.090401643e-39
-0.2413594872 -0.2250063121 0.05885019526 5.090401643e-39
-0.1863245517 -0.2175536156 0.08264102042 5.090401643e-39
-0.2649966776 -0.2522670627 -0.01391674671 5.090401643e-39
-0.3522644639 -0.2223038077 0.03707811236 5.090401643e-39
-0.3510447741 -0.2174219787 -0.1364521533 5.090401643e-39
-0.3094472289 -0.1986936033 0.209855184 5.090401643e-39
-0.187268123 -0.222680077 0.1624933034 5.090401643e-39
-0.3549829721 -0.2268074751 0.013337248 5.090401643e-39
-0.3609561026 -0.2188319713 -0.1574201286 5.090401643e-39
-0.3229481578 -0.211640656 0.1905318201 5.090401643e-39
-0.1896448731 -0.2225506604 0.1339605153 5.090401643e-39
-0.3545725942 -0.2279092818 0.124882631 5.090401643e-39
-0.2907269001 -0.2428550571 0.003155628918 5.090401643e-39
-0.2674886882 -0.2244149297 0.1720234901 5.090401643e-39
-0.2335629016 -0.2245491594 0.06495975703 5.090401643e-39
-0.368643105 -0.2201391608 0.06256248802 5.090401643e-39
-0.3414983153 -0.2219744623 -0.1184588224 5.090401643e-39
-0.3011569977 -0.2258419991 0.1887142062 5.090401643e-39
-0.2247932553 -0.2222545147 0.09936433285 5.090401643e-39
-0.3602633178 -0.2366306186 -0.0219542291 5.090401643e-39
-0.368991375 -0.2253204137 -0.1666889936 5.090401643e-39
-0.3524349332 -0.2216421664 0.1610645801 5.090401643e-39
-0.2614327967 -0.2227639258 0.1069070175 5.090401643e-39
-0.3436584175 -0.2248472124 0.1022162661 5.090401643e-39
-0.2908514738 -0.2419824004 0.005982429255 5.090401643e-39
-0.2690617144 -0.2203838229 0.08370309323 5.090401643e-39
-0.2732922137 -0.2300973088 0.0489936769 5.090401643e-39
-0.3287947774 -0.2263618261 0.05261305347 5.090401643e-39
-0.271717906 -0.2428219914 0.004536295775 5.090401643e-39
-0.2764171362 -0.2197970897 0.07903427631 5.090401643e-39
-0.2508038282 -0.2358650118 0.02581530437 5.090401643e-39
0.3523730934 -0.1914254129 0.1603329331 4.359662329e-39
0.390850842 -0.2053993791 -0.007845099084 4.359662329e-39
0.3201064467 -0.2092432231 0.08524692804 4.359662329e-39
0.3167943358 -0.2507475317 0.1007188335 4.359662329e-39
0.3784916997 -0.1493258774 0.03472112864 4.359662329e-39
0.3843496442 -0.1955734491 -0.006320712622 4.359662329e-39
0.338894695 -0.2598746419 0.1700171828 4.359662329e-39
0.3029164076 -0.2286369652 0.07456444949 4.359662329e-39
0.3751376569 -0.1529760659 0.04342796654 4.359662329e-39
0.3924205303 -0.1993469745 -0.02708599344 4.359662329e-39
0.3352114856 -0.2698672116 0.1734103262 4.359662329e-39
0.3167244792 -0.2251406461 0.07124068588 4.359662329e-39
0.3635873795 -0.1728288382 0.1497514546 4.359662329e-39
0.3550694585 -0.2025938332 0.0556387417 4.359662329e-39
0.3373861313 -0.207884118 0.1185277998 4.359662329e-39
0.2995118797 -0.2443138957 0.09112721682 4.359662329e-39
0.3493739367 -0.1800326109 0.09196611494 4.359662329e-39
0.3792541623 -0.1968144774 0.007700518239 4.359662329e-39
0.3531412482 -0.2187961042 0.1634787917 4.359662329e-39
0.3160200417 -0.2303715199 0.07293442637 4.359662329e-39
0.3689851165 -0.1749242097 0.06946297735 4.359662329e-39
0.4026068151 -0.202428326 -0.04230983555 4.359662329e-39
0.3232532144 -0.2806959152 0.1752532572 4.359662329e-39
0.3550037146 -0.2183694094 0.04095294327 4.359662329e-39
0.3603016436 -0.1936639696 0.1582524925 4.359662329e-39
0.3645536304 -0.2051612139 0.04766607657 4.359662329e-39
0.3285472989 -0.2035251558 0.1179358363 4.359662329e-39
0.3215619922 -0.2457353622 0.08042597026 4.359662329e-39
0.3434556723 -0.2224112004 0.1660138518 4.359662329e-39
0.3794465959 -0.2052425444 0.02035753429 4.359662329e-39
0.3296021819 -0.2022310048 0.1194357798 4.359662329e-39
0.3798467815 -0.2242807001 0.03228022903 4.359662329e-39
-0.3440033197 0.1418170482 -0.1957587749 3.628921614e-39
-0.3678762019 0.3161570132 -0.1217452511 3.628921614e-39
-0.3456941247 0.11569608 -0.1966440529 3.628921614e-39
-0.3525384367 0.2359083593 -0.1909139454 3.628921614e-39
-0.3619775772 0.3073778749 -0.1436373442 3.628921614e-39
-0.3460564017 0.2995835543 0.1076443642 3.628921614e-39
-0.3616676927 -0.05579441786 -0.1850395948 3.628921614e-39
-0.3497621715 0.3252286315 -0.0298958607 3.628921614e-39
-0.3613145351 0.3145031631 -0.1227612346 3.628921614e-39
-0.3485005498 0.2789032161 0.1492467374 3.628921614e-39
-0.3586158752 -0.05166333914 -0.1847666204 3.628921614e-39
-0.3517873287 0.2975980639 0.03265743703 3.628921614e-39
-0.3547539711 0.2050781101 -0.1965409815 3.628921614e-39
-0.3463138044 0.3543114066 -0.04926065728 3.628921614e-39
-0.3497620225 0.1063939929 -0.1930028498 3.628921614e-39
-0.3574605286 0.3207851946 -0.1523631811 3.628921614e-39
-0.3623690009 0.3049380779 -0.1456161141 3.628921614e-39
-0.347622931 0.2986908257 0.1103866473 3.628921614e-39
-0.3515560925 0.02035500482 -0.1867245585 3.628921614e-39
-0.3560141623 0.3099144399 -0.03110289201 3.628921614e-39
-0.3584489226 0.3111899197 -0.0905399248 3.628921614e-39
-0.3491145074 0.2674120367 0.1610781252 3.628921614e-39
-0.3420737088 -0.05867351219 -0.1859955341 3.628921614e-39
-0.3551579416 0.2824470103 0.04283520579 3.628921614e-39
-0.3484544456 0.1906525493 -0.1942583174 3.628921614e-39
-0.3483463824 0.3480711281 -0.0479205437 3.628921614e-39
-0.330344677 0.1082512885 -0.1945676506 3.628921614e-39
-0.3548856676 0.3004602492 -0.1611848474 3.628921614e-39
-0.3495684564 0.186829254 -0.1933147311 3.628921614e-39
-0.358966887 0.3217933774 -0.06190411374 3.628921614e-39
-0.3185375631 0.0788302049 -0.1970534921 3.628921614e-39
-0.3609357476 0.3051609993 -0.1460775137 3.628921614e-39
-0.06540283561 -0.009363671765 -0.1729822159 2.898180898e-39
-0.07643440366 0.04650569335 -0.1663322002 2.898180898e-39
-0.1367904544 -0.007477833424 -0.1639747173 2.898180898e-39
-0.2031878829 0.1014785767 -0.1490210146 2.898180898e-39
-0.1423922181 0.052492477 -0.1536054611 2.898180898e-39
0.0008797941264 0.05424599722 -0.1746831238 2.898180898e-39
0.0813729614 0.01876736991 -0.1826231033 2.898180898e-39
-0.07574562728 0.07502704859 -0.1634837836 2.898180898e-39
-0.1607852578 0.07098465413 -0.1532396078 2.898180898e-39
0.02698942646 0.04603399709 -0.1741262376 2.898180898e-39
0.09515795112 0.01223819703 -0.1821657717 2.898180898e-39
-0.06989854574 0.06984198838 -0.1652279198 2.898180898e-39
-0.07119885832 0.01729239523 -0.1675444841 2.898180898e-39
-0.08407321572 0.06899613142 -0.1627780199 2.898180898e-39
-0.007595947944 0.02653070539 -0.1771586835 2.898180898e-39
-0.1564930975 0.09626410902 -0.1538012028 2.898180898e-39
-0.1182513908 0.04195724055 -0.1533869505 2.898180898e-39
0.01056895871 0.04920233041 -0.1725589931 2.898180898e-39
0.07669518143 0.01268682349 -0.1793387085 2.898180898e-39
-0.09362495691 0.06525949389 -0.1602456272 2.898180898e-39
-0.1805554628 0.09158678353 -0.1510027498 2.898180898e-39
0.04126607254 0.03937849775 -0.1753570139 2.898180898e-39
0.09064554423 0.005147512071 -0.1825942844 2.898180898e-39
-0.07536098361 0.06756034493 -0.1663106829 2.898180898e-39
-0.08702029288 0.009753692895 -0.1650325209 2.898180898e-39
-0.08805782348 0.06702857465 -0.1624687612 2.898180898e-39
-0.06826671213 0.008306293748 -0.1708530784 2.898180898e-39
-0.1919516772 0.09695774317 -0.1498180479 2.898180898e-39
-0.0319715403 -0.009844699875 -0.1763118804 2.898180898e-39
-0.06882705539 0.03567344323 -0.168115586 2.898180898e-39
-0.1078219265 -0.01496518031 -0.1693932265 2.898180898e-39
-0.2145673484 0.08154346049 -0.148478061 2.898180898e-39
-0.316883564 -0.07318180054 -0.05425618589 2.167082852e-39
-0.3510421813 -0.03762065619 0.1712821573 2.167082852e-39
-0.3612823486 0.09487745911 0.1757658571 2.167082852e-39
-0.3553037345 0.1515197307 0.01130058896 2.167082852e-39
-0.3393240273 0.1191580817 -0.09457151592 2.167082852e-39
-0.3637130558 0.2073917687 0.1185272932 2.167082852e-39
-0.3287382424 -0.05403537676 -0.005229947157 2.167082852e-39
-0.3401655555 -0.1410007626 0.1773314774 2.167082852e-39
-0.3434662819 0.118650198 -0.08713492751 2.167082852e-39
-0.3583103716 0.1479954273 0.08885256946 2.167082852e-39
-0.3274377286 -0.05611706153 -0.01761062071 2.167082852e-39
-0.3395629823 -0.1446115971 0.1772759557 2.167082852e-39
-0.2943699062 -0.1284333915 -0.1209977046 2.167082852e-39
-0.3492889702 -0.003641287098 0.1700535417 2.167082852e-39
-0.3517173231 0.0721976459 0.06752967834 2.167082852e-39
-0.359957248 0.1177480146 0.18109411 2.167082852e-39
-0.3325091898 0.04628598318 -0.1021510884 2.167082852e-39
-0.3619333506 0.1343960464 0.1395167261 2.167082852e-39
-0.3342155516 -0.02431409061 0.00133132108 2.167082852e-39
-0.3532733917 0.0073248595 0.1747767776 2.167082852e-39
-0.3485048711 0.1160305291 -0.06988284737 2.167082852e-39
-0.3531731665 0.1325438023 0.07662174106 2.167082852e-39
-0.3292164505 -0.03237385675 -0.04564246908 2.167082852e-39
-0.3442946672 -0.1106343418 0.1755394638 2.167082852e-39
-0.2937739491 -0.1203665957 -0.1103166789 2.167082852e-39
-0.3511675596 -0.01446057111 0.1703739762 2.167082852e-39
-0.3521109521 0.0935627073 0.06586935371 2.167082852e-39
-0.3623547256 0.1690653414 0.1134961545 2.167082852e-39
-0.3024916649 -0.122730419 -0.1309382468 2.167082852e-39
-0.3581415713 0.03491827101 0.1721604019 2.167082852e-39
-0.3525291085 0.1189442724 0.1153968647 2.167082852e-39
-0.3598480821 0.1860518605 0.1214077994 2.167082852e-39
0.005402080249 -0.2048034519 0.06384028494 1.435982003e-39
0.1744824499 -0.200968504 0.0926104784 1.435982003e-39
0.237699911 -0.2059944719 0.1642063707 1.435982003e-39
-0.09820228815 -0.2262260616 -0.02362341806 1.435982003e-39
0.2123240978 -0.2079378963 0.1596949995 1.435982003e-39
0.2454854846 -0.2426994145 -0.02967042662 1.435982003e-39
-0.05642313138 -0.2114750445 0.1543765068 1.435982003e-39
0.2642867267 -0.2319681495 0.03455641866 1.435982003e-39
0.05505992472 -0.2040628046 0.155095771 1.435982003e-39
0.2543437481 -0.2447934896 -0.02951875515 1.435982003e-39
-0.08233691007 -0.2126579583 0.155409798 1.435982003e-39
0.2519981265 -0.2335614115 0.02029527351 1.435982003e-39
0.05307516828 -0.2006248683 0.08958957344 1.435982003e-39
0.2019928098 -0.21930933 0.01451847982 1.435982003e-39
0.1957587451 -0.2073893994 0.1821025014 1.435982003e-39
0.131204024 -0.2103152722 0.008797131479 1.435982003e-39
0.05423351377 -0.2019411474 0.144964695 1.435982003e-39
0.2422289252 -0.2389194816 -0.01423631143 1.435982003e-39
-0.05508195981 -0.2142743021 0.1600515097 1.435982003e-39
0.2067009062 -0.2186857909 0.0428795442 1.435982003e-39
-0.03103047237 -0.2122917473 0.1529038996 1.435982003e-39
0.2466084808 -0.2453295887 -0.03803456575 1.435982003e-39
-0.09129429609 -0.2154993862 0.1537068784 1.435982003e-39
0.2098395973 -0.2308667302 -0.006236263551 1.435982003e-39
0.01932151802 -0.2047317028 0.05636740103 1.435982003e-39
0.193811506 -0.2144830823 0.05070672184 1.435982003e-39
0.2227432132 -0.2146148384 0.1821979135 1.435982003e-39
0.01985553466 -0.2123632133 0.006602399983 1.435982003e-39
-0.0121754352 -0.2082753032 0.04321331531 1.435982003e-39
0.2250132263 -0.2122256905 0.09711904824 1.435982003e-39
0.1879828572 -0.1991339922 0.147163868 1.435982003e-39
0.05787641928 -0.211948812 0.002363897162 1.435982003e-39
-0.3865684867 -0.1058412418 0.08807773143 7.045238224e-40
-0.373922646 0.1499438286 0.171709165 7.045238224e-40
-0.3959798515 0.0530631952 0.1716761738 7.045238224e-40
-0.4021774828 0.02308978699 0.170467779 7.045238224e-40
-0.3873178065 -0.1473663151 -0.007470781915 7.045238224e-40
-0.3355355859 0.2375110388 0.1689928621 7.045238224e-40
-0.3785125613 -0.05424752086 0.0588163361 7.045238224e-40
-0.3228154182 0.1403564066 0.1799961478 7.045238224e-40
-0.3830015957 -0.141876027 -0.05248260498 7.045238224e-40
-0.3353066444 0.2618163526 0.1644958854 7.045238224e-40
-0.375915736 -0.07644376159 0.02914964594 7.045238224e-40
-0.3246927857 0.1536432803 0.1775260419 7.045238224e-40
-0.3879431188 -0.1441915035 0.07547865063 7.045238224e-40
-0.3908956349 0.1509674788 0.1648926586 7.045238224e-40
-0.407174021 -0.01188541111 0.1701329648 7.045238224e-40
-0.3697451055 0.08810156584 0.1824028343 7.045238224e-40
-0.3847792745 -0.1426786184 -0.04461003467 7.045238224e-40
-0.3688133657 0.234852761 0.1622962505 7.045238224e-40
-0.3794534206 -0.04455571249 0.07041957974 7.045238224e-40
-0.3525543213 0.1294345707 0.1786657423 7.045238224e-40
-0.3804385364 -0.1394980699 -0.07820474356 7.045238224e-40
-0.3397319913 0.2743947804 0.1630110294 7.045238224e-40
-0.3763875663 -0.09842541814 0.01227710582 7.045238224e-40
-0.342531234 0.1545583457 0.1757886261 7.045238224e-40
-0.3850557506 -0.1154000908 0.07214639336 7.045238224e-40
-0.374294728 0.1625779569 0.1693503708 7.045238224e-40
-0.4092154801 0.02959941886 0.1634962708 7.045238224e-40
-0.3810969293 0.09727268666 0.1758281142 7.045238224e-40
-0.3837560713 -0.1408462077 0.01883793436 7.045238224e-40
-0.3976893723 0.148647055 0.1634243876 7.045238224e-40
-0.4068539143 0.005930412095 0.1598657817 7.045238224e-40
-0.3784728944 0.1019743383 0.1770524979 7.045238224e-40
-0.2841650844 0.2204803228 0.06564930826 6.490113838e-41
-0.2238266617 0.2190690935 0.1045666784 6.490113838e-41
-0.1502835751 0.1505361646 0.1360096037 6.490113838e-41
-0.259028405 0.2326620519 0.0893972218 6.490113838e-41
-0.07415959984 0.005755934399 0.1709631681 6.490113838e-41
-0.2428645343 0.1648504436 0.1070475355 6.490113838e-41
-0.133316502 0.05175151676 0.1695027202 6.490113838e-41
-0.2929744124 0.2344255894 0.01476680581 6.490113838e-41
-0.05126792938 0.001923610922 0.1699539274 6.490113838e-41
-0.235768795 0.1244644001 0.1144382954 6.490113838e-41
-0.1205846071 0.04267914221 0.1716064066 6.490113838e-41
-0.2948747873 0.2329529822 0.01925463602 6.490113838e-41
-0.2083977163 0.1079913527 0.1288168728 6.490113838e-41
-0.2418031096 0.2298877686 0.1015717015 6.490113838e-41
-0.156920746 0.09689732641 0.1573600024 6.490113838e-41
-0.27303195 0.2294426262 0.06883585453 6.490113838e-41
-0.1099787727 0.003475786187 0.1720635742 6.490113838e-41
-0.2422075421 0.1655038744 0.107197836 6.490113838e-41
-0.1411666572 0.05947382748 0.1675299704 6.490113838e-41
-0.2977542281 0.2269482911 0.04998339713 6.490113838e-41
-0.03248409927 -0.004767500795 0.1692630351 6.490113838e-41
-0.2230577171 0.07819656283 0.1239384934 6.490113838e-41
-0.1101908833 0.03562092409 0.1717345119 6.490113838e-41
-0.2995319366 0.2272591442 0.03940696269 6.490113838e-41
-0.2315911353 0.1346921623 0.1157279834 6.490113838e-41
-0.2349920273 0.2264668047 0.1064229831 6.490113838e-41
-0.1654021442 0.09763611853 0.153025344 6.490113838e-41
-0.2727075219 0.2273088545 0.07170594484 6.490113838e-41
-0.2998292148 0.2110447735 0.05913582444 6.490113838e-41
-0.2075921446 0.1984436512 0.107391946 6.490113838e-41
-0.1403961629 0.08437883109 0.1629691273 6.490113838e-41
-0.28423208 0.2221021354 0.06381871551 6.490113838e-41
0.2004857063 -0.1803325713 -0.1981979907 8.028094954e-40
-0.009522936307 -0.2101317793 -0.1894868314 8.028094954e-40
0.08883492649 -0.204615742 -0.18929331 8.028094954e-40
0.1442718953 -0.2000312656 -0.1881739348 8.028094954e-40
0.332093358 -0.1603144407 -0.1916187555 8.028094954e-40
0.2424847931 -0.1766552925 -0.1895006299 8.028094954e-40
-0.2669729292 -0.2316646576 -0.08417164534 8.028094954e-40
-0.1005548239 -0.2224220335 -0.1935174018 8.028094954e-40
0.3396305442 -0.1690850556 -0.1571715325 8.028094954e-40
0.2726437747 -0.170291841 -0.1874694973 8.028094954e-40
-0.2676745355 -0.232456848 -0.08805213869 8.028094954e-40
-0.1132620648 -0.2271480411 -0.1939531267 8.028094954e-40
0.203831926 -0.1758541465 -0.2052738369 8.028094954e-40
0.07096509635 -0.1965144873 -0.1847111583 8.028094954e-40
-0.08363264054 -0.2245717198 -0.2030340433 8.028094954e-40
0.009049459361 -0.2108405381 -0.1883634627 8.028094954e-40
0.3396373689 -0.1663629115 -0.1661841571 8.028094954e-40
0.2377491295 -0.1740868539 -0.190141812 8.028094954e-40
-0.2171230167 -0.2374089658 -0.1840967536 8.028094954e-40
-0.06599485129 -0.220208928 -0.1947333515 8.028094954e-40
0.3414123058 -0.16927284 -0.1543013901 8.028094954e-40
0.2691666484 -0.1704990864 -0.1888592243 8.028094954e-40
-0.2671460211 -0.2331816405 -0.1226420775 8.028094954e-40
-0.1643203944 -0.2326864451 -0.1679077893 8.028094954e-40
0.2416779995 -0.1724101007 -0.1989297569 8.028094954e-40
0.05966079608 -0.198151052 -0.1841728985 8.028094954e-40
0.04391425848 -0.2005207986 -0.1881292015 8.028094954e-40
0.06033245847 -0.2066615969 -0.1831787974 8.028094954e-40
0.2920750678 -0.1811473966 -0.1892831773 8.028094954e-40
0.03496394679 -0.203242749 -0.1849091649 8.028094954e-40
0.1329576969 -0.1999896467 -0.1901509166 8.028094954e-40
0.001498463331 -0.2132384479 -0.1842442751 8.028094954e-40
-0.2032042593 -0.1261309087 -0.1903628409 1.540360521e-39
-0.1258707345 -0.1556976587 -0.195029974 1.540360521e-39
-0.2262475938 -0.1758804619 -0.1881762445 1.540360521e-39
-0.07840961963 -0.1345870793 -0.1894526482 1.540360521e-39
-0.1042992994 -0.1244908348 -0.1930881292 1.540360521e-39
0.06195058301 -0.204783529 -0.1970895678 1.540360521e-39
-0.2881749868 -0.1514243484 -0.1859804243 1.540360521e-39
0.07285812497 -0.169101581 -0.1907443553 1.540360521e-39
-0.0951647833 -0.1320790648 -0.1924283952 1.540360521e-39
0.09727725387 -0.2059499174 -0.1921004802 1.540360521e-39
-0.2889145017 -0.1490093023 -0.1838063896 1.540360521e-39
0.08884976059 -0.1773713678 -0.1917191148 1.540360521e-39
-0.1625892669 -0.1387570351 -0.192436263 1.540360521e-39
-0.04808500037 -0.195524618 -0.1950153559 1.540360521e-39
-0.1896023452 -0.2009960413 -0.1913649142 1.540360521e-39
0.000793538813 -0.1630171537 -0.1898563653 1.540360521e-39
-0.09422946721 -0.1408629566 -0.1922973096 1.540360521e-39
0.06298423558 -0.2019926608 -0.1961565614 1.540360521e-39
-0.2648480535 -0.1825182885 -0.188494578 1.540360521e-39
0.05961203203 -0.1714456677 -0.1910362393 1.540360521e-39
-0.08818055689 -0.143729955 -0.1915348619 1.540360521e-39
0.1194682419 -0.2103764862 -0.183506459 1.540360521e-39
-0.2793283165 -0.1537787914 -0.1899391562 1.540360521e-39
0.06338255107 -0.1861522645 -0.1933787167 1.540360521e-39
-0.1556824893 -0.1414286941 -0.192143634 1.540360521e-39
-0.06873743981 -0.1838454455 -0.1936579198 1.540360521e-39
-0.2681994736 -0.1894056052 -0.1873559952 1.540360521e-39
-0.04852297157 -0.1704967469 -0.1889218539 1.540360521e-39
-0.1352420151 -0.1445019096 -0.1924616247 1.540360521e-39
-0.0750708729 -0.1660729498 -0.1915014088 1.540360521e-39
-0.2966993153 -0.1845731437 -0.1841428727 1.540360521e-39
-0.05629880726 -0.1800178587 -0.1902145147 1.540360521e-39
-0.2891572416 -0.0258913096 0.1867382526 2.277910146e-39
-0.366273284 0.03740009293 0.1622868627 2.277910146e-39
-0.1719555855 -0.1082941815 0.1914508939 2.277910146e-39
-0.3816246986 -0.107136026 0.1834575981 2.277910146e-39
-0.2632929087 -0.07349649817 0.1910496652 2.277910146e-39
-0.3249134123 0.03980034217 0.1822561473 2.277910146e-39
0.04240011051 -0.08541058004 0.182170704 2.277910146e-39
-0.3454985023 0.271440953 -0.1002971157 2.277910146e-39
-0.2337746769 -0.07677483559 0.1911651194 2.277910146e-39
-0.3125667572 0.00138940569 0.1851051748 2.277910146e-39
0.06657722592 -0.08088792115 0.1791078597 2.277910146e-39
-0.3474289179 0.2918612063 -0.1218988672 2.277910146e-39
-0.3088656366 -0.02865088545 0.1872346252 2.277910146e-39
-0.3449076712 0.07103008777 0.1640367508 2.277910146e-39
-0.07419621199 -0.1005859822 0.1908891052 2.277910146e-39
-0.3591625094 0.01482051518 0.1750383675 2.277910146e-39
-0.249117732 -0.06999285519 0.1908642799 2.277910146e-39
-0.3203400373 -0.003913866822 0.1852129102 2.277910146e-39
0.03675124049 -0.08703994751 0.1807281226 2.277910146e-39
-0.3495022953 0.2307379991 -0.01304099523 2.277910146e-39
-0.1770353615 -0.08107339591 0.189785108 2.277910146e-39
-0.2903056145 -0.02132802643 0.1852276027 2.277910146e-39
0.09777291864 -0.07408826053 0.1775754541 2.277910146e-39
-0.3488415182 0.2762953937 -0.02116519026 2.277910146e-39
-0.3003120422 -0.03233642131 0.1869089901 2.277910146e-39
-0.3508458734 0.04854587838 0.1706549525 2.277910146e-39
-0.1052416041 -0.09362635016 0.1895852238 2.277910146e-39
-0.3610397577 0.03475546464 0.1702574193 2.277910146e-39
-0.2357686162 -0.06744933128 0.1905049533 2.277910146e-39
-0.3516293466 0.0160890501 0.1809128523 2.277910146e-39
0.002378157573 -0.09232933819 0.1836823225 2.277910146e-39
-0.3772424459 -0.06683319062 0.181757316 2.277910146e-39
0.06576883048 -0.02825609222 -0.1986371726 3.015101038e-39
0.35851264 -0.0421974957 -0.1548664868 3.015101038e-39
0.2757744491 -0.04824985936 -0.0551697053 3.015101038e-39
0.3074940741 -0.03116251901 -0.1501935124 3.015101038e-39
0.1479106992 -0.270645529 -0.1764910072 3.015101038e-39
0.09749505669 0.01212641969 -0.1895656735 3.015101038e-39
0.2155846655 -0.004616604187 -0.1629073024 3.015101038e-39
0.2665037513 -0.06786771119 -0.02637043782 3.015101038e-39
0.1482744664 -0.2691091299 -0.1760904491 3.015101038e-39
0.0770214498 0.0137830805 -0.1943056434 3.015101038e-39
0.1821589172 -0.003544569016 -0.170012027 3.015101038e-39
0.2663535476 -0.06830883026 -0.02540929429 3.015101038e-39
0.1291621923 -0.105955787 -0.1913607419 3.015101038e-39
0.2249985337 -0.002501832787 -0.1679661572 3.015101038e-39
0.3401797414 -0.04967023805 -0.1113694757 3.015101038e-39
0.3422199786 -0.05430653691 -0.142467469 3.015101038e-39
0.1429333687 -0.2194085121 -0.1779337972 3.015101038e-39
0.1238917038 0.008943179622 -0.1846449077 3.015101038e-39
0.2510432303 -0.01006113086 -0.1575575918 3.015101038e-39
0.3118430376 -0.06733929366 -0.06858842075 3.015101038e-39
0.124193415 -0.2696073949 -0.1748598367 3.015101038e-39
0.05270456523 -0.0184106417 -0.200886175 3.015101038e-39
0.1396785975 -0.02559117787 -0.1783470213 3.015101038e-39
0.2778148055 -0.06676886231 -0.03827297315 3.015101038e-39
0.1143577769 -0.05022550374 -0.1899802834 3.015101038e-39
0.2505888641 -0.006965120323 -0.1672532409 3.015101038e-39
0.3532097638 -0.05668341368 -0.1174290404 3.015101038e-39
0.3456648886 -0.05297947675 -0.1422369182 3.015101038e-39
0.1062826216 -0.03427917883 -0.1980900764 3.015101038e-39
0.2885200679 -0.01138353534 -0.1638658047 3.015101038e-39
0.3320684135 -0.04175088927 -0.1287408769 3.015101038e-39
0.3647346795 -0.05960776284 -0.1154552177 3.015101038e-39
-0.3606299758 -0.1869552732 -0.04269739613 3.75229193e-39
-0.2912131846 -0.1949834526 0.08112627268 3.75229193e-39
-0.3098361492 -0.1974548548 0.05038226023 3.75229193e-39
-0.3358348906 -0.1868378967 0.07786078006 3.75229193e-39
-0.3649620712 -0.1844387203 -0.1727968454 3.75229193e-39
-0.3494117558 -0.1739652604 -0.04366705194 3.75229193e-39
-0.3821437955 -0.183538273 -0.09083268791 3.75229193e-39
-0.2797705233 -0.1082355231 0.184979409 3.75229193e-39
-0.3683629632 -0.1818422377 -0.1729010493 3.75229193e-39
-0.3393770754 -0.1712809801 -0.05516782776 3.75229193e-39
-0.3895902038 -0.1790288836 -0.09828940034 3.75229193e-39
-0.2746886909 -0.1567415446 0.190943718 3.75229193e-39
-0.3913445771 -0.1873604804 -0.08557081223 3.75229193e-39
-0.3264497519 -0.1852288842 0.0245228149 3.75229193e-39
-0.3675337434 -0.2054891586 -0.04169243202 3.75229193e-39
-0.3318107128 -0.2016741335 0.1632428169 3.75229193e-39
-0.3859710991 -0.1804658622 -0.1325188875 3.75229193e-39
-0.3179723918 -0.1743837893 -0.03778520599 3.75229193e-39
-0.3900491893 -0.182624042 -0.07644371688 3.75229193e-39
-0.2859057486 -0.1953297853 0.2108793259 3.75229193e-39
-0.3699120283 -0.1791924238 -0.1715548038 3.75229193e-39
-0.3250753582 -0.1694212556 -0.06126546115 3.75229193e-39
-0.3763760626 -0.1786780655 -0.09983249754 3.75229193e-39
-0.2497481108 -0.1773023158 0.1896176785 3.75229193e-39
-0.4030498266 -0.1840867102 -0.07956713438 3.75229193e-39
-0.3101245463 -0.1878945082 0.01854309626 3.75229193e-39
-0.3692827225 -0.1851748824 -0.04071735591 3.75229193e-39
-0.3237386048 -0.1885960251 0.1219965294 3.75229193e-39
-0.3941729665 -0.1825287491 -0.06216425821 3.75229193e-39
-0.2788227499 -0.2003534138 0.07180333883 3.75229193e-39
-0.3356210589 -0.1858038306 -0.0292931702 3.75229193e-39
-0.3245820105 -0.1950233877 0.1492961198 3.75229193e-39
-0.2737088501 0.2845987678 -0.01501095667 4.48912409e-39
-0.2368206382 0.1299322695 -0.1074566394 4.48912409e-39
-0.2028001547 0.1647444516 -0.01952403039 4.48912409e-39
-0.2799706459 0.2829144299 -0.02639918774 4.48912409e-39
-0.2275688797 0.210080117 0.009177700616 4.48912409e-39
-0.2699561417 0.2555051148 -0.05599024519 4.48912409e-39
-0.1347823888 0.02138672955 -0.04103095457 4.48912409e-39
-0.2277743816 0.1295681149 -0.1096457914 4.48912409e-39
-0.2244419307 0.2032992542 0.00822736416 4.48912409e-39
-0.2574663162 0.2523657084 -0.0529926084 4.48912409e-39
-0.1171979085 0.01928789169 -0.0375120528 4.48912409e-39
-0.2250724584 0.1178372055 -0.111891143 4.48912409e-39
-0.2488124967 0.2619392872 0.001419724897 4.48912409e-39
-0.2689960599 0.2244831026 -0.08517642319 4.48912409e-39
-0.1839111745 0.07600978762 -0.03773779795 4.48912409e-39
-0.2273459435 0.1889916956 -0.06737403572 4.48912409e-39
-0.2255552411 0.2069671601 0.001110642683 4.48912409e-39
-0.2624104619 0.238930732 -0.06696689129 4.48912409e-39
-0.1673280597 0.03260232136 -0.03805093095 4.48912409e-39
-0.2269628346 0.13238132 -0.09981931001 4.48912409e-39
-0.2144306004 0.1903654486 0.001221951446 4.48912409e-39
-0.2299177945 0.2405464053 -0.04437127709 4.48912409e-39
-0.1354651153 0.02786343358 -0.03620484471 4.48912409e-39
-0.1873178482 0.06158513948 -0.1039012 4.48912409e-39
-0.2465656549 0.2603872716 -0.008793140762 4.48912409e-39
-0.2421877384 0.1914385557 -0.09385997057 4.48912409e-39
-0.1888935268 0.08368615061 -0.03674902767 4.48912409e-39
-0.2496859878 0.219417125 -0.06418202817 4.48912409e-39
-0.2502136528 0.2576545179 -0.002942986786 4.48912409e-39
-0.2250356972 0.137931779 -0.09811924398 4.48912409e-39
-0.1929530948 0.08099114895 -0.03385215998 4.48912409e-39
-0.2612839043 0.236790359 -0.06239936501 4.48912409e-39
-0.3993038535 -0.2085884511 -0.03717611358 5.225597518e-39
-0.3839184046 -0.07543533295 0.07162281871 5.225597518e-39
-0.3987188041 -0.1862827241 0.04821786284 5.225597518e-39
-0.3882195652 -0.205097869 -0.150522545 5.225597518e-39
-0.2261075228 -0.23515369 -0.09355965257 5.225597518e-39
-0.3762765229 0.1833865047 0.1302845329 5.225597518e-39
-0.4016484022 -0.2071661204 -0.06255716085 5.225597518e-39
-0.3883871734 -0.09408977628 0.03249119222 5.225597518e-39
-0.205587998 -0.23787947 -0.0848769471 5.225597518e-39
-0.3763554394 0.1918150634 0.1364961267 5.225597518e-39
-0.398760289 -0.2057658732 -0.09167152643 5.225597518e-39
-0.3877363205 -0.09929404408 0.0407400988 5.225597518e-39
-0.4003108442 -0.2084003836 -0.09592783451 5.225597518e-39
-0.3818980157 0.006728331558 0.09953329712 5.225597518e-39
-0.4016143084 -0.2192859352 0.02612916566 5.225597518e-39
-0.3985472023 -0.1789906174 -0.02233790606 5.225597518e-39
-0.2886033952 -0.2258499116 -0.1168562993 5.225597518e-39
-0.3801042736 0.1289013922 0.1297273189 5.225597518e-39
-0.4013140798 -0.208969295 -0.05136621371 5.225597518e-39
-0.3930948377 -0.1510107964 0.02597990446 5.225597518e-39
-0.1966716051 -0.2388833761 -0.07778439671 5.225597518e-39
-0.3766097128 0.1940586567 0.1338726133 5.225597518e-39
-0.3878654838 -0.2047274411 -0.1384824067 5.225597518e-39
-0.3838170171 -0.08790384978 0.05452505127 5.225597518e-39
-0.4001097679 -0.2066958398 -0.05503476784 5.225597518e-39
-0.382571876 -0.03448498249 0.08401606232 5.225597518e-39
-0.4009320736 -0.2162415236 0.01834366284 5.225597518e-39
-0.3990663886 -0.2060383707 -0.06536724418 5.225597518e-39
-0.3990853429 -0.2066252977 -0.06000905484 5.225597518e-39
-0.3831095099 -0.05445252359 0.08620630205 5.225597518e-39
-0.4008581638 -0.2142921686 0.006211827975 5.225597518e-39
-0.4004063904 -0.2038541883 -0.01079688687 5.225597518e-39
0.04107522219 -0.08821080625 0.09828023612 5.962428276e-39
-0.1294911653 -0.07841792703 0.1403615773 5.962428276e-39
0.2270243615 -0.1971882731 0.1546815783 5.962428276e-39
0.02075016126 -0.1048806533 0.1360423416 5.962428276e-39
0.2408099473 -0.170660764 0.1486953795 5.962428276e-39
-0.2626786828 -0.01177131571 0.1236387268 5.962428276e-39
-0.1473279297 -0.01068705134 0.1164457947 5.962428276e-39
-0.1207875907 -0.1256276518 0.1429620832 5.962428276e-39
0.2589409053 -0.1785229146 0.1505223364 5.962428276e-39
-0.2756250203 -0.002467673738 0.1164952293 5.962428276e-39
-0.1549165547 -0.006588490214 0.1115560085 5.962428276e-39
-0.1134080887 -0.1468582898 0.1483965516 5.962428276e-39
0.1165365204 -0.1358592659 0.1102862284 5.962428276e-39
-0.1917259395 -0.09107780457 0.1403393596 5.962428276e-39
0.0475853458 -0.1277485192 0.143920213 5.962428276e-39
-0.1282620132 -0.04445739463 0.1346932352 5.962428276e-39
0.2427518666 -0.1675885469 0.1444433779 5.962428276e-39
-0.2522600889 -0.01481052767 0.1229574531 5.962428276e-39
-0.1026898697 -0.02452273481 0.1202284098 5.962428276e-39
-0.1268668026 -0.1215610281 0.1427650452 5.962428276e-39
0.2709504366 -0.1846167445 0.1520267278 5.962428276e-39
-0.2775758803 -0.001512552379 0.113438338 5.962428276e-39
-0.1291978508 -0.01435275655 0.108764343 5.962428276e-39
-0.08695865422 -0.1473751068 0.1488445252 5.962428276e-39
0.0995080322 -0.1229965538 0.1041829064 5.962428276e-39
-0.175519228 -0.0918975547 0.1410799026 5.962428276e-39
0.0884283185 -0.1346978843 0.1442286968 5.962428276e-39
-0.1013217494 -0.04888920113 0.1340576559 5.962428276e-39
0.1444989592 -0.1361997128 0.1049919724 5.962428276e-39
-0.1618743092 -0.05785137042 0.1367448419 5.962428276e-39
0.137123853 -0.1476404816 0.1444408596 5.962428276e-39
-0.04825668409 -0.1001443714 0.1432887763 5.962428276e-39
-0.2818906009 0.04473583773 0.1574363559 6.698542971e-39
-0.4129560888 0.2570647597 0.03315360472 6.698542971e-39
-0.404665947 0.1876528263 0.1497001797 6.698542971e-39
-0.4011851847 0.1547867805 0.147585243 6.698542971e-39
-0.4151071012 0.2453011125 0.08758798987 6.698542971e-39
-0.4392927289 0.2678028047 -0.08902149647 6.698542971e-39
-0.3120375872 -0.006610729266 0.1673733592 6.698542971e-39
-0.416975379 0.2726164162 0.02994438075 6.698542971e-39
-0.4154447317 0.2529531717 0.07594775409 6.698542971e-39
-0.4402301013 0.2684233189 -0.1105297729 6.698542971e-39
-0.2989004552 -0.01976744272 0.1671683341 6.698542971e-39
-0.4165065885 0.2821946144 0.01818251982 6.698542971e-39
-0.3608267307 0.09171959758 0.1552444845 6.698542971e-39
-0.4272937477 0.2648079693 0.00751401484 6.698542971e-39
-0.37052086 0.08307169378 0.1622805297 6.698542971e-39
-0.4080750644 0.2046356499 0.1366214603 6.698542971e-39
-0.4091115892 0.2418408096 0.1006948128 6.698542971e-39
-0.4411454797 0.2735925317 -0.09021043032 6.698542971e-39
-0.3117013574 0.007211232558 0.1647556126 6.698542971e-39
-0.4144151807 0.2683337033 0.04676508158 6.698542971e-39
-0.4149285853 0.2577423751 0.06877436489 6.698542971e-39
-0.4395849705 0.2661231458 -0.1207921356 6.698542971e-39
-0.2888272703 -0.02246932127 0.1660015136 6.698542971e-39
-0.4125481844 0.2832283676 0.01320330054 6.698542971e-39
-0.3463812768 0.09564161301 0.1524679512 6.698542971e-39
-0.4248907864 0.2704913616 0.01383394748 6.698542971e-39
-0.3695519269 0.1025954708 0.1550790668 6.698542971e-39
-0.4074968398 0.204131633 0.1384342909 6.698542971e-39
-0.3280760348 0.1014845818 0.1485721767 6.698542971e-39
-0.4268986285 0.2739488184 -0.004078279715 6.698542971e-39
-0.3530137837 0.06888086349 0.1578676254 6.698542971e-39
-0.4066330492 0.2023147196 0.1408617198 6.698542971e-39
-0.4010773897 -0.2443905622 0.1335931718 7.434656265e-39
-0.354560256 -0.2536785901 0.06157333031 7.434656265e-39
-0.2452499866 -0.2639489174 -0.02601599693 7.434656265e-39
-0.322671026 -0.2704092562 0.06344933063 7.434656265e-39
-0.3097305596 -0.2090109885 0.1081603169 7.434656265e-39
-0.3555662036 -0.2564333379 0.1803031862 7.434656265e-39
-0.313727349 -0.2732337415 0.09422707558 7.434656265e-39
-0.3140544593 -0.2247810811 -0.0608613044 7.434656265e-39
-0.3088576496 -0.2146752477 0.06844031066 7.434656265e-39
-0.353302747 -0.2588272989 0.1783601195 7.434656265e-39
-0.3272198439 -0.2694980502 0.1180283278 7.434656265e-39
-0.3190569878 -0.2261217237 -0.01389501989 7.434656265e-39
-0.3855701089 -0.2188306749 0.1665798873 7.434656265e-39
-0.3445740938 -0.2546280324 0.1236084849 7.434656265e-39
-0.2826981843 -0.2721593082 0.04189668968 7.434656265e-39
-0.3016318381 -0.2205998451 0.04293181002 7.434656265e-39
-0.3155885637 -0.2061194032 0.1212633476 7.434656265e-39
-0.3543592095 -0.2600961328 0.1690447778 7.434656265e-39
-0.3192396164 -0.2712672651 0.1076933071 7.434656265e-39
-0.3082150519 -0.224063471 0.01149533689 7.434656265e-39
-0.3029642701 -0.2208202332 0.003860499244 7.434656265e-39
-0.3389086127 -0.2645885348 0.1825562567 7.434656265e-39
-0.3380655944 -0.2672538459 0.130235225 7.434656265e-39
-0.2961642742 -0.2410192788 0.06327694654 7.434656265e-39
-0.3948209882 -0.216715619 0.1668567508 7.434656265e-39
-0.3344009221 -0.2514878213 0.09050451219 7.434656265e-39
-0.2963087559 -0.2746053338 0.05724170431 7.434656265e-39
-0.312433511 -0.2271900624 0.09212565422 7.434656265e-39
-0.3846994936 -0.2363870889 0.1153478026 7.434656265e-39
-0.3578764796 -0.2651304603 0.1087485775 7.434656265e-39
-0.2944797575 -0.2770319283 0.0516686514 7.434656265e-39
-0.2820926309 -0.2763331831 0.1089887023 7.434656265e-39
-0.2317205667 -0.1531131864 0.1132789552 8.170410826e-39
-0.003592695575 -0.1315710843 0.1923171878 8.170410826e-39
-0.2724282146 -0.1215027124 0.003243053798 8.170410826e-39
-0.2790470123 -0.09354779869 0.09394932538 8.170410826e-39
-0.3307961822 0.04050121084 0.1036331505 8.170410826e-39
0.08441707492 -0.1121126339 0.09157367051 8.170410826e-39
-0.09505070001 -0.1117346212 -0.08221304417 8.170410826e-39
-0.0503385216 -0.1547814012 0.1573540866 8.170410826e-39
-0.3315786719 0.05166065693 0.114466764 8.170410826e-39
0.1135332957 -0.1051266193 0.04658024013 8.170410826e-39
-0.2228883505 -0.1188772693 -0.07578277588 8.170410826e-39
-0.01744697057 -0.1306518763 0.1106007993 8.170410826e-39
-0.2589732409 -0.1145569533 0.1017720997 8.170410826e-39
0.03125018626 -0.1205699071 0.1705882549 8.170410826e-39
-0.1868415922 -0.1299687177 -0.03274928406 8.170410826e-39
-0.1816468984 -0.1568074971 0.1666255593 8.170410826e-39
-0.330391705 0.03021313995 0.1033806056 8.170410826e-39
0.1094867438 -0.1029875055 0.07251035422 8.170410826e-39
-0.1665487885 -0.1138952449 -0.09869217128 8.170410826e-39
-0.01069323905 -0.1227832809 0.1165562868 8.170410826e-39
-0.3338624537 0.06559766829 0.1218337789 8.170410826e-39
0.1006217748 -0.1066374704 0.005651222542 8.170410826e-39
-0.3003894091 -0.07210753858 -0.05936445296 8.170410826e-39
-0.01530821249 -0.127755627 0.0933471024 8.170410826e-39
-0.2527104616 -0.129406184 0.09474653751 8.170410826e-39
0.04194410518 -0.1135437861 0.1624455154 8.170410826e-39
-0.2309370786 -0.1289299577 -0.05000691488 8.170410826e-39
-0.1549571902 -0.1434381455 0.08105880022 8.170410826e-39
-0.254653275 -0.1320151091 0.1129609719 8.170410826e-39
0.0571346581 -0.1010809317 0.1418074071 8.170410826e-39
-0.2634248435 -0.1146903336 -0.06575883925 8.170410826e-39
-0.1168612614 -0.1545373499 0.1346655786 8.170410826e-39
-0.2309349328 0.07519877702 0.1411999315 8.906165387e-39
0.0145191364 0.01822539791 0.1630651057 8.906165387e-39
-0.2163898647 0.05144455284 0.163519159 8.906165387e-39
-0.1122429594 0.03871299326 0.1660539955 8.906165387e-39
0.06488865614 -0.02825443447 0.1750686914 8.906165387e-39
0.1425498724 -0.01465022005 0.1524736583 8.906165387e-39
-0.2667414546 0.0756265074 0.168599382 8.906165387e-39
-0.1266539246 0.04696121067 0.161144197 8.906165387e-39
0.0860356912 -0.02813027985 0.173157841 8.906165387e-39
0.1509708464 -0.01882171445 0.1513541639 8.906165387e-39
-0.268022269 0.07747554034 0.1522916108 8.906165387e-39
-0.1689942628 0.041789148 0.1613234878 8.906165387e-39
