# .PCD v0.7 - Point Cloud Data file format
VERSION 0.7
FIELDS x y z rgb
SIZE 4 4 4 4
TYPE F F F F
COUNT 1 1 1 1
WIDTH 823
HEIGHT 1
VIEWPOINT 0 0 0 1 0 0 0
POINTS 823
DATA ascii
0.1004501358 -0.2776079476 -0.0804073438 1.037659831e-38
-0.06334002316 -0.3250915408 -0.09310534596 1.111163541e-38
0.0274926126 -0.2759043872 -0.06047171727 1.111163541e-38
-0.08325736225 -0.3249208629 -0.07697768509 1.111163541e-38
0.03800365329 -0.2790588737 -0.06445875019 1.111163541e-38
-0.07256276906 -0.3373001516 -0.0859323293 1.111163541e-38
-0.01999183372 -0.2944892347 -0.06627894938 1.111163541e-38
-0.107643947 -0.3284164965 -0.06540061533 1.111163541e-38
0.04293042049 -0.2807940543 -0.05378163606 1.111163541e-38
-0.001911242958 -0.2994544208 -0.08068636805 1.111163541e-38
0.01442545373 -0.2692289352 -0.05232833326 1.111163541e-38
-0.09424587339 -0.3285618126 -0.07787183672 1.111163541e-38
0.05603534356 -0.2891437113 -0.04971595109 1.111163541e-38
-0.04761506617 -0.327603966 -0.09478183091 1.111163541e-38
0.01841658726 -0.2736914456 -0.05579123646 1.111163541e-38
-0.08932696283 -0.3272177577 -0.07469302416 1.111163541e-38
0.05035578832 -0.2861982584 -0.05334894732 1.111163541e-38
-0.06519028544 -0.3388427198 -0.094006069 1.111163541e-38
-0.006723362021 -0.2778424621 -0.05342227966 1.111163541e-38
-0.08577878028 -0.3277010918 -0.07653979957 1.111163541e-38
0.05213399231 -0.2867750227 -0.05016685277 1.111163541e-38
-0.03627124056 -0.334149003 -0.105938144 1.111163541e-38
0.006079986226 -0.2766674757 -0.05512668565 1.111163541e-38
-0.1092546657 -0.3362082839 -0.0718440637 1.111163541e-38
0.05652505904 -0.2892654836 -0.03110332042 1.111163541e-38
0.03093748167 -0.2964480519 -0.09226451814 1.111163541e-38
0.02380183712 -0.2757614553 -0.05751140788 1.111163541e-38
-0.06939548999 -0.328253299 -0.08027119935 1.111163541e-38
0.05008442327 -0.2856127322 -0.04847311601 1.111163541e-38
0.02934314311 -0.298327446 -0.09110317379 1.111163541e-38
0.01289423648 -0.2819841802 -0.06668209285 1.111163541e-38
-0.01517535467 -0.3163298965 -0.08628338575 1.111163541e-38
0.01187839359 -0.2845012546 -0.06308222562 1.111163541e-38
0.05375634879 -0.2595402598 0.110018231 1.184631237e-38
-0.1090800762 -0.2558321953 0.024643654 1.184631237e-38
0.02728782222 -0.2557188272 0.07481686771 1.184631237e-38
-0.07472720742 -0.2357968241 0.009138739668 1.184631237e-38
0.03456458449 -0.2605701387 0.1115109548 1.184631237e-38
-0.0828281641 -0.2470728308 0.03230945021 1.184631237e-38
-0.001230887487 -0.2600499392 0.08612975478 1.184631237e-38
-0.09280774742 -0.23701258 -0.007199163083 1.184631237e-38
0.05637868121 -0.2577045262 0.1133251339 1.184631237e-38
-0.0888223201 -0.2410843074 0.009195106104 1.184631237e-38
0.04307707399 -0.2523574233 0.07006768882 1.184631237e-38
-0.06390064955 -0.2245788276 -0.01406876277 1.184631237e-38
0.04552452639 -0.2601340413 0.1173811406 1.184631237e-38
-0.09270551056 -0.2465604544 0.02222087979 1.184631237e-38
0.03215201944 -0.2568458915 0.07816770673 1.184631237e-38
-0.0607692562 -0.230649218 0.009495815262 1.184631237e-38
0.03202462569 -0.2648530006 0.12102364 1.184631237e-38
-0.08617702872 -0.2459747493 0.02651551738 1.184631237e-38
0.01743067801 -0.2563040853 0.07007768005 1.184631237e-38
-0.05895929411 -0.2360675335 0.0266134385 1.184631237e-38
0.0396698676 -0.2649196684 0.1264942586 1.184631237e-38
-0.07765887678 -0.2427258343 0.0256152954 1.184631237e-38
-0.01246764697 -0.264993161 0.08768445253 1.184631237e-38
-0.1003635228 -0.2509038448 0.02235388011 1.184631237e-38
0.06191885471 -0.2599638999 0.1175505817 1.184631237e-38
-0.1042065173 -0.2515167594 0.02013288252 1.184631237e-38
-0.01078017801 -0.263597399 0.09067237377 1.184631237e-38
-0.08899191022 -0.249965027 0.03230575845 1.184631237e-38
0.01473094523 -0.259616226 0.1067230701 1.184631237e-38
-0.09801026434 -0.2524093986 0.02833145112 1.184631237e-38
-0.02837139182 -0.2710870802 0.09562593699 1.184631237e-38
-0.0954169333 -0.2483810335 0.01789308153 1.184631237e-38
-0.1830682904 -0.3477521837 0.04558099061 1.258099074e-38
-0.110609442 -0.3483765423 0.1425900161 1.258099074e-38
-0.1764117926 -0.3362568319 0.007272892166 1.258099074e-38
-0.1810750067 -0.3418287039 0.05614635721 1.258099074e-38
-0.1564519107 -0.3375017345 0.1151108593 1.258099074e-38
-0.1461218894 -0.3609860837 0.1306187958 1.258099074e-38
-0.160142675 -0.311282903 0.01953269541 1.258099074e-38
-0.1810466647 -0.3421241045 0.06829725951 1.258099074e-38
-0.1664175093 -0.3450349867 0.1101918072 1.258099074e-38
-0.09438892454 -0.3416454494 0.1416942924 1.258099074e-38
-0.1653041393 -0.3241395354 -0.04655386508 1.258099074e-38
-0.1843497157 -0.3523435295 0.04144154117 1.258099074e-38
-0.1561280638 -0.3374406099 0.1150534973 1.258099074e-38
-0.1167533472 -0.3587179184 0.1427870542 1.258099074e-38
-0.1714039445 -0.3296327293 -0.005819056649 1.258099074e-38
-0.1818776727 -0.3466520011 0.01663036086 1.258099074e-38
-0.1560764611 -0.3393355608 0.1168926135 1.258099074e-38
-0.1256042272 -0.3532203436 0.1388799697 1.258099074e-38
-0.1645820439 -0.3205300868 -0.01375093497 1.258099074e-38
-0.1808006465 -0.3462447822 0.001350978506 1.258099074e-38
-0.1393705308 -0.3331375122 0.1263724566 1.258099074e-38
-0.118479982 -0.3483330607 0.14023076 1.258099074e-38
-0.1619104445 -0.3177965581 -0.01804566756 1.258099074e-38
-0.1768103093 -0.336582303 0.006676166784 1.258099074e-38
-0.1588287652 -0.3316322565 0.1059162095 1.258099074e-38
-0.1053619161 -0.3402657509 0.1412981451 1.258099074e-38
-0.1661358774 -0.3253872991 -0.04230710119 1.258099074e-38
-0.1747442037 -0.3317402601 0.03682241961 1.258099074e-38
-0.1528108418 -0.3231996894 0.1034439951 1.258099074e-38
-0.1245021746 -0.3391608298 0.1367828548 1.258099074e-38
-0.1648476869 -0.317124784 0.03621749952 1.258099074e-38
-0.1640519947 -0.3220884204 0.07458925992 1.258099074e-38
-0.05704789609 -0.4922662377 0.01283868682 1.331530897e-38
-0.03104789741 -0.4925797582 0.008138402365 1.331530897e-38
-0.04869135469 -0.4907451272 0.03772933036 1.331530897e-38
0.01288723387 -0.4917356372 -0.07524756342 1.331530897e-38
-0.03948444501 -0.4931451976 0.003537878627 1.331530897e-38
-0.0662176311 -0.4874935746 0.06657792628 1.331530897e-38
-0.103456229 -0.4930459857 -0.02255437151 1.331530897e-38
-0.02351156063 -0.4951335192 -0.02088719048 1.331530897e-38
-0.03687075898 -0.4903982878 -0.08044680208 1.331530897e-38
-0.03387735412 -0.4907126725 0.02858415619 1.331530897e-38
-0.1104175076 -0.492572993 0.03091387078 1.331530897e-38
-0.01662040874 -0.4948350191 -0.04928002506 1.331530897e-38
-0.04031006247 -0.4932296276 -0.06137410179 1.331530897e-38
-0.04321846738 -0.4880167544 0.05570605397 1.331530897e-38
-0.05691992119 -0.4910392165 0.03081065975 1.331530897e-38
-0.01486136112 -0.4938840866 -0.05761171877 1.331530897e-38
-0.0338630043 -0.4951536357 -0.04022631049 1.331530897e-38
-0.06039072573 -0.4886917174 0.05390616879 1.331530897e-38
-0.07883595675 -0.4913453162 0.03496373072 1.331530897e-38
-0.01816640608 -0.4949172139 -0.04843798652 1.331530897e-38
-0.01383124013 -0.4908235371 -0.07220806926 1.331530897e-38
-0.06639914215 -0.4874852896 0.06718790531 1.331530897e-38
-0.1165652722 -0.4820596576 0.02674582414 1.331530897e-38
-0.02352900803 -0.495113045 -0.03606819361 1.331530897e-38
-0.02533373423 -0.4893496931 -0.08546768874 1.331530897e-38
-0.04958782345 -0.4913634658 0.02311172709 1.331530897e-38
-0.09872040898 -0.4918204546 0.04113126919 1.331530897e-38
-0.03575360402 -0.4951834679 -0.03355816007 1.331530897e-38
-0.02863436192 -0.490716964 -0.07556372136 1.331530897e-38
-0.06377855688 -0.4930213094 0.004488139879 1.331530897e-38
-0.08623027802 -0.4935660362 0.01475251 1.331530897e-38
-0.05639365315 -0.4950069487 -0.03570445627 1.331530897e-38
0.02538928017 0.4739359319 0.03937612101 1.404926846e-38
0.04603335634 0.4795318842 -0.01729542017 1.404926846e-38
0.009491397068 0.4679522216 0.04596771672 1.404926846e-38
0.03796874732 0.4841741323 -0.001354887267 1.404926846e-38
0.01502690557 0.4745943546 0.04325121641 1.404926846e-38
0.04697733 0.4738359153 0.01413655374 1.404926846e-38
-0.007584899664 0.3900966346 0.02015163936 1.404926846e-38
0.02482657321 0.486890763 -0.00447915867 1.404926846e-38
0.03081970289 0.4744918346 0.006000059191 1.404926846e-38
0.04245886952 0.4755166173 0.02613111958 1.404926846e-38
-0.003256406402 0.4208607376 0.03266615421 1.404926846e-38
0.03408443183 0.4843655825 -0.01527950075 1.404926846e-38
0.01484047435 0.4745241106 0.040474087 1.404926846e-38
0.04596390575 0.4751642048 0.01783878729 1.404926846e-38
0.002176802838 0.4540939629 0.04156789184 1.404926846e-38
0.03169230372 0.4848995805 -0.007771752775 1.404926846e-38
0.01318089291 0.4745394886 0.04115977883 1.404926846e-38
0.04172859341 0.474976033 0.02867247723 1.404926846e-38
0.001159287523 0.4549175501 0.04094626382 1.404926846e-38
0.03143399581 0.4846744835 -0.006465821527 1.404926846e-38
0.01012740657 0.474388361 0.04173419252 1.404926846e-38
0.04153168574 0.4745770693 0.02732390352 1.404926846e-38
-0.006492583081 0.4267210066 0.02905778028 1.404926846e-38
0.02756362222 0.4822444916 -0.007747878786 1.404926846e-38
0.0199816823 0.4756477773 0.02744096145 1.404926846e-38
0.03882615268 0.4795357585 -0.0132799577 1.404926846e-38
-0.003143285401 0.4594193101 0.03577812016 1.404926846e-38
0.03666847572 0.4791392684 0.002040156163 1.404926846e-38
0.01426915824 0.4753732085 0.03179457784 1.404926846e-38
0.03837922588 0.4797876179 -0.02019357681 1.404926846e-38
-0.004517457448 0.4634519815 0.03198023885 1.404926846e-38
0.02314178087 0.4771414399 0.02215451188 1.404926846e-38
-0.01002515759 0.3209339082 -0.01101138815 1.478322936e-38
-0.013366648 0.4936858118 0.02994675003 1.478322936e-38
-0.01597589627 0.468257606 -0.004017450847 1.478322936e-38
-0.01960477792 0.4829487503 -0.001488015871 1.478322936e-38
-0.01784147136 0.4154874384 -0.002855213126 1.478322936e-38
-0.0173930116 0.496199578 0.01882722788 1.478322936e-38
-0.01522335503 0.3942750096 -0.005611867178 1.478322936e-38
-0.02815709077 0.4969894886 0.01661170088 1.478322936e-38
-0.01445093751 0.3790466487 -0.007201226894 1.478322936e-38
-0.01956745796 0.4941849113 0.03190304711 1.478322936e-38
-0.01674024016 0.4549577534 -0.004869414959 1.478322936e-38
-0.01771940291 0.4856286943 0.00614077691 1.478322936e-38
-0.01162342541 0.3283338547 -0.008798116818 1.478322936e-38
-0.01752224006 0.4936268628 0.03203087673 1.478322936e-38
-0.01664191298 0.4685325921 -0.002747470979 1.478322936e-38
-0.01873629354 0.4846360683 0.002132796217 1.478322936e-38
-0.01295009907 0.3490519226 -0.007732879836 1.478322936e-38
-0.0212983992 0.4964060485 0.02508218028 1.478322936e-38
-0.01735755801 0.4652776122 -0.005254417658 1.478322936e-38
-0.02236660756 0.4905655384 0.005535656121 1.478322936e-38
-0.008929484524 0.2868927419 -0.01020305417 1.478322936e-38
-0.02133360878 0.4974642396 0.01761250943 1.478322936e-38
-0.01320829894 0.3656421304 -0.008580908179 1.478322936e-38
-0.02007094957 0.4881416261 0.006094530225 1.478322936e-38
-0.009844536893 0.3066084087 -0.01042972133 1.478322936e-38
-0.01816254854 0.4948966801 0.02816385403 1.478322936e-38
-0.01991903223 0.453314811 -0.005002037622 1.478322936e-38
-0.02139651589 0.4864197671 0.00485912431 1.478322936e-38
-0.01227697916 0.3358087242 -0.007842109539 1.478322936e-38
-0.03147697821 0.4976153374 0.02131061628 1.478322936e-38
-0.0116655305 0.3562788069 -0.008541098796 1.478322936e-38
-0.02040244639 0.4514725804 -0.003008458996 1.478322936e-38
0.1560148299 -0.4427345097 -0.01862581074 1.551683013e-38
0.1225071698 -0.369546622 -0.005960487761 1.551683013e-38
0.09047940373 -0.346942544 -0.08412481099 1.551683013e-38
0.07627683878 -0.3117180765 -0.01077980734 1.551683013e-38
0.1587229818 -0.4427141547 0.02258207835 1.551683013e-38
0.1422565579 -0.4160259068 0.0002216938883 1.551683013e-38
0.1289363503 -0.3861833811 -0.052940052 1.551683013e-38
0.06913705915 -0.2942074239 -0.004973786883 1.551683013e-38
0.1388914883 -0.4120443761 -0.0617534183 1.551683013e-38
0.09754969925 -0.3388240337 -0.006924266927 1.551683013e-38
0.08650236577 -0.3440718651 -0.09153363109 1.551683013e-38
0.05945837498 -0.2886160016 -0.01093943045 1.551683013e-38
0.1538348049 -0.4332051277 -0.02559151687 1.551683013e-38
0.1402139664 -0.3962498307 -0.006472269073 1.551683013e-38
0.09263317287 -0.3482483923 -0.07598534226 1.551683013e-38
0.05670055747 -0.2846733928 -0.01011790335 1.551683013e-38
0.1507513523 -0.4317399263 0.004578395281 1.551683013e-38
0.141021505 -0.4013472497 -0.004701478407 1.551683013e-38
0.09440678358 -0.3503465056 -0.08050275594 1.551683013e-38
0.0653680563 -0.2963171601 -0.01141368784 1.551683013e-38
0.1474456489 -0.4237842262 0.002305822913 1.551683013e-38
0.1416005045 -0.3986049294 -0.00287492061 1.551683013e-38
0.1330783963 -0.3933092952 -0.04608534649 1.551683013e-38
0.07566776872 -0.3092372417 -0.01062251721 1.551683013e-38
0.149677977 -0.4212120175 -0.04894245416 1.551683013e-38
0.1177805439 -0.3691179156 -0.02166637592 1.551683013e-38
0.1294015646 -0.3858578801 -0.04085567594 1.551683013e-38
0.07453168184 -0.3095231652 -0.01108619664 1.551683013e-38
0.1396300048 -0.4078164995 -0.03202565759 1.551683013e-38
0.1207202822 -0.3726089597 -0.01891231351 1.551683013e-38
0.1116311699 -0.3643966615 -0.04556160048 1.551683013e-38
0.1269001514 -0.3800256848 -0.0125772655 1.551683013e-38
-0.124577947 -0.4651031494 0.04849779606 1.625043089e-38
-0.1626744866 -0.4361833334 -0.01015574578 1.625043089e-38
-0.1172553077 -0.4648963213 0.09214356542 1.625043089e-38
-0.1091665849 -0.4612480402 -0.09295034409 1.625043089e-38
-0.1388682723 -0.445150435 0.09742824733 1.625043089e-38
-0.1514969617 -0.4219323397 0.09381821007 1.625043089e-38
-0.1275425404 -0.4690158963 -0.0117029231 1.625043089e-38
-0.1429408938 -0.448186785 -0.09800557047 1.625043089e-38
-0.1523107886 -0.4556328356 -0.01403495111 1.625043089e-38
-0.160790205 -0.4130141139 -0.0008465981227 1.625043089e-38
-0.1239559203 -0.4693006575 0.0337103717 1.625043089e-38
-0.1361906528 -0.4564358592 -0.1021267101 1.625043089e-38
-0.1429400593 -0.4495224357 0.08174316585 1.625043089e-38
-0.1537199616 -0.4157581925 0.08793611825 1.625043089e-38
-0.1272049397 -0.464081794 0.06381730735 1.625043089e-38
-0.1377746165 -0.4572994113 -0.09288917482 1.625043089e-38
-0.1420602947 -0.4421804249 0.09305856377 1.625043089e-38
-0.1570968628 -0.4202974141 0.07124964148 1.625043089e-38
-0.124668926 -0.4663060606 0.05904717743 1.625043089e-38
-0.145085603 -0.4477575719 -0.09493281692 1.625043089e-38
-0.1476993412 -0.4283112586 0.09487643093 1.625043089e-38
-0.1531927288 -0.4157584906 0.09178919345 1.625043089e-38
-0.1379119605 -0.4638359249 0.02575815283 1.625043089e-38
-0.1567641497 -0.4265304804 -0.08241853118 1.625043089e-38
-0.1559599191 -0.450186193 0.03926709667 1.625043089e-38
-0.1555483937 -0.4123134911 0.05930445716 1.625043089e-38
-0.154111594 -0.4524664879 0.04368317872 1.625043089e-38
-0.1615701765 -0.4310089946 -0.06458894163 1.625043089e-38
-0.1553208381 -0.4439269304 0.05173699185 1.625043089e-38
-0.1607176065 -0.4139539301 0.00686114328 1.625043089e-38
-0.1612765938 -0.4363155961 0.02371563949 1.625043089e-38
-0.1617155671 -0.4162501097 -0.06300912797 1.625043089e-38
-0.003016060451 -0.320623517 -0.1255514473 1.698367293e-38
0.1365291029 -0.3935475051 -0.1019068807 1.698367293e-38
0.1025752202 -0.3955658376 -0.1316472143 1.698367293e-38
0.07197911292 -0.3301567733 -0.1174435019 1.698367293e-38
0.0502624847 -0.3294858634 -0.1242728606 1.698367293e-38
0.1014242917 -0.3584411144 -0.1163305268 1.698367293e-38
0.08852121234 -0.4480268955 -0.1501034349 1.698367293e-38
0.1303755194 -0.4481959939 -0.1122822464 1.698367293e-38
-0.0271977894 -0.320419997 -0.1290326267 1.698367293e-38
0.1110538319 -0.3809706867 -0.1222409755 1.698367293e-38
0.09634239972 -0.413262248 -0.1399491429 1.698367293e-38
0.130993858 -0.4330859482 -0.1101900861 1.698367293e-38
0.02531208284 -0.3229444325 -0.1167839989 1.698367293e-38
0.1093314886 -0.3626465797 -0.1138866395 1.698367293e-38
0.10272111 -0.4019097388 -0.1326078922 1.698367293e-38
0.119675681 -0.3660701215 -0.1079485267 1.698367293e-38
0.04955418408 -0.325678587 -0.1115207896 1.698367293e-38
0.09460009634 -0.3477585316 -0.1150816306 1.698367293e-38
0.113745369 -0.4238649607 -0.1256375015 1.698367293e-38
0.1232432723 -0.3677437305 -0.1069771275 1.698367293e-38
0.02380005084 -0.3161237538 -0.1063442528 1.698367293e-38
0.08518450707 -0.3344451487 -0.1116737127 1.698367293e-38
0.09876655787 -0.455701232 -0.1406128705 1.698367293e-38
0.1350253671 -0.4276742041 -0.1054594889 1.698367293e-38
-0.01570265554 -0.3165016174 -0.1180745289 1.698367293e-38
0.1371654868 -0.4088805914 -0.1017494127 1.698367293e-38
0.1236093193 -0.4290750623 -0.1167772263 1.698367293e-38
0.1124440283 -0.3745891154 -0.1162790656 1.698367293e-38
0.01284051873 -0.3243169188 -0.1215412319 1.698367293e-38
0.1275164485 -0.3799301982 -0.1063893288 1.698367293e-38
0.1268097907 -0.4301290214 -0.1132273301 1.698367293e-38
0.08302310109 -0.3436888456 -0.1198184341 1.698367293e-38
0.07545748353 -0.4059683979 0.1628736854 1.771655483e-38
0.02999402955 -0.4740189016 0.1817789227 1.771655483e-38
0.108245112 -0.4238797128 0.1458436847 1.771655483e-38
0.07604935765 -0.4284718633 0.1668751687 1.771655483e-38
0.168107897 -0.4817460179 0.09016378224 1.771655483e-38
0.02741824277 -0.4636598527 0.1815138161 1.771655483e-38
0.1325558871 -0.41294837 0.1129763722 1.771655483e-38
0.06750016659 -0.4439007044 0.1701347679 1.771655483e-38
0.1157992259 -0.4296778142 0.1372036934 1.771655483e-38
0.0559316054 -0.4651864469 0.174113363 1.771655483e-38
0.1197818667 -0.401362747 0.1246853545 1.771655483e-38
0.05594436824 -0.4310238659 0.1724027097 1.771655483e-38
0.1384766251 -0.4728371799 0.1156192794 1.771655483e-38
0.0312090721 -0.4669289887 0.1807311326 1.771655483e-38
0.1205131635 -0.4187105 0.1310988069 1.771655483e-38
0.08155461401 -0.441069901 0.16579853 1.771655483e-38
0.1515897363 -0.4940025508 0.1068405285 1.771655483e-38
0.05617449433 -0.4820799828 0.1739164442 1.771655483e-38
0.1242144257 -0.4312327802 0.1295696795 1.771655483e-38
0.07082547247 -0.4359468222 0.1689783186 1.771655483e-38
0.1397643983 -0.4914401472 0.1166687608 1.771655483e-38
0.06059769914 -0.4839740694 0.1723761261 1.771655483e-38
0.1397898197 -0.4469682574 0.115810968 1.771655483e-38
0.06537747383 -0.4533910155 0.1707593948 1.771655483e-38
0.1281131357 -0.4712800682 0.12890926 1.771655483e-38
0.05651668459 -0.4898838103 0.173813656 1.771655483e-38
0.1231258884 -0.4263778627 0.1293634325 1.771655483e-38
0.08866214752 -0.4649378359 0.163157627 1.771655483e-38
0.1433926672 -0.5028607845 0.1144838557 1.771655483e-38
0.09419021755 -0.5069811344 0.1595142335 1.771655483e-38
0.1167510599 -0.4674641192 0.1431941092 1.771655483e-38
0.08649526536 -0.4778142869 0.1635828465 1.771655483e-38
-0.060226392 -0.3298507929 0.1138152108 1.844943813e-38
-0.05582754314 -0.2756562531 0.03603405133 1.844943813e-38
-0.07449312508 -0.3606190979 0.139038831 1.844943813e-38
-0.0706474781 -0.3387228549 0.1064848676 1.844943813e-38
-0.08677738905 -0.395187676 0.1593771875 1.844943813e-38
-0.08425301313 -0.3039387167 0.03894355893 1.844943813e-38
-0.08873683214 -0.3960008919 0.1494135708 1.844943813e-38
-0.08314888179 -0.3148546517 0.07266961038 1.844943813e-38
-0.07411901653 -0.3545741141 0.1346029043 1.844943813e-38
-0.09454763681 -0.3070939481 0.02915675938 1.844943813e-38
-0.07703982294 -0.3715757132 0.1434140652 1.844943813e-38
-0.06585249305 -0.3120197654 0.08457381278 1.844943813e-38
-0.0836089626 -0.3778634965 0.1475201994 1.844943813e-38
-0.08402923495 -0.2988692224 0.01750150509 1.844943813e-38
-0.07812070101 -0.3774895072 0.1521016955 1.844943813e-38
-0.07405192405 -0.3279892504 0.08918379247 1.844943813e-38
-0.08274288476 -0.3758834898 0.1469092518 1.844943813e-38
-0.09089706093 -0.3040468395 0.0242184978 1.844943813e-38
-0.07811957598 -0.3730344176 0.1477605402 1.844943813e-38
-0.07483758032 -0.324241221 0.08659180999 1.844943813e-38
-0.0803277418 -0.3586417437 0.1312295794 1.844943813e-38
-0.08545705676 -0.2955719829 0.02398364991 1.844943813e-38
-0.08233635128 -0.3715365827 0.1368762851 1.844943813e-38
-0.07403548807 -0.2996933758 0.06918620318 1.844943813e-38
-0.08226760477 -0.35807845 0.130646497 1.844943813e-38
-0.08610551804 -0.2887484133 0.005514198914 1.844943813e-38
-0.08086619526 -0.3681982756 0.1421491057 1.844943813e-38
-0.06742067635 -0.297299087 0.07614202052 1.844943813e-38
-0.07564807683 -0.3200142384 0.1005964875 1.844943813e-38
-0.08596546203 -0.2874617279 0.01937380806 1.844943813e-38
-0.08540743589 -0.3550417423 0.1217522919 1.844943813e-38
-0.08809109032 -0.2949949205 0.06223157048 1.844943813e-38
-0.08767305315 -0.3698616326 0.1764570624 1.91819627e-38
0.05425695702 -0.4023506343 0.1821989417 1.91819627e-38
-0.07900828868 -0.3746610582 0.1791327745 1.91819627e-38
0.05063356087 -0.3734794259 0.1868009269 1.91819627e-38
-0.1041403189 -0.3664595783 0.1456555873 1.91819627e-38
-0.04029111564 -0.4170890749 0.1872043163 1.91819627e-38
0.001445627655 -0.3637729287 0.1906637698 1.91819627e-38
0.08253765851 -0.3779958189 0.1603402495 1.91819627e-38
-0.06681281328 -0.3687069416 0.183618933 1.91819627e-38
0.0388587527 -0.4052544534 0.1845167428 1.91819627e-38
-0.07428076118 -0.3633919358 0.1836442798 1.91819627e-38
0.0770098716 -0.3782986403 0.1669499874 1.91819627e-38
-0.09535507858 -0.3717602193 0.1662919968 1.91819627e-38
0.02495837398 -0.408010602 0.1876244992 1.91819627e-38
-0.08322754502 -0.3752398789 0.1774793714 1.91819627e-38
0.05961000547 -0.3797271848 0.1828074604 1.91819627e-38
-0.0997492522 -0.3716396689 0.1556981653 1.91819627e-38
-0.03379200771 -0.4191809595 0.1882981509 1.91819627e-38
-0.07767055929 -0.3754648864 0.1805432141 1.91819627e-38
0.06017197669 -0.3774991333 0.1833589971 1.91819627e-38
-0.1036851853 -0.3695394695 0.1449194252 1.91819627e-38
-0.06564239413 -0.4216851294 0.1795277745 1.91819627e-38
-0.06963599473 -0.3746978343 0.1831739396 1.91819627e-38
0.0665519312 -0.3857310712 0.1761066765 1.91819627e-38
-0.08473399282 -0.3793016672 0.1776681095 1.91819627e-38
0.02519855648 -0.4082967341 0.1878805608 1.91819627e-38
-0.08550421894 -0.3896056712 0.1746203601 1.91819627e-38
0.0170466397 -0.3934833109 0.1904220581 1.91819627e-38
-0.08991454542 -0.3824785948 0.1704926491 1.91819627e-38
-0.02091374062 -0.4123468101 0.1903559119 1.91819627e-38
-0.09140457213 -0.3997559845 0.1615722179 1.91819627e-38
-0.01290975325 -0.3955419958 0.1921455562 1.91819627e-38
0.09045280516 -0.4722418785 -0.0727321282 1.991448586e-38
0.08805017918 -0.4721944928 -0.01274365466 1.991448586e-38
0.1123214737 -0.4564444423 0.05246209726 1.991448586e-38
0.09000691772 -0.4717345238 -0.004462487996 1.991448586e-38
0.1184118316 -0.456589222 -0.09758035839 1.991448586e-38
0.07277962565 -0.4759669304 -0.07039792091 1.991448586e-38
0.124457486 -0.4473158717 0.02140472271 1.991448586e-38
0.1037502885 -0.4586429298 0.07702914625 1.991448586e-38
0.1001139805 -0.4675571918 -0.02027732879 1.991448586e-38
0.09546494484 -0.4684613645 0.02244141884 1.991448586e-38
0.1307179481 -0.4450621903 0.005588950124 1.991448586e-38
0.1019461527 -0.4611552656 0.07314424217 1.991448586e-38
0.1031633541 -0.4683081508 -0.07887710631 1.991448586e-38
0.0807229653 -0.4738111496 -0.031349428 1.991448586e-38
0.1215635911 -0.4512303174 0.002463574288 1.991448586e-38
0.1030842513 -0.4636791945 0.03619983792 1.991448586e-38
0.1026071832 -0.4652794302 -0.08997797966 1.991448586e-38
0.08750794828 -0.4719608128 -0.03923171014 1.991448586e-38
0.1258034259 -0.4474844933 0.0130130006 1.991448586e-38
0.1036509424 -0.4630260468 0.04202867299 1.991448586e-38
0.1018158868 -0.4638128281 -0.09945829958 1.991448586e-38
0.07855436951 -0.4740802944 -0.07969202101 1.991448586e-38
0.1366643757 -0.4404978454 0.0131003214 1.991448586e-38
0.1036863923 -0.4626779854 0.05306544527 1.991448586e-38
0.09095736593 -0.4722268283 -0.08225025982 1.991448586e-38
0.09607256204 -0.4686149359 0.004476517439 1.991448586e-38
0.1241238117 -0.4483365119 0.01535917725 1.991448586e-38
0.1037121564 -0.4637179077 0.02086926438 1.991448586e-38
0.1020201147 -0.4688362181 -0.0752165243 1.991448586e-38
0.09833227098 -0.4674824774 -0.006274647545 1.991448586e-38
0.1226934567 -0.4535159171 -0.02914325148 1.991448586e-38
0.09929365665 -0.4669854343 -0.001099757385 1.991448586e-38
-0.08170142025 -0.2486543655 0.04259553179 2.06466517e-38
-0.06319753826 -0.2929915786 -0.1183047816 2.06466517e-38
-0.1021742672 -0.2673603296 0.02196337283 2.06466517e-38
-0.06228393689 -0.3119930029 -0.1470332444 2.06466517e-38
-0.09770939499 -0.2751259804 -0.03598818183 2.06466517e-38
-0.07324046642 -0.288838625 -0.1005281508 2.06466517e-38
-0.0565298982 -0.2690807879 0.07623565942 2.06466517e-38
-0.07467661798 -0.3115672469 -0.1327712089 2.06466517e-38
-0.08751497418 -0.253203094 0.02777064033 2.06466517e-38
-0.07600224763 -0.285295248 -0.09215710312 2.06466517e-38
-0.07432179898 -0.2659102976 0.06037642807 2.06466517e-38
-0.06539966911 -0.3104179204 -0.1416822523 2.06466517e-38
-0.09748528153 -0.2663283944 -0.005301436875 2.06466517e-38
-0.07088297606 -0.2868894637 -0.1054343805 2.06466517e-38
-0.08564119786 -0.2682655752 0.05283155665 2.06466517e-38
-0.06537817419 -0.311775893 -0.1363984495 2.06466517e-38
-0.08426387608 -0.2787254453 -0.07352024317 2.06466517e-38
-0.07094927877 -0.2885709703 -0.1017598063 2.06466517e-38
-0.09426970035 -0.2677670717 0.03587395698 2.06466517e-38
-0.06535754353 -0.3080408871 -0.1288897544 2.06466517e-38
-0.0751331225 -0.2823524177 -0.09134400636 2.06466517e-38
-0.05553522334 -0.291104883 -0.109255515 2.06466517e-38
-0.08589725196 -0.2637738287 0.0435529612 2.06466517e-38
-0.07316988707 -0.3105414212 -0.1250549704 2.06466517e-38
-0.09811105579 -0.2641887665 0.02074295469 2.06466517e-38
-0.06437893957 -0.2867755294 -0.1038254648 2.06466517e-38
-0.09866721183 -0.2658127546 0.01833629981 2.06466517e-38
-0.0680494085 -0.3093799651 -0.1248637065 2.06466517e-38
-0.09663698077 -0.2779430449 -0.03256312758 2.06466517e-38
-0.06671310961 -0.2766086757 -0.09538099915 2.06466517e-38
-0.09602157772 -0.2650023401 -0.009347083047 2.06466517e-38
-0.06066019833 -0.2912029028 -0.1053727493 2.06466517e-38
-0.01526273321 -0.296281755 -0.03400960565 2.137881613e-38
0.004622016568 0.2394549698 0.001249118941 2.137881613e-38
-0.01207300089 -0.02890923247 -0.002276759362 2.137881613e-38
-0.002159927506 0.4638581276 -0.02043679357 2.137881613e-38
-0.01965220831 -0.1403704584 -0.008137403987 2.137881613e-38
0.002306643408 0.2297251672 0.004968184978 2.137881613e-38
-0.02375533059 -0.1790394932 -0.008423777297 2.137881613e-38
-0.003492527409 0.4742709398 -0.02722426504 2.137881613e-38
0.01869799569 -0.3284988999 -0.05741280317 2.137881613e-38
0.003661914263 0.3017475605 -0.004724385682 2.137881613e-38
-0.01333317906 -0.08367682993 -0.004473112524 2.137881613e-38
-0.01638957858 0.4763740599 -0.02566371486 2.137881613e-38
-0.02035458758 -0.2720128 -0.02099738084 2.137881613e-38
0.004084683489 0.2319255471 0.003941530362 2.137881613e-38
-0.009731473401 -0.02446615323 -0.003241147613 2.137881613e-38
-0.0220214203 0.4756812453 -0.02297611721 2.137881613e-38
-0.02589447051 -0.2070731968 -0.01201685052 2.137881613e-38
0.003380703041 0.2610554993 0.002177838469 2.137881613e-38
0.003178675193 0.1012553871 0.0006726084976 2.137881613e-38
-0.02154664136 0.4721247554 -0.01946960948 2.137881613e-38
-0.02450277656 -0.2328194082 -0.01622493565 2.137881613e-38
0.00458968943 0.2387610227 0.002113711555 2.137881613e-38
-0.01639422588 -0.1113462076 -0.005672371481 2.137881613e-38
0.001832237234 0.4523726702 -0.01569967531 2.137881613e-38
-0.02383589745 -0.2491871119 -0.01837322488 2.137881613e-38
0.001786788926 0.112204805 -0.001400298439 2.137881613e-38
-0.01593134552 -0.09046270698 -0.0052033416 2.137881613e-38
-0.000960252888 0.4569835365 -0.01613330841 2.137881613e-38
-0.02473884821 -0.1903664619 -0.0123470705 2.137881613e-38
0.005546714179 0.163269937 -0.0001977458596 2.137881613e-38
-0.01498135924 -0.07885280252 -0.006571757142 2.137881613e-38
0.006380016916 0.4290041625 -0.01097813062 2.137881613e-38
-0.1107689068 -0.459477514 -0.04904667288 2.211062324e-38
-0.04369105771 -0.4739290178 -0.09826646 2.211062324e-38
-0.1125498191 -0.4562705755 -0.05238198861 2.211062324e-38
0.009899486788 -0.4684198201 -0.09399160743 2.211062324e-38
-0.08622044325 -0.4666289091 -0.07738824934 2.211062324e-38
-0.06668173522 -0.4741325676 -0.09236653149 2.211062324e-38
-0.1450861692 -0.4371286631 -0.06382036209 2.211062324e-38
0.05350202695 -0.4644017518 -0.094615601 2.211062324e-38
-0.0984217599 -0.4692000151 -0.04571828619 2.211062324e-38
-0.008927823044 -0.4691703022 -0.09748335928 2.211062324e-38
-0.1196974218 -0.4407591522 -0.07894996554 2.211062324e-38
0.08523227274 -0.4597243369 -0.092979379 2.211062324e-38
-0.09390388429 -0.4675525427 -0.06628507376 2.211062324e-38
-0.04638350382 -0.474176228 -0.09954228252 2.211062324e-38
-0.1161348373 -0.45079422 -0.05959215388 2.211062324e-38
0.05477525294 -0.462650001 -0.09751656651 2.211062324e-38
-0.08732364327 -0.4712709486 -0.06677617133 2.211062324e-38
-0.05726662651 -0.4744784236 -0.09490516782 2.211062324e-38
-0.1020150557 -0.4538194835 -0.0723259747 2.211062324e-38
0.03939942271 -0.4647210836 -0.09840042889 2.211062324e-38
-0.08241514862 -0.4746871293 -0.07366456836 2.211062324e-38
-0.0616574958 -0.4747050405 -0.09306657314 2.211062324e-38
-0.1177934259 -0.4427767694 -0.08144640177 2.211062324e-38
0.0154468501 -0.4676042795 -0.09539595246 2.211062324e-38
-0.1036551297 -0.4652077258 -0.05791318044 2.211062324e-38
-0.05992427468 -0.4745420218 -0.09377906471 2.211062324e-38
-0.1045519784 -0.4575140476 -0.06176081672 2.211062324e-38
-0.02702616528 -0.4698159993 -0.09770133346 2.211062324e-38
-0.08303555101 -0.4735611379 -0.07077334821 2.211062324e-38
-0.06384664774 -0.4745011628 -0.08632726967 2.211062324e-38
-0.103670001 -0.4582130909 -0.06205424666 2.211062324e-38
-0.05247171223 -0.4751430452 -0.09297061712 2.211062324e-38
-0.01326223183 -0.3106192052 0.1176702455 2.284242894e-38
0.07940713316 -0.3063470721 0.1317050308 2.284242894e-38
-0.04706330597 -0.3022019863 0.08371190727 2.284242894e-38
0.09027407318 -0.3336117566 0.1430471241 2.284242894e-38
-0.03318054602 -0.3013132811 0.08870584518 2.284242894e-38
0.009584304877 -0.2961464524 0.1294050813 2.284242894e-38
-0.03467935696 -0.308957994 0.1099292561 2.284242894e-38
0.0802616179 -0.3409170806 0.1506532282 2.284242894e-38
-0.006769233383 -0.299462527 0.1057214215 2.284242894e-38
0.03655951843 -0.3125298321 0.1443294436 2.284242894e-38
-0.0472859703 -0.2957832217 0.07388023287 2.284242894e-38
0.08871163428 -0.3439944386 0.1498082876 2.284242894e-38
-0.02026165091 -0.3045030832 0.1034667417 2.284242894e-38
0.05117559806 -0.3058163226 0.1367507428 2.284242894e-38
-0.04505096748 -0.2998633087 0.08328507096 2.284242894e-38
0.07929866016 -0.3273868561 0.1444213986 2.284242894e-38
-0.02430408821 -0.2989029884 0.09196376055 2.284242894e-38
0.01069751568 -0.2952002287 0.1304940134 2.284242894e-38
-0.04031727463 -0.2956250608 0.07677119225 2.284242894e-38
0.07558173686 -0.323969692 0.1426859647 2.284242894e-38
-0.01620725915 -0.2936444581 0.09295777977 2.284242894e-38
-0.007748880889 -0.2906155884 0.09958862513 2.284242894e-38
-0.04273017868 -0.2936767638 0.07532177866 2.284242894e-38
0.04697996378 -0.3168370426 0.1440697312 2.284242894e-38
-0.01755543798 -0.2964863181 0.09495019168 2.284242894e-38
0.03934276104 -0.2909115255 0.1307374537 2.284242894e-38
-0.03616224602 -0.2939199507 0.08098008484 2.284242894e-38
0.02253663354 -0.2981232703 0.1383472532 2.284242894e-38
-0.0217155274 -0.2955641747 0.09054024518 2.284242894e-38
0.02209707536 -0.2905136049 0.1253732592 2.284242894e-38
-0.02586113662 -0.2952963412 0.09987104684 2.284242894e-38
0.009412607178 -0.2960148752 0.131065011 2.284242894e-38
0.004536873195 -0.3512458205 -0.1593556404 2.348204041e-38
0.06823376566 -0.3377551138 -0.1174207553 2.348204041e-38
-0.07730504125 -0.393925637 -0.1724593937 2.348204041e-38
0.004450940061 -0.3458961546 -0.1431626081 2.348204041e-38
0.03143556044 -0.3797989488 -0.1782158166 2.348204041e-38
-0.002676786156 -0.3376820385 -0.1392114013 2.348204041e-38
-0.02264268324 -0.3680388033 -0.1686457098 2.348204041e-38
0.01334561873 -0.3318867385 -0.1233949959 2.348204041e-38
0.04668319598 -0.3526201546 -0.1505601108 2.348204041e-38
0.05371205136 -0.3191100657 -0.09415733814 2.348204041e-38
-0.07027293742 -0.3930573165 -0.1775113344 2.348204041e-38
0.004540054593 -0.3248495162 -0.1231660172 2.348204041e-38
0.06430147588 -0.3660758138 -0.1575378329 2.348204041e-38
0.03517322242 -0.3235065639 -0.1113084778 2.348204041e-38
-0.02927839383 -0.3780944943 -0.1715964377 2.348204041e-38
0.01927902736 -0.3394457102 -0.1383447647 2.348204041e-38
0.06439923495 -0.375120908 -0.1668358743 2.348204041e-38
0.02100644447 -0.3351253867 -0.128534019 2.348204041e-38
-0.0387689434 -0.394300431 -0.1777386069 2.348204041e-38
0.02320853248 -0.3459276259 -0.1484290361 2.348204041e-38
0.09370643646 -0.3890053034 -0.17002213 2.348204041e-38
0.01562057063 -0.344851315 -0.1453434378 2.348204041e-38
-0.03162425011 -0.3957882226 -0.1828863472 2.348204041e-38
0.02486595511 -0.3481405377 -0.1489438713 2.348204041e-38
0.08652832359 -0.380610466 -0.1650668085 2.348204041e-38
0.07779053599 -0.3547887504 -0.1355088651 2.348204041e-38
0.0081546437 -0.4068350196 -0.1786946803 2.348204041e-38
0.01346807741 -0.3756217957 -0.1750989854 2.348204041e-38
0.08618867397 -0.3919008076 -0.1715858132 2.348204041e-38
0.0683522746 -0.377743274 -0.169933632 2.348204041e-38
0.02053469792 -0.421744138 -0.1764044613 2.348204041e-38
0.02963336743 -0.4032635689 -0.1829451472 2.348204041e-38
-0.01243882906 -0.2953308523 0.1288330257 2.347880341e-38
0.1101486236 -0.3175330758 -0.04833831266 2.347880341e-38
0.1098735407 -0.3112421036 0.02744461969 2.347880341e-38
0.1386646628 -0.3746395707 -0.05479351804 2.347880341e-38
0.08667463064 -0.2919365466 0.06572312117 2.347880341e-38
0.1188967973 -0.3316968679 -0.006860704627 2.347880341e-38
0.1134431288 -0.3240732849 0.0645301789 2.347880341e-38
0.1341287792 -0.3629714251 -0.04178767651 2.347880341e-38
0.03996093571 -0.304915607 0.1062212884 2.347880341e-38
0.1144416332 -0.3370487094 -0.07715855539 2.347880341e-38
0.1071412936 -0.3046021163 0.01529045124 2.347880341e-38
0.1338506341 -0.3712284565 -0.09442915022 2.347880341e-38
0.0526586771 -0.2920794487 0.08698200434 2.347880341e-38
0.1210455447 -0.3416717052 -0.04901599512 2.347880341e-38
0.1113599911 -0.3162081242 0.01172676124 2.347880341e-38
0.1383199841 -0.3733768463 -0.08489827067 2.347880341e-38
0.05011172593 -0.283951968 0.08332973719 2.347880341e-38
0.1199467108 -0.3357322514 -0.02943960018 2.347880341e-38
0.1082093641 -0.3087665141 0.01077122614 2.347880341e-38
0.1388465166 -0.3742265403 -0.08044088632 2.347880341e-38
0.04680720344 -0.2939345837 0.09217949212 2.347880341e-38
0.121593006 -0.3375796974 -0.01410575118 2.347880341e-38
0.1067580506 -0.3006540835 0.03206286207 2.347880341e-38
0.1313884705 -0.3556846976 -0.0227405075 2.347880341e-38
0.03393522277 -0.2945406139 0.102697596 2.347880341e-38
0.115448907 -0.3391513824 -0.07709375024 2.347880341e-38
0.1127339751 -0.3150669634 0.04529581591 2.347880341e-38
0.1357668936 -0.3596366644 -0.01147274766 2.347880341e-38
0.08534900844 -0.2961218059 0.07416769862 2.347880341e-38
0.1199157014 -0.3347541094 -0.03685407713 2.347880341e-38
0.1042443514 -0.3295000494 0.08438692242 2.347880341e-38
0.1385334879 -0.3673516512 -0.02343243174 2.347880341e-38
-0.01218567044 -0.2780666947 0.1208366305 2.347520768e-38
-0.1217412427 -0.2810381055 -0.05195029452 2.347520768e-38
-0.1150418371 -0.2960701585 0.06669852883 2.347520768e-38
-0.1246227622 -0.293874234 0.02363087051 2.347520768e-38
0.05629849061 -0.2780334353 0.1342014521 2.347520768e-38
-0.1239371151 -0.2932110429 0.0004511512525 2.347520768e-38
-0.0904443115 -0.2884420753 0.09747224301 2.347520768e-38
-0.1200686544 -0.2753460705 -0.04768579826 2.347520768e-38
-0.07298966497 -0.2853529751 0.1065594777 2.347520768e-38
-0.1196478978 -0.2670933604 -0.0677825138 2.347520768e-38
-0.1045824438 -0.2977107167 0.09735897928 2.347520768e-38
-0.1203755811 -0.2811022997 -0.02983435057 2.347520768e-38
0.01915990002 -0.2750742137 0.1251909882 2.347520768e-38
-0.1215444803 -0.2812648714 -0.04872980714 2.347520768e-38
-0.1124855727 -0.2950819135 0.07214528322 2.347520768e-38
-0.1201675013 -0.2850138247 -0.001165605499 2.347520768e-38
0.01575952582 -0.2771665156 0.1263330579 2.347520768e-38
-0.1218857542 -0.2853070498 -0.0404507257 2.347520768e-38
-0.1110926569 -0.2928004265 0.06635782123 2.347520768e-38
-0.1235463396 -0.2913278043 -0.004355183337 2.347520768e-38
0.01209842227 -0.2751141489 0.1225580797 2.347520768e-38
-0.1227846593 -0.2909608483 -0.03270592168 2.347520768e-38
-0.07846067101 -0.2876765132 0.1045133546 2.347520768e-38
-0.1210682392 -0.2842161953 -0.02340600453 2.347520768e-38
-0.01953821816 -0.2775633931 0.1171519458 2.347520768e-38
-0.1212771758 -0.2834623158 -0.06881234795 2.347520768e-38
-0.08225693554 -0.2848641872 0.08224008977 2.347520768e-38
-0.1154433861 -0.2853215039 -0.004355414305 2.347520768e-38
-0.04145967215 -0.2786642909 0.1125742644 2.347520768e-38
-0.121781148 -0.2861911058 -0.05609823391 2.347520768e-38
-0.09842760861 -0.2847633064 0.04158775136 2.347520768e-38
-0.1068606302 -0.2779382169 -0.008366888389 2.347520768e-38
0.1048799008 -0.3526768386 -0.1419312954 2.347161195e-38
0.03701087087 -0.3049202859 -0.1009150594 2.347161195e-38
0.09190301597 -0.3640409112 -0.1509530395 2.347161195e-38
-0.1060841531 -0.3130582571 -0.09108988196 2.347161195e-38
0.07327710092 -0.4069947898 -0.1658642292 2.347161195e-38
0.0828986764 -0.3244452775 -0.1339944005 2.347161195e-38
0.04673573375 -0.4067615271 -0.1808138043 2.347161195e-38
-0.07672937214 -0.2987038195 -0.08360917121 2.347161195e-38
0.06740829349 -0.339815259 -0.1495325714 2.347161195e-38
0.0053115841 -0.3010529876 -0.1137258261 2.347161195e-38
0.06357548386 -0.3943891823 -0.1709831804 2.347161195e-38
-0.1045811027 -0.3062205315 -0.07800775021 2.347161195e-38
0.08613371104 -0.3586000502 -0.1512747109 2.347161195e-38
0.04951630905 -0.3101145625 -0.1231732443 2.347161195e-38
0.054075066 -0.3723012209 -0.1711586118 2.347161195e-38
-0.1119694561 -0.311193049 -0.08419656754 2.347161195e-38
0.0663286522 -0.363460958 -0.1608149707 2.347161195e-38
0.06577362865 -0.3160551488 -0.1328914762 2.347161195e-38
0.06357073784 -0.3728106022 -0.1671490371 2.347161195e-38
-0.1018802971 -0.309812814 -0.08859628439 2.347161195e-38
-0.02049025893 -0.3272071481 -0.1467304528 2.347161195e-38
0.0610768497 -0.312559247 -0.1256655008 2.347161195e-38
0.07223628461 -0.395855099 -0.166394487 2.347161195e-38
-0.06747623533 -0.2933620214 -0.08319465071 2.347161195e-38
0.07445406169 -0.3318988681 -0.1449812651 2.347161195e-38
0.01747224294 -0.2936615348 -0.1117234901 2.347161195e-38
0.06135094911 -0.3534350693 -0.1639855504 2.347161195e-38
-0.07706107199 -0.3073565662 -0.1062686816 2.347161195e-38
0.03838169947 -0.3451611996 -0.1649503112 2.347161195e-38
0.05490494519 -0.3139724433 -0.1360815018 2.347161195e-38
0.01371347439 -0.303660959 -0.1389469206 2.347161195e-38
-0.06045281887 -0.3211633265 -0.1357791424 2.347161195e-38
0.05581447855 -0.4606717825 -0.09784841537 2.346801622e-38
0.008696702309 -0.4582758248 -0.1293998063 2.346801622e-38
0.08101230115 -0.4496327043 -0.1074186713 2.346801622e-38
-0.02364561148 -0.4372646213 -0.1525139511 2.346801622e-38
0.1247604042 -0.4400884509 -0.09407742321 2.346801622e-38
0.03503897786 -0.4529340863 -0.1316315681 2.346801622e-38
0.09820345789 -0.4478897452 -0.09880437702 2.346801622e-38
-0.03161312267 -0.4305779338 -0.1528564543 2.346801622e-38
0.01882489584 -0.4675292373 -0.1014129817 2.346801622e-38
-0.01018556673 -0.460439831 -0.1323471367 2.346801622e-38
0.09483845532 -0.446980834 -0.1034651622 2.346801622e-38
-0.07319180667 -0.4151122868 -0.1501141638 2.346801622e-38
0.09041582048 -0.4470145106 -0.1071211472 2.346801622e-38
0.01235009916 -0.4572548866 -0.1309494227 2.346801622e-38
0.08063702285 -0.4474760592 -0.1133958399 2.346801622e-38
-0.06170836091 -0.4170615971 -0.1528811753 2.346801622e-38
0.1025000066 -0.4448937476 -0.10281308 2.346801622e-38
0.02564168163 -0.4542790651 -0.1328209788 2.346801622e-38
0.07104667276 -0.4491114914 -0.1163198277 2.346801622e-38
-0.03968246654 -0.4267055988 -0.1530847102 2.346801622e-38
0.102576457 -0.4440569282 -0.1050556749 2.346801622e-38
0.03214976564 -0.4501849711 -0.1366064399 2.346801622e-38
0.0840414688 -0.447863549 -0.1096697003 2.346801622e-38
-0.004971519113 -0.4524826109 -0.1433985233 2.346801622e-38
0.06839811057 -0.4493273199 -0.1173836142 2.346801622e-38
0.0152620757 -0.4570454955 -0.1293872148 2.346801622e-38
0.07144161314 -0.4487887025 -0.1171202138 2.346801622e-38
-0.01415261161 -0.4446550608 -0.1494424939 2.346801622e-38
0.07007773966 -0.4458388984 -0.1255676001 2.346801622e-38
0.01982726902 -0.4544423521 -0.1344117522 2.346801622e-38
0.05689484999 -0.4509281814 -0.1222714335 2.346801622e-38
-0.01058281772 -0.4478155673 -0.1473649144 2.346801622e-38
0.05883333087 -0.2321377546 0.03127911687 2.346406175e-38
0.02628492378 -0.148300454 0.009768830612 2.346406175e-38
0.03885534033 -0.217670396 0.01473473664 2.346406175e-38
0.03154436126 0.4682681859 0.01927722618 2.346406175e-38
0.08796131611 -0.2349299639 0.03164812177 2.346406175e-38
0.02002410032 -0.03954977915 0.006300872657 2.346406175e-38
0.1013382822 -0.2377752811 0.003567486769 2.346406175e-38
0.03015738539 0.4673018754 0.01956389099 2.346406175e-38
0.04069979116 -0.2225741297 0.0470508486 2.346406175e-38
0.01983176544 0.02811674774 0.007726619951 2.346406175e-38
0.07921007276 -0.2293763757 0.008944272995 2.346406175e-38
0.02551540732 0.47822842 0.02375167795 2.346406175e-38
0.07763747871 -0.2321344167 0.04125093296 2.346406175e-38
0.02041984722 -3.099441528e-05 0.006057292689 2.346406175e-38
0.04818248004 -0.220450595 0.009450944141 2.346406175e-38
0.02776127122 0.4730612934 0.02175914496 2.346406175e-38
0.07849606127 -0.2300788611 0.03549804911 2.346406175e-38
0.01986057311 -0.03599978238 0.006436110009 2.346406175e-38
0.04057639465 -0.2117306441 0.01086153556 2.346406175e-38
0.03241012618 0.4559570849 0.01685091853 2.346406175e-38
0.07440532744 -0.2182582021 0.03155165911 2.346406175e-38
0.02119850554 0.06829635799 0.005746942014 2.346406175e-38
0.08652554452 -0.2304632962 0.008870681748 2.346406175e-38
0.02239799313 0.3123857975 -0.001911175903 2.346406175e-38
0.06731048971 -0.2233616114 0.04404237494 2.346406175e-38
0.02545088343 -0.1442997754 0.009083736688 2.346406175e-38
0.04121218994 -0.2138307095 0.008733959869 2.346406175e-38
0.01877988875 0.3224155009 -4.987418652e-05 2.346406175e-38
0.04663204402 -0.2220486999 0.03185259923 2.346406175e-38
0.02216738462 -0.1397724748 0.008798670024 2.346406175e-38
0.03265774995 -0.1796275526 0.008594629355 2.346406175e-38
0.01809262857 0.1198041216 0.004392848816 2.346406175e-38
0.1083416715 -0.3411034346 -0.1377137452 2.346010729e-38
0.1898157001 -0.3633396626 -0.02488190308 2.346010729e-38
0.1603392214 -0.3323246241 -0.091348961 2.346010729e-38
0.1863006651 -0.3998239636 0.0644005537 2.346010729e-38
0.1479500681 -0.3016875684 -0.09151907265 2.346010729e-38
0.1779438257 -0.3539348245 -0.07292088866 2.346010729e-38
0.159267962 -0.35623613 -0.1018901467 2.346010729e-38
0.1887184978 -0.4013521075 0.05599336326 2.346010729e-38
0.1034371853 -0.3228774369 -0.1284952015 2.346010729e-38
0.1964591742 -0.372980386 0.01563438773 2.346010729e-38
0.1610893905 -0.3483302295 -0.09587890655 2.346010729e-38
0.1845775694 -0.399351716 0.06919899583 2.346010729e-38
0.1254692972 -0.3255760968 -0.1244300231 2.346010729e-38
0.1835591197 -0.3576219082 -0.05828467384 2.346010729e-38
0.1576348245 -0.3421657681 -0.09847921878 2.346010729e-38
0.1823707074 -0.3949532211 0.07795081288 2.346010729e-38
0.1408582032 -0.3014124632 -0.09726940095 2.346010729e-38
0.179752633 -0.3543966413 -0.0681662783 2.346010729e-38
0.1668171436 -0.3501400054 -0.08820944279 2.346010729e-38
0.1850467026 -0.3966488838 0.06801047921 2.346010729e-38
0.1461408138 -0.3027055264 -0.09018114954 2.346010729e-38
0.1779107451 -0.3511247039 -0.07010155916 2.346010729e-38
0.1601719558 -0.3525121212 -0.09962529689 2.346010729e-38
0.1933945715 -0.395342201 0.04021524265 2.346010729e-38
0.1238272488 -0.3281077743 -0.1251093298 2.346010729e-38
0.1787810177 -0.3452643454 -0.06345947832 2.346010729e-38
0.1616278738 -0.3381730318 -0.09002935886 2.346010729e-38
0.1911107153 -0.3933968544 0.04818040505 2.346010729e-38
0.13854976 -0.2915625274 -0.09271325916 2.346010729e-38
0.178835541 -0.3452009261 -0.06635787338 2.346010729e-38
0.1640469432 -0.3484423757 -0.09145275503 2.346010729e-38
0.1932027042 -0.3926819861 0.04096665978 2.346010729e-38
0.005247664172 -0.2636945248 -0.07865202427 2.345615283e-38
-0.1131453291 -0.273319453 -0.05334498733 2.345615283e-38
0.02324379981 -0.2681178153 0.01557803527 2.345615283e-38
-0.007582847029 -0.260411799 -0.03081679903 2.345615283e-38
-0.07860098779 -0.273760885 -0.0722836405 2.345615283e-38
-0.1014312506 -0.2673560083 -0.02437944897 2.345615283e-38
0.05833883956 -0.2682425678 -0.01106625516 2.345615283e-38
-0.07244128734 -0.2569144666 0.006351090036 2.345615283e-38
0.03220558539 -0.2666275799 -0.04605219513 2.345615283e-38
-0.1228920445 -0.2774657309 -0.01273625158 2.345615283e-38
0.06251938641 -0.2711279988 0.02488048561 2.345615283e-38
-0.04686053097 -0.2577953339 0.004429453053 2.345615283e-38
-0.01496140752 -0.2641751766 -0.08686448634 2.345615283e-38
-0.1137570292 -0.2735350728 -0.03381030634 2.345615283e-38
0.03738621622 -0.2679334283 0.01219943259 2.345615283e-38
-0.01026936248 -0.2591187358 -0.002545982599 2.345615283e-38
-0.05931632966 -0.2691843212 -0.07669340819 2.345615283e-38
-0.1108325943 -0.2709513009 -0.02129318006 2.345615283e-38
0.04084472731 -0.2677600086 0.02256382816 2.345615283e-38
-0.01521662157 -0.2584062219 -0.002683295868 2.345615283e-38
-0.06418121606 -0.2693193853 -0.07436229289 2.345615283e-38
-0.1065523177 -0.2661012411 -0.002360257553 2.345615283e-38
0.0401019752 -0.2668731809 0.005173666868 2.345615283e-38
-0.05734378844 -0.2576074898 0.002098599216 2.345615283e-38
-0.002887077164 -0.2646406293 -0.06222437322 2.345615283e-38
-0.1210060492 -0.2754849195 -0.007137291133 2.345615283e-38
0.008144735359 -0.2623665929 0.02793644369 2.345615283e-38
-0.04394887388 -0.2555478513 0.02043117583 2.345615283e-38
-0.009519415908 -0.2627789676 -0.05400651321 2.345615283e-38
-0.109516561 -0.2665179372 -0.002569328994 2.345615283e-38
-0.01399154589 -0.2565691769 0.03486535326 2.345615283e-38
-0.03115566261 -0.2560756505 0.007416123059 2.345615283e-38
0.07335688174 -0.4798671603 -0.03997740895 2.345219836e-38
0.01681175083 -0.4707172215 -0.10900148 2.345219836e-38
0.008054987527 -0.4827221036 -0.08258204907 2.345219836e-38
-0.03969734535 -0.4539590776 -0.127585113 2.345219836e-38
0.07572356611 -0.4760152102 0.08309331536 2.345219836e-38
0.06247086078 -0.4822939336 -0.04663306475 2.345219836e-38
0.05345764011 -0.4865476191 -0.02186493762 2.345219836e-38
-0.09952633083 -0.4588961005 -0.1122144535 2.345219836e-38
0.05791696534 -0.4818288088 0.02807439491 2.345219836e-38
-0.01544497814 -0.4700985253 -0.1110760123 2.345219836e-38
0.02517724223 -0.486122787 -0.04565017298 2.345219836e-38
-0.08102244139 -0.4594435692 -0.1161128059 2.345219836e-38
0.0650543049 -0.4778562784 0.04374282807 2.345219836e-38
0.03024391271 -0.47500664 -0.1020782739 2.345219836e-38
0.03684870899 -0.485334456 -0.04412510246 2.345219836e-38
-0.06636853516 -0.4567528069 -0.1222182438 2.345219836e-38
0.07046227157 -0.4770051241 0.05157664418 2.345219836e-38
0.04483225942 -0.4809011221 -0.07196609676 2.345219836e-38
0.01563877799 -0.4849666953 -0.06702174246 2.345219836e-38
-0.06793278456 -0.4579833746 -0.1207996607 2.345219836e-38
0.07121067494 -0.4770592749 0.0554510057 2.345219836e-38
0.05998072401 -0.4833844006 -0.04080508277 2.345219836e-38
