# .PCD v0.7 - Point Cloud Data file format
VERSION 0.7
FIELDS x y z rgb
SIZE 4 4 4 4
TYPE F F F F
COUNT 1 1 1 1
WIDTH 826
HEIGHT 1
VIEWPOINT 0 0 0 1 0 0 0
POINTS 826
DATA ascii
0.1380247623 -0.4329973161 -0.07763715833 9.472685133e-39
0.1665886641 -0.3938224614 -0.07677569985 9.472685133e-39
0.1567323208 -0.4416296482 -0.01798191108 9.472685133e-39
0.1174137294 -0.3858005702 -0.1360385567 9.472685133e-39
0.1380250305 -0.4329974949 -0.07763659209 9.472685133e-39
0.1608425528 -0.3139476776 0.04619048163 8.742304551e-39
0.07867627591 -0.2306543887 0.06707019359 8.742304551e-39
0.1432257295 -0.3167864978 0.06908286363 8.742304551e-39
0.1282316148 -0.2732259333 0.03067904897 8.742304551e-39
0.1171579659 -0.2759360373 0.04933163524 8.742304551e-39
0.04032668844 -0.2143633366 0.08283529431 8.742304551e-39
0.1310446709 -0.3207640648 0.09054023027 8.742304551e-39
0.05424654856 -0.2062896341 0.02660142072 8.742304551e-39
0.08694275469 -0.2395517826 0.06187630445 8.742304551e-39
0.03071398661 -0.2094390839 0.08562748879 8.742304551e-39
0.1221564114 -0.3152070045 0.09381574392 8.742304551e-39
0.0148204593 -0.1995176524 0.03898593411 8.742304551e-39
0.1601446569 -0.3111195266 0.04182480648 8.742304551e-39
0.07030215114 -0.2249112725 0.06887643784 8.742304551e-39
0.1413979977 -0.3169339001 0.06995125115 8.742304551e-39
0.1281634867 -0.2679026127 0.02538454719 8.742304551e-39
0.1331934035 -0.2931439579 0.04349239916 8.742304551e-39
0.05207980797 -0.2185518593 0.07710051537 8.742304551e-39
0.134718895 -0.3194485307 0.081104137 8.742304551e-39
0.08714628965 -0.2238307744 0.024906395 8.742304551e-39
0.1213856339 -0.2802785039 0.04678905383 8.742304551e-39
0.04786457121 -0.2172973901 0.07980323583 8.742304551e-39
0.1309453249 -0.3186918497 0.08519114554 8.742304551e-39
0.06351326406 -0.2101493925 0.02786267921 8.742304551e-39
0.1331927627 -0.2931434214 0.04349243641 8.742304551e-39
0.05207959935 -0.2185518146 0.07710061222 8.742304551e-39
0.1347187608 -0.3194485307 0.08110427111 8.742304551e-39
0.08714524657 -0.2238301337 0.02490646951 8.742304551e-39
0.1331914514 -0.2931425571 0.04349257797 8.742304551e-39
0.05207920447 -0.2185516953 0.07710082084 8.742304551e-39
0.1347184926 -0.3194485307 0.08110462874 8.742304551e-39
0.08714328706 -0.2238287926 0.02490673773 8.742304551e-39
-0.09342031181 -0.2515375018 -0.05159971863 8.012284103e-39
-0.0471197851 -0.243618086 -0.1256268919 8.012284103e-39
-0.08584359288 -0.2423969507 -0.02592932433 8.012284103e-39
-0.08693968505 -0.2473334223 -0.07275583595 8.012284103e-39
-0.03412432969 -0.2452171892 -0.1339080632 8.012284103e-39
-0.01829062589 -0.2427528948 -0.1398501694 8.012284103e-39
-0.08123678714 -0.2366804481 0.01102149207 8.012284103e-39
-0.08528082073 -0.2474275976 -0.08464974165 8.012284103e-39
-1.659989357e-05 -0.2427415401 -0.1511116475 8.012284103e-39
-0.003395812586 -0.2417149395 -0.1425374001 8.012284103e-39
-0.07880275697 -0.2357714325 0.01753316633 8.012284103e-39
-0.08059288561 -0.2459494621 -0.08891896158 8.012284103e-39
-0.09483987093 -0.2527593672 -0.08443619311 8.012284103e-39
-0.04514789954 -0.2447292954 -0.1245967373 8.012284103e-39
-0.08584922552 -0.2430049777 -0.02424756065 8.012284103e-39
-0.08808533847 -0.2491443753 -0.07869229466 8.012284103e-39
-0.0650581792 -0.245450303 -0.1164335981 8.012284103e-39
-0.02720241249 -0.243986249 -0.1326810569 8.012284103e-39
-0.0824977532 -0.2395531535 -0.007070438471 8.012284103e-39
-0.08507389575 -0.247490555 -0.083952941 8.012284103e-39
-0.03529470786 -0.2454385906 -0.1316517442 8.012284103e-39
-0.02057456411 -0.243146345 -0.1356781274 8.012284103e-39
-0.0810945183 -0.2384491563 0.0007946564001 8.012284103e-39
-0.08477003127 -0.2474231571 -0.08500640839 8.012284103e-39
-0.0650568828 -0.245450303 -0.1164342314 8.012284103e-39
-0.02720201015 -0.2439861894 -0.1326812506 8.012284103e-39
-0.0824977085 -0.2395531237 -0.007070073392 8.012284103e-39
-0.08507388085 -0.2474905699 -0.0839529708 8.012284103e-39
-0.0650543347 -0.2454502136 -0.1164354384 8.012284103e-39
-0.02720134892 -0.2439861 -0.1326815337 8.012284103e-39
-0.08249756694 -0.2395529896 -0.007069395389 8.012284103e-39
-0.08507385105 -0.2474905699 -0.08395305276 8.012284103e-39
-0.182545647 -0.3414608836 -0.04594930261 7.281903522e-39
-0.174444586 -0.3127377331 0.1026498526 7.281903522e-39
-0.1861227304 -0.3277066648 -0.002967676846 7.281903522e-39
-0.1771492958 -0.3726626635 -0.05641290918 7.281903522e-39
-0.1765467227 -0.3660537302 -0.08449510485 7.281903522e-39
-0.168464303 -0.3168014288 0.1591465622 7.281903522e-39
-0.1836903691 -0.3092755377 0.05320722237 7.281903522e-39
-0.1780522615 -0.3469923735 0.002119001467 7.281903522e-39
-0.1704075038 -0.369086951 -0.09016849101 7.281903522e-39
-0.1616462618 -0.3177336156 0.1638163924 7.281903522e-39
-0.1819522381 -0.3094673157 0.06827874482 7.281903522e-39
-0.1780416965 -0.3425913155 0.02786804922 7.281903522e-39
-0.1823385656 -0.3449043632 -0.05026969314 7.281903522e-39
-0.1731531173 -0.3137180805 0.1129532829 7.281903522e-39
-0.186384216 -0.3269114196 -0.001085385215 7.281903522e-39
-0.1765928864 -0.3736447692 -0.05698917434 7.281903522e-39
-0.1806019545 -0.3574709296 -0.06168332696 7.281903522e-39
-0.1704997569 -0.3156211078 0.1394971013 7.281903522e-39
-0.1848363876 -0.3099900186 0.03614618257 7.281903522e-39
-0.1781669557 -0.3499858081 -0.02406163141 7.281903522e-39
-0.1793705225 -0.363025099 -0.07195285708 7.281903522e-39
-0.1695309877 -0.3162199855 0.1489198357 7.281903522e-39
-0.1842208505 -0.3091720045 0.0461326614 7.281903522e-39
-0.1783948243 -0.3478040397 -0.007831197232 7.281903522e-39
-0.1806019098 -0.357471168 -0.06168358773 7.281903522e-39
-0.1704997122 -0.3156211078 0.1394975483 7.281903522e-39
-0.1848363876 -0.3099897206 0.03614677861 7.281903522e-39
-0.1781669557 -0.3499852419 -0.02406093106 7.281903522e-39
-0.1806018203 -0.3574715555 -0.06168395281 7.281903522e-39
-0.1704996526 -0.3156211674 0.1394982487 7.281903522e-39
-0.1848363578 -0.3099890351 0.03614792228 7.281903522e-39
-0.178166911 -0.3499841988 -0.02405959181 7.281903522e-39
-0.09439594299 -0.2850560248 0.1366384029 6.55152294e-39
-0.1289944202 -0.2516386807 -0.09347546101 6.55152294e-39
-0.1444077343 -0.268863529 -0.03041919693 6.55152294e-39
-0.150737986 -0.2894320786 0.04106140509 6.55152294e-39
-0.08890106529 -0.3014016151 0.1559861451 6.55152294e-39
-0.1292533576 -0.2528674603 -0.1031747237 6.55152294e-39
-0.13642627 -0.2699513733 0.06573604047 6.55152294e-39
-0.1521369368 -0.2801734209 -0.01728568599 6.55152294e-39
-0.09076532722 -0.3023848534 0.1561132669 6.55152294e-39
-0.1327627599 -0.2526350319 -0.09074597806 6.55152294e-39
-0.1332107484 -0.2703814805 0.07989294082 6.55152294e-39
-0.1512111276 -0.2766967416 -0.03302719072 6.55152294e-39
-0.09846298397 -0.2855698168 0.135894388 6.55152294e-39
-0.1290976107 -0.2492751926 -0.09035345167 6.55152294e-39
-0.141193077 -0.2623824477 -0.02490756661 6.55152294e-39
-0.149883002 -0.2849012911 0.03966449574 6.55152294e-39
-0.09760595113 -0.2910272181 0.1432022005 6.55152294e-39
-0.1294941157 -0.2490157932 -0.09227771312 6.55152294e-39
-0.1387904882 -0.2685516477 0.04470389336 6.55152294e-39
-0.1512513608 -0.2811872959 0.0007462276844 6.55152294e-39
-0.09483737499 -0.2956840694 0.1485848576 6.55152294e-39
-0.1299405694 -0.2495000958 -0.09236770123 6.55152294e-39
-0.1365043074 -0.2683117688 0.06000253558 6.55152294e-39
-0.1517331451 -0.2795337141 -0.01282770187 6.55152294e-39
-0.09760587662 -0.2910273671 0.1432023495 6.55152294e-39
-0.1294941455 -0.2490157634 -0.09227771312 6.55152294e-39
-0.1387904435 -0.2685516775 0.04470452666 6.55152294e-39
-0.1512513608 -0.2811872363 0.0007456390886 6.55152294e-39
-0.09760575742 -0.2910276353 0.1432026476 6.55152294e-39
-0.1294941753 -0.249015823 -0.09227775782 6.55152294e-39
-0.1387902647 -0.2685517073 0.0447056368 6.55152294e-39
-0.1512513608 -0.2811869681 0.0007445773808 6.55152294e-39
-0.09443525225 -0.4709928632 -0.0575690791 5.820783626e-39
-0.03906030208 -0.4463663101 -0.1185998693 5.820783626e-39
-0.1517968774 -0.4674386084 -0.004553867504 5.820783626e-39
-0.1119358018 -0.4668621123 -0.05697971955 5.820783626e-39
-0.04944128171 -0.467453599 -0.08534672111 5.820783626e-39
-0.006151700858 -0.4436582327 -0.1206558496 5.820783626e-39
-0.05970726535 -0.478036195 -0.0540923439 5.820783626e-39
-0.0851578638 -0.4568518102 -0.09490099549 5.820783626e-39
-0.04157350957 -0.4659014046 -0.09210004658 5.820783626e-39
0.00496238051 -0.4470137656 -0.1179181039 5.820783626e-39
-0.04771086574 -0.4775764942 -0.06577028334 5.820783626e-39
-0.07151573896 -0.4540896118 -0.1036462188 5.820783626e-39
-0.08451183885 -0.4694032073 -0.06406162679 5.820783626e-39
-0.03115757927 -0.4461058676 -0.1192839146 5.820783626e-39
-0.125514254 -0.4701866806 -0.008444733918 5.820783626e-39
-0.1066080928 -0.4659558237 -0.06450045854 5.820783626e-39
-0.05868470669 -0.4681551158 -0.07687515765 5.820783626e-39
-0.01996420324 -0.4469239712 -0.1193190068 5.820783626e-39
-0.08402943611 -0.4768582284 -0.03088634461 5.820783626e-39
-0.09220923483 -0.460893333 -0.08309294283 5.820783626e-39
-0.05132703111 -0.466976583 -0.08404837549 5.820783626e-39
-0.0135286171 -0.4468515515 -0.1187687516 5.820783626e-39
-0.0672994554 -0.4783697724 -0.04525742307 5.820783626e-39
-0.08710885793 -0.4587869942 -0.0895222649 5.820783626e-39
-0.05868429691 -0.4681550264 -0.07687554508 5.820783626e-39
-0.01996394619 -0.4469239116 -0.1193189695 5.820783626e-39
-0.0840286389 -0.4768584371 -0.03088685125 5.820783626e-39
-0.09220899642 -0.4608932137 -0.08309328556 5.820783626e-39
-0.05868364498 -0.4681549072 -0.07687617838 5.820783626e-39
-0.01996346936 -0.4469239116 -0.1193189546 5.820783626e-39
-0.08402708173 -0.4768587947 -0.03088781051 5.820783626e-39
-0.09220858663 -0.4608930647 -0.08309385926 5.820783626e-39
-0.1544355452 -0.2937406003 0.04672627896 5.090401643e-39
-0.1388608515 -0.2954700887 -0.01287469082 5.090401643e-39
-0.1119877771 -0.3041922152 0.1461195499 5.090401643e-39
-0.09965388477 -0.3007552028 0.1492127329 5.090401643e-39
-0.1606852859 -0.2938846946 -0.04297537357 5.090401643e-39
-0.1273737401 -0.2632927001 -0.08785019815 5.090401643e-39
-0.1371980011 -0.3000234365 0.09679975361 5.090401643e-39
-0.1029670984 -0.305102706 0.1589506865 5.090401643e-39
-0.1590042561 -0.2929702401 -0.05203970894 5.090401643e-39
-0.1266551316 -0.2668485343 -0.09667069465 5.090401643e-39
-0.1502759755 -0.2959522605 0.06551382691 5.090401643e-39
-0.1064731851 -0.3070136011 0.1611987948 5.090401643e-39
-0.1617460996 -0.2884174883 0.01740888692 5.090401643e-39
-0.1378510594 -0.2954623997 -0.04287400842 5.090401643e-39
-0.1202585176 -0.3040109277 0.135457769 5.090401643e-39
-0.102882728 -0.3022820055 0.1486398578 5.090401643e-39
-0.1620601714 -0.2930820882 -0.03155086935 5.090401643e-39
-0.134856984 -0.2837155461 -0.06945519894 5.090401643e-39
-0.1343809217 -0.3002692759 0.1019304246 5.090401643e-39
-0.1064428017 -0.3032968342 0.1485541463 5.090401643e-39
-0.160701111 -0.2936191559 -0.04002267867 5.090401643e-39
-0.1316803843 -0.2737013996 -0.0798772648 5.090401643e-39
-0.141076833 -0.2988739312 0.08703146875 5.090401643e-39
-0.1073900536 -0.3044010401 0.1516091228 5.090401643e-39
-0.1620601118 -0.2930821776 -0.03155159205 5.090401643e-39
-0.1348568797 -0.2837152481 -0.06945566833 5.090401643e-39
-0.1343812644 -0.3002692163 0.1019295529 5.090401643e-39
-0.1064428538 -0.3032968342 0.1485542506 5.090401643e-39
-0.1620600075 -0.2930823565 -0.03155295923 5.090401643e-39
-0.1348567158 -0.2837146223 -0.0694565028 5.090401643e-39
-0.1343819201 -0.3002690971 0.1019281223 5.090401643e-39
-0.1064429656 -0.3032969534 0.1485544741 5.090401643e-39
0.1622907966 -0.3501864076 0.07113920897 4.359662329e-39
0.1985794455 -0.3211708069 -0.04945070297 4.359662329e-39
0.1886072308 -0.3349167705 0.02345025167 4.359662329e-39
0.2013203949 -0.3317596018 -0.01848903485 4.359662329e-39
0.1301348656 -0.3718680739 0.109404847 4.359662329e-39
0.1901165396 -0.338752538 -0.03615144268 4.359662329e-39
0.1578775495 -0.353159368 0.07183432579 4.359662329e-39
0.199727267 -0.3269600868 -0.08189164102 4.359662329e-39
0.1400994062 -0.3748242855 0.09734704345 4.359662329e-39
0.1865134686 -0.3504917622 -0.0161388889 4.359662329e-39
0.1439630538 -0.3640007377 0.08827521652 4.359662329e-39
0.1950444579 -0.3304481208 -0.1000769511 4.359662329e-39
0.1596737206 -0.3551940918 0.07574502379 4.359662329e-39
0.1970314533 -0.3221770823 -0.04461381957 4.359662329e-39
0.1786830872 -0.342569977 0.04552607611 4.359662329e-39
0.2015918344 -0.3315494955 -0.02459095046 4.359662329e-39
0.1405570209 -0.3664498329 0.09643507004 4.359662329e-39
0.1933223307 -0.3318506181 -0.03875733912 4.359662329e-39
0.1655422151 -0.3515268862 0.06222299486 4.359662329e-39
0.2040538937 -0.3228235841 -0.05680881441 4.359662329e-39
0.1366015822 -0.3695629239 0.1023492664 4.359662329e-39
0.1913543791 -0.3370863497 -0.03540182486 4.359662329e-39
0.1585306972 -0.355476737 0.0711973235 4.359662329e-39
0.2016394138 -0.3245352805 -0.06976597011 4.359662329e-39
0.1405567974 -0.3664499521 0.09643539786 4.359662329e-39
0.1933222264 -0.3318508565 -0.03875719756 4.359662329e-39
0.1655419171 -0.3515270948 0.06222343445 4.359662329e-39
0.2040538043 -0.3228236437 -0.05680942163 4.359662329e-39
0.1405563951 -0.3664501905 0.09643597901 4.359662329e-39
0.1933220774 -0.3318512142 -0.03875699639 4.359662329e-39
0.1655413061 -0.3515274823 0.06222423911 4.359662329e-39
0.2040536404 -0.3228236437 -0.05681047589 4.359662329e-39
-0.08733000606 -0.327637583 -0.1686594486 3.628921614e-39
-0.1255215257 -0.305438906 -0.1337619424 3.628921614e-39
-0.03128929809 -0.3536539674 -0.1840668768 3.628921614e-39
-0.07382569462 -0.3287051916 -0.171522826 3.628921614e-39
-0.1448464394 -0.299215585 -0.1256907135 3.628921614e-39
-0.1598747373 -0.2973205149 -0.09508990496 3.628921614e-39
0.008697945625 -0.3656919301 -0.1874385625 3.628921614e-39
-0.0590869002 -0.3386847973 -0.1782538891 3.628921614e-39
-0.1573104113 -0.2990178168 -0.1019095108 3.628921614e-39
-0.1683627367 -0.2983669639 -0.08193531632 3.628921614e-39
0.02087826096 -0.367585361 -0.1884000152 3.628921614e-39
-0.05677217245 -0.3388940096 -0.1778599918 3.628921614e-39
-0.09627470374 -0.3218900561 -0.1616723537 3.628921614e-39
-0.1353864074 -0.297415942 -0.1220082864 3.628921614e-39
-0.03582544252 -0.3516488969 -0.179849118 3.628921614e-39
-0.07634270191 -0.3217274547 -0.167285189 3.628921614e-39
-0.1160932481 -0.3125318289 -0.1459723562 3.628921614e-39
-0.1431814432 -0.2914372087 -0.1112892255 3.628921614e-39
-0.01130958833 -0.3594509363 -0.1822065264 3.628921614e-39
-0.0707474947 -0.3285333216 -0.1720644981 3.628921614e-39
-0.1320765465 -0.3037393093 -0.1326938421 3.628921614e-39
-0.149258405 -0.2921903729 -0.1052209735 3.628921614e-39
-0.0006673483877 -0.3624397218 -0.1840808094 3.628921614e-39
-0.0639533177 -0.3337306976 -0.1748895198 3.628921614e-39
-0.1160938516 -0.3125314116 -0.1459718496 3.628921614e-39
-0.1431815475 -0.2914371789 -0.1112891212 3.628921614e-39
-0.01130906679 -0.3594510555 -0.1822066009 3.628921614e-39
-0.07074727118 -0.3285335004 -0.1720644981 3.628921614e-39
-0.1160950437 -0.3125306666 -0.1459708363 3.628921614e-39
-0.143181771 -0.2914370596 -0.1112889349 3.628921614e-39
-0.01130818762 -0.3594514132 -0.1822067499 3.628921614e-39
-0.07074688375 -0.3285337985 -0.1720645279 3.628921614e-39
-0.1447900534 -0.4025316238 -0.1241280586 2.898180898e-39
-0.1119391993 -0.3932312131 -0.1402860731 2.898180898e-39
-0.04845905676 -0.3673976064 -0.1719868928 2.898180898e-39
-0.08394300193 -0.3680949211 -0.1610194445 2.898180898e-39
-0.1640975475 -0.4090856314 -0.08012036234 2.898180898e-39
-0.1614232212 -0.4013421237 -0.106076993 2.898180898e-39
-0.02122574486 -0.3698636293 -0.1763823032 2.898180898e-39
-0.05594975501 -0.3669131696 -0.1716812551 2.898180898e-39
-0.1776499301 -0.4066800475 -0.06082529202 2.898180898e-39
-0.1605640054 -0.401819855 -0.1008205786 2.898180898e-39
-0.02008594014 -0.3705653846 -0.1760285944 2.898180898e-39
-0.04186753556 -0.3672075868 -0.1746641994 2.898180898e-39
-0.147348389 -0.4038185179 -0.1184444502 2.898180898e-39
-0.1086772159 -0.3946341574 -0.1389122456 2.898180898e-39
-0.04742264003 -0.3673098981 -0.1722997278 2.898180898e-39
-0.07938614488 -0.3675660193 -0.1634664237 2.898180898e-39
-0.1427955329 -0.4094512463 -0.1062252223 2.898180898e-39
-0.1327830404 -0.4011764824 -0.1255888194 2.898180898e-39
-0.03386349604 -0.3688814044 -0.1743131429 2.898180898e-39
-0.0618221052 -0.3670966029 -0.1696230769 2.898180898e-39
-0.1572814435 -0.408906132 -0.09322688729 2.898180898e-39
-0.1459999979 -0.4022583961 -0.1171420515 2.898180898e-39
-0.02953679301 -0.3694933653 -0.1748320758 2.898180898e-39
-0.05597212538 -0.3667172194 -0.1721810997 2.898180898e-39
-0.1427963525 -0.4094510972 -0.1062246412 2.898180898e-39
-0.1327835023 -0.4011766315 -0.1255884767 2.898180898e-39
-0.03386330232 -0.368881464 -0.1743131727 2.898180898e-39
-0.06182172894 -0.3670966029 -0.1696231961 2.898180898e-39
-0.1427978128 -0.4094510674 -0.1062235236 2.898180898e-39
-0.1327842772 -0.4011768699 -0.1255878806 2.898180898e-39
-0.03386306763 -0.3688815236 -0.1743131429 2.898180898e-39
-0.06182101369 -0.3670965135 -0.1696234196 2.898180898e-39
-0.144519791 -0.3682249486 -0.1124208495 2.167082852e-39
-0.1156250313 -0.2529355288 0.0497347042 2.167082852e-39
-0.07823932916 -0.338892132 0.112883009 2.167082852e-39
-0.1552628577 -0.3188227415 0.02124536596 2.167082852e-39
-0.1654390395 -0.3452224731 -0.05647055805 2.167082852e-39
-0.1399782002 -0.2725510299 0.02200969122 2.167082852e-39
-0.1521111429 -0.353978157 0.04976492003 2.167082852e-39
-0.07601579279 -0.2953146398 0.09666831046 2.167082852e-39
-0.1811903119 -0.3305293024 -0.03577015549 2.167082852e-39
-0.1599262059 -0.2963790298 0.001839658013 2.167082852e-39
-0.1737066656 -0.3634168506 0.02640288509 2.167082852e-39
-0.07229528576 -0.2934004962 0.09885886312 2.167082852e-39
-0.1467942148 -0.3622947931 -0.1077098995 2.167082852e-39
-0.1246549487 -0.2616714537 0.03700117767 2.167082852e-39
-0.10534776 -0.3441000283 0.09839498252 2.167082852e-39
-0.1606744528 -0.3298472166 0.02029827051 2.167082852e-39
-0.1526540816 -0.3547467887 -0.07477295399 2.167082852e-39
-0.1350057721 -0.2710417211 0.02720199525 2.167082852e-39
-0.1348040551 -0.343126148 0.06864649802 2.167082852e-39
-0.1055808887 -0.2959827781 0.07465689629 2.167082852e-39
-0.162939325 -0.3497678638 -0.05784519762 2.167082852e-39
-0.1394293159 -0.2751629651 0.02306845412 2.167082852e-39
-0.1497061402 -0.3520465493 0.05215240642 2.167082852e-39
-0.09110552818 -0.2968077362 0.08580424637 2.167082852e-39
-0.1526545286 -0.3547468185 -0.07477208972 2.167082852e-39
-0.135005936 -0.2710418999 0.02720182389 2.167082852e-39
-0.1348046958 -0.3431262076 0.06864573807 2.167082852e-39
-0.1055802703 -0.2959829271 0.07465723157 2.167082852e-39
-0.1526553035 -0.3547466397 -0.07477040589 2.167082852e-39
-0.1350062639 -0.2710421979 0.02720153518 2.167082852e-39
-0.1348057687 -0.3431260586 0.06864439696 2.167082852e-39
-0.1055791825 -0.2959833443 0.07465788722 2.167082852e-39
0.1531073302 -0.303635776 0.009639057331 1.435982003e-39
0.1578828543 -0.3238804042 -0.07268022746 1.435982003e-39
0.1349700987 -0.2723355293 0.06870753318 1.435982003e-39
0.1698556393 -0.3188663721 0.01309506968 1.435982003e-39
0.1448105872 -0.2918713689 0.0411673896 1.435982003e-39
0.1548079848 -0.3315125406 -0.08958405256 1.435982003e-39
0.1239527985 -0.2802012265 0.02319438756 1.435982003e-39
0.1771163046 -0.3303252459 0.02329730801 1.435982003e-39
0.138463527 -0.2734690309 0.0761308372 1.435982003e-39
0.1538596004 -0.331659168 -0.08690937608 1.435982003e-39
0.1220404059 -0.2802813053 0.02175446227 1.435982003e-39
0.1794972867 -0.336941123 0.01713827252 1.435982003e-39
0.1479637474 -0.2965184748 0.01363352407 1.435982003e-39
0.1579318196 -0.3258696198 -0.06781840324 1.435982003e-39
0.1294514239 -0.2628411651 0.08185265213 1.435982003e-39
0.1727796048 -0.3175601065 0.03141543269 1.435982003e-39
0.1459567249 -0.2937317193 0.02995262295 1.435982003e-39
0.1554600745 -0.3292579651 -0.0773063153 1.435982003e-39
0.1251429468 -0.2739664614 0.04300079867 1.435982003e-39
0.1743098795 -0.3238763511 0.03055768646 1.435982003e-39
0.1433345675 -0.2891095877 0.04515333846 1.435982003e-39
0.1547723562 -0.3303746581 -0.0809488818 1.435982003e-39
0.1227669567 -0.2764983177 0.02796873823 1.435982003e-39
0.1758516431 -0.3274129331 0.02844867483 1.435982003e-39
0.1459565759 -0.2937315702 0.0299533084 1.435982003e-39
0.15546 -0.3292580247 -0.07730641961 1.435982003e-39
0.1251428872 -0.2739667296 0.04300004244 1.435982003e-39
0.1743099988 -0.3238765597 0.03055776469 1.435982003e-39
0.1459562629 -0.293731153 0.0299544856 1.435982003e-39
0.1554599404 -0.3292580843 -0.07730664313 1.435982003e-39
0.1251427978 -0.2739672959 0.04299846292 1.435982003e-39
0.1743102074 -0.3238767982 0.03055789322 1.435982003e-39
-0.1674761027 -0.3818468153 -0.0817091912 7.045238224e-40
-0.1844771057 -0.3926751614 0.06349614263 7.045238224e-40
-0.176768139 -0.3843025267 -0.02769170329 7.045238224e-40
-0.1838384271 -0.3998585939 0.01714508608 7.045238224e-40
-0.1405909061 -0.3699221611 -0.1455256939 7.045238224e-40
-0.1772301644 -0.4027739167 -0.02473356389 7.045238224e-40
-0.1698570251 -0.381685853 -0.07341217995 7.045238224e-40
-0.1858329475 -0.3998614252 0.07169830799 7.045238224e-40
-0.1366217732 -0.3712626398 -0.1467757672 7.045238224e-40
-0.1760599315 -0.4003504515 -0.04312266782 7.045238224e-40
-0.1676478535 -0.3809679449 -0.08114373684 7.045238224e-40
-0.183429867 -0.4000653625 0.07945629954 7.045238224e-40
-0.157270506 -0.3821692169 -0.108032532 7.045238224e-40
-0.1858372241 -0.3961983621 0.03455500677 7.045238224e-40
-0.1760802418 -0.3852744699 -0.03853862733 7.045238224e-40
-0.1836681962 -0.4039622843 0.01677044481 7.045238224e-40
-0.1476951838 -0.375274986 -0.1334245503 7.045238224e-40
-0.1779666543 -0.401030302 -0.01057585422 7.045238224e-40
-0.1727354378 -0.3838202655 -0.06276112795 7.045238224e-40
-0.1883355826 -0.403190285 0.04624187574 7.045238224e-40
-0.145460695 -0.3731966019 -0.139383018 7.045238224e-40
-0.1773014814 -0.4016517699 -0.02441464923 7.045238224e-40
-0.1704979539 -0.38270998 -0.07122698426 7.045238224e-40
-0.1883470714 -0.4024380445 0.05972959101 7.045238224e-40
-0.1476950943 -0.375274837 -0.1334248483 7.045238224e-40
-0.1779666096 -0.4010303319 -0.01057665888 7.045238224e-40
-0.1727353781 -0.3838203251 -0.06276154518 7.045238224e-40
-0.1883355975 -0.4031903148 0.04624238983 7.045238224e-40
-0.1476949304 -0.375274688 -0.1334253103 7.045238224e-40
-0.1779665202 -0.4010304213 -0.01057817787 7.045238224e-40
-0.1727352887 -0.3838202357 -0.062762402 7.045238224e-40
-0.188335672 -0.403190434 0.04624333978 7.045238224e-40
-0.08570101857 -0.3748758733 0.13470909 6.490113838e-41
0.02091661096 -0.4331611395 0.1668166816 6.490113838e-41
0.06683689356 -0.4538481832 0.1584535837 6.490113838e-41
-0.05730688199 -0.3946663141 0.1544931382 6.490113838e-41
-0.0366467014 -0.4491490722 0.182134524 6.490113838e-41
0.0326244086 -0.4491916895 0.1700019389 6.490113838e-41
0.1009907871 -0.4711522162 0.1572987884 6.490113838e-41
-0.1224318817 -0.3734832406 0.124659583 6.490113838e-41
-0.00100305269 -0.4740747511 0.1932239383 6.490113838e-41
0.04315719381 -0.4582670927 0.1705651581 6.490113838e-41
0.1097484604 -0.4765732288 0.1572354287 6.490113838e-41
-0.1262336969 -0.3747355342 0.1243425757 6.490113838e-41
-0.08342116326 -0.3953250349 0.1493100524 6.490113838e-41
0.0225647036 -0.4350200295 0.1671982408 6.490113838e-41
0.07111316919 -0.458714813 0.1603216678 6.490113838e-41
-0.07081460208 -0.3870270848 0.1470705718 6.490113838e-41
-0.07119609416 -0.4217663109 0.1647187769 6.490113838e-41
0.02733548172 -0.4437934458 0.1695573926 6.490113838e-41
0.08905819803 -0.465446949 0.1587339193 6.490113838e-41
-0.0958712548 -0.3825522661 0.1381197274 6.490113838e-41
-0.04924580082 -0.4404281378 0.1765388399 6.490113838e-41
0.03096242808 -0.4476035535 0.1699108481 6.490113838e-41
0.09596010298 -0.4687966406 0.1581815183 6.490113838e-41
-0.1126703024 -0.3777744174 0.1304753572 6.490113838e-41
-0.07119549811 -0.4217670858 0.164719224 6.490113838e-41
0.02733560093 -0.4437935054 0.1695574522 6.490113838e-41
0.08905845135 -0.4654470384 0.1587338597 6.490113838e-41
-0.09587195516 -0.3825520575 0.1381194293 6.490113838e-41
-0.07119439542 -0.4217683673 0.1647200882 6.490113838e-41
0.02733581699 -0.4437938333 0.1695575118 6.490113838e-41
0.08905908465 -0.4654473066 0.1587338299 6.490113838e-41
-0.09587320685 -0.3825516105 0.1381188184 6.490113838e-41
0.02114141174 -0.2616128027 -0.1365465224 8.028094954e-40
-0.03261935338 -0.2624675333 -0.1414009333 8.028094954e-40
-0.1004355401 -0.2337181866 -0.07905163616 8.028094954e-40
-0.01064442098 -0.2638461888 -0.1377213299 8.028094954e-40
-0.00108385412 -0.2646677494 -0.1357491016 8.028094954e-40
-0.09021860361 -0.2454424053 -0.09348808229 8.028094954e-40
-0.1289785057 -0.224826023 0.0469391644 8.028094954e-40
-0.1127433181 -0.2267519385 -0.06735306233 8.028094954e-40
-0.01948509365 -0.2654584348 -0.1357814819 8.028094954e-40
-0.1024909765 -0.2400458455 -0.07756581903 8.028094954e-40
-0.1297529489 -0.223375693 0.0701815635 8.028094954e-40
-0.1269788891 -0.2269127965 -0.04727756977 8.028094954e-40
0.0211930871 -0.2619285285 -0.1362662315 8.028094954e-40
-0.03873774782 -0.2624588311 -0.1402021199 8.028094954e-40
-0.1082032025 -0.2300074399 -0.05426016822 8.028094954e-40
-0.02663464285 -0.2633984983 -0.1368113011 8.028094954e-40
0.003272801172 -0.2640681267 -0.1359947324 8.028094954e-40
-0.0779343769 -0.2515489459 -0.1131571606 8.028094954e-40
-0.124413915 -0.2271267772 0.01247656438 8.028094954e-40
-0.08311459422 -0.2439060658 -0.1083058193 8.028094954e-40
-0.005053022876 -0.2648620009 -0.1358939111 8.028094954e-40
-0.08495659381 -0.248626098 -0.1010716558 8.028094954e-40
-0.1279215515 -0.2255879641 0.03201971576 8.028094954e-40
-0.1030275002 -0.2316289693 -0.083495453 8.028094954e-40
0.00327226473 -0.2640681863 -0.1359947175 8.028094954e-40
-0.07793461531 -0.2515487969 -0.1131567806 8.028094954e-40
-0.124414064 -0.227126658 0.0124774361 8.028094954e-40
-0.08311571926 -0.2439055741 -0.108304821 8.028094954e-40
0.003271251451 -0.2640682757 -0.1359947026 8.028094954e-40
-0.07793507725 -0.2515485287 -0.1131560951 8.028094954e-40
-0.1244143844 -0.2271265388 0.01247894019 8.028094954e-40
-0.08311785012 -0.2439046502 -0.1083028987 8.028094954e-40
0.006010305602 -0.3276386857 -0.1702674776 1.540360521e-39
0.1479845494 -0.3018037677 -0.06857948005 1.540360521e-39
-0.026542034 -0.3327530921 -0.1749292463 1.540360521e-39
0.1246276647 -0.2905725837 -0.1294102967 1.540360521e-39
0.1079692021 -0.3001584113 -0.14963983 1.540360521e-39
0.1744889915 -0.288417846 0.0203027688 1.540360521e-39
-0.00752035901 -0.3407977521 -0.1694849432 1.540360521e-39
0.146777764 -0.277933985 -0.05057601631 1.540360521e-39
0.1444227695 -0.2709321678 -0.0990895927 1.540360521e-39
0.1774998158 -0.2861878574 0.03853965178 1.540360521e-39
-0.0003959871538 -0.3406196535 -0.1673801094 1.540360521e-39
0.1559208483 -0.2757673562 -0.02008953877 1.540360521e-39
0.02839769423 -0.3174768686 -0.1660852581 1.540360521e-39
0.1523440182 -0.3004000783 -0.04818018153 1.540360521e-39
-0.02274684794 -0.3335531056 -0.1708698571 1.540360521e-39
0.1283005476 -0.2900093496 -0.1229600757 1.540360521e-39
0.06947322935 -0.3126077652 -0.1630437523 1.540360521e-39
0.1662049443 -0.2899331152 -0.007885985076 1.540360521e-39
-0.006976588164 -0.3379864693 -0.1684398502 1.540360521e-39
0.1432127655 -0.2787830532 -0.07543603331 1.540360521e-39
0.1007832587 -0.3035447001 -0.1513298154 1.540360521e-39
0.1708488762 -0.2886765301 0.0096027283 1.540360521e-39
-0.0001775324345 -0.3396007419 -0.1674036831 1.540360521e-39
0.1470576972 -0.2780914009 -0.05148015544 1.540360521e-39
0.06947438419 -0.3126073778 -0.1630433947 1.540360521e-39
0.1662051529 -0.2899330556 -0.007885196246 1.540360521e-39
-0.00697615603 -0.3379865587 -0.1684398204 1.540360521e-39
0.1432129592 -0.2787830532 -0.07543474436 1.540360521e-39
0.06947664171 -0.3126067817 -0.1630427837 1.540360521e-39
0.1662055254 -0.289932996 -0.0078839669 1.540360521e-39
-0.006975362543 -0.3379867077 -0.1684396863 1.540360521e-39
0.1432131976 -0.2787829638 -0.07543234527 1.540360521e-39
0.03429297358 -0.2558973134 0.09884078801 2.277910146e-39
-0.04474453256 -0.2675064206 0.09910906851 2.277910146e-39
0.08507847786 -0.2704026401 0.1022365689 2.277910146e-39
-0.03470934927 -0.2678476572 0.09938587993 2.277910146e-39
0.1016093269 -0.2712257206 0.09786387533 2.277910146e-39
-0.02549435385 -0.2654577792 0.1019459516 2.277910146e-39
0.1452353895 -0.2942916155 0.103190355 2.277910146e-39
0.0143012898 -0.2631035745 0.1093681976 2.277910146e-39
0.1166608706 -0.279837817 0.1029627994 2.277910146e-39
0.0002731271088 -0.2643787563 0.107250452 2.277910146e-39
0.1564300656 -0.3015136421 0.1036728173 2.277910146e-39
0.0471291393 -0.2662389576 0.1099324971 2.277910146e-39
0.04594506323 -0.2600601017 0.1015630364 2.277910146e-39
-0.02692346275 -0.2663292587 0.1022069752 2.277910146e-39
0.09579759836 -0.2734340727 0.1029813662 2.277910146e-39
-0.02261691354 -0.2666234672 0.1017560065 2.277910146e-39
0.08624922484 -0.2694004774 0.1006132066 2.277910146e-39
-0.02674001828 -0.2654691339 0.101676859 2.277910146e-39
0.1256164312 -0.2844688892 0.1030329689 2.277910146e-39
-0.006901873741 -0.2645457089 0.1059114337 2.277910146e-39
0.09741040319 -0.2722121775 0.1006504074 2.277910146e-39
-0.02358725481 -0.2652722895 0.1022316664 2.277910146e-39
0.139126569 -0.2899064124 0.1025549695 2.277910146e-39
0.008248145692 -0.2631520033 0.1086593941 2.277910146e-39
0.08624975383 -0.269400686 0.1006131768 2.277910146e-39
-0.0267399177 -0.2654691041 0.1016768813 2.277910146e-39
0.1256170422 -0.2844690979 0.1030329242 2.277910146e-39
-0.006901296321 -0.2645456791 0.1059115678 2.277910146e-39
0.08625074476 -0.2694009244 0.1006131694 2.277910146e-39
-0.02673981152 -0.2654690444 0.1016769037 2.277910146e-39
0.1256181449 -0.2844697237 0.103032887 2.277910146e-39
-0.006900111679 -0.2645455897 0.1059118435 2.277910146e-39
0.0331900008 -0.3164074719 -0.1692031622 3.015101038e-39
0.1074538752 -0.3065092862 -0.1592012793 3.015101038e-39
0.1185482293 -0.2423774302 -0.1188329086 3.015101038e-39
0.1250115335 -0.2964814603 -0.1335460544 3.015101038e-39
-0.05912193656 -0.320610702 -0.1674580425 3.015101038e-39
0.08698131144 -0.3057485223 -0.1627731323 3.015101038e-39
0.07796788961 -0.2734939456 -0.1429305375 3.015101038e-39
0.1246343628 -0.2577131093 -0.1135447174 3.015101038e-39
-0.06897142529 -0.3182798922 -0.1647393852 3.015101038e-39
0.07111366838 -0.3084098399 -0.1658569276 3.015101038e-39
0.06626015157 -0.2818447649 -0.1471236348 3.015101038e-39
0.1208004355 -0.2509668469 -0.1161491647 3.015101038e-39
0.02809941024 -0.3083402514 -0.1662450582 3.015101038e-39
0.1030167565 -0.2997789383 -0.1536402851 3.015101038e-39
0.1059900224 -0.2514377832 -0.1311522424 3.015101038e-39
0.1167690456 -0.2888042033 -0.1350334585 3.015101038e-39
-0.01935276948 -0.3197180331 -0.171394676 3.015101038e-39
0.0944217816 -0.3009904623 -0.1556111127 3.015101038e-39
0.0842763558 -0.2624982893 -0.1396604776 3.015101038e-39
0.1181873083 -0.2679707408 -0.1233481616 3.015101038e-39
-0.04152719676 -0.3201444149 -0.1698893905 3.015101038e-39
0.08594670892 -0.3031949699 -0.1602109522 3.015101038e-39
0.07940538973 -0.2697741985 -0.1417889744 3.015101038e-39
0.1190392897 -0.2606966794 -0.1209731698 3.015101038e-39
-0.01935360208 -0.3197178841 -0.1713946611 3.015101038e-39
0.09442150593 -0.3009905815 -0.1556112319 3.015101038e-39
0.08427599072 -0.2624984682 -0.1396606416 3.015101038e-39
0.1181873083 -0.2679705322 -0.1233480647 3.015101038e-39
-0.01935518906 -0.3197177947 -0.1713946313 3.015101038e-39
0.09442085028 -0.3009907603 -0.155611515 3.015101038e-39
0.08427526802 -0.2624988258 -0.1396609098 3.015101038e-39
0.1181873307 -0.2679699063 -0.1233479157 3.015101038e-39
-0.1412010044 -0.2811824083 0.09720697254 3.75229193e-39
-0.1248540357 -0.2772614658 0.131491825 3.75229193e-39
-0.1532072127 -0.2849969268 0.0185413193 3.75229193e-39
-0.1447207034 -0.3021096289 0.1372487247 3.75229193e-39
-0.1402894408 -0.2793492973 0.08535431325 3.75229193e-39
-0.1198594943 -0.2772786617 0.1336924434 3.75229193e-39
-0.1556764096 -0.2886774242 -0.03294791281 3.75229193e-39
-0.1401533484 -0.328910619 0.1531284451 3.75229193e-39
-0.1410557181 -0.277995795 0.07263796777 3.75229193e-39
-0.1208225787 -0.2764518857 0.1331723183 3.75229193e-39
-0.1519226283 -0.2879963219 -0.04094938189 3.75229193e-39
-0.1396502107 -0.3340154886 0.1564647555 3.75229193e-39
-0.1432715058 -0.2793989182 0.09009493887 3.75229193e-39
-0.1229246333 -0.2742841542 0.1307919174 3.75229193e-39
-0.1528953165 -0.2842558622 0.004838250112 3.75229193e-39
-0.1432624012 -0.3095394671 0.1398805082 3.75229193e-39
-0.142258063 -0.2784387171 0.08150800318 3.75229193e-39
-0.1215297952 -0.274425447 0.13159886 3.75229193e-39
-0.1539879441 -0.2863321602 -0.01638630778 3.75229193e-39
-0.1410535127 -0.3185251653 0.1423961073 3.75229193e-39
-0.1427265257 -0.2786884308 0.07856868953 3.75229193e-39
-0.1209861338 -0.2752178311 0.1322734058 3.75229193e-39
-0.154936254 -0.2880627215 -0.03014525585 3.75229193e-39
-0.140585959 -0.3237158954 0.1472220123 3.75229193e-39
-0.1422580779 -0.2784387767 0.08150777966 3.75229193e-39
-0.1215297952 -0.2744255066 0.1315988749 3.75229193e-39
-0.1539879888 -0.2863322496 -0.01638688892 3.75229193e-39
-0.1410535127 -0.3185252845 0.1423962563 3.75229193e-39
-0.1422581226 -0.2784388065 0.08150736243 3.75229193e-39
-0.1215297356 -0.2744255364 0.1315989196 3.75229193e-39
-0.1539880335 -0.2863323689 -0.01638787985 3.75229193e-39
-0.1410534829 -0.3185254633 0.1423964798 3.75229193e-39
-0.03073405288 -0.3281766474 -0.08580096811 4.48912409e-39
0.09458376467 -0.4564930499 -0.1531606168 4.48912409e-39
0.01994690485 -0.3796635568 -0.1383018196 4.48912409e-39
0.0881016627 -0.4391565323 -0.1439995766 4.48912409e-39
-0.008111954667 -0.2146336436 -0.04072006792 4.48912409e-39
0.09985529631 -0.449714154 -0.1357220262 4.48912409e-39
0.05161045119 -0.3500849009 -0.0890404582 4.48912409e-39
0.1028255671 -0.4652450383 -0.1542448699 4.48912409e-39
0.004086721223 -0.156555444 -0.02635021694 4.48912409e-39
0.1003996208 -0.4447112679 -0.129326582 4.48912409e-39
0.07268276066 -0.3540769517 -0.06521113217 4.48912409e-39
0.1141138971 -0.4677285254 -0.1398998052 4.48912409e-39
-0.02750248276 -0.3340621591 -0.08968515694 4.48912409e-39
0.09613080323 -0.4563802779 -0.1490969956 4.48912409e-39
0.0236441493 -0.362462014 -0.1223799363 4.48912409e-39
0.08339119703 -0.43686831 -0.1467788517 4.48912409e-39
-0.007239926606 -0.3003847599 -0.06880227476 4.48912409e-39
0.1006412357 -0.4545253515 -0.1400827467 4.48912409e-39
0.03736193478 -0.34314695 -0.09756268561 4.48912409e-39
0.09935951978 -0.4595903158 -0.1524502784 4.48912409e-39
-0.004330142401 -0.257822603 -0.05404600129 4.48912409e-39
0.1013326049 -0.4528171122 -0.1374112815 4.48912409e-39
0.04703937098 -0.3381443322 -0.08631686121 4.48912409e-39
0.101929687 -0.4637314379 -0.1537403613 4.48912409e-39
-0.007239438593 -0.3003837764 -0.06880172342 4.48912409e-39
0.1006413251 -0.4545253515 -0.1400825828 4.48912409e-39
0.03736236691 -0.3431464434 -0.09756211191 4.48912409e-39
0.09935962409 -0.4595906436 -0.1524504721 4.48912409e-39
-0.007238515187 -0.3003819287 -0.06880065054 4.48912409e-39
0.1006414294 -0.4545250535 -0.140082255 4.48912409e-39
0.03736311197 -0.3431456089 -0.09756099433 4.48912409e-39
0.0993597731 -0.4595912099 -0.1524508446 4.48912409e-39
-0.1001666933 -0.3346517682 -0.1391833872 5.225597518e-39
-0.1806035787 -0.3482622206 0.0655291006 5.225597518e-39
-0.1839865893 -0.3449214101 0.009868989699 5.225597518e-39
-0.1777118891 -0.3384192884 -0.02854559012 5.225597518e-39
-0.003577574622 -0.3186333776 -0.1873184741 5.225597518e-39
-0.1795019507 -0.3545843959 0.1132712364 5.225597518e-39
-0.1617546678 -0.3318347931 -0.07961574197 5.225597518e-39
-0.1803478152 -0.3412266076 0.04257664084 5.225597518e-39
0.004131524824 -0.3140318692 -0.1852356493 5.225597518e-39
-0.1792450994 -0.3515229821 0.1121430472 5.225597518e-39
-0.1378608793 -0.320229739 -0.1097162813 5.225597518e-39
-0.1806148738 -0.3466252387 0.0681251213 5.225597518e-39
-0.06560209394 -0.3293477595 -0.1588457823 5.225597518e-39
-0.1800338626 -0.344489634 0.05177783594 5.225597518e-39
-0.1818193346 -0.3430201709 -0.02119538747 5.225597518e-39
-0.1780022085 -0.338294059 -0.02390280366 5.225597518e-39
-0.01335464697 -0.3197558224 -0.1826140732 5.225597518e-39
-0.1798200011 -0.3481239974 0.07306727022 5.225597518e-39
-0.1704862863 -0.3369716406 -0.0663517341 5.225597518e-39
-0.1795113534 -0.3366646171 0.01229721587 5.225597518e-39
-0.007974053733 -0.31854406 -0.1842851192 5.225597518e-39
-0.1799180508 -0.3505817354 0.08463168889 5.225597518e-39
-0.1597304344 -0.3311966956 -0.08239927888 5.225597518e-39
-0.1802062541 -0.3394193351 0.03117346391 5.225597518e-39
-0.01335430518 -0.3197557628 -0.182614103 5.225597518e-39
-0.1798200011 -0.3481241167 0.0730676353 5.225597518e-39
-0.170485884 -0.3369714618 -0.06635241956 5.225597518e-39
-0.1795113534 -0.3366646171 0.01229793485 5.225597518e-39
-0.01335374266 -0.3197556138 -0.1826142371 5.225597518e-39
-0.1798200011 -0.3481242657 0.07306838781 5.225597518e-39
-0.1704852432 -0.3369710147 -0.06635370106 5.225597518e-39
-0.1795113683 -0.3366644084 0.01229924709 5.225597518e-39
0.08045741171 -0.2483050078 0.1360055804 5.962428276e-39
-0.05226220563 -0.2607819438 0.1447544247 5.962428276e-39
-0.01509593613 -0.2406802773 0.1245672405 5.962428276e-39
0.02193880826 -0.2637671232 0.1468971968 5.962428276e-39
0.09135739505 -0.2595103383 0.1412718296 5.962428276e-39
-0.1049156561 -0.2585187554 0.132047832 5.962428276e-39
-0.08229469508 -0.2338868231 0.1079595089 5.962428276e-39
0.0008382341475 -0.2667980492 0.151151523 5.962428276e-39
0.08034072071 -0.2600596845 0.1418677121 5.962428276e-39
-0.1132339388 -0.2579979599 0.1254600435 5.962428276e-39
-0.09692718089 -0.2335106879 0.1041655019 5.962428276e-39
0.0177753903 -0.2658389509 0.1499813497 5.962428276e-39
0.0799241066 -0.2478999197 0.135967955 5.962428276e-39
-0.06790172309 -0.2610113919 0.1417698711 5.962428276e-39
-0.03213201463 -0.2393414974 0.1217416003 5.962428276e-39
0.004672105424 -0.2643538713 0.1465498805 5.962428276e-39
0.08048436046 -0.2506064177 0.1373745948 5.962428276e-39
-0.09333181381 -0.2591342032 0.135070309 5.962428276e-39
-0.06291193515 -0.2366233021 0.1160258055 5.962428276e-39
-0.01977184787 -0.2596004307 0.1457256973 5.962428276e-39
0.08703291416 -0.2556344271 0.1396808475 5.962428276e-39
-0.1017024964 -0.258158356 0.1329319179 5.962428276e-39
-0.0746358335 -0.2350118309 0.111117281 5.962428276e-39
-0.01334073301 -0.2623032629 0.1479269564 5.962428276e-39
0.08048460633 -0.2506066263 0.1373746693 5.962428276e-39
-0.09333215654 -0.2591341734 0.1350702345 5.962428276e-39
-0.06291247904 -0.2366232276 0.1160256639 5.962428276e-39
-0.0197718218 -0.2596004307 0.1457256973 5.962428276e-39
0.08048498631 -0.2506070435 0.1373748034 5.962428276e-39
-0.09333279729 -0.2591341138 0.1350701004 5.962428276e-39
-0.06291358918 -0.2366231084 0.1160253584 5.962428276e-39
-0.01977170631 -0.2596004009 0.1457256973 5.962428276e-39
-0.09189515561 -0.4610211551 0.1486684233 6.698542971e-39
-0.1188591719 -0.4761600196 -0.07273354381 6.698542971e-39
-0.1097770408 -0.4465562105 0.1299840063 6.698542971e-39
-0.1471579373 -0.4450829029 0.06614904851 6.698542971e-39
-0.1462272406 -0.4413769245 0.08494184911 6.698542971e-39
-0.1147683561 -0.4817164838 -0.09467214346 6.698542971e-39
-0.06277225912 -0.4483503997 0.1751419902 6.698542971e-39
-0.1478195041 -0.4430517256 0.02199729905 6.698542971e-39
-0.1563311368 -0.4329342544 0.0636542961 6.698542971e-39
-0.114361003 -0.4825621545 -0.1022003219 6.698542971e-39
-0.04729956761 -0.4453938007 0.1783092916 6.698542971e-39
-0.1414442807 -0.4500421286 0.002792768413 6.698542971e-39
-0.110885486 -0.4558227658 0.1246891394 6.698542971e-39
-0.1176667288 -0.477681756 -0.07431137562 6.698542971e-39
-0.1110616177 -0.4508204758 0.1272821575 6.698542971e-39
-0.1475978345 -0.4426756799 0.05826259777 6.698542971e-39
-0.1348685026 -0.4473818839 0.1004376784 6.698542971e-39
-0.1146398187 -0.4812474549 -0.08679775149 6.698542971e-39
-0.08331067115 -0.4564729929 0.1610569507 6.698542971e-39
-0.1478555202 -0.4426056147 0.03163886443 6.698542971e-39
-0.1457772255 -0.4417794049 0.08513218164 6.698542971e-39
-0.1140657291 -0.4820733368 -0.09180144221 6.698542971e-39
-0.07345616817 -0.4528166056 0.1694626361 6.698542971e-39
-0.1470911652 -0.4439080954 0.02275747806 6.698542971e-39
-0.1348688751 -0.4473817647 0.1004371196 6.698542971e-39
-0.1146397218 -0.4812474549 -0.0867979005 6.698542971e-39
-0.08331027627 -0.4564727843 0.1610572934 6.698542971e-39
-0.1478554904 -0.4426057041 0.0316384472 6.698542971e-39
-0.1348695904 -0.4473814666 0.1004361138 6.698542971e-39
-0.1146395728 -0.4812475741 -0.08679828793 6.698542971e-39
-0.08330959827 -0.4564726651 0.1610579938 6.698542971e-39
-0.1478555948 -0.4426057935 0.03163764998 6.698542971e-39
-0.1580883861 -0.4532431066 -0.002601632616 7.434656265e-39
-0.1212323755 -0.454764843 0.08402279764 7.434656265e-39
-0.1453676969 -0.4583303332 0.00588261243 7.434656265e-39
-0.1394069344 -0.4596265256 0.005844183732 7.434656265e-39
-0.1372555792 -0.4600585103 -0.04810919985 7.434656265e-39
-0.1075561047 -0.4564670026 0.09243986011 7.434656265e-39
-0.1390275061 -0.4545245171 0.05503663421 7.434656265e-39
-0.09326831251 -0.4630966187 -0.05201941729 7.434656265e-39
-0.1252857149 -0.4608687758 -0.05675617233 7.434656265e-39
-0.09946876019 -0.4569723308 0.09791654348 7.434656265e-39
-0.1369118541 -0.4544104338 0.06545368582 7.434656265e-39
-0.08826235682 -0.4628244936 -0.06312546879 7.434656265e-39
-0.1496810615 -0.4599834681 -0.01541292761 7.434656265e-39
-0.1158711985 -0.4573103786 0.07626044005 7.434656265e-39
-0.1421213746 -0.4588007629 0.009020530619 7.434656265e-39
-0.1227552369 -0.4626962543 -0.005792225245 7.434656265e-39
-0.1419965625 -0.4605665803 -0.03742367774 7.434656265e-39
-0.1089390591 -0.4583280981 0.08032955229 7.434656265e-39
-0.1379345506 -0.4569047689 0.03820125386 7.434656265e-39
-0.1026399657 -0.4650996923 -0.02398422733 7.434656265e-39
-0.1359434426 -0.4611964226 -0.04253208637 7.434656265e-39
-0.1064161807 -0.4581078291 0.08427985013 7.434656265e-39
-0.1360584795 -0.4556783438 0.05215100944 7.434656265e-39
-0.09767581522 -0.4643038511 -0.03768034652 7.434656265e-39
-0.1419963241 -0.4605666995 -0.03742382675 7.434656265e-39
-0.1089389622 -0.4583281279 0.08032960445 7.434656265e-39
-0.137934491 -0.4569046795 0.03820195422 7.434656265e-39
-0.1026397645 -0.4650996327 -0.02398473397 7.434656265e-39
-0.141995877 -0.4605667591 -0.03742410988 7.434656265e-39
-0.1089387909 -0.4583281875 0.08032972366 7.434656265e-39
-0.1379344016 -0.4569046497 0.03820318356 7.434656265e-39
-0.1026394069 -0.4650995731 -0.02398568764 7.434656265e-39
0.02523003705 0.3758127689 0.0004045879177 8.170410826e-39
0.08909846842 -0.2805842459 0.05550223589 8.170410826e-39
0.02786906995 -0.02370176837 0.01710892469 8.170410826e-39
0.05238056555 0.2148445398 0.01491866354 8.170410826e-39
0.01540526655 0.4354282916 0.002996657742 8.170410826e-39
0.06053030491 -0.2050470412 0.03905436397 8.170410826e-39
-0.0001956298947 0.4609683752 -0.00210464024 8.170410826e-39
0.05271861702 0.131603092 0.01924914494 8.170410826e-39
0.01089362148 0.4537983239 0.005333043169 8.170410826e-39
0.03858775645 -0.09630057961 0.02321530879 8.170410826e-39
0.001131776255 0.4802167416 0.000826142088 8.170410826e-39
0.0544556044 0.03687575459 0.02636542544 8.170410826e-39
0.02096574381 0.3858399987 0.0008975618985 8.170410826e-39
0.08427163959 -0.2778259516 0.05265712738 8.170410826e-39
0.01979060285 -0.004271775484 0.01305541862 8.170410826e-39
0.05171751976 0.1565528661 0.0190998856 8.170410826e-39
0.01729458012 0.4116102457 0.0009213050362 8.170410826e-39
0.05474111065 -0.1892819852 0.03832202777 8.170410826e-39
0.004996880423 0.3999614716 -0.004602108616 8.170410826e-39
0.04969593138 0.1572904438 0.01720025018 8.170410826e-39
0.01546288747 0.4264629185 0.001478411141 8.170410826e-39
0.05084434897 -0.166139096 0.03463031724 8.170410826e-39
0.001070532482 0.4489580393 -0.003658898175 8.170410826e-39
0.05088578165 0.1321362108 0.01873601787 8.170410826e-39
0.01729453169 0.4116106927 0.000921290135 8.170410826e-39
0.05474078655 -0.1892801225 0.03832176328 8.170410826e-39
0.004996668082 0.3999638259 -0.004602077883 8.170410826e-39
0.04969595373 0.1572892368 0.01720035635 8.170410826e-39
0.01729444414 0.411611408 0.0009212607983 8.170410826e-39
0.05474017933 -0.1892765015 0.03832123801 8.170410826e-39
0.004996343981 0.3999683857 -0.004602038767 8.170410826e-39
0.04969605803 0.1572872698 0.01720044389 8.170410826e-39
-0.0838137269 -0.4238786101 0.01605311781 8.906165387e-39
-0.0297323782 -0.4138222337 0.05975976959 8.906165387e-39
-0.0652462244 -0.3923241198 0.0005135684623 8.906165387e-39
-0.01728264615 -0.4297441244 0.08609137684 8.906165387e-39
-0.09000944346 -0.4375138879 0.04641319066 8.906165387e-39
-0.02356281504 -0.4228828549 0.07314559072 8.906165387e-39
-0.08774894476 -0.4116075933 -0.05233872682 8.906165387e-39
-0.07296995819 -0.4115886688 0.01388573833 8.906165387e-39
-0.08301846683 -0.4386027753 0.0593788363 8.906165387e-39
-0.02280993201 -0.427429378 0.08125349134 8.906165387e-39
-0.0923377499 -0.4269289672 -0.07192745805 8.906165387e-39
-0.08208251745 -0.4043804407 -0.007748672273 8.906165387e-39
-0.0793787986 -0.4280594885 0.03070268407 8.906165387e-39
-0.04525022209 -0.4151980281 0.05005936697 8.906165387e-39
-0.06616113335 -0.3913718462 -0.002272184705 8.906165387e-39
-0.02072962932 -0.4279800653 0.08195313066 8.906165387e-39
-0.08355954289 -0.4325782955 0.0383384116 8.906165387e-39
-0.04702940956 -0.4189691544 0.05230927467 8.906165387e-39
-0.07762672007 -0.3957380652 -0.0257016737 8.906165387e-39
-0.05661422014 -0.4217320681 0.0442462042 8.906165387e-39
-0.08557391912 -0.4356789291 0.04609371722 8.906165387e-39
-0.04217908531 -0.4217616916 0.06156876311 8.906165387e-39
-0.08369813114 -0.4048058391 -0.04023249075 8.906165387e-39
-0.06815072149 -0.4173491895 0.02555404045 8.906165387e-39
-0.0835596323 -0.4325784147 0.03833853081 8.906165387e-39
-0.04702942446 -0.4189693332 0.05230942369 8.906165387e-39
-0.0776270479 -0.3957383633 -0.02570228279 8.906165387e-39
-0.05661474913 -0.4217322171 0.04424523935 8.906165387e-39
-0.08355982602 -0.4325786233 0.03833878413 8.906165387e-39
-0.04702941328 -0.4189693928 0.05230955034 8.906165387e-39
-0.07762754709 -0.3957390189 -0.02570328116 8.906165387e-39
-0.05661572143 -0.4217318296 0.04424358904 8.906165387e-39
0.07139959931 -0.4763193429 0.04455788806 9.641561216e-39
0.005797857419 -0.4751567245 0.1063630879 9.641561216e-39
-0.0330205895 -0.469599396 0.09663332254 9.641561216e-39
0.06622261554 -0.477137804 0.06679273397 9.641561216e-39
0.09241164476 -0.4817867875 0.02265246771 9.641561216e-39
-0.03423604742 -0.4731568694 0.09400042892 9.641561216e-39
-0.07477409393 -0.4600242972 0.07816126943 9.641561216e-39
0.03384486586 -0.4741804004 0.08795012534 9.641561216e-39
0.09573099017 -0.4824458659 0.02075422555 9.641561216e-39
-0.03533546254 -0.472923696 0.0926810205 9.641561216e-39
-0.07790465653 -0.455773294 0.07043155283 9.641561216e-39
0.01629730873 -0.4751283824 0.09055528045 9.641561216e-39
0.07204023749 -0.4771330655 0.04489920661 9.641561216e-39
-0.01488724817 -0.4743165374 0.09582065791 9.641561216e-39
-0.03621912748 -0.4693863392 0.0937974304 9.641561216e-39
0.05943182111 -0.4781153798 0.05981320888 9.641561216e-39
0.08146554977 -0.4799412191 0.03372696415 9.641561216e-39
-0.02914107405 -0.4736512601 0.09346090257 9.641561216e-39
-0.05521083623 -0.4674339592 0.08876414597 9.641561216e-39
0.04478180408 -0.4781005681 0.07461935282 9.641561216e-39
0.08836341649 -0.4815725684 0.02676799521 9.641561216e-39
