# .PCD v0.7 - Point Cloud Data file format
VERSION 0.7
FIELDS x y z rgb
SIZE 4 4 4 4
TYPE F F F F
COUNT 1 1 1 1
WIDTH 840
HEIGHT 1
VIEWPOINT 0 0 0 1 0 0 0
POINTS 840
DATA ascii
-0.1679317951 -0.01863067411 -0.3963672519 1.093308476e-38
-0.2735038996 -0.1447269768 -0.3950643241 1.093308476e-38
-0.2580166757 -0.1100629196 -0.4158221185 1.093308476e-38
-0.2967982292 -0.04914668947 -0.4074341059 1.093308476e-38
-0.183002308 -0.08209673315 -0.4126385152 1.093308476e-38
-0.2108365744 -0.1085812822 -0.4175110757 1.093308476e-38
-0.2630036771 -0.08131463826 -0.4128170907 1.093308476e-38
-0.2887202501 0.03236370161 -0.4102934301 1.093308476e-38
-0.171773985 -0.0573910661 -0.4052634835 1.093308476e-38
-0.2608659565 -0.1319482028 -0.4092702568 1.093308476e-38
-0.2768153846 -0.09240527451 -0.411156714 1.093308476e-38
-0.2938438058 0.02463525347 -0.4100658894 1.093308476e-38
-0.173702985 -0.06187269464 -0.4071896076 1.093308476e-38
-0.2543756962 -0.1276444793 -0.4119679928 1.093308476e-38
-0.2301437408 -0.02770157531 -0.4036242366 1.093308476e-38
-0.2552423775 0.0705961138 -0.387801826 1.093308476e-38
-0.1755896062 -0.006231860723 -0.3916713893 1.093308476e-38
-0.2865975201 -0.1451240629 -0.3963726759 1.093308476e-38
-0.2750819027 -0.08173062652 -0.4109210074 1.093308476e-38
-0.2438745499 0.01559773274 -0.3959640563 1.093308476e-38
-0.1654458791 -0.05435566977 -0.4044550359 1.093308476e-38
-0.2621912062 -0.1292032301 -0.4128417075 1.093308476e-38
0.1516596526 0.1341983825 0.3510379791 1.020306431e-38
0.03352839872 0.1330461055 0.3007420897 1.020306431e-38
0.2772957683 0.1420431137 0.507365942 1.020306431e-38
0.08751428127 0.134111017 0.3227525055 1.020306431e-38
0.1238351539 0.1331471652 0.3593243361 1.020306431e-38
0.03206121176 0.1361951083 0.3762053549 1.020306431e-38
0.2361639291 0.1389074028 0.4344364703 1.020306431e-38
0.03357008472 0.1381030977 0.3190446198 1.020306431e-38
0.1728712618 0.1356878281 0.4313335121 1.020306431e-38
-0.06020030379 0.1450911909 0.4220520258 1.020306431e-38
0.1879251301 0.1463199109 0.2996299863 1.020306431e-38
-0.01907261088 0.1402954608 0.3629235923 1.020306431e-38
0.1141813621 0.1342576742 0.3297293186 1.020306431e-38
0.05739688501 0.1355156898 0.3327528536 1.020306431e-38
0.2733565271 0.1400517374 0.4939131737 1.020306431e-38
0.07976544648 0.1322521865 0.3214343488 1.020306431e-38
0.1150626093 0.1338735223 0.3521569073 1.020306431e-38
-0.008036239073 0.1408234239 0.4153498113 1.020306431e-38
0.200874418 0.1384494156 0.3763314188 1.020306431e-38
0.01690441184 0.1357937157 0.3385931849 1.020306431e-38
0.1135230362 0.1330360323 0.3502216339 1.020306431e-38
0.01061186567 0.1392212659 0.402936697 1.020306431e-38
0.2220160514 0.1386707127 0.4129005969 1.020306431e-38
0.03199404851 0.1375415623 0.3235382438 1.020306431e-38
0.1603780389 0.1353180707 0.4330850244 1.020306431e-38
-0.09492906928 0.1473970562 0.4195150137 1.020306431e-38
0.1216784865 0.1413462162 0.2253099084 1.020306431e-38
-0.02665991336 0.1414748579 0.372674495 1.020306431e-38
0.1654579788 0.1370156854 0.4179840684 1.020306431e-38
-0.02848370001 0.1417022943 0.4046444297 1.020306431e-38
0.2352782786 0.1411946863 0.4192432463 1.020306431e-38
0.01518685929 0.1372990757 0.3668037653 1.020306431e-38
-0.09974347055 0.1368737966 0.2689815462 9.472685133e-39
0.2394184172 0.1669789851 0.2767599225 9.472685133e-39
0.1212384626 0.1529314518 0.2240885645 9.472685133e-39
-0.1009339169 0.1080873907 0.1832358092 9.472685133e-39
-0.114147462 0.1092444062 0.1975926906 9.472685133e-39
0.2405377924 0.1734825373 0.2821974754 9.472685133e-39
0.1224386618 0.1712024808 0.2934421301 9.472685133e-39
-0.01810607687 0.108970277 0.1877122223 9.472685133e-39
-0.0593448393 0.1109635085 0.1828076988 9.472685133e-39
0.2322873175 0.1741734594 0.3201899529 9.472685133e-39
0.02642096207 0.1453710496 0.3851301968 9.472685133e-39
0.1103224158 0.0887851119 0.2261953056 9.472685133e-39
-0.1297267675 0.1242254153 0.2391478568 9.472685133e-39
0.2271475196 0.1717338264 0.2686106563 9.472685133e-39
0.08801420033 0.150420621 0.2322610319 9.472685133e-39
-0.03277770802 0.1108695641 0.1795018762 9.472685133e-39
-0.1104752421 0.1119484454 0.1975536346 9.472685133e-39
0.2234459817 0.1663031727 0.2825482488 9.472685133e-39
0.1103369892 0.1702541411 0.3244639039 9.472685133e-39
-0.005834766664 0.1074546576 0.1973562986 9.472685133e-39
-0.1214708686 0.1108643562 0.2002672702 9.472685133e-39
0.2323761135 0.1698872149 0.2810814381 9.472685133e-39
0.1469951719 0.1743018925 0.3156405687 9.472685133e-39
-0.01354833506 0.1083773673 0.1930826902 9.472685133e-39
-0.04637691006 0.1119107902 0.1803292185 9.472685133e-39
0.2485150397 0.1757253408 0.3313762546 9.472685133e-39
-0.09875821322 0.1262359172 0.3533882201 9.472685133e-39
0.1270959526 0.07712607831 0.223766312 9.472685133e-39
-0.0539663583 0.1251927167 0.2160950899 9.472685133e-39
0.2988640964 0.1815885901 0.3076221347 9.472685133e-39
-0.1389502585 0.141223371 0.268974632 9.472685133e-39
0.03395197541 0.1185412109 0.2108994871 9.472685133e-39
0.2307348847 0.07651074231 0.3320356309 8.742304551e-39
-0.03976747766 0.1267001629 0.1309618205 8.742304551e-39
0.04776273668 0.111023359 0.2375531495 8.742304551e-39
0.1236738563 0.1141295731 0.2778460383 8.742304551e-39
0.1344238818 0.1008227021 0.2520881593 8.742304551e-39
-0.1012451798 0.1332107037 -0.1355203539 8.742304551e-39
0.02339060791 0.1209806278 0.2660154402 8.742304551e-39
0.02006774582 0.110230647 0.2056136727 8.742304551e-39
0.05982289091 0.1078744531 0.1891041249 8.742304551e-39
-0.1317720264 0.1325451136 -0.08490674943 8.742304551e-39
0.03879222646 0.1371633708 0.3189612329 8.742304551e-39
-0.1301514953 0.1268012971 0.1556814462 8.742304551e-39
0.2099362314 0.08606651425 0.3052626848 8.742304551e-39
-0.07779679447 0.1238948107 0.04077010602 8.742304551e-39
0.05573118106 0.1171728224 0.2573598623 8.742304551e-39
0.1148533672 0.1100571975 0.2581155002 8.742304551e-39
0.1295398325 0.09316173941 0.2262052745 8.742304551e-39
-0.1062602401 0.1306719333 -0.1184051931 8.742304551e-39
0.07630127668 0.1275071055 0.298738271 8.742304551e-39
-0.04094355553 0.1233259812 0.2179065049 8.742304551e-39
0.1346259415 0.09579799324 0.237449944 8.742304551e-39
-0.1002102196 0.1309464425 -0.1365286112 8.742304551e-39
0.06649137288 0.1258933544 0.2894079387 8.742304551e-39
-0.004744114354 0.1160433739 0.214579463 8.742304551e-39
-0.01227375306 0.120422557 0.1507713944 8.742304551e-39
-0.1487757862 0.1315710396 -0.06592723727 8.742304551e-39
0.04584357888 0.1399365515 0.3323766887 8.742304551e-39
-0.1544215232 0.1345815361 0.1323404014 8.742304551e-39
0.06236938015 0.10495992 0.2139177024 8.742304551e-39
-0.1544705927 0.1412592232 0.1270028055 8.742304551e-39
0.02948068082 0.1312060207 0.2983276248 8.742304551e-39
-0.130148381 0.1315355152 0.1807704419 8.742304551e-39
-0.3216671348 0.07254557312 -0.2839998603 8.012284103e-39
-0.2316448838 0.06998594105 -0.09761630744 8.012284103e-39
-0.23220101 0.01007394679 0.01424758602 8.012284103e-39
-0.216029942 0.06826008856 -0.1336379796 8.012284103e-39
-0.3089287579 0.0680102855 -0.4249729216 8.012284103e-39
-0.2875293195 0.1142287105 -0.2521331608 8.012284103e-39
-0.2196899503 0.06098258495 0.2424406707 8.012284103e-39
-0.1858412027 0.1128477454 0.08720424026 8.012284103e-39
-0.2470583618 0.08802674711 -0.414414674 8.012284103e-39
-0.2980410755 0.1248200089 -0.3273667693 8.012284103e-39
-0.2148945332 0.09528587013 0.379661411 8.012284103e-39
-0.165613845 0.1215437204 0.1990300566 8.012284103e-39
-0.3321815431 0.05832921341 -0.3674900234 8.012284103e-39
-0.2713896632 0.09201306105 -0.1756753623 8.012284103e-39
-0.2227398157 0.03109409101 0.09247268736 8.012284103e-39
-0.1802830994 0.07396640629 -0.08261675388 8.012284103e-39
-0.2851271033 0.08176638931 -0.4201776981 8.012284103e-39
-0.2825672328 0.1108923107 -0.2725239396 8.012284103e-39
-0.2110275477 0.08428258449 0.2990082204 8.012284103e-39
-0.1476200372 0.1155943647 0.07516463846 8.012284103e-39
-0.3015347123 0.075287655 -0.4230464399 8.012284103e-39
-0.2785721123 0.1124443263 -0.2537868023 8.012284103e-39
-0.2120500356 0.07366935164 0.2641521394 8.012284103e-39
-0.1591635346 0.1159416735 0.07517261058 8.012284103e-39
-0.2168718278 0.09021706879 -0.4083706141 8.012284103e-39
-0.2807329297 0.1294185221 -0.347304225 8.012284103e-39
-0.2076151222 0.1026404947 0.4130564928 8.012284103e-39
-0.1537456661 0.1222968176 0.2179654688 8.012284103e-39
-0.2843348682 0.0788493827 -0.3504521251 8.012284103e-39
-0.2878978252 0.09440733492 -0.3178886771 8.012284103e-39
-0.2139262259 0.0857976228 0.2871338129 8.012284103e-39
-0.1290795952 0.1134531945 0.05805389211 8.012284103e-39
-0.326189965 -0.1045555621 -0.2348378003 7.281903522e-39
-0.3012387753 0.03972175345 -0.4325385392 7.281903522e-39
-0.3188163638 -0.09917159379 -0.2126917392 7.281903522e-39
-0.2991345823 -0.06086063012 -0.4212806523 7.281903522e-39
-0.3293102086 -0.1097372547 -0.3077635467 7.281903522e-39
-0.3070883155 -0.08172404766 -0.4347432554 7.281903522e-39
-0.3109589815 -0.1050486788 -0.05621246621 7.281903522e-39
-0.2914411128 0.1081549749 -0.4188886881 7.281903522e-39
-0.312522471 -0.1287832856 -0.3801403642 7.281903522e-39
-0.3155364692 -0.09273517877 -0.3976511955 7.281903522e-39
-0.3135819435 -0.1063088998 0.04742530361 7.281903522e-39
-0.2816307545 0.1278484166 -0.3123548925 7.281903522e-39
-0.3264681399 -0.1088322923 -0.2616496384 7.281903522e-39
-0.3003628552 -0.006494207308 -0.4381386936 7.281903522e-39
-0.314262867 -0.09880211204 -0.1759814471 7.281903522e-39
-0.3009573221 0.02922597155 -0.42146492 7.281903522e-39
-0.3192095757 -0.1092936695 -0.341566205 7.281903522e-39
-0.304749459 -0.1056369916 -0.4410371482 7.281903522e-39
-0.31117028 -0.1037726179 -0.0234639477 7.281903522e-39
-0.2920764089 0.1068728119 -0.4256130457 7.281903522e-39
-0.3236070573 -0.1108878329 -0.3267274201 7.281903522e-39
-0.3041793108 -0.09244202077 -0.4381116629 7.281903522e-39
-0.3108077347 -0.1036119387 -0.04900169745 7.281903522e-39
-0.2922801375 0.1049422249 -0.4241771102 7.281903522e-39
-0.3095728755 -0.1253906488 -0.3905537426 7.281903522e-39
-0.3178707957 -0.08499525487 -0.3839116693 7.281903522e-39
-0.3135182858 -0.1067753583 0.0735470131 7.281903522e-39
-0.2788572311 0.1315060258 -0.2619691193 7.281903522e-39
-0.3035598993 -0.1299502403 -0.4097792208 7.281903522e-39
-0.3282144964 -0.09751777351 -0.03512249142 7.281903522e-39
-0.3087515533 -0.102004528 -0.009682121687 7.281903522e-39
-0.2975222468 0.06934089959 -0.4288723171 7.281903522e-39
-0.2993046045 0.104815796 0.1511292458 6.55152294e-39
-0.3033189476 0.1068106443 0.03310816363 6.55152294e-39
-0.2997950017 0.08220361918 0.1536561698 6.55152294e-39
-0.3034794331 0.1037916318 -0.02337844484 6.55152294e-39
-0.3002846539 0.1130527854 0.2425837964 6.55152294e-39
-0.2998534143 0.09982317686 -0.09386857599 6.55152294e-39
-0.3021605015 0.1010918394 0.05132290348 6.55152294e-39
-0.2966789305 0.08667624742 0.1536608338 6.55152294e-39
-0.2980528176 0.1079863533 0.3646566868 6.55152294e-39
-0.3057837784 0.0994772315 -0.2172609866 6.55152294e-39
-0.3005709946 0.1059471443 -0.09346425533 6.55152294e-39
-0.3005930483 0.07687404007 0.05653403327 6.55152294e-39
-0.3003586233 0.1055072993 0.1719008088 6.55152294e-39
-0.302767545 0.09620488435 -0.0005871876492 6.55152294e-39
-0.2968352437 0.09299327433 0.1423961371 6.55152294e-39
-0.3032784164 0.1028786004 0.04673298448 6.55152294e-39
-0.3003410399 0.1086700261 0.29368186 6.55152294e-39
-0.3024418354 0.09863428771 -0.1422715038 6.55152294e-39
-0.3024732769 0.102232635 -0.016069768 6.55152294e-39
-0.2970493138 0.08584157377 0.130147472 6.55152294e-39
-0.30041641 0.1134082973 0.2648918927 6.55152294e-39
-0.3000323474 0.1001802385 -0.1142454967 6.55152294e-39
-0.3026118279 0.1053987592 -0.001187316491 6.55152294e-39
-0.2966350615 0.08715761453 0.139816016 6.55152294e-39
-0.2971895635 0.1100244969 0.3960240781 6.55152294e-39
-0.3058284521 0.09234309196 -0.2488656938 6.55152294e-39
-0.2995501459 0.1079679504 -0.1317255199 6.55152294e-39
-0.3005335629 0.07509616762 0.02816707268 6.55152294e-39
-0.2984638512 0.1049760133 0.3993217349 6.55152294e-39
-0.3016095757 0.09730320424 -0.1300539225 6.55152294e-39
-0.3028599024 0.1016072631 -0.02037391812 6.55152294e-39
-0.2977054715 0.08177928627 0.09766510129 6.55152294e-39
-0.290709585 0.132344678 -0.09364742786 5.820783626e-39
-0.2866500914 0.1142555252 -0.3846718371 5.820783626e-39
-0.3208166361 0.1288365126 0.001746041817 5.820783626e-39
-0.3282440603 0.1339805275 -0.07131284475 5.820783626e-39
-0.3095290065 0.1336354166 -0.3098106086 5.820783626e-39
-0.2301825881 0.006112171803 -0.4107894897 5.820783626e-39
-0.3091968 0.1187555417 0.1467021108 5.820783626e-39
-0.3244576752 0.1372894198 -0.1994966865 5.820783626e-39
-0.2928180397 0.1292310953 -0.3399669528 5.820783626e-39
-0.2013444155 -0.02908147126 -0.402020514 5.820783626e-39
-0.2608369887 0.1282036752 -0.0337526463 5.820783626e-39
-0.3191114366 0.1372473687 -0.2860745192 5.820783626e-39
-0.3017376065 0.1341402978 -0.1614589691 5.820783626e-39
-0.2639193535 0.05436593667 -0.4037076533 5.820783626e-39
-0.3233440816 0.1249385327 0.0617185086 5.820783626e-39
-0.3268718719 0.1359979212 -0.1061339602 5.820783626e-39
-0.314568162 0.1327747554 -0.3131043613 5.820783626e-39
-0.2255424857 -0.0002705454826 -0.4103753865 5.820783626e-39
-0.2802335918 0.1206584126 0.1185818911 5.820783626e-39
-0.3211032748 0.1371155232 -0.1991310567 5.820783626e-39
-0.3136504292 0.1353535801 -0.3013783097 5.820783626e-39
-0.2330394983 0.005428573582 -0.4120501876 5.820783626e-39
-0.2969493866 0.1182706505 0.1412993073 5.820783626e-39
-0.3225734234 0.1371643543 -0.1883977056 5.820783626e-39
-0.2796230614 0.1218685657 -0.365950793 5.820783626e-39
-0.1940697283 -0.04541035369 -0.3979061842 5.820783626e-39
-0.2552264631 0.1280347407 -0.06056766585 5.820783626e-39
-0.3121294379 0.1349047273 -0.3077281415 5.820783626e-39
-0.3236252964 0.1323323548 -0.3107643723 5.820783626e-39
-0.2212350518 -0.006256707478 -0.4015134573 5.820783626e-39
-0.2766009867 0.1359436959 -0.141451925 5.820783626e-39
-0.3211296499 0.1368381828 -0.1848326176 5.820783626e-39
-0.3045423925 0.001202240004 0.3129688501 5.090401643e-39
-0.2907711565 -0.03093646467 0.2636458278 5.090401643e-39
-0.2742048502 -0.01040012855 0.3193644285 5.090401643e-39
-0.2853337228 -0.07791183889 0.2190599442 5.090401643e-39
-0.3258937597 -0.02296865545 0.2110352963 5.090401643e-39
-0.3229319453 -0.09075596929 0.01949723251 5.090401643e-39
-0.2088257223 0.001416764222 0.3830826879 5.090401643e-39
-0.1109555736 -0.04820945114 0.3317255676 5.090401643e-39
-0.3392844498 -0.07751318067 0.05625135824 5.090401643e-39
-0.3048060238 -0.0801570341 -0.1577505022 5.090401643e-39
-0.1171758026 0.009511839598 0.3950290978 5.090401643e-39
0.09230946004 0.01301191282 0.3535544276 5.090401643e-39
-0.3141330481 -0.009856947698 0.2810586393 5.090401643e-39
-0.2963660359 -0.0411907807 0.2136978805 5.090401643e-39
-0.2692313194 -0.01033714879 0.3479440212 5.090401643e-39
-0.2203317434 -0.06118692458 0.2886441946 5.090401643e-39
-0.3275484145 -0.04769039527 0.1655108184 5.090401643e-39
-0.3261991441 -0.07533082366 -0.01137938071 5.090401643e-39
-0.1806787699 -0.01021690853 0.3847968876 5.090401643e-39
-0.0470367223 -0.02054408193 0.3564549088 5.090401643e-39
-0.3237732649 -0.03389748558 0.2033307552 5.090401643e-39
-0.3292351365 -0.09194771945 0.01560566388 5.090401643e-39
-0.202415064 -0.008628824726 0.3816879988 5.090401643e-39
-0.08109761029 -0.03465129063 0.3508453965 5.090401643e-39
-0.3426643014 -0.09015702456 -0.00112337945 5.090401643e-39
-0.3122888803 -0.08058200032 -0.2251044512 5.090401643e-39
-0.08944560587 0.01271955576 0.397448808 5.090401643e-39
0.1279345155 0.02499482222 0.367849201 5.090401643e-39
-0.3514457941 -0.0922356993 0.04813211039 5.090401643e-39
-0.3008572459 -0.08343179524 -0.07415874302 5.090401643e-39
-0.2114931345 -0.01707132533 0.3873020113 5.090401643e-39
0.003775995923 -0.001591599081 0.3514191508 5.090401643e-39
0.3512515724 -0.1223890334 0.2574699521 4.359662329e-39
0.3415650427 -0.1001866683 0.1722286791 4.359662329e-39
0.349187851 -0.1185240075 0.2358369082 4.359662329e-39
0.2586613894 -0.1323381364 0.3372610509 4.359662329e-39
0.3541009426 -0.07960267365 0.1837078333 4.359662329e-39
0.3627412617 -0.03824020177 0.2016902268 4.359662329e-39
0.3305600286 -0.1322781742 0.3481731117 4.359662329e-39
0.303689301 -0.1297429204 0.2312635481 4.359662329e-39
0.3677030504 -0.04539462179 0.177281037 4.359662329e-39
0.3664929569 0.02363007143 0.2872663736 4.359662329e-39
0.3036860526 -0.1332922131 0.4099929929 4.359662329e-39
0.3043963611 -0.1213143617 0.1436101198 4.359662329e-39
0.3425812125 -0.1116093993 0.2053402662 4.359662329e-39
0.3492932022 -0.08137701452 0.1503961086 4.359662329e-39
0.3466896713 -0.1269960999 0.2666241825 4.359662329e-39
0.2668850422 -0.1328698695 0.3268857598 4.359662329e-39
0.3505626619 -0.08351171017 0.1715406626 4.359662329e-39
0.3624737263 -0.0271501001 0.2190559357 4.359662329e-39
0.323251754 -0.1313233525 0.3628749847 4.359662329e-39
0.3167308569 -0.1286676079 0.2231063843 4.359662329e-39
0.350754559 -0.08444707096 0.1770477742 4.359662329e-39
0.3613578081 -0.03598408401 0.2060547322 4.359662329e-39
0.3285285532 -0.1322941482 0.3528435826 4.359662329e-39
0.3132708371 -0.1296221763 0.2315193862 4.359662329e-39
0.3678676188 -0.03527386487 0.208717525 4.359662329e-39
0.364179641 0.02998108231 0.2945023775 4.359662329e-39
0.2891721129 -0.1378170401 0.420398891 4.359662329e-39
0.3249504268 -0.107091777 0.1396704614 4.359662329e-39
0.3272938132 -0.1438576579 0.2689269483 4.359662329e-39
0.3647829592 -0.05073535442 0.1710931212 4.359662329e-39
0.3128933907 -0.128013432 0.378335923 4.359662329e-39
0.3139722645 -0.1229526252 0.1610193551 4.359662329e-39
-0.309920311 0.1370521933 -0.3548768163 3.628921614e-39
-0.2902901769 0.1367458254 -0.06217573211 3.628921614e-39
-0.3315868676 0.1290783733 -0.380102545 3.628921614e-39
-0.2954802215 0.1360642463 -0.233843863 3.628921614e-39
-0.3105607927 0.1323189884 -0.2101282626 3.628921614e-39
-0.2928543985 0.1366519332 0.1878495067 3.628921614e-39
-0.3221732676 0.1100738123 -0.4110278487 3.628921614e-39
-0.2973369956 0.1316023469 -0.007040581666 3.628921614e-39
-0.3032468259 0.1292158365 0.01392802317 3.628921614e-39
-0.2944405377 0.1403781027 0.3125608861 3.628921614e-39
-0.2982013226 0.07683294266 -0.3833761215 3.628921614e-39
-0.297293216 0.1292585731 0.1936465502 3.628921614e-39
-0.3131741583 0.1366734803 -0.3399046361 3.628921614e-39
-0.2950257659 0.1356852204 -0.06216360256 3.628921614e-39
-0.3224980831 0.1325488687 -0.4076954722 3.628921614e-39
-0.3007579148 0.134403348 -0.2257265747 3.628921614e-39
-0.3112327158 0.1313153356 -0.1585438102 3.628921614e-39
-0.2946688235 0.1346277893 0.1961886585 3.628921614e-39
-0.3103279173 0.1068962514 -0.4104245603 3.628921614e-39
-0.2999222875 0.1323928982 -0.03860795125 3.628921614e-39
-0.3101963699 0.1321260333 -0.1920502633 3.628921614e-39
-0.2940845191 0.1344244629 0.1665018201 3.628921614e-39
-0.3140898943 0.1131081507 -0.4153486192 3.628921614e-39
-0.300263226 0.1325735301 -0.06078292429 3.628921614e-39
-0.3033330739 0.1293163896 0.008921725675 3.628921614e-39
-0.2944636047 0.1403839141 0.3054797947 3.628921614e-39
-0.2891705036 0.05196572095 -0.374871254 3.628921614e-39
-0.2969121337 0.1302629709 0.1993748099 3.628921614e-39
-0.3159193993 0.1307451874 -0.2215519696 3.628921614e-39
-0.2979956567 0.1327068061 0.2606804073 3.628921614e-39
-0.2924146652 0.08568926156 -0.3877789974 3.628921614e-39
-0.2967939973 0.1303113997 0.05260797963 3.628921614e-39
-0.2084944844 0.1409992278 -0.330637753 2.898180898e-39
-0.2434251755 0.1370037645 -0.3781954646 2.898180898e-39
-0.252079457 0.1395481527 -0.4050157964 2.898180898e-39
-0.2580459416 0.1224811971 -0.2859389484 2.898180898e-39
-0.2076826841 0.08943302184 -0.1646203548 2.898180898e-39
-0.2890262306 0.1099280193 -0.2350907028 2.898180898e-39
-0.2110991925 0.07721730322 -0.432512641 2.898180898e-39
-0.2522650659 0.1150116771 -0.4048199654 2.898180898e-39
-0.2052832991 0.1042752638 -0.03385859728 2.898180898e-39
-0.2687884271 0.0990536958 -0.1491009891 2.898180898e-39
-0.1538529545 0.06856190413 -0.432220608 2.898180898e-39
-0.21988599 0.09433439374 -0.4169126749 2.898180898e-39
-0.1992672384 0.1234566867 -0.2887034714 2.898180898e-39
-0.2674991786 0.1269688159 -0.3568826616 2.898180898e-39
-0.2702814043 0.1017561406 -0.4177295268 2.898180898e-39
-0.288443923 0.1094895899 -0.3577954173 2.898180898e-39
-0.2145032883 0.08434369415 -0.1410159022 2.898180898e-39
-0.2774572372 0.1050252467 -0.2125463337 2.898180898e-39
-0.1971678883 0.06278457493 -0.4374066889 2.898180898e-39
-0.2534647584 0.1020931154 -0.4152825177 2.898180898e-39
-0.2113665938 0.08360356838 -0.1656548232 2.898180898e-39
-0.2803438008 0.112069428 -0.2408612669 2.898180898e-39
-0.211285457 0.06952875853 -0.4348087907 2.898180898e-39
-0.2545101345 0.1045963839 -0.412642628 2.898180898e-39
-0.2074191123 0.09128843993 0.0177587457 2.898180898e-39
-0.269377172 0.1109884158 -0.1148086637 2.898180898e-39
-0.1414596587 0.06752376258 -0.4299143851 2.898180898e-39
-0.2044620514 0.08302946389 -0.4202665687 2.898180898e-39
-0.206624791 0.1093810648 -0.2621438503 2.898180898e-39
-0.2710185051 0.09173811227 -0.1388397962 2.898180898e-39
-0.1914846599 0.06007227674 -0.4375448227 2.898180898e-39
-0.2615917027 0.1043426171 -0.4188629389 2.898180898e-39
-0.3135242462 -0.07196321338 -0.3164685965 2.167082852e-39
-0.3417601585 -0.03081661463 -0.07212433219 2.167082852e-39
-0.3070437312 -0.02877806686 0.2866083086 2.167082852e-39
-0.3486878574 0.007096840069 0.08865135908 2.167082852e-39
-0.3280371428 -0.01050233003 -0.2462017536 2.167082852e-39
-0.3503959179 -0.001236095908 0.02876411937 2.167082852e-39
-0.3289555013 -0.04538787529 0.03069404885 2.167082852e-39
-0.3050156832 0.03403092548 0.3192892969 2.167082852e-39
-0.3442797661 -0.002564475406 -0.120030053 2.167082852e-39
-0.3330363929 0.02107568458 0.2347919494 2.167082852e-39
-0.3294736147 -0.08615671843 -0.1580384821 2.167082852e-39
-0.2842537761 0.0192439761 0.3682172596 2.167082852e-39
-0.3306647837 -0.0198535677 -0.324788183 2.167082852e-39
-0.3478315771 -0.0391099602 -0.1771396697 2.167082852e-39
-0.3288702965 -0.02512697689 0.2147393078 2.167082852e-39
-0.3421406448 0.02796823531 0.1840342879 2.167082852e-39
-0.3279188871 -0.005763847847 -0.2423571348 2.167082852e-39
-0.3500056863 -0.006927799899 0.02421874739 2.167082852e-39
-0.3367391229 -0.06035318598 -0.08927154541 2.167082852e-39
-0.3112445772 0.02384351939 0.2885222137 2.167082852e-39
-0.3279060423 -0.00521424273 -0.2474581748 2.167082852e-39
-0.3487558961 -0.0136013953 -0.01911959238 2.167082852e-39
-0.3331865072 -0.0465634428 -0.01940496266 2.167082852e-39
-0.3099625707 0.02919215336 0.2970008552 2.167082852e-39
-0.3457675278 0.01061234996 -0.04977744818 2.167082852e-39
-0.3170908391 0.02074365504 0.2760672271 2.167082852e-39
-0.3275904357 -0.08684460074 -0.195350945 2.167082852e-39
-0.2812261581 0.01980469748 0.3756938279 2.167082852e-39
-0.3252766728 -0.03041647933 -0.3043324649 2.167082852e-39
-0.3302057683 -0.01497067604 0.211538434 2.167082852e-39
-0.3363689482 -0.07008039951 -0.1823045015 2.167082852e-39
-0.3048875034 0.00662096357 0.2942508459 2.167082852e-39
0.007790944073 0.133030504 0.2418610156 1.435982003e-39
0.2363619059 -0.1306023598 0.2893328965 1.435982003e-39
0.1887684166 -0.1247737855 0.3734476864 1.435982003e-39
0.2616112232 -0.1304984093 0.3714427054 1.435982003e-39
0.2076270431 -0.1282301247 0.3170315325 1.435982003e-39
0.1738558412 -0.0525900349 0.2244186103 1.435982003e-39
0.01148649491 0.1047981381 0.2750279009 1.435982003e-39
0.284306109 -0.1232578158 0.2917599082 1.435982003e-39
0.1459522694 -0.1194057316 0.3726565838 1.435982003e-39
0.05811304599 0.08989989012 0.1359142065 1.435982003e-39
-0.09854251146 0.1536111236 0.1770210117 1.435982003e-39
0.3076120317 -0.111395292 0.2281798571 1.435982003e-39
0.1081892103 0.01427738927 0.267907232 1.435982003e-39
0.2285164148 -0.1273514628 0.2621630132 1.435982003e-39
0.1146632582 -0.08996966481 0.3409767151 1.435982003e-39
0.2802254856 -0.1289147586 0.3447805047 1.435982003e-39
0.2198539078 -0.1299722642 0.3266090751 1.435982003e-39
0.1684282124 -0.04247304797 0.227448523 1.435982003e-39
-0.0234282352 0.1204336882 0.2375514954 1.435982003e-39
0.3202919066 -0.1129966751 0.2420665175 1.435982003e-39
0.2387480587 -0.1315799654 0.3095653355 1.435982003e-39
0.1840965599 -0.06810646504 0.233493343 1.435982003e-39
-0.008373385295 0.1123347729 0.2609503567 1.435982003e-39
0.3171481788 -0.1148203462 0.252904743 1.435982003e-39
0.1321530789 -0.1108502448 0.3599812984 1.435982003e-39
0.05173148587 0.109479405 0.1373289526 1.435982003e-39
-0.105964303 0.1560897231 0.1351654828 1.435982003e-39
0.3270636797 -0.1030667573 0.1902825981 1.435982003e-39
0.02436389588 0.01519606262 0.2728622854 1.435982003e-39
0.0816828385 0.05565486848 0.1822601557 1.435982003e-39
-0.06526377797 0.1507648677 0.1704615802 1.435982003e-39
0.2981205881 -0.1221024543 0.290605545 1.435982003e-39
-0.2942189872 0.1533233374 0.4386689961 7.045238224e-40
0.03180220723 0.1405885071 0.4372577667 7.045238224e-40
-0.1918173134 0.1371770054 0.4285144806 7.045238224e-40
-0.2426130176 0.1506877393 0.4384683371 7.045238224e-40
-0.3101329207 0.01693875343 0.3930217922 7.045238224e-40
-0.114495948 0.1531824023 0.4255068004 7.045238224e-40
-0.2957639694 0.09971316904 0.4293892682 7.045238224e-40
-0.08658728004 0.132081598 0.4394123256 7.045238224e-40
-0.3056358397 0.01807156578 0.3133076131 7.045238224e-40
-0.2311801612 0.1577276736 0.4277795851 7.045238224e-40
-0.3082023263 0.003895685775 0.3945965171 7.045238224e-40
0.04549407959 0.1278501153 0.4472236931 7.045238224e-40
-0.3053323925 0.1403388381 0.4346404672 7.045238224e-40
-0.02726486884 0.1468173116 0.4324484169 7.045238224e-40
-0.2288951576 0.1399751157 0.4336511195 7.045238224e-40
-0.1880389899 0.1423438191 0.4386812449 7.045238224e-40
-0.3113399446 0.03160961345 0.4024552405 7.045238224e-40
-0.151049301 0.1528108269 0.4251155555 7.045238224e-40
-0.3104513288 0.06846907735 0.4268045723 7.045238224e-40
-0.02621117234 0.1285773665 0.440993607 7.045238224e-40
-0.3143410683 0.04268694296 0.4079538882 7.045238224e-40
-0.1232337952 0.1526080817 0.4248413444 7.045238224e-40
-0.2997626066 0.08955675364 0.4321373105 7.045238224e-40
-0.06035679951 0.1298803985 0.4401634037 7.045238224e-40
-0.3080434203 0.01967328787 0.3036672175 7.045238224e-40
-0.2411065847 0.1579988301 0.4253783226 7.045238224e-40
-0.3065498769 -0.009346093982 0.3854747117 7.045238224e-40
0.1012454256 0.1254042089 0.4513657987 7.045238224e-40
-0.3052513599 -0.004288062453 0.3373587132 7.045238224e-40
-0.3064859211 0.1552765816 0.4194745123 7.045238224e-40
-0.3071322739 0.01004782226 0.4164334536 7.045238224e-40
0.009320987388 0.1278890669 0.4407484829 7.045238224e-40
0.03408681229 0.1250862926 0.3045941889 6.490113838e-41
-0.1139156744 0.1252042204 0.2511895597 6.490113838e-41
-0.02955013327 0.1226927936 0.3891893029 6.490113838e-41
-0.08241829276 0.1194249988 0.3450226188 6.490113838e-41
0.09622243792 0.1289316714 0.2987731099 6.490113838e-41
0.02115425281 0.1221906245 0.2804599702 6.490113838e-41
0.05139241368 0.1333787441 0.3489886522 6.490113838e-41
-0.1507841051 0.1275257021 0.3048811257 6.490113838e-41
0.1436318755 0.1288359612 0.2745291293 6.490113838e-41
0.07940480113 0.1268103123 0.279412806 6.490113838e-41
0.1134979054 0.1332889199 0.3154058158 6.490113838e-41
-0.1571175754 0.12814641 0.1919670403 6.490113838e-41
0.04112571105 0.1265419424 0.306532681 6.490113838e-41
-0.09775455296 0.1154799238 0.2696923018 6.490113838e-41
-0.007834915072 0.1289301664 0.3671171069 6.490113838e-41
-0.1121246442 0.1175223142 0.3320297897 6.490113838e-41
0.08137486875 0.1282223612 0.2971645892 6.490113838e-41
0.01427205931 0.1201620251 0.2789078057 6.490113838e-41
0.07286416739 0.1319993436 0.3346190453 6.490113838e-41
-0.1530401111 0.1281165779 0.2590716481 6.490113838e-41
0.0754456073 0.1279588342 0.3000894785 6.490113838e-41
-0.0011596228 0.120493643 0.2751961648 6.490113838e-41
0.05479792878 0.1330721229 0.3436394334 6.490113838e-41
-0.1517344415 0.1274711937 0.2891247272 6.490113838e-41
0.1580493003 0.1288561523 0.2697550356 6.490113838e-41
0.1022294015 0.1270028651 0.2736398876 6.490113838e-41
0.1328892708 0.1345475018 0.3080302477 6.490113838e-41
-0.1573228836 0.1273024827 0.1448830515 6.490113838e-41
-0.03297007456 0.1139010489 0.2696410418 6.490113838e-41
0.114744097 0.1290629208 0.2792319059 6.490113838e-41
0.09843099117 0.1326566786 0.3306767046 6.490113838e-41
-0.15000467 0.1280511022 0.2048219889 6.490113838e-41
-0.1858243048 0.1404712796 0.2410704941 8.028094954e-40
-0.04830360413 0.08803358674 0.3148844838 8.028094954e-40
-0.1207857206 0.09875316918 0.220274657 8.028094954e-40
-0.148241654 0.08727911115 0.09997142851 8.028094954e-40
-0.2190528363 0.09094437957 0.03930708393 8.028094954e-40
-0.1198832765 0.09158875793 0.1641795337 8.028094954e-40
-0.07552906126 0.111142695 0.3592302799 8.028094954e-40
-0.07225997001 0.09294829518 0.2585910261 8.028094954e-40
-0.2868513465 0.0626745373 -0.2009703517 8.028094954e-40
-0.1848531216 0.0868492946 0.05693979561 8.028094954e-40
-0.06148916855 0.1072103083 0.3935479522 8.028094954e-40
-0.06113272905 0.09070730954 0.3143225014 8.028094954e-40
-0.17886208 0.1389620602 0.213925764 8.028094954e-40
-0.08660379797 0.09517944604 0.2433015406 8.028094954e-40
-0.1216863245 0.1121382117 0.2596780062 8.028094954e-40
-0.1185743064 0.08958867937 0.1483549178 8.028094954e-40
-0.2625541091 0.07711645216 -0.09597828239 8.028094954e-40
-0.1481179446 0.0914780274 0.1297854632 8.028094954e-40
-0.08537056297 0.1219444126 0.3652586937 8.028094954e-40
-0.06937081367 0.0926700905 0.2663092315 8.028094954e-40
-0.2399022281 0.08567735553 -0.01193913724 8.028094954e-40
-0.1335984021 0.09204572439 0.1504324526 8.028094954e-40
-0.08307535946 0.1168027669 0.3562604785 8.028094954e-40
-0.06875470281 0.0922114253 0.2625404596 8.028094954e-40
-0.2670382559 0.06877365708 -0.1608772576 8.028094954e-40
-0.2184621096 0.08415388316 -0.007730158512 8.028094954e-40
-0.05487685278 0.1000971273 0.3992930651 8.028094954e-40
-0.06399817765 0.09463424981 0.3224335611 8.028094954e-40
-0.1859059334 0.05757253617 -0.07188866287 8.028094954e-40
-0.1420765966 0.1094792038 0.2115347236 8.028094954e-40
-0.108019039 0.1371656507 0.3740589023 8.028094954e-40
-0.06376129389 0.09121334553 0.2800958157 8.028094954e-40
-0.2349709719 -0.06978519261 -0.3733668625 1.540360521e-39
-0.1492871344 -0.02241751738 -0.3438448012 1.540360521e-39
-0.1712716967 -0.09967649728 -0.3744633198 1.540360521e-39
-0.1529268175 -0.006067100912 -0.3716916442 1.540360521e-39
-0.1857267469 -0.04036560282 -0.3771615326 1.540360521e-39
-0.1511543244 0.01878862269 -0.2388475835 1.540360521e-39
-0.2231090516 -0.1031535417 -0.3766318262 1.540360521e-39
-0.136599794 0.02498604916 -0.315300554 1.540360521e-39
-0.1583591253 -0.05777334794 -0.3572243154 1.540360521e-39
-0.1494107693 0.0289371796 -0.1995387673 1.540360521e-39
-0.2699427307 -0.09836481512 -0.3701832294 1.540360521e-39
-0.1387097239 0.04430016875 -0.2601981461 1.540360521e-39
-0.2090688199 -0.0596995987 -0.3748044968 1.540360521e-39
-0.1421289146 0.003768865718 -0.3172875047 1.540360521e-39
-0.1850026399 -0.0979565829 -0.3836713731 1.540360521e-39
-0.1483940035 -0.006481985096 -0.366892308 1.540360521e-39
-0.1815373898 -0.04197220877 -0.377754122 1.540360521e-39
-0.1509408504 0.02137061395 -0.2375075817 1.540360521e-39
-0.2299132645 -0.1011436731 -0.3756848574 1.540360521e-39
-0.1389727741 0.01633298397 -0.3244565427 1.540360521e-39
-0.1854584217 -0.03997514024 -0.377112478 1.540360521e-39
-0.1524133682 0.02004798874 -0.2506760657 1.540360521e-39
-0.2230720073 -0.1023424715 -0.3771101832 1.540360521e-39
-0.1393467039 0.01472236402 -0.3252492249 1.540360521e-39
-0.1529701501 -0.03594458848 -0.3262000382 1.540360521e-39
-0.1466719657 0.03833116591 -0.1953924894 1.540360521e-39
-0.2755066752 -0.09933818877 -0.3685049713 1.540360521e-39
-0.1423182636 0.04287099093 -0.2481598407 1.540360521e-39
-0.165235877 -0.07298895717 -0.3691000342 1.540360521e-39
-0.1345725358 0.05549212545 -0.2181589007 1.540360521e-39
-0.2372894138 -0.1003787965 -0.3739575148 1.540360521e-39
-0.1375258565 0.02182777599 -0.3116576076 1.540360521e-39
0.1085551679 0.0115640536 0.3964690268 2.277910146e-39
-0.2710593343 0.03309991583 0.2381463796 2.277910146e-39
-0.07457813621 -0.01093450561 0.3890207708 2.277910146e-39
-0.1543516815 -0.02768642828 0.3579167426 2.277910146e-39
-0.01755126566 -0.0007642468554 0.356190443 2.277910146e-39
-0.2629457116 0.01457128394 0.3603794575 2.277910146e-39
0.2054272145 -0.001428491436 0.3889820576 2.277910146e-39
-0.270252049 -0.01887737215 0.3044086695 2.277910146e-39
-0.07470766455 0.001852674177 0.3497668505 2.277910146e-39
-0.05319543555 0.006995560136 0.3609133065 2.277910146e-39
0.2656211853 -0.007310390472 0.3315416574 2.277910146e-39
-0.2671585679 0.007591422182 0.1872337162 2.277910146e-39
0.001329294522 0.002087072236 0.3725692332 2.277910146e-39
-0.2762393951 0.01244746707 0.2862221897 2.277910146e-39
0.02765699849 -0.004408245441 0.3979242742 2.277910146e-39
-0.2443471104 -0.0314595066 0.3536620736 2.277910146e-39
-0.05703489855 -0.007403588854 0.3484581113 2.277910146e-39
-0.2290381342 0.007361550815 0.3621318638 2.277910146e-39
0.2406180352 0.001269261586 0.3859570026 2.277910146e-39
-0.2677034438 -0.01316242665 0.2837178707 2.277910146e-39
-0.05965140462 -0.004342319909 0.3488059342 2.277910146e-39
-0.2660488784 0.00659516966 0.3634918332 2.277910146e-39
0.2229120731 0.0005668028607 0.3871908784 2.277910146e-39
-0.2679414153 -0.01650765352 0.2956898808 2.277910146e-39
-0.06579322368 -0.001728961361 0.3497206271 2.277910146e-39
-0.006537955254 0.004959989805 0.3699541092 2.277910146e-39
0.2669064999 -0.009119899012 0.3114950657 2.277910146e-39
-0.262508601 0.02046909742 0.1609058529 2.277910146e-39
0.09766206145 -0.005049871281 0.3704959452 2.277910146e-39
-0.01785922796 0.002798427129 0.3701324463 2.277910146e-39
0.2633177936 -0.0005923658027 0.370454371 2.277910146e-39
-0.2810099721 -0.003874141024 0.3384921551 2.277910146e-39
-0.2520746291 -0.03164282814 -0.3192334771 3.015101038e-39
-0.2410763055 0.02114753053 -0.2045197338 3.015101038e-39
-0.2118175924 0.05407078564 -0.108540535 3.015101038e-39
-0.2417025119 0.02001675032 -0.1968911141 3.015101038e-39
-0.1254533678 -0.020448355 -0.448427856 3.015101038e-39
-0.258241117 -0.0308870133 -0.2897439599 3.015101038e-39
-0.1617490947 -0.01400070265 -0.2603904009 3.015101038e-39
-0.2406651974 0.07543741912 -0.09371332079 3.015101038e-39
-0.1435482353 -0.03132376075 -0.4415462911 3.015101038e-39
-0.245876044 -0.0299796015 -0.3728154898 3.015101038e-39
-0.06763771921 -0.02883138508 -0.3428443968 3.015101038e-39
-0.2146875262 0.1099664271 -0.03973956034 3.015101038e-39
-0.2201329023 -0.02582619525 -0.3851363659 3.015101038e-39
-0.2485513091 0.001571493805 -0.229533419 3.015101038e-39
-0.1960770637 0.01752449758 -0.1766229123 3.015101038e-39
-0.2562462687 0.03271543607 -0.1727286726 3.015101038e-39
-0.1209914312 -0.01605779678 -0.4241817892 3.015101038e-39
-0.2252584845 -0.0284322314 -0.3109457493 3.015101038e-39
-0.1514466405 -0.02010759711 -0.2741372585 3.015101038e-39
-0.2405361831 0.07809237391 -0.07463118434 3.015101038e-39
-0.1486654282 -0.0208077468 -0.4309599698 3.015101038e-39
-0.2414581627 -0.02983956411 -0.2905196548 3.015101038e-39
-0.1617064923 -0.01779059507 -0.2723942399 3.015101038e-39
-0.2408095002 0.07525211573 -0.08545988053 3.015101038e-39
-0.146862492 -0.03680746257 -0.4399254024 3.015101038e-39
-0.2169634402 -0.02482360788 -0.4144237936 3.015101038e-39
-0.08248668164 -0.03056290932 -0.3787680864 3.015101038e-39
-0.2070179135 0.1182197854 -0.02965223789 3.015101038e-39
-0.1298139095 -0.01907147653 -0.3771670461 3.015101038e-39
-0.1916386187 -0.02405564673 -0.387498647 3.015101038e-39
-0.08988820761 -0.02431860566 -0.3737959564 3.015101038e-39
-0.2330400795 0.08041813225 -0.0652430132 3.015101038e-39
-0.3250849545 -0.111982584 0.08694838732 3.75229193e-39
-0.1864387095 -0.07068490237 0.3595598638 3.75229193e-39
-0.3186879754 -0.1350224018 0.2455951422 3.75229193e-39
-0.3228980601 -0.1375868618 0.2911919653 3.75229193e-39
-0.3206583261 -0.09966298193 0.01199033018 3.75229193e-39
-0.2784305513 -0.1230073571 0.2873688638 3.75229193e-39
-0.3217828274 -0.1211216897 0.1508864909 3.75229193e-39
-0.2305076122 -0.02390266769 0.3951865137 3.75229193e-39
-0.3189489841 -0.08571642637 -0.09384522587 3.75229193e-39
-0.3116588295 -0.122905083 0.1528147906 3.75229193e-39
-0.31517905 -0.1065589115 0.05289893225 3.75229193e-39
-0.04915677011 0.08268994838 0.4183790088 3.75229193e-39
-0.3256967068 -0.1074470133 0.0600004755 3.75229193e-39
-0.2075824142 -0.08210068941 0.348204881 3.75229193e-39
-0.3185659647 -0.1297829747 0.2192035019 3.75229193e-39
-0.3177314103 -0.1260281503 0.3383482099 3.75229193e-39
-0.3230546415 -0.09335436672 0.0009531673859 3.75229193e-39
-0.2909586132 -0.1219734251 0.2719357908 3.75229193e-39
-0.3224423528 -0.1128331199 0.1167463139 3.75229193e-39
-0.2306172997 -0.02071980387 0.3971293867 3.75229193e-39
-0.3238115907 -0.09814716876 0.01320602745 3.75229193e-39
-0.2767080665 -0.1212637648 0.2951462865 3.75229193e-39
-0.3205312192 -0.1171321198 0.1396202147 3.75229193e-39
-0.2495551556 -0.03336037695 0.3915745616 3.75229193e-39
-0.3195222914 -0.08156907558 -0.1113640666 3.75229193e-39
-0.3082337976 -0.1161962897 0.1283425391 3.75229193e-39
-0.3138739467 -0.09877642989 0.02932128683 3.75229193e-39
-0.03597032279 0.08785904944 0.4091926217 3.75229193e-39
-0.3230630457 -0.09272384644 0.001237265184 3.75229193e-39
-0.2859172821 -0.1316879392 0.2104732692 3.75229193e-39
-0.3189425468 -0.1106760874 0.08567245305 3.75229193e-39
-0.1448477507 0.01709813066 0.4052786827 3.75229193e-39
-0.1689620167 0.133534804 0.01714406163 4.48912409e-39
-0.1525435597 0.1311008632 -0.01681753248 4.48912409e-39
-0.1237410828 0.1298796088 0.01870473474 4.48912409e-39
-0.1685512066 0.1279270947 -0.07101671398 4.48912409e-39
-0.148755759 0.1364899576 0.1659174114 4.48912409e-39
-0.0949961096 0.1374852508 0.1436297297 4.48912409e-39
-0.1399265677 0.1191026941 -0.1459154487 4.48912409e-39
-0.1543328762 0.1201946735 -0.1932216287 4.48912409e-39
-0.1152675375 0.1335959285 0.2192614377 4.48912409e-39
-0.04347628728 0.136871025 0.2329270542 4.48912409e-39
-0.1100224704 0.1092961133 -0.190577507 4.48912409e-39
-0.1477023512 0.1072900519 -0.3026340604 4.48912409e-39
-0.1604313552 0.1372537911 0.09235338867 4.48912409e-39
-0.1390555352 0.1350165457 0.06759089977 4.48912409e-39
-0.1334435195 0.1274501383 -0.02627056465 4.48912409e-39
-0.1619743407 0.1261478961 -0.08198055625 4.48912409e-39
-0.1513232589 0.1365797967 0.1556891501 4.48912409e-39
-0.08115904033 0.1368328184 0.1879507452 4.48912409e-39
-0.1336748004 0.1158629581 -0.2050482333 4.48912409e-39
-0.1446490288 0.1204017699 -0.1557346433 4.48912409e-39
-0.1544118673 0.1365351975 0.1545762122 4.48912409e-39
-0.09082492441 0.1369219422 0.1649903506 4.48912409e-39
-0.1375580281 0.1164427996 -0.1839811653 4.48912409e-39
-0.1475709826 0.1204729974 -0.1597716808 4.48912409e-39
-0.1070073098 0.1333814263 0.244272545 4.48912409e-39
-0.01679113321 0.1352366358 0.2642970383 4.48912409e-39
-0.09070524573 0.1067138016 -0.1577685177 4.48912409e-39
-0.1407755464 0.1061450839 -0.2912791073 4.48912409e-39
-0.1411442757 0.1361439526 0.1348702461 4.48912409e-39
-0.07918803394 0.1373926848 0.1533475965 4.48912409e-39
-0.09292083979 0.1008627638 -0.1568101794 4.48912409e-39
-0.1399328113 0.117091991 -0.2083777189 4.48912409e-39
-0.3718801141 -0.0507504046 -0.1385340542 5.225597518e-39
-0.3476714194 -0.02552668378 0.04000259563 5.225597518e-39
-0.3500012457 -0.01081554126 0.151236847 5.225597518e-39
-0.3303261995 0.02100575157 -0.2181624621 5.225597518e-39
-0.3888630569 -0.03624819592 -0.3561418056 5.225597518e-39
-0.3133566976 0.01926780492 0.2650739849 5.225597518e-39
-0.360200882 -0.008879539557 -0.05734031647 5.225597518e-39
-0.3314318359 0.01923493668 -0.03228524327 5.225597518e-39
-0.3299470246 0.02666566707 -0.3642355502 5.225597518e-39
-0.3071191609 0.02208593488 0.3161816895 5.225597518e-39
-0.3629879951 0.02000082284 -0.2352208942 5.225597518e-39
-0.3340218663 0.01548230648 0.1074537933 5.225597518e-39
-0.3757830858 -0.03841451183 -0.2062479705 5.225597518e-39
-0.3331756294 0.0002164542675 0.1446987092 5.225597518e-39
-0.3584353924 -0.01878390089 0.07982452214 5.225597518e-39
-0.3345732987 0.02021853812 -0.1854678988 5.225597518e-39
-0.3763597906 -0.0006856693653 -0.3503775001 5.225597518e-39
-0.3190013468 0.01066034101 0.2646235824 5.225597518e-39
-0.3586821556 0.004469923675 -0.1548862904 5.225597518e-39
-0.3340903521 0.01611004025 0.004393449519 5.225597518e-39
-0.3818366826 -0.0123441061 -0.3442584574 5.225597518e-39
-0.3173206151 0.01348903123 0.2543694079 5.225597518e-39
-0.3593434393 -0.006787993014 -0.09827854484 5.225597518e-39
-0.3320608437 0.0185884349 -0.02361308783 5.225597518e-39
-0.3008119762 0.05105429143 -0.3314161897 5.225597518e-39
-0.3011732996 0.02776729874 0.3360868692 5.225597518e-39
-0.3641601205 0.03003051691 -0.2852054834 5.225597518e-39
-0.3162505925 0.0255092755 0.2078701109 5.225597518e-39
-0.3570350111 0.02866805717 -0.3529634178 5.225597518e-39
-0.3204647303 0.008133656345 0.3181402981 5.225597518e-39
-0.3571984768 0.00363874319 -0.1528776288 5.225597518e-39
-0.3394605517 0.001748954994 0.1213591397 5.225597518e-39
0.08670216054 0.1102079228 0.3973936141 5.962428276e-39
0.2305459827 0.09088426083 0.3491346538 5.962428276e-39
0.2306306064 0.09528083354 0.3576466143 5.962428276e-39
-0.1781787127 0.1094016582 0.3874920011 5.962428276e-39
0.2862411141 0.08068592101 0.3487707973 5.962428276e-39
0.173304975 0.1003659964 0.3644857109 5.962428276e-39
0.135462448 0.08744787425 0.377155602 5.962428276e-39
0.06195543706 0.116214551 0.369892925 5.962428276e-39
0.3049376905 0.04533591121 0.3451772332 5.962428276e-39
-0.04677657411 0.116229035 0.37631917 5.962428276e-39
-0.01037858054 0.1325345337 0.3831359446 5.962428276e-39
0.1557790637 0.1074087098 0.3551401794 5.962428276e-39
0.2199145108 0.1015961841 0.3623957038 5.962428276e-39
0.2301375419 0.0953784138 0.3499727547 5.962428276e-39
0.1990489066 0.1040539667 0.3581941724 5.962428276e-39
-0.07219160348 0.09868405759 0.3827398717 5.962428276e-39
0.2954205275 0.07505507767 0.3469712138 5.962428276e-39
0.1272520423 0.08803342283 0.3777216673 5.962428276e-39
0.03987221792 0.1015181541 0.3808694184 5.962428276e-39
0.08615726978 0.1186620817 0.3662455976 5.962428276e-39
0.2902103662 0.07848722488 0.3489462733 5.962428276e-39
0.1616103649 0.09764095396 0.3682074547 5.962428276e-39
0.1161884293 0.08946087956 0.3784911931 5.962428276e-39
0.07504235208 0.1172456443 0.3685244918 5.962428276e-39
0.3016134799 0.03545696288 0.3456911743 5.962428276e-39
-0.1168171018 0.1148081422 0.3866593838 5.962428276e-39
-0.04623698443 0.1393610388 0.3518771529 5.962428276e-39
0.1784857363 0.09753873944 0.351932317 5.962428276e-39
0.2892320752 0.07198975235 0.3455339968 5.962428276e-39
-0.05165640265 0.1122507155 0.3842391074 5.962428276e-39
0.04830848053 0.104706414 0.3987745047 5.962428276e-39
0.1174111143 0.1181254014 0.362033993 5.962428276e-39
-0.08895306289 0.1033585295 0.3827432394 6.698542971e-39
-0.3424948752 0.1056543216 0.3102888167 6.698542971e-39
-0.3213523626 0.1281932443 0.4124956429 6.698542971e-39
-0.204691425 0.09925539047 0.3669686317 6.698542971e-39
-0.224649474 0.09393128753 0.3842204511 6.698542971e-39
-0.3553700149 0.0775853619 -0.0653013438 6.698542971e-39
-0.2264499217 0.1170132905 0.4233066738 6.698542971e-39
-0.3249761164 0.08514279872 0.2182270736 6.698542971e-39
-0.3211236298 0.09032288939 0.308776021 6.698542971e-39
-0.3423390388 0.06856590509 -0.1934890747 6.698542971e-39
-0.1089124084 0.1130536944 0.4168930948 6.698542971e-39
-0.3180763721 0.07413742691 0.04402701929 6.698542971e-39
-0.1289234757 0.1029542089 0.3892802894 6.698542971e-39
-0.3527356386 0.1044433117 0.174745366 6.698542971e-39
-0.292725116 0.12497513 0.4219485223 6.698542971e-39
-0.2492551804 0.09446825832 0.355774641 6.698542971e-39
-0.2591406405 0.09492129087 0.3763566017 6.698542971e-39
-0.3570908904 0.08652159572 -0.1001980156 6.698542971e-39
-0.2236221731 0.1159651428 0.4231754839 6.698542971e-39
-0.3239184618 0.08814511448 0.1843634546 6.698542971e-39
-0.2349948883 0.09565527737 0.3822167218 6.698542971e-39
-0.3615126014 0.09149350971 -0.06025481224 6.698542971e-39
-0.2311998457 0.1166624576 0.423086673 6.698542971e-39
-0.3251033425 0.08755038679 0.216637671 6.698542971e-39
-0.3246331811 0.09123276919 0.2756177783 6.698542971e-39
-0.3377678394 0.07358940691 -0.2163924724 6.698542971e-39
-0.07823827118 0.1096053421 0.4146931469 6.698542971e-39
-0.3111374974 0.07212970406 0.01838841476 6.698542971e-39
-0.2282869816 0.09757056087 0.3156170249 6.698542971e-39
-0.3450117409 0.08074297756 -0.1249840632 6.698542971e-39
-0.1735863686 0.1131707281 0.4136428237 6.698542971e-39
-0.3158278465 0.08528470993 0.1507155746 6.698542971e-39
-0.3041644692 -0.1137046963 0.1914374977 7.434656265e-39
-0.3060122728 -0.09669842571 0.1004495546 7.434656265e-39
-0.3137088716 0.04870057851 -0.1023138911 7.434656265e-39
-0.2794332504 -0.0287411157 0.1095082089 7.434656265e-39
-0.2757804692 0.02468729392 0.08935119212 7.434656265e-39
-0.3389580548 -0.1079688221 0.2242245972 7.434656265e-39
-0.2855942249 -0.1121998057 0.03855749965 7.434656265e-39
-0.2986468971 0.1069533527 -0.02404747717 7.434656265e-39
-0.29318434 0.1599816233 -0.1519591212 7.434656265e-39
-0.3227094114 -0.08079262823 0.2779748738 7.434656265e-39
-0.269017309 -0.1148941442 0.1917450726 7.434656265e-39
-0.3129737079 0.1234113872 -0.1777759641 7.434656265e-39
-0.2938724756 -0.1170529872 0.1330551058 7.434656265e-39
-0.3292340934 -0.1159670055 0.141843617 7.434656265e-39
-0.3110471666 0.04959344119 -0.09715349972 7.434656265e-39
-0.2791103423 0.01668895781 0.07865323126 7.434656265e-39
-0.285571903 0.1283695549 0.001495017437 7.434656265e-39
-0.321758002 -0.1034426391 0.2380911261 7.434656265e-39
-0.2805801034 -0.09158251435 0.01716609113 7.434656265e-39
-0.3058972359 0.1219804808 -0.06667629629 7.434656265e-39
-0.2849138081 0.09204950929 0.04934268817 7.434656265e-39
-0.3313931525 -0.1091810837 0.2208039463 7.434656265e-39
-0.2812460363 -0.09666692466 0.01108562201 7.434656265e-39
-0.302857995 0.1178449243 -0.04963741079 7.434656265e-39
-0.2897580266 0.154118523 -0.2195604146 7.434656265e-39
-0.3169354796 -0.07400285453 0.2935064137 7.434656265e-39
-0.260802567 -0.1141046286 0.2145507485 7.434656265e-39
-0.3153474033 0.1267083883 -0.2430132329 7.434656265e-39
-0.2772668004 0.0001313090324 0.04442593828 7.434656265e-39
-0.3091537356 -0.07396623492 0.2973768413 7.434656265e-39
-0.2796495855 -0.1159580797 0.1052419841 7.434656265e-39
-0.2861141562 0.1245080158 0.03791708499 7.434656265e-39
0.07614368945 0.1306421906 0.1779736578 8.170410826e-39
0.2512649596 0.1281221956 0.1952062845 8.170410826e-39
0.1519683301 0.1425345093 0.1974218041 8.170410826e-39
-0.09333841503 0.1429231167 0.2230083942 8.170410826e-39
-0.05480631441 0.1518546343 0.1684406251 8.170410826e-39
0.2918435633 0.1147419959 0.1747087538 8.170410826e-39
0.09395326674 0.1365647465 0.1867056489 8.170410826e-39
0.1067301333 0.1463295966 0.2106426358 8.170410826e-39
-0.140955016 0.1345031261 0.1782370508 8.170410826e-39
0.2722527087 0.1165385172 0.1642661989 8.170410826e-39
0.07909253985 0.1325508356 0.1864301562 8.170410826e-39
0.2064401507 0.1365619451 0.2008322924 8.170410826e-39
0.07904993743 0.1369305551 0.1795193106 8.170410826e-39
0.2679427862 0.1241650805 0.1910568327 8.170410826e-39
0.1447755992 0.1380706877 0.1963593662 8.170410826e-39
-0.02825119533 0.1511378288 0.2168523222 8.170410826e-39
-0.08904921263 0.1474594176 0.1679189801 8.170410826e-39
0.2872995436 0.1162366644 0.1718712151 8.170410826e-39
