# .PCD v0.7 - Point Cloud Data file format
VERSION 0.7
FIELDS x y z rgb
SIZE 4 4 4 4
TYPE F F F F
COUNT 1 1 1 1
WIDTH 843
HEIGHT 1
VIEWPOINT 0 0 0 1 0 0 0
POINTS 843
DATA ascii
-0.1670232564 0.1070632786 -0.1490728408 5.962428276e-39
-0.2199362516 0.07578870654 0.05824090168 5.962428276e-39
-0.2137234658 0.118135199 -0.1833597124 5.962428276e-39
-0.2502594888 0.1172258258 -0.08179813623 5.962428276e-39
-0.2295320332 0.1109108403 -0.03930211812 5.962428276e-39
-0.2184226215 0.1079565063 -0.05008510873 5.962428276e-39
-0.2372949719 0.1124437898 -0.05165838823 5.962428276e-39
-0.2529643774 0.118605718 -0.2204987705 5.962428276e-39
-0.1910636276 0.1155801266 -0.1487844139 5.962428276e-39
-0.1988395303 0.08491820842 0.05289569125 5.962428276e-39
-0.2279513031 0.09701748937 0.03346337751 5.962428276e-39
-0.2015214264 0.1136771664 -0.1294485927 5.962428276e-39
-0.1554865092 0.1065720767 -0.2544353604 5.962428276e-39
-0.3158002794 0.1140155941 -0.1057185382 5.962428276e-39
-0.1408612281 0.09756240249 -0.2311006039 5.962428276e-39
-0.1746958345 0.1102856994 -0.1815087646 5.962428276e-39
-0.2424409688 0.1164505035 -0.1426959783 5.962428276e-39
0.008892569691 -0.09569720924 0.2990863919 6.698542971e-39
-0.07579776645 -0.1036442667 0.3052617311 6.698542971e-39
0.1192192361 -0.0944487378 0.351862669 6.698542971e-39
-0.1127693132 -0.1082484722 0.3148126304 6.698542971e-39
0.09298867732 -0.09308824688 0.3284742534 6.698542971e-39
0.02181760408 -0.09448494017 0.2982692122 6.698542971e-39
0.270160675 -0.06040892005 0.3804921806 6.698542971e-39
-0.03439225256 -0.1009693891 0.3372261226 6.698542971e-39
0.1738641858 -0.07684268802 0.3579207361 6.698542971e-39
0.007791622076 -0.08683806658 0.3510680199 6.698542971e-39
0.2841530144 -0.05501060188 0.3855535984 6.698542971e-39
0.1264126301 -0.03231708333 0.391459465 6.698542971e-39
0.2153483033 -0.06408847123 0.3772560656 6.698542971e-39
0.05633334443 -0.07044728845 0.3634289205 6.698542971e-39
0.2936525941 -0.05326472968 0.3854806423 6.698542971e-39
0.1165778413 -0.03263154253 0.3914760053 6.698542971e-39
0.1039775684 -0.06809812039 0.3789058328 6.698542971e-39
0.02243187092 -0.07762169093 0.3556739688 6.698542971e-39
0.2397593856 -0.0534616895 0.3841418028 6.698542971e-39
-0.00579023594 -0.07075389475 0.3741357327 6.698542971e-39
0.1473754048 -0.0748584941 0.3672140837 6.698542971e-39
0.05040639266 -0.08008856326 0.3536177874 6.698542971e-39
0.2648646235 -0.04283293337 0.3906440735 6.698542971e-39
0.009359994903 -0.06223131716 0.3821988702 6.698542971e-39
0.1871652007 -0.06757313013 0.3739321828 6.698542971e-39
0.06916747242 -0.06866519898 0.3718976378 6.698542971e-39
0.2607442141 -0.04713564366 0.3892775178 6.698542971e-39
0.178302601 -0.03253649175 0.3903177381 6.698542971e-39
0.2873353362 -0.02854030579 0.3919345737 6.698542971e-39
0.3042708635 0.03100971319 0.3906293511 6.698542971e-39
0.2356496602 -0.045773644 0.3874355257 6.698542971e-39
0.1829126775 -0.03710826486 0.3882198036 6.698542971e-39
0.2891567051 -0.1013120636 0.4177599549 7.434656265e-39
0.06854575127 0.05234752595 0.4116075933 7.434656265e-39
-0.1893918067 0.09405694902 0.3983703554 7.434656265e-39
0.2112826705 -0.1203437075 0.4191343188 7.434656265e-39
0.1711028367 0.03374295682 0.4315835536 7.434656265e-39
0.2074462175 -0.02150044031 0.442468375 7.434656265e-39
0.1545674503 0.06668224186 0.4320715666 7.434656265e-39
0.06191021204 -0.04550913721 0.3641925156 7.434656265e-39
0.2020334452 -0.1235665306 0.3844547868 7.434656265e-39
-0.1410381943 0.0678229928 0.3641696572 7.434656265e-39
-0.1856406927 0.08886735141 0.3881035149 7.434656265e-39
0.1491189599 -0.1003915295 0.3170644045 7.434656265e-39
0.1149156764 -0.1026084572 0.3575817645 7.434656265e-39
-0.08456176519 0.07301253825 0.3874422312 7.434656265e-39
-0.1269060224 0.07974021882 0.3915022314 7.434656265e-39
0.1138202772 -0.1033003107 0.3567256033 7.434656265e-39
0.1671870798 -0.1192727685 0.3891291618 7.434656265e-39
-0.06139408424 0.0713467747 0.386547029 7.434656265e-39
-0.1850608885 0.09103344381 0.3910072744 7.434656265e-39
0.1795661002 -0.1199345365 0.3967374265 7.434656265e-39
0.1067294702 -0.1005883589 0.3656751215 7.434656265e-39
0.1176769212 0.02606479451 0.4031227827 7.434656265e-39
0.01644975506 0.07411974669 0.4122214317 7.434656265e-39
0.1638693511 -0.1084976643 0.418902874 7.434656265e-39
0.1382017881 -0.1106678993 0.3593633473 7.434656265e-39
0.1328454614 -0.07149397582 0.3997395039 7.434656265e-39
0.1844208688 0.0221123714 0.4310394824 7.434656265e-39
0.1380497813 -0.07788619399 0.4033000469 7.434656265e-39
0.1433530897 0.01642914489 0.4025125206 7.434656265e-39
0.1189744696 0.004120363854 0.3381258249 7.434656265e-39
-0.03677752241 0.06358271837 0.3709692657 7.434656265e-39
0.01500884257 0.0470572561 0.3567111194 7.434656265e-39
0.3452084363 -0.0545444116 0.2190293819 8.170410826e-39
0.3249669373 -0.06702878326 0.3295181394 8.170410826e-39
0.3734810352 -0.1032686234 0.2242012471 8.170410826e-39
0.3168552518 0.03044943698 0.2008732855 8.170410826e-39
0.2397405505 -0.01380188297 0.2923366725 8.170410826e-39
0.1721719354 -0.05820434168 0.3427121341 8.170410826e-39
0.3628823161 -0.1152379587 0.3609999716 8.170410826e-39
0.151610136 0.0960701555 0.3643607199 8.170410826e-39
0.3391447067 -0.05408586934 0.2252609283 8.170410826e-39
0.2874776721 -0.0549611859 0.3173210323 8.170410826e-39
0.3565678298 -0.09172248095 0.3222115636 8.170410826e-39
0.1403276771 0.07513388991 0.3357613385 8.170410826e-39
0.2591852248 -0.05206750706 0.2983094752 8.170410826e-39
0.1594211608 -0.06050711498 0.3308775425 8.170410826e-39
0.3574602604 -0.1035231203 0.3396870494 8.170410826e-39
0.1874537021 0.08950325102 0.3251470327 8.170410826e-39
0.3043913543 -0.05470016971 0.2954427004 8.170410826e-39
0.2410263419 -0.03343423083 0.2937916815 8.170410826e-39
0.3565379083 -0.0854544118 0.2821755707 8.170410826e-39
0.2426573336 0.015829321 0.2796494067 8.170410826e-39
0.3131032884 -0.03936847299 0.2403327823 8.170410826e-39
0.2804802954 -0.05194590241 0.2882018089 8.170410826e-39
0.3230648339 -0.06742853671 0.3332823515 8.170410826e-39
0.2787424624 0.00491422927 0.2617575228 8.170410826e-39
0.3233968914 -0.0536615476 0.2412924021 8.170410826e-39
0.290430665 0.009561813436 0.2471582592 8.170410826e-39
0.2209022045 -0.05797190219 0.3866975605 8.170410826e-39
0.1799677461 -0.06054505706 0.3330285847 8.170410826e-39
0.3364477754 -0.07799620181 0.3454136848 8.170410826e-39
0.2056271881 0.08233819902 0.3140871525 8.170410826e-39
0.3130901158 -0.05860232934 0.2808996439 8.170410826e-39
0.1562150866 -0.06385631114 0.3307653069 8.170410826e-39
-0.224750191 -0.01395874657 0.3627525866 8.906165387e-39
-0.190432027 0.1345239878 0.3268244565 8.906165387e-39
-0.07553100586 0.09701514244 0.3500614464 8.906165387e-39
-0.2097344995 0.126588285 0.1317838579 8.906165387e-39
-0.07526917756 0.1325107813 0.3414629698 8.906165387e-39
-0.04090496153 0.1272719502 0.3463946879 8.906165387e-39
-0.2431370765 -0.04868291691 0.3635070026 8.906165387e-39
-0.2410949022 0.1357196718 0.2197967619 8.906165387e-39
-0.2317040116 0.005897222552 0.3638464808 8.906165387e-39
-0.224661842 0.1273692101 0.3309238851 8.906165387e-39
-0.1482262462 0.00488072494 0.351971209 8.906165387e-39
-0.2459487915 0.1268633604 0.150158301 8.906165387e-39
-0.192065075 0.09099101275 0.3567851484 8.906165387e-39
-0.1551778167 0.1371760517 0.2653573453 8.906165387e-39
-0.1652087569 -0.05839162692 0.354064852 8.906165387e-39
-0.2010432631 0.1312656254 0.1993979514 8.906165387e-39
-0.1863874197 0.0553034842 0.3566395044 8.906165387e-39
-0.13352485 0.1376728415 0.3050253093 8.906165387e-39
-0.07461013645 0.04352178797 0.3442983627 8.906165387e-39
-0.1639390588 0.1281769127 0.1707152873 8.906165387e-39
-0.1137762144 0.1361503154 0.3378388584 8.906165387e-39
-0.07523801178 0.1414722651 0.3358703256 8.906165387e-39
0.03362808749 0.1003078744 0.3446013033 8.906165387e-39
-0.05586149171 0.1338120103 0.281224519 8.906165387e-39
-0.05697266385 0.1243365407 0.3477055728 8.906165387e-39
-0.1019292027 0.139670074 0.3222540915 8.906165387e-39
-0.1525652111 0.0663344264 0.3513759673 8.906165387e-39
-0.05389593914 0.1114427596 0.348852396 8.906165387e-39
-0.2365050614 -0.06028549001 0.3625717461 8.906165387e-39
-0.24015522 0.1313980073 0.2616989613 8.906165387e-39
-0.2341943383 0.01852707192 0.3646966815 8.906165387e-39
-0.2441309392 0.1308554709 0.1690194756 8.906165387e-39
-0.3066558242 -0.1485383064 0.4157474041 9.641561216e-39
-0.2924101353 -0.05128197372 0.384861052 9.641561216e-39
-0.3027103543 -0.0820511058 0.3103953004 9.641561216e-39
-0.3071573079 -0.04853339493 0.4356719553 9.641561216e-39
-0.309383899 -0.1076198965 0.3770716488 9.641561216e-39
-0.3045288324 -0.1334114224 0.451207906 9.641561216e-39
-0.2790265083 -0.02447797731 0.108872287 9.641561216e-39
-0.3074255288 0.03840531036 0.3911813796 9.641561216e-39
-0.3063491583 -0.08760228008 0.3920558989 9.641561216e-39
-0.2606566548 -0.02068610489 0.3688527048 9.641561216e-39
-0.2156608552 0.002384315478 0.309207499 9.641561216e-39
-0.3085183501 -0.01158699673 0.4423694611 9.641561216e-39
-0.2717995644 -0.06274969876 0.3697317839 9.641561216e-39
-0.3162541091 -0.09547606856 0.4025930166 9.641561216e-39
-0.1656360924 0.0300429184 0.2378658354 9.641561216e-39
-0.3081076145 -0.002839743858 0.4479297996 9.641561216e-39
-0.3156611025 -0.1378683001 0.3936813176 9.641561216e-39
-0.3077745736 -0.09229730815 0.3917986751 9.641561216e-39
-0.2031477094 0.01466698851 0.2914562225 9.641561216e-39
-0.2980195284 -0.08008091152 0.4623544812 9.641561216e-39
-0.2698320746 -0.04667363316 0.3666627705 9.641561216e-39
-0.3147487342 -0.1334681511 0.4101226032 9.641561216e-39
-0.1678731292 0.01267368998 0.3031003475 9.641561216e-39
-0.3005624712 -0.0909498781 0.4533714652 9.641561216e-39
-0.2831665277 -0.06689362228 0.3753684461 9.641561216e-39
-0.3156453669 -0.1015306115 0.4104396999 9.641561216e-39
-0.1781098694 -0.006845881231 0.3318565786 9.641561216e-39
-0.30773139 -0.06127424538 0.4163149297 9.641561216e-39
-0.241877839 -0.009653335437 0.325156033 9.641561216e-39
-0.2987702191 0.02652437054 0.386797756 9.641561216e-39
-0.2668444514 -0.04221333936 0.3692801595 9.641561216e-39
-0.2568314373 0.009341504425 0.3624750972 9.641561216e-39
-0.1953329593 -0.08037605882 0.4010796845 1.037659831e-38
0.1862914264 -0.07176117599 0.3257372677 1.037659831e-38
0.2432172298 -0.008531937376 0.3849486411 1.037659831e-38
0.2629894614 -0.0452606827 0.330099225 1.037659831e-38
0.01989361458 -0.07291545719 0.3563979268 1.037659831e-38
0.0288075842 -0.0876217857 0.3269099295 1.037659831e-38
0.02462719753 -0.02018892579 0.4267505407 1.037659831e-38
0.2252342999 -0.03347653523 0.3430570364 1.037659831e-38
-0.252528578 -0.1005812213 0.3971218169 1.037659831e-38
0.1842987835 -0.08582472056 0.3389941752 1.037659831e-38
0.0981920585 -0.1159372479 0.3849360049 1.037659831e-38
0.1716106832 -0.07244542986 0.3477847576 1.037659831e-38
-0.002965553431 -0.108200036 0.3753663898 1.037659831e-38
0.1307446063 -0.106748499 0.3302373588 1.037659831e-38
0.01582597755 -0.08344521374 0.4155773818 1.037659831e-38
0.19586806 -0.06640502065 0.3438756168 1.037659831e-38
-0.06083721668 -0.08865401149 0.4037720859 1.037659831e-38
0.1976708174 -0.097274445 0.3282724619 1.037659831e-38
0.1382968128 -0.09070666879 0.3349506855 1.037659831e-38
0.177365005 -0.09002030641 0.3374375999 1.037659831e-38
0.05811854824 -0.08217249811 0.3686544895 1.037659831e-38
0.1979921758 -0.113139838 0.3592282236 1.037659831e-38
0.1348158121 -0.1037927866 0.3581818342 1.037659831e-38
0.09928753972 -0.08634386957 0.3495625556 1.037659831e-38
0.02579784393 -0.08698636293 0.3983439207 1.037659831e-38
0.2228344232 -0.09285488725 0.3478179872 1.037659831e-38
-0.02187478915 -0.07531102002 0.376822859 1.037659831e-38
0.04872694239 -0.1171955764 0.3304633796 1.037659831e-38
-0.1896806806 -0.06869251281 0.4007561505 1.037659831e-38
0.1935026497 -0.1159923598 0.3166122139 1.037659831e-38
-0.179685846 -0.09102854133 0.4031350017 1.037659831e-38
0.0773511529 -0.115210861 0.3147315681 1.037659831e-38
-0.252774924 0.1013534367 -0.2829553187 1.111163541e-38
-0.0972006619 0.1017711088 0.1313700229 1.111163541e-38
-0.1343634278 0.095753178 -0.02823483944 1.111163541e-38
-0.06625688821 0.1074896306 0.1687099785 1.111163541e-38
-0.2619974017 0.1149353832 -0.23955293 1.111163541e-38
-0.1254184842 0.0939353928 -0.04873377457 1.111163541e-38
-0.1529667377 0.1017084345 -0.1042177081 1.111163541e-38
-0.01623314247 0.1133069694 0.2162052393 1.111163541e-38
-0.1281732619 0.096588552 0.01708320528 1.111163541e-38
-0.08134110272 0.1045106947 0.1445825994 1.111163541e-38
-0.1197968572 0.09374047816 0.05192201957 1.111163541e-38
-0.08237695694 0.1048633233 0.1479531825 1.111163541e-38
-0.1636391133 0.106627211 -0.1207878217 1.111163541e-38
-0.1213289723 0.09874270111 0.09892965853 1.111163541e-38
-0.1274297535 0.09541702271 -0.05831322074 1.111163541e-38
-0.09513556212 0.1009238511 0.1214675829 1.111163541e-38
-0.151809901 0.106250681 -0.1084818169 1.111163541e-38
-0.1315564513 0.09907022119 0.078146182 1.111163541e-38
-0.1405444443 0.1005259529 -0.06242737174 1.111163541e-38
-0.1117422134 0.09411130846 0.01115725841 1.111163541e-38
-0.1576107144 0.1072234064 -0.1310946941 1.111163541e-38
-0.1500665694 0.1028621197 0.02220696956 1.111163541e-38
-0.1687126756 0.104987897 -0.1684039086 1.111163541e-38
-0.1153108776 0.09517499804 -0.02490602061 1.111163541e-38
-0.1421365589 0.1056209505 -0.1018488556 1.111163541e-38
-0.1300724149 0.09999096394 0.0253353063 1.111163541e-38
-0.2054801136 0.1137924269 -0.1651477665 1.111163541e-38
-0.1397274137 0.1028185859 -0.05570987612 1.111163541e-38
-0.1294113398 0.09832385182 -0.05083213001 1.111163541e-38
-0.09651380032 0.1006228477 0.1210982427 1.111163541e-38
-0.1283575594 0.09912922978 0.0535156168 1.111163541e-38
-0.1115837321 0.09888150543 0.1056694686 1.111163541e-38
-0.2164429575 0.1040672958 -0.3829835355 1.184631237e-38
-0.1914191395 0.1084707454 -0.3432606757 1.184631237e-38
-0.1799896955 0.1298368126 -0.1263918728 1.184631237e-38
-0.2547647357 0.1359775364 -0.0411416702 1.184631237e-38
-0.2835103869 0.1274759322 -0.2516094744 1.184631237e-38
-0.1828735322 0.1213381365 -0.2317110598 1.184631237e-38
-0.1397732794 0.1264785528 0.1451129168 1.184631237e-38
-0.2774374187 0.1292302012 -0.2248752862 1.184631237e-38
-0.1755233109 0.1117701083 -0.392618984 1.184631237e-38
-0.1742750555 0.1044374928 -0.3663377166 1.184631237e-38
-0.158507064 0.1303407699 -0.03106958792 1.184631237e-38
-0.2131831646 0.1317111701 -0.105320707 1.184631237e-38
-0.2118106782 0.1048165709 -0.374863863 1.184631237e-38
-0.2202456743 0.1145229116 -0.3268865645 1.184631237e-38
-0.1707856655 0.1318072379 0.02380188927 1.184631237e-38
-0.2188664526 0.1312904656 -0.1653886586 1.184631237e-38
-0.2173079848 0.1057691425 -0.3956811726 1.184631237e-38
-0.2326072901 0.1130500436 -0.3428223133 1.184631237e-38
-0.2251132727 0.1307154894 -0.1767969877 1.184631237e-38
-0.1813795269 0.1327358335 0.1837392747 1.184631237e-38
-0.254839927 0.1136989743 -0.3543282151 1.184631237e-38
-0.2282689661 0.1213140264 -0.2829285264 1.184631237e-38
-0.2484383285 0.1329461336 -0.1368941814 1.184631237e-38
-0.1683326811 0.1304056644 0.1213988885 1.184631237e-38
-0.2667347193 0.1125355065 -0.3717066646 1.184631237e-38
-0.2445688099 0.1192382723 -0.3168475926 1.184631237e-38
-0.2073267698 0.1344270259 -0.01144735422 1.184631237e-38
-0.1698866189 0.1191374511 -0.2276398689 1.184631237e-38
-0.1503099799 0.1290303022 -0.009392282926 1.184631237e-38
-0.2153757066 0.1054921746 -0.3950116932 1.184631237e-38
-0.1661269069 0.1121488735 -0.3906157911 1.184631237e-38
-0.1791966856 0.1064028442 -0.3413351178 1.184631237e-38
-0.3464803696 0.1266138256 -0.1810643673 1.258099074e-38
-0.2924442291 0.1348339468 0.4389805496 1.258099074e-38
-0.3559612632 0.1321253181 0.1058731377 1.258099074e-38
-0.3351642191 0.1305831969 0.4123314917 1.258099074e-38
-0.3368715644 0.1346566677 0.04635917395 1.258099074e-38
-0.3172567785 0.1350115538 0.1625784338 1.258099074e-38
-0.3324805796 0.1357673556 0.2561697066 1.258099074e-38
-0.3575553298 0.1305326819 0.24537085 1.258099074e-38
-0.364802748 0.1332893819 -0.2877618968 1.258099074e-38
-0.3468226492 0.1295249611 0.4021870196 1.258099074e-38
-0.3577878475 0.1314163953 0.1094601378 1.258099074e-38
-0.3572022617 0.1322117001 0.2894069254 1.258099074e-38
-0.3561612368 0.1315664649 -0.1594805866 1.258099074e-38
-0.3631974757 0.1125395149 0.2273148745 1.258099074e-38
-0.3520420194 0.1311143637 0.09114055336 1.258099074e-38
-0.3584009409 0.133221522 0.2929942906 1.258099074e-38
-0.3520177901 0.1270438284 -0.2001806796 1.258099074e-38
-0.3566856086 0.115163669 0.3433585763 1.258099074e-38
-0.3605028987 0.1288610101 0.1683581173 1.258099074e-38
-0.3435756266 0.1325857341 0.4014225304 1.258099074e-38
-0.3456944525 0.1303433627 -0.02018206753 1.258099074e-38
-0.3651452065 0.1142921299 0.2054689676 1.258099074e-38
-0.357088089 0.1331588924 0.2119071037 1.258099074e-38
-0.3545217216 0.1338685453 0.3746563494 1.258099074e-38
-0.35052073 0.129317373 -0.05472851917 1.258099074e-38
-0.3585828841 0.113948673 0.3279984295 1.258099074e-38
-0.3483818471 0.1315024644 -0.02777856216 1.258099074e-38
-0.3629813492 0.09781293571 0.110335812 1.258099074e-38
-0.3578817844 0.1276908517 0.06210146472 1.258099074e-38
-0.3593434393 0.1265360117 0.2977333069 1.258099074e-38
-0.3676094413 0.1314258575 -0.2329399288 1.258099074e-38
-0.3584611416 0.1088085026 0.2942734063 1.258099074e-38
-0.3132322431 -0.1266519874 -0.3393606246 1.331530897e-38
-0.2436801344 -0.1186835691 0.004357712809 1.331530897e-38
-0.2378721684 -0.1108039171 -0.2639562786 1.331530897e-38
-0.2402908504 -0.117600888 -0.1080897376 1.331530897e-38
-0.2976387441 -0.1200145558 -0.2705858648 1.331530897e-38
-0.319127351 -0.1116180941 -0.2438361347 1.331530897e-38
-0.2729640305 -0.130578801 -0.3685483038 1.331530897e-38
-0.2479828 -0.1102229506 -0.1168534383 1.331530897e-38
-0.3130688667 0.03839977458 -0.4232900143 1.331530897e-38
-0.3059673309 -0.116534099 -0.05389432237 1.331530897e-38
-0.2878221869 -0.1246273965 -0.3360615969 1.331530897e-38
-0.2742590904 -0.1327580065 -0.390283227 1.331530897e-38
-0.3242027164 -0.05733720958 -0.3808505535 1.331530897e-38
-0.3146105409 -0.1063587889 -0.1272110641 1.331530897e-38
-0.2916406095 -0.1340768933 -0.3609493673 1.331530897e-38
-0.264659971 -0.1166027114 -0.141567722 1.331530897e-38
-0.3019534647 -0.06633397192 -0.4334057868 1.331530897e-38
-0.28193295 -0.1227669567 -0.02725589834 1.331530897e-38
-0.2840840816 -0.1197894067 -0.261007905 1.331530897e-38
-0.2632070184 -0.1183851287 -0.2107447237 1.331530897e-38
-0.2892697155 -0.1392276734 -0.4099189043 1.331530897e-38
-0.304123193 -0.1092143431 -0.2237054408 1.331530897e-38
-0.314848572 -0.1175523028 -0.2799910307 1.331530897e-38
-0.2641867697 -0.118565999 -0.1276981086 1.331530897e-38
-0.2829326093 -0.1394894421 -0.4189505279 1.331530897e-38
-0.2932357788 -0.1136026084 -0.2451178282 1.331530897e-38
-0.3168604374 -0.1146446615 -0.348511368 1.331530897e-38
-0.3270607889 -0.1108341664 -0.2610033453 1.331530897e-38
-0.3239294887 -0.03508859873 -0.390573144 1.331530897e-38
-0.307136029 -0.1155288145 -0.3919455707 1.331530897e-38
-0.2965546846 -0.03971027583 -0.4492772222 1.331530897e-38
-0.3070860207 -0.1076761782 -0.1621118486 1.331530897e-38
-0.1189590245 0.14074938 -0.07826019078 1.404926846e-38
-0.06675048918 0.1336782426 0.1341268271 1.404926846e-38
-0.1644802988 0.1459311992 0.04260238633 1.404926846e-38
-0.08060260862 0.1378148496 -0.2541053891 1.404926846e-38
-0.09798998386 0.136733979 0.1510414481 1.404926846e-38
0.01291260589 0.1385489851 0.3536536396 1.404926846e-38
-0.09273571521 0.1389466524 0.3400979936 1.404926846e-38
-0.06332495809 0.1340363622 -0.3289545774 1.404926846e-38
-0.09333281219 0.1381000876 -0.2609380186 1.404926846e-38
-0.07438762486 0.1382803172 -0.2116120607 1.404926846e-38
-0.1393500566 0.1427205205 0.04097657278 1.404926846e-38
-0.030672675 0.1363464743 -0.2760452628 1.404926846e-38
-0.1311359555 0.1423426419 -0.1049836427 1.404926846e-38
-0.08864791691 0.1383851469 -0.01825901866 1.404926846e-38
-0.1022836491 0.1396358013 0.214212656 1.404926846e-38
-0.03831934556 0.1377296299 -0.2457378358 1.404926846e-38
-0.1053861976 0.1396314353 -0.2312580049 1.404926846e-38
-0.08370689303 0.1375928968 -0.01154309977 1.404926846e-38
-0.005573650822 0.1391380876 0.2739611864 1.404926846e-38
-0.04084345698 0.1373625547 -0.07874453068 1.404926846e-38
-0.1235945299 0.1399521232 0.02093374357 1.404926846e-38
0.06302836537 0.1362573653 0.2832776308 1.404926846e-38
-0.0365883112 0.1373251379 0.22651501 1.404926846e-38
-0.04322420061 0.1379491836 0.01509871334 1.404926846e-38
-0.09954159707 0.1390190721 -0.1258780658 1.404926846e-38
-0.007269071881 0.1327336133 0.1653060764 1.404926846e-38
-0.01359969378 0.133035332 0.1587699652 1.404926846e-38
-0.04851332679 0.1375819892 0.02542350627 1.404926846e-38
-0.1246651858 0.1405767947 0.01472120918 1.404926846e-38
-0.08525753766 0.1391561478 -0.1139761508 1.404926846e-38
-0.07394755632 0.1341886222 -0.2967914343 1.404926846e-38
-0.09365638345 0.1373752803 0.008402418345 1.404926846e-38
-0.02802661993 0.1241093352 0.2343455404 1.478322936e-38
0.09353004396 0.1288233548 0.3412605524 1.478322936e-38
0.1097126976 0.1292070597 0.3196862638 1.478322936e-38
0.06508361548 0.1343428642 0.1986496598 1.478322936e-38
-0.1407432705 0.1222559065 0.3275970817 1.478322936e-38
-0.0934856832 0.118519716 0.05299151316 1.478322936e-38
0.04799544066 0.1301245689 0.3429769874 1.478322936e-38
-0.01758732274 0.1271302551 0.2751065195 1.478322936e-38
-0.194831863 0.1206226721 -0.1241260618 1.478322936e-38
-0.2633184791 0.1236044765 0.02451758459 1.478322936e-38
-0.1154225171 0.1212513894 0.2632228136 1.478322936e-38
-0.1611266732 0.1195428148 0.1984883845 1.478322936e-38
-0.2513350844 0.1238690987 0.2318516523 1.478322936e-38
-0.23601982 0.1233308241 -0.07717473805 1.478322936e-38
-0.03671610728 0.1333302855 0.3753825724 1.478322936e-38
-0.1788571179 0.1238780394 0.2247646153 1.478322936e-38
-0.2163547724 0.1249220148 0.1625476032 1.478322936e-38
-0.2082375884 0.1249315217 0.05628995225 1.478322936e-38
-0.0682367757 0.1301147938 0.331273526 1.478322936e-38
-0.1588412523 0.1220951974 0.2052996904 1.478322936e-38
-0.2020240128 0.1287896335 0.2967059612 1.478322936e-38
-0.1784213632 0.1173690706 -0.1532028913 1.478322936e-38
-0.07506371289 0.1316733509 0.3449955285 1.478322936e-38
-0.1729030609 0.1201262772 0.155761674 1.478322936e-38
-0.1811614484 0.1281813234 0.2581577003 1.478322936e-38
-0.1818780005 0.120650731 -0.0406357944 1.478322936e-38
-0.1103017405 0.1306565702 0.3207418919 1.478322936e-38
-0.2374521494 0.1241852418 0.07608733326 1.478322936e-38
-0.09242586792 0.1263207048 0.2845175862 1.478322936e-38
-0.1617170423 0.1301778257 0.3008982241 1.478322936e-38
-0.2353102118 0.1240176558 0.06704634428 1.478322936e-38
-0.250212431 0.1232735366 0.2044242173 1.478322936e-38
0.2949915826 0.1064176261 0.1228006557 1.551683013e-38
0.3566637337 0.1157875881 0.3306441903 1.551683013e-38
0.2921117544 0.1218710989 0.1706657708 1.551683013e-38
0.3232067525 0.108977519 0.1299765855 1.551683013e-38
0.3260879219 0.113555178 0.150335446 1.551683013e-38
0.3496019542 0.119793728 0.2184369266 1.551683013e-38
0.3298175931 0.1320497543 0.2773974538 1.551683013e-38
0.3355055153 0.120167926 0.1853037179 1.551683013e-38
0.1779960394 0.1163344383 0.1740495861 1.551683013e-38
0.3457688093 0.1243939549 0.361720264 1.551683013e-38
0.2980400026 0.1237246022 0.1808859557 1.551683013e-38
0.3105524778 0.1197592989 0.1706620604 1.551683013e-38
0.3359638155 0.11120902 0.1550516635 1.551683013e-38
0.3444440961 0.1257347316 0.2884076536 1.551683013e-38
0.3325287104 0.1230635867 0.1968934685 1.551683013e-38
0.3415763676 0.1171940938 0.1897891313 1.551683013e-38
0.3299569786 0.1056879312 0.1241468489 1.551683013e-38
0.3556359112 0.1199619472 0.3054701984 1.551683013e-38
0.3297546506 0.1149505451 0.1598191559 1.551683013e-38
0.3364937901 0.1122450605 0.1544373333 1.551683013e-38
0.3438108861 0.1115282401 0.1555908024 1.551683013e-38
0.3458195627 0.1228150204 0.243588835 1.551683013e-38
0.3528570533 0.1145160943 0.1829917878 1.551683013e-38
0.3423967659 0.11397174 0.1668646485 1.551683013e-38
0.3294884861 0.1097785458 0.1427663565 1.551683013e-38
0.340220958 0.1242247745 0.2420546561 1.551683013e-38
0.3573414981 0.1130385324 0.1909598559 1.551683013e-38
0.3471918702 0.1212607473 0.2313588709 1.551683013e-38
0.2621772289 0.1213471144 0.1641384214 1.551683013e-38
0.3380748034 0.1235832497 0.2243549079 1.551683013e-38
0.2680101097 0.116250962 0.1562391371 1.551683013e-38
0.3338867724 0.1300711334 0.3023123145 1.551683013e-38
-0.2875420153 0.08711789548 0.221934855 1.625043089e-38
-0.2951643765 0.1056863666 0.04964838549 1.625043089e-38
-0.2956215143 0.06821291894 0.4262017608 1.625043089e-38
-0.2924373448 0.1005537659 0.03006533533 1.625043089e-38
-0.2964513004 0.09554314613 0.3265116215 1.625043089e-38
-0.2977953553 0.1068788543 0.2056075484 1.625043089e-38
-0.2843231559 0.02514795028 0.3239045739 1.625043089e-38
-0.3130767047 0.1114610657 -0.2119688541 1.625043089e-38
-0.2879658639 0.09488750249 0.2052857131 1.625043089e-38
-0.2992501259 0.1065244079 0.01548335794 1.625043089e-38
-0.284712851 -0.0007736709085 0.3485834002 1.625043089e-38
-0.3037156463 0.1028296351 -0.07022546232 1.625043089e-38
-0.2934023738 0.09080875665 0.2903865576 1.625043089e-38
-0.2886203527 0.09023347497 0.177754432 1.625043089e-38
-0.2845750153 0.01883638278 0.3103235662 1.625043089e-38
-0.3104723394 0.1074924394 -0.1387883276 1.625043089e-38
-0.2953891456 0.09595614672 0.2537255883 1.625043089e-38
-0.2984812558 0.1107184216 0.1119649187 1.625043089e-38
-0.287027657 0.02752753161 0.3589726388 1.625043089e-38
-0.2987783253 0.1013599858 -0.01198712643 1.625043089e-38
-0.2989542484 0.08638969809 0.3797221184 1.625043089e-38
-0.2948250175 0.09515422583 0.229229331 1.625043089e-38
-0.2932333052 0.06116357446 0.3374456167 1.625043089e-38
-0.2945674956 0.08691640198 -0.01947004162 1.625043089e-38
-0.2974884212 0.07751404494 0.3951809406 1.625043089e-38
-0.2869220674 0.08122721314 0.1672424823 1.625043089e-38
-0.2927830815 0.07188055664 0.3214154243 1.625043089e-38
-0.2792198658 0.06722155958 0.08997646719 1.625043089e-38
-0.2797112763 0.02260919847 0.2326544374 1.625043089e-38
-0.3048868179 0.09987044334 -0.1079029292 1.625043089e-38
-0.2906211317 0.09072817862 0.2737963796 1.625043089e-38
-0.2913053334 0.1028937399 0.1095630974 1.625043089e-38
-0.3289296329 0.1446995437 -0.1622716337 1.698367293e-38
-0.1144284606 0.1018731892 -0.3025388718 1.698367293e-38
-0.3199377954 0.1107771322 -0.3334735632 1.698367293e-38
-0.1825676709 -0.1364104897 -0.3976150453 1.698367293e-38
-0.1504762918 0.1443217546 -0.1822828501 1.698367293e-38
-0.1883440316 -0.0782879144 -0.408849746 1.698367293e-38
-0.1787085682 -0.07311683893 -0.4048960507 1.698367293e-38
-0.1948900223 -0.055023022 -0.3680107296 1.698367293e-38
-0.2883397341 0.1519091278 -0.2237971872 1.698367293e-38
-0.09318672866 0.1067140847 -0.2758032084 1.698367293e-38
-0.2496926337 0.08315900713 -0.3549046218 1.698367293e-38
-0.1766850501 -0.001345335622 -0.3648998439 1.698367293e-38
-0.2428337187 0.1444865763 -0.2524525523 1.698367293e-38
-0.1608109176 0.1310103387 -0.2994568348 1.698367293e-38
-0.1894035637 -0.04826114699 -0.4084404409 1.698367293e-38
-0.194017604 -0.0437961258 -0.3766748607 1.698367293e-38
-0.3020674586 0.1447417438 -0.2332357764 1.698367293e-38
-0.1818858981 0.120181039 -0.3308314085 1.698367293e-38
-0.2436146438 0.05992766842 -0.3689465225 1.698367293e-38
-0.1657381207 0.03588343039 -0.3610964417 1.698367293e-38
-0.2645537257 0.1350114793 -0.2767980993 1.698367293e-38
-0.1699682474 0.05287856609 -0.3734838367 1.698367293e-38
-0.1869833916 -0.004502750468 -0.3927614689 1.698367293e-38
-0.1895622462 -0.1535087526 -0.4255338013 1.698367293e-38
-0.3010306358 0.1227776334 -0.3023327291 1.698367293e-38
-0.1686149538 -0.03238456324 -0.3996560574 1.698367293e-38
-0.1648863405 -0.02392940037 -0.3903181553 1.698367293e-38
-0.188499257 -0.1076534018 -0.4145394862 1.698367293e-38
-0.2703834474 0.02398242615 -0.3953232169 1.698367293e-38
-0.1943202764 -0.1135993823 -0.399061799 1.698367293e-38
-0.3234421909 0.1323724985 -0.2368468046 1.698367293e-38
-0.1246770695 0.08258275688 -0.3209205866 1.698367293e-38
0.2649873197 0.1218646616 0.3570833802 1.771655483e-38
-0.07519195974 0.1324103922 0.4255564511 1.771655483e-38
0.1395175457 0.1228984147 0.2959882617 1.771655483e-38
0.06584268808 0.1253394634 0.4138050675 1.771655483e-38
0.3076565266 0.124696143 0.3476593792 1.771655483e-38
0.01088749431 0.1321796775 0.4248214066 1.771655483e-38
0.3050196767 0.1276191026 0.2880178988 1.771655483e-38
0.1013512164 0.1188782752 0.4272173345 1.771655483e-38
0.1907820851 0.1218668222 0.3909006119 1.771655483e-38
0.04767795652 0.1203849539 0.4282394946 1.771655483e-38
0.3827838898 0.1417722702 0.2650242746 1.771655483e-38
0.3714148402 0.1271931231 0.3885985315 1.771655483e-38
0.3771583438 0.1389310658 0.3062990904 1.771655483e-38
0.2125353217 0.09640606493 0.4192612469 1.771655483e-38
0.3530234396 0.1356752515 0.2362225503 1.771655483e-38
0.356150955 0.1126497164 0.3987303972 1.771655483e-38
0.3729986548 0.1416118741 0.3685650229 1.771655483e-38
0.1816042364 0.08585580438 0.4220459461 1.771655483e-38
0.3608657718 0.1384643465 0.2851448357 1.771655483e-38
0.3684677184 0.1334322393 0.3948490024 1.771655483e-38
0.3570428789 0.1396483183 0.2952211797 1.771655483e-38
0.2770482302 0.1171252057 0.4168725312 1.771655483e-38
0.3533511758 0.1392615885 0.3185437918 1.771655483e-38
0.3746937513 0.1249713451 0.3836783767 1.771655483e-38
0.3557446599 0.1376658678 0.2617544532 1.771655483e-38
0.321562767 0.1257298142 0.4153499007 1.771655483e-38
0.3638440073 0.1392338276 0.2418904155 1.771655483e-38
0.3751660287 0.1187564507 0.3826515377 1.771655483e-38
0.3936523497 0.1423073113 0.2628698051 1.771655483e-38
0.2996156812 0.1074175835 0.4098362923 1.771655483e-38
0.3818773925 0.1374549568 0.3504088521 1.771655483e-38
0.174517706 0.116401881 0.4180561304 1.771655483e-38
-0.3335382044 0.103242889 -0.3300643861 1.844943813e-38
-0.31488657 0.09064334631 0.1230624244 1.844943813e-38
-0.3246451616 0.1185219511 0.3544391692 1.844943813e-38
-0.3193317652 0.09806545079 0.4205530584 1.844943813e-38
-0.3274922371 0.07433119416 -0.1390221864 1.844943813e-38
-0.3161019087 0.1042244434 -0.04975191876 1.844943813e-38
-0.3030319214 0.01929894648 0.4531384408 1.844943813e-38
-0.3142929077 0.1217692718 0.2245877087 1.844943813e-38
-0.3285192549 0.1102935821 -0.3815673888 1.844943813e-38
-0.3176300228 0.1213312447 0.1920115352 1.844943813e-38
-0.306885004 0.0731074512 0.4174589813 1.844943813e-38
-0.3122491837 0.08388893306 0.2830576301 1.844943813e-38
-0.3320380449 0.09839242697 -0.3260115087 1.844943813e-38
-0.3209964037 0.1080335379 -0.1242512837 1.844943813e-38
-0.3036780357 0.03649131954 0.4518322945 1.844943813e-38
-0.3127748072 0.07260422409 0.3256784976 1.844943813e-38
-0.3366543055 0.09242422879 -0.3760612905 1.844943813e-38
-0.3141537607 0.102339454 -0.04272463545 1.844943813e-38
-0.3230376244 0.1189082935 0.3526431024 1.844943813e-38
-0.3174312413 0.1007406414 0.1891244352 1.844943813e-38
-0.3319390714 0.0860671103 -0.220892027 1.844943813e-38
-0.3159714639 0.06832250953 -0.0741809085 1.844943813e-38
-0.3225872815 0.1212053001 0.2844238877 1.844943813e-38
-0.3115100861 0.07752276212 0.06989777833 1.844943813e-38
-0.3341447711 0.08146417886 -0.2687105238 1.844943813e-38
-0.3126440644 0.0596762225 -0.0625583753 1.844943813e-38
-0.3122698367 0.1137948483 -0.04837856442 1.844943813e-38
-0.3131045997 0.1088687032 0.1013336405 1.844943813e-38
-0.3072123528 0.06835220754 0.3733436465 1.844943813e-38
-0.3087372482 0.07449169457 0.2172434181 1.844943813e-38
-0.3200375438 0.1083757058 -0.1956563145 1.844943813e-38
-0.3114353716 0.09951631725 0.3680721223 1.844943813e-38
-0.1543669701 -0.08370312303 0.3847006261 1.91819627e-38
-0.2492623925 0.04097799584 0.3309102356 1.91819627e-38
0.05883058533 -0.1060107425 0.3754277229 1.91819627e-38
-0.1981738955 0.05815069377 0.2992569208 1.91819627e-38
-0.3371625841 0.03451704979 0.1380167305 1.91819627e-38
0.07295291126 -0.02932723984 0.296561867 1.91819627e-38
0.1778296977 -0.1023990288 0.302167505 1.91819627e-38
-0.297285229 0.06132669002 0.1170135811 1.91819627e-38
-0.2880665362 -0.04349879548 0.3784786761 1.91819627e-38
-0.3188658655 0.0283820536 0.2169525623 1.91819627e-38
-0.1571115553 -0.1080016792 0.3512022197 1.91819627e-38
-0.2147548497 0.07172770798 0.2015634477 1.91819627e-38
-0.3376258016 -0.03336858377 0.2377034277 1.91819627e-38
-0.2732325494 0.006331679411 0.3360555172 1.91819627e-38
0.008044755086 -0.09528253973 0.2884781063 1.91819627e-38
-0.2600554526 0.0560994558 0.2191630006 1.91819627e-38
-0.3116820753 -0.06544909626 0.3481972516 1.91819627e-38
-0.2891631126 -0.0002368167043 0.3218234479 1.91819627e-38
-0.05527776107 -0.1066631302 0.3338547647 1.91819627e-38
-0.1625231802 0.04123826697 0.2814247608 1.91819627e-38
-0.3399246335 -0.02524410933 0.2208942622 1.91819627e-38
-0.2317183465 0.00876431074 0.3275486231 1.91819627e-38
-0.08141929656 -0.09850361198 0.3149494231 1.91819627e-38
-0.0401921384 0.01941855438 0.2792106867 1.91819627e-38
-0.3135882318 -0.01133598294 0.2956259847 1.91819627e-38
-0.2897286713 0.01895469613 0.2906284034 1.91819627e-38
-0.2268628776 -0.050419081 0.3260681331 1.91819627e-38
-0.09373788536 0.0466022864 0.2170175165 1.91819627e-38
-0.1829743534 -0.03805185109 0.2991709113 1.91819627e-38
-0.3239014149 0.0257465709 0.04949399456 1.91819627e-38
-0.3074541986 -0.1055646688 0.3497425318 1.91819627e-38
-0.2045550644 0.01829302311 0.2162373662 1.91819627e-38
-0.3240596056 0.0285766907 -0.007176238578 1.991448586e-38
-0.186743781 0.01886032335 0.2176588327 1.991448586e-38
-0.1365370154 -0.009952879511 0.213357836 1.991448586e-38
-0.2223557383 0.03056742623 0.1987897307 1.991448586e-38
-0.2768462598 -0.01743533276 -0.03042272106 1.991448586e-38
-0.2583760917 -0.007665700279 0.07091629505 1.991448586e-38
-0.2027022094 -0.04590014741 0.0981682986 1.991448586e-38
-0.1362028867 0.04173654318 0.279602468 1.991448586e-38
-0.2768757343 -0.03336178511 0.02621124685 1.991448586e-38
-0.08009517938 -0.01687108725 0.2365244925 1.991448586e-38
-0.006707523018 -0.07084403187 0.1935164928 1.991448586e-38
0.003973187413 -0.04679265246 0.278735429 1.991448586e-38
-0.2377384454 0.0104720043 -0.08111712337 1.991448586e-38
-0.08433110267 -0.0595671162 0.1899398714 1.991448586e-38
-0.08051931113 -0.06608138233 0.1801442206 1.991448586e-38
0.0410162434 -0.02132091485 0.296629101 1.991448586e-38
-0.2807601392 -0.01118235569 -0.08169285953 1.991448586e-38
-0.1108796522 -0.0484126471 0.2051354051 1.991448586e-38
-0.002349893795 -0.07884269208 0.2200617492 1.991448586e-38
0.03695469722 -0.05224892497 0.2821551859 1.991448586e-38
-0.2612704039 0.01456548087 -0.1947177947 1.991448586e-38
-0.1710594147 -0.05996246263 0.1469049752 1.991448586e-38
-0.002720304532 -0.08331700414 0.2047967166 1.991448586e-38
-0.02596055716 -0.05361207575 0.2645276189 1.991448586e-38
-0.2945867479 0.01003576629 -0.2584327459 1.991448586e-38
-0.1219161674 -0.06270539016 0.1841959655 1.991448586e-38
-0.1300925463 -0.02828406356 0.070602566 1.991448586e-38
-0.01748126 -0.06286822259 0.2231096029 1.991448586e-38
-0.1268267334 -0.06462678313 0.1669051647 1.991448586e-38
0.02838928066 -0.06776154786 0.2413827181 1.991448586e-38
-0.2845495343 -0.002211552346 -0.285263449 1.991448586e-38
0.007622049656 -0.06975293159 0.193066597 1.991448586e-38
-0.2780105472 0.03400280327 0.30114308 2.06466517e-38
-0.2988262177 0.03290429711 -0.003695664927 2.06466517e-38
-0.1566885263 -0.006732034497 0.3608678281 2.06466517e-38
-0.3074010313 -0.01243411005 0.1363098025 2.06466517e-38
-0.2901522517 0.05258448422 0.2083636969 2.06466517e-38
-0.2927198708 0.05113189667 0.1057930067 2.06466517e-38
0.07994308323 -0.07406476885 0.3822823167 2.06466517e-38
-0.2580304146 -0.02293534204 0.3424838781 2.06466517e-38
-0.3098101914 -0.02621092834 0.249880299 2.06466517e-38
-0.2911772132 0.02326962352 -0.2412365824 2.06466517e-38
-0.2301622778 -0.09066954255 0.3731313646 2.06466517e-38
-0.2968576849 -0.08979286999 0.1644549668 2.06466517e-38
-0.3025247753 -0.006089407019 0.02170077711 2.06466517e-38
-0.298807919 0.01617568731 -0.1284995973 2.06466517e-38
-0.1123007089 -0.1205637157 0.4027119279 2.06466517e-38
-0.3007805645 -0.1030859277 0.2566026747 2.06466517e-38
-0.3014549315 -0.01700341702 0.1141370088 2.06466517e-38
-0.2963140607 -0.02036307752 -0.1215510741 2.06466517e-38
-0.2218832225 -0.09517487139 0.3736362159 2.06466517e-38
-0.3033884168 -0.1039136872 0.2706394196 2.06466517e-38
-0.3004219234 -0.03045559302 0.02991756797 2.06466517e-38
-0.2967948616 -0.05578865856 -0.04837132618 2.06466517e-38
-0.2742873132 -0.09938583523 0.352614224 2.06466517e-38
-0.2973618805 -0.1112304255 0.334366709 2.06466517e-38
-0.2931084931 -0.07626140118 0.05404871702 2.06466517e-38
-0.2878679335 -0.09544616193 -0.07885357738 2.06466517e-38
-0.2947191596 -0.06230538338 0.07660827041 2.06466517e-38
-0.2962851524 -0.04958675429 0.1205819994 2.06466517e-38
-0.282436192 -0.09566038102 0.3380670547 2.06466517e-38
-0.2915753424 -0.1053940654 0.1910646856 2.06466517e-38
-0.2968254685 -0.05080036446 0.03118950129 2.06466517e-38
-0.2935358286 -0.002991581801 -0.2212465107 2.06466517e-38
-0.1688298136 0.05696697906 -0.4200222492 2.137881613e-38
-0.2794730961 0.0509660989 -0.4126105309 2.137881613e-38
-0.2906838357 0.09918017685 -0.01231430098 2.137881613e-38
-0.2836414278 0.107566148 -0.2226508707 2.137881613e-38
-0.3016789854 0.067407161 -0.4017697275 2.137881613e-38
-0.2946836948 0.08105910569 -0.3876814842 2.137881613e-38
-0.2891343832 0.1136144549 -0.1933047622 2.137881613e-38
-0.2836634517 0.09470779449 -0.3697238863 2.137881613e-38
-0.1812740117 0.01811123826 -0.3915790915 2.137881613e-38
-0.1990865469 0.04588927329 -0.4116820395 2.137881613e-38
-0.2941870689 0.09883273393 -0.04900924861 2.137881613e-38
-0.2782251835 0.1112424582 -0.3179511726 2.137881613e-38
-0.2826515138 0.01672771201 -0.3514968753 2.137881613e-38
-0.286961019 0.07866387069 -0.421294421 2.137881613e-38
-0.2892189324 0.09646949172 -0.1161868274 2.137881613e-38
-0.2764554024 0.09714988619 -0.3186607361 2.137881613e-38
-0.2654768527 0.0219062455 -0.3721805513 2.137881613e-38
-0.2544229329 0.07439916581 -0.4273690283 2.137881613e-38
-0.2926524878 0.08699675649 -0.02982664295 2.137881613e-38
-0.2811145782 0.09744655341 -0.2504284382 2.137881613e-38
-0.2801934481 0.03660444915 -0.3331054449 2.137881613e-38
-0.2936748862 0.0678229779 -0.4059561491 2.137881613e-38
-0.2849049568 0.07295402139 -0.1580419391 2.137881613e-38
-0.2768274844 0.1006152034 -0.3013218939 2.137881613e-38
-0.2772257328 0.07420994341 -0.2228954434 2.137881613e-38
-0.2864827514 0.06060465053 -0.3691390157 2.137881613e-38
-0.2836444974 0.07119172812 -0.1869937629 2.137881613e-38
-0.2821566164 0.1071462035 -0.3335977793 2.137881613e-38
-0.2877066433 0.1092126295 -0.1916053146 2.137881613e-38
-0.288826853 0.1090799123 -0.380458951 2.137881613e-38
-0.279001832 -0.001576779992 -0.3389501274 2.137881613e-38
-0.292216599 0.07603813708 -0.4162516594 2.137881613e-38
-0.3164015412 0.08555813134 0.118660666 2.211062324e-38
-0.233857885 0.06608391553 0.1734384745 2.211062324e-38
-0.3188393712 0.0510494113 -0.3072595894 2.211062324e-38
-0.293151021 -0.04840090126 -0.3623490632 2.211062324e-38
-0.3134589195 0.07218430936 -0.1533826441 2.211062324e-38
-0.2881300449 -0.007166009862 -0.1974345595 2.211062324e-38
-0.3243605494 0.00685761543 -0.4437031448 2.211062324e-38
-0.2788180113 -0.0103735216 -0.1647301167 2.211062324e-38
-0.266915381 0.04566347599 0.07107532769 2.211062324e-38
-0.2266290337 0.06583891809 0.2056772858 2.211062324e-38
-0.3169527352 0.0495464839 -0.3580534458 2.211062324e-38
-0.2888630927 -0.02272616886 -0.2738772035 2.211062324e-38
-0.2973136902 0.0598535575 0.03865261748 2.211062324e-38
-0.2703009546 0.04381534085 0.08948117495 2.211062324e-38
-0.3360166252 0.09621353447 -0.3845492899 2.211062324e-38
-0.2965372503 0.03394360095 -0.189957425 2.211062324e-38
-0.2967516482 0.08779790998 0.129557088 2.211062324e-38
-0.2614790797 0.07954939455 0.2184801698 2.211062324e-38
-0.3084621429 0.08622157574 -0.2399370372 2.211062324e-38
-0.3143297434 0.0009710413287 -0.3550839126 2.211062324e-38
-0.3074342608 0.08839134872 -0.05188158527 2.211062324e-38
-0.2882471383 0.04058926925 0.0291764643 2.211062324e-38
-0.310174197 0.1032236964 -0.1979813725 2.211062324e-38
-0.3095658422 0.04595553502 -0.3067882955 2.211062324e-38
-0.3074268401 0.1018294096 -0.07077486068 2.211062324e-38
-0.2975639105 0.02132846974 -0.1493259072 2.211062324e-38
-0.3104563653 0.0999609381 -0.2166564912 2.211062324e-38
-0.2879754007 0.06320407242 0.006112061907 2.211062324e-38
-0.3121853769 0.1076513752 -0.2362905741 2.211062324e-38
-0.2726635039 -0.008764411323 -0.1255575866 2.211062324e-38
-0.2628091276 0.0883275196 0.09648488462 2.211062324e-38
-0.2379543185 0.03371816874 0.05515359342 2.211062324e-38
0.3141956031 0.1350798011 0.4484327137 2.284242894e-38
0.07806995511 0.1080392078 0.4372928739 2.284242894e-38
0.02071388252 0.1126699448 0.4387687147 2.284242894e-38
0.3349760771 0.06015992537 0.4165658057 2.284242894e-38
0.2146538496 0.1308091879 0.4524527788 2.284242894e-38
0.1924711615 0.1208385006 0.4349163771 2.284242894e-38
-0.2159316689 0.1456735134 0.3709076345 2.284242894e-38
0.2995428145 0.002459626412 0.4105875194 2.284242894e-38
0.3211313784 0.1344768107 0.4134953916 2.284242894e-38
0.03720772639 0.1090038344 0.44027704 2.284242894e-38
-0.2496028543 0.1275847107 0.4381421208 2.284242894e-38
0.3373309672 0.131663397 0.378194958 2.284242894e-38
0.2171346396 0.1203961223 0.407273531 2.284242894e-38
-0.05802164599 0.1122217923 0.4194580019 2.284242894e-38
-0.2691319287 0.1324685067 0.4187345207 2.284242894e-38
0.314501673 0.01230940688 0.3882883191 2.284242894e-38
0.3188602924 0.1319739372 0.3997832537 2.284242894e-38
-0.01857957244 0.1197761521 0.4328626692 2.284242894e-38
-0.05171694979 0.1092374697 0.4354851842 2.284242894e-38
0.323954165 0.0923544392 0.3975668252 2.284242894e-38
0.2245887369 0.1222751811 0.4219373465 2.284242894e-38
-0.04836417362 0.1157235801 0.4263302982 2.284242894e-38
-0.1404259801 0.1196715534 0.4382233024 2.284242894e-38
0.2943198085 0.1307641566 0.4191256762 2.284242894e-38
0.1827886254 0.1174549982 0.4147800207 2.284242894e-38
0.2928268015 0.1289140135 0.4129028022 2.284242894e-38
-0.2620920539 0.111263819 0.408259511 2.284242894e-38
0.3359637558 0.1396379769 0.3877658546 2.284242894e-38
0.0409283638 0.1109999642 0.4224864542 2.284242894e-38
0.3252453208 0.1076212153 0.4060419202 2.284242894e-38
0.3388800621 0.1427050382 0.395983845 2.284242894e-38
0.3217408359 0.1392328888 0.403139472 2.284242894e-38
-0.1487683356 0.1319736093 -0.3088785112 2.348204041e-38
-0.1450109631 0.1288604736 -0.01675057225 2.348204041e-38
-0.1371133029 0.1320928186 -0.3477476537 2.348204041e-38
-0.1487368941 0.1328472644 -0.2877323329 2.348204041e-38
-0.1223652288 0.1339749694 -0.3742867708 2.348204041e-38
-0.1584126949 0.1332855523 -0.194814086 2.348204041e-38
-0.2589062452 0.08008877188 -0.419015944 2.348204041e-38
-0.220069319 0.1335272491 -0.3835909665 2.348204041e-38
-0.1633184254 0.1354569346 -0.322986275 2.348204041e-38
-0.217139855 0.1367852986 -0.2847197056 2.348204041e-38
-0.322688818 0.06925660372 -0.4191865623 2.348204041e-38
-0.2608743012 0.1189488471 -0.4214001 2.348204041e-38
-0.2042182088 0.1342312247 -0.3947925568 2.348204041e-38
-0.265530467 0.1341717094 -0.3619869947 2.348204041e-38
-0.29813537 0.06006672606 -0.4177543223 2.348204041e-38
-0.2379483879 0.1320185214 -0.3936243951 2.348204041e-38
-0.211586535 0.1369888335 -0.3330808878 2.348204041e-38
-0.2368240058 0.1386514604 -0.2869146168 2.348204041e-38
-0.2956987321 0.112845473 -0.4189096987 2.348204041e-38
-0.2349013388 0.1087549105 -0.4238142073 2.348204041e-38
-0.1913386136 0.1329210401 -0.3799346387 2.348204041e-38
-0.2589062452 0.1322594881 -0.3845609128 2.348204041e-38
-0.2607172728 0.120959945 -0.4207761884 2.348204041e-38
-0.2425471246 0.1253873557 -0.4215224683 2.348204041e-38
-0.2030029446 0.1344933957 -0.3651981056 2.348204041e-38
-0.2421349436 0.1369143128 -0.3571569026 2.348204041e-38
-0.2574064136 0.09272912145 -0.4236545861 2.348204041e-38
-0.2803384066 0.1133482531 -0.4219839573 2.348204041e-38
-0.3139207065 0.117654711 -0.4075993598 2.348204041e-38
-0.2221819907 0.1373890042 -0.2703923881 2.348204041e-38
-0.2405831814 0.1334856898 -0.3761575222 2.348204041e-38
-0.2138573676 0.1364354193 -0.3179712594 2.348204041e-38
-0.03586978838 0.1130023077 0.3105905652 2.347880341e-38
0.0270490516 0.1269500703 0.212843284 2.347880341e-38
0.1851998866 0.132249102 0.1646245271 2.347880341e-38
0.08144713938 0.1291003078 0.1797961444 2.347880341e-38
0.1250827461 0.1249389425 0.2680347562 2.347880341e-38
-0.009161884896 0.1223370805 0.2405562848 2.347880341e-38
0.1271605045 0.1292028427 0.2333510518 2.347880341e-38
0.1245805845 0.1222661659 0.2949965894 2.347880341e-38
0.007034181152 0.1139301881 0.3479100764 2.347880341e-38
-0.0468567051 0.1233693659 0.1444751322 2.347880341e-38
0.1877181828 0.1321063042 0.1863550544 2.347880341e-38
0.2241222113 0.1233877167 0.3082915246 2.347880341e-38
0.08286976069 0.118489556 0.3263371587 2.347880341e-38
0.0593800135 0.123505488 0.2572704256 2.347880341e-38
0.2194573283 0.1330196261 0.2049427778 2.347880341e-38
0.2263862342 0.1232562587 0.3187388182 2.347880341e-38
0.1501449049 0.1237068474 0.373473227 2.347880341e-38
0.1349235475 0.124459751 0.2745422125 2.347880341e-38
0.2598309219 0.1305756122 0.1465862244 2.347880341e-38
0.2361951321 0.1316365898 0.2486499399 2.347880341e-38
0.2133177072 0.1245189011 0.3559810817 2.347880341e-38
0.1485353857 0.1227985397 0.3127780855 2.347880341e-38
0.2839499414 0.128002584 0.2288208008 2.347880341e-38
0.217625618 0.1297398806 0.261992842 2.347880341e-38
0.3087029457 0.1320641637 0.3881687224 2.347880341e-38
0.2774553001 0.1287705302 0.3053712845 2.347880341e-38
0.07456371933 0.1216733232 0.2784066498 2.347880341e-38
-0.004712224472 0.11920733 0.2637792826 2.347880341e-38
0.2029417902 0.1285337806 0.2614992857 2.347880341e-38
0.2904415131 0.1273816675 0.3250684142 2.347880341e-38
0.08207447827 0.1198355258 0.3746374249 2.347880341e-38
0.07601486892 0.1290597767 0.1995292157 2.347880341e-38
0.140822649 0.07990906388 0.3466048837 2.347520768e-38
-0.2401100397 -0.1322702765 0.2774130106 2.347520768e-38
-0.1745772809 -0.07653753459 0.3145328462 2.347520768e-38
0.01282575447 0.05247045681 0.3355130851 2.347520768e-38
0.2177699953 0.07941723615 0.3562829196 2.347520768e-38
-0.1967901886 -0.1059676036 0.314489603 2.347520768e-38
-0.008154762909 0.07742064446 0.3228656948 2.347520768e-38
-0.1432053596 -0.05038235337 0.3164182305 2.347520768e-38
0.05958293751 0.08419456333 0.3306574225 2.347520768e-38
-0.2503751814 -0.1399991214 0.2627450228 2.347520768e-38
-0.1097440943 0.04429351538 0.3097949028 2.347520768e-38
0.07702486217 0.08331982791 0.3412236869 2.347520768e-38
0.1425957978 0.08760081232 0.3377245367 2.347520768e-38
-0.2022342682 -0.1230213121 0.3047986925 2.347520768e-38
-0.02861597948 0.08342543244 0.3220526576 2.347520768e-38
0.03695935383 0.06693140417 0.3353208899 2.347520768e-38
0.09470696747 0.09058512747 0.3355209231 2.347520768e-38
-0.2002959102 -0.1045351252 0.2974565923 2.347520768e-38
-0.1607863754 -0.006665131077 0.303042233 2.347520768e-38
0.1404359043 0.07855861634 0.3422633111 2.347520768e-38
0.1342381835 0.1101221964 0.3103514016 2.347520768e-38
-0.1614615619 -0.07880375534 0.3132949173 2.347520768e-38
-0.1328446865 0.05168915913 0.3048883975 2.347520768e-38
0.2131044716 0.07958113402 0.3487375379 2.347520768e-38
0.149891153 0.09264358133 0.3319601417 2.347520768e-38
-0.05174513534 0.04823443294 0.3211622238 2.347520768e-38
