# .PCD v0.7 - Point Cloud Data file format
VERSION 0.7
FIELDS x y z rgb
SIZE 4 4 4 4
TYPE F F F F
COUNT 1 1 1 1
WIDTH 831
HEIGHT 1
VIEWPOINT 0 0 0 1 0 0 0
POINTS 831
DATA ascii
0.1147464961 0.002101198537 0.2920659781 1.111163541e-38
0.1033580676 0.004382209852 -0.2431027591 1.111163541e-38
0.09185771644 0.002960362239 0.04989337921 1.111163541e-38
0.1398419738 0.002397035249 -0.169953227 1.111163541e-38
0.121471867 0.002198990667 0.1907738 1.111163541e-38
0.04008550942 0.002099818317 -0.376441896 1.111163541e-38
0.08267873526 0.001205916866 -0.1947963685 1.111163541e-38
0.1483078599 -0.0004267021723 -0.2644921839 1.111163541e-38
0.1286844909 0.002781125018 0.1266451925 1.111163541e-38
0.1007443145 0.005395464599 -0.2921791375 1.111163541e-38
0.09694875777 -0.001168447896 -0.08300670236 1.111163541e-38
0.1369692385 0.004471741617 -0.1002575383 1.111163541e-38
0.1290207654 0.0043160161 0.05022523552 1.111163541e-38
0.1235019043 0.003134689294 -0.3854072392 1.111163541e-38
0.09925343096 -3.289431334e-05 -0.1667722762 1.111163541e-38
0.1472276002 0.001789620146 -0.3172616661 1.111163541e-38
0.131711781 0.00479906844 -0.002722956939 1.111163541e-38
0.1171070188 0.004113589413 -0.3189201057 1.111163541e-38
0.1038061604 0.002002588706 -0.07990947366 1.111163541e-38
-0.01274149492 -0.001863442012 -0.4046351016 1.111163541e-38
0.1155406684 0.003657967318 -0.1902769357 1.111163541e-38
0.1270342469 0.001785956323 -0.2367048711 1.111163541e-38
0.1229692325 0.002038138919 0.07330408692 1.111163541e-38
0.113579452 0.001864485093 -0.08416455984 1.111163541e-38
0.1134108305 0.0001007243991 0.03877251595 1.111163541e-38
-0.1338045299 0.1593994945 -0.1682329923 1.184631237e-38
-0.1309609264 0.1472414434 -0.3259993494 1.184631237e-38
-0.1149226949 0.1520184726 -0.03099146858 1.184631237e-38
-0.131981805 0.1409050226 0.1679201424 1.184631237e-38
-0.1210991517 0.1535249501 -0.1327018291 1.184631237e-38
-0.1151349619 0.1506779641 -0.1536767483 1.184631237e-38
-0.1203850359 0.1555640846 0.1808222234 1.184631237e-38
-0.1291721612 0.1569631845 -0.1029957011 1.184631237e-38
-0.1361049712 0.1435733438 -0.4162242115 1.184631237e-38
-0.1301332414 0.1440887749 -0.3475396633 1.184631237e-38
-0.1244007573 0.1565196514 0.03939301893 1.184631237e-38
-0.1359870583 0.1547121853 0.1001620889 1.184631237e-38
-0.1458360106 0.1561986208 -0.3333879411 1.184631237e-38
-0.1294108182 0.1512778401 -0.2266641706 1.184631237e-38
-0.1302277148 0.1586442739 0.08874638379 1.184631237e-38
-0.1328134835 0.1598738283 -0.03531843796 1.184631237e-38
-0.1411423981 0.1483366936 -0.3938301802 1.184631237e-38
-0.1351194829 0.1537695378 -0.2637581229 1.184631237e-38
-0.1252267957 0.1545722038 -0.09838487208 1.184631237e-38
-0.1273046583 0.1220356748 0.2837337255 1.184631237e-38
-0.1454796493 0.1591411382 -0.2812099159 1.184631237e-38
-0.131575793 0.1564447135 -0.1917244494 1.184631237e-38
-0.1258754432 0.1573841721 -0.04543939605 1.184631237e-38
-0.1287154555 0.1471880823 0.2356521487 1.184631237e-38
-0.1569809467 0.1626621485 -0.3183995485 1.184631237e-38
-0.1357771605 0.1570864767 -0.2175645232 1.184631237e-38
-0.1344902962 0.1556539685 0.04321505502 1.184631237e-38
-0.1119445115 0.1504339427 -0.0894889012 1.184631237e-38
-0.1247358024 0.1572570354 0.05150845274 1.184631237e-38
-0.1459253728 0.1550730914 -0.3648689091 1.184631237e-38
-0.1274908483 0.1417104453 -0.4479482472 1.184631237e-38
-0.1258455962 0.1500388235 -0.2739583552 1.184631237e-38
-0.1739943177 0.1091034338 -0.08995309472 1.258099074e-38
-0.1743630469 0.04451154172 0.4551800191 1.258099074e-38
-0.1755898893 0.0894806236 0.2011098564 1.258099074e-38
-0.1735860258 0.1218878552 0.4597600102 1.258099074e-38
-0.1744573116 0.1112950593 0.02925704792 1.258099074e-38
-0.1769399792 0.06383903325 0.2447360158 1.258099074e-38
-0.1733966619 0.1103926599 0.05813351274 1.258099074e-38
-0.1786003858 0.1128434911 0.2902214825 1.258099074e-38
-0.1754488349 0.1178112328 -0.2887553573 1.258099074e-38
-0.1702611148 -0.01605602168 0.439717561 1.258099074e-38
-0.1734796315 0.1128618196 0.1603511572 1.258099074e-38
-0.180256173 0.1115380153 0.3573377728 1.258099074e-38
-0.1748640239 0.1108290851 -0.1144585535 1.258099074e-38
-0.1743191332 0.07197293639 0.3497228324 1.258099074e-38
-0.1727437526 0.1078428775 0.1029648185 1.258099074e-38
-0.1789223552 0.1108052209 0.3274880946 1.258099074e-38
-0.1733670682 0.1068530455 -0.1580164731 1.258099074e-38
-0.1722477823 0.06112453341 0.4116511047 1.258099074e-38
-0.1742911041 0.1144870669 0.2194728851 1.258099074e-38
-0.1769699603 0.1154628322 0.4280006289 1.258099074e-38
-0.1743588895 0.1059585512 -0.01389454398 1.258099074e-38
-0.1764575243 0.07243047655 0.260823518 1.258099074e-38
-0.1769005656 0.1136833653 0.2574326694 1.258099074e-38
-0.1804681271 0.1093944684 0.3935343921 1.258099074e-38
-0.1741359234 0.1029803976 -0.03595287353 1.258099074e-38
-0.174262315 0.07793230563 0.3842371106 1.258099074e-38
-0.1770504117 0.1127653793 0.1698136628 1.258099074e-38
-0.1795257628 0.07254706323 0.3003081381 1.258099074e-38
-0.1757637858 0.1017588899 0.1279412061 1.258099074e-38
-0.1795249283 0.09090858698 0.3440698981 1.258099074e-38
-0.1764343381 0.1144546568 -0.2411323041 1.258099074e-38
-0.1743128151 0.02287467755 0.3975523412 1.258099074e-38
-0.06662967056 -0.1399789602 -0.2510788739 1.331530897e-38
0.01970868185 -0.1535271257 0.2686528862 1.331530897e-38
0.03798204288 -0.1468311101 -0.1623481214 1.331530897e-38
0.04341170564 -0.1440295428 -0.2386787534 1.331530897e-38
0.0005795731558 -0.1474010944 -0.3180927634 1.331530897e-38
-0.0678563267 -0.1476150602 0.01819561794 1.331530897e-38
-0.08741086721 -0.1353684515 -0.3146116138 1.331530897e-38
0.09779336303 -0.1492902488 0.2111084461 1.331530897e-38
-0.1675309837 -0.1453671306 -0.4262816012 1.331530897e-38
0.07592177391 -0.1511851996 0.3246024251 1.331530897e-38
-0.01085932367 -0.1494911909 -0.2514123619 1.331530897e-38
0.04374600574 -0.1487834305 -0.010566907 1.331530897e-38
-0.1012685671 -0.1366000921 -0.3642257452 1.331530897e-38
-0.03866550699 -0.149433732 0.1157194227 1.331530897e-38
-0.06406134367 -0.1367676258 -0.2999614775 1.331530897e-38
0.04811751842 -0.1519226581 0.1153549254 1.331530897e-38
-0.1482145786 -0.1448444426 -0.4178653359 1.331530897e-38
-0.002723135753 -0.1516186446 0.1774309427 1.331530897e-38
-0.03847265244 -0.1497717053 -0.1724109054 1.331530897e-38
0.01394162886 -0.1517313272 -0.0573114343 1.331530897e-38
-0.0355274789 -0.1424722821 -0.3447397649 1.331530897e-38
-0.06208436936 -0.1461023688 -0.06904657185 1.331530897e-38
-0.09084295481 -0.1428515911 -0.1719697863 1.331530897e-38
0.003338160692 -0.1541065425 0.01349221263 1.331530897e-38
-0.06556589156 -0.1354590803 -0.3689017296 1.331530897e-38
-0.02720376104 -0.1500061452 -0.07099091262 1.331530897e-38
-0.1216879711 -0.1366365105 -0.2720560133 1.331530897e-38
-0.07799389213 -0.1433159262 0.03570893034 1.331530897e-38
-0.164048031 -0.1475479305 -0.3342291117 1.331530897e-38
0.03051290847 -0.1458921283 -0.2172415704 1.331530897e-38
-0.1064285859 -0.1386826187 -0.4148709178 1.331530897e-38
0.05426954851 -0.1513494104 0.1711615622 1.331530897e-38
-0.08472841978 0.06981497258 -0.1863501221 1.404926846e-38
-0.09333395213 0.08810753375 -0.0601439774 1.404926846e-38
-0.09572179615 0.1110376716 0.1516923606 1.404926846e-38
-0.08283050358 0.07141199708 -0.2639661133 1.404926846e-38
-0.1031775549 0.1145125777 -0.09218756109 1.404926846e-38
-0.07863368094 0.07205938548 0.2514834404 1.404926846e-38
-0.08902122825 0.1037111357 0.296934247 1.404926846e-38
-0.09216739237 0.0856230557 -0.3451164067 1.404926846e-38
-0.09790964425 0.0959810093 -0.3536621034 1.404926846e-38
-0.1009459123 0.104786098 -0.1523584872 1.404926846e-38
-0.09282907844 0.1037682146 0.1797998995 1.404926846e-38
-0.08488748968 0.07505884767 -0.2826837301 1.404926846e-38
-0.1040928513 0.1155681238 -0.2078578621 1.404926846e-38
-0.0852785334 0.08337125182 0.1401471049 1.404926846e-38
-0.09464637935 0.1124820635 0.2008375525 1.404926846e-38
-0.09065254778 0.08300562203 -0.2948617339 1.404926846e-38
-0.1002123505 0.1038941592 -0.2628009319 1.404926846e-38
-0.09618289024 0.09830380976 0.02835936472 1.404926846e-38
-0.09636472911 0.1010896042 0.08023771644 1.404926846e-38
-0.08629220724 0.07337853312 -0.2037046105 1.404926846e-38
-0.1044719443 0.1153584048 -0.1625868231 1.404926846e-38
-0.0835968554 0.08875668794 0.2229721546 1.404926846e-38
-0.1026869267 0.1081753671 -0.006074760109 1.404926846e-38
-0.08488870412 0.07511429489 -0.03011700325 1.404926846e-38
-0.09886969626 0.100172922 -0.2662878633 1.404926846e-38
-0.08274465799 0.07791855931 0.05799325556 1.404926846e-38
-0.08513592929 0.07201851904 -0.05829402804 1.404926846e-38
-0.08207663149 0.07711160928 0.108418338 1.404926846e-38
-0.1025192589 0.1096803918 -0.1851553619 1.404926846e-38
-0.08648876846 0.07267838717 -0.161286816 1.404926846e-38
-0.1031326428 0.1122877821 -0.341036886 1.404926846e-38
-0.09910974652 0.09959147871 -0.1405523419 1.404926846e-38
-0.08235614002 0.02991230041 0.004620305728 1.478322936e-38
-0.07269707322 0.07990042865 0.2472313792 1.478322936e-38
-0.06625981629 0.04628001153 0.1587351412 1.478322936e-38
-0.07898277789 0.01225851942 -0.1142326817 1.478322936e-38
-0.07792784274 0.09651536494 0.2238327414 1.478322936e-38
-0.08431103081 0.02366008051 -0.3288505673 1.478322936e-38
-0.03243101016 0.1016786546 0.3537580967 1.478322936e-38
-0.0694321245 0.03600146621 0.1155694127 1.478322936e-38
-0.08553075045 0.02376662381 -0.2086849958 1.478322936e-38
-0.0523467958 0.1031363979 0.3314875066 1.478322936e-38
-0.05734087154 0.06517861038 0.2354373485 1.478322936e-38
-0.08337979764 0.02294463292 -0.03642193601 1.478322936e-38
-0.09044563025 0.08643561602 -0.04633539543 1.478322936e-38
-0.09403289109 0.07331845164 -0.2611867785 1.478322936e-38
-0.04967821762 0.08413971215 0.299295336 1.478322936e-38
-0.08238773048 0.03511891514 0.03872177005 1.478322936e-38
-0.09288959205 0.07659127563 -0.1522844434 1.478322936e-38
-0.09398569167 0.08524900675 -0.1958795488 1.478322936e-38
-0.0789392814 0.04435820132 0.1212681681 1.478322936e-38
-0.09016337991 0.0315753594 -0.1085529551 1.478322936e-38
-0.08895692229 0.09056557715 0.1016743183 1.478322936e-38
-0.0883846283 0.06378562748 -0.3781432509 1.478322936e-38
-0.06450409442 0.07449378073 0.2462032586 1.478322936e-38
-0.09287855029 0.03704573214 -0.1746334136 1.478322936e-38
-0.08960732818 0.07481828332 -0.01868861355 1.478322936e-38
-0.09275720268 0.04866093397 -0.2356069535 1.478322936e-38
-0.07845976204 0.08714751899 0.2059443146 1.478322936e-38
-0.08384720236 0.02000409923 -0.2560394108 1.478322936e-38
-0.0826921761 0.05812613666 0.1151148304 1.478322936e-38
-0.08517596871 0.04649721831 0.0334658362 1.478322936e-38
-0.09334841371 0.08469761163 -0.2879734933 1.478322936e-38
-0.08644188195 0.09542353451 0.16072613 1.478322936e-38
0.1522905827 0.009082265198 -0.2362620384 1.551683013e-38
0.1552003771 0.002425868995 0.2036135495 1.551683013e-38
0.0874523893 0.01491951477 -0.1756005287 1.551683013e-38
0.1156326756 0.01099784113 -0.2172816247 1.551683013e-38
0.1669378281 0.006387906615 -0.1765829772 1.551683013e-38
0.1411226243 0.00403058948 0.0945693925 1.551683013e-38
0.1502093673 0.003379214788 0.01786538027 1.551683013e-38
0.1400105804 0.005204502027 -0.0456417501 1.551683013e-38
0.1304275692 0.01245915797 -0.3364027143 1.551683013e-38
0.1555913687 0.001631288324 0.2482395023 1.551683013e-38
0.1100250334 0.009205497801 -0.06558634341 1.551683013e-38
0.1239394024 0.008633121848 -0.1402041018 1.551683013e-38
0.1458666772 0.01006250735 -0.2668650448 1.551683013e-38
0.1532274783 0.003512783442 0.1116700396 1.551683013e-38
0.1327706426 0.005461986642 -0.02645781264 1.551683013e-38
0.1461318433 0.005975469481 -0.0874639973 1.551683013e-38
0.143601343 0.01075177733 -0.2964862287 1.551683013e-38
0.1616674066 0.002215946093 0.1264732033 1.551683013e-38
0.1117238179 0.01145798899 -0.163737312 1.551683013e-38
0.1314191371 0.008989865892 -0.1942340136 1.551683013e-38
0.1460608095 0.008835970424 -0.2050656974 1.551683013e-38
0.1464975923 0.003603524761 0.03766733408 1.551683013e-38
0.1488176584 0.005605869927 -0.08465564996 1.551683013e-38
0.1443860084 0.007273415569 -0.1324912012 1.551683013e-38
0.1350036412 0.01018971205 -0.2492825687 1.551683013e-38
0.145112142 0.003854218405 0.07010580599 1.551683013e-38
0.1675016433 0.004313556012 -0.1141449735 1.551683013e-38
0.1699411273 0.002235652879 -0.02096271515 1.551683013e-38
0.07643551379 0.01702565886 -0.2198929638 1.551683013e-38
0.148318693 0.00404897891 -0.01995280199 1.551683013e-38
0.1148444414 0.01106587425 -0.295819521 1.551683013e-38
0.1421981603 0.004120505415 0.1915008128 1.551683013e-38
-0.1691944599 0.06238267943 0.2608347237 1.625043089e-38
-0.1752586067 0.1288480312 0.09959338605 1.625043089e-38
-0.1715050191 0.0330206193 0.3833010197 1.625043089e-38
-0.1734434515 0.08501645923 0.09163194895 1.625043089e-38
-0.1741295308 0.05567768589 0.4213981628 1.625043089e-38
-0.1772752702 0.1348202825 0.2411572784 1.625043089e-38
-0.173590973 0.01821802184 0.1530256718 1.625043089e-38
-0.1775259674 0.09773701429 -0.205531016 1.625043089e-38
-0.1694653928 0.08652039617 0.1915273368 1.625043089e-38
-0.1799243689 0.1331318021 0.005666858517 1.625043089e-38
-0.1715043634 0.01434394345 0.3269639313 1.625043089e-38
-0.1793883741 0.1121753976 -0.0702835694 1.625043089e-38
-0.1803708076 0.1382618695 0.3285955489 1.625043089e-38
-0.1761594266 0.1312469393 0.1673529744 1.625043089e-38
-0.1715310812 0.04891979694 0.2719780803 1.625043089e-38
-0.1782879829 0.09743988514 -0.1255846769 1.625043089e-38
-0.1749148965 0.1255065203 0.2756356597 1.625043089e-38
-0.17390576 0.1239820644 0.1316082925 1.625043089e-38
-0.1746645272 0.0578382723 0.3495743573 1.625043089e-38
-0.1762227118 0.07836994529 0.04240857437 1.625043089e-38
-0.1840743423 0.1272945553 0.3995909393 1.625043089e-38
-0.1752340049 0.1283017248 0.2127763629 1.625043089e-38
-0.1743676066 0.07474438846 0.3285704553 1.625043089e-38
-0.1753764153 0.04407485202 0.04494997859 1.625043089e-38
-0.1807970703 0.1085619703 0.3970138431 1.625043089e-38
-0.1703175753 0.08203165233 0.1332475245 1.625043089e-38
-0.177359581 0.1028691903 0.3580539525 1.625043089e-38
-0.1753535122 0.02288606763 0.1004526168 1.625043089e-38
-0.1701233089 0.03916529566 0.2269519717 1.625043089e-38
-0.1728911251 0.0503587164 -0.04720446095 1.625043089e-38
-0.1692595482 0.09731004387 0.2354988307 1.625043089e-38
-0.1780166477 0.1291446984 0.05193732679 1.625043089e-38
0.07138815522 0.05036063492 -0.4674663246 1.698367293e-38
0.1737346202 0.00109174801 -0.3978746533 1.698367293e-38
0.0360128209 0.01780745573 -0.473613739 1.698367293e-38
0.1809517443 -0.1194691733 -0.3886228204 1.698367293e-38
0.18455185 0.05408637226 -0.4282896519 1.698367293e-38
0.1709129512 0.02604994737 -0.4702780843 1.698367293e-38
0.1078132838 -0.1185984239 -0.4633969367 1.698367293e-38
0.1694838405 -0.1841024607 -0.4349927902 1.698367293e-38
-0.06951726973 0.05852814764 -0.3701242805 1.698367293e-38
0.1809366643 -0.08787286282 -0.3742970824 1.698367293e-38
0.138024509 -0.03501216322 -0.4658161104 1.698367293e-38
0.179264009 -0.1436604857 -0.4086453021 1.698367293e-38
0.1511036903 0.08745485544 -0.4286499918 1.698367293e-38
0.1724876463 -0.007515393198 -0.4477797747 1.698367293e-38
0.1331245899 -0.09871239215 -0.4666946828 1.698367293e-38
0.1719683558 -0.1627454907 -0.4438904524 1.698367293e-38
0.04819600657 0.08591216058 -0.4214988947 1.698367293e-38
0.1732562482 -0.0190130733 -0.4430413842 1.698367293e-38
0.1597157568 -0.03157570586 -0.4655150175 1.698367293e-38
0.1760307699 -0.161393553 -0.4258630872 1.698367293e-38
0.1706128865 0.05902843177 -0.4600535631 1.698367293e-38
0.175792709 -0.07571642101 -0.4440588057 1.698367293e-38
0.1696984917 -0.08455608785 -0.4650294185 1.698367293e-38
0.1208107695 -0.1507543325 -0.4589123726 1.698367293e-38
0.1619553119 0.06551223248 -0.4762667418 1.698367293e-38
0.1734939367 -0.1245663092 -0.4520818293 1.698367293e-38
0.1768915653 -0.1056573763 -0.441573441 1.698367293e-38
0.1487186104 -0.1366321295 -0.4642992616 1.698367293e-38
0.1207697764 0.01599457115 -0.4754713476 1.698367293e-38
0.1672146022 -0.1698273867 -0.4553255141 1.698367293e-38
-0.06445819139 0.05793435872 -0.3907169998 1.698367293e-38
0.1812839657 -0.07442872226 -0.4044064581 1.698367293e-38
0.1379824281 0.09831746668 0.4224876761 1.771655483e-38
-0.007712446153 -0.01786425523 0.4268138111 1.771655483e-38
0.02317736484 0.03888517618 0.3537085354 1.771655483e-38
0.09456191212 0.1031039059 0.4390846789 1.771655483e-38
0.1186457351 0.01490242314 0.3297097683 1.771655483e-38
-0.005794177298 0.08713731915 0.4264156818 1.771655483e-38
0.04927890375 0.01048400719 0.2158750296 1.771655483e-38
0.08858947456 -0.0294953119 0.4166886508 1.771655483e-38
0.143224299 0.1075287461 0.4355625808 1.771655483e-38
-0.08137860894 0.02775162645 0.4233698249 1.771655483e-38
0.03381105885 0.02786982059 0.3144419491 1.771655483e-38
0.1034752131 0.07563991845 0.4277859926 1.771655483e-38
0.1467280537 0.02248621173 0.3717057705 1.771655483e-38
-0.005201829132 0.05997651815 0.4274090528 1.771655483e-38
0.04261042178 0.01669994183 0.2690538764 1.771655483e-38
0.1360025704 -0.05580208078 0.4102936685 1.771655483e-38
0.1471198052 0.02175208367 0.3712655604 1.771655483e-38
-0.01560314745 0.03234060481 0.427467674 1.771655483e-38
0.06567437947 0.03136624396 0.3630560338 1.771655483e-38
0.1669664681 0.03747307137 0.4055200219 1.771655483e-38
0.1603145152 -0.001040234813 0.2839333415 1.771655483e-38
0.05890953541 0.08322248608 0.4269436002 1.771655483e-38
0.05959003419 0.02614815161 0.3306226432 1.771655483e-38
0.1701076776 -0.04105830938 0.3785253465 1.771655483e-38
0.1567980498 -0.0097586466 0.2401695848 1.771655483e-38
0.0704658404 0.03834327683 0.4222982228 1.771655483e-38
0.1435997784 -0.007669536863 0.1481726617 1.771655483e-38
0.1332743317 0.08638835698 0.4282493889 1.771655483e-38
0.1257640123 -0.0003814380325 0.2326916158 1.771655483e-38
0.1277947724 -0.01641967706 0.409976989 1.771655483e-38
0.1620986164 0.05029674619 0.3994713128 1.771655483e-38
0.002147965599 0.05467281118 0.4264535904 1.771655483e-38
-0.1852308661 0.09505102783 -0.3615173101 1.844943813e-38
-0.1811460704 0.08775479347 -0.02002321742 1.844943813e-38
-0.1789083481 0.02978095599 0.2411069572 1.844943813e-38
-0.1832046956 0.04716607183 0.03759093955 1.844943813e-38
-0.1843089014 0.1001737639 -0.2284644991 1.844943813e-38
-0.1840591133 0.09188103676 -0.1666789204 1.844943813e-38
-0.1787912697 0.01150235999 0.330789417 1.844943813e-38
-0.1815095246 0.01813436858 0.09565250576 1.844943813e-38
-0.1853530407 0.09242311865 -0.4074832201 1.844943813e-38
-0.1794492453 0.07466356456 0.04564390704 1.844943813e-38
-0.1777189523 0.02591617033 0.2781041861 1.844943813e-38
-0.1802189797 0.04870952293 0.08840606362 1.844943813e-38
-0.1831645668 0.0796687454 -0.3205200434 1.844943813e-38
-0.1819416732 0.07909356803 -0.07714372873 1.844943813e-38
-0.1770469546 0.0212647412 0.3038527966 1.844943813e-38
-0.1812374741 0.0313824974 0.1214959323 1.844943813e-38
-0.1828481257 0.06339091808 -0.3672714531 1.844943813e-38
-0.1818212718 0.06040089577 -0.04024352506 1.844943813e-38
-0.1801338047 0.04347708821 0.2055556625 1.844943813e-38
-0.1807252467 0.05920507759 0.04424581677 1.844943813e-38
-0.1831380576 0.07270938903 -0.2406370342 1.844943813e-38
-0.1831435263 0.06431515515 -0.1364390999 1.844943813e-38
-0.1814203858 0.04675316066 0.1693318486 1.844943813e-38
-0.184922874 0.05545130372 -0.04966758564 1.844943813e-38
-0.1834593564 0.07482170314 -0.2709114552 1.844943813e-38
-0.183022663 0.04871077091 -0.1085084006 1.844943813e-38
-0.1820452511 0.0870867148 -0.05256607383 1.844943813e-38
-0.1858710349 0.08249460906 -0.1821457595 1.844943813e-38
-0.1783867329 0.01526287477 0.1683712155 1.844943813e-38
-0.1847765595 0.02422092855 0.02345751412 1.844943813e-38
-0.1848460287 0.105848439 -0.2932153344 1.844943813e-38
-0.17970182 0.06887764484 0.1243577749 1.844943813e-38
-0.02492897399 -0.1593637615 0.4032450616 1.91819627e-38
-0.08631750196 -0.1541587859 0.2078069896 1.91819627e-38
0.09473320842 -0.1537821442 0.4159553647 1.91819627e-38
-0.05719100311 -0.1514884979 0.2441672683 1.91819627e-38
-0.1026661843 -0.1582375169 0.2546406388 1.91819627e-38
0.0722527653 -0.1519090682 0.3239904642 1.91819627e-38
0.1572927386 -0.1484088004 0.3254980147 1.91819627e-38
-0.07788459957 -0.1511172801 0.02580387145 1.91819627e-38
-0.07744211704 -0.1598526537 0.3939741254 1.91819627e-38
-0.09816427529 -0.1516551971 0.1039458141 1.91819627e-38
0.1163979247 -0.1516597569 0.3711652756 1.91819627e-38
-0.05127390102 -0.1491683871 0.2032030374 1.91819627e-38
-0.1008312255 -0.1594840735 0.2989081442 1.91819627e-38
-0.05806241557 -0.1547019631 0.3188990951 1.91819627e-38
0.1181610972 -0.151205644 0.3421552479 1.91819627e-38
-0.06396771967 -0.1491282433 0.1606065482 1.91819627e-38
-0.09684697539 -0.1598445624 0.3436278105 1.91819627e-38
-0.07040606439 -0.1541781873 0.2637065649 1.91819627e-38
0.064580217 -0.1537212431 0.3746311367 1.91819627e-38
-0.003649728838 -0.1492672414 0.2757011652 1.91819627e-38
-0.1077625081 -0.1544405222 0.1597194821 1.91819627e-38
-0.05260030553 -0.1529605836 0.2940696478 1.91819627e-38
0.03781997785 -0.1531829983 0.3545671105 1.91819627e-38
0.04946512729 -0.1502559632 0.3014500439 1.91819627e-38
-0.0951905027 -0.1573025435 0.2442109436 1.91819627e-38
-0.09232307971 -0.151856795 0.1256501228 1.91819627e-38
-0.02682281844 -0.154338643 0.3437640369 1.91819627e-38
0.1155599505 -0.1492578536 0.2961739302 1.91819627e-38
-0.002814687788 -0.1569684595 0.3931435049 1.91819627e-38
-0.1063145846 -0.1523042768 -0.03722068667 1.91819627e-38
-0.1003723294 -0.1594470739 0.3895529211 1.91819627e-38
-0.005056174006 -0.150310114 0.2915683985 1.91819627e-38
0.1310030222 -0.07898831367 -0.1223910674 1.991448586e-38
-0.009923504665 -0.07121817023 -0.05203536525 1.991448586e-38
0.04681386799 -0.07251869142 -0.01942504942 1.991448586e-38
-0.01221059635 -0.07217348367 0.01729812101 1.991448586e-38
0.17038095 -0.1016131043 -0.2065345049 1.991448586e-38
0.03713293746 -0.05968862399 -0.2538098991 1.991448586e-38
0.1460339278 -0.08026915044 -0.02930133045 1.991448586e-38
0.01384172123 -0.06003942713 0.3522479236 1.991448586e-38
0.08540155739 -0.06510791928 -0.2204632759 1.991448586e-38
-0.01274120435 -0.07199556381 -0.001077137422 1.991448586e-38
0.09576761723 -0.07392431796 0.01161697414 1.991448586e-38
0.003049349179 -0.06974225491 0.1699695438 1.991448586e-38
0.1664940417 -0.0938898325 -0.2243500799 1.991448586e-38
0.0246253591 -0.06609585881 -0.1610845625 1.991448586e-38
0.1098966002 -0.07701683044 -0.0223375801 1.991448586e-38
0.02030542679 -0.05524411798 0.2817359865 1.991448586e-38
0.1392804682 -0.08275657892 -0.2617245913 1.991448586e-38
0.02967302874 -0.07091610134 -0.07895547897 1.991448586e-38
0.09435560554 -0.07775865495 0.07514743507 1.991448586e-38
0.02878220938 -0.08085593581 0.1809302419 1.991448586e-38
0.1875961125 -0.1144571081 -0.3196096718 1.991448586e-38
0.06171200424 -0.06459389627 -0.2143847942 1.991448586e-38
0.1340042949 -0.08200517297 0.02739213407 1.991448586e-38
0.07006863505 -0.08256661892 0.151779741 1.991448586e-38
0.1842398196 -0.1022378132 -0.3515155017 1.991448586e-38
0.04944442958 -0.07416072488 -0.01918111183 1.991448586e-38
0.1624461412 -0.08753141016 -0.1221259385 1.991448586e-38
0.06058764458 -0.07484357059 0.01814967766 1.991448586e-38
0.05908741429 -0.06813377887 -0.1029941365 1.991448586e-38
0.02163740806 -0.07650817931 0.2039892524 1.991448586e-38
0.1032735109 -0.06176766381 -0.313278228 1.991448586e-38
0.03982389346 -0.07024890184 -0.09289702773 1.991448586e-38
-0.1862598211 -0.06994969398 -0.2512884736 2.06466517e-38
-0.1792620718 -0.005252946168 -0.4302396178 2.06466517e-38
-0.1788074821 -0.07764605433 0.09163231403 2.06466517e-38
-0.1859603226 -0.09532506019 -0.2431313246 2.06466517e-38
-0.1839750111 -0.05880005658 -0.3296078742 2.06466517e-38
-0.183910951 -0.05750377476 -0.3668320179 2.06466517e-38
-0.1816211343 -0.07554119825 0.3244020939 2.06466517e-38
-0.1795853972 -0.07088888437 -0.004733818583 2.06466517e-38
-0.183489725 -0.07193058729 -0.1575010121 2.06466517e-38
-0.1779415309 0.04335587472 -0.4330756962 2.06466517e-38
-0.1785269678 -0.0763579607 0.1450477391 2.06466517e-38
-0.1841443032 -0.09061963856 -0.1672263891 2.06466517e-38
-0.1857874691 -0.05204659328 -0.3012205362 2.06466517e-38
-0.1804215163 -0.05507673323 -0.4047829509 2.06466517e-38
-0.1804766655 -0.07636505365 0.220597297 2.06466517e-38
-0.1802225411 -0.08562265337 -0.09611229599 2.06466517e-38
-0.185627982 -0.08047429472 -0.2393911779 2.06466517e-38
-0.177358076 -0.03104460239 -0.4301655591 2.06466517e-38
-0.1802906096 -0.08178171515 0.02874489315 2.06466517e-38
-0.1802232265 -0.09462794662 -0.1299320459 2.06466517e-38
-0.1825650334 -0.09836045653 -0.3629675806 2.06466517e-38
-0.1768743545 -0.07061427087 -0.4139932394 2.06466517e-38
-0.179586947 -0.07956455648 -0.003565953812 2.06466517e-38
-0.1791081578 -0.08390370011 -0.04781357944 2.06466517e-38
-0.182239607 -0.1020501852 -0.3159771264 2.06466517e-38
-0.1731964052 -0.005559528712 -0.4519201219 2.06466517e-38
-0.1805929542 -0.07747513056 -0.4077382386 2.06466517e-38
-0.1804730147 -0.08458472043 -0.1014508605 2.06466517e-38
-0.1787132919 -0.08247299492 0.1475892216 2.06466517e-38
-0.1860524863 -0.09065518528 -0.2276317924 2.06466517e-38
-0.1861717701 -0.08695285767 -0.3042464852 2.06466517e-38
-0.1763569564 0.04665734619 -0.4536987245 2.06466517e-38
0.003511474002 0.115722321 -0.424166292 2.137881613e-38
0.1425484866 0.1459063441 -0.4563111067 2.137881613e-38
-0.1557317674 0.1440381408 -0.2870015502 2.137881613e-38
-0.1535030007 0.1462100595 -0.4694058597 2.137881613e-38
-0.1042599082 0.09431854635 -0.4297628999 2.137881613e-38
0.0386088118 0.1525889933 -0.469084233 2.137881613e-38
-0.1625296921 0.1552357376 -0.4466030896 2.137881613e-38
-0.0371068567 0.1507047266 -0.4786508977 2.137881613e-38
0.1252533346 0.09224348515 -0.4032347798 2.137881613e-38
0.1594574153 0.1316009909 -0.4405629039 2.137881613e-38
-0.1539577693 0.1525633484 -0.3716984987 2.137881613e-38
-0.09522047639 0.1509513557 -0.4799123108 2.137881613e-38
0.02669456229 0.1066460237 -0.4170591831 2.137881613e-38
0.0774775818 0.1488967538 -0.4638044536 2.137881613e-38
-0.1521396488 0.1457320452 -0.4016386569 2.137881613e-38
-0.06398195028 0.1415647715 -0.4725638628 2.137881613e-38
0.06950544566 0.09905496985 -0.4101206064 2.137881613e-38
0.1145556867 0.1384053826 -0.4486734867 2.137881613e-38
-0.1543525308 0.1482471526 -0.3371198475 2.137881613e-38
-0.1267640144 0.1337742209 -0.4735582769 2.137881613e-38
-0.06562417001 0.1177367121 -0.4429091811 2.137881613e-38
0.04392124712 0.1403421462 -0.4562836289 2.137881613e-38
-0.1510493308 0.1367831379 -0.3810907006 2.137881613e-38
-0.09740618616 0.1342366338 -0.4692608714 2.137881613e-38
-0.1469774246 0.1093476042 -0.443449229 2.137881613e-38
-0.01506923046 0.1397357732 -0.4617360532 2.137881613e-38
-0.1503820568 0.09212164581 -0.421841979 2.137881613e-38
-0.05032543465 0.1421502233 -0.4660068154 2.137881613e-38
-0.1594627202 0.1427669227 -0.4326020181 2.137881613e-38
-0.009879014455 0.1522689611 -0.4742867351 2.137881613e-38
0.06918377429 0.1287043989 -0.4337247014 2.137881613e-38
0.1161155775 0.1461965889 -0.4550646842 2.137881613e-38
-0.1710742116 -0.003072520252 -0.1229884475 2.211062324e-38
-0.1776430309 -0.01646718942 0.1182399467 2.211062324e-38
-0.1754366904 0.05169795826 -0.4155058563 2.211062324e-38
-0.1590903997 -0.06187301874 -0.4168390334 2.211062324e-38
-0.1699116826 0.04568471014 -0.308434993 2.211062324e-38
-0.172352612 -0.01687747613 -0.07069271803 2.211062324e-38
-0.1736530215 0.09720936418 -0.4730963707 2.211062324e-38
-0.1676692516 -0.01836923696 -0.2766685188 2.211062324e-38
-0.1885180771 0.02669355832 0.1493524313 2.211062324e-38
-0.17977871 -0.01604584418 0.2215328515 2.211062324e-38
-0.1760282665 0.06138233468 -0.442547828 2.211062324e-38
-0.163642928 -0.03231679648 -0.3789275587 2.211062324e-38
-0.1728684008 0.01382823754 -0.149910897 2.211062324e-38
-0.1764236093 -0.01645694673 0.01114884764 2.211062324e-38
-0.178470403 0.09648726881 -0.4535900652 2.211062324e-38
-0.1672754735 0.01003303286 -0.340506345 2.211062324e-38
-0.176946491 0.0477540195 -0.04213166237 2.211062324e-38
-0.1846713424 0.009886709973 0.07823093981 2.211062324e-38
-0.172847271 0.05938855559 -0.3633346558 2.211062324e-38
-0.1679523885 0.002091307892 -0.4295325577 2.211062324e-38
-0.1705479175 0.04753912985 -0.2275182903 2.211062324e-38
-0.1708048582 -0.003359595779 -0.1316768825 2.211062324e-38
-0.1718402803 0.08723302186 -0.3521552086 2.211062324e-38
-0.1697051227 0.02244221605 -0.4000215232 2.211062324e-38
-0.17211546 0.08485727012 -0.2515832484 2.211062324e-38
-0.1647274047 -0.02409359068 -0.2988984585 2.211062324e-38
-0.17853266 0.1174187213 -0.1989878416 2.211062324e-38
-0.1702562571 0.01962977275 -0.2363442481 2.211062324e-38
-0.1771047562 0.09888259321 -0.3936098814 2.211062324e-38
-0.1618972719 -0.03592844307 -0.2068138123 2.211062324e-38
-0.1759699136 0.05224665999 -0.0554122813 2.211062324e-38
-0.1697654873 -0.02664307505 -0.009369539097 2.211062324e-38
0.1721481979 0.03080559336 0.4474292994 2.284242894e-38
0.09689810872 -0.0003599142365 0.4422222972 2.284242894e-38
-0.05096716806 -0.003152063815 0.4491844773 2.284242894e-38
0.188058123 -0.0288111046 0.4432666004 2.284242894e-38
0.150474146 0.07834858447 0.4542782605 2.284242894e-38
0.0009475421975 0.02291811071 0.4531408846 2.284242894e-38
-0.1487735957 0.04496700317 0.2849585414 2.284242894e-38
0.1787842661 -0.1344023198 0.4355223477 2.284242894e-38
0.1934746802 0.01524003968 0.4496812224 2.284242894e-38
0.1242358759 -0.04458712041 0.4387028813 2.284242894e-38
-0.1236214861 0.01114100404 0.4186988175 2.284242894e-38
0.1835442632 -0.063863419 0.4420863092 2.284242894e-38
0.198099941 0.09386140853 0.4589176476 2.284242894e-38
0.06530740857 0.05002197996 0.465598017 2.284242894e-38
-0.1450507045 0.03244481608 0.3595341742 2.284242894e-38
0.1847076267 -0.08647063375 0.4383569658 2.284242894e-38
0.1969407499 0.07308417559 0.4532919526 2.284242894e-38
0.09759891033 0.07195907086 0.465803504 2.284242894e-38
-0.08843205869 0.04776890948 0.4636877775 2.284242894e-38
0.1796190292 -0.02829999477 0.4507295787 2.284242894e-38
0.1830638051 0.09242551029 0.4581859112 2.284242894e-38
0.04565817863 0.08788398653 0.4814548492 2.284242894e-38
-0.1573511809 0.04869735241 0.452138871 2.284242894e-38
0.1558175087 0.003685156815 0.4419819415 2.284242894e-38
0.15920569 0.1138346121 0.4618832469 2.284242894e-38
0.180061698 0.01785305329 0.4515472353 2.284242894e-38
-0.1602101922 0.05575042963 0.386957854 2.284242894e-38
0.1456876695 0.02075025626 0.4419447482 2.284242894e-38
0.0995215103 0.1088112295 0.4682642519 2.284242894e-38
0.1595507711 -0.06753546745 0.4490578175 2.284242894e-38
0.1864659786 0.02415618114 0.45171085 2.284242894e-38
0.1747024208 0.04186791927 0.4482790232 2.284242894e-38
0.07389248908 0.1187011376 -0.4830934703 2.348204041e-38
-0.07221256196 0.1534225047 -0.4379352927 2.348204041e-38
-0.1374834031 0.03818152472 -0.4798385501 2.348204041e-38
0.07806497812 0.1287484169 -0.4448168874 2.348204041e-38
0.1333067119 0.04163329303 -0.4818279445 2.348204041e-38
-0.1317609698 0.134067595 -0.4880883396 2.348204041e-38
-0.0609100163 -0.08232922107 -0.4740383923 2.348204041e-38
-0.1082442626 0.1487376392 -0.3301044106 2.348204041e-38
0.02807720937 0.1311330944 -0.4320715368 2.348204041e-38
-0.09181893617 0.1503037065 -0.3870598972 2.348204041e-38
-0.1462060064 -0.01785619743 -0.4776738882 2.348204041e-38
-0.003014182905 0.1492881626 -0.4499644935 2.348204041e-38
0.1031799018 0.1085027531 -0.4811118245 2.348204041e-38
-0.1066939458 0.141847983 -0.488576144 2.348204041e-38
-0.1179492474 -0.03481198847 -0.4770817459 2.348204041e-38
-0.002035376616 0.1508198529 -0.4802431166 2.348204041e-38
0.0780075416 0.1339470297 -0.4727606773 2.348204041e-38
-0.06668927521 0.1431058347 -0.4871109724 2.348204041e-38
-0.1327259988 0.02213387005 -0.4792554379 2.348204041e-38
0.0355569385 0.02470106259 -0.4823970199 2.348204041e-38
0.1076026335 0.08491973579 -0.4815546274 2.348204041e-38
-0.1064018831 0.1097501516 -0.4862655103 2.348204041e-38
-0.09273869544 -0.005807185546 -0.4780600965 2.348204041e-38
-0.02418733947 0.05555134267 -0.4827191234 2.348204041e-38
0.04152990878 0.0984076485 -0.4836910665 2.348204041e-38
-0.06972947717 0.138629809 -0.4874956906 2.348204041e-38
-0.003382409224 -0.01384292729 -0.4793862104 2.348204041e-38
-0.09702534229 0.04841662943 -0.4806267023 2.348204041e-38
-0.1367454976 0.0945442915 -0.4843712151 2.348204041e-38
-0.01833328046 0.1517466456 -0.4622455239 2.348204041e-38
0.03067341633 0.1334107369 -0.4850353301 2.348204041e-38
-0.02215944231 0.104007639 -0.4852556586 2.348204041e-38
-0.008163918741 0.01986951753 0.1128567457 2.347880341e-38
-0.05718181655 0.03472276032 -0.2093376815 2.347880341e-38
-0.006919631269 0.05420516804 -0.3970759809 2.347880341e-38
0.02251203544 0.0418837145 -0.1379643083 2.347880341e-38
0.01316944882 0.03213773668 -0.004224154167 2.347880341e-38
-0.02475423366 0.02205002308 0.03502782062 2.347880341e-38
0.01870135032 0.0439049229 -0.1879411638 2.347880341e-38
0.05386978388 0.03666276857 0.07231906801 2.347880341e-38
0.0168296583 0.02210513502 0.329428345 2.347880341e-38
-0.04484129697 0.03857256472 -0.2847695649 2.347880341e-38
-0.008411942981 0.05104986206 -0.3331871331 2.347880341e-38
0.03930309042 0.0425780192 -0.09276323766 2.347880341e-38
0.0230673831 0.0289307721 0.07013165951 2.347880341e-38
-0.03286978975 0.02996246144 -0.08301537484 2.347880341e-38
-0.009969535284 0.04621065781 -0.2717460692 2.347880341e-38
0.04002396762 0.04082133248 -0.04385470599 2.347880341e-38
0.05915357545 0.02873706259 0.2431363016 2.347880341e-38
-0.01401326898 0.033624053 -0.1018334553 2.347880341e-38
0.03800724819 0.05242796242 -0.3014129102 2.347880341e-38
0.01296836603 0.04257599637 -0.1797492355 2.347880341e-38
0.05968521163 0.03566285968 0.1484570503 2.347880341e-38
-0.01850685664 0.0281827189 -0.02895242348 2.347880341e-38
0.05076738447 0.04897711053 -0.2584654093 2.347880341e-38
0.01508014463 0.03735160455 -0.07562110573 2.347880341e-38
0.08900511265 0.03643728048 0.2387181669 2.347880341e-38
0.02348242328 0.03952499479 -0.1107409447 2.347880341e-38
0.04409164563 0.04870374128 -0.1955101043 2.347880341e-38
0.02816015296 0.03452431038 0.0129833743 2.347880341e-38
0.00453029247 0.05189772323 -0.3134521842 2.347880341e-38
0.05990296975 0.04273566976 -0.1276432425 2.347880341e-38
0.06462562084 0.02893789299 0.2656765878 2.347880341e-38
-0.06304168701 0.03582954779 -0.2561631501 2.347880341e-38
0.0002143234015 0.03433244303 0.4286178946 2.347520768e-38
-0.1851051301 -0.09021262079 -0.1060612351 2.347520768e-38
-0.1799743772 -0.1084711403 0.2463212311 2.347520768e-38
-0.1793156564 -0.156605348 0.4232172668 2.347520768e-38
0.02681245841 0.01494781952 0.4153375924 2.347520768e-38
-0.1782961637 -0.1359552443 0.1582224518 2.347520768e-38
-0.1894462854 -0.1267668605 0.388841629 2.347520768e-38
-0.1741627604 -0.170382306 0.3433752358 2.347520768e-38
-0.1851881593 -0.04732593521 0.4038490951 2.347520768e-38
-0.1845693737 -0.08898725361 -0.1484366953 2.347520768e-38
-0.1774255931 -0.1231037751 0.3106453419 2.347520768e-38
-0.1811653972 -0.1794087291 0.4149121344 2.347520768e-38
-0.1689005196 -0.01207189541 0.3894096315 2.347520768e-38
-0.1826576144 -0.1123860478 0.07501529157 2.347520768e-38
-0.1802588999 -0.1324324161 0.3573966026 2.347520768e-38
-0.1816274524 -0.1657158881 0.4002407193 2.347520768e-38
-0.1821122319 -0.08039018512 0.3764971495 2.347520768e-38
-0.1846149415 -0.09921331704 0.01472395379 2.347520768e-38
-0.1831177324 -0.08602195233 0.1399083883 2.347520768e-38
-0.1823247224 -0.1407753676 0.4171436429 2.347520768e-38
-0.1087082028 0.0346711725 0.4054199159 2.347520768e-38
-0.177865535 -0.1319663525 0.1684899181 2.347520768e-38
-0.1829592884 -0.08411626518 0.1912730783 2.347520768e-38
-0.1290133893 0.01473649684 0.4293957949 2.347520768e-38
-0.1390224248 0.007885833271 0.4143145382 2.347520768e-38
-0.1705517471 -0.1585962921 0.3248303235 2.347520768e-38
-0.05053430423 0.03823626786 0.4382335544 2.347520768e-38
-0.1720230132 -0.1521166116 0.4387490451 2.347520768e-38
-0.1802811623 -0.108743377 0.3256751001 2.347520768e-38
-0.1744110584 -0.1477922946 0.241517961 2.347520768e-38
-0.183582738 -0.142314285 0.4105137885 2.347520768e-38
-0.1837930977 -0.1082041264 -0.03520653024 2.347520768e-38
0.1293217242 0.1110264361 -0.4915767312 2.347161195e-38
0.08314374089 0.1444227844 -0.49295789 2.347161195e-38
-0.08125682175 -0.02656698786 -0.4753506482 2.347161195e-38
-0.06088363752 0.04407259077 -0.4847186506 2.347161195e-38
0.1132990792 0.0603605099 -0.4850033522 2.347161195e-38
0.1512756795 0.07251304388 -0.4891327918 2.347161195e-38
0.1085541546 -0.05906902254 -0.4658983946 2.347161195e-38
-0.03416550159 0.136541754 -0.4931555688 2.347161195e-38
0.04149699211 0.1358665377 -0.4931169152 2.347161195e-38
0.05985415354 0.1443870366 -0.4932047725 2.347161195e-38
0.005291305948 -0.02458720468 -0.463090539 2.347161195e-38
-0.06304930151 0.07002516836 -0.4856486022 2.347161195e-38
0.06967558712 0.06482331455 -0.4872055352 2.347161195e-38
0.1473882347 0.127953887 -0.490600884 2.347161195e-38
0.06694819778 -0.06034784019 -0.4604776502 2.347161195e-38
-0.0555505082 0.08996547014 -0.4901919961 2.347161195e-38
0.04645469412 0.07417254895 -0.4890214205 2.347161195e-38
0.1156031936 0.1138554141 -0.4917732775 2.347161195e-38
-0.03599715978 -0.02183829248 -0.4704942405 2.347161195e-38
-0.03248188272 0.02844744921 -0.4848893881 2.347161195e-38
0.03453307599 0.03439768031 -0.4833625853 2.347161195e-38
0.1393579096 0.07785684615 -0.4911447465 2.347161195e-38
0.05825922638 0.007997856475 -0.4706143141 2.347161195e-38
0.01452434901 0.06626153737 -0.4887192845 2.347161195e-38
0.001862756559 -0.0005051940097 -0.4805243611 2.347161195e-38
0.08638972789 0.08746448159 -0.4905245304 2.347161195e-38
0.08751645684 -0.0118346652 -0.4744812548 2.347161195e-38
0.07578782737 0.1240283102 -0.4929786325 2.347161195e-38
0.02471572161 -0.05220098421 -0.4574492872 2.347161195e-38
0.01065719407 0.1366706043 -0.4941194355 2.347161195e-38
0.003914169036 0.1045747697 -0.493296802 2.347161195e-38
0.04744267464 0.1225232854 -0.492908746 2.347161195e-38
-0.02606621571 -0.01772265881 -0.1105871648 2.346801622e-38
-0.01422908716 -0.0222280547 0.2053084373 2.346801622e-38
-0.1266235858 0.02022153884 -0.3014595211 2.346801622e-38
-0.05425111949 -0.02119829319 0.07906154543 2.346801622e-38
0.008708236739 -0.01706720144 -0.3225716949 2.346801622e-38
-0.05398705602 -0.02097443864 -0.08132696152 2.346801622e-38
0.03863172606 -0.008091250435 -0.4478820562 2.346801622e-38
-0.1091899872 0.005532543641 -0.2392029911 2.346801622e-38
0.005981504451 -0.01576029323 -0.04169708118 2.346801622e-38
-0.02988357842 -0.02163486369 0.3126091063 2.346801622e-38
-0.1264359951 -0.008680319414 -0.4195219874 2.346801622e-38
-0.08131245524 -0.01752800867 -0.05305484682 2.346801622e-38
-0.02649422735 -0.01663644239 -0.227243945 2.346801622e-38
-0.01811169833 -0.02196485735 0.1426732838 2.346801622e-38
-0.07892130315 -0.01368057262 -0.4400429726 2.346801622e-38
-0.09631438553 -0.009604464285 -0.1581129879 2.346801622e-38
-0.008915467188 -0.01592864282 -0.1225412712 2.346801622e-38
0.002973825205 -0.0211607255 0.2303997874 2.346801622e-38
-0.1222408786 0.005674010608 -0.2872599661 2.346801622e-38
-0.06766724586 -0.02014718577 0.01527683437 2.346801622e-38
-0.03995404392 -0.01337391883 -0.279969573 2.346801622e-38
-0.0206462983 -0.01745168306 0.03898559511 2.346801622e-38
-0.1160751209 -0.008304535411 -0.3221412599 2.346801622e-38
-0.07914631814 -0.01854722574 -0.09627024084 2.346801622e-38
-0.05677772686 -0.0167229455 -0.2350216508 2.346801622e-38
-0.05724234879 -0.02195505053 0.1565601975 2.346801622e-38
-0.04705819115 -0.02010013908 -0.3754794598 2.346801622e-38
-0.09369377047 -0.01065208297 -0.1826063842 2.346801622e-38
-0.07987132668 -0.01838461682 -0.32506603 2.346801622e-38
-0.06498521566 -0.01979301125 0.225331381 2.346801622e-38
-0.04537770525 -0.01554694679 -0.1416120529 2.346801622e-38
-0.07875648886 -0.0160453748 0.07703731954 2.346801622e-38
-0.04253369197 0.1388042867 0.4886567593 2.346406175e-38
0.1332856715 0.1507113725 0.4316447079 2.346406175e-38
0.1841605306 0.156661734 0.4500476122 2.346406175e-38
-0.09320416301 0.1512016803 0.4292996526 2.346406175e-38
0.1451408267 0.121856153 0.4943127036 2.346406175e-38
0.07059205323 0.1498378068 0.4538546801 2.346406175e-38
0.1912011206 0.1118556187 0.4221591353 2.346406175e-38
0.06857695431 0.1483906806 0.4294147789 2.346406175e-38
-0.0764337182 0.1531977504 0.4663686156 2.346406175e-38
0.1728485525 0.1560988724 0.4484673142 2.346406175e-38
0.1960033774 0.1449656636 0.4826883078 2.346406175e-38
-0.05212302133 0.1516258568 0.4437145591 2.346406175e-38
0.01460571308 0.1141187698 0.4904658198 2.346406175e-38
0.09937610477 0.1496392041 0.4545521438 2.346406175e-38
0.1945201308 0.1270589978 0.4577415287 2.346406175e-38
0.03944220394 0.1496870965 0.4460166991 2.346406175e-38
-0.008678449318 0.1448856592 0.4871788919 2.346406175e-38
0.12364389 0.1516378373 0.4641690552 2.346406175e-38
0.1709140688 0.1519628316 0.4737664163 2.346406175e-38
-0.04877505451 0.1530252844 0.4697664976 2.346406175e-38
0.08448661119 0.128787756 0.4897677302 2.346406175e-38
0.08999518305 0.149177447 0.4708724618 2.346406175e-38
0.1296557784 0.1465797424 0.4796943963 2.346406175e-38
-0.01882591657 0.1512701809 0.4756892622 2.346406175e-38
0.0491261594 0.1445891708 0.4845327735 2.346406175e-38
0.03625212982 0.1497847587 0.4638985395 2.346406175e-38
0.1026354432 0.1300916374 0.4900541008 2.346406175e-38
-0.01073785592 0.1497522146 0.4627642632 2.346406175e-38
0.1706099361 0.1366802603 0.4911604524 2.346406175e-38
0.006560421549 0.1511767805 0.4317790568 2.346406175e-38
-0.117935352 0.1453098655 0.4791175425 2.346406175e-38
0.05203334615 0.149486199 0.4620401859 2.346406175e-38
-0.02989648096 0.1741994023 -0.4709734321 2.346010729e-38
0.1415657252 0.1624048203 -0.4437296093 2.346010729e-38
0.1720796227 -0.06728373468 -0.4264036119 2.346010729e-38
0.1747876853 -0.02039825357 -0.3677793443 2.346010729e-38
0.09106693417 0.1665662676 -0.4314627647 2.346010729e-38
0.08218371123 0.1704354882 -0.454552412 2.346010729e-38
0.1694133431 -0.02213596925 -0.2479548752 2.346010729e-38
0.1786333025 0.129397735 -0.43414554 2.346010729e-38
-0.06872040033 0.1775715947 -0.4626148641 2.346010729e-38
0.1848041415 0.1523721069 -0.4605669379 2.346010729e-38
0.172758311 -0.0210275203 -0.3310468495 2.346010729e-38
0.1766829193 0.02368919551 -0.4024489224 2.346010729e-38
0.01027133688 0.1702746153 -0.42182374 2.346010729e-38
0.1308331341 0.1661556512 -0.4639184475 2.346010729e-38
0.1710757464 -0.02005539834 -0.3076964319 2.346010729e-38
0.1805564165 0.09308035672 -0.4627144337 2.346010729e-38
-0.04992964119 0.1766640842 -0.4479551613 2.346010729e-38
0.1666120142 0.1616517454 -0.4791064858 2.346010729e-38
0.1762634367 0.01309135277 -0.3814169168 2.346010729e-38
0.1747226864 -0.04220471531 -0.4612822831 2.346010729e-38
0.04089533538 0.1692966074 -0.4310764074 2.346010729e-38
0.1035967991 0.1688255072 -0.4701144695 2.346010729e-38
0.1758908778 0.03500103951 -0.4054165483 2.346010729e-38
0.1839487255 0.01629893668 -0.4891592562 2.346010729e-38
0.0256072022 0.1724217832 -0.4664859474 2.346010729e-38
0.171289131 0.153704077 -0.496968776 2.346010729e-38
0.1830625981 0.1384479851 -0.4584634006 2.346010729e-38
0.1902655363 0.08626337349 -0.4930249155 2.346010729e-38
0.1735332757 0.0197001826 -0.3084036112 2.346010729e-38
0.1781354398 0.09929934144 -0.4447371364 2.346010729e-38
0.01096656173 0.1708309203 -0.4359377027 2.346010729e-38
0.1754977405 0.1636866331 -0.4396065772 2.346010729e-38
0.05189757049 0.07212971896 -0.1219582632 2.345615283e-38
-0.005106434692 0.06282951683 -0.3141955733 2.345615283e-38
-0.121296756 0.1172797307 -0.2825901806 2.345615283e-38
0.08969020844 0.05856714398 0.444367528 2.345615283e-38
0.02919734828 0.04516003653 -0.2441361845 2.345615283e-38
-0.01469646394 0.05135440826 0.07437839359 2.345615283e-38
-0.08311234415 0.07923927158 0.1155178696 2.345615283e-38
-0.09069477767 0.08293102682 -0.01922487281 2.345615283e-38
0.1257878989 0.06409573555 0.1396336854 2.345615283e-38
-0.07001680136 0.08164595068 -0.253511101 2.345615283e-38
-0.1055920795 0.1025902182 -0.159337759 2.345615283e-38
-0.01682678424 0.06701016426 0.3469035029 2.345615283e-38
0.04978488758 0.0641162768 -0.01783706434 2.345615283e-38
-0.05082165077 0.07134952396 -0.0468759574 2.345615283e-38
-0.07578267902 0.08058924228 -0.04443017021 2.345615283e-38
-0.03821478039 0.06209182739 0.1438814998 2.345615283e-38
0.08009054512 0.06991243362 0.04497597367 2.345615283e-38
-0.05251048133 0.07263870537 -0.07737272233 2.345615283e-38
-0.1031487808 0.1017558947 -0.2467776537 2.345615283e-38
0.02369557694 0.06855743378 0.3743099868 2.345615283e-38
0.002100703074 0.03118884563 -0.06389320642 2.345615283e-38
0.01791264676 0.0483122915 0.1614229977 2.345615283e-38
-0.08870911598 0.0854197517 -0.1561514884 2.345615283e-38
-0.02756648138 0.06584011018 0.2927083075 2.345615283e-38
0.007564340718 0.0378437005 -0.01909393258 2.345615283e-38
0.1196744666 0.06206184253 0.3833881915 2.345615283e-38
-0.003873999463 0.03033117205 -0.1424883455 2.345615283e-38
-0.03360522538 0.03003703058 0.0144274598 2.345615283e-38
-0.04645171762 0.05723631755 0.2056468278 2.345615283e-38
-0.05955947563 0.06872481108 0.03649398685 2.345615283e-38
0.04377551749 0.05099418387 0.09902637452 2.345615283e-38
0.08155547082 0.05544011295 0.3339001238 2.345615283e-38
-0.03862004355 -0.06841184944 -0.1901557595 2.345219836e-38
-0.03313873708 -0.1323816627 -0.42695117 2.345219836e-38
-0.1113762185 -0.07511327416 -0.2885680199 2.345219836e-38
0.07549679279 -0.09858746082 -0.2646342814 2.345219836e-38
-0.01328237448 -0.0613206327 0.1028716937 2.345219836e-38
0.08229538053 -0.07790542394 -0.1161970273 2.345219836e-38
-0.1154060811 -0.06051065773 0.09681088477 2.345219836e-38
0.05972020328 -0.1375958472 -0.4217690229 2.345219836e-38
0.01329944842 -0.08327411115 -0.2504890263 2.345219836e-38
-0.1058024615 -0.1491364688 -0.4421956539 2.345219836e-38
-0.08968815207 -0.0653276071 -0.1825110316 2.345219836e-38
0.06342186779 -0.1030244753 -0.3049535751 2.345219836e-38
-0.02143780515 -0.06360897422 -0.1018018946 2.345219836e-38
-0.03687418625 -0.09418746084 -0.3411889672 2.345219836e-38
-0.0923249051 -0.06372553855 -0.1065712571 2.345219836e-38
0.0443623215 -0.109614633 -0.3523578942 2.345219836e-38
0.01308103185 -0.07350771129 -0.1696899831 2.345219836e-38
-0.09535106272 -0.1023000032 -0.3721189499 2.345219836e-38
-0.06447958201 -0.07981553674 -0.2867026627 2.345219836e-38
-0.01167816482 -0.08825211972 -0.2892313302 2.345219836e-38
0.02564171702 -0.06221612915 0.02538000233 2.345219836e-38
0.04776478186 -0.07970768958 -0.1759254932 2.345219836e-38
-0.06475559622 -0.06699278206 -0.1910668612 2.345219836e-38
-0.02862559259 -0.08934668452 -0.3196518719 2.345219836e-38
0.03929297626 -0.06405741721 -0.03456065804 2.345219836e-38
0.05041030422 -0.1065119952 -0.3469815254 2.345219836e-38
-0.07624535263 -0.0638288483 -0.0811220929 2.345219836e-38
-0.09988862276 -0.08519118279 -0.33445099 2.345219836e-38
-0.09474155307 -0.06655483693 -0.2284588665 2.345219836e-38
0.06183866039 -0.1321529448 -0.4149153531 2.345219836e-38
0.07258804888 -0.09026871622 -0.2380927205 2.345219836e-38
0.005903313402 -0.1216115654 -0.3976533413 2.345219836e-38
0.08500576764 0.01831977256 0.2451054007 2.344788516e-38
-0.00457814103 0.01747177355 -0.07380883396 2.344788516e-38
0.08625008166 0.01658082753 0.1342918426 2.344788516e-38
0.04810598493 0.01583014056 0.1955659837 2.344788516e-38
0.08375304937 0.01485495735 0.1880469918 2.344788516e-38
-0.01588923112 0.01824540086 0.1409444511 2.344788516e-38
