# .PCD v0.7 - Point Cloud Data file format
VERSION 0.7
FIELDS x y z rgb
SIZE 4 4 4 4
TYPE F F F F
COUNT 1 1 1 1
WIDTH 832
HEIGHT 1
VIEWPOINT 0 0 0 1 0 0 0
POINTS 832
DATA ascii
-0.1280324012 0.06826068461 0.4890892208 8.906165387e-39
0.09099498391 0.1410738677 0.4860980511 8.906165387e-39
-0.1694486886 0.1097879112 0.4921283126 8.906165387e-39
-0.01398257446 0.1253713071 0.4874754846 8.906165387e-39
0.0973264128 0.0969959721 0.4866773784 8.906165387e-39
0.1442692578 0.1374488324 0.4869503379 8.906165387e-39
-0.1400292367 0.1019519269 0.3268623948 8.906165387e-39
-0.1701253951 0.1235781237 0.4628177583 8.906165387e-39
-0.04154512659 0.07769875228 0.4858564436 8.906165387e-39
0.1075889841 0.1395806372 0.4865947068 8.906165387e-39
-0.1706108153 0.100947924 0.480969429 8.906165387e-39
-0.01534167212 0.1263929307 0.4875366986 8.906165387e-39
0.117390655 0.09746809304 0.4867998362 8.906165387e-39
0.1509828717 0.1334512532 0.4870331883 8.906165387e-39
-0.1434830576 0.08990926296 0.3455129564 8.906165387e-39
-0.1764875501 0.125652194 0.4802145362 8.906165387e-39
0.01195171196 0.08497624099 0.4850939512 8.906165387e-39
0.1165538654 0.1397279352 0.4868499637 8.906165387e-39
-0.1645122916 0.0857860595 0.4495202303 8.906165387e-39
-0.09911605716 0.1248332262 0.4906022549 8.906165387e-39
-0.134162128 0.06717626005 0.4890431166 8.906165387e-39
0.08962807804 0.1406898499 0.4860447943 8.906165387e-39
-0.1658530235 0.1132930741 0.49290663 8.906165387e-39
-0.004439875949 0.1299094707 0.4870422184 8.906165387e-39
0.06519986689 -0.1390438974 0.2908893526 9.641561216e-39
0.1018103287 -0.1413643807 0.322409302 9.641561216e-39
-0.1050692648 -0.1458171755 0.3768076897 9.641561216e-39
0.08099968731 -0.1439671367 0.2286541611 9.641561216e-39
0.07638002187 -0.1444423348 -0.015305412 9.641561216e-39
-0.1254572868 -0.1445189863 0.2916308641 9.641561216e-39
-0.06645974517 -0.1241941005 0.08350479603 9.641561216e-39
-0.06742424518 -0.1449831128 0.3890383244 9.641561216e-39
0.06537503004 -0.1454054415 0.1956855357 9.641561216e-39
0.01717141271 -0.1433985084 0.4093918502 9.641561216e-39
-0.1237019077 -0.1468906701 0.3234231174 9.641561216e-39
0.08041965216 -0.1412538439 0.3219893873 9.641561216e-39
0.07670146227 -0.1462952197 0.02996664867 9.641561216e-39
-0.1300118566 -0.1465421766 0.3322306871 9.641561216e-39
-0.08335595578 -0.1326195151 0.1401534379 9.641561216e-39
-0.02297254838 -0.1409949064 0.3806064129 9.641561216e-39
0.0735270381 -0.1468508542 0.1279074997 9.641561216e-39
-0.01298884861 -0.1467799693 0.4178919792 9.641561216e-39
-0.1254330128 -0.147645995 0.3296963871 9.641561216e-39
0.08896969259 -0.1419130564 0.318054378 9.641561216e-39
0.08229125291 -0.1475560367 -0.006305387709 9.641561216e-39
-0.1352154464 -0.1478828192 0.3692581654 9.641561216e-39
-0.08607752621 -0.1333456635 0.1483736634 9.641561216e-39
0.02836988494 -0.1399946809 0.3805616498 9.641561216e-39
0.0720378384 -0.1462354958 0.1091720462 9.641561216e-39
-0.1150750071 -0.1545842439 0.4211668372 9.641561216e-39
-0.1161188334 -0.1420875192 0.2616288066 9.641561216e-39
0.0441678986 -0.1387454271 0.355925262 9.641561216e-39
0.06716560572 -0.1463244557 0.1800501049 9.641561216e-39
0.02565808222 -0.1433133781 0.4102450013 9.641561216e-39
-0.1284532547 -0.1505143195 0.367110908 9.641561216e-39
0.09119355679 -0.1419005543 0.3046565056 9.641561216e-39
0.1366990805 0.006087730639 -0.3274825811 1.037659831e-38
0.1307947934 -0.09206271172 -0.4158244729 1.037659831e-38
-0.0509525314 -0.0781448558 -0.3874537349 1.037659831e-38
0.1109676212 0.009541523643 -0.4145826995 1.037659831e-38
0.1200318038 0.01616448537 -0.009710937738 1.037659831e-38
0.08424637467 0.00861249771 -0.4126462936 1.037659831e-38
-0.08485866338 -0.06957120448 0.02929337136 1.037659831e-38
-0.09128437936 -0.0796449855 -0.2575925887 1.037659831e-38
0.1362166107 0.005626987666 -0.2579189837 1.037659831e-38
0.1376460791 -0.03916363418 -0.3988467753 1.037659831e-38
-0.0836872384 -0.08392168581 -0.251109153 1.037659831e-38
0.07214437425 -0.05031016096 -0.4302701354 1.037659831e-38
0.1281320602 0.01346780546 -0.1081408188 1.037659831e-38
0.1124215573 0.006755740847 -0.3919694126 1.037659831e-38
-0.07217861712 -0.07260669023 -0.04384508729 1.037659831e-38
-0.06674383581 -0.07212846726 -0.329633832 1.037659831e-38
0.1359850615 0.005644514691 -0.2386072576 1.037659831e-38
0.1415124685 -0.02563101798 -0.3886892796 1.037659831e-38
-0.08691399544 -0.08618435264 -0.2673492134 1.037659831e-38
0.08508300781 -0.05311675742 -0.4269774258 1.037659831e-38
0.1277262717 0.01427038014 -0.09279382229 1.037659831e-38
0.1313735098 0.007791562472 -0.3334105611 1.037659831e-38
-0.07509360462 -0.07253650576 -0.055613067 1.037659831e-38
-0.04612660408 -0.06935358047 -0.3560179174 1.037659831e-38
0.1339514703 0.006917690393 -0.2061319798 1.037659831e-38
0.1265336424 -0.01133843511 -0.3903184533 1.037659831e-38
-0.07500764728 -0.07442500442 -0.1357861161 1.037659831e-38
0.002265624469 -0.06944124401 -0.4174238145 1.037659831e-38
0.1370001137 0.004511631094 -0.275226444 1.037659831e-38
0.1388447881 -0.04472815245 -0.4017277956 1.037659831e-38
-0.08605270088 -0.08805578947 -0.2881318033 1.037659831e-38
0.1033997759 -0.0351575911 -0.4223052263 1.037659831e-38
-0.09861058742 0.0972301662 0.1179262772 1.111163541e-38
-0.0826780349 0.06937355548 0.09058012068 1.111163541e-38
-0.05868338421 0.09482580423 0.4003716707 1.111163541e-38
-0.07901386917 0.07343643904 -0.1277508736 1.111163541e-38
-0.07819593698 0.08333662152 -0.2274507731 1.111163541e-38
0.04240377247 0.07122204453 0.360301435 1.111163541e-38
-0.08947779983 0.08159951121 0.05356620252 1.111163541e-38
-0.07047919184 0.09015356004 0.3042809963 1.111163541e-38
-0.08363483101 0.09007425606 -0.02557389624 1.111163541e-38
-0.06787154078 0.0732627809 0.2480237186 1.111163541e-38
-0.0849436 0.1044100448 0.3044688106 1.111163541e-38
-0.08509051055 0.07433215529 0.05347117409 1.111163541e-38
-0.07917174697 0.08767964691 -0.1869081259 1.111163541e-38
-0.007974693552 0.07589787245 0.3591451347 1.111163541e-38
-0.09486036748 0.08905240893 0.1042134762 1.111163541e-38
-0.07833024114 0.09106098861 0.27906847 1.111163541e-38
-0.0819561407 0.0896750018 -0.05819355324 1.111163541e-38
-0.06080533192 0.07300473005 0.2746608853 1.111163541e-38
-0.08537852764 0.1077937037 0.2749319077 1.111163541e-38
-0.08621390909 0.0750265494 0.06880310923 1.111163541e-38
-0.07824104279 0.08196896315 -0.2208382785 1.111163541e-38
-0.006376284175 0.07195970416 0.3532435 1.111163541e-38
-0.09210706502 0.08520840853 0.07704185694 1.111163541e-38
-0.07747924328 0.08999551088 0.2856632173 1.111163541e-38
-0.08092150092 0.09164526314 -0.09500043094 1.111163541e-38
-0.05502760783 0.07819409668 0.307022959 1.111163541e-38
-0.09122405946 0.1086800396 0.2410810143 1.111163541e-38
-0.08327829093 0.09427752346 0.2156174183 1.111163541e-38
-0.08427514881 0.09072579443 -0.01681978069 1.111163541e-38
-0.06662427634 0.07209901512 0.2393891364 1.111163541e-38
-0.08556142449 0.104272373 0.309088707 1.111163541e-38
-0.08183980733 0.07190521806 0.01688797958 1.111163541e-38
-0.1185526773 0.1700851023 -0.146398589 1.184631237e-38
-0.151320383 0.1719051898 -0.1826284677 1.184631237e-38
-0.09931904078 0.1703282297 -0.2070673853 1.184631237e-38
-0.129610762 0.1687892973 -0.0784888193 1.184631237e-38
-0.1417908669 0.1651402712 0.1113152727 1.184631237e-38
-0.1160904691 0.1672652662 -0.451791048 1.184631237e-38
-0.05797590315 0.1621473879 -0.4592480063 1.184631237e-38
-0.1220060438 0.170680657 -0.3601830304 1.184631237e-38
-0.1262269765 0.1678452045 -0.06253544241 1.184631237e-38
-0.1440780759 0.171906203 -0.2900619507 1.184631237e-38
-0.1066700444 0.1699150652 -0.3099202216 1.184631237e-38
-0.1422724575 0.1708702445 -0.1603070199 1.184631237e-38
-0.1390840262 0.1657991409 0.07185456157 1.184631237e-38
-0.1234119758 0.1693762988 -0.4175842404 1.184631237e-38
-0.08792402595 0.1644756794 -0.4338701963 1.184631237e-38
-0.1313383877 0.1707304567 -0.3061350882 1.184631237e-38
-0.1331466585 0.1672070026 -0.03304428607 1.184631237e-38
-0.1426768601 0.1714472026 -0.2906560004 1.184631237e-38
-0.1110497639 0.1697618216 -0.3248321116 1.184631237e-38
-0.14517048 0.1710350662 -0.1496153325 1.184631237e-38
-0.1443076581 0.1656594127 0.1002355441 1.184631237e-38
-0.1362570226 0.1696054637 -0.3924294114 1.184631237e-38
-0.1019835323 0.166413635 -0.4184572995 1.184631237e-38
-0.1377988458 0.1710148901 -0.2720253468 1.184631237e-38
-0.1317108423 0.1667555869 -0.007644060068 1.184631237e-38
-0.1368759423 0.1705651283 -0.3486521542 1.184631237e-38
-0.09928353131 0.1687645167 -0.3732171059 1.184631237e-38
-0.1439312398 0.1711948961 -0.2156064063 1.184631237e-38
-0.1258326471 0.1681976169 -0.07274165004 1.184631237e-38
-0.145449549 0.1721309423 -0.2725677192 1.184631237e-38
-0.1095485464 0.1701724678 -0.2935687006 1.184631237e-38
-0.1421098113 0.1707148403 -0.1303468347 1.184631237e-38
-0.0667250827 0.02273599803 -0.3593564928 1.258099074e-38
0.04631438479 0.1029601842 -0.4308453202 1.258099074e-38
-0.06571897864 0.02124577574 -0.3420029283 1.258099074e-38
-0.03868666291 0.1184961498 -0.4647133648 1.258099074e-38
-0.03916686773 -0.02093551494 0.05138834566 1.258099074e-38
-0.1389701664 0.021502316 -0.1924363375 1.258099074e-38
-0.1526011378 0.03429428488 -0.3865749538 1.258099074e-38
-0.002114136238 -0.03186245263 -0.1428568065 1.258099074e-38
-0.08125766367 -0.003914649133 -0.2597224116 1.258099074e-38
-0.08763741702 0.06001885235 -0.4631731808 1.258099074e-38
0.003637551097 0.09646230191 -0.4260559976 1.258099074e-38
0.0855525285 0.05587762594 -0.4053333998 1.258099074e-38
-0.05476358905 -0.01411177404 -0.03250945359 1.258099074e-38
-0.133487314 0.01021281164 -0.2717986703 1.258099074e-38
-0.1316609532 0.06950485706 -0.4544852078 1.258099074e-38
0.01246781088 -0.02805471234 -0.2166779786 1.258099074e-38
-0.08059198409 -0.007415814325 -0.2155411392 1.258099074e-38
-0.0966687277 0.04338447377 -0.4588233531 1.258099074e-38
0.001841125777 0.1142529845 -0.4359826446 1.258099074e-38
0.07377576828 0.02583937533 -0.3704754114 1.258099074e-38
-0.04915582016 -0.01582637057 -0.003760864027 1.258099074e-38
-0.1349848509 0.01004270185 -0.292219609 1.258099074e-38
-0.1310585737 0.05441514403 -0.450691849 1.258099074e-38
0.0005052014603 -0.03024570271 -0.1706260145 1.258099074e-38
-0.07913149893 -0.009126804769 -0.1536707878 1.258099074e-38
-0.1154641509 0.0002703741193 -0.4192925394 1.258099074e-38
-0.04052428156 0.1469539851 -0.4561217129 1.258099074e-38
0.05370493233 0.01147440355 -0.349309355 1.258099074e-38
-0.08315873146 -0.0002819150686 -0.2759792805 1.258099074e-38
-0.07898878306 0.0787826404 -0.4670734107 1.258099074e-38
0.001643313444 0.08730892837 -0.4205456078 1.258099074e-38
0.0868056491 0.05555110797 -0.4052360058 1.258099074e-38
0.1834362596 -0.1180730015 -0.07114968449 1.331530897e-38
0.1857589632 -0.1223883033 -0.2127894312 1.331530897e-38
0.1801638603 -0.1455760151 0.0702746436 1.331530897e-38
0.188538447 -0.1110882089 0.03618469462 1.331530897e-38
0.1789481342 -0.144732371 -0.1086222604 1.331530897e-38
0.1548600942 -0.1380342543 -0.4010625482 1.331530897e-38
0.1848629266 -0.1285730004 -0.2159386873 1.331530897e-38
0.1854597032 -0.09890544415 0.3703494072 1.331530897e-38
0.1827238798 -0.1309777051 0.1242349893 1.331530897e-38
0.1776319444 -0.1345483065 -0.2785688043 1.331530897e-38
0.1814712584 -0.1344444752 -0.07451277971 1.331530897e-38
0.1833363622 -0.1156236902 0.2049726993 1.331530897e-38
0.1785440147 -0.1472943723 0.007401577197 1.331530897e-38
0.1720200628 -0.138038516 -0.3769574463 1.331530897e-38
0.1839293092 -0.1273765713 -0.1831711829 1.331530897e-38
0.1852457672 -0.104451552 0.3429691494 1.331530897e-38
0.1778403223 -0.1395605206 0.1875929534 1.331530897e-38
0.1763623208 -0.1349887997 -0.2846345901 1.331530897e-38
0.1811013222 -0.1338974386 -0.09462102503 1.331530897e-38
0.1832260191 -0.1161942035 0.2585611045 1.331530897e-38
0.1784760654 -0.1467927396 -0.00303699635 1.331530897e-38
0.1680410802 -0.1415757239 -0.3790051639 1.331530897e-38
0.1840667874 -0.127677381 -0.1885726899 1.331530897e-38
0.1849574745 -0.102943331 0.3664448857 1.331530897e-38
0.1794038713 -0.1471994668 0.1478469372 1.331530897e-38
0.1778387874 -0.1324929148 -0.3302991092 1.331530897e-38
0.1819850206 -0.1314277649 -0.1365442872 1.331530897e-38
0.1847101599 -0.1083465666 0.2800144255 1.331530897e-38
0.1842469126 -0.1289123893 0.1086321846 1.331530897e-38
0.1779610366 -0.1342448145 -0.2730288804 1.331530897e-38
0.1816578954 -0.1343896091 -0.06374561042 1.331530897e-38
0.1831183881 -0.1159619093 0.210011065 1.331530897e-38
0.1693181396 0.05961733684 -0.487311244 1.404926846e-38
0.1037504375 0.02656859905 -0.4845730066 1.404926846e-38
0.1684348434 0.03277458623 -0.4862867594 1.404926846e-38
0.1351592094 -0.1437026411 -0.4271202385 1.404926846e-38
-0.02132432349 0.06951048225 -0.4829780459 1.404926846e-38
-0.04581039399 -0.01008118223 -0.4750364125 1.404926846e-38
0.1280968487 -0.09372461587 -0.2757072151 1.404926846e-38
0.04511192441 -0.05393463373 -0.4696205854 1.404926846e-38
0.1275545806 0.0702322498 -0.4880822003 1.404926846e-38
0.05478694662 0.03586622328 -0.4820266962 1.404926846e-38
0.1567823291 -0.04516676441 -0.465018779 1.404926846e-38
0.1281512231 -0.0547426939 -0.4740232825 1.404926846e-38
0.01365979668 0.07340783626 -0.484446764 1.404926846e-38
-0.01331468765 -0.003441856708 -0.4760281444 1.404926846e-38
0.131701827 -0.09339573234 -0.3060306013 1.404926846e-38
0.07037603855 -0.03157018125 -0.4758833647 1.404926846e-38
0.1057480425 0.07080677152 -0.4871716499 1.404926846e-38
0.04053689539 0.02640146948 -0.4807803631 1.404926846e-38
0.1553662717 -0.05833561346 -0.4593006372 1.404926846e-38
0.1203600913 -0.01988217048 -0.4831103981 1.404926846e-38
0.004975087009 0.0737349242 -0.4842838943 1.404926846e-38
-0.01732275262 -0.007971930318 -0.474952817 1.404926846e-38
0.1281032264 -0.1002723053 -0.308686614 1.404926846e-38
0.06395179033 -0.01982082799 -0.4762628675 1.404926846e-38
0.08994419873 0.07845199108 -0.4875001907 1.404926846e-38
0.03314489871 0.0225362014 -0.4803038538 1.404926846e-38
0.153345868 -0.08835587651 -0.4170154333 1.404926846e-38
0.1136612371 -0.01205172483 -0.4829491377 1.404926846e-38
0.1285625696 0.06756021082 -0.4880219102 1.404926846e-38
0.05957280099 0.03705153614 -0.4824651778 1.404926846e-38
0.1551457494 -0.03406541422 -0.4713332355 1.404926846e-38
0.1252543181 -0.05761751533 -0.4763058126 1.404926846e-38
-0.1662597805 0.1192841828 -0.1034177542 1.478322936e-38
-0.1674978584 0.1147546396 -0.313624084 1.478322936e-38
-0.1671431512 0.1078557447 -0.249806568 1.478322936e-38
-0.1572205424 0.003264460247 -0.1329287589 1.478322936e-38
-0.1625512987 0.06418894976 0.1970437914 1.478322936e-38
-0.1657232344 0.1266120672 0.02296944894 1.478322936e-38
-0.1565579176 0.04339990392 0.05246387422 1.478322936e-38
-0.1676921397 0.1064855754 -0.3635879755 1.478322936e-38
-0.1598047167 0.07391090691 0.01406588685 1.478322936e-38
-0.1682682484 0.1166814342 -0.219432503 1.478322936e-38
-0.1667851508 0.06359509379 -0.1335734576 1.478322936e-38
-0.1666906923 0.04691037908 -0.2386230528 1.478322936e-38
-0.1615779996 0.0544581674 0.1516821086 1.478322936e-38
-0.1676278412 0.1325267255 -0.07109666616 1.478322936e-38
-0.156521365 0.03874350339 0.00240049744 1.478322936e-38
-0.1671999097 0.09948223829 -0.3413341343 1.478322936e-38
-0.1583452225 0.0651865378 0.0239903871 1.478322936e-38
-0.1677253246 0.1116858199 -0.2051452845 1.478322936e-38
-0.1640330553 0.05257394537 -0.1103162915 1.478322936e-38
-0.1666858792 0.06953219324 -0.2585533261 1.478322936e-38
-0.1614646465 0.05426425487 0.1498464346 1.478322936e-38
-0.1651510745 0.1042321324 -0.07177324593 1.478322936e-38
-0.1560459584 0.03668814898 0.01286346279 1.478322936e-38
-0.1671116501 0.09860048443 -0.3313565552 1.478322936e-38
-0.1601872295 0.06014789641 0.09043789655 1.478322936e-38
-0.1705077291 0.1326703727 -0.1640635282 1.478322936e-38
-0.1589171588 0.04432675987 -0.05881978571 1.478322936e-38
-0.1664111167 0.0815763548 -0.2953940332 1.478322936e-38
-0.1611393839 0.07440251857 -0.01055471878 1.478322936e-38
-0.1680688858 0.1167328656 -0.2343533486 1.478322936e-38
-0.1675450951 0.06490671635 -0.1444655508 1.478322936e-38
-0.1668411344 0.04993772134 -0.2298978865 1.478322936e-38
0.06382603198 0.008404920809 0.2477904111 1.551683013e-38
0.1581699699 0.01397744659 -0.2376967221 1.551683013e-38
0.1142299995 -0.003985277377 -0.110852316 1.551683013e-38
0.1212627739 -0.001009096042 0.04376161098 1.551683013e-38
0.08751930296 -0.005117004737 -0.09312818944 1.551683013e-38
0.1263589412 0.001603577519 0.1156333312 1.551683013e-38
0.1294222176 -0.00970497448 0.3225173354 1.551683013e-38
0.1437261254 0.007329574786 -0.1701292694 1.551683013e-38
0.07478094846 0.004517983645 0.1454735547 1.551683013e-38
0.1490499377 -0.003624192672 -0.1341664046 1.551683013e-38
0.1224265993 0.002708802698 0.1685806811 1.551683013e-38
0.1029059589 -0.003273793031 -0.01333983988 1.551683013e-38
0.0762822032 -0.006527789403 -0.03618295863 1.551683013e-38
0.1321119219 0.0001133342739 0.08554005623 1.551683013e-38
0.1232272238 -0.001990650082 0.2936505973 1.551683013e-38
0.1465953887 0.004006770439 -0.1546611339 1.551683013e-38
0.07788464427 0.003974438179 0.110545218 1.551683013e-38
0.1282584369 -0.007815381512 -0.08764991909 1.551683013e-38
0.1226033494 0.004094265867 0.1979767531 1.551683013e-38
0.09123730659 -0.007283016574 -0.03601191193 1.551683013e-38
0.07700637728 -0.006456490606 -0.03956221789 1.551683013e-38
0.1306438297 0.000386456697 0.09152392298 1.551683013e-38
0.1242007986 -0.00416211877 0.3031321764 1.551683013e-38
0.1475132108 0.008179589175 -0.1760382205 1.551683013e-38
0.08807098866 0.001036154921 0.05153620243 1.551683013e-38
0.1168075651 -0.005725617986 -0.02930454165 1.551683013e-38
0.1186785251 0.006555249915 0.2387880385 1.551683013e-38
0.1078273579 -0.007546362933 -0.06616288424 1.551683013e-38
0.07330588996 0.004687241279 0.1581920683 1.551683013e-38
0.1551287472 -0.0002332334407 -0.1481880248 1.551683013e-38
0.1227270588 0.002629411174 0.1683629155 1.551683013e-38
0.1027494594 -0.001835001167 -0.001981654437 1.551683013e-38
-0.0459674634 -0.1367834657 0.4436529279 1.625043089e-38
-0.1683321148 -0.09031489491 0.4502350986 1.625043089e-38
-0.09411778301 -0.1432088017 0.4368798137 1.625043089e-38
-0.1200000793 -0.1570134163 0.4280630052 1.625043089e-38
-0.1471547186 -0.01960509829 0.464852035 1.625043089e-38
-0.1805108786 0.1235324964 0.2538551688 1.625043089e-38
0.1465007961 -0.134041667 0.4102231562 1.625043089e-38
-0.1479696929 0.08205302805 0.4572971165 1.625043089e-38
-0.141821146 -0.1568848044 0.4450885057 1.625043089e-38
-0.1707675159 0.00447871536 0.458769381 1.625043089e-38
-0.02313226089 -0.1403659433 0.4364546835 1.625043089e-38
-0.164849773 -0.1387610883 0.4440729618 1.625043089e-38
-0.1474836022 -0.06795695424 0.4593565166 1.625043089e-38
-0.1820697039 0.1133223698 0.3138487637 1.625043089e-38
0.1064105555 -0.1349403411 0.4241273105 1.625043089e-38
-0.1448013783 0.02256933227 0.4680511951 1.625043089e-38
-0.1541218162 -0.1580374986 0.4455152154 1.625043089e-38
-0.1721080691 -0.001285589533 0.4541338384 1.625043089e-38
0.02439713106 -0.1364408731 0.4353458881 1.625043089e-38
-0.1667641699 -0.1399190724 0.443559289 1.625043089e-38
-0.148320809 -0.07511256635 0.4576097131 1.625043089e-38
-0.1850540042 0.1095740572 0.3427850306 1.625043089e-38
0.1210310981 -0.1358578503 0.420011282 1.625043089e-38
-0.1474422216 0.006087108981 0.4661894441 1.625043089e-38
-0.1522275507 -0.1207929328 0.4520217478 1.625043089e-38
-0.1811465323 0.08289129287 0.4503416121 1.625043089e-38
0.04394311458 -0.1361922026 0.431805402 1.625043089e-38
-0.149264425 -0.07375632226 0.4563271403 1.625043089e-38
-0.1373877674 -0.1548876166 0.444542408 1.625043089e-38
-0.1712751091 -0.01949667372 0.4562407434 1.625043089e-38
-0.001884387457 -0.1382460892 0.4359211624 1.625043089e-38
-0.1690028161 -0.1553513259 0.4402992427 1.625043089e-38
-0.1255928129 -0.03984080255 0.1920054704 1.698367293e-38
-0.1196138114 -0.1599437892 0.3831506073 1.698367293e-38
-0.1255803108 -0.04426525533 0.1713242233 1.698367293e-38
-0.122133173 -0.1330670267 0.3619587719 1.698367293e-38
0.0127490852 -0.09700141847 0.4035904109 1.698367293e-38
-0.1251550913 -0.06386166066 0.1289212555 1.698367293e-38
-0.127673611 -0.06534866244 -0.1981872171 1.698367293e-38
0.1339206547 -0.126472339 0.3908433318 1.698367293e-38
-0.1125199497 -0.06231763959 0.3158687055 1.698367293e-38
-0.1124829203 -0.1407254785 0.2869025469 1.698367293e-38
-0.1327544302 -0.0549588725 0.01817482151 1.698367293e-38
-0.03797507286 -0.1281158179 0.4066146314 1.698367293e-38
-0.01478634868 -0.085841313 0.4010222852 1.698367293e-38
-0.1211861148 -0.07902190834 0.1801566482 1.698367293e-38
-0.1270906627 -0.06767191738 -0.1681840867 1.698367293e-38
0.09197064489 -0.131326586 0.3960609436 1.698367293e-38
-0.1107316613 -0.06556367129 0.3184114993 1.698367293e-38
-0.1120354384 -0.1210538819 0.2319739312 1.698367293e-38
-0.1291851997 -0.06099259108 -0.08302291483 1.698367293e-38
-0.04843443632 -0.128694728 0.4050094485 1.698367293e-38
-0.03620161861 -0.08754234016 0.4000534415 1.698367293e-38
-0.1249114349 -0.07658002526 0.1381736845 1.698367293e-38
-0.1272101104 -0.07248966396 -0.224180162 1.698367293e-38
0.07984764874 -0.1224491373 0.3984616101 1.698367293e-38
-0.08709862828 -0.06922236085 0.3808671236 1.698367293e-38
-0.1134097874 -0.1160892695 0.240683347 1.698367293e-38
-0.1304252148 -0.06049840897 -0.08167554438 1.698367293e-38
0.02131739259 -0.1296709627 0.4045269191 1.698367293e-38
-0.1167246476 -0.0550888516 0.2799337804 1.698367293e-38
-0.1125763282 -0.1406804323 0.2741697431 1.698367293e-38
-0.1298608035 -0.05712321401 -0.02048594691 1.698367293e-38
-0.08537077159 -0.1319614202 0.4033124149 1.698367293e-38
0.1813720316 -0.0344257839 -0.17117773 1.771655483e-38
0.1855598539 -0.03919940069 0.1308393031 1.771655483e-38
0.1897117794 -0.02977154963 0.008899856359 1.771655483e-38
0.1751565337 -0.05751060694 -0.2293420285 1.771655483e-38
0.1797913611 -0.09135222435 -0.3879974186 1.771655483e-38
0.1755665243 -0.05271204934 -0.2465037405 1.771655483e-38
0.1774801016 -0.05611129478 -0.3239187598 1.771655483e-38
0.1867491007 -0.03676739708 0.1146832556 1.771655483e-38
0.1739851981 -0.06821850687 -0.2841761708 1.771655483e-38
0.1853895783 -0.04173858836 -0.03825639188 1.771655483e-38
0.1839343607 -0.02251615562 -0.1952166706 1.771655483e-38
0.1828407198 -0.03363823518 -0.1448152512 1.771655483e-38
0.1765831709 -0.08036199957 -0.3858703673 1.771655483e-38
0.1766726673 -0.05128405988 -0.2119967788 1.771655483e-38
0.1780352294 -0.04299641773 -0.301504612 1.771655483e-38
0.1883674413 -0.03827232495 0.02210509405 1.771655483e-38
0.1737192869 -0.07126242667 -0.2864814699 1.771655483e-38
0.1843025535 -0.03965564445 -0.07006753236 1.771655483e-38
0.1833402961 -0.02246943116 -0.2108187824 1.771655483e-38
0.1840219945 -0.03279997408 -0.1232262477 1.771655483e-38
0.1765289754 -0.07822866738 -0.3836998343 1.771655483e-38
0.1765598506 -0.05025893822 -0.219691664 1.771655483e-38
0.1783621013 -0.0418802388 -0.3035680354 1.771655483e-38
0.1883467734 -0.03902245313 0.01617682353 1.771655483e-38
0.1743690223 -0.08338641375 -0.3424723148 1.771655483e-38
0.1818625033 -0.04172972962 -0.109133929 1.771655483e-38
0.1813862324 -0.02553137392 -0.2318138182 1.771655483e-38
0.1864157319 -0.03345619887 -0.06049955636 1.771655483e-38
0.173567608 -0.06680554152 -0.2551478148 1.771655483e-38
0.186545521 -0.04220452905 -0.01475662924 1.771655483e-38
0.1846511364 -0.02113767713 -0.1885214597 1.771655483e-38
0.1826876849 -0.03232955933 -0.1564722061 1.771655483e-38
0.1457098126 -0.1495538652 -0.1235191002 1.844943813e-38
0.1706416458 -0.1529462337 0.09063700587 1.844943813e-38
0.1523965597 -0.1484947205 -0.05812948197 1.844943813e-38
0.172334224 -0.1527272612 0.1417701989 1.844943813e-38
0.1672924757 -0.1520456821 0.1243197471 1.844943813e-38
0.167546615 -0.1611915678 -0.1700124592 1.844943813e-38
0.1652038246 -0.1641348749 -0.3001943827 1.844943813e-38
0.03131812811 -0.1434794366 0.2660689652 1.844943813e-38
0.1504787505 -0.1479242742 0.01023477595 1.844943813e-38
0.1651376337 -0.150983721 -0.0001775136916 1.844943813e-38
0.161908403 -0.1615910381 -0.1783585101 1.844943813e-38
0.1536021829 -0.1479708254 0.2100110799 1.844943813e-38
0.1682132185 -0.1526622176 0.1051300541 1.844943813e-38
0.1681459397 -0.1582502425 -0.1300460845 1.844943813e-38
0.1648461372 -0.1646417677 -0.2727138698 1.844943813e-38
0.05706711859 -0.1446144432 0.2813052237 1.844943813e-38
0.1506400406 -0.1491767019 0.04389585555 1.844943813e-38
0.1638840139 -0.1502688676 -0.01007234398 1.844943813e-38
0.1634477526 -0.1631699055 -0.1932427734 1.844943813e-38
0.1479667574 -0.1471676379 0.2617404759 1.844943813e-38
0.1681870818 -0.1516969502 0.127875492 1.844943813e-38
0.1656523645 -0.1577133387 -0.1261533946 1.844943813e-38
0.1653089672 -0.1646620333 -0.2828081846 1.844943813e-38
0.008578984067 -0.1460724473 0.2846024632 1.844943813e-38
0.1621754467 -0.1522156596 0.06350789219 1.844943813e-38
0.1673402935 -0.1509669572 -0.05352524668 1.844943813e-38
0.1655852795 -0.1648090631 -0.2181129605 1.844943813e-38
0.1258465499 -0.1469596624 0.2856563926 1.844943813e-38
0.1485785544 -0.1475493759 -0.009783582762 1.844943813e-38
0.1665120572 -0.1519834101 0.01264138892 1.844943813e-38
0.1616447419 -0.1609087735 -0.1694594622 1.844943813e-38
0.152674824 -0.1472078115 0.2224813998 1.844943813e-38
0.07715851814 -0.1562234163 -0.3209030628 1.91819627e-38
-0.1817935109 -0.04694238678 -0.395904541 1.91819627e-38
-0.0825432539 -0.1561224461 -0.3641459644 1.91819627e-38
-0.06807133555 -0.1560936868 -0.3183597922 1.91819627e-38
-0.1433136016 -0.158155039 -0.4146945179 1.91819627e-38
-0.1684470475 0.03704120591 -0.08111771196 1.91819627e-38
0.05543133244 -0.1536164284 -0.142689541 1.91819627e-38
-0.1739011705 0.05391909555 -0.3387443125 1.91819627e-38
0.0510128215 -0.1569215059 -0.4003195763 1.91819627e-38
-0.1728314906 0.04209147394 -0.3558477461 1.91819627e-38
0.05193353444 -0.1559716612 -0.324033916 1.91819627e-38
-0.155616194 -0.1564871371 -0.3799122274 1.91819627e-38
-0.05829596147 -0.1606581062 -0.4296916425 1.91819627e-38
-0.1691819578 0.04425492138 -0.1345855892 1.91819627e-38
0.05989143625 -0.1540842205 -0.1983299404 1.91819627e-38
-0.1697822809 0.004417249002 -0.4014146924 1.91819627e-38
0.04818849266 -0.1569128484 -0.4074345529 1.91819627e-38
-0.1758479178 0.0631121397 -0.3181659281 1.91819627e-38
0.06600630283 -0.1556115597 -0.3005113602 1.91819627e-38
-0.1670480967 -0.155345276 -0.3827410936 1.91819627e-38
-0.0512162596 -0.1608837396 -0.4324441552 1.91819627e-38
-0.1690742373 0.04304281995 -0.1242321208 1.91819627e-38
0.05925277621 -0.1540043056 -0.1834930032 1.91819627e-38
-0.1694129854 0.0112893777 -0.389336735 1.91819627e-38
0.01660390757 -0.1575973928 -0.4289939404 1.91819627e-38
-0.1721461266 0.05946215987 -0.24320288 1.91819627e-38
0.06459971517 -0.1544464827 -0.2617264986 1.91819627e-38
-0.1857023239 -0.09662173688 -0.4018954337 1.91819627e-38
0.06437636912 -0.1565399319 -0.382247299 1.91819627e-38
-0.1717963964 0.03746179491 -0.364656508 1.91819627e-38
0.04945638403 -0.1559625715 -0.3258883059 1.91819627e-38
-0.1430049688 -0.1557697058 -0.3722682297 1.91819627e-38
-0.07020827383 0.04415588453 0.2824970484 1.991448586e-38
-0.05000884458 0.0600336194 0.1470733136 1.991448586e-38
-0.07258291543 0.04212446138 0.3183551729 1.991448586e-38
-0.07553293556 0.03918511048 0.04575671628 1.991448586e-38
-0.01413238421 0.09157770872 0.1254232526 1.991448586e-38
0.1077169478 0.02720336244 0.3230949044 1.991448586e-38
0.08855220675 0.01447339635 0.1851076931 1.991448586e-38
-0.06085725874 0.05189341679 -0.203361854 1.991448586e-38
-0.06801140308 0.04768963531 0.1422508955 1.991448586e-38
-0.03383507207 0.07391354442 0.3203981817 1.991448586e-38
0.06431125104 0.01443229243 0.3575812578 1.991448586e-38
-0.06742782146 0.05118076876 -0.01594134979 1.991448586e-38
-0.04512948543 0.07431082428 0.0292441044 1.991448586e-38
0.1047943383 0.03082694672 0.3699781299 1.991448586e-38
0.08416824043 0.01235335041 0.2272254825 1.991448586e-38
-0.06228813902 0.05227798969 -0.1627785563 1.991448586e-38
-0.06943689287 0.04746111482 0.1070433557 1.991448586e-38
-0.03261606023 0.07413463295 0.3271591067 1.991448586e-38
0.0799625814 0.01614258997 0.3351534009 1.991448586e-38
-0.06508322805 0.0535238497 -0.04614911601 1.991448586e-38
-0.05498306453 0.06757532805 -0.01144948509 1.991448586e-38
0.1091498733 0.03099566698 0.3622558415 1.991448586e-38
0.08767532557 0.01399542671 0.2352856249 1.991448586e-38
-0.05934518948 0.05514661968 -0.1686245501 1.991448586e-38
-0.07218188047 0.04342279211 0.0208346229 1.991448586e-38
-0.02184036933 0.04923929274 0.3945300579 1.991448586e-38
0.07880594581 0.008386095054 0.2882839441 1.991448586e-38
-0.06625089049 0.05059673265 -0.1002628282 1.991448586e-38
-0.06669744849 0.04832035303 0.1577391326 1.991448586e-38
-0.03641137853 0.07231724262 0.2805038393 1.991448586e-38
0.06342944503 0.01573076658 0.3650797009 1.991448586e-38
-0.06823828071 0.04854238033 -0.01698162965 1.991448586e-38
0.1237313449 0.01101904735 -0.03690710291 2.06466517e-38
0.159002319 0.005086216144 0.2768108249 2.06466517e-38
0.1452131867 -0.001038709306 0.2040909082 2.06466517e-38
0.09353045374 0.005168209318 0.1622372121 2.06466517e-38
0.08458171785 0.0479465425 -0.2290100753 2.06466517e-38
0.103521347 0.005531511735 0.05816942081 2.06466517e-38
0.1250092387 0.009377365001 -0.00268341694 2.06466517e-38
0.1602355689 0.01777989976 0.3564270139 2.06466517e-38
0.1357288957 0.01802459732 -0.126913622 2.06466517e-38
0.1322642565 0.001030018204 0.2169419378 2.06466517e-38
0.1276543438 0.002215608954 0.1228526384 2.06466517e-38
0.1376430392 0.004758929368 0.2779058218 2.06466517e-38
0.09719058126 0.03360056877 -0.2207886875 2.06466517e-38
0.1005917042 0.005030603614 0.09328427911 2.06466517e-38
0.1236370355 0.005917906761 0.03208711371 2.06466517e-38
0.1609225869 0.01464029495 0.3454714715 2.06466517e-38
0.1311619282 0.02230388671 -0.1503089964 2.06466517e-38
0.1202021092 0.001172420918 0.190475598 2.06466517e-38
0.1236464307 0.003021620447 0.1098229289 2.06466517e-38
0.147989288 0.007272966672 0.2948719561 2.06466517e-38
0.08130728453 0.03507157788 -0.2161848545 2.06466517e-38
0.09270640463 0.004100229125 0.08107332885 2.06466517e-38
0.1204724014 0.006945890374 0.02348020114 2.06466517e-38
0.1555671245 0.01551625691 0.3523464799 2.06466517e-38
0.1315248013 0.02576617151 -0.1880480498 2.06466517e-38
0.1130386889 0.002866997849 0.1628964394 2.06466517e-38
0.1242006943 0.003493309719 0.09113714099 2.06466517e-38
0.1573686898 0.01026652567 0.3085576296 2.06466517e-38
0.132806614 0.01688194089 -0.1192765012 2.06466517e-38
0.1328446567 0.0003286227584 0.2221128792 2.06466517e-38
0.1300113946 0.001771809533 0.1327489763 2.06466517e-38
0.1365693659 0.004537742119 0.2797018886 2.06466517e-38
-0.1351277679 0.1340803951 -0.1438659877 2.137881613e-38
-0.1189131588 0.1638219804 -0.3545586467 2.137881613e-38
-0.1347942799 0.1651704609 -0.306925267 2.137881613e-38
-0.1169467717 0.1152708083 -0.2360674739 2.137881613e-38
-0.02681103721 0.1319722682 -0.4249538779 2.137881613e-38
0.04939050972 0.0945141241 -0.4036776125 2.137881613e-38
-0.1187245399 0.1411358118 -0.3313348293 2.137881613e-38
-0.1378373206 0.09602046013 0.2463562191 2.137881613e-38
-0.1513314396 0.1797360033 -0.374037534 2.137881613e-38
-0.07028935105 0.1347239017 -0.3960098922 2.137881613e-38
-0.1455851793 0.1499874592 -0.129207626 2.137881613e-38
-0.1280419827 0.1003675088 -0.04611771554 2.137881613e-38
-0.05568890274 0.1381926835 -0.4246536791 2.137881613e-38
0.02916219831 0.1008934602 -0.4035686553 2.137881613e-38
-0.1171862185 0.1439916641 -0.2237205505 2.137881613e-38
-0.1369477957 0.09030392021 0.1695560664 2.137881613e-38
-0.1339288801 0.1678595096 -0.407568872 2.137881613e-38
-0.0526940152 0.1261002868 -0.3962271512 2.137881613e-38
-0.1471718848 0.1458884329 -0.08832766116 2.137881613e-38
-0.1288300753 0.1004345044 -0.02852929942 2.137881613e-38
-0.04095638916 0.1326814145 -0.4224596024 2.137881613e-38
0.03405915946 0.09643031657 -0.4017039537 2.137881613e-38
-0.1142860577 0.1467377543 -0.2560714185 2.137881613e-38
-0.1374105811 0.09063548595 0.1732616276 2.137881613e-38
-0.113377355 0.1564075053 -0.4162246585 2.137881613e-38
-0.03561059386 0.1182474345 -0.3978368938 2.137881613e-38
-0.1427144259 0.1427709162 -0.07794070989 2.137881613e-38
-0.1313254386 0.0958442688 0.05043876544 2.137881613e-38
-0.1522531062 0.1787484586 -0.3662470281 2.137881613e-38
-0.07860058546 0.1366266012 -0.3949114382 2.137881613e-38
-0.1427073777 0.1513839811 -0.1591789275 2.137881613e-38
-0.1270910054 0.1010451093 -0.05720004067 2.137881613e-38
-0.1157361865 0.06210142002 0.2203355581 2.211062324e-38
-0.120566003 -0.03384169936 0.3552665412 2.211062324e-38
-0.1377407163 -0.02863795124 0.3847356737 2.211062324e-38
-0.1255399734 0.06708393246 0.2726823986 2.211062324e-38
-0.0935402289 0.03301891312 -0.1892214566 2.211062324e-38
-0.07254494727 -0.001966760727 0.2012532949 2.211062324e-38
-0.08518209308 0.01578679308 -0.0002580024302 2.211062324e-38
-0.1308944523 -0.005905746017 0.1423819512 2.211062324e-38
-0.1145626828 0.05270122364 0.06402365863 2.211062324e-38
-0.1093832552 -0.02801715396 0.3987256885 2.211062324e-38
-0.1074714884 0.05410430953 0.2788404524 2.211062324e-38
-0.154558301 0.01930720359 0.355355978 2.211062324e-38
-0.1004899815 0.03613582626 -0.1269851327 2.211062324e-38
-0.08247087896 0.01600004546 0.2580762506 2.211062324e-38
-0.09886659682 0.02843134478 0.08990807086 2.211062324e-38
-0.1479746848 -0.01366490033 0.2422893792 2.211062324e-38
-0.1157645509 0.05535411835 -4.483386874e-05 2.211062324e-38
-0.1102796718 0.007066139486 0.3773361146 2.211062324e-38
-0.1148527563 0.06277567893 0.2276101708 2.211062324e-38
-0.1581974328 0.03955475241 0.3444004357 2.211062324e-38
-0.1082433462 0.04664834589 -0.158488512 2.211062324e-38
-0.09460455924 0.02718817443 0.192080602 2.211062324e-38
-0.1091972142 0.04515420273 0.0492141135 2.211062324e-38
-0.1591567099 -0.01985096931 0.2832423449 2.211062324e-38
-0.1053261161 0.03751058504 -0.04837183282 2.211062324e-38
-0.08652941138 0.0151839694 0.354501158 2.211062324e-38
-0.1039235741 0.03783199564 0.184503749 2.211062324e-38
-0.1619935185 -0.02048568614 0.3612486422 2.211062324e-38
-0.1170200408 0.05605908856 0.07153235376 2.211062324e-38
-0.1155479774 -0.02098815329 0.3969172239 2.211062324e-38
-0.1134249195 0.05888229609 0.2694464326 2.211062324e-38
-0.1529161334 0.05525521934 0.3271704018 2.211062324e-38
0.1709540039 -0.01581062563 0.4681788683 2.284242894e-38
0.1791720092 -0.09397161007 0.4666944146 2.284242894e-38
0.09377229214 -0.02961466834 0.4672863185 2.284242894e-38
-0.08882017434 0.02310670912 0.3175554276 2.284242894e-38
-0.04688704386 0.009784505703 0.2946557701 2.284242894e-38
0.006408514455 0.01621647365 0.4560340941 2.284242894e-38
0.1841604114 -0.1581730396 0.4554460049 2.284242894e-38
0.04272642359 -0.02011984959 0.4660042226 2.284242894e-38
0.1551863998 0.05209431797 0.4641450942 2.284242894e-38
0.1484314203 -0.01927881874 0.4679352045 2.284242894e-38
0.1620862037 -0.09077033401 0.467478931 2.284242894e-38
-0.02275391482 -0.08177725971 0.4662977457 2.284242894e-38
-0.003918285016 0.009526747279 0.3581675887 2.284242894e-38
0.05074348673 0.02397850901 0.466622889 2.284242894e-38
0.1809605956 -0.1461942047 0.4573083222 2.284242894e-38
0.0899412781 -0.05212819576 0.4680169225 2.284242894e-38
0.1515713781 0.05286564678 0.4636898935 2.284242894e-38
0.1443351209 -0.0157112442 0.4677654505 2.284242894e-38
0.1713192165 -0.1091976538 0.4656485319 2.284242894e-38
0.08757203072 -0.1205463484 0.464630574 2.284242894e-38
0.01848616637 0.01408821251 0.3984532356 2.284242894e-38
0.06170764938 0.02671620622 0.4668596685 2.284242894e-38
0.1820626855 -0.1474873424 0.4572397172 2.284242894e-38
0.0852637887 -0.03687590733 0.4674531519 2.284242894e-38
0.09560639411 0.0361690186 0.4260264635 2.284242894e-38
0.1210347936 -0.003137317486 0.4657915533 2.284242894e-38
0.1751629412 -0.123063229 0.4623022974 2.284242894e-38
0.110717237 -0.1234702542 0.4634490609 2.284242894e-38
0.1577085257 0.05240456015 0.4646533728 2.284242894e-38
0.1528419256 -0.01750347018 0.4682414532 2.284242894e-38
0.1626772881 -0.09346468747 0.4674759507 2.284242894e-38
-0.01085994206 -0.08495849371 0.4664057195 2.284242894e-38
0.1869319677 -0.1365629733 0.4208893776 2.348204041e-38
-0.01469638944 -0.1103332117 0.4706558883 2.348204041e-38
0.03967063129 -0.1417638659 0.4742774963 2.348204041e-38
0.08304912597 -0.1247135699 0.4675623477 2.348204041e-38
-0.05584682524 -0.1158959568 0.4702560008 2.348204041e-38
-0.09818967432 0.07632108778 0.4655677676 2.348204041e-38
0.1776124537 -0.1561006904 0.3142409921 2.348204041e-38
-0.09956851602 -0.1259201914 0.4710136652 2.348204041e-38
0.08112562448 -0.1217902154 0.4692978561 2.348204041e-38
-0.07017999142 -0.04625076801 0.4675822556 2.348204041e-38
0.1279661804 -0.1557042897 0.4438759089 2.348204041e-38
-0.01036799792 -0.1310286969 0.4754396379 2.348204041e-38
-0.02548667789 -0.1170700118 0.4707656503 2.348204041e-38
-0.09788741916 0.05039338022 0.4683876634 2.348204041e-38
0.1793822646 -0.1589104235 0.3500860035 2.348204041e-38
-0.0871046707 -0.1426392943 0.4735601246 2.348204041e-38
0.05441615358 -0.1206557974 0.4749465287 2.348204041e-38
-0.07562251389 -0.02420343459 0.4663520455 2.348204041e-38
0.1470436156 -0.1589351445 0.4395987689 2.348204041e-38
-0.03120033816 -0.1345231086 0.4753022492 2.348204041e-38
-0.0407615304 -0.1219446659 0.4710156918 2.348204041e-38
-0.09647593647 0.05752208456 0.4683834016 2.348204041e-38
0.1788446456 -0.1587624103 0.3450574577 2.348204041e-38
-0.09673892707 -0.1350851953 0.4723013937 2.348204041e-38
0.02886947617 -0.1099053621 0.4730570912 2.348204041e-38
-0.08192847669 0.001723867026 0.4664241076 2.348204041e-38
0.1667981595 -0.1612119228 0.4145852923 2.348204041e-38
-0.05590583384 -0.142574206 0.4748907685 2.348204041e-38
0.1001616269 -0.1243030205 0.4638167322 2.348204041e-38
-0.0669971779 -0.05567025766 0.4681524932 2.348204041e-38
0.1213554516 -0.1550285816 0.4451039732 2.348204041e-38
-0.01271251682 -0.129124254 0.4754841924 2.348204041e-38
0.17620489 -0.06104801968 -0.009953749366 2.347880341e-38
0.1781300902 -0.05999739468 0.04698631912 2.347880341e-38
0.1774719656 -0.06322416663 -0.01705087349 2.347880341e-38
0.1828351617 -0.06793481112 -0.2061089277 2.347880341e-38
0.1788005233 -0.06251635402 -0.1693916917 2.347880341e-38
0.1918932796 -0.04357030615 0.3211300969 2.347880341e-38
0.1895786524 -0.05776213482 0.2065042853 2.347880341e-38
0.1642679721 0.08254533261 -0.3944013417 2.347880341e-38
0.1777966022 -0.06581129879 -0.08019162714 2.347880341e-38
0.1899386942 -0.0530924648 0.1700451523 2.347880341e-38
0.1737931818 -0.0627464503 0.04775539786 2.347880341e-38
0.1918133795 -0.02433497272 -0.3065308034 2.347880341e-38
0.1781716347 -0.06773684919 -0.1510012448 2.347880341e-38
0.1912605911 -0.04377650097 0.2966850698 2.347880341e-38
0.1858633757 -0.05877480283 0.1782123297 2.347880341e-38
0.1813274324 0.05220519006 -0.3861346543 2.347880341e-38
0.1768633127 -0.06621171534 -0.09182948619 2.347880341e-38
0.1890908331 -0.05212442577 0.1928758919 2.347880341e-38
0.1734495014 -0.06203548983 0.08516002446 2.347880341e-38
0.1888943464 -0.003106612014 -0.3122438788 2.347880341e-38
0.1781075746 -0.06735756248 -0.1658524126 2.347880341e-38
0.1900627166 -0.03913521022 0.3100312054 2.347880341e-38
0.1862797588 -0.05774005875 0.2062605321 2.347880341e-38
0.1726490706 0.05738087744 -0.3906815052 2.347880341e-38
0.1778306812 -0.0670742318 -0.1193345934 2.347880341e-38
0.1911388189 -0.04952194914 0.2357997149 2.347880341e-38
0.175552085 -0.06086873263 0.09708364308 2.347880341e-38
0.1879837364 0.01449353993 -0.3371298313 2.347880341e-38
0.1775964648 -0.06601694226 -0.07386448234 2.347880341e-38
0.1869000494 -0.05499853194 0.1530336887 2.347880341e-38
0.1731155813 -0.06263518333 0.04865653068 2.347880341e-38
0.1920617074 -0.03945355117 -0.3042808175 2.347880341e-38
-0.1533032805 0.1564780623 0.3139694929 2.347520768e-38
-0.176387772 0.1556432247 0.1338300705 2.347520768e-38
-0.1690462679 0.1407105327 0.2561137676 2.347520768e-38
-0.1707327068 0.1414008141 0.2300799638 2.347520768e-38
-0.1549883187 0.1694823802 0.0336365737 2.347520768e-38
-0.1621377617 0.1741233468 -0.2085537612 2.347520768e-38
-0.1422340572 0.1578315645 0.4134046435 2.347520768e-38
-0.1670998335 0.1675983369 -0.1084864438 2.347520768e-38
-0.1483384818 0.1629752815 0.2625071108 2.347520768e-38
-0.1780860573 0.1616485566 0.03818992525 2.347520768e-38
-0.158718437 0.1542301774 0.3324545324 2.347520768e-38
-0.1685422063 0.1476757228 0.1772834808 2.347520768e-38
-0.147902444 0.1628803313 0.1252492517 2.347520768e-38
-0.1653141975 0.1684487462 -0.1636083871 2.347520768e-38
-0.1496996135 0.1591743976 0.3916032016 2.347520768e-38
-0.1737395823 0.1655514091 -0.02263565361 2.347520768e-38
-0.1499284357 0.1595748961 0.2545334399 2.347520768e-38
-0.1771436632 0.1622969657 0.03442801163 2.347520768e-38
-0.1597274691 0.1555354744 0.3526124656 2.347520768e-38
-0.168006897 0.1477533877 0.1759469509 2.347520768e-38
-0.1496264786 0.1595367789 0.1283771694 2.347520768e-38
-0.165633589 0.1671860069 -0.1454244852 2.347520768e-38
-0.1507760435 0.1582808644 0.405826658 2.347520768e-38
-0.1742493957 0.1647531092 -0.0113086421 2.347520768e-38
-0.1450795531 0.1631180495 0.209289223 2.347520768e-38
-0.1730882376 0.1656196564 -0.06086266786 2.347520768e-38
-0.1575020254 0.1571626365 0.3634597063 2.347520768e-38
-0.1779824495 0.1608724296 0.09392783046 2.347520768e-38
-0.1506013721 0.1610010266 0.279322207 2.347520768e-38
-0.1797825694 0.161523819 0.07381696999 2.347520768e-38
-0.1594591141 0.1535322964 0.3328949213 2.347520768e-38
-0.1677140594 0.1455431581 0.1913738102 2.347520768e-38
0.0402854979 -0.0150258895 -0.4724031389 2.347161195e-38
-0.1478211582 -0.1477161348 -0.4365680516 2.347161195e-38
0.06965589523 -0.1082456484 -0.4747369587 2.347161195e-38
0.09990128875 -0.1254170984 -0.4709714949 2.347161195e-38
-0.1354002953 0.183365941 -0.4015848339 2.347161195e-38
0.1018865556 -0.1454411447 -0.4610744715 2.347161195e-38
-0.1390665472 0.10989023 -0.4766776562 2.347161195e-38
-0.147947982 -0.06455684453 -0.4640804231 2.347161195e-38
-0.07358513027 0.08479607105 -0.4738222361 2.347161195e-38
-0.04307868704 -0.1433518231 -0.4443009496 2.347161195e-38
-0.05669276416 -0.08780831844 -0.4698061347 2.347161195e-38
-0.02652236074 -0.1333736032 -0.4607205093 2.347161195e-38
-0.1370126456 0.1707365066 -0.4527351856 2.347161195e-38
0.06877918541 -0.1402783096 -0.4602734149 2.347161195e-38
-0.1277285367 0.05581178144 -0.4694333673 2.347161195e-38
-0.1357270777 -0.1121921539 -0.4558981955 2.347161195e-38
-0.08810276538 0.0920702517 -0.4722854197 2.347161195e-38
0.004846035969 -0.141647175 -0.4467674792 2.347161195e-38
-0.07982494682 -0.08067218214 -0.4691690505 2.347161195e-38
-0.04359848052 -0.136081934 -0.4569354951 2.347161195e-38
-0.1343808025 0.1781212837 -0.4359821379 2.347161195e-38
0.07848531008 -0.1403614879 -0.4608143568 2.347161195e-38
-0.1282420903 0.04460787028 -0.4685809612 2.347161195e-38
-0.1372283101 -0.1177358776 -0.453076452 2.347161195e-38
-0.1183778197 0.1203612983 -0.479414165 2.347161195e-38
0.02186628431 -0.1408610642 -0.4505895674 2.347161195e-38
-0.1178983971 -0.03242788091 -0.4708628356 2.347161195e-38
-0.0666237101 -0.1297633052 -0.45652318 2.347161195e-38
-0.05278832838 0.06096018478 -0.4754363596 2.347161195e-38
-0.04639056325 -0.1428456157 -0.4437590241 2.347161195e-38
-0.051611837 -0.09478074312 -0.4695084691 2.347161195e-38
-0.01697841659 -0.1336386353 -0.4602048695 2.347161195e-38
-0.1084743366 -0.09728364646 0.07657720894 2.346801622e-38
0.01779725216 -0.04807304218 0.2879088223 2.346801622e-38
-0.08006035537 -0.04341809452 0.3315965533 2.346801622e-38
-0.09768457711 -0.0960316956 0.05464038625 2.346801622e-38
-0.08275719732 -0.09938079119 -0.1905541569 2.346801622e-38
-0.01337362453 -0.08424770087 -0.06553409994 2.346801622e-38
-0.05340304598 -0.09626296908 0.02941876836 2.346801622e-38
0.07930262387 -0.06248214841 0.1582736224 2.346801622e-38
-0.0960265249 -0.09661405534 -0.03782549873 2.346801622e-38
0.01679435 -0.06155754998 0.1494880766 2.346801622e-38
-0.06970242411 -0.09389609098 0.2251229733 2.346801622e-38
-0.08321007341 -0.07352080941 0.2383002043 2.346801622e-38
-0.08491059393 -0.09955500066 -0.15133214 2.346801622e-38
-0.0119678583 -0.08496686816 -0.003645307152 2.346801622e-38
-0.06697801501 -0.1014824659 0.09220379591 2.346801622e-38
0.08631400019 -0.0597917065 0.240418002 2.346801622e-38
-0.09083415568 -0.09800440818 -0.0599739626 2.346801622e-38
0.02645026147 -0.06105480343 0.1152943373 2.346801622e-38
-0.07287108153 -0.09788643569 0.2132060379 2.346801622e-38
-0.02515394054 -0.05715613812 0.296872139 2.346801622e-38
-0.07584932446 -0.09906490147 -0.1713095903 2.346801622e-38
-0.01159664989 -0.08471160382 -0.008385156281 2.346801622e-38
-0.06358873099 -0.1007001922 0.08555947989 2.346801622e-38
0.08720143139 -0.06259397417 0.2205869257 2.346801622e-38
-0.09604348242 -0.09788057208 -0.08496209979 2.346801622e-38
0.01156893373 -0.06603637338 0.07015526295 2.346801622e-38
-0.08768177032 -0.1119967699 0.183774665 2.346801622e-38
0.03702712804 -0.04621739313 0.3263894022 2.346801622e-38
-0.09773387015 -0.09618154168 -0.02988192812 2.346801622e-38
0.02119330689 -0.06228556111 0.1721403599 2.346801622e-38
-0.06015632302 -0.08700887114 0.2412053049 2.346801622e-38
-0.08584867418 -0.07938733697 0.2262399793 2.346801622e-38
0.1648686379 0.01826774701 -0.1771562546 2.346406175e-38
0.1829855293 -0.007553356234 0.2507626414 2.346406175e-38
0.1726375967 0.01737207919 0.2359198481 2.346406175e-38
0.1931430101 0.001845303923 0.03714859113 2.346406175e-38
0.1861868352 0.009537976235 0.09400901198 2.346406175e-38
0.1499621421 0.077007927 0.4119012952 2.346406175e-38
0.1596120447 0.007153091487 -0.08019073308 2.346406175e-38
0.1902424991 0.00198518252 0.03691989556 2.346406175e-38
0.1807307005 -0.003840023186 -0.1133164167 2.346406175e-38
0.173614502 0.008384534158 0.3345949352 2.346406175e-38
0.1719718277 0.0159287136 0.09601597488 2.346406175e-38
0.1784668714 0.0002464834834 0.1986835599 2.346406175e-38
0.1907196641 0.007581246551 0.0367568396 2.346406175e-38
0.1549025178 0.05295779184 0.3939094841 2.346406175e-38
0.1650766879 0.009900338948 -0.02299478464 2.346406175e-38
0.1888369322 0.003341926029 0.08163749427 2.346406175e-38
0.1786518544 -0.003290159162 -0.08205311 2.346406175e-38
0.1689879596 0.01515125111 0.3433096111 2.346406175e-38
0.1692893505 0.01661388017 0.07356794178 2.346406175e-38
0.1758283526 0.0009907189524 0.2195346355 2.346406175e-38
0.1867794096 0.009928608313 0.05126552656 2.346406175e-38
0.1502965391 0.05574985966 0.3935954571 2.346406175e-38
0.1626397818 0.01102240011 -0.02775866352 2.346406175e-38
0.1874942034 0.004146464635 0.05943150446 2.346406175e-38
0.1849132329 -0.001872287481 -0.0468890965 2.346406175e-38
0.1664920449 0.0240652822 0.3607954383 2.346406175e-38
0.1690848917 0.015414197 0.04115026072 2.346406175e-38
0.1804306209 0.002397324424 0.1951690763 2.346406175e-38
0.1809323728 -0.004275219981 -0.1169027835 2.346406175e-38
0.1747056246 0.004515959881 0.3239802718 2.346406175e-38
0.1708976775 0.01398008596 0.1332075745 2.346406175e-38
0.1780900806 0.003391233739 0.1871383488 2.346406175e-38
-0.1769211441 0.09754262865 0.1284347624 2.346010729e-38
-0.1747706085 0.08890783042 -0.09725455195 2.346010729e-38
-0.1699243933 0.06076441333 -0.2047230005 2.346010729e-38
-0.1719531417 0.06974159181 -0.1702900976 2.346010729e-38
-0.1786514074 0.1140039489 0.4132956266 2.346010729e-38
-0.1717134565 0.1062906757 0.3042822778 2.346010729e-38
-0.1788181961 0.08175560832 0.1245584041 2.346010729e-38
-0.1621711701 0.04677119479 -0.4090286195 2.346010729e-38
