# .PCD v0.7 - Point Cloud Data file format
VERSION 0.7
FIELDS x y z rgb
SIZE 4 4 4 4
TYPE F F F F
COUNT 1 1 1 1
WIDTH 839
HEIGHT 1
VIEWPOINT 0 0 0 1 0 0 0
POINTS 839
DATA ascii
-0.2049422115 0.4564178586 0.0402838774 2.277910146e-39
-0.1872740388 0.3091723621 -0.07480682433 2.277910146e-39
-0.1820998639 0.4409505725 0.1403636783 2.277910146e-39
-0.1916307956 0.4345822036 0.1131631136 2.277910146e-39
-0.193613559 0.3623698652 -0.08495745808 2.277910146e-39
-0.1788978279 0.2389467657 -0.07817690074 2.277910146e-39
-0.1796947867 0.4059497416 0.13769041 2.277910146e-39
-0.1968589127 0.4309023917 0.09831149131 2.277910146e-39
-0.2005007565 0.4098392129 -0.09556577355 2.277910146e-39
-0.181457907 0.2996958792 -0.1000735313 2.277910146e-39
-0.1802992672 0.3832352161 0.1284675151 2.277910146e-39
-0.2050391138 0.4290629625 0.06597106904 2.277910146e-39
-0.2069579512 0.4339876473 -0.08023256809 2.277910146e-39
-0.1849054396 0.3036622703 -0.08839534968 2.277910146e-39
-0.1832267642 0.329546988 0.1090657115 2.277910146e-39
-0.2054065317 0.4341873825 0.06546060741 2.277910146e-39
-0.2099432051 0.4224094152 -0.06253970414 2.277910146e-39
-0.191614449 0.3535528183 -0.08748713881 2.277910146e-39
-0.1980791986 0.3585170805 0.05578545481 2.277910146e-39
-0.1995397806 0.3564904332 0.03081369773 2.277910146e-39
-0.1965683252 0.3632920682 0.07537283748 2.277910146e-39
-0.2038820386 0.384180367 -0.04430031776 2.277910146e-39
-0.2037220448 0.3902215362 0.03109101392 2.277910146e-39
-0.1958560348 0.3474082947 -0.06041378155 2.277910146e-39
-0.1874617636 0.4180718064 0.1205198392 2.277910146e-39
-0.2057565451 0.4124459624 0.04518946633 2.277910146e-39
-0.2041963041 0.3872200251 -0.03228952736 2.277910146e-39
-0.1854088306 0.2461797446 -0.04019709677 2.277910146e-39
-0.08837486058 0.06378851086 -0.04505447671 3.015101038e-39
0.01205603685 0.07012140006 -0.09178101271 3.015101038e-39
0.07304321975 0.06933306903 0.1405101717 3.015101038e-39
-0.05244280398 0.06428594142 0.1405779719 3.015101038e-39
-0.08713175356 0.06015498191 -0.08036220074 3.015101038e-39
-0.005101397634 0.06889928132 -0.120558545 3.015101038e-39
0.1591417044 0.07034599036 0.1296494603 3.015101038e-39
0.1004325375 0.07396742702 0.1404787153 3.015101038e-39
0.05492050201 0.06456698477 0.1299937218 3.015101038e-39
0.04425895959 0.06862208247 -0.05358850583 3.015101038e-39
0.1653006077 0.06870212406 0.1268203259 3.015101038e-39
0.03587862104 0.07165078819 0.1473852098 3.015101038e-39
-0.07952310145 0.05896212161 0.09969373047 3.015101038e-39
0.08431572467 0.06637280434 -0.09057577699 3.015101038e-39
0.1294279248 0.06914754957 0.1308002621 3.015101038e-39
-0.0548090823 0.0648728013 0.1439389884 3.015101038e-39
-0.1225387156 0.05773762986 0.05193058401 3.015101038e-39
0.02376975864 0.06866101921 -0.09254448861 3.015101038e-39
0.09107288718 0.06635435671 0.12839742 3.015101038e-39
-0.07434169948 0.05969791859 0.1100769117 3.015101038e-39
-0.0732973218 0.06937860698 0.0315230228 3.015101038e-39
-0.0710183382 0.06146873161 -0.09599316865 3.015101038e-39
-0.1131412089 0.0619006902 0.008651415817 3.015101038e-39
-0.09648949653 0.0591904521 -0.07324803621 3.015101038e-39
0.0123024527 0.06754858047 0.1395722777 3.015101038e-39
-0.1346132308 0.0596957095 0.02613233216 3.015101038e-39
-0.03750149533 0.06334794313 -0.112258926 3.015101038e-39
-0.05796996877 0.05281940103 -0.1400351524 3.015101038e-39
0.1082832441 0.07325061411 0.1388567686 3.015101038e-39
0.07130751759 0.07606106251 0.1484563649 3.015101038e-39
-0.01710580662 0.06314359605 0.1000741571 3.015101038e-39
-0.06612098217 0.07345466316 -0.01176581159 3.015101038e-39
0.0499409847 0.03224189207 0.02657206543 3.75229193e-39
0.05640913174 0.03143912554 -0.03364035115 3.75229193e-39
-0.06175420061 0.04487510026 -0.02269192785 3.75229193e-39
0.1170700267 0.04308077693 0.02199339867 3.75229193e-39
-0.05625993758 0.04964447767 0.0500738211 3.75229193e-39
-0.01473240461 0.04453999549 0.02486016043 3.75229193e-39
-0.0208281558 0.04523548484 -0.09417067468 3.75229193e-39
0.115130201 0.03607627004 -0.03454146534 3.75229193e-39
0.01916017942 0.04337274656 0.06276143342 3.75229193e-39
0.02843737416 0.03696490452 -0.1119866818 3.75229193e-39
-0.041066695 0.04287171364 -0.07215286791 3.75229193e-39
0.1228054166 0.03912782297 -0.01355778053 3.75229193e-39
-0.06055768952 0.04839846492 0.08425787091 3.75229193e-39
-0.008021890186 0.04641161487 -0.05256452784 3.75229193e-39
-0.03849515691 0.04318514094 -0.04447090998 3.75229193e-39
0.1220242903 0.04538093135 0.03110343963 3.75229193e-39
-0.07433836162 0.04795225337 0.09137957543 3.75229193e-39
-0.04223498702 0.04745818302 -0.004967484623 3.75229193e-39
-0.05195106566 0.04730812088 0.01025445573 3.75229193e-39
0.1037402824 0.04164852202 0.04180459678 3.75229193e-39
-0.008189666085 0.05233535171 0.07608433068 3.75229193e-39
-0.07601876557 0.04761261865 0.002251457423 3.75229193e-39
-0.03481387347 0.04754693434 0.02454928868 3.75229193e-39
-0.104482092 0.04425517842 0.06893087178 3.75229193e-39
-0.07128562033 0.04672368616 0.06729785353 3.75229193e-39
0.05466713756 0.03701898456 0.0208708439 3.75229193e-39
-0.006436933298 0.04726181924 -0.01769644022 3.75229193e-39
-0.0541472435 0.04031008482 0.06801141798 3.75229193e-39
-0.03803709149 0.04385750368 -0.05529181287 3.75229193e-39
0.1099610478 0.02694264799 0.001783547923 3.75229193e-39
0.002335097175 0.0478493534 0.0691831708 3.75229193e-39
-0.007099792361 0.04582230002 0.004840172362 3.75229193e-39
0.1798970699 0.0522840023 -0.08568654954 4.48912409e-39
0.1630044281 0.03685876727 -0.1218398213 4.48912409e-39
0.1916256845 0.0444692485 0.1017298922 4.48912409e-39
0.1915349811 0.05062115192 0.1242528111 4.48912409e-39
0.1822128594 0.00638948055 -0.0671588257 4.48912409e-39
0.1797508448 0.03003278933 -0.1001118198 4.48912409e-39
0.1864099652 0.01286000293 -0.02933416143 4.48912409e-39
0.1844365448 0.06104202196 -0.05795128271 4.48912409e-39
0.1725172251 -0.02447242104 -0.1282065809 4.48912409e-39
0.1553904712 0.01539830677 -0.1354849935 4.48912409e-39
0.1887703538 0.01412715856 0.0008518861141 4.48912409e-39
0.1926580667 0.06357216835 0.06027116999 4.48912409e-39
0.1795702577 -0.002516253153 -0.09575227648 4.48912409e-39
0.1636203527 0.03369313851 -0.1233172342 4.48912409e-39
0.1912363917 0.02211731486 0.0611346513 4.48912409e-39
0.1951627284 0.05670442432 0.1255411655 4.48912409e-39
0.1797018051 -0.001268728869 -0.0915953666 4.48912409e-39
0.1737502664 0.03611907363 -0.1073715836 4.48912409e-39
0.1930715591 0.04511616752 0.09868559241 4.48912409e-39
0.1920204014 0.05094565079 0.1032196507 4.48912409e-39
0.1813935041 0.002634429839 -0.0688983351 4.48912409e-39
0.1901181489 0.04578661174 -0.04060626775 4.48912409e-39
0.1903744489 0.04276834801 -0.01189875603 4.48912409e-39
0.1922659725 0.04235725477 0.04031851143 4.48912409e-39
0.1898971945 0.01714614406 0.01863707229 4.48912409e-39
0.1901227087 0.06317777932 0.03023790009 4.48912409e-39
0.1825441122 0.02284773253 -0.08537519723 4.48912409e-39
0.1897917539 0.04071277007 -0.03351141885 4.48912409e-39
0.1873950809 0.02077339962 -0.03551393375 4.48912409e-39
0.189141497 0.06407620758 0.02641887963 4.48912409e-39
0.1769053042 -0.0006480290322 -0.1105330065 4.48912409e-39
0.16191791 -0.02193205245 -0.130710125 4.48912409e-39
0.1398712546 0.01987591945 -0.1348963082 5.225597518e-39
-0.1319050044 0.03548786789 -0.0565296188 5.225597518e-39
-0.1341810822 0.07211684436 -0.1516735256 5.225597518e-39
0.1542256027 -0.07995273173 -0.1401283145 5.225597518e-39
0.1645542234 0.01382364146 -0.1436206698 5.225597518e-39
-0.1202358007 0.01837238297 -0.1188020259 5.225597518e-39
-0.1297921985 0.03635631874 -0.1257836819 5.225597518e-39
0.1692584604 -0.05785994232 -0.1459462792 5.225597518e-39
-0.005440699402 0.06533178687 -0.1412458122 5.225597518e-39
-0.1222862527 0.02323627099 -0.07870580256 5.225597518e-39
-0.1276807636 0.04047103599 -0.1361326873 5.225597518e-39
0.1644417644 -0.09468750656 -0.1455572546 5.225597518e-39
0.08723713458 0.04077973962 -0.1321908534 5.225597518e-39
-0.1202678829 0.01811043359 -0.09866272658 5.225597518e-39
-0.1275088489 0.04711704701 -0.1451310366 5.225597518e-39
0.1504966468 -0.08716541529 -0.1369921267 5.225597518e-39
0.1186528653 0.02346928045 -0.1338523328 5.225597518e-39
-0.1191821918 0.01681169495 -0.1214031354 5.225597518e-39
-0.08428344876 0.05676743388 -0.1412312984 5.225597518e-39
0.1417376399 -0.05858307704 -0.1337082982 5.225597518e-39
0.103506051 0.03494298458 -0.1345993429 5.225597518e-39
-0.04334948584 0.05917094648 -0.1320853531 5.225597518e-39
0.1834163219 0.001733342302 -0.1504800022 5.225597518e-39
0.06878483295 0.02283349074 -0.1221955568 5.225597518e-39
-0.02893280983 0.07122015208 -0.1459315866 5.225597518e-39
0.1588306576 -0.04538321495 -0.1402870864 5.225597518e-39
0.1684995294 -0.008958606981 -0.1432411969 5.225597518e-39
-0.1276022196 0.03197166324 -0.1259738952 5.225597518e-39
-0.107419841 0.04934570566 -0.1407465935 5.225597518e-39
0.1875252128 0.004921936896 -0.1528051794 5.225597518e-39
0.0420415774 0.06078465283 -0.1320944577 5.225597518e-39
-0.1220540628 0.02096388303 -0.102489993 5.225597518e-39
-0.02638943121 0.05570619181 0.007262713276 5.962428276e-39
-0.04565404728 0.04498559982 -0.1366058886 5.962428276e-39
-0.07000736147 0.05300416052 -0.0434163101 5.962428276e-39
0.1280353218 0.04784436896 0.02343514562 5.962428276e-39
0.04708242789 0.05478564277 -0.02489929646 5.962428276e-39
0.04758716747 0.04319934174 -0.1010165513 5.962428276e-39
-0.1028845012 0.05603066459 -0.1106146276 5.962428276e-39
0.1422833651 0.04347639531 -0.08041901886 5.962428276e-39
-0.02487258054 0.04449571297 0.03574385867 5.962428276e-39
-0.03774096817 0.04597206786 -0.1087396741 5.962428276e-39
-0.1040481925 0.05414959788 -0.09841587394 5.962428276e-39
0.140376687 0.04952511564 -0.01401425805 5.962428276e-39
0.0403976813 0.05389891937 0.008962733671 5.962428276e-39
-0.008146656677 0.04271547869 -0.1172027662 5.962428276e-39
-0.08936648071 0.05123480409 -0.09707058966 5.962428276e-39
0.1383549422 0.05028404295 -0.0214481838 5.962428276e-39
0.06504937261 0.05278723314 0.007143495139 5.962428276e-39
0.02265067771 0.04402950034 -0.09380760789 5.962428276e-39
-0.06610865146 0.0485644415 -0.1357259601 5.962428276e-39
0.1396050602 0.03855441511 -0.1353591681 5.962428276e-39
0.08155777305 0.05063883588 0.008193071 5.962428276e-39
0.09740006179 0.05028035119 -0.002107222332 5.962428276e-39
0.003045609221 0.03954075277 -0.1533574015 5.962428276e-39
0.09077266604 0.03558795154 -0.1486583799 5.962428276e-39
-0.02714345604 0.05215634406 -0.04130728915 5.962428276e-39
0.1077344716 0.04957870021 0.02988456376 5.962428276e-39
0.1084383875 0.03631875291 -0.1449174732 5.962428276e-39
0.06605447829 0.03315490857 -0.1622233838 5.962428276e-39
-0.08910018951 0.0490401648 -0.07126928866 5.962428276e-39
0.1244845092 0.04841604829 0.003976629581 5.962428276e-39
-0.02398038469 0.0486320816 0.01978854276 5.962428276e-39
-0.03466114029 0.05126731843 -0.05107811093 5.962428276e-39
-0.1594412029 0.3185115457 0.1379484385 6.698542971e-39
-0.1551961303 0.2311858982 0.137839362 6.698542971e-39
-0.05709034577 0.006232575979 0.1307959855 6.698542971e-39
-0.1743464619 0.4237550795 0.1365951896 6.698542971e-39
-0.1536821574 0.301158756 0.1388844848 6.698542971e-39
-0.1513329744 0.1481446773 0.1377599388 6.698542971e-39
0.1345059276 0.01903616078 0.1289282441 6.698542971e-39
-0.1715082377 0.4393746555 0.1368440241 6.698542971e-39
-0.1705104709 0.3994945288 0.1361980587 6.698542971e-39
-0.1556328982 0.2579229474 0.1380120367 6.698542971e-39
0.07952870429 0.02349106781 0.1295977831 6.698542971e-39
-0.1752073169 0.4383527637 0.1364118755 6.698542971e-39
-0.1649712324 0.3642180562 0.1369753927 6.698542971e-39
-0.1542343944 0.2220538259 0.1380690932 6.698542971e-39
-0.02051682398 0.01823704317 0.1301512271 6.698542971e-39
-0.169199571 0.4276385307 0.1372130811 6.698542971e-39
-0.1625743359 0.3486753106 0.1374325603 6.698542971e-39
-0.1532837152 0.149040401 0.1369258314 6.698542971e-39
-0.05865647271 0.01868338324 0.1320239305 6.698542971e-39
-0.1609700322 0.4092671871 0.1381480545 6.698542971e-39
-0.1562554538 0.2577256262 0.1376405805 6.698542971e-39
-0.1613193899 0.05142687634 0.1319397986 6.698542971e-39
-0.01949816383 0.01207125746 0.1283779293 6.698542971e-39
-0.1455739588 0.05292450264 0.1408422589 6.698542971e-39
-0.09082581848 -0.0004971883609 0.1333042234 6.698542971e-39
-0.1379939914 0.2232975662 0.1397539228 6.698542971e-39
-0.1489485502 0.005661166273 0.1244759187 6.698542971e-39
-0.1574473977 0.05463918298 0.1361490488 6.698542971e-39
0.1119159237 0.01829187758 0.1262914389 6.698542971e-39
-0.1635650694 0.4091677666 0.1380365342 6.698542971e-39
-0.1638905853 0.3554807901 0.1370640397 6.698542971e-39
-0.1505170465 0.140175283 0.1376502067 6.698542971e-39
0.1698949039 -0.4900234044 0.1479492635 7.434656265e-39
0.1595873088 -0.2553965449 0.1383236796 7.434656265e-39
0.1531359553 -0.2459158301 0.1496416926 7.434656265e-39
0.1631101221 -0.4920437038 0.1208159849 7.434656265e-39
0.1647729576 -0.4493032992 0.1547504067 7.434656265e-39
0.1643065661 -0.3408860862 0.1272767931 7.434656265e-39
0.1558277607 -0.4294602275 0.1510652602 7.434656265e-39
0.1666556746 -0.3642457426 0.1227422431 7.434656265e-39
0.1974912733 -0.4961838424 0.1411293447 7.434656265e-39
0.1578101814 -0.2140033096 0.1272269785 7.434656265e-39
0.1562397033 -0.3668462634 0.1514582485 7.434656265e-39
0.1612625122 -0.42815575 0.1175667569 7.434656265e-39
0.1914054155 -0.495320797 0.1445264965 7.434656265e-39
0.1663858593 -0.2773492336 0.1212127507 7.434656265e-39
0.1536921114 -0.3078283966 0.1506173164 7.434656265e-39
0.155711621 -0.4687903225 0.1202400178 7.434656265e-39
0.1866945475 -0.4953658283 0.1476255804 7.434656265e-39
0.1669146419 -0.2956832051 0.1250580251 7.434656265e-39
0.1544935852 -0.3773813546 0.1452372521 7.434656265e-39
0.1560956389 -0.4531252384 0.1194276139 7.434656265e-39
0.1795952916 -0.4923126101 0.1495312154 7.434656265e-39
0.166268155 -0.3043706715 0.1260105968 7.434656265e-39
0.1633807123 -0.4665022194 0.146582365 7.434656265e-39
0.1634211391 -0.4659665525 0.1477536261 7.434656265e-39
0.1578303128 -0.4545586109 0.1438750178 7.434656265e-39
0.157977432 -0.4323326647 0.1231408566 7.434656265e-39
0.1708819866 -0.4632050991 0.1544172913 7.434656265e-39
0.1566050202 -0.3878304064 0.151538074 7.434656265e-39
0.1550217122 -0.42710042 0.1488613486 7.434656265e-39
0.1688959301 -0.3874612153 0.1168768033 7.434656265e-39
0.1929121464 -0.4958486855 0.1398888975 7.434656265e-39
0.1652464569 -0.2617309988 0.1261225939 7.434656265e-39
0.1669301987 -0.3068418205 0.1462542862 8.170410826e-39
0.1600975841 -0.0930166468 0.144115746 8.170410826e-39
0.1752277166 -0.3984064758 0.1415537596 8.170410826e-39
0.1726501882 -0.0204960946 0.1455563307 8.170410826e-39
0.186368674 -0.220135659 0.143028751 8.170410826e-39
0.1585650742 -0.1436936557 0.1453981996 8.170410826e-39
0.1767924428 -0.4801133275 0.1382728368 8.170410826e-39
0.1685339063 0.04860005528 0.1363368034 8.170410826e-39
0.1859581172 -0.4101879299 0.1378192604 8.170410826e-39
0.1665982306 -0.06209687516 0.1489865333 8.170410826e-39
0.1762978733 -0.4693986773 0.1398555636 8.170410826e-39
0.1702678651 0.03227694705 0.1387258321 8.170410826e-39
0.1827470064 -0.2901050746 0.144047454 8.170410826e-39
0.1655350775 -0.1059302762 0.1478937268 8.170410826e-39
0.1733556092 -0.4448384941 0.1421797574 8.170410826e-39
0.1724829972 -0.005063691642 0.1441077441 8.170410826e-39
0.1833138615 -0.2613806725 0.1454992145 8.170410826e-39
0.1648593694 -0.1415314078 0.14928931 8.170410826e-39
0.1637760997 -0.394955337 0.1419947445 8.170410826e-39
0.1770847589 -0.1132635549 0.1490942538 8.170410826e-39
0.1728323102 -0.3152584732 0.144952774 8.170410826e-39
0.1660476774 -0.210821718 0.1503182799 8.170410826e-39
0.1558457613 -0.2649482489 0.1470352411 8.170410826e-39
0.1736552268 -0.2219690084 0.1498438269 8.170410826e-39
0.1640675068 -0.3619145155 0.1432785094 8.170410826e-39
0.182080552 -0.1451115161 0.1455679834 8.170410826e-39
0.1681659967 -0.2485173345 0.1492490619 8.170410826e-39
0.1581469923 -0.187174812 0.1480877846 8.170410826e-39
0.1771752238 -0.4411995411 0.1406837851 8.170410826e-39
0.1798548996 -0.08387518674 0.1429173052 8.170410826e-39
0.1796988249 -0.3639162183 0.1408694237 8.170410826e-39
0.1683577597 -0.1186793521 0.1490203738 8.170410826e-39
-0.1145576909 -0.3416335583 0.1323654652 8.906165387e-39
-0.1035289019 -0.352766037 0.1343488693 8.906165387e-39
-0.114502497 -0.4271706641 0.1397595406 8.906165387e-39
-0.1298287362 -0.002560282126 0.128979668 8.906165387e-39
-0.1162199229 -0.1800310165 0.1267071217 8.906165387e-39
-0.1016612425 -0.3317455053 0.1334199905 8.906165387e-39
-0.1116142794 -0.4773610532 0.144836396 8.906165387e-39
-0.1217051446 -0.1354544908 0.1206547543 8.906165387e-39
-0.1098332852 -0.2764708102 0.1318921745 8.906165387e-39
-0.101234898 -0.4003684819 0.136931017 8.906165387e-39
-0.1118488461 -0.4716328382 0.1437698305 8.906165387e-39
-0.1237284243 -0.08100107312 0.1246724203 8.906165387e-39
-0.1137440652 -0.2061520666 0.1284481734 8.906165387e-39
-0.1009714976 -0.3646755517 0.134924829 8.906165387e-39
-0.1110976711 -0.4559657872 0.1421281993 8.906165387e-39
-0.124252975 -0.02666264214 0.1289518327 8.906165387e-39
-0.1179227605 -0.1536044627 0.1261454523 8.906165387e-39
-0.1019001827 -0.329982996 0.1333408654 8.906165387e-39
-0.1144808829 -0.4201926291 0.1391046345 8.906165387e-39
-0.1194816232 -0.1109293029 0.1284756213 8.906165387e-39
-0.11674577 -0.178692013 0.1272189468 8.906165387e-39
-0.1083750725 -0.2319737375 0.132820189 8.906165387e-39
-0.1106461883 -0.3774418235 0.1366142184 8.906165387e-39
-0.1048405915 -0.3024118245 0.1335203052 8.906165387e-39
-0.1075088307 -0.347971797 0.1353818476 8.906165387e-39
-0.1137352735 -0.1930722296 0.1294021308 8.906165387e-39
-0.1102103293 -0.343224287 0.1349131614 8.906165387e-39
-0.1077783331 -0.2495632768 0.1334911883 8.906165387e-39
-0.1094974801 -0.4558584988 0.1419353634 8.906165387e-39
-0.1233773828 -0.09767549485 0.1233689338 8.906165387e-39
-0.1133270115 -0.2626842558 0.1303431839 8.906165387e-39
-0.1017171964 -0.3817379177 0.136097312 8.906165387e-39
-0.1068048775 -0.2487349659 0.1294856519 9.641561216e-39
-0.1173019633 -0.2111051977 0.1145797074 9.641561216e-39
-0.1193036586 -0.372717917 0.1406506896 9.641561216e-39
-0.1363703161 -0.01564077847 0.1239390746 9.641561216e-39
-0.1164095178 -0.3058747351 0.1258160323 9.641561216e-39
-0.1166472062 -0.1170691103 0.1202796772 9.641561216e-39
-0.1251634806 -0.4459149837 0.1243629977 9.641561216e-39
-0.146059379 0.1425459683 0.1210320592 9.641561216e-39
-0.1047524288 -0.2198720723 0.1416160017 9.641561216e-39
-0.1241208911 -0.2196875215 0.1135053709 9.641561216e-39
-0.1262443364 -0.4210345447 0.1299453676 9.641561216e-39
-0.1464017332 0.09193690121 0.1222524196 9.641561216e-39
-0.1119332537 -0.2879292667 0.1416761279 9.641561216e-39
-0.1237952784 -0.1480388045 0.1110366285 9.641561216e-39
-0.1252748966 -0.4011422992 0.1325673163 9.641561216e-39
-0.1444235891 0.03720591962 0.1252060831 9.641561216e-39
-0.1150407195 -0.3168089688 0.1392928362 9.641561216e-39
-0.1231748313 -0.1030681804 0.1124975085 9.641561216e-39
-0.1217164397 -0.3659794927 0.1362685114 9.641561216e-39
-0.1385443807 0.002911209362 0.1226782575 9.641561216e-39
-0.113846533 -0.2928417027 0.129730776 9.641561216e-39
-0.1214743927 -0.1039172038 0.1157673225 9.641561216e-39
-0.1178117692 -0.3195756376 0.1252217591 9.641561216e-39
-0.1165350527 -0.1595275849 0.113135092 9.641561216e-39
-0.1260335743 -0.3611727655 0.1210215911 9.641561216e-39
-0.1266424209 -0.1085765436 0.1125984788 9.641561216e-39
-0.1216658428 -0.2056534737 0.1137337089 9.641561216e-39
-0.1065615788 -0.1485013962 0.132037282 9.641561216e-39
-0.1241788641 -0.4191628993 0.1274085492 9.641561216e-39
-0.1341614127 -0.02028657123 0.1212333441 9.641561216e-39
-0.1052214801 -0.1956245452 0.1353804022 9.641561216e-39
-0.1229578331 -0.1242394075 0.1112197116 9.641561216e-39
0.1240324378 0.06186585873 0.1360643804 1.037659831e-38
0.1515428275 0.03834911063 -0.09256645292 1.037659831e-38
0.04328297824 0.03243036568 0.009169362485 1.037659831e-38
0.1576389819 -0.03925733268 -0.1281972528 1.037659831e-38
0.1304261386 0.05054273829 0.1004386023 1.037659831e-38
0.1444423497 0.04506508633 0.002507651458 1.037659831e-38
-0.01535979565 0.04096609354 0.09630627185 1.037659831e-38
0.1370055228 -0.2350495905 -0.1295498013 1.037659831e-38
0.06996481121 0.05731321499 0.1136989817 1.037659831e-38
0.1531199515 0.01713282615 -0.09190861136 1.037659831e-38
0.03818612918 0.03510285541 0.0689843744 1.037659831e-38
0.1417506784 -0.1901331097 -0.1303128004 1.037659831e-38
0.1570506245 0.05327888578 0.1232133433 1.037659831e-38
0.1558670998 0.0466542393 -0.06097054482 1.037659831e-38
0.08694279194 0.03556928784 0.03992809728 1.037659831e-38
0.1507274061 -0.1038542911 -0.1281886101 1.037659831e-38
0.1520214826 0.0571863614 0.09281802177 1.037659831e-38
0.1535254568 0.04959373176 -0.02125865594 1.037659831e-38
0.01171043981 0.03263900802 -0.02293580025 1.037659831e-38
0.157821998 -0.01826752163 -0.1122827679 1.037659831e-38
0.1557472944 0.04964715242 0.1086305231 1.037659831e-38
0.1566192359 0.04496864974 -0.04039948806 1.037659831e-38
0.1542712003 0.05408934504 0.1255718023 1.037659831e-38
0.1357948929 0.04545396939 -0.08894377947 1.037659831e-38
0.1345980018 0.04451200739 0.06745988131 1.037659831e-38
0.1606047451 0.01837639697 -0.0660193786 1.037659831e-38
0.1480231285 0.0515226461 0.1455894262 1.037659831e-38
0.1487528533 0.04343539849 -0.001985666575 1.037659831e-38
0.03649132326 0.04757997021 0.09663888812 1.037659831e-38
0.1522136182 -0.006505241152 -0.1132385284 1.037659831e-38
0.1316187978 0.06469056755 0.144729048 1.037659831e-38
0.1521205604 0.0246721562 -0.07214151323 1.037659831e-38
0.04476661608 0.0280094929 -0.1293936968 1.111163541e-38
0.006952471565 0.05918282643 -0.0784791857 1.111163541e-38
-0.05159310997 0.03088525124 -0.1304361373 1.111163541e-38
0.1816433817 0.03974393383 0.08004051447 1.111163541e-38
0.1001148373 0.03559408337 -0.1298100799 1.111163541e-38
-0.03676668182 0.05884820595 -0.08240325749 1.111163541e-38
-0.1172551736 0.02672508918 -0.1275317669 1.111163541e-38
0.1760102063 0.03759076819 0.1262978166 1.111163541e-38
0.1291756481 0.06299186498 -0.06835906208 1.111163541e-38
0.02423780225 0.06074565277 -0.07057226449 1.111163541e-38
-0.1053347364 0.02786961943 -0.1292486936 1.111163541e-38
0.1780141592 0.03846182674 0.1088758782 1.111163541e-38
0.1262228191 0.06340645999 -0.07915382087 1.111163541e-38
-0.006651288364 0.06045866385 -0.07694499195 1.111163541e-38
-0.08052485436 0.03009515069 -0.1312134117 1.111163541e-38
0.1816044599 0.03877021 0.06152807549 1.111163541e-38
0.1333088726 0.06241205335 -0.09174909443 1.111163541e-38
-0.01251733489 0.05881724507 -0.08319159597 1.111163541e-38
-0.07685998082 0.03043623641 -0.1297727376 1.111163541e-38
0.184034124 0.04014855623 0.02333116904 1.111163541e-38
0.1077472866 0.06288342178 -0.08574683964 1.111163541e-38
0.1391003579 0.06238933653 -0.06649006158 1.111163541e-38
0.1084650308 0.04633275792 -0.114771463 1.111163541e-38
0.1653607488 0.04788468033 -0.05339182913 1.111163541e-38
0.1630380899 0.04806499928 -0.1360850632 1.111163541e-38
0.1918865293 0.04193845764 -0.04947987571 1.111163541e-38
0.04727831855 0.03153165802 -0.121526435 1.111163541e-38
-0.007880860008 0.05914898589 -0.08858745545 1.111163541e-38
-0.02878637798 0.03489145637 -0.1199299395 1.111163541e-38
0.1817464679 0.03924576938 0.04895525053 1.111163541e-38
0.167615518 0.04934865609 -0.06908106059 1.111163541e-38
0.07865897566 0.05886875838 -0.06853421777 1.111163541e-38
-0.1346292198 0.3473781645 -0.113817811 1.184631237e-38
-0.1334880888 0.3615193069 -0.0943909958 1.184631237e-38
-0.1442989707 0.3182174861 -0.02963796817 1.184631237e-38
-0.1518036425 0.1954903305 0.007567075081 1.184631237e-38
-0.1532371342 0.281003505 -0.1052919328 1.184631237e-38
-0.1459898353 0.33450225 -0.06898231804 1.184631237e-38
-0.1536470801 0.2373150736 0.0318810977 1.184631237e-38
-0.1512072384 0.2587595284 -0.115512304 1.184631237e-38
-0.1157012433 0.3406589329 -0.1368540078 1.184631237e-38
-0.131568253 0.3555338085 -0.1162292063 1.184631237e-38
-0.1561277211 0.256831795 0.00552495895 1.184631237e-38
-0.1495050788 0.2269660532 -0.07940497249 1.184631237e-38
-0.1380833834 0.3113517165 -0.1323605478 1.184631237e-38
-0.1412268281 0.3464147449 -0.08913104981 1.184631237e-38
-0.1533617377 0.2816798091 -0.01484921202 1.184631237e-38
-0.15137887 0.177245751 0.009765381925 1.184631237e-38
-0.1423470378 0.2983960807 -0.1266160756 1.184631237e-38
-0.1422671974 0.3432108164 -0.08180734515 1.184631237e-38
-0.1495273262 0.288004905 -0.04806532711 1.184631237e-38
-0.1540592611 0.1798200607 -0.02947292477 1.184631237e-38
-0.1496148109 0.2389520407 -0.1055487916 1.184631237e-38
-0.1423298568 0.2490062267 -0.1356669813 1.184631237e-38
-0.1344097853 0.177503556 -0.1534176022 1.184631237e-38
-0.1531564444 0.1568095535 -0.06213077158 1.184631237e-38
-0.1517476737 0.1664999425 -0.03799077123 1.184631237e-38
-0.1494853497 0.1556401253 -0.0006896181731 1.184631237e-38
-0.1403703094 0.2785620689 -0.1349557936 1.184631237e-38
-0.1479511261 0.3053399026 -0.05163508654 1.184631237e-38
-0.156304583 0.2437087595 0.008602309972 1.184631237e-38
-0.1529837698 0.1578471065 -0.08807375282 1.184631237e-38
-0.1147122607 0.3467103243 -0.1324526966 1.184631237e-38
-0.1267125905 0.365141809 -0.1116330847 1.184631237e-38
-0.1834655553 0.49081707 -0.08504865319 1.258099074e-38
-0.1749490201 0.337828517 0.1421265155 1.258099074e-38
-0.1861012727 0.4956017733 0.05924315006 1.258099074e-38
-0.1788848042 0.4218523204 0.1532530338 1.258099074e-38
-0.1845488697 0.4937017858 -0.06207410991 1.258099074e-38
-0.1781987399 0.3791941106 0.1452765465 1.258099074e-38
-0.1844828874 0.4960821271 -0.001666810247 1.258099074e-38
-0.1926293969 0.4550721347 0.1065283418 1.258099074e-38
-0.1776828915 0.4833107293 -0.122951813 1.258099074e-38
-0.1758851409 0.3014320433 0.1360179037 1.258099074e-38
-0.1841513216 0.4966736734 0.01558303833 1.258099074e-38
-0.1928549856 0.4442200363 0.1136449277 1.258099074e-38
-0.1830090433 0.4934955239 -0.05016192049 1.258099074e-38
-0.1759717613 0.3524735868 0.143320024 1.258099074e-38
-0.1836877316 0.4973182082 0.04391174391 1.258099074e-38
-0.1824410707 0.4289347827 0.1515444368 1.258099074e-38
-0.1821787953 0.4943615496 -0.04134021327 1.258099074e-38
-0.1780893952 0.3809631467 0.1462324411 1.258099074e-38
-0.185594514 0.4964853525 0.09094204754 1.258099074e-38
-0.1754096448 0.4775008559 0.1617407799 1.258099074e-38
-0.1853526384 0.4945900738 -0.003811559873 1.258099074e-38
-0.177448377 0.4289435446 0.1553801298 1.258099074e-38
-0.1862858236 0.4961616993 0.08170080185 1.258099074e-38
-0.1818393171 0.4882685542 0.1383515298 1.258099074e-38
-0.1861558408 0.493542254 0.1067577153 1.258099074e-38
-0.1762658805 0.4820918143 0.1563101411 1.258099074e-38
-0.1859184951 0.4938812256 -0.03108890355 1.258099074e-38
-0.1818996072 0.4715896845 0.1542777866 1.258099074e-38
-0.1843337119 0.4966302514 0.02358424664 1.258099074e-38
-0.1891168803 0.4786555767 0.1308126599 1.258099074e-38
-0.181635946 0.4826250374 -0.1198142096 1.258099074e-38
-0.1771437675 0.3378376365 0.1385038942 1.258099074e-38
-0.1198020652 -0.1665755957 -0.1191186607 1.331530897e-38
-0.1267089546 -0.4016030133 -0.1209490672 1.331530897e-38
-0.1274311393 -0.4319186807 -0.1214864403 1.331530897e-38
-0.1269235462 -0.4830347598 -0.1170524806 1.331530897e-38
-0.1160866693 -0.2098244429 -0.1203453019 1.331530897e-38
-0.124447085 -0.2900760174 -0.1162344366 1.331530897e-38
-0.1209009513 -0.2315790802 -0.1188340783 1.331530897e-38
-0.124055706 -0.4988859892 -0.1160136461 1.331530897e-38
-0.1042835191 -0.054734651 -0.1245525703 1.331530897e-38
-0.1265565008 -0.4420212209 -0.1211553141 1.331530897e-38
-0.126987949 -0.3921626508 -0.1221791506 1.331530897e-38
-0.1235001758 -0.499394387 -0.1162341312 1.331530897e-38
-0.1079760268 -0.1602235585 -0.1228224039 1.331530897e-38
-0.127192542 -0.3913515806 -0.1207300872 1.331530897e-38
-0.1272881329 -0.4221175909 -0.1216017306 1.331530897e-38
-0.1260854304 -0.4852950275 -0.1176796332 1.331530897e-38
-0.1085669398 -0.2299144417 -0.1217972487 1.331530897e-38
-0.1261710674 -0.3737095892 -0.1189856604 1.331530897e-38
-0.1318889111 -0.1527521461 -0.1131076589 1.331530897e-38
-0.1250599772 -0.4704172909 -0.118513681 1.331530897e-38
-0.1058286428 -0.2309087515 -0.12271671 1.331530897e-38
-0.1235137135 -0.3125416934 -0.12131235 1.331530897e-38
-0.1270317882 -0.1010368764 -0.1166048348 1.331530897e-38
-0.1233799234 -0.2380687296 -0.1162984371 1.331530897e-38
-0.1156870425 -0.3214215338 -0.1221437305 1.331530897e-38
-0.1207694337 -0.3940683901 -0.1220072284 1.331530897e-38
-0.1218326837 -0.1684025228 -0.118511945 1.331530897e-38
-0.1228617355 -0.2156053782 -0.1170500815 1.331530897e-38
-0.1238291413 -0.3053262234 -0.1205907613 1.331530897e-38
-0.1264692247 -0.478892684 -0.1176959574 1.331530897e-38
-0.1041167825 -0.1089614853 -0.1238949373 1.331530897e-38
-0.1263601333 -0.4148810506 -0.1220820099 1.331530897e-38
-0.1689620167 0.392683059 -0.1191529855 1.404926846e-38
-0.1498821378 0.4459386766 -0.002885151189 1.404926846e-38
-0.1402286738 0.4482035637 0.1451283097 1.404926846e-38
-0.166349858 0.3665816188 -0.03525935858 1.404926846e-38
-0.1614727378 0.4316681623 -0.07073964924 1.404926846e-38
-0.1419366151 0.4602552652 0.06770265102 1.404926846e-38
-0.1517425925 0.299852699 0.1075179726 1.404926846e-38
-0.1688007116 0.3747496009 -0.08758534491 1.404926846e-38
-0.1666648388 0.3958937228 -0.1497660428 1.404926846e-38
-0.1451042891 0.438913554 0.04949650913 1.404926846e-38
-0.1510531902 0.3136687279 0.1102807373 1.404926846e-38
-0.1691116542 0.3876075149 -0.06467803568 1.404926846e-38
-0.1645731628 0.4281284511 -0.08783443272 1.404926846e-38
-0.1424527764 0.4588867426 0.1140487865 1.404926846e-38
-0.1456367075 0.3696318567 0.1147371531 1.404926846e-38
-0.1658989787 0.387201339 -0.02565135062 1.404926846e-38
-0.1635233909 0.4298391044 -0.07698941976 1.404926846e-38
-0.1434012055 0.4587157667 0.06494006515 1.404926846e-38
-0.1412151307 0.4297779202 0.1343093216 1.404926846e-38
-0.1612177789 0.3837623596 -0.01372431871 1.404926846e-38
-0.1539286524 0.4157885909 -0.006290375255 1.404926846e-38
-0.1505659223 0.4311461151 0.006469017826 1.404926846e-38
-0.1435454339 0.4555852711 0.0807755962 1.404926846e-38
-0.1418017894 0.4392082095 0.1366641074 1.404926846e-38
-0.1440189779 0.4357214272 0.1291964352 1.404926846e-38
-0.1515545994 0.4216673672 0.01144739892 1.404926846e-38
-0.1540274173 0.4090440273 -0.005832605995 1.404926846e-38
-0.1389126033 0.4127801359 0.1354160905 1.404926846e-38
-0.1488878429 0.377738148 0.1045313925 1.404926846e-38
-0.1651983261 0.3928209841 -0.05890623853 1.404926846e-38
-0.1670698524 0.4155922532 -0.1408693194 1.404926846e-38
-0.1519685239 0.4366321862 -0.01325196307 1.404926846e-38
-0.1504586041 0.1558215022 -0.02644627169 1.478322936e-38
-0.1292662323 0.4227607548 0.1006952003 1.478322936e-38
-0.142197594 0.3236380816 0.07494757324 1.478322936e-38
-0.1440178901 0.1398646384 0.1318360418 1.478322936e-38
-0.1426500529 0.3264863491 -0.05791825801 1.478322936e-38
-0.1375176162 0.4135608971 0.05528528616 1.478322936e-38
-0.1313224733 0.3852148354 0.1022616103 1.478322936e-38
-0.1479881704 0.3164618313 0.04800918326 1.478322936e-38
-0.1515753716 0.1937401295 -0.05675960332 1.478322936e-38
-0.1287249029 0.4406156838 0.0939816162 1.478322936e-38
-0.133757472 0.3756155372 0.095177643 1.478322936e-38
-0.1484763026 0.2833174765 0.07758123428 1.478322936e-38
-0.1418414712 0.3309457302 -0.08349871635 1.478322936e-38
-0.1317650825 0.4310536087 0.08193617314 1.478322936e-38
-0.136724472 0.3665621877 0.08171761781 1.478322936e-38
-0.1519190073 0.2506437898 0.08644776046 1.478322936e-38
-0.1346317232 0.4031561613 -0.08018802106 1.478322936e-38
-0.1350995302 0.4182520211 0.06886383146 1.478322936e-38
-0.138077423 0.335021317 0.07715503126 1.478322936e-38
-0.1531668454 0.2693523765 0.06242023036 1.478322936e-38
-0.1438658237 0.3032008111 -0.07427538186 1.478322936e-38
-0.1484802812 0.3371860683 0.02399993688 1.478322936e-38
-0.1550948918 0.2380671799 0.002115519252 1.478322936e-38
-0.1557047516 0.2712816894 -0.001042881631 1.478322936e-38
-0.1571187377 0.2355669886 0.02934189327 1.478322936e-38
-0.1562195271 0.2640133798 0.005395126529 1.478322936e-38
-0.1525532752 0.2328294814 -0.03504667804 1.478322936e-38
-0.1553765535 0.2764413059 0.006692265626 1.478322936e-38
-0.142568022 0.3686156571 0.04552038386 1.478322936e-38
-0.149455294 0.2126920819 0.1156057566 1.478322936e-38
-0.1439937055 0.3269917071 -0.09843153507 1.478322936e-38
-0.127274543 0.4188066125 0.109562695 1.478322936e-38
0.1689094007 0.04380779341 -0.07110205293 1.551683013e-38
0.1584108472 0.04440791905 0.1256134063 1.551683013e-38
0.004635114688 0.0402158834 -0.03485567495 1.551683013e-38
0.05717341229 0.04013280571 -0.01321489923 1.551683013e-38
0.1761526018 0.04251519963 -0.03358219564 1.551683013e-38
0.1670803875 0.04459790513 0.09173307568 1.551683013e-38
0.1193554029 0.044984404 0.08014164865 1.551683013e-38
0.1391639858 0.0450690873 0.06454980373 1.551683013e-38
0.1214015484 0.03633563593 -0.09499160945 1.551683013e-38
0.1172654852 0.04495900497 0.09214627743 1.551683013e-38
0.06327583641 0.04428017884 0.03825460374 1.551683013e-38
0.1080418751 0.0442894958 0.04587581754 1.551683013e-38
0.158875078 0.04135547951 -0.05275963992 1.551683013e-38
0.16554299 0.04435775802 0.1073894948 1.551683013e-38
0.03559345752 0.04123282805 0.00704020448 1.551683013e-38
0.1050916016 0.04151405394 -0.0032500464 1.551683013e-38
0.1663220376 0.04289368168 -0.03399407864 1.551683013e-38
0.1722084731 0.04385859147 0.09422998875 1.551683013e-38
0.006284928881 0.03924420103 -0.04136840999 1.551683013e-38
0.135921225 0.04169600829 -0.02290738374 1.551683013e-38
0.1507123411 0.03910921142 -0.06821103394 1.551683013e-38
0.1341716796 0.0409847647 -0.03877597675 1.551683013e-38
0.1401030868 0.04174857214 -0.008290100843 1.551683013e-38
0.1734974682 0.04360370338 0.01382314414 1.551683013e-38
0.03739243746 0.03658635542 -0.05166864768 1.551683013e-38
0.04396697879 0.03771557659 -0.07260768116 1.551683013e-38
0.1500604302 0.04298891872 0.01025375817 1.551683013e-38
0.1699353456 0.04391491041 0.0599337332 1.551683013e-38
0.0832554996 0.04533328116 0.06237127259 1.551683013e-38
0.1527764499 0.044722341 0.0519978106 1.551683013e-38
0.1180379465 0.0369277522 -0.07628893852 1.551683013e-38
0.1608973891 0.0444448553 0.1125044227 1.551683013e-38
-0.1712782085 0.2376442403 0.005917442963 1.625043089e-38
-0.1710681319 0.2522617877 -0.02214231156 1.625043089e-38
-0.1724195033 0.2706263363 0.08432017267 1.625043089e-38
-0.168259427 0.1613619179 0.004418944009 1.625043089e-38
-0.1708879322 0.2538834214 0.02310458571 1.625043089e-38
-0.1700866818 0.3141643703 0.06631254405 1.625043089e-38
-0.1651139706 0.04124632105 0.09144140035 1.625043089e-38
-0.1671445817 0.1568758935 -0.04918652028 1.625043089e-38
-0.1696724594 0.1912270933 -0.03663925081 1.625043089e-38
-0.1680400968 0.2898995578 -0.04850681871 1.625043089e-38
-0.1652680188 0.07054687291 0.09062277526 1.625043089e-38
-0.1677491069 0.1572821736 -0.03183737397 1.625043089e-38
-0.1698536873 0.1996526569 0.01886142977 1.625043089e-38
-0.1691289991 0.3219741285 0.02060750872 1.625043089e-38
-0.1703206003 0.2026631981 0.1009788811 1.625043089e-38
-0.1677496582 0.1598016918 -0.0171709843 1.625043089e-38
-0.1712584496 0.2239741683 0.02429423295 1.625043089e-38
-0.1702791154 0.3311366141 0.08256185055 1.625043089e-38
-0.1710349321 0.2105639875 0.09957449883 1.625043089e-38
-0.1677315235 0.1398533881 -0.007006158121 1.625043089e-38
-0.171352312 0.2226919234 0.07886052877 1.625043089e-38
-0.1714238524 0.270500809 0.0649754703 1.625043089e-38
-0.1706427485 0.2000516504 0.09721720964 1.625043089e-38
-0.1657853127 0.07592956722 0.03226570413 1.625043089e-38
-0.1678249389 0.1220217645 0.07282567024 1.625043089e-38
-0.1680591255 0.1492494196 0.0186262168 1.625043089e-38
-0.1696151942 0.1944049001 0.03331422433 1.625043089e-38
-0.1714408696 0.2404060364 0.07796543837 1.625043089e-38
-0.1664056033 0.08909832686 0.07636380941 1.625043089e-38
-0.1660221368 0.1049170643 -0.01910221204 1.625043089e-38
-0.171157971 0.2011393458 -0.0156110581 1.625043089e-38
-0.1690146923 0.2929529548 -0.01824511029 1.625043089e-38
0.183711946 -0.1778974384 -0.14177154 1.698367293e-38
0.1799463481 -0.2857068777 -0.1403624564 1.698367293e-38
0.1622336209 -0.1946856529 -0.1430513114 1.698367293e-38
0.1835595667 -0.3994508684 -0.1371747404 1.698367293e-38
0.1832300276 -0.2106871009 -0.1407482475 1.698367293e-38
0.1827128828 -0.2496143728 -0.1398069561 1.698367293e-38
0.157518521 -0.4238279164 -0.1471424699 1.698367293e-38
0.1668581367 -0.4830346704 -0.1430731565 1.698367293e-38
0.1527968645 -0.1266677082 -0.1478218436 1.698367293e-38
0.167674765 -0.3932558894 -0.1429232061 1.698367293e-38
0.1595800668 -0.378849417 -0.147214368 1.698367293e-38
0.1689274013 -0.4606768191 -0.1407696307 1.698367293e-38
0.1692831069 -0.1502854526 -0.1456706524 1.698367293e-38
0.1701011062 -0.3636264503 -0.1429408938 1.698367293e-38
0.1620332897 -0.27376616 -0.1461871415 1.698367293e-38
0.1770873815 -0.422509551 -0.1390386522 1.698367293e-38
0.1753235459 -0.1953701973 -0.144161135 1.698367293e-38
0.1731286347 -0.3352603912 -0.142018646 1.698367293e-38
0.1635462195 -0.3074208498 -0.1466171741 1.698367293e-38
0.1740123332 -0.4468672276 -0.1402398199 1.698367293e-38
0.1607469916 -0.1690623462 -0.1469918191 1.698367293e-38
0.1844664067 -0.3311468661 -0.1379755735 1.698367293e-38
0.1563666761 -0.445152849 -0.147135213 1.698367293e-38
0.1551934034 -0.3834090233 -0.1489099711 1.698367293e-38
0.1584153026 -0.2296647429 -0.1442735344 1.698367293e-38
0.1694211662 -0.4066666961 -0.1419916749 1.698367293e-38
0.1749912053 -0.3088487387 -0.1417539418 1.698367293e-38
0.1745766699 -0.2431564927 -0.14256607 1.698367293e-38
0.1565754712 -0.4094468951 -0.1473872364 1.698367293e-38
0.1613322794 -0.4764662087 -0.1454163641 1.698367293e-38
0.169329837 -0.1116350442 -0.1457251012 1.698367293e-38
0.1756332368 -0.3776819408 -0.1405235231 1.698367293e-38
0.05119211972 0.01320197806 0.1528261155 1.771655483e-38
-0.1000986695 0.005034016911 0.1581568718 1.771655483e-38
0.1525073647 0.02701056749 0.1284059137 1.771655483e-38
0.03804758564 0.0394519642 0.1531382501 1.771655483e-38
0.1765339822 0.02128259465 0.1558952779 1.771655483e-38
-0.04945963621 0.001592897344 0.1569534838 1.771655483e-38
0.1766256839 0.03798347712 0.04726145416 1.771655483e-38
-0.02198888548 0.03578334674 0.1518381685 1.771655483e-38
0.1252086014 0.02783837914 0.1566589922 1.771655483e-38
-0.07030361146 0.02597950771 0.1552536935 1.771655483e-38
0.1748003662 0.03837559372 0.05270192027 1.771655483e-38
0.009751275182 0.03886988759 0.15083763 1.771655483e-38
0.1942311078 0.02617940679 0.1523907185 1.771655483e-38
-0.06427687407 0.02680783533 0.1551123559 1.771655483e-38
0.1631657332 0.03174665198 0.102103062 1.771655483e-38
0.04943561181 0.03951927274 0.1554043442 1.771655483e-38
0.1942591071 0.02562494949 0.1530442536 1.771655483e-38
-0.04852160066 0.02215694077 0.1552498639 1.771655483e-38
0.1274479032 0.02810051851 0.1435728967 1.771655483e-38
0.05670241639 0.04024873301 0.1577947289 1.771655483e-38
0.1749948859 0.02937237546 0.1564653069 1.771655483e-38
0.01613297313 0.02380622365 0.1538181007 1.771655483e-38
0.111506626 0.0303434059 0.1584077626 1.771655483e-38
0.1145961583 0.03176538646 0.1564249247 1.771655483e-38
0.1361712366 0.03250594065 0.1556650698 1.771655483e-38
0.05232712254 0.02556479909 0.1555095166 1.771655483e-38
0.1766450852 0.0383278355 0.1467501372 1.771655483e-38
0.01797991246 0.004426791333 0.153871879 1.771655483e-38
0.1704205573 0.03935719281 0.09018098563 1.771655483e-38
-0.001276771771 0.03672107309 0.1523125023 1.771655483e-38
0.1523631662 0.03292464465 0.1573252827 1.771655483e-38
-0.08973082155 0.009098248556 0.1573735774 1.771655483e-38
-0.1912770271 0.4557806849 0.01028024685 1.844943813e-38
-0.1936416179 0.4361071885 0.03785531595 1.844943813e-38
-0.1745404452 0.2348457128 0.0888017118 1.844943813e-38
-0.1855127215 0.4059582055 0.1036301181 1.844943813e-38
-0.1878134757 0.442683965 -0.03501019999 1.844943813e-38
-0.1851948053 0.4173519015 -0.06246501952 1.844943813e-38
-0.1668749601 0.09092161804 0.09071350098 1.844943813e-38
-0.1797491163 0.3252915442 0.1065893844 1.844943813e-38
-0.1844905466 0.4479285777 -0.06142542139 1.844943813e-38
-0.1941851526 0.4416353703 0.1042319238 1.844943813e-38
-0.1697452515 0.146979928 0.08958309889 1.844943813e-38
-0.180536896 0.3068507314 0.1033958942 1.844943813e-38
-0.1762305945 0.4296243787 -0.1256562918 1.844943813e-38
-0.1931020916 0.4211824536 0.02712870948 1.844943813e-38
-0.1732112318 0.2059608549 0.09330827743 1.844943813e-38
-0.1826165169 0.3929727674 0.1168308929 1.844943813e-38
-0.1806292832 0.427170217 -0.09810964018 1.844943813e-38
-0.1916005611 0.4132297039 0.00347656291 1.844943813e-38
-0.1745272577 0.2366366237 0.09941168875 1.844943813e-38
-0.1863990128 0.3817652762 0.05432603508 1.844943813e-38
-0.1845124662 0.40732494 -0.06689553708 1.844943813e-38
-0.1781150401 0.3597243726 -0.09826269746 1.844943813e-38
-0.1884233356 0.3758337796 0.01930342987 1.844943813e-38
-0.1882021576 0.3643046319 -0.0189757701 1.844943813e-38
-0.1812255383 0.3023623228 0.08797138929 1.844943813e-38
-0.1827597767 0.3436875641 0.04785687476 1.844943813e-38
-0.173305586 0.3973114491 -0.1292377412 1.844943813e-38
-0.1797419488 0.3622465134 -0.08922491223 1.844943813e-38
-0.169966355 0.1201516911 0.08856383711 1.844943813e-38
-0.1837163419 0.4163730145 0.143444851 1.844943813e-38
-0.1793020517 0.4414685667 -0.1050973982 1.844943813e-38
-0.192853421 0.4399014115 0.08202043176 1.844943813e-38
-0.1761182398 0.1861296743 0.06805580109 1.91819627e-38
-0.1797095537 0.2734434009 0.09801900387 1.91819627e-38
-0.1634222418 0.07476848364 0.109704107 1.91819627e-38
-0.1809947193 0.4031819701 -0.06599933654 1.91819627e-38
-0.1807876676 0.2419137359 -0.01049126219 1.91819627e-38
-0.1796514094 0.3652524054 0.09701889753 1.91819627e-38
-0.1338506341 -0.2142560482 0.1085248068 1.91819627e-38
-0.1807779968 0.4517614245 -0.07016719133 1.91819627e-38
-0.1645253599 0.1257869601 0.08750849962 1.91819627e-38
-0.1789294928 0.2591098249 0.04868175834 1.91819627e-38
-0.1461298317 -0.1719173044 0.1036997661 1.91819627e-38
-0.1804364324 0.4185200632 -0.06805206835 1.91819627e-38
-0.1749048829 0.1780799925 0.02068048529 1.91819627e-38
-0.1794211417 0.3478818536 0.04776697606 1.91819627e-38
-0.1575987339 -0.03153526783 0.1061889008 1.91819627e-38
-0.1817357987 0.3951466382 -0.06138031557 1.91819627e-38
-0.1809767783 0.254860878 0.002610271564 1.91819627e-38
-0.179570362 0.4012752771 0.0525053516 1.91819627e-38
-0.160908252 0.03044388443 0.1100187823 1.91819627e-38
-0.1801193208 0.3513695598 -0.05971807614 1.91819627e-38
-0.1778164208 0.2271794081 0.05457531288 1.91819627e-38
-0.1806854755 0.4576458335 0.01558859646 1.91819627e-38
-0.1777956933 0.2390197814 0.08752353489 1.91819627e-38
-0.1777106524 0.2321505994 0.1060983315 1.91819627e-38
-0.1747814417 0.2109501809 0.09150505066 1.91819627e-38
-0.1819628626 0.3833627403 -0.02375325002 1.91819627e-38
-0.1739984155 0.1344809681 -0.03208364919 1.91819627e-38
-0.178466931 0.2813415527 0.1194764003 1.91819627e-38
-0.1502675563 -0.08248382807 0.1040654257 1.91819627e-38
-0.1795915663 0.2701410353 -0.05027477816 1.91819627e-38
-0.1585141718 0.0745805949 0.06256216764 1.91819627e-38
-0.1778221577 0.3037805855 0.06180968881 1.91819627e-38
0.1630827934 -0.3328035176 -0.1262426823 1.991448586e-38
0.1802795976 -0.06509718299 -0.1286337674 1.991448586e-38
0.1685456634 -0.2600005269 -0.1257421672 1.991448586e-38
0.1788415015 -0.1334162951 -0.1190019995 1.991448586e-38
0.1627532989 -0.4388614297 -0.1331351101 1.991448586e-38
0.1620298326 -0.1677534133 -0.1269549131 1.991448586e-38
0.1681918651 -0.3415668011 -0.1259904802 1.991448586e-38
0.1796221733 -0.10412848 -0.1248841956 1.991448586e-38
0.1633611619 -0.3232440352 -0.1270796955 1.991448586e-38
0.1803345531 -0.06167878583 -0.1279478371 1.991448586e-38
0.1718453616 -0.3172258139 -0.1241788641 1.991448586e-38
0.1804982126 -0.1185604483 -0.124365963 1.991448586e-38
0.163332954 -0.395165354 -0.1311326921 1.991448586e-38
0.1704675853 -0.1307720691 -0.1275694817 1.991448586e-38
0.1745938361 -0.2755230069 -0.1246714965 1.991448586e-38
0.1763446629 -0.1559422165 -0.1252682209 1.991448586e-38
0.1614590287 -0.4406883419 -0.13406533 1.991448586e-38
0.1639279276 -0.1580761373 -0.1274651587 1.991448586e-38
0.1757722795 -0.2372600734 -0.1280745715 1.991448586e-38
0.1702290028 -0.2066852003 -0.1303011328 1.991448586e-38
0.1615917832 -0.4113699198 -0.1331070065 1.991448586e-38
0.1602082402 -0.3161516488 -0.1277200282 1.991448586e-38
0.1684841812 -0.3559994698 -0.1262075305 1.991448586e-38
0.1624572277 -0.2690449059 -0.1272708774 1.991448586e-38
0.1620770693 -0.3363033831 -0.1279744506 1.991448586e-38
0.1689039022 -0.1983675361 -0.1258886158 1.991448586e-38
0.1656693071 -0.3827907741 -0.1289886981 1.991448586e-38
0.157819286 -0.2624000907 -0.1259756684 1.991448586e-38
0.1693523973 -0.3202549815 -0.1266526282 1.991448586e-38
0.174402982 -0.1727876216 -0.1242288128 1.991448586e-38
0.1572439969 -0.3162434697 -0.1278124452 1.991448586e-38
0.1765508056 -0.0926772356 -0.1287093163 1.991448586e-38
-0.1545094997 0.06877528131 -0.1029259935 2.06466517e-38
-0.1245891824 0.1169273555 -0.1392934471 2.06466517e-38
-0.1571604013 0.05872521177 -0.02430551685 2.06466517e-38
-0.1614002436 0.0705364421 -0.09158761799 2.06466517e-38
-0.1256669611 -0.2254324257 -0.1189407632 2.06466517e-38
-0.1229994595 0.07189278305 -0.1327973455 2.06466517e-38
-0.08761966228 -0.03624337539 0.05480074883 2.06466517e-38
-0.150864318 -0.03449816629 -0.07490603626 2.06466517e-38
-0.1388913542 0.006485982332 -0.1119071022 2.06466517e-38
-0.1485020071 0.1811552644 -0.1261531264 2.06466517e-38
-0.1229817271 -0.00576224504 0.05611849576 2.06466517e-38
-0.149805218 -0.008753117174 -0.08586097509 2.06466517e-38
-0.1257368773 -0.196155712 -0.1272325069 2.06466517e-38
-0.1436098516 0.1278706193 -0.1285768896 2.06466517e-38
-0.1500233412 0.0152006736 0.03665921837 2.06466517e-38
-0.1540385038 0.01386689581 -0.0866002515 2.06466517e-38
-0.1234396547 -0.2085680664 -0.1263030022 2.06466517e-38
-0.1251914799 0.1029364616 -0.1395503432 2.06466517e-38
-0.153433606 0.02713525854 -0.008218412288 2.06466517e-38
-0.1485492885 -0.01471869554 -0.08738740534 2.06466517e-38
-0.1289860308 -0.09148242325 -0.1260254681 2.06466517e-38
-0.143517673 0.07691411674 -0.1090913638 2.06466517e-38
-0.1558277011 0.02655794099 -0.06583852321 2.06466517e-38
-0.1392235756 -0.008808619343 -0.0994906351 2.06466517e-38
-0.1454424858 0.003232937306 -0.01506170537 2.06466517e-38
-0.1393478513 -0.03683768958 -0.08795229346 2.06466517e-38
-0.1311249286 -0.09056442231 -0.1049002185 2.06466517e-38
-0.1142610833 0.01632734574 -0.1330498159 2.06466517e-38
-0.1408717334 0.01835064963 0.04778049141 2.06466517e-38
-0.1603592187 0.04829217866 -0.07335147262 2.06466517e-38
-0.1298163682 -0.112979807 -0.1292852908 2.06466517e-38
-0.1371291578 0.1921266615 -0.1331379563 2.06466517e-38
-0.120692648 0.3756585419 -0.1214803904 2.137881613e-38
-0.1251608729 0.3535116613 -0.1330106854 2.137881613e-38
-0.1509889513 0.4929189384 -0.1040178686 2.137881613e-38
-0.118444331 0.479250133 -0.1550956666 2.137881613e-38
-0.1212640032 0.4244758487 -0.1313149482 2.137881613e-38
-0.1253452599 0.3843828738 -0.1396977603 2.137881613e-38
-0.1255856007 0.4888916612 -0.15261136 2.137881613e-38
-0.1222792715 0.4281737804 -0.1479212791 2.137881613e-38
-0.1165502444 0.112226896 -0.1177336797 2.137881613e-38
-0.1215813383 0.3088630438 -0.1268020123 2.137881613e-38
-0.1370992362 0.4940820932 -0.1386169195 2.137881613e-38
