# .PCD v0.7 - Point Cloud Data file format
VERSION 0.7
FIELDS x y z rgb
SIZE 4 4 4 4
TYPE F F F F
COUNT 1 1 1 1
WIDTH 836
HEIGHT 1
VIEWPOINT 0 0 0 1 0 0 0
POINTS 836
DATA ascii
-0.1360916942 0.1591128856 -0.07826434076 8.170410826e-39
-0.1108903959 0.05509359762 -0.0414368771 8.170410826e-39
-0.136180833 0.104005985 0.001270248787 8.906165387e-39
-0.02346756682 0.01283330377 0.1481103152 8.906165387e-39
-0.1258728653 0.03933579102 0.1222074404 8.906165387e-39
-0.09501816332 0.01448976528 0.1371184736 8.906165387e-39
-0.07837945968 -0.0008499471005 0.1309037656 8.906165387e-39
0.07862684876 0.009171243757 0.1499695629 8.906165387e-39
-0.1243204623 0.08765846491 0.09158311039 8.906165387e-39
-0.1158143133 0.03109426238 0.1347961724 8.906165387e-39
0.05773381516 0.003217760473 0.1502605081 8.906165387e-39
0.1282410175 0.007484598085 0.1435727924 8.906165387e-39
-0.1436089724 0.1437811404 0.02968154475 8.906165387e-39
-0.1285615712 0.06927908212 0.08928094059 8.906165387e-39
-0.07256112993 -0.001335277339 0.1347104013 8.906165387e-39
0.08200693876 0.009459332563 0.1490602642 8.906165387e-39
-0.1362447143 0.1280180067 0.06628292054 8.906165387e-39
-0.1270459592 0.0363618657 0.1272643209 8.906165387e-39
-0.07255931199 -0.001335519482 0.1347112358 8.906165387e-39
0.08200830221 0.009459302761 0.1490601599 8.906165387e-39
-0.1362450272 0.1280195713 0.06628204137 8.906165387e-39
-0.1270460635 0.03636260703 0.1272637248 8.906165387e-39
-0.1120531112 0.02418255247 0.06086914986 8.906165387e-39
0.0003326740116 0.01054230426 0.149430126 8.906165387e-39
-0.1218239665 0.07130721956 0.09910289943 8.906165387e-39
-0.1036482081 0.02275765315 0.1373221576 8.906165387e-39
-0.1136819422 0.03202095628 0.05375166982 8.906165387e-39
-0.01360447053 0.01071748417 0.1492492706 8.906165387e-39
-0.1235078722 0.06388602406 0.1064178571 8.906165387e-39
-0.1040768847 0.01912428811 0.1357129365 8.906165387e-39
0.07829814404 0.004328600131 0.1471899003 8.906165387e-39
0.1347175092 0.006804186385 0.1430805624 8.906165387e-39
-0.1449590325 0.1367103457 0.01320231706 8.906165387e-39
-0.140410006 0.1069992259 0.06445042789 8.906165387e-39
-0.1154689193 -0.3033331931 0.1338444948 9.641561216e-39
-0.1169401631 -0.4689391553 0.1246383116 9.641561216e-39
-0.1183104217 -0.3167636096 0.131680876 9.641561216e-39
-0.1155297682 -0.4151235819 0.1282975376 9.641561216e-39
-0.1119197905 -0.2179577649 0.1298036873 9.641561216e-39
-0.1227618381 -0.486523658 0.1226405948 9.641561216e-39
-0.121187903 -0.3771938682 0.1256421059 9.641561216e-39
-0.116888307 -0.4379502833 0.126034528 9.641561216e-39
-0.1141468734 -0.1093856618 0.1138576567 9.641561216e-39
-0.1230406389 -0.4922355711 0.1128908694 9.641561216e-39
-0.1232257783 -0.4046569169 0.121929422 9.641561216e-39
-0.1180055588 -0.4630682468 0.123900488 9.641561216e-39
-0.1119332537 -0.2281926274 0.129514873 9.641561216e-39
-0.1248853579 -0.4899990857 0.1213587001 9.641561216e-39
-0.1214091927 -0.3742706478 0.1256793737 9.641561216e-39
-0.1165599525 -0.450193733 0.1249917746 9.641561216e-39
-0.1119334623 -0.2281912267 0.1295148432 9.641561216e-39
-0.1248854175 -0.4899993539 0.1213586554 9.641561216e-39
-0.1214092225 -0.374271214 0.1256792843 9.641561216e-39
-0.1165599674 -0.4501940012 0.1249917448 9.641561216e-39
-0.1144735292 -0.2763065398 0.1316785365 9.641561216e-39
-0.1188977063 -0.4713165462 0.1231982037 9.641561216e-39
-0.1190390661 -0.346516937 0.1290493459 9.641561216e-39
-0.1160008758 -0.4270458519 0.1270151287 9.641561216e-39
-0.1142596751 -0.2809174657 0.1323543489 9.641561216e-39
-0.1187075153 -0.469889909 0.1234461963 9.641561216e-39
-0.1189021692 -0.3458152115 0.1291640848 9.641561216e-39
-0.1156976223 -0.4180510342 0.1281121671 9.641561216e-39
-0.1095284373 -0.07937990874 0.1103041694 9.641561216e-39
-0.1222561672 -0.4924280643 0.1093656942 9.641561216e-39
-0.1228058636 -0.4170925319 0.1186916381 9.641561216e-39
-0.1176761538 -0.4611385763 0.1242901906 9.641561216e-39
-0.04209490865 0.02529007941 -0.07586058229 1.037659831e-38
0.02523808926 0.02288486622 -0.0847607106 1.037659831e-38
0.09916682541 0.02455886826 -0.1407862753 1.037659831e-38
0.0996061191 0.03022237681 -0.05506968871 1.037659831e-38
0.1216977313 0.02932316065 -0.04384484887 1.037659831e-38
-0.1016440317 0.02621921711 -0.001186347916 1.037659831e-38
-0.04081347585 0.03372995928 -0.114125073 1.037659831e-38
0.08749998361 0.02871947922 -0.1049446985 1.037659831e-38
0.1514511406 0.03255936131 -0.07176014036 1.037659831e-38
-0.09261810035 0.03714971989 0.0595632121 1.037659831e-38
-0.1131711304 0.03187287599 -0.0510482192 1.037659831e-38
-0.04847537726 0.02863487974 -0.08358446509 1.037659831e-38
0.1306953132 0.02925081737 -0.03358737007 1.037659831e-38
-0.1005109996 0.03332442418 0.02262143046 1.037659831e-38
-0.05406578258 0.03638571128 -0.1088130698 1.037659831e-38
0.03384383023 0.02498797141 -0.1033251807 1.037659831e-38
0.1306963861 0.02925054915 -0.03358633816 1.037659831e-38
-0.1005108878 0.03332461044 0.02262262814 1.037659831e-38
-0.0540670678 0.03638611361 -0.1088122874 1.037659831e-38
0.03384163603 0.02498793043 -0.1033246964 1.037659831e-38
0.03137888759 0.02368570305 -0.06140901893 1.037659831e-38
-0.09774356335 0.02167052403 -0.04141115025 1.037659831e-38
0.03935168684 0.02970703691 -0.1357272267 1.037659831e-38
0.1243139952 0.0328851603 -0.08897904307 1.037659831e-38
-0.02103951015 0.02217773907 -0.0728103146 1.037659831e-38
-0.09471105784 0.02097661421 -0.04590665922 1.037659831e-38
0.06012545899 0.02763896435 -0.1367745399 1.037659831e-38
0.1256154776 0.03290403262 -0.07674973458 1.037659831e-38
0.1537524611 0.03287054971 -0.08340743929 1.037659831e-38
-0.08899073303 0.03656990454 0.06678847969 1.037659831e-38
-0.1260723025 0.03002177365 -0.03677012771 1.037659831e-38
-0.07158407569 0.03356315941 -0.07358396053 1.037659831e-38
-0.1348968297 0.4594350457 0.009083522484 1.111163541e-38
-0.1393564194 0.4165482819 0.04110013321 1.111163541e-38
-0.1261315793 0.4045973122 0.1065569147 1.111163541e-38
-0.13571468 0.4096769989 -0.03208818287 1.111163541e-38
-0.1239236072 0.4050161242 -0.08278629184 1.111163541e-38
-0.1343233734 0.3593522012 0.08397756517 1.111163541e-38
-0.1332453042 0.4246704876 0.05779941753 1.111163541e-38
-0.1419140548 0.4104528427 0.03575658053 1.111163541e-38
-0.1233857498 0.3081451654 -0.1004669368 1.111163541e-38
-0.1304185987 0.291390121 0.1008088291 1.111163541e-38
-0.1362603456 0.4392695725 0.01206862833 1.111163541e-38
-0.1347556114 0.3607353866 0.0801146403 1.111163541e-38
-0.123937726 0.3998931944 -0.0882627219 1.111163541e-38
-0.1323754787 0.3528058827 0.09412498027 1.111163541e-38
-0.1330319345 0.4298513532 0.05219896883 1.111163541e-38
-0.138995558 0.4073734581 0.04812919721 1.111163541e-38
-0.1239377484 0.3998920918 -0.08826360106 1.111163541e-38
-0.1323755234 0.3528040946 0.09412503988 1.111163541e-38
-0.1330321878 0.4298513532 0.05219775066 1.111163541e-38
-0.1389953494 0.4073730409 0.04813056812 1.111163541e-38
-0.1348621696 0.4520202875 -0.05018756539 1.111163541e-38
-0.1240599155 0.4257127345 0.1079549938 1.111163541e-38
-0.1257601678 0.4342727959 0.08427687734 1.111163541e-38
-0.1362476796 0.4224703312 -0.0007328706561 1.111163541e-38
-0.1350828111 0.457351774 -0.04456102476 1.111163541e-38
-0.122620292 0.4308544993 0.1095996797 1.111163541e-38
-0.1253411919 0.4337999225 0.08822692931 1.111163541e-38
-0.1361581087 0.4128899276 -0.01388142351 1.111163541e-38
-0.1233135611 0.2994086444 -0.09896759689 1.111163541e-38
-0.129289791 0.2806216478 0.1036723256 1.111163541e-38
-0.1353885531 0.4347471595 -0.01958311163 1.111163541e-38
-0.134761095 0.3487474322 0.08419389278 1.111163541e-38
-0.1302174777 0.4983381629 0.05587366968 1.184631237e-38
-0.1444283128 0.5003147125 -0.1195712388 1.184631237e-38
-0.133194387 0.5021842718 -0.02392206527 1.184631237e-38
-0.1368414164 0.4999614954 0.05185225978 1.184631237e-38
-0.1352820545 0.4927399158 0.1100862324 1.184631237e-38
-0.1393958777 0.4927327931 -0.1497712135 1.184631237e-38
-0.1296060085 0.5021493435 -0.06928090751 1.184631237e-38
-0.1445086151 0.504958272 -0.03224638104 1.184631237e-38
-0.1336589009 0.4894593954 0.1219073236 1.184631237e-38
-0.1196730956 0.4467508793 -0.1435966194 1.184631237e-38
-0.1161632389 0.4887730181 -0.1212392598 1.184631237e-38
-0.1403072476 0.5014686584 -0.104004845 1.184631237e-38
-0.1323152781 0.4920222461 0.1067948565 1.184631237e-38
-0.1386666745 0.4925689399 -0.1481031328 1.184631237e-38
-0.1248463839 0.5008836985 -0.07530360669 1.184631237e-38
-0.1429638118 0.5045930147 -0.06170926616 1.184631237e-38
-0.1323152483 0.4920220971 0.1067953482 1.184631237e-38
-0.1386664808 0.4925688505 -0.1481031924 1.184631237e-38
-0.1248462498 0.5008836985 -0.07530444115 1.184631237e-38
-0.1429638863 0.5045928955 -0.06171064824 1.184631237e-38
-0.1306081414 0.4976263642 0.06739458442 1.184631237e-38
-0.1422731429 0.4974488914 -0.1315688342 1.184631237e-38
-0.1257842928 0.5013235211 -0.04633901268 1.184631237e-38
-0.1379561722 0.5026690364 0.0154497223 1.184631237e-38
-0.1313909441 0.4980939329 0.06346509606 1.184631237e-38
-0.1410860568 0.4968491197 -0.1329398453 1.184631237e-38
-0.1269560009 0.5013071299 -0.04111025855 1.184631237e-38
-0.1376690269 0.501727581 0.02557251602 1.184631237e-38
-0.1344975084 0.4891204834 0.1246729046 1.184631237e-38
-0.116934076 0.4360798597 -0.1413468719 1.184631237e-38
-0.1122790501 0.4800347388 -0.1249172017 1.184631237e-38
-0.1385576278 0.5006468296 -0.1076699793 1.184631237e-38
-0.1386108547 0.3964421153 -0.1537340283 1.258099074e-38
-0.1333400458 0.2752484977 -0.1472552866 1.258099074e-38
-0.1317084581 0.3567986488 -0.1522664726 1.258099074e-38
-0.1466046721 0.2828231752 -0.1371975094 1.258099074e-38
-0.1371004581 0.4324555695 -0.1529120654 1.258099074e-38
-0.1335404962 0.1649418473 -0.1320243329 1.258099074e-38
-0.142773062 0.2962360978 -0.1462313682 1.258099074e-38
-0.1417561769 0.3625827134 -0.1540662944 1.258099074e-38
-0.1370083243 0.4545828402 -0.1435942948 1.258099074e-38
-0.1408705264 0.08877514303 -0.130698964 1.258099074e-38
-0.1403299421 0.2284548432 -0.1319229007 1.258099074e-38
-0.1219085827 0.4028274119 -0.1506379992 1.258099074e-38
-0.1370245963 0.4379876852 -0.1522275358 1.258099074e-38
-0.13106139 0.1760759056 -0.1328966916 1.258099074e-38
-0.143693164 0.2932015061 -0.1454064548 1.258099074e-38
-0.139560774 0.366951406 -0.1533792615 1.258099074e-38
-0.1370245814 0.4379882216 -0.1522274464 1.258099074e-38
-0.1310615093 0.1760742813 -0.1328965127 1.258099074e-38
-0.1436933875 0.2932004035 -0.1454061866 1.258099074e-38
-0.1395604014 0.3669524193 -0.1533791572 1.258099074e-38
-0.1400929838 0.4022338688 -0.1536091566 1.258099074e-38
-0.1315595657 0.2356420159 -0.1434690356 1.258099074e-38
-0.1387366056 0.3461984694 -0.153045252 1.258099074e-38
-0.1491647363 0.3176083863 -0.1453618705 1.258099074e-38
-0.1423957497 0.3983903527 -0.1534416229 1.258099074e-38
-0.1336338967 0.2423985302 -0.1447495073 1.258099074e-38
-0.1379418671 0.3498756588 -0.1530718654 1.258099074e-38
-0.1492889673 0.3088264167 -0.1423247457 1.258099074e-38
-0.1380157173 0.4572225809 -0.1414550394 1.258099074e-38
-0.1421425045 0.07690336555 -0.1309179664 1.258099074e-38
-0.141303435 0.2073826939 -0.1291748136 1.258099074e-38
-0.1175062656 0.4126036167 -0.1444282979 1.258099074e-38
0.1744811237 -0.1587785184 -0.1304938197 1.331530897e-38
0.1816289425 -0.1773701161 -0.1378462911 1.331530897e-38
0.1722378284 -0.1616362482 -0.1290595233 1.331530897e-38
0.1814052612 -0.152416274 -0.1370930225 1.331530897e-38
0.1834729761 -0.03183788061 0.01649510302 1.331530897e-38
0.1733969599 -0.3995987475 -0.1314227879 1.331530897e-38
0.1756053865 -0.252956748 -0.1341889948 1.331530897e-38
0.1822730303 -0.05484101549 -0.1093219295 1.331530897e-38
0.1675604433 -0.1956087947 -0.1246318892 1.331530897e-38
0.1610860974 -0.4486795962 -0.1275100112 1.331530897e-38
0.1755563319 -0.3341943026 -0.1347537786 1.331530897e-38
0.1830280274 -0.03339506686 -0.06333231181 1.331530897e-38
0.1828958094 -0.03315617889 0.01034444943 1.331530897e-38
0.1716907024 -0.4076761007 -0.1306808591 1.331530897e-38
0.1758334488 -0.2608006299 -0.1346954107 1.331530897e-38
0.1806320101 -0.05671862885 -0.1032136902 1.331530897e-38
0.1828954667 -0.03315682337 0.01033998653 1.331530897e-38
0.1716903597 -0.4076776206 -0.1306808293 1.331530897e-38
0.1758335084 -0.2608018816 -0.1346955299 1.331530897e-38
0.1806320697 -0.0567182377 -0.1032130569 1.331530897e-38
0.1752880365 -0.08219423145 -0.1040329114 1.331530897e-38
0.1801371723 -0.3078026772 -0.1382957995 1.331530897e-38
0.1745944768 -0.2076317519 -0.1330134422 1.331530897e-38
0.1813448519 -0.1006356031 -0.1347938925 1.331530897e-38
0.1743460745 -0.093834728 -0.1156420782 1.331530897e-38
0.181132108 -0.2929956615 -0.1398107111 1.331530897e-38
0.174358815 -0.2086871713 -0.1327422261 1.331530897e-38
0.1819139719 -0.1165491939 -0.1351961344 1.331530897e-38
0.1671119928 -0.2255568951 -0.1271426976 1.331530897e-38
0.1600897759 -0.451448679 -0.1273249984 1.331530897e-38
0.1740289778 -0.3687203825 -0.1323786527 1.331530897e-38
0.1845778227 -0.03108531423 -0.05247789249 1.331530897e-38
0.07278725505 0.02231875807 -0.1441698074 1.404926846e-38
0.06146977842 0.01470484026 -0.1461279243 1.404926846e-38
0.1236979589 0.01633066311 -0.1451438218 1.404926846e-38
0.1901826411 -0.06397154182 -0.1275368184 1.404926846e-38
-0.008865787648 0.01952640526 -0.1474933177 1.404926846e-38
-0.1276718825 -0.01791734807 -0.1460996121 1.404926846e-38
0.1778187454 0.01069671847 -0.1470258534 1.404926846e-38
0.1386297345 -0.02629454806 -0.139435932 1.404926846e-38
-0.08007333428 0.01627678052 -0.1449883729 1.404926846e-38
-0.140593648 -0.1043391377 -0.135417819 1.404926846e-38
0.2006316632 -0.02504169382 -0.1470577866 1.404926846e-38
0.07436789572 0.00208217348 -0.1444099545 1.404926846e-38
-0.000995993265 0.01957718469 -0.1470236927 1.404926846e-38
-0.1237771362 -0.03718556464 -0.1416965276 1.404926846e-38
0.1862557679 0.004506177735 -0.1464436054 1.404926846e-38
0.1265336871 -0.01735827327 -0.1401152164 1.404926846e-38
-0.0009973148117 0.01957711019 -0.1470237076 1.404926846e-38
-0.1237775609 -0.03718742356 -0.1416964829 1.404926846e-38
0.1862563938 0.004505760502 -0.1464435607 1.404926846e-38
0.1265326142 -0.01735788211 -0.1401153505 1.404926846e-38
0.03695314005 0.02205951884 -0.1459423751 1.404926846e-38
-0.02711051516 0.01057704538 -0.1448217481 1.404926846e-38
0.139931187 0.01534548961 -0.1461504102 1.404926846e-38
0.1699931026 -0.05078099668 -0.134946391 1.404926846e-38
0.04553382844 0.02226973511 -0.145637244 1.404926846e-38
0.00443281047 0.01500819065 -0.1461218148 1.404926846e-38
0.1306530833 0.01458751131 -0.1464382857 1.404926846e-38
0.1776526272 -0.05521275848 -0.1351666898 1.404926846e-38
-0.08605525643 0.01609943993 -0.1449532211 1.404926846e-38
-0.141016528 -0.1095183417 -0.1343750954 1.404926846e-38
0.2033943087 -0.03288954869 -0.1485417187 1.404926846e-38
0.0601397939 0.005282021593 -0.1456077099 1.404926846e-38
-0.166574955 6.675720215e-06 0.0138331363 1.478322936e-38
-0.1844062805 0.2626970708 -0.07708989084 1.478322936e-38
-0.181550324 0.2368651032 -0.09867537022 1.478322936e-38
-0.1736026257 0.07271492481 -0.0217532739 1.478322936e-38
-0.1582185626 -0.0030260887 0.0575193055 1.478322936e-38
-0.1811840683 0.1709484011 -0.008718083613 1.478322936e-38
-0.17135337 0.0897128135 -0.06104046851 1.478322936e-38
-0.1783543378 0.1673836112 -0.07167584449 1.478322936e-38
-0.1268976629 0.01255180314 0.1150034219 1.478322936e-38
-0.1712996662 0.03083764948 0.01924706995 1.478322936e-38
-0.168517381 0.01537498366 -0.001155939884 1.478322936e-38
-0.1831460893 0.2757419944 -0.1043251753 1.478322936e-38
-0.1576423347 0.00119911076 0.06386745721 1.478322936e-38
-0.1803289205 0.149004221 0.003759058658 1.478322936e-38
-0.1710864007 0.06013310701 -0.0322775431 1.478322936e-38
-0.1801612824 0.2014988661 -0.0803617388 1.478322936e-38
-0.1576419771 0.001199881895 0.06386832893 1.478322936e-38
-0.1803287417 0.1490005106 0.00375964609 1.478322936e-38
-0.1710863858 0.0601316914 -0.03227683902 1.478322936e-38
-0.180161342 0.2015002668 -0.08036229014 1.478322936e-38
-0.167476207 -0.002466725884 0.02832541242 1.478322936e-38
-0.1873157024 0.3162438273 -0.06771984696 1.478322936e-38
-0.1794807464 0.2041933835 -0.08841909468 1.478322936e-38
-0.1758873165 0.1225302368 -0.05601785332 1.478322936e-38
-0.1661640406 0.01054467633 0.0176931601 1.478322936e-38
-0.1873627156 0.3224120736 -0.07523310184 1.478322936e-38
-0.1806868613 0.2424925566 -0.1038623899 1.478322936e-38
-0.1751459688 0.1047740579 -0.04283606634 1.478322936e-38
-0.120685108 0.01023794711 0.1187064052 1.478322936e-38
-0.1687313765 0.01938232221 0.01794889383 1.478322936e-38
-0.16765742 0.009667773731 -0.001588451327 1.478322936e-38
-0.1839692444 0.2978568673 -0.1089532748 1.478322936e-38
-0.0265922863 0.04539840668 0.07419866323 1.551683013e-38
0.1170440242 0.03227179497 -0.06965823472 1.551683013e-38
0.008257273585 0.03952944651 -0.0404356271 1.551683013e-38
0.07565025985 0.03789477423 0.02653204277 1.551683013e-38
-0.06760021299 0.0429321751 0.01695918851 1.551683013e-38
0.1195349991 0.03157971054 0.002684582956 1.551683013e-38
0.001849558437 0.04170147702 0.02152036875 1.551683013e-38
0.07708212733 0.03851052746 -0.03893490881 1.551683013e-38
-0.09330105782 0.04175066575 -0.0547538586 1.551683013e-38
0.06672275066 0.03852189705 0.06623139977 1.551683013e-38
0.002679433674 0.03839761019 0.08114037663 1.551683013e-38
-0.03472711518 0.05262742192 -0.1012360007 1.551683013e-38
-0.06158462167 0.04249954596 0.01521041617 1.551683013e-38
0.1212058961 0.03016271815 0.00591699034 1.551683013e-38
-0.001693844097 0.04095544294 0.02927962691 1.551683013e-38
0.04917737842 0.03886280581 -0.06408216059 1.551683013e-38
-0.06158580258 0.04249846563 0.01520760823 1.551683013e-38
0.121205166 0.03016294539 0.00591840595 1.551683013e-38
-0.001693946775 0.04095540941 0.02928033285 1.551683013e-38
0.04917549714 0.0388629511 -0.06408254057 1.551683013e-38
-0.03066083603 0.04668437317 0.07159401476 1.551683013e-38
0.1421380043 0.02539278381 -0.06861199439 1.551683013e-38
-8.494313806e-05 0.04159824178 -0.003453404875 1.551683013e-38
0.0815321207 0.03607568517 0.004067480564 1.551683013e-38
-0.0293846298 0.04601755366 0.07344032079 1.551683013e-38
0.1410722435 0.02659557387 -0.0760203898 1.551683013e-38
0.003070176346 0.03984912485 -0.01283807401 1.551683013e-38
0.08089344949 0.03615187854 0.01675612107 1.551683013e-38
-0.09752090275 0.04200477898 -0.06452517956 1.551683013e-38
0.06831462681 0.03903183714 0.0714501515 1.551683013e-38
0.01049132645 0.02982165106 0.09997861087 1.551683013e-38
-0.04559510946 0.05097806454 -0.1090684906 1.551683013e-38
-0.1566263139 -0.4638945162 0.1490445584 1.625043089e-38
-0.1309079826 -0.2913999259 0.1339842081 1.625043089e-38
-0.1389018893 -0.452188015 0.151006341 1.625043089e-38
-0.1513034254 -0.4151175618 0.1465233862 1.625043089e-38
-0.1523904353 -0.4064443111 0.1450069696 1.625043089e-38
-0.1234604716 -0.2297618836 0.1253157258 1.625043089e-38
-0.1278691888 -0.3987812698 0.1500101238 1.625043089e-38
-0.1378250122 -0.329382211 0.1391088814 1.625043089e-38
-0.1345153898 -0.3396849334 0.1392955333 1.625043089e-38
-0.1183724403 -0.1567772031 0.1284019351 1.625043089e-38
-0.1308777481 -0.3291260004 0.1433925927 1.625043089e-38
-0.1208190247 -0.2411949784 0.1318979263 1.625043089e-38
-0.1494308412 -0.4126234353 0.1454093158 1.625043089e-38
-0.1213794574 -0.2264323384 0.1270180196 1.625043089e-38
-0.1255175024 -0.3920166194 0.1489692181 1.625043089e-38
-0.132680133 -0.3144444227 0.1386516839 1.625043089e-38
-0.1494305134 -0.4126219749 0.1454091966 1.625043089e-38
-0.1213792562 -0.2264306396 0.1270180047 1.625043089e-38
-0.125517562 -0.3920155466 0.1489690691 1.625043089e-38
-0.1326798499 -0.314443171 0.1386516541 1.625043089e-38
-0.1545529217 -0.4648033381 0.1505779475 1.625043089e-38
-0.1251461655 -0.2648466527 0.1302712858 1.625043089e-38
-0.1317642331 -0.4331306219 0.1517620832 1.625043089e-38
-0.145788461 -0.3758715391 0.1434218884 1.625043089e-38
-0.1560880393 -0.4666610956 0.1508393735 1.625043089e-38
-0.1259123832 -0.2671601176 0.130062744 1.625043089e-38
-0.1340304017 -0.4398913085 0.1520264596 1.625043089e-38
-0.1490321606 -0.3899643123 0.1445129067 1.625043089e-38
-0.1335552335 -0.3309236169 0.1389211267 1.625043089e-38
-0.1176932305 -0.1415914893 0.1284769177 1.625043089e-38
-0.1328953058 -0.3105170131 0.1428907067 1.625043089e-38
-0.117668204 -0.2192780674 0.1313486546 1.625043089e-38
-0.1228055432 0.04990186915 0.06092263013 1.698367293e-38
0.06909988075 -0.009128920734 0.1420900375 1.698367293e-38
-0.1186873168 0.05902810767 0.02078182437 1.698367293e-38
0.1521827728 -0.02487855591 0.14465864 1.698367293e-38
-0.04989529774 0.008520360105 0.1356896311 1.698367293e-38
-0.1214689836 0.03195971251 0.1003562286 1.698367293e-38
-0.1196050271 0.06567889452 -0.01081099734 1.698367293e-38
0.1715143025 -0.1256227791 0.1425116658 1.698367293e-38
0.1516320705 -0.01329079643 0.1435496658 1.698367293e-38
-0.1393458396 0.04911464825 0.02914361656 1.698367293e-38
-0.1256199181 0.06552280486 -0.05153506249 1.698367293e-38
0.1720467806 -0.178827107 0.1441191286 1.698367293e-38
0.01826673187 0.007114871405 0.1381523758 1.698367293e-38
-0.1232024953 0.03611125052 0.09293107688 1.698367293e-38
-0.1195240915 0.06576942652 -0.009040735662 1.698367293e-38
0.1719094962 -0.1274052858 0.1427673846 1.698367293e-38
0.0182701759 0.007114293985 0.1381526589 1.698367293e-38
-0.1232038066 0.03611201048 0.09292937815 1.698367293e-38
-0.1195241213 0.06576947123 -0.009041032754 1.698367293e-38
0.1719094664 -0.1274067611 0.1427673995 1.698367293e-38
-0.07953474671 0.0323180072 0.1158225834 1.698367293e-38
0.01568190753 0.006885747425 0.1387320161 1.698367293e-38
-0.1126301587 0.06155190989 0.02359837107 1.698367293e-38
0.1738783568 -0.06027456 0.1436721683 1.698367293e-38
-0.08390781283 0.03194494545 0.1145431101 1.698367293e-38
0.0584820956 -0.004745500162 0.1413591802 1.698367293e-38
-0.1110277623 0.06074343622 0.03107324243 1.698367293e-38
0.1691538692 -0.05110544711 0.1439507157 1.698367293e-38
0.1573614031 -0.01602355391 0.1441072375 1.698367293e-38
-0.1394762397 0.05095225945 0.02054320276 1.698367293e-38
-0.1268291473 0.06348365545 -0.06683661789 1.698367293e-38
0.1757248044 -0.1933511347 0.1457740217 1.698367293e-38
0.1816436052 -0.333938539 -0.1359091103 1.771655483e-38
0.1883659512 -0.1725498438 -0.1459075958 1.771655483e-38
0.1853901297 -0.2745606601 -0.140474692 1.771655483e-38
0.1847112328 -0.2443469167 -0.1423152536 1.771655483e-38
0.1841794401 -0.3852380514 -0.1347081661 1.771655483e-38
0.1900009215 -0.04449874535 -0.1136395559 1.771655483e-38
0.1859194785 -0.3156444132 -0.1341672689 1.771655483e-38
0.1849033237 -0.1892090887 -0.145270139 1.771655483e-38
0.1867091656 -0.4368486702 -0.1333732158 1.771655483e-38
0.188874945 -0.06625694782 -0.1267916858 1.771655483e-38
0.1861279756 -0.3622741401 -0.1271539778 1.771655483e-38
0.1864241213 -0.1491558105 -0.1445787549 1.771655483e-38
0.1846149713 -0.388009876 -0.1327654421 1.771655483e-38
0.1901760548 -0.09163741767 -0.1335964352 1.771655483e-38
0.186361149 -0.3209533691 -0.1317486763 1.771655483e-38
0.1866214871 -0.192905426 -0.1443413049 1.771655483e-38
0.184615016 -0.3880108297 -0.1327654421 1.771655483e-38
0.1901761144 -0.09163537621 -0.133595705 1.771655483e-38
0.186361149 -0.3209540546 -0.1317485422 1.771655483e-38
0.1866214722 -0.1929040253 -0.1443413794 1.771655483e-38
0.1819151789 -0.3496052921 -0.1347498894 1.771655483e-38
0.188617602 -0.1662606597 -0.1448090374 1.771655483e-38
0.1856719702 -0.30601722 -0.1356243044 1.771655483e-38
0.1850079745 -0.2335548699 -0.1421893537 1.771655483e-38
0.181578204 -0.3445533514 -0.1354701817 1.771655483e-38
0.1879019588 -0.1593973786 -0.1444343626 1.771655483e-38
0.1856031716 -0.3009830713 -0.1361830533 1.771655483e-38
0.18489106 -0.2406719327 -0.1420128942 1.771655483e-38
0.1867400855 -0.4430413544 -0.1330419034 1.771655483e-38
0.1872079968 -0.08100301772 -0.1372870505 1.771655483e-38
0.1860900819 -0.3770380318 -0.1263179779 1.771655483e-38
0.187018007 -0.1443372816 -0.1433333009 1.771655483e-38
0.153383702 -0.2474863827 0.1198369116 1.844943813e-38
0.1519761831 -0.1675952077 0.1214674264 1.844943813e-38
0.1453891098 -0.1641190201 0.1191704795 1.844943813e-38
0.1619616449 -0.3129511476 0.1160421744 1.844943813e-38
0.1576040834 -0.2765648961 0.1198352724 1.844943813e-38
0.1569934189 -0.08212729543 0.125722304 1.844943813e-38
0.1696663797 -0.03328019381 0.08934834599 1.844943813e-38
0.1586097926 -0.3532849252 0.1153577119 1.844943813e-38
0.1538356692 -0.3159607649 0.117591314 1.844943813e-38
0.1780188084 -0.02521521971 0.08143173903 1.844943813e-38
0.1762994975 -0.01419449598 0.01904934086 1.844943813e-38
0.1537030637 -0.3781154454 0.1147895977 1.844943813e-38
0.1585535705 -0.2842804193 0.1191410646 1.844943813e-38
0.1600001752 -0.08319204301 0.1265800446 1.844943813e-38
0.1739216745 -0.02059534192 0.06926245987 1.844943813e-38
0.1582332999 -0.3567160368 0.1149892882 1.844943813e-38
0.1585535705 -0.284281224 0.1191410422 1.844943813e-38
0.1600007862 -0.08318949491 0.1265800744 1.844943813e-38
0.1739218831 -0.02059486508 0.06926131248 1.844943813e-38
0.1582332104 -0.3567167521 0.1149892882 1.844943813e-38
0.1566033363 -0.2524772882 0.1200344115 1.844943813e-38
0.1576916873 -0.1631570905 0.1228521392 1.844943813e-38
0.1561587155 -0.05941805616 0.121351473 1.844943813e-38
0.1605982482 -0.3287599683 0.1152196378 1.844943813e-38
0.1560403705 -0.2453876734 0.1202847511 1.844943813e-38
0.1587828398 -0.1642435044 0.1230712384 1.844943813e-38
0.151085034 -0.07212182879 0.1232363656 1.844943813e-38
0.1608185023 -0.3233113885 0.1153235957 1.844943813e-38
0.1530218124 -0.3197259307 0.1176405475 1.844943813e-38
0.1811310947 -0.0182109233 0.06694447994 1.844943813e-38
0.1771190166 -0.01492487825 0.006008442026 1.844943813e-38
0.1527957469 -0.3797991872 0.115670234 1.844943813e-38
-0.1397739053 -0.3276807666 -0.1133052483 1.91819627e-38
-0.1551131308 0.03721285239 -0.09967195988 1.91819627e-38
-0.1429177672 -0.2975824773 -0.1032334864 1.91819627e-38
-0.14466919 -0.244556129 -0.09506441653 1.91819627e-38
-0.1491463035 -0.2995340824 -0.1070552841 1.91819627e-38
-0.1647111177 0.2537094355 -0.06607352942 1.91819627e-38
-0.1363704056 -0.2206155807 -0.1137401834 1.91819627e-38
-0.1510634571 0.005515661091 -0.09455684572 1.91819627e-38
-0.1498910338 -0.09860462695 -0.09891800582 1.91819627e-38
-0.1660881937 0.3267779648 -0.001591807697 1.91819627e-38
-0.1306120306 -0.1397162676 -0.1142558604 1.91819627e-38
-0.1598507315 0.1177386642 -0.1012931988 1.91819627e-38
-0.1491932273 -0.295206666 -0.106179364 1.91819627e-38
-0.1645117104 0.2549507022 -0.0665384084 1.91819627e-38
-0.1362357289 -0.2183637619 -0.1131105348 1.91819627e-38
-0.1514399201 0.006922447588 -0.09604354203 1.91819627e-38
-0.1491933316 -0.2952035069 -0.1061792299 1.91819627e-38
-0.1645116955 0.2549533248 -0.06653618813 1.91819627e-38
-0.1362356991 -0.2183630019 -0.1131106392 1.91819627e-38
-0.1514402181 0.006926418282 -0.09604369849 1.91819627e-38
-0.1399059743 -0.3161418736 -0.1146045551 1.91819627e-38
-0.1589900851 0.1154692397 -0.1047828197 1.91819627e-38
-0.1395439506 -0.2407767773 -0.1086987555 1.91819627e-38
-0.1427939534 -0.1835075766 -0.09365741909 1.91819627e-38
-0.1392455101 -0.3083715737 -0.1151869893 1.91819627e-38
-0.1579282433 0.09843992442 -0.1040369868 1.91819627e-38
-0.1403295696 -0.246230334 -0.1084950417 1.91819627e-38
-0.1437645853 -0.2090544403 -0.09386095405 1.91819627e-38
-0.1505457014 -0.06594616175 -0.09814908355 1.91819627e-38
-0.1668696702 0.3361970782 0.008149882779 1.91819627e-38
-0.1362648457 -0.09657781571 -0.1145807356 1.91819627e-38
-0.1608252823 0.1304721683 -0.100294143 1.91819627e-38
-0.136738345 0.1140489653 0.05909143016 1.991448586e-38
-0.1368191689 0.1368412226 0.06688025594 1.991448586e-38
-0.137751475 0.1006744131 0.06015779823 1.991448586e-38
-0.1393568665 0.206383422 0.0413059704 1.991448586e-38
-0.1389750391 0.1977602839 0.0434079431 1.991448586e-38
-0.1381565779 0.09653826058 0.06590374559 1.991448586e-38
-0.0816694051 0.05350677297 0.08312428743 1.991448586e-38
-0.1402112693 0.2817342877 -0.02892132662 1.991448586e-38
-0.1379902214 0.2451073825 0.03662834689 1.991448586e-38
-0.07773480564 0.06011050195 0.09114173055 1.991448586e-38
0.07116676122 0.04771828279 0.0872060284 1.991448586e-38
-0.1364580691 0.334061563 -0.04877711087 1.991448586e-38
-0.1373984665 0.2049668878 0.04575781897 1.991448586e-38
-0.1377526522 0.08616215736 0.07027241588 1.991448586e-38
-0.05755119771 0.05219861865 0.09041754901 1.991448586e-38
-0.1409358084 0.2817333341 -0.01854964718 1.991448586e-38
-0.1373985112 0.2049681693 0.04575761408 1.991448586e-38
-0.1377525926 0.08616136014 0.07027257979 1.991448586e-38
-0.05754884332 0.05219815299 0.09041786939 1.991448586e-38
-0.1409355402 0.2817350626 -0.01855040155 1.991448586e-38
-0.1342361122 0.1562703103 0.05443491042 1.991448586e-38
-0.1343432516 0.1434816271 0.0588090755 1.991448586e-38
-0.1354670078 0.0741706118 0.06558982283 1.991448586e-38
-0.1404208839 0.2199813873 0.03101011552 1.991448586e-38
-0.1351195872 0.1417244524 0.05606098101 1.991448586e-38
-0.1337703168 0.1515251845 0.05550606549 1.991448586e-38
-0.1361777484 0.07826472074 0.06165864691 1.991448586e-38
-0.1406585574 0.2173173726 0.02183032408 1.991448586e-38
-0.1377747506 0.2606445551 0.03459521756 1.991448586e-38
-0.05270727724 0.05795456469 0.09344158322 1.991448586e-38
0.0879945308 0.0496821329 0.0831843242 1.991448586e-38
-0.1366018504 0.3341125548 -0.05948218703 1.991448586e-38
0.1788229644 0.0416020304 -0.04362431914 2.06466517e-38
0.1546507627 0.03800117224 0.08704350144 2.06466517e-38
0.1925754994 0.03517333791 0.0669092983 2.06466517e-38
0.1280779988 0.04131538793 0.03472393751 2.06466517e-38
0.09269169718 0.04697978869 -0.07063703239 2.06466517e-38
0.1314042509 0.04059723392 0.0423213914 2.06466517e-38
0.1949595064 0.03209124133 0.03399250284 2.06466517e-38
0.121707499 0.03933874518 0.07179708034 2.06466517e-38
-0.01319741551 0.04362623394 -0.04699506238 2.06466517e-38
0.1094326824 0.04589202628 -0.01088360883 2.06466517e-38
0.1782249659 0.03719081357 -0.006772072054 2.06466517e-38
0.1545088291 0.03811320662 0.08149882406 2.06466517e-38
0.1209671348 0.0456208922 -0.0727487579 2.06466517e-38
0.133059904 0.04034224525 0.03067470714 2.06466517e-38
0.1904770881 0.03200896084 0.02534257993 2.06466517e-38
0.1261051744 0.04004537314 0.06594526768 2.06466517e-38
0.1209644228 0.04562101886 -0.07274827361 2.06466517e-38
0.1330596954 0.04034232721 0.03067418933 2.06466517e-38
0.1904770136 0.03200896084 0.02534219995 2.06466517e-38
0.1261060834 0.04004537314 0.06594565511 2.06466517e-38
0.2105689943 0.02600020356 -0.07691846043 2.06466517e-38
0.1507840604 0.03837591037 0.06839394569 2.06466517e-38
0.1996897757 0.03037689812 0.04131820053 2.06466517e-38
0.1041413471 0.04077753052 0.04451633617 2.06466517e-38
0.2089969963 0.02705295943 -0.07221078873 2.06466517e-38
0.1623115838 0.03741166368 0.08834990114 2.06466517e-38
0.2025050372 0.03018009663 0.05051671714 2.06466517e-38
0.1029270664 0.04065698013 0.04131389037 2.06466517e-38
-0.02548583597 0.04296673462 -0.04264607653 2.06466517e-38
0.1066594794 0.046362333 -0.01238499116 2.06466517e-38
0.1822825223 0.03537465259 -0.01983334869 2.06466517e-38
0.159712553 0.03723755479 0.08449283987 2.06466517e-38
-0.1533201486 0.06156056374 -0.1312490404 2.137881613e-38
-0.1320160925 -0.275845468 -0.1403253227 2.137881613e-38
-0.1439334601 0.229747653 -0.1470172107 2.137881613e-38
-0.1384040862 -0.1567642242 -0.1400822699 2.137881613e-38
-0.1624049097 0.291724205 -0.1470358372 2.137881613e-38
-0.1362603009 -0.1364537179 -0.1405950338 2.137881613e-38
-0.1383304447 0.09286282957 -0.1397955269 2.137881613e-38
-0.1252612919 -0.3259320557 -0.140185535 2.137881613e-38
-0.149314642 0.3902342916 -0.1569282711 2.137881613e-38
-0.1330880523 0.1046905741 -0.139163658 2.137881613e-38
-0.1503333747 0.3026200235 -0.1516477615 2.137881613e-38
-0.1242948547 -0.4090253115 -0.1402140111 2.137881613e-38
-0.1655120254 0.3040807843 -0.1488368362 2.137881613e-38
-0.1362587363 -0.06070836261 -0.1389873028 2.137881613e-38
-0.1396284103 0.1699204892 -0.14687787 2.137881613e-38
-0.1248674467 -0.3405681551 -0.1386091709 2.137881613e-38
-0.1655123234 0.3040824533 -0.1488372684 2.137881613e-38
-0.1362587959 -0.06070429832 -0.1389872134 2.137881613e-38
-0.1396296769 0.1699308306 -0.1468785554 2.137881613e-38
-0.1248673573 -0.3405703306 -0.1386091858 2.137881613e-38
-0.1527181864 0.1756637841 -0.1302964687 2.137881613e-38
-0.1355344802 -0.2067499608 -0.141200915 2.137881613e-38
-0.1443187594 -0.08018551022 -0.1336977184 2.137881613e-38
-0.1347858906 -0.2373552322 -0.1408175826 2.137881613e-38
-0.1520162076 0.1649782211 -0.1305870414 2.137881613e-38
-0.1341033876 -0.2409543097 -0.1420937181 2.137881613e-38
-0.1478290558 -0.02055189759 -0.1336637735 2.137881613e-38
-0.1362399161 -0.2077125162 -0.141011849 2.137881613e-38
-0.149719879 0.4007721543 -0.1568427533 2.137881613e-38
-0.1331475675 0.1450998932 -0.1423454583 2.137881613e-38
-0.1506065726 0.3122261167 -0.1510586888 2.137881613e-38
-0.1246733442 -0.4248620868 -0.1410172135 2.137881613e-38
-0.1246320009 0.1178340912 0.1252037585 2.211062324e-38
-0.1234727353 -0.2501403391 0.1153358743 2.211062324e-38
-0.120843038 -0.133705318 0.1207673922 2.211062324e-38
-0.1230173483 -0.1569509208 0.1175313592 2.211062324e-38
-0.1445373446 0.3871900439 0.1035763845 2.211062324e-38
-0.1286117733 -0.1018661559 0.1167659834 2.211062324e-38
-0.1210772172 0.005169822369 0.1236955002 2.211062324e-38
-0.1283779293 -0.2302278727 0.1153083593 2.211062324e-38
-0.129200086 0.313157618 -0.004269905388 2.211062324e-38
-0.1264643222 0.09114143252 0.1226980239 2.211062324e-38
-0.1226442605 0.1480169743 0.125664264 2.211062324e-38
-0.133608669 -0.3088008761 0.1136630997 2.211062324e-38
-0.1437116563 0.3865315914 0.1137398556 2.211062324e-38
-0.1260821819 -0.1101153791 0.1177886426 2.211062324e-38
-0.1127562672 -0.02516311407 0.1248454154 2.211062324e-38
-0.1270077825 -0.2676882744 0.1144028753 2.211062324e-38
-0.1437117457 0.3865332603 0.1137380451 2.211062324e-38
-0.1260821819 -0.1101121381 0.1177888215 2.211062324e-38
-0.1127561033 -0.02515965141 0.124845475 2.211062324e-38
-0.1270079017 -0.2676890492 0.1144028306 2.211062324e-38
-0.1367293 0.2844086587 0.1256301105 2.211062324e-38
-0.1203880832 -0.2281153649 0.1168361157 2.211062324e-38
-0.113853991 -0.1239683554 0.1224882305 2.211062324e-38
-0.124777101 -0.2122527808 0.1160132959 2.211062324e-38
-0.1360812336 0.2615389526 0.1254632324 2.211062324e-38
-0.1200132519 -0.227561906 0.1172546893 2.211062324e-38
-0.1132628322 -0.1249854714 0.1225148588 2.211062324e-38
-0.1257071346 -0.1908466816 0.1160018444 2.211062324e-38
-0.1300430894 0.3150813282 -0.01698084921 2.211062324e-38
-0.127713874 0.1104729846 0.1234541312 2.211062324e-38
-0.1275420934 0.2089414448 0.1257214546 2.211062324e-38
-0.1347832978 -0.3111327589 0.1135943085 2.211062324e-38
0.1668640524 -0.3410027027 0.1415431648 2.284242894e-38
0.159161672 -0.4892068505 0.1205376983 2.284242894e-38
0.1616530865 -0.3585796356 0.1395568252 2.284242894e-38
0.159333691 -0.2100696713 0.1390690058 2.284242894e-38
0.1722245514 -0.2390167415 0.1405703425 2.284242894e-38
0.1572636813 -0.4759707153 0.1402906775 2.284242894e-38
0.1679588854 -0.4418490231 0.1498226672 2.284242894e-38
0.1547834426 -0.3659155369 0.1384061575 2.284242894e-38
0.1643691361 -0.1327586323 0.1410984695 2.284242894e-38
0.1640188694 -0.4102864265 0.1441632956 2.284242894e-38
0.162608549 -0.4884097278 0.1413647085 2.284242894e-38
0.156494692 -0.3610503972 0.1387285888 2.284242894e-38
0.1752512455 -0.1944311708 0.1406876296 2.284242894e-38
0.1564097404 -0.4637664557 0.1395378709 2.284242894e-38
0.1668304652 -0.4382142425 0.149004668 2.284242894e-38
0.1531989127 -0.3875819445 0.1398809552 2.284242894e-38
0.1752514541 -0.1944270134 0.140687719 2.284242894e-38
0.1564100236 -0.4637652934 0.1395380795 2.284242894e-38
0.1668304503 -0.4382147491 0.1490047425 2.284242894e-38
0.1531988829 -0.3875839114 0.139881134 2.284242894e-38
0.1682359278 -0.271674037 0.1403355151 2.284242894e-38
0.1551149487 -0.4906108081 0.1271458715 2.284242894e-38
0.1653749496 -0.3870693445 0.1428039074 2.284242894e-38
0.1551121771 -0.291673094 0.1380389631 2.284242894e-38
0.1668067127 -0.2910287976 0.1407092661 2.284242894e-38
0.1568183601 -0.4898187816 0.1211524904 2.284242894e-38
0.1653615683 -0.3795495033 0.1422789842 2.284242894e-38
0.1553121805 -0.2704964578 0.1381261349 2.284242894e-38
0.1641326249 -0.1328484714 0.1410158575 2.284242894e-38
0.1635450721 -0.4008516967 0.1430292577 2.284242894e-38
0.1657642722 -0.4895971715 0.1399586201 2.284242894e-38
0.1565307975 -0.3330915868 0.1387647241 2.284242894e-38
0.1798811257 -0.005795240868 0.1517691314 2.348204041e-38
-0.1265218854 -0.04076439887 0.156210348 2.348204041e-38
0.1181099117 -0.01266494114 0.1492617428 2.348204041e-38
0.04167560861 0.002231286839 0.1443752497 2.348204041e-38
0.08329027891 0.03233534843 0.1469285339 2.348204041e-38
-0.1320827901 0.1654927433 0.1506114602 2.348204041e-38
0.1703910828 -0.0559403263 0.1520262212 2.348204041e-38
-0.0442491509 0.009537352249 0.149697274 2.348204041e-38
-0.03373695165 0.03482241929 0.1565735489 2.348204041e-38
-0.1362190247 0.2361840755 0.1476139277 2.348204041e-38
0.1845439225 -0.05482887849 0.1324087828 2.348204041e-38
-0.1156488359 -0.03939822689 0.1534167975 2.348204041e-38
0.0737998262 0.03301201388 0.147143513 2.348204041e-38
-0.1356571615 0.1570478231 0.148575753 2.348204041e-38
0.170799613 -0.05221550539 0.1523499787 2.348204041e-38
-0.06504552811 0.007080594078 0.1499941796 2.348204041e-38
0.07379738986 0.03301232308 0.1471435428 2.348204041e-38
-0.1356573105 0.1570508778 0.1485756189 2.348204041e-38
0.1708001643 -0.05221581832 0.1523498744 2.348204041e-38
-0.06504616886 0.007080669515 0.1499942094 2.348204041e-38
0.1564144194 0.01044142246 0.1497817785 2.348204041e-38
-0.1278761327 -0.02165712044 0.156237781 2.348204041e-38
0.139131397 -0.02590544149 0.15193443 2.348204041e-38
-0.02084777132 -0.00468858052 0.145192638 2.348204041e-38
0.1719101518 0.007053887006 0.1491848081 2.348204041e-38
-0.1259611249 -0.02715177089 0.1574457288 2.348204041e-38
0.1328817606 -0.02006751485 0.1512111723 2.348204041e-38
-0.005182383582 -0.006169285625 0.1441876739 2.348204041e-38
-0.04186596349 0.03201495484 0.1566575468 2.348204041e-38
-0.1359638125 0.2433284372 0.1479759663 2.348204041e-38
0.1867582202 -0.05301801488 0.1265970021 2.348204041e-38
-0.1279293597 -0.05123201385 0.1541876495 2.348204041e-38
0.2063371092 0.01478381921 -0.09913203865 2.347880341e-38
0.2024509311 0.01779150032 0.02363615669 2.347880341e-38
0.2122601271 0.01454119477 -0.08252822608 2.347880341e-38
0.1841595322 0.01797307655 -0.1396924853 2.347880341e-38
0.191328153 0.01634284481 -0.1340447217 2.347880341e-38
0.2033567727 0.01274966821 0.09349595755 2.347880341e-38
0.2093742341 0.01905112155 -0.03115575761 2.347880341e-38
0.1305834949 0.0230344329 -0.1491120309 2.347880341e-38
0.175759092 0.02006736398 -0.1471843123 2.347880341e-38
0.2022463083 0.01007899269 0.1180193871 2.347880341e-38
0.2065306902 0.02194967866 0.008163186722 2.347880341e-38
0.05562501773 0.02249478363 -0.1360271126 2.347880341e-38
0.1921425015 0.01612349413 -0.133236289 2.347880341e-38
0.2042972893 0.009763658978 0.1003078744 2.347880341e-38
0.2092712671 0.01944039389 -0.0329599157 2.347880341e-38
0.1272460073 0.0205758363 -0.1479398906 2.347880341e-38
0.1921422333 0.01612352394 -0.1332367212 2.347880341e-38
0.2042973042 0.009763614275 0.100308463 2.347880341e-38
0.2092711926 0.01944045722 -0.03295896575 2.347880341e-38
0.1272447556 0.02057584748 -0.1479398459 2.347880341e-38
0.2089013457 0.01319746953 -0.09847844392 2.347880341e-38
0.2051491737 0.01345114689 0.05557720736 2.347880341e-38
0.2134962976 0.01682594419 -0.0468394272 2.347880341e-38
0.1708349884 0.02089682966 -0.1490016729 2.347880341e-38
0.2097423077 0.01311671548 -0.09496586025 2.347880341e-38
0.2061253935 0.01493806113 0.05127418414 2.347880341e-38
0.2141583413 0.01635217294 -0.04280297458 2.347880341e-38
0.171354413 0.02144147828 -0.1491943747 2.347880341e-38
0.1724799275 0.02105586231 -0.1481987089 2.347880341e-38
0.2021887302 0.01022912841 0.1214546263 2.347880341e-38
0.2069668323 0.02208897099 0.02409298904 2.347880341e-38
0.04693539441 0.02216785215 -0.1339956671 2.347880341e-38
-0.1721339971 0.4505262971 0.1312177926 2.347520768e-38
-0.188170895 0.4292078912 -0.04842954129 2.347520768e-38
-0.1610050648 0.4331994951 0.1532123536 2.347520768e-38
-0.1918028146 0.4309527874 0.07070895284 2.347520768e-38
-0.1813790649 0.4291472435 0.09879910201 2.347520768e-38
-0.1816971153 0.342556715 -0.06776443124 2.347520768e-38
-0.1489951909 0.3804240823 0.1519950628 2.347520768e-38
-0.1947362572 0.446908325 0.02733207494 2.347520768e-38
-0.1851589233 0.4071311057 0.04851206765 2.347520768e-38
-0.1722343862 0.2586198747 -0.0689765662 2.347520768e-38
-0.1448274106 0.346413821 0.1469431669 2.347520768e-38
-0.188221395 0.4204620123 -0.05061839148 2.347520768e-38
-0.1828175038 0.4277346134 0.09637726843 2.347520768e-38
-0.1791817546 0.3187969327 -0.06666693091 2.347520768e-38
-0.150758028 0.3797352612 0.1501710713 2.347520768e-38
-0.1927632838 0.4420588017 0.005203617271 2.347520768e-38
-0.1828178614 0.4277338982 0.09637586772 2.347520768e-38
-0.1791816205 0.3187956214 -0.06666700542 2.347520768e-38
-0.1507578939 0.3797343969 0.1501710266 2.347520768e-38
-0.1927631944 0.4420587718 0.005202268716 2.347520768e-38
-0.1729257107 0.4474211931 0.1321722567 2.347520768e-38
-0.1845822185 0.3764982224 -0.06191991642 2.347520768e-38
-0.1540305018 0.4077472687 0.1530365646 2.347520768e-38
-0.1933731884 0.4386872947 0.04723125324 2.347520768e-38
-0.1725083143 0.4474966228 0.1335386634 2.347520768e-38
-0.1856813133 0.3858781457 -0.06556786597 2.347520768e-38
-0.1536630392 0.4109867513 0.1538958848 2.347520768e-38
-0.1929952651 0.4345920384 0.05701430142 2.347520768e-38
-0.1855610907 0.4082411528 0.04611515626 2.347520768e-38
-0.1716598272 0.2493421882 -0.07074178755 2.347520768e-38
-0.140121907 0.3305875957 0.1462141573 2.347520768e-38
-0.1870134175 0.3963672221 -0.05983836576 2.347520768e-38
-0.1427967995 0.05375958234 -0.1497346163 2.347161195e-38
-0.1273824722 -0.1831288189 -0.1399096847 2.347161195e-38
-0.1307219863 -0.09398470074 -0.144471705 2.347161195e-38
-0.1258585006 -0.2373801768 -0.1357085109 2.347161195e-38
-0.1585427821 0.3569406271 -0.160696432 2.347161195e-38
-0.1278374046 -0.2810491621 -0.1352485269 2.347161195e-38
-0.1432528049 0.05188313499 -0.1481412798 2.347161195e-38
-0.130792886 -0.1154317558 -0.1427937597 2.347161195e-38
-0.1695714146 0.4099927247 -0.1305713803 2.347161195e-38
-0.1316136271 -0.3279997408 -0.1414366066 2.347161195e-38
-0.1515013278 0.1861061752 -0.1556923836 2.347161195e-38
-0.1392153651 -0.01036551315 -0.1443745792 2.347161195e-38
-0.1601394564 0.3733744323 -0.1544849128 2.347161195e-38
-0.1275047064 -0.2831101716 -0.1359004676 2.347161195e-38
-0.1452889591 0.09653697163 -0.1509730965 2.347161195e-38
-0.1312905401 -0.09029047936 -0.1438393146 2.347161195e-38
-0.1601397395 0.3733754754 -0.1544842869 2.347161195e-38
-0.1275048405 -0.2831112444 -0.1359005421 2.347161195e-38
-0.1452890486 0.09653895348 -0.1509732157 2.347161195e-38
-0.1312905848 -0.0902890861 -0.1438393593 2.347161195e-38
-0.1430323571 0.2761951685 -0.1599516124 2.347161195e-38
-0.1275710911 -0.2154224664 -0.1375987977 2.347161195e-38
-0.1389792562 -0.006350104231 -0.1464678347 2.347161195e-38
-0.1286926717 -0.1667348444 -0.1403309256 2.347161195e-38
-0.1440122426 0.2078761011 -0.1578774005 2.347161195e-38
-0.1274479628 -0.2091635764 -0.1373649985 2.347161195e-38
-0.1369606405 -0.033065442 -0.1462750286 2.347161195e-38
-0.128823474 -0.1719157398 -0.139555037 2.347161195e-38
-0.1708563715 0.4131050408 -0.1273617595 2.347161195e-38
-0.1306758225 -0.3335702419 -0.1417725235 2.347161195e-38
-0.1528914273 0.2078562528 -0.155937776 2.347161195e-38
-0.1417888254 0.01445693336 -0.144404158 2.347161195e-38
-0.1365025342 -0.0434512347 0.06989135593 2.346801622e-38
-0.02886220813 -0.02336644568 0.0850481838 2.346801622e-38
-0.1160396487 -0.04090596363 0.1207007319 2.346801622e-38
-0.06087920442 -0.02844399028 0.1047275662 2.346801622e-38
-0.1235480756 -0.04070441797 -0.04096206278 2.346801622e-38
-0.0006931083044 -0.02158823609 0.0156582389 2.346801622e-38
-0.08562766761 -0.03658587858 0.07151051611 2.346801622e-38
-0.02007974871 -0.01927602477 0.1217190921 2.346801622e-38
-0.1179440469 -0.03643637151 -0.1132862642 2.346801622e-38
-0.02005124837 -0.02820264921 -0.05358084291 2.346801622e-38
-0.0768308714 -0.03192417324 -0.03117807396 2.346801622e-38
0.04445247352 -0.01316281874 0.03490841016 2.346801622e-38
-0.1203872412 -0.04036499932 -0.05021580681 2.346801622e-38
-0.0002249721438 -0.02158640139 0.00648923032 2.346801622e-38
-0.09203699976 -0.03759789467 0.04052753001 2.346801622e-38
-0.02626132034 -0.02146097273 0.09941411018 2.346801622e-38
-0.1203865558 -0.04036493227 -0.05021776259 2.346801622e-38
-0.0002249537501 -0.02158643492 0.006487420294 2.346801622e-38
-0.0920368582 -0.03759777546 0.04052631184 2.346801622e-38
-0.0262607187 -0.02146091312 0.09941387922 2.346801622e-38
-0.1511865854 -0.0413720198 0.03936140984 2.346801622e-38
-0.02420665883 -0.02316100895 0.07806611806 2.346801622e-38
-0.1145601571 -0.0403188467 0.1102475002 2.346801622e-38
-0.04755622894 -0.02390399016 0.1080413237 2.346801622e-38
-0.1561691314 -0.04221105203 0.05643750727 2.346801622e-38
-0.0205611214 -0.02254981548 0.08033425361 2.346801622e-38
-0.1220158413 -0.040961992 0.1195753664 2.346801622e-38
-0.04508667812 -0.02372068912 0.1011278182 2.346801622e-38
-0.1214952692 -0.03614570946 -0.1153460741 2.346801622e-38
-0.02679096349 -0.02850272506 -0.0620643422 2.346801622e-38
-0.07103186101 -0.0304934103 -0.04850390181 2.346801622e-38
0.06657927483 -0.006400309503 0.02092601359 2.346801622e-38
0.1222221032 0.03581140563 0.07408935577 2.346406175e-38
0.1543536335 0.01994385943 0.162318036 2.346406175e-38
-0.005175142083 0.04166305065 0.1190677658 2.346406175e-38
0.1629575342 0.0284976922 0.1434832066 2.346406175e-38
0.0827358067 0.03330535442 0.1472309977 2.346406175e-38
0.05705181509 0.02522398531 0.1580491662 2.346406175e-38
-0.0125476094 0.03729098663 0.06587106735 2.346406175e-38
0.1966763437 0.01896437816 0.1501029134 2.346406175e-38
0.04286373407 0.0296646785 0.1556999832 2.346406175e-38
-0.02458383888 0.03235453367 0.1465707272 2.346406175e-38
-0.06883575022 0.04132766649 0.03408938274 2.346406175e-38
0.1998952329 0.01263244078 0.1250252426 2.346406175e-38
0.09622253478 0.03479872271 0.142308414 2.346406175e-38
0.06054206192 0.02518296987 0.1574930847 2.346406175e-38
-0.06089427695 0.0376798287 0.06111125275 2.346406175e-38
0.1969861835 0.01597234793 0.1392917484 2.346406175e-38
0.09622070193 0.03479834273 0.1423093528 2.346406175e-38
0.06054043025 0.02518297546 0.1574929208 2.346406175e-38
-0.06089584902 0.037679784 0.06111091748 2.346406175e-38
0.1969862133 0.01597226039 0.1392915845 2.346406175e-38
0.1456936449 0.03631987795 0.08299747854 2.346406175e-38
0.1159950793 0.02142849937 0.1617465466 2.346406175e-38
0.06256128103 0.03511597589 0.08983749896 2.346406175e-38
0.1904572248 0.02318504453 0.1456926614 2.346406175e-38
0.1453335136 0.03688562289 0.07794435322 2.346406175e-38
0.1225147173 0.02012856305 0.1621809304 2.346406175e-38
0.07410052419 0.03694961965 0.09957756102 2.346406175e-38
0.1906927675 0.02336069196 0.1487076283 2.346406175e-38
0.03685893118 0.03033370897 0.1553466171 2.346406175e-38
-0.03402311355 0.03318544105 0.1458466947 2.346406175e-38
-0.04116685316 0.04289413989 0.03830748051 2.346406175e-38
0.2030515969 0.01012518723 0.1183344945 2.346406175e-38
-0.1855228543 0.4942647517 0.06156536564 2.346010729e-38
-0.1857729405 0.4946992993 -0.02121163905 2.346010729e-38
