# .PCD v0.7 - Point Cloud Data file format
VERSION 0.7
FIELDS x y z rgb
SIZE 4 4 4 4
TYPE F F F F
COUNT 1 1 1 1
WIDTH 830
HEIGHT 1
VIEWPOINT 0 0 0 1 0 0 0
POINTS 830
DATA ascii
0.3811629117 0.0005423034891 -0.1549215466 4.48912409e-39
0.4302611649 0.008465358987 0.06046381593 4.48912409e-39
0.2973390818 0.02825694904 -0.1627226621 4.48912409e-39
0.3650948405 0.00191046996 0.171620369 4.48912409e-39
0.4611624479 -0.01045934111 -0.06710604578 4.48912409e-39
0.4493908882 -0.00202823896 0.02982686087 4.48912409e-39
0.2259942293 0.004782860167 -0.17374295 4.48912409e-39
0.4294182062 -0.0005956272944 0.1330860257 4.48912409e-39
0.4142102003 -0.000597650127 -0.1224709898 4.48912409e-39
0.4502625465 -0.008331337012 0.09103507549 4.48912409e-39
0.2596651316 0.01754523441 -0.171200633 4.48912409e-39
0.4075724185 -0.005248344038 0.1657388508 4.48912409e-39
0.4416398108 -0.005819890182 -0.09390697628 4.48912409e-39
0.4512068629 -0.007087730337 0.05738074332 4.48912409e-39
0.368380487 0.0296016559 -0.06400960684 4.48912409e-39
0.4370070994 -0.02085888013 0.1549879462 4.48912409e-39
0.4159010649 0.01731556281 -0.07793720812 4.48912409e-39
0.4518594444 -8.554756641e-05 -0.006757789757 4.48912409e-39
0.2922052741 0.005361660384 -0.1761299521 4.48912409e-39
0.468352437 -0.02510807849 0.07476714998 4.48912409e-39
0.3616274595 0.01085031312 -0.1529203653 4.48912409e-39
0.4295692444 0.01481889747 0.008854234591 4.48912409e-39
0.3838988245 0.01984836906 -0.1017088518 4.48912409e-39
0.445463717 -0.001699662069 0.05303653702 4.48912409e-39
0.4006713331 -0.05445783585 -0.1787652075 5.225597518e-39
-0.02834008075 0.003334576963 -0.1889590919 5.225597518e-39
0.116752632 -0.02322376519 -0.1872078031 5.225597518e-39
-0.226912722 -0.03557897732 -0.1896000057 5.225597518e-39
0.3641591072 -0.03879956529 -0.1850355417 5.225597518e-39
0.02227208018 0.005052531138 -0.1883887351 5.225597518e-39
-0.06845220178 -0.03094876744 -0.1872082055 5.225597518e-39
-0.4078339338 -0.01298116986 -0.1858698726 5.225597518e-39
0.128132984 0.0006133019342 -0.185464099 5.225597518e-39
-0.242061466 0.02865164168 -0.1836602092 5.225597518e-39
0.07176761329 -0.02836104296 -0.1861709058 5.225597518e-39
-0.2990750074 -0.01614251919 -0.1907905787 5.225597518e-39
0.2795037925 -0.01500769891 -0.1887571812 5.225597518e-39
-0.07735465467 0.0149277905 -0.1887515634 5.225597518e-39
-0.01078332495 -0.03413407505 -0.1869532466 5.225597518e-39
-0.3725545704 -0.01882833056 -0.1862935126 5.225597518e-39
0.1763404608 -0.005046596751 -0.1865158826 5.225597518e-39
-0.1852590293 0.02256814763 -0.1865367591 5.225597518e-39
0.03136135638 -0.0320655629 -0.1865184307 5.225597518e-39
-0.3230037391 -0.01908190548 -0.1899908036 5.225597518e-39
0.2279535085 -0.008912186138 -0.188359201 5.225597518e-39
-0.1301615238 0.01530025713 -0.1884114444 5.225597518e-39
0.1622729301 -0.03645543382 -0.1879141927 5.225597518e-39
-0.1611249894 -0.04212516919 -0.1871505827 5.225597518e-39
0.3239356875 -0.02453019656 -0.1879144907 5.225597518e-39
0.07483565807 -0.004052903503 -0.1864631623 5.225597518e-39
0.2094650865 -0.05529556423 -0.1865974665 5.225597518e-39
-0.2562406659 -0.01142724045 -0.190399453 5.225597518e-39
0.285988003 -0.05501618236 -0.1856988668 5.225597518e-39
-0.1066195145 -0.01293123327 -0.1884236336 5.225597518e-39
0.3376354277 -0.07009949535 -0.1813991666 5.225597518e-39
-0.1935124993 -0.003949901089 -0.1882014871 5.225597518e-39
-0.08890054375 -0.04222263023 0.1726089865 5.962428276e-39
-0.1079590768 -0.02621390857 0.1552940309 5.962428276e-39
-0.1143434346 -0.08214789629 0.1624760479 5.962428276e-39
0.3164888918 -0.1131133735 0.1415756792 5.962428276e-39
-0.1619959027 -0.04639388621 0.1717806458 5.962428276e-39
0.03435633332 -0.02708935551 0.1568928808 5.962428276e-39
-0.3151019514 -0.1111420617 0.1456865072 5.962428276e-39
-0.1621371955 -0.1260824203 0.1492023319 5.962428276e-39
-0.3484736979 -0.0799061656 0.1312938482 5.962428276e-39
-0.3397279084 -0.0326709263 0.08666992933 5.962428276e-39
-0.1827484667 -0.09286435694 0.1611258835 5.962428276e-39
0.1266164482 -0.1089119688 0.1484098583 5.962428276e-39
-0.2693529129 -0.06396434456 0.1575601399 5.962428276e-39
-0.20968768 -0.02701104805 0.1514290869 5.962428276e-39
-0.2850162685 -0.1105618179 0.1482405812 5.962428276e-39
-0.07840620726 -0.1075176075 0.1530330628 5.962428276e-39
-0.3206012845 -0.07338222861 0.1406376213 5.962428276e-39
-0.3053606749 -0.02703956328 0.09789768606 5.962428276e-39
-0.2547168732 -0.1042611301 0.1532635987 5.962428276e-39
0.00407166779 -0.1100025624 0.1503627449 5.962428276e-39
-0.2940569818 -0.06791621447 0.1481417418 5.962428276e-39
-0.2675752938 -0.02668980882 0.1260451227 5.962428276e-39
-0.06191652268 -0.07337416708 0.1629368812 5.962428276e-39
0.3342104256 -0.09248926491 0.1381197125 5.962428276e-39
-0.2359455675 -0.05348166078 0.1692281514 5.962428276e-39
0.1490867138 -0.04324503988 0.1575656235 5.962428276e-39
0.0009094846901 -0.06534483284 0.1626810431 5.962428276e-39
0.154895395 -0.08572097868 0.1566756666 5.962428276e-39
-0.3757241964 -0.05661214516 0.1036827564 5.962428276e-39
-0.3186332583 -0.04106331989 0.1175288558 5.962428276e-39
0.0583333075 -0.05887972564 0.162717253 5.962428276e-39
0.229470402 -0.0747583732 0.1524009407 5.962428276e-39
-0.1474327445 0.04579374939 0.1594417691 6.698542971e-39
-0.08196675777 0.01391610038 0.1686734259 6.698542971e-39
-0.1485315114 0.007816300727 0.1702692956 6.698542971e-39
-0.03698141128 -0.01638692617 0.1746505052 6.698542971e-39
-0.199242726 0.03856109455 0.1621091813 6.698542971e-39
-0.1205893308 -0.06075643003 0.1731297225 6.698542971e-39
-0.2948718667 -0.05026319623 0.1661880761 6.698542971e-39
0.320556283 -0.05389615893 0.1640007198 6.698542971e-39
-0.4009532928 0.004305194598 0.1545998454 6.698542971e-39
0.01506163273 -0.0614169091 0.17479828 6.698542971e-39
-0.1694166362 -0.04495333508 0.1735271662 6.698542971e-39
0.1002803594 -0.08559294045 0.1780910492 6.698542971e-39
-0.2705909908 0.01990624517 0.1626200229 6.698542971e-39
-0.08588458598 -0.08164671808 0.172216773 6.698542971e-39
-0.2628579438 -0.05002651736 0.167970255 6.698542971e-39
0.2457485497 -0.06770150363 0.1810712218 6.698542971e-39
-0.3624177575 0.01392105408 0.157508567 6.698542971e-39
-0.02313647978 -0.07027868181 0.1737519205 6.698542971e-39
-0.2330001891 -0.04811303318 0.170309186 6.698542971e-39
0.1591635942 -0.05728812516 0.1837278754 6.698542971e-39
-0.313950479 0.01963550784 0.1604179293 6.698542971e-39
-0.05241103098 -0.0703991726 0.1737215519 6.698542971e-39
-0.1093713865 0.004017856903 0.1714820713 6.698542971e-39
0.06759533286 -0.03720835224 0.1751307845 6.698542971e-39
-0.2270321995 0.01328121964 0.165426597 6.698542971e-39
0.01081686001 0.01816283911 0.1647607982 6.698542971e-39
-0.04509009793 0.01851067878 0.1655810028 6.698542971e-39
0.236836642 -0.02935770899 0.1776717901 6.698542971e-39
-0.3400749564 -0.06547649205 0.1617688239 6.698542971e-39
0.1759711206 -0.00930764433 0.1777438074 6.698542971e-39
0.05707037076 0.0153784696 0.1657303423 6.698542971e-39
0.109600313 0.005016232841 0.1695732027 6.698542971e-39
0.356114924 -0.07592317462 0.1827783138 7.434656265e-39
0.06526003778 -0.1161345392 0.1892592311 7.434656265e-39
0.2834143043 -0.1462056786 0.1871808171 7.434656265e-39
0.2731274962 -0.1094615906 0.1898569018 7.434656265e-39
0.3309894502 -0.0804522112 0.1839951873 7.434656265e-39
0.1402850002 -0.1078351736 0.1885881126 7.434656265e-39
0.3625387847 -0.1365907341 0.1859892458 7.434656265e-39
0.1456608921 -0.1156454757 0.1863396317 7.434656265e-39
0.4147163332 -0.09597748518 0.1808570027 7.434656265e-39
-0.08638101071 -0.1207770407 0.1874380857 7.434656265e-39
0.3052221537 -0.1538287997 0.1866772473 7.434656265e-39
0.2496852279 -0.1084025651 0.1878554076 7.434656265e-39
0.3355178237 -0.1144360304 0.1893708408 7.434656265e-39
0.04179074988 -0.1161415353 0.1884310991 7.434656265e-39
0.3377816975 -0.1493504196 0.1874251813 7.434656265e-39
0.183026284 -0.1138188466 0.18665196 7.434656265e-39
0.3836560249 -0.11196886 0.1838566214 7.434656265e-39
-0.02749098092 -0.1203189865 0.1883030385 7.434656265e-39
0.3261280954 -0.1501009315 0.187357828 7.434656265e-39
0.2178580314 -0.1123175099 0.1870018393 7.434656265e-39
0.3592662215 -0.1146871075 0.1868566424 7.434656265e-39
0.009368622676 -0.1182017997 0.1886805892 7.434656265e-39
0.2627914548 -0.1356709152 0.1876725405 7.434656265e-39
0.2633149624 -0.08986960351 0.1860078275 7.434656265e-39
0.3033672869 -0.09182126075 0.1881424934 7.434656265e-39
0.09056019038 -0.1138530523 0.1896921992 7.434656265e-39
0.3056193292 -0.1295048147 0.1900914013 7.434656265e-39
0.2077206671 -0.09929808229 0.1884202212 7.434656265e-39
0.3824136853 -0.07545166463 0.1845893413 7.434656265e-39
-0.1477719396 -0.1195102558 0.1878782213 7.434656265e-39
0.2417392135 -0.1313457191 0.1857079417 7.434656265e-39
0.2740396559 -0.1503973007 0.1860895604 7.434656265e-39
0.1478043348 -0.06019594893 0.1867411435 8.170410826e-39
6.595253944e-05 -0.08612778783 0.1852426231 8.170410826e-39
0.3382674754 -0.05264246836 0.1842035204 8.170410826e-39
-0.08955161273 -0.1106605902 0.1859715432 8.170410826e-39
0.1654104739 -0.05875580013 0.1864751577 8.170410826e-39
0.1074427217 -0.06804860383 0.1861154586 8.170410826e-39
0.4385736883 -0.05164979026 0.153605774 8.170410826e-39
-0.2854598761 -0.1228216141 0.1860934794 8.170410826e-39
0.2963854074 -0.05316137522 0.184426263 8.170410826e-39
-0.01805869862 -0.07883366197 0.1876718402 8.170410826e-39
0.3528205454 -0.05871701241 0.1843238026 8.170410826e-39
-0.1684818715 -0.1161601767 0.1855066568 8.170410826e-39
0.2167236507 -0.05545885488 0.1855650693 8.170410826e-39
0.08640956879 -0.06834609807 0.1862974018 8.170410826e-39
0.4131059945 -0.05316391215 0.1840356439 8.170410826e-39
-0.2339128852 -0.1211276129 0.1851471663 8.170410826e-39
0.2684567273 -0.05425777286 0.1844659448 8.170410826e-39
0.03282559291 -0.07497345656 0.1864096224 8.170410826e-39
0.3841145635 -0.05593822524 0.1842878759 8.170410826e-39
-0.1915710121 -0.1174175069 0.1853259206 8.170410826e-39
0.2423355728 -0.05501205847 0.1850355864 8.170410826e-39
0.06276690215 -0.07136850804 0.1861846298 8.170410826e-39
0.3157374263 -0.06015465781 0.1839324981 8.170410826e-39
-0.1046092436 -0.09648960084 0.1861039847 8.170410826e-39
0.1860927641 -0.05592835695 0.1864150465 8.170410826e-39
0.1290757656 -0.06717243791 0.1859388947 8.170410826e-39
0.06031322852 -0.09003136307 0.1847278327 8.170410826e-39
-0.121385403 -0.08716254681 0.1875946075 8.170410826e-39
0.2025015801 -0.07449679822 0.1846865267 8.170410826e-39
-0.04306001216 -0.07857136428 0.1881015301 8.170410826e-39
0.2471843213 -0.07915595174 0.1840688735 8.170410826e-39
-0.07611843199 -0.08935602009 0.1866200864 8.170410826e-39
-0.01128396206 -0.05331328884 0.1892782003 8.906165387e-39
-0.3023695052 -0.004233707674 0.1888573617 8.906165387e-39
-0.2621543407 -0.103337869 0.1863122731 8.906165387e-39
-0.3267782331 -0.0309627708 0.1870392412 8.906165387e-39
0.05723282695 -0.05283918232 0.1879346073 8.906165387e-39
-0.2399701625 -0.01340572722 0.1912704408 8.906165387e-39
-0.3836611211 -0.1003232151 0.1799417585 8.906165387e-39
-0.4517584443 -0.07749313116 0.1683047861 8.906165387e-39
-0.2667375803 -0.03944777697 0.1899000257 8.906165387e-39
-0.4192269444 -0.005268748384 0.181746617 8.906165387e-39
-0.299205482 -0.1000507548 0.1860127151 8.906165387e-39
-0.3767240942 -0.07655364275 0.1819668561 8.906165387e-39
-0.1152433753 -0.05540019274 0.1890817583 8.906165387e-39
-0.3280888796 -0.0007305442123 0.1871595681 8.906165387e-39
-0.3518874049 -0.09979713708 0.1838508844 8.906165387e-39
-0.4222820401 -0.08103434741 0.1740635484 8.906165387e-39
-0.2060314268 -0.04428034276 0.1902267188 8.906165387e-39
-0.3851280808 -0.002126802225 0.1844570488 8.906165387e-39
-0.3273794055 -0.1011806354 0.1852730066 8.906165387e-39
-0.3971990645 -0.08183582127 0.1787226498 8.906165387e-39
-0.1666155607 -0.05179101601 0.1898122579 8.906165387e-39
-0.3546641171 -0.001013479778 0.1858797073 8.906165387e-39
-0.2260053605 -0.09025540203 0.1867729276 8.906165387e-39
-0.3290834725 -0.07374442369 0.1860211045 8.906165387e-39
-0.06564055383 -0.05540917441 0.188771829 8.906165387e-39
-0.2812387347 -0.008576737717 0.1901365668 8.906165387e-39
-0.2521423101 -0.07476842403 0.1881136 8.906165387e-39
-0.4127699435 -0.04296424985 0.180585131 8.906165387e-39
-0.304061234 -0.07824835926 0.1875853539 8.906165387e-39
-0.4434363246 -0.02681841142 0.1774167866 8.906165387e-39
-0.1665020734 -0.07412078977 0.1865946949 8.906165387e-39
-0.3692491651 -0.03137887642 0.1862747073 8.906165387e-39
0.0009017137345 -0.04556097463 0.1896333843 9.641561216e-39
0.1770412624 -0.04271713644 0.1817722768 9.641561216e-39
-0.2693568766 -0.05600395799 0.1861104965 9.641561216e-39
-0.375762105 -0.06355044246 0.1792042404 9.641561216e-39
0.104290396 -0.04390962422 0.1862728298 9.641561216e-39
0.2701050937 -0.04702602327 0.1609807163 9.641561216e-39
-0.4099746048 -0.05425377935 0.182076484 9.641561216e-39
-0.3513579965 -0.07789026946 -0.01139572076 9.641561216e-39
-0.1989749968 -0.05417302996 0.1876251847 9.641561216e-39
-0.2955863178 -0.07923562825 0.110950537 9.641561216e-39
-0.302346468 -0.05597282201 0.1867072284 9.641561216e-39
-0.3952749372 -0.07408389449 0.151048407 9.641561216e-39
-0.04757542163 -0.04921552166 0.1891090721 9.641561216e-39
0.2262741476 -0.06115852669 0.1575655639 9.641561216e-39
-0.3855226934 -0.05529270694 0.1864984035 9.641561216e-39
-0.3873426616 -0.08795364201 0.0397410281 9.641561216e-39
-0.1631364524 -0.05471022055 0.1870343983 9.641561216e-39
-0.1856116354 -0.0904103145 0.1484953463 9.641561216e-39
-0.3540382683 -0.05581828952 0.1885279417 9.641561216e-39
-0.3969234824 -0.08108703047 0.1004573107 9.641561216e-39
-0.1052337363 -0.05222446844 0.1882012486 9.641561216e-39
0.1072949469 -0.1125179678 0.1545580775 9.641561216e-39
-0.2438509613 -0.05688351765 0.1854041219 9.641561216e-39
-0.336201936 -0.06357401609 0.180251345 9.641561216e-39
0.0543031767 -0.05018943548 0.1865975112 9.641561216e-39
0.2834719419 -0.08228566498 0.1203365028 9.641561216e-39
-0.2301378995 -0.07808861136 0.1750145406 9.641561216e-39
-0.3516694009 -0.0790610984 0.1387869716 9.641561216e-39
-0.1565467566 -0.076118581 0.1792346686 9.641561216e-39
-0.03726370633 -0.06652180105 0.181476593 9.641561216e-39
0.03229111806 -0.1085446849 0.1575974673 9.641561216e-39
-0.2971877456 -0.07564950734 0.1727595925 9.641561216e-39
-0.1771915555 -0.127486378 -0.0352239199 1.037659831e-38
0.1674556732 -0.1285295039 -0.0405321829 1.037659831e-38
-0.05702509359 -0.1263206154 -0.03647399321 1.037659831e-38
0.39081797 -0.1288290322 -0.04641957954 1.037659831e-38
-0.1114964858 -0.1267660409 -0.03575741872 1.037659831e-38
0.1356336027 -0.127854377 -0.03928050026 1.037659831e-38
0.1121323705 -0.1274022758 -0.03859428316 1.037659831e-38
0.4862204492 -0.1155813336 -0.04924572259 1.037659831e-38
-0.3622297049 -0.1163125783 -0.03144511953 1.037659831e-38
0.2666672766 -0.1302472949 -0.04491699487 1.037659831e-38
-0.01371928677 -0.1272723079 -0.03710982203 1.037659831e-38
0.4238647223 -0.1268397421 -0.0444515422 1.037659831e-38
-0.2153726369 -0.1261617094 -0.03479052335 1.037659831e-38
0.1997554749 -0.1292052865 -0.04203988984 1.037659831e-38
0.0758567825 -0.1278492659 -0.03827278316 1.037659831e-38
0.4635426104 -0.1198413596 -0.04734553024 1.037659831e-38
-0.2720100284 -0.1217029169 -0.03399138153 1.037659831e-38
0.2461548597 -0.1299922466 -0.04396408796 1.037659831e-38
0.04573660716 -0.1280287802 -0.0379448235 1.037659831e-38
0.4428858459 -0.1236932799 -0.04518817365 1.037659831e-38
-0.2467320263 -0.1240682527 -0.03415125981 1.037659831e-38
0.2230694741 -0.1296105087 -0.04294433072 1.037659831e-38
0.01032906212 -0.1272248179 -0.03802814707 1.037659831e-38
0.3393953741 -0.1301198751 -0.04860203713 1.037659831e-38
-0.1381888986 -0.1269749999 -0.03553615138 1.037659831e-38
0.08944841474 -0.127995491 -0.04088838026 1.037659831e-38
-0.08603139222 -0.1262321472 -0.03606248647 1.037659831e-38
0.3760983646 -0.1297172904 -0.03924129158 1.037659831e-38
-0.3213262856 -0.119177036 -0.03234887868 1.037659831e-38
0.3138501942 -0.1292027235 -0.0479760319 1.037659831e-38
-0.1905769855 -0.1268122196 -0.03632402048 1.037659831e-38
0.2960242927 -0.1300009936 -0.04595960304 1.037659831e-38
-0.3043310642 0.1189321429 -0.1336997896 1.111163541e-38
-0.02486151643 0.130905062 -0.1305090785 1.111163541e-38
-0.2810709178 0.1357589066 -0.1147030964 1.111163541e-38
0.1612821966 0.05833135173 -0.1069663763 1.111163541e-38
-0.2611671388 0.1265509725 -0.1324386299 1.111163541e-38
0.003847982269 0.1337496936 -0.1254873872 1.111163541e-38
-0.4333331883 0.08723127097 -0.1080418378 1.111163541e-38
0.338840127 0.02131013572 -0.06502097845 1.111163541e-38
-0.06871493906 0.1295925677 -0.1339305341 1.111163541e-38
0.1398721188 0.07011805475 -0.1050831005 1.111163541e-38
-0.3163384199 0.1287468523 -0.1179689392 1.111163541e-38
0.2413523793 0.03736283258 -0.0877237469 1.111163541e-38
-0.2213914841 0.132783711 -0.1267965287 1.111163541e-38
0.04844016954 0.1169119775 -0.1301766336 1.111163541e-38
-0.3851377964 0.1076357961 -0.1111306995 1.111163541e-38
0.3103315234 0.02597921155 -0.07221578062 1.111163541e-38
-0.1045253649 0.1315167993 -0.1304578781 1.111163541e-38
0.1088026315 0.08958266675 -0.1179984286 1.111163541e-38
-0.3597070873 0.1168194115 -0.1129400507 1.111163541e-38
0.2752094865 0.03144276515 -0.08034306765 1.111163541e-38
-0.1592060626 0.1324328333 -0.1279242337 1.111163541e-38
0.08201976866 0.1045187861 -0.1237370819 1.111163541e-38
-0.237230882 0.1411491483 -0.1081876904 1.111163541e-38
0.1952088177 0.04658123106 -0.09806845337 1.111163541e-38
-0.1842805445 0.1315467656 -0.1293429285 1.111163541e-38
0.02987016737 0.1300406307 -0.1188101619 1.111163541e-38
-0.1755100042 0.1437052637 -0.1037486792 1.111163541e-38
0.2239148319 0.03868662193 -0.06732264161 1.111163541e-38
-0.06346597522 0.1412043571 -0.1130058616 1.111163541e-38
0.1647479981 0.05210321024 -0.08371198177 1.111163541e-38
-0.1269980818 0.1431746334 -0.1068601087 1.111163541e-38
0.1176546291 0.08499041945 -0.09324309975 1.111163541e-38
-0.009527781978 -0.05541445315 -0.189368248 1.184631237e-38
-0.2689202726 -0.02775509655 -0.187110886 1.184631237e-38
0.0281677898 0.007323929574 -0.1836218387 1.184631237e-38
-0.3736655712 0.0250224676 -0.1800943911 1.184631237e-38
-0.1157586724 -0.06294254959 -0.1894028038 1.184631237e-38
-0.22698915 -0.02132373676 -0.1880435795 1.184631237e-38
0.254925698 -0.05963595212 -0.188744992 1.184631237e-38
-0.1839412302 0.03216792643 -0.182501182 1.184631237e-38
0.1727601737 -0.05719266832 -0.188642934 1.184631237e-38
-0.001066527911 -0.02077727765 -0.1872077882 1.184631237e-38
0.08452865481 -0.00552947307 -0.1859252602 1.184631237e-38
-0.2871119678 0.02996629104 -0.184034586 1.184631237e-38
0.02640319802 -0.05189747736 -0.1888011545 1.184631237e-38
-0.1627742499 -0.02189321071 -0.1885927469 1.184631237e-38
0.2035867572 -0.04010712728 -0.1889913082 1.184631237e-38
-0.2228319198 0.0315701142 -0.183709994 1.184631237e-38
0.1004699022 -0.0445866026 -0.1882635802 1.184631237e-38
-0.07683710754 -0.02108034678 -0.1886153668 1.184631237e-38
0.143104136 -0.02169709653 -0.1885674298 1.184631237e-38
-0.2547022998 0.02857412212 -0.1848863065 1.184631237e-38
0.05401885882 -0.04881192744 -0.1883379817 1.184631237e-38
-0.1211497411 -0.01895024627 -0.1883049458 1.184631237e-38
-0.1053544581 0.0259057954 -0.1816387922 1.184631237e-38
-0.3309801221 0.02739206702 -0.1823713332 1.184631237e-38
-0.06848363578 -0.06885698438 -0.1899326593 1.184631237e-38
-0.2021588236 -0.0487136282 -0.1883325875 1.184631237e-38
-0.04132065549 1.36718154e-06 -0.1837385297 1.184631237e-38
-0.1889932156 0.01042886451 -0.1863064021 1.184631237e-38
0.09885028005 -0.07222997397 -0.1907685399 1.184631237e-38
-0.02554205991 -0.03379965201 -0.1887267977 1.184631237e-38
-0.1634505093 0.01895391755 -0.1848450452 1.184631237e-38
-0.2593874633 -0.002184742363 -0.1875863671 1.184631237e-38
-0.446205616 0.0236276295 0.1204346791 1.258099074e-38
-0.4158282876 0.03525787964 0.1424724609 1.258099074e-38
-0.4665435255 0.02006190084 -0.05330615118 1.258099074e-38
-0.4506759048 0.003614871763 0.1234267354 1.258099074e-38
-0.4198123813 0.0476035662 0.1224369928 1.258099074e-38
-0.4671421051 -0.03065175563 0.1060345024 1.258099074e-38
-0.4437794089 -0.01341052447 -0.1821303517 1.258099074e-38
-0.3290163875 -0.08789709955 -0.1850365996 1.258099074e-38
-0.467059195 0.02184845693 -0.007263148203 1.258099074e-38
-0.3570518494 0.04425157979 0.162711814 1.258099074e-38
-0.4661055505 0.01758351736 -0.07778371871 1.258099074e-38
-0.4747708738 -0.02750135213 0.04843646288 1.258099074e-38
-0.4413185418 0.03904810548 0.09210448712 1.258099074e-38
-0.4442187548 -0.01315090246 0.1447528005 1.258099074e-38
-0.4563439488 -0.002237658948 -0.160428524 1.258099074e-38
-0.478598088 -0.07384993136 -0.1176754087 1.258099074e-38
-0.4553591609 0.02731030621 0.03343353793 1.258099074e-38
-0.3955372274 0.02782803401 0.1599986255 1.258099074e-38
-0.4610104263 0.00864892453 -0.1251662076 1.258099074e-38
-0.4817363918 -0.0467547439 -0.01643624716 1.258099074e-38
-0.4453766644 0.03431828693 0.05584473535 1.258099074e-38
-0.4244875908 0.009460122325 0.1515730768 1.258099074e-38
-0.4738115072 -0.00457280688 -0.002246831544 1.258099074e-38
-0.4741736352 -0.01690284908 0.02444265038 1.258099074e-38
-0.4499851167 0.01946339756 0.07423460484 1.258099074e-38
-0.4778363705 -0.04735983163 0.04940367118 1.258099074e-38
-0.4148728251 -0.03511538729 -0.1843791604 1.258099074e-38
-0.3508514166 -0.04753718898 -0.189379856 1.258099074e-38
-0.4735615551 -0.02166060545 -0.08597895503 1.258099074e-38
-0.4530172646 0.001789106056 0.09617608786 1.258099074e-38
-0.3397682607 -0.06490305811 -0.1938997209 1.258099074e-38
-0.4201102257 -0.09633740038 -0.1831543744 1.258099074e-38
-0.345428139 -0.1289735138 -0.1860470176 1.331530897e-38
-0.3179167211 -0.08110808581 0.1667563319 1.331530897e-38
-0.3558270037 -0.09232752025 0.1472870857 1.331530897e-38
-0.2256541103 -0.1166179627 -0.1803156137 1.331530897e-38
-0.2851184309 -0.1038824841 -0.1591767073 1.331530897e-38
-0.3534921408 -0.08271058649 0.1751227975 1.331530897e-38
-0.4042899013 -0.1095786169 -0.1414497644 1.331530897e-38
-0.201036334 -0.0883442983 0.00681754807 1.331530897e-38
-0.3262065053 0.006593668368 -0.1783528328 1.331530897e-38
-0.1543578953 -0.07468783855 0.1375729889 1.331530897e-38
-0.3711735606 -0.09776923805 0.0605526343 1.331530897e-38
-0.2114720941 -0.103349112 -0.1747168899 1.331530897e-38
-0.2761816084 -0.1329585314 -0.1865403205 1.331530897e-38
-0.3005348444 -0.07503239065 0.1779115945 1.331530897e-38
-0.3858223259 -0.1172408089 -0.07602938265 1.331530897e-38
-0.2135186493 -0.08989458531 -0.1009241715 1.331530897e-38
-0.3291534185 -0.03434424475 -0.1891137511 1.331530897e-38
-0.2172483951 -0.07206038386 0.1580021083 1.331530897e-38
-0.3781437874 -0.1053119749 -0.02147503011 1.331530897e-38
-0.2256954759 -0.09266185015 -0.1574224383 1.331530897e-38
-0.3014027178 -0.1083946526 -0.1908243597 1.331530897e-38
-0.2642592788 -0.07281748205 0.1725338101 1.331530897e-38
-0.4032253027 -0.09784126282 0.09805627912 1.331530897e-38
-0.2422568947 -0.09422527254 -0.1544918418 1.331530897e-38
-0.2738235593 -0.1199248433 -0.1780239493 1.331530897e-38
-0.3423787057 -0.09707770497 0.006315460429 1.331530897e-38
-0.4154058695 -0.01180395763 -0.1757792234 1.331530897e-38
-0.2793030143 -0.09311344475 -0.01611923799 1.331530897e-38
-0.3917301297 -0.01727517135 -0.1877523363 1.331530897e-38
-0.265868783 -0.08996886015 0.1225456297 1.331530897e-38
-0.3671324849 -0.1042944714 -0.1874729693 1.331530897e-38
-0.335527271 -0.1065152362 -0.1034367681 1.331530897e-38
0.2280260623 -0.04902431369 -0.1170635894 1.404926846e-38
0.2798318267 -0.03737030923 -0.1022363454 1.404926846e-38
0.1981014013 -0.07159256935 -0.06683774292 1.404926846e-38
0.331577152 -0.07067555934 -0.103011921 1.404926846e-38
0.2087176144 -0.06463105977 -0.1371227205 1.404926846e-38
0.283990711 -0.01761089638 -0.1406990737 1.404926846e-38
0.1951885968 -0.1018219441 0.135994494 1.404926846e-38
0.4443927109 -0.1318782419 -0.08437375724 1.404926846e-38
0.2672459781 -0.01793117076 -0.139893949 1.404926846e-38
0.3995302022 -0.08944821358 -0.1527428329 1.404926846e-38
0.2026191652 -0.07271561772 -0.03326782584 1.404926846e-38
0.3624524474 -0.09210950136 -0.1077288166 1.404926846e-38
0.230447039 -0.03621377423 -0.1425498128 1.404926846e-38
0.3032667041 -0.02333149686 -0.1422396898 1.404926846e-38
0.2348985821 -0.09039504826 0.06787025183 1.404926846e-38
0.4111909568 -0.1170267761 -0.09525872767 1.404926846e-38
0.2554547489 -0.02460275963 -0.1392204911 1.404926846e-38
0.3688705564 -0.06664159149 -0.1507490128 1.404926846e-38
0.2477328628 -0.08198709041 0.02966475673 1.404926846e-38
0.3729426563 -0.1007418931 -0.1032416523 1.404926846e-38
0.2424803823 -0.03028467111 -0.1390780956 1.404926846e-38
0.3366850019 -0.04479147121 -0.14706406 1.404926846e-38
0.2218033075 -0.06364802271 -0.1129395664 1.404926846e-38
0.3035601377 -0.0460555777 -0.1079559773 1.404926846e-38
0.2105453014 -0.05616781488 -0.1506783813 1.404926846e-38
0.3229870498 -0.03561153263 -0.1448160261 1.404926846e-38
0.2441729307 -0.04087490216 -0.1084171012 1.404926846e-38
0.3485407233 -0.0674360469 -0.1278157234 1.404926846e-38
0.2596019208 -0.0125316903 -0.1636866629 1.404926846e-38
0.4385433495 -0.1100057065 -0.1468664855 1.404926846e-38
0.2645770907 -0.02413747832 -0.1258339286 1.404926846e-38
0.3271647394 -0.02968402393 -0.1580949277 1.404926846e-38
0.2405460924 -0.03479619324 0.1162066162 1.478322936e-38
-0.3705334663 0.06835964322 0.007557893638 1.478322936e-38
0.1362092048 0.00511995703 0.1492560804 1.478322936e-38
-0.05664094165 0.06273362786 0.133348003 1.478322936e-38
0.1937589198 -0.02685660869 0.1123791412 1.478322936e-38
-0.1920149773 0.07169187814 0.1216066107 1.478322936e-38
0.3257350922 -0.05040929094 0.1557121128 1.478322936e-38
0.1370182335 0.00206587906 0.1354470402 1.478322936e-38
0.3710894883 -0.04786602408 0.1363674551 1.478322936e-38
-0.4058847725 0.06230537593 0.01261548791 1.478322936e-38
0.1992057413 -0.02639733069 0.1365042925 1.478322936e-38
-0.03808037937 0.0543365106 0.1290131956 1.478322936e-38
0.2466039211 -0.0371276848 0.1005302295 1.478322936e-38
-0.2959452271 0.06881083548 0.1032365337 1.478322936e-38
0.2962474823 -0.0442654863 0.1484214813 1.478322936e-38
0.07768688351 0.02772018313 0.1313102543 1.478322936e-38
0.338042289 -0.04628925771 0.1260523647 1.478322936e-38
-0.3761436343 0.06872655451 0.05408469215 1.478322936e-38
0.2631997764 -0.03718661889 0.1409865171 1.478322936e-38
0.006598160602 0.03964776918 0.1252012998 1.478322936e-38
0.3009209633 -0.04343362153 0.113616161 1.478322936e-38
-0.3402270079 0.07010397315 0.08896097541 1.478322936e-38
0.09747494012 0.00144094869 0.09628158063 1.478322936e-38
-0.1106947586 0.04741567001 0.08862739056 1.478322936e-38
0.1690882593 -0.02530350536 0.08984106779 1.478322936e-38
-0.2467630655 0.05743314326 0.09432268888 1.478322936e-38
-0.3024211228 0.06765628606 0.06306520104 1.478322936e-38
-0.2994920909 0.05537376553 0.02278303914 1.478322936e-38
0.2118128985 -0.03333251178 0.07132478058 1.478322936e-38
-0.3678990901 0.06655565649 -0.0491720438 1.478322936e-38
-0.2649874687 0.04500613362 0.009903045371 1.478322936e-38
-0.3201233447 0.07347708195 -0.04859458655 1.478322936e-38
0.02219795063 0.1415100992 -0.04199453071 1.551683013e-38
-0.1666288674 0.01278961357 -0.0917429626 1.551683013e-38
-0.0312191546 -0.1187252253 -0.1544498503 1.551683013e-38
-0.2337962538 -0.1474745572 -0.1575785726 1.551683013e-38
0.1265703887 0.09375537187 -0.03249549121 1.551683013e-38
-0.1093681529 0.0524341017 -0.08043958992 1.551683013e-38
-0.06871464103 0.1364295036 -0.06577195227 1.551683013e-38
-0.4214512408 -0.08620284498 -0.1475447118 1.551683013e-38
-0.03863246739 0.007263737731 -0.1346351653 1.551683013e-38
-0.4340315163 -0.04027027264 -0.1258757263 1.551683013e-38
0.004834912252 -0.08422551304 -0.1482353657 1.551683013e-38
-0.3392413259 -0.1639347374 -0.1583089232 1.551683013e-38
0.1037645116 0.1024334356 -0.06716418266 1.551683013e-38
-0.2919974625 0.001030882471 -0.1055687219 1.551683013e-38
-0.05161045492 0.02440773696 -0.127192989 1.551683013e-38
-0.4094977081 -0.1157868356 -0.1516373605 1.551683013e-38
-0.05304441974 0.08781382442 -0.1246824265 1.551683013e-38
-0.4005451798 -0.02588764764 -0.1148703918 1.551683013e-38
-0.01586931385 -0.02740228362 -0.136432603 1.551683013e-38
-0.3770265877 -0.1413209587 -0.1553114504 1.551683013e-38
0.02613382973 0.1317311972 -0.09726025909 1.551683013e-38
-0.3487797976 -0.01231889892 -0.1092703789 1.551683013e-38
-0.06130513921 -0.06990021467 -0.1496780515 1.551683013e-38
-0.1423955113 -0.1151620746 -0.1538318843 1.551683013e-38
-0.08786825091 0.1130882353 -0.1062704623 1.551683013e-38
-0.1727308184 -0.008915923536 -0.1369243711 1.551683013e-38
-0.09751029313 0.1092547923 -0.08610405773 1.551683013e-38
-0.2826046348 -0.08399424702 -0.1460400373 1.551683013e-38
-0.07615729421 0.05570446327 -0.1103240699 1.551683013e-38
-0.3382279575 -0.06034705043 -0.1491424292 1.551683013e-38
-0.2191560119 -0.09533939511 -0.1576895565 1.551683013e-38
-0.307552129 -0.1148959473 -0.1541412622 1.551683013e-38
-0.3695683777 -0.023143759 0.1543694735 1.625043089e-38
-0.4343369603 -0.03803001344 0.1475727707 1.625043089e-38
-0.2780445218 -0.04792343453 0.1321105212 1.625043089e-38
-0.4049241543 -0.09339983761 -0.151363045 1.625043089e-38
-0.4418245554 -0.02781498618 0.1630302817 1.625043089e-38
-0.4671553075 -0.03151990846 0.0721944049 1.625043089e-38
-0.27631706 -0.09688723087 -0.001799927908 1.625043089e-38
-0.2640068233 -0.1091427431 -0.1705203205 1.625043089e-38
-0.2464354932 -0.03791444749 0.1524231285 1.625043089e-38
-0.380291909 -0.0591981113 0.110929586 1.625043089e-38
-0.2841674685 -0.06013477221 0.1212025881 1.625043089e-38
-0.3646526933 -0.09561944753 -0.1699077636 1.625043089e-38
-0.3365335166 -0.02041011117 0.1642724276 1.625043089e-38
-0.4601852596 -0.04890584573 0.1230977252 1.625043089e-38
-0.2854264975 -0.07768475264 0.08858072758 1.625043089e-38
-0.3054876029 -0.1058999225 -0.1525137424 1.625043089e-38
-0.2890071571 -0.03023376316 0.1608523726 1.625043089e-38
-0.4233808219 -0.06762193143 0.06935665756 1.625043089e-38
-0.2854354978 -0.07145141065 0.1052327976 1.625043089e-38
-0.3367058635 -0.1005320773 -0.1551439315 1.625043089e-38
-0.3156406283 -0.02236673981 0.1644943953 1.625043089e-38
-0.4535378218 -0.06608068198 0.07265523821 1.625043089e-38
-0.3571966887 -0.0394702293 0.1392709166 1.625043089e-38
-0.3856160641 -0.09244196117 -0.1201535687 1.625043089e-38
-0.3809804022 -0.01962494105 0.1650639772 1.625043089e-38
-0.474665612 -0.04279525205 0.1377342194 1.625043089e-38
-0.4177923501 -0.04794758558 0.1372419 1.625043089e-38
-0.341742903 -0.07047663629 0.09904138744 1.625043089e-38
-0.3259204924 -0.04891882464 0.1309274286 1.625043089e-38
-0.3917280734 -0.08043450862 -0.02007509023 1.625043089e-38
-0.4671112001 -0.04154912755 0.05535758659 1.625043089e-38
-0.435721606 -0.08269569278 -0.007769651711 1.625043089e-38
0.3201924562 -0.03012927063 -0.1829218864 1.698367293e-38
0.3985007107 -0.0341162011 -0.1816933602 1.698367293e-38
0.2581059337 -0.000244371593 -0.1807426214 1.698367293e-38
0.3402128816 -0.1324094087 -0.1711516231 1.698367293e-38
0.3582122922 -0.08447244018 -0.1847769171 1.698367293e-38
0.3647308946 0.004625041503 -0.1681092978 1.698367293e-38
0.2489006966 -0.09442912787 -0.1793237776 1.698367293e-38
0.2403709292 -0.09123234451 -0.1172673553 1.698367293e-38
0.2938528359 -0.005760486703 -0.1371456236 1.698367293e-38
0.3623129725 -0.1099728495 -0.1768645346 1.698367293e-38
0.256493479 -0.02441917546 -0.1798856854 1.698367293e-38
0.3103401959 -0.1468268335 -0.1651887596 1.698367293e-38
0.3582957983 -0.01630208082 -0.1826675236 1.698367293e-38
0.4090295732 -0.05912995711 -0.1815067381 1.698367293e-38
0.2726601362 -0.08468322456 -0.175092116 1.698367293e-38
0.2600264847 -0.1162272468 -0.1383260489 1.698367293e-38
0.3102661371 0.008666588925 -0.1576503813 1.698367293e-38
0.3837550879 -0.09306517243 -0.1789726317 1.698367293e-38
0.2564746141 -0.05691494048 -0.1753016412 1.698367293e-38
0.2874006927 -0.1401968449 -0.1593126953 1.698367293e-38
0.3248851597 0.0117563922 -0.173889786 1.698367293e-38
0.4065393507 -0.07368132472 -0.181118384 1.698367293e-38
0.2924052477 -0.009838218801 -0.1818591952 1.698367293e-38
0.306486845 -0.1436116993 -0.1773328483 1.698367293e-38
0.3485908508 -0.06343084574 -0.184332028 1.698367293e-38
0.3746716976 -0.05728482828 -0.1832974851 1.698367293e-38
0.2640907466 -0.1251115352 -0.1850652099 1.698367293e-38
0.3467046916 -0.1081230417 -0.1830908358 1.698367293e-38
0.3183306754 -0.09663049132 -0.1839805841 1.698367293e-38
0.2991645038 -0.1243296489 -0.1827983558 1.698367293e-38
0.2926793993 -0.07444238663 -0.1812592298 1.698367293e-38
0.282494247 -0.1387629062 -0.1784237772 1.698367293e-38
0.1192925051 0.09385304898 0.09406366199 1.771655483e-38
-0.00773687847 0.1296877861 0.1185093597 1.771655483e-38
-0.1249781922 0.1379297525 0.06334725022 1.771655483e-38
-0.1890731007 0.136264652 0.09778706729 1.771655483e-38
0.1392251849 0.07743900269 0.1034573317 1.771655483e-38
0.04490765557 0.1198656559 0.121890761 1.771655483e-38
-0.2966892123 0.1330792159 0.06419771165 1.771655483e-38
-0.3406637907 0.1266232431 0.0744638592 1.771655483e-38
-0.04746626318 0.1361944079 0.06821101159 1.771655483e-38
-0.1493220776 0.1352438033 0.103689447 1.771655483e-38
-0.1490591019 0.1365530789 0.08714909106 1.771655483e-38
-0.2318454534 0.1362691224 0.09293524921 1.771655483e-38
0.0903820768 0.1098216623 0.08969947696 1.771655483e-38
-0.04897157848 0.132521525 0.1128945202 1.771655483e-38
-0.2479035854 0.1356307864 0.07384992391 1.771655483e-38
-0.3006530702 0.1326715797 0.08261308819 1.771655483e-38
0.005595655646 0.1337828487 0.08031634241 1.771655483e-38
-0.12194065 0.1344296187 0.1043136492 1.771655483e-38
-0.2036590278 0.1365117431 0.08097409457 1.771655483e-38
-0.2687158585 0.135486275 0.08717431873 1.771655483e-38
0.0499862358 0.123314172 0.0851124078 1.771655483e-38
-0.08789648861 0.1335620284 0.1090986878 1.771655483e-38
-0.09455128014 0.1371688843 0.08289321512 1.771655483e-38
-0.01408441365 0.135961473 0.08756726235 1.771655483e-38
0.1210172772 0.08758556098 0.1218899265 1.771655483e-38
0.1082705855 0.07927764207 0.1490116268 1.771655483e-38
-0.03667395189 0.1356811672 0.09589294344 1.771655483e-38
-0.1802914143 0.1371489167 0.0615770556 1.771655483e-38
0.09133075178 0.1086781248 0.1086202115 1.771655483e-38
0.06936370581 0.105534777 0.1382123977 1.771655483e-38
0.04344528913 0.1225526035 0.1105688736 1.771655483e-38
0.008460643701 0.1310866177 0.09911696613 1.771655483e-38
-0.2661441565 -0.03234771639 -0.1014847904 1.844943813e-38
-0.2603320181 -0.07041653246 0.07058814913 1.844943813e-38
-0.2234678417 -0.1372749954 -0.08985698968 1.844943813e-38
-0.34035182 0.04359718785 -0.1738410741 1.844943813e-38
-0.2922652364 0.00558156753 -0.1900654882 1.844943813e-38
-0.2874422967 -0.0196038913 0.06016840041 1.844943813e-38
-0.2360520065 -0.132294789 -0.2225302607 1.844943813e-38
-0.3012364209 -0.04068501666 0.1466371119 1.844943813e-38
-0.2632188201 -0.06430704147 -0.2106880099 1.844943813e-38
-0.2249799371 -0.1294383407 0.05582548305 1.844943813e-38
-0.2253171355 -0.133955881 -0.1347543299 1.844943813e-38
-0.322886616 0.009950725362 -0.01963417046 1.844943813e-38
-0.2698058784 -0.02634607628 -0.1273391843 1.844943813e-38
-0.2583684325 -0.08099477738 0.1411416978 1.844943813e-38
-0.229415521 -0.1288415939 -0.2047480345 1.844943813e-38
-0.3442120254 -0.001742326771 0.1164188609 1.844943813e-38
-0.2673965693 -0.03484171256 -0.1976160854 1.844943813e-38
-0.2299069017 -0.1273303032 0.1217720136 1.844943813e-38
-0.2270500064 -0.1333301365 -0.1704832911 1.844943813e-38
-0.3459772766 0.01272061188 0.07441737503 1.844943813e-38
-0.2697209716 -0.02813898213 -0.1673763096 1.844943813e-38
-0.2433725297 -0.1067987382 0.14188537 1.844943813e-38
-0.2496909946 -0.09457727522 -0.1883216351 1.844943813e-38
-0.320412159 0.01037564408 -0.08176594228 1.844943813e-38
-0.2896264493 -0.001744041336 -0.1328703761 1.844943813e-38
-0.2713474333 -0.05039796606 0.1188679263 1.844943813e-38
-0.3131277263 -0.01231700927 -0.1952445656 1.844943813e-38
-0.2644878924 -0.05427322164 -0.01933998056 1.844943813e-38
-0.2423336208 -0.08266565949 -0.1398571581 1.844943813e-38
-0.2444206625 -0.1058978438 0.007992275991 1.844943813e-38
-0.2526542246 -0.09140665829 -0.08149994165 1.844943813e-38
-0.3831615448 0.04760450497 -0.1280574352 1.844943813e-38
-0.4359974563 -0.1011247486 -0.07411539555 1.91819627e-38
-0.330326885 -0.03151618317 -0.1773953736 1.91819627e-38
-0.3616535068 -0.1001369357 -0.1861088127 1.91819627e-38
-0.2551129162 -0.04213004559 -0.1592199951 1.91819627e-38
-0.3944246471 -0.09964796901 -0.08483942598 1.91819627e-38
-0.3126509488 -0.08576621115 -0.1842276752 1.91819627e-38
-0.3467723727 -0.006395938341 -0.1442955583 1.91819627e-38
-0.1622901112 -0.1088980436 0.02236004546 1.91819627e-38
-0.3498329222 -0.1308807284 -0.1555193663 1.91819627e-38
-0.2626382411 -0.04296322912 -0.04518257454 1.91819627e-38
-0.3656920791 -0.07809572667 -0.1878212541 1.91819627e-38
-0.2357033044 -0.0500388816 -0.1177390143 1.91819627e-38
-0.3975565135 -0.1073586792 -0.1199324131 1.91819627e-38
-0.2838113606 -0.05778281763 -0.1737679243 1.91819627e-38
-0.3577260673 -0.01324600726 -0.1761324704 1.91819627e-38
-0.1939471662 -0.08472636342 -0.02236592211 1.91819627e-38
-0.3496463895 -0.1217609122 -0.1377568096 1.91819627e-38
-0.2813943326 -0.02820486762 -0.09523807466 1.91819627e-38
-0.3564670682 -0.04053528607 -0.1825038642 1.91819627e-38
-0.2099265456 -0.06653286517 -0.07524842769 1.91819627e-38
-0.3659372926 -0.1141068935 -0.1270028502 1.91819627e-38
-0.2871115506 -0.02761550061 -0.1597167104 1.91819627e-38
-0.2882826924 -0.1292630434 -0.1440752745 1.91819627e-38
-0.2178325951 -0.07679249346 -0.1671168357 1.91819627e-38
-0.3505843878 -0.109176822 -0.104739897 1.91819627e-38
-0.240374893 -0.1272655874 -0.1357495785 1.91819627e-38
-0.1934743971 -0.125421524 -0.139819026 1.91819627e-38
-0.1438118964 -0.1089196578 -0.05098276585 1.91819627e-38
-0.244415462 -0.0994246304 -0.1732881367 1.91819627e-38
-0.09149494022 -0.1243598014 -0.1237204671 1.91819627e-38
-0.3018645346 -0.1177248806 -0.1092645228 1.91819627e-38
-0.1325333267 -0.1194244474 -0.1484777629 1.91819627e-38
0.2861800492 -0.1459989697 -0.184653908 1.991448586e-38
0.09038507938 -0.1288073063 -0.131157279 1.991448586e-38
0.2084244341 -0.1293050796 -0.1475879699 1.991448586e-38
-0.1262777299 -0.130126819 -0.1424393654 1.991448586e-38
0.3195214272 -0.1416402757 -0.1900479048 1.991448586e-38
0.130750373 -0.127876386 -0.1317262501 1.991448586e-38
0.3619545996 -0.1280954331 -0.1481788158 1.991448586e-38
-0.3377871513 -0.1309513748 -0.1711703539 1.991448586e-38
0.07199770957 -0.124325119 -0.1607280523 1.991448586e-38
-0.1282708794 -0.1292192787 -0.1560380161 1.991448586e-38
0.2725915015 -0.1463894993 -0.1546094418 1.991448586e-38
-0.1973055154 -0.1322940588 -0.1495811194 1.991448586e-38
0.178042233 -0.1287529171 -0.1499707252 1.991448586e-38
0.05300831795 -0.1306634396 -0.1376380026 1.991448586e-38
0.3316943944 -0.1419708282 -0.1526303142 1.991448586e-38
-0.2953902185 -0.1321397722 -0.1653948724 1.991448586e-38
0.1136367992 -0.1260173172 -0.1567881405 1.991448586e-38
-0.04830411449 -0.1292470545 -0.150397867 1.991448586e-38
0.3111459017 -0.1487470567 -0.1535844505 1.991448586e-38
-0.2462843955 -0.132554993 -0.1570111066 1.991448586e-38
0.1571717709 -0.1280676275 -0.1523864716 1.991448586e-38
0.004483669531 -0.1299697161 -0.1452996135 1.991448586e-38
0.2333828211 -0.1285591573 -0.1362599134 1.991448586e-38
-0.06618464738 -0.1295396239 -0.1369378567 1.991448586e-38
0.2456362545 -0.1388810873 -0.1760751307 1.991448586e-38
0.1694579422 -0.1229475811 -0.1268388331 1.991448586e-38
0.3821912408 -0.1176487505 -0.1403520703 1.991448586e-38
-0.2123679668 -0.1228926629 -0.1755569875 1.991448586e-38
0.2995545566 -0.1237731352 -0.1163603291 1.991448586e-38
0.02434779704 -0.1232319325 -0.1585957557 1.991448586e-38
0.1822937578 -0.1247813702 -0.1679881215 1.991448586e-38
-0.08596231043 -0.1222817972 -0.1654568911 1.991448586e-38
0.3992574513 -0.03334476799 0.1434979439 2.06466517e-38
0.2765901983 -0.02411208116 0.1772325486 2.06466517e-38
0.4641956985 -0.04313277453 0.08349315077 2.06466517e-38
0.1817880571 -0.09505665302 0.07265625149 2.06466517e-38
0.3640508056 -0.02945147455 0.1803826243 2.06466517e-38
0.2635400593 -0.02683433332 0.1622906923 2.06466517e-38
0.4619947374 -0.0530041866 -0.08813268691 2.06466517e-38
0.2400131971 -0.03354401141 0.140939787 2.06466517e-38
0.4600561857 -0.03879269958 0.1427941769 2.06466517e-38
0.3491318822 -0.02934970334 0.1727050692 2.06466517e-38
0.4639766812 -0.04628704488 0.0241470281 2.06466517e-38
0.2112475783 -0.06495895982 0.1023948714 2.06466517e-38
0.3961936533 -0.03203480691 0.175612092 2.06466517e-38
0.2997111082 -0.02596407197 0.1663104743 2.06466517e-38
0.4626647234 -0.05071223527 -0.05054681376 2.06466517e-38
0.216675356 -0.04358120635 0.1243816614 2.06466517e-38
0.4452191591 -0.03666569665 0.1594817489 2.06466517e-38
0.3305371404 -0.02793914638 0.1710211635 2.06466517e-38
0.4636936188 -0.04840199277 -0.01412001345 2.06466517e-38
0.2044457048 -0.05419552326 0.111797981 2.06466517e-38
0.4199236333 -0.03419570997 0.1697668731 2.06466517e-38
0.3154549003 -0.02687507868 0.1687885225 2.06466517e-38
0.46330145 -0.04180974141 0.10823562 2.06466517e-38
0.1987252533 -0.08099734783 0.09140674025 2.06466517e-38
0.3723932207 -0.03132168204 0.1486417353 2.06466517e-38
0.2903712988 -0.02776350826 0.1216292083 2.06466517e-38
0.461320132 -0.04495702684 0.05585131794 2.06466517e-38
0.2537328005 -0.03424274176 0.1246081218 2.06466517e-38
0.4528512657 -0.04035973176 0.1160322279 2.06466517e-38
0.3325606883 -0.0280018989 0.1318933666 2.06466517e-38
0.3565304577 -0.05114031583 0.0992359519 2.06466517e-38
0.1848056018 -0.10196843 0.04873585701 2.06466517e-38
-0.04055835307 0.1419246048 -0.009312241338 2.137881613e-38
-0.2592475414 0.1416505426 -0.07331137359 2.137881613e-38
0.1392878443 0.08449882269 -0.09365061671 2.137881613e-38
-0.4264995754 0.08379872143 -0.07867134362 2.137881613e-38
-0.0922061801 0.1457467824 -0.02589546703 2.137881613e-38
-0.23229222 0.1444654167 -0.05016031116 2.137881613e-38
0.3845908642 -0.07348528504 -0.1119875833 2.137881613e-38
-0.2797331512 0.1370731294 -0.06900164485 2.137881613e-38
0.2484650463 0.00382919237 -0.06969566643 2.137881613e-38
-0.08574180305 0.1431504339 -0.05555884168 2.137881613e-38
0.2036035806 0.0437444821 -0.1104327366 2.137881613e-38
-0.3764855266 0.1111837476 -0.100942187 2.137881613e-38
0.02268938161 0.1379990876 -0.02704112232 2.137881613e-38
-0.2022185624 0.1487426907 -0.05385938287 2.137881613e-38
0.3021015227 -0.02204772457 -0.1082709506 2.137881613e-38
-0.3071988523 0.1343845278 -0.08259049058 2.137881613e-38
0.1593753695 0.06773365289 -0.05000729114 2.137881613e-38
-0.11997132 0.1447698176 -0.06379902363 2.137881613e-38
0.2537788749 0.009207972325 -0.1080370992 2.137881613e-38
-0.3473127782 0.1256149262 -0.09541071206 2.137881613e-38
0.08681119233 0.122342892 -0.03227981552 2.137881613e-38
-0.1672950834 0.1464558691 -0.05797570944 2.137881613e-38
0.06787983328 0.1214029342 -0.08248702437 2.137881613e-38
-0.3986786008 0.0947618112 -0.1117006913 2.137881613e-38
-0.03421135247 0.1425087601 -0.03814764321 2.137881613e-38
-0.1658523679 0.1475161314 -0.0300479196 2.137881613e-38
0.3448228538 -0.05448873714 -0.08409350365 2.137881613e-38
-0.2069093734 0.1425794661 -0.01553043257 2.137881613e-38
0.1024647504 0.1068955809 0.00460169185 2.137881613e-38
-0.1136610508 0.1454043388 -0.004324520938 2.137881613e-38
0.03896283731 0.1314918697 -0.003669603029 2.137881613e-38
0.09936562181 0.1133045033 -0.02400769852 2.137881613e-38
-0.2349021286 -0.120007053 0.08015387505 2.211062324e-38
-0.1713293046 -0.1227077693 0.06810960174 2.211062324e-38
-0.394887954 -0.1123341992 0.070999749 2.211062324e-38
-0.02976079285 -0.1238397285 0.06996162236 2.211062324e-38
-0.2555870116 -0.1197733879 0.07445763797 2.211062324e-38
-0.2036171108 -0.1215955913 0.07349761575 2.211062324e-38
-0.4701874852 -0.0996870473 -0.1159138754 2.211062324e-38
0.2153071314 -0.1151495799 0.09899047017 2.211062324e-38
-0.4150549471 -0.1090452 0.08901008964 2.211062324e-38
-0.05214832723 -0.1227777898 0.08313228935 2.211062324e-38
-0.4689441323 -0.1002171487 -0.004686965141 2.211062324e-38
0.08774790913 -0.1205901951 0.0788833946 2.211062324e-38
-0.3126699328 -0.1170515046 0.08234426379 2.211062324e-38
-0.1392062753 -0.1225770563 0.07716726512 2.211062324e-38
-0.4761019051 -0.09856247157 -0.07276847959 2.211062324e-38
0.161773473 -0.1175802425 0.08821433783 2.211062324e-38
-0.3816964328 -0.1122173071 0.08982730657 2.211062324e-38
-0.08394547552 -0.1226525381 0.08189681917 2.211062324e-38
-0.4773645401 -0.09849693626 -0.04717327654 2.211062324e-38
0.1173604876 -0.1194177717 0.08224832267 2.211062324e-38
-0.3400497735 -0.1152331829 0.08584284782 2.211062324e-38
-0.1143626943 -0.1225366145 0.07938835025 2.211062324e-38
-0.4330993891 -0.1061837673 0.05844580382 2.211062324e-38
0.01373130176 -0.1232020557 0.07103113085 2.211062324e-38
-0.2880740762 -0.1182370037 0.08056616783 2.211062324e-38
-0.1648865789 -0.1212280765 0.08903958648 2.211062324e-38
-0.4602683783 -0.1025656834 0.02825515531 2.211062324e-38
0.05593629926 -0.1219893619 0.07008888572 2.211062324e-38
-0.3390206099 -0.1167355403 0.06552623212 2.211062324e-38
-0.06810863316 -0.1237845793 0.06759434193 2.211062324e-38
-0.4523493648 -0.103016831 0.07726670057 2.211062324e-38
-0.01478074118 -0.1223023757 0.08652873337 2.211062324e-38
-0.08126035333 0.1406964213 -0.01956404746 2.284242894e-38
0.0685955584 0.1187264323 -0.01021664031 2.284242894e-38
-0.1360218078 0.1453145146 0.02814288624 2.284242894e-38
0.05350477248 0.1239827052 0.05648459122 2.284242894e-38
-0.003349798266 0.1371075213 -0.02512107417 2.284242894e-38
-0.008539334871 0.1332069486 0.02817591093 2.284242894e-38
-0.3190408051 0.1373446584 0.03802670538 2.284242894e-38
0.1660972685 0.05929955095 0.06946831197 2.284242894e-38
-0.01715701818 0.1296910346 0.05814312771 2.284242894e-38
0.1508633643 0.07463169843 0.03175791353 2.284242894e-38
-0.2006145716 0.1459800154 0.03213049471 2.284242894e-38
0.08710330725 0.1087015495 0.06406098604 2.284242894e-38
-0.0919771716 0.1410001665 0.03937334195 2.284242894e-38
0.04699683562 0.129177317 0.02232749015 2.284242894e-38
-0.2692160606 0.1436339468 0.04294105247 2.284242894e-38
0.1397211701 0.08085890859 0.06515940279 2.284242894e-38
-0.04672029242 0.1344526708 0.05180586502 2.284242894e-38
0.1134376153 0.09671622515 0.02832816169 2.284242894e-38
-0.2421398163 0.144855082 0.03729140759 2.284242894e-38
0.1145239696 0.09635385871 0.0643658489 2.284242894e-38
-0.06968575716 0.1385196298 0.0434307307 2.284242894e-38
0.07852759957 0.1141414568 0.02549650706 2.284242894e-38
-0.1658366024 0.1445877999 0.03899190202 2.284242894e-38
0.02205505967 0.1255095452 0.06085135415 2.284242894e-38
0.03783352301 0.1354800761 -0.008800599724 2.284242894e-38
0.02028169297 0.1299841553 0.02984642051 2.284242894e-38
-0.206793353 0.1422623247 0.05236316472 2.284242894e-38
-0.0435680002 0.1389458627 0.01737617142 2.284242894e-38
-0.3432042301 0.131594792 0.02751155198 2.284242894e-38
0.136777252 0.08465108275 0.006898025516 2.284242894e-38
-0.1107877195 0.1379683316 0.06050582975 2.284242894e-38
-0.1034043357 0.1433275342 0.02701859362 2.284242894e-38
-0.05820639431 0.09340346605 -0.1464330405 2.348204041e-38
-0.1541021764 0.1177078709 -0.1376104951 2.348204041e-38
-0.4009030163 0.07818249613 -0.1271682531 2.348204041e-38
-0.2941673994 0.08950363845 -0.14777188 2.348204041e-38
-0.02135385759 0.08369559795 -0.1487293392 2.348204041e-38
-0.2031750232 0.1159946322 -0.1378659159 2.348204041e-38
