# .PCD v0.7 - Point Cloud Data file format
VERSION 0.7
FIELDS x y z rgb
SIZE 4 4 4 4
TYPE F F F F
COUNT 1 1 1 1
WIDTH 831
HEIGHT 1
VIEWPOINT 0 0 0 1 0 0 0
POINTS 831
DATA ascii
-0.3554151356 0.1076580435 -0.04021425545 1.037659831e-38
-0.2296295762 0.1451563835 -0.06931973249 1.037659831e-38
0.0212024916 0.1454043239 -0.04145600274 1.037659831e-38
0.1890906245 0.07132235914 -0.03854710236 1.037659831e-38
-0.3652833998 0.08757055551 0.008934394456 1.037659831e-38
-0.2866833806 0.134352088 -0.07352532446 1.037659831e-38
-0.03201324493 0.1482752711 -0.04568095878 1.037659831e-38
0.2283326536 0.05935928598 -0.03873851895 1.037659831e-38
-0.3214452863 0.04528148845 0.1023852453 1.037659831e-38
-0.3195574582 0.1016577259 -0.006740304176 1.037659831e-38
-0.09944549203 0.1494963318 -0.05250718817 1.037659831e-38
-0.2884578407 -0.02588584088 -0.1411679536 1.111163541e-38
-0.3276682198 0.01149277855 0.1489598453 1.111163541e-38
-0.3045410514 0.008639753796 0.10802228 1.111163541e-38
-0.2684284747 -0.0989369154 -0.1698385775 1.111163541e-38
-0.351241678 -0.1122595444 -0.1798257381 1.111163541e-38
-0.2706902325 -0.02662602253 0.1692345291 1.111163541e-38
-0.2983531356 -0.007925523445 -0.09940629452 1.111163541e-38
-0.2461402118 -0.04414115474 -0.1341288984 1.111163541e-38
-0.3655037284 -0.09568023682 -0.1803763807 1.111163541e-38
-0.2895492017 -0.02669018507 0.1656921059 1.111163541e-38
-0.2948338091 -0.008368222043 -0.09376969934 1.111163541e-38
-0.2505812943 -0.04283805192 -0.1474799514 1.111163541e-38
-0.2990166247 -0.1414916962 -0.1793478876 1.111163541e-38
-0.2172000557 -0.02737011947 0.1694850922 1.111163541e-38
-0.3144593835 -0.01250968408 -0.1456291378 1.111163541e-38
-0.2481232584 -0.03685916215 -0.0573538579 1.111163541e-38
-0.3681570888 -0.08735762537 -0.1804124862 1.111163541e-38
-0.2971888781 -0.02601486444 0.1642546058 1.111163541e-38
-0.2915139198 -0.008684968576 -0.08774209023 1.111163541e-38
-0.2515215278 -0.04238040745 -0.1550722122 1.111163541e-38
-0.3542581797 -0.07251850516 -0.1790526658 1.111163541e-38
-0.3110320568 -0.02287200466 0.1626661867 1.111163541e-38
-0.2858817875 -0.004929249175 -0.0675182417 1.111163541e-38
-0.2568264604 -0.04934708029 -0.1671679318 1.111163541e-38
-0.3503446877 -0.1142277494 -0.1798920631 1.111163541e-38
-0.2687982321 -0.02683612704 0.1690580398 1.111163541e-38
-0.2960188687 -0.01015688572 -0.1009613201 1.111163541e-38
-0.2452968806 -0.04432773218 -0.1339269578 1.111163541e-38
-0.2787283361 -0.1393767297 -0.1773970574 1.111163541e-38
-0.1851380169 -0.02861794084 0.1681126207 1.111163541e-38
-0.3174433112 -0.0132991951 -0.1529831886 1.111163541e-38
-0.2630389929 -0.02202165127 0.01215254329 1.111163541e-38
0.2565556169 -0.01364301424 -0.1314729899 1.184631237e-38
-0.3438605368 -0.04868370667 -0.1495894492 1.184631237e-38
-0.09845846146 -0.05583919585 -0.1789576262 1.184631237e-38
0.2112149894 -0.004124826752 -0.09706229717 1.184631237e-38
0.3298219442 -0.02259214222 -0.119021982 1.184631237e-38
0.0572610721 -0.03342318907 -0.1606570333 1.184631237e-38
0.246627152 -0.02965766378 -0.1554719061 1.184631237e-38
-0.2334885746 -0.0355800055 -0.1483943313 1.184631237e-38
0.3189927936 -0.02076854557 -0.1205415949 1.184631237e-38
0.0005200430169 -0.03717764467 -0.1613848507 1.184631237e-38
0.2362332493 -0.02821316384 -0.1550133526 1.184631237e-38
-0.2676433325 -0.03707937524 -0.1380420178 1.184631237e-38
0.3568561375 -0.02644817531 -0.1133868545 1.184631237e-38
0.1672514528 -0.02241483331 -0.1531298608 1.184631237e-38
0.2926920056 -0.03145019338 -0.1485846937 1.184631237e-38
0.01435432304 -0.02704473399 -0.1501623243 1.184631237e-38
0.3129541278 -0.01969531178 -0.1211682111 1.184631237e-38
-0.04214543477 -0.03874237835 -0.1614077687 1.184631237e-38
0.2238220721 -0.02849772573 -0.1564648002 1.184631237e-38
-0.2926320136 -0.03823943436 -0.1280326247 1.184631237e-38
0.2971605957 -0.01703276485 -0.1236328185 1.184631237e-38
-0.1732777059 -0.04395498335 -0.1620385349 1.184631237e-38
0.1805829108 -0.03194706514 -0.1631483734 1.184631237e-38
-0.2876468897 -0.03507297114 -0.1103562415 1.184631237e-38
0.3282515109 -0.02232840471 -0.1192538589 1.184631237e-38
0.04476870596 -0.03409559652 -0.1603476256 1.184631237e-38
0.2457394302 -0.02914558165 -0.1549316794 1.184631237e-38
-0.2438369393 -0.03579673171 -0.1477336437 1.184631237e-38
0.3628690243 -0.02702241205 -0.1109174415 1.184631237e-38
0.1789631099 -0.02089464478 -0.1508578211 1.184631237e-38
0.2966846824 -0.0346327275 -0.1517415345 1.184631237e-38
0.05668801814 -0.02428408712 -0.1488475949 1.184631237e-38
0.0151485987 0.04387468845 -0.1610261798 1.258099074e-38
-0.2256949395 0.0482868664 -0.1641036719 1.258099074e-38
-0.1228005812 0.0395065248 -0.1642597914 1.258099074e-38
-0.1395521611 0.04273914918 -0.1661394835 1.258099074e-38
0.09891441464 0.04068009555 -0.1571034342 1.258099074e-38
-0.3184687793 0.05396253243 -0.1578352451 1.258099074e-38
-0.0639475584 0.03976333514 -0.162271142 1.258099074e-38
-0.1989574581 0.04489661753 -0.1653105468 1.258099074e-38
0.08609066904 0.0414048247 -0.1581618488 1.258099074e-38
-0.3061899245 0.05367778242 -0.1588550955 1.258099074e-38
-0.0726730153 0.03868775442 -0.162142992 1.258099074e-38
-0.1895840168 0.04504549503 -0.1656802297 1.258099074e-38
0.1279182285 0.03737626225 -0.1536560208 1.258099074e-38
-0.3474479616 0.05384764075 -0.1554170251 1.258099074e-38
-0.03110805526 0.04130017757 -0.1623273492 1.258099074e-38
-0.2477411777 0.04876245558 -0.1623955369 1.258099074e-38
0.07941027731 0.04206638783 -0.1588128209 1.258099074e-38
-0.2981422544 0.0534158498 -0.1594890207 1.258099074e-38
-0.07725718617 0.038078513 -0.1620908231 1.258099074e-38
-0.1870825291 0.04513063654 -0.1657869816 1.258099074e-38
0.06567229331 0.04351693764 -0.1600041389 1.258099074e-38
-0.2783779204 0.05319298059 -0.1609151363 1.258099074e-38
-0.08878050745 0.03659310192 -0.162007913 1.258099074e-38
-0.1795449555 0.04494345188 -0.1659427583 1.258099074e-38
0.0975382179 0.04072071984 -0.15718925 1.258099074e-38
-0.3169187903 0.05391800404 -0.1579872221 1.258099074e-38
-0.06631035358 0.03947431967 -0.1622407734 1.258099074e-38
-0.2009595037 0.04495560005 -0.1652514189 1.258099074e-38
0.1354161203 0.03600750491 -0.1518491954 1.258099074e-38
-0.3587434292 0.05408876762 -0.1546585411 1.258099074e-38
-0.0256827306 0.04130675271 -0.162134245 1.258099074e-38
-0.264624089 0.05019427463 -0.1614755839 1.258099074e-38
0.4788978696 -0.1234952062 0.03443323076 1.331530897e-38
0.3767995834 -0.1238273755 -0.1817521602 1.331530897e-38
0.4663899541 -0.1337146163 -0.03508841991 1.331530897e-38
0.4766028523 -0.1226121783 0.06129425764 1.331530897e-38
0.481338352 -0.126594469 -0.05379321799 1.331530897e-38
0.2615572214 -0.1222052798 -0.1863601804 1.331530897e-38
0.4210155606 -0.1186995953 -0.162834987 1.331530897e-38
0.4731732011 -0.1185503229 0.1247064546 1.331530897e-38
0.4822264612 -0.1272146404 -0.03581527993 1.331530897e-38
0.2889656425 -0.124005504 -0.1885881126 1.331530897e-38
0.4374155998 -0.1233870983 -0.1356709301 1.331530897e-38
0.4738689363 -0.1191285178 0.1199341044 1.331530897e-38
0.4731679559 -0.130044207 -0.08584796637 1.331530897e-38
0.2122530639 -0.119097434 -0.1837225109 1.331530897e-38
0.380425185 -0.1235823333 -0.1840383708 1.331530897e-38
0.4544077814 -0.1175576225 0.1576074511 1.331530897e-38
0.4827911556 -0.1274050921 -0.02583048679 1.331530897e-38
0.2997343838 -0.1241351962 -0.1886205524 1.331530897e-38
0.4444228709 -0.1262170672 -0.1219941601 1.331530897e-38
0.4739614427 -0.1194543168 0.1169310361 1.331530897e-38
0.4834371209 -0.1268827617 -0.005056725349 1.331530897e-38
0.32558918 -0.1249759048 -0.1876287609 1.331530897e-38
0.4492396414 -0.1340404153 -0.102862753 1.331530897e-38
0.4747121036 -0.120582521 0.1031261906 1.331530897e-38
0.481844902 -0.1268506497 -0.04317063838 1.331530897e-38
0.269757539 -0.1227068603 -0.1873289198 1.331530897e-38
0.4280392528 -0.1206993535 -0.1513845026 1.331530897e-38
0.4730824232 -0.1186255515 0.1247129813 1.331530897e-38
0.4727176428 -0.1304524243 -0.08099581301 1.331530897e-38
0.200209111 -0.1181819811 -0.1826770604 1.331530897e-38
0.3688525259 -0.1243316904 -0.1858311445 1.331530897e-38
0.4324201345 -0.114537172 0.1592297703 1.331530897e-38
-0.1523163319 -0.03936827183 -0.1810839176 1.404926846e-38
0.1445383579 0.01209308859 -0.1818322092 1.404926846e-38
-0.09912475944 -0.05339800194 -0.1813870519 1.404926846e-38
0.3638671935 -0.01859655045 -0.1729764789 1.404926846e-38
-0.2761631906 -0.0370079577 -0.1797774881 1.404926846e-38
0.001537895529 -0.008127560839 -0.1798989922 1.404926846e-38
0.04764275253 -0.03176790103 -0.181218341 1.404926846e-38
0.2030574977 0.01571571268 -0.1805588901 1.404926846e-38
-0.2635253966 -0.03673025593 -0.180513829 1.404926846e-38
0.02278786898 -0.006783392746 -0.1801920384 1.404926846e-38
0.0286653582 -0.0374664478 -0.1811441481 1.404926846e-38
0.2258582115 0.01653497852 -0.180580005 1.404926846e-38
-0.3037943542 -0.03901334107 -0.1603829265 1.404926846e-38
-0.04831786454 -0.01751700416 -0.1799442619 1.404926846e-38
0.09943504632 -0.007718417328 -0.1797846854 1.404926846e-38
0.1395256966 0.007847464643 -0.1804738343 1.404926846e-38
-0.2567437291 -0.03675323725 -0.1806861609 1.404926846e-38
0.03194406629 -0.00651542563 -0.1803961098 1.404926846e-38
0.01774759404 -0.03983226791 -0.1810032576 1.404926846e-38
0.2383982539 0.0164293386 -0.1802745312 1.404926846e-38
-0.2339891642 -0.03753955662 -0.1815033257 1.404926846e-38
0.06403244287 -0.004435977899 -0.1808400303 1.404926846e-38
-0.02531425655 -0.0478227213 -0.1812926382 1.404926846e-38
0.2652032673 0.01587314159 -0.1786603928 1.404926846e-38
-0.2752709985 -0.03678912297 -0.1795970798 1.404926846e-38
0.006360153668 -0.007750426885 -0.1800730824 1.404926846e-38
0.04754799977 -0.03286333382 -0.1810673326 1.404926846e-38
0.2049259692 0.01496468484 -0.1806680411 1.404926846e-38
-0.3122496009 -0.04003350809 -0.1502093673 1.404926846e-38
-0.06276552379 -0.02154641785 -0.1799167097 1.404926846e-38
0.1150238886 -0.006972682197 -0.1790270805 1.404926846e-38
0.1141130328 0.004059676081 -0.180065304 1.404926846e-38
-0.4821529388 -0.06430474669 0.1016326025 1.478322936e-38
-0.4869642854 -0.06666440517 -0.08383383602 1.478322936e-38
-0.4912653267 -0.06444432586 -0.0004343081673 1.478322936e-38
-0.4916421175 -0.03162780777 0.03754273057 1.478322936e-38
-0.4015493989 -0.0967888087 0.1471296102 1.478322936e-38
-0.4823084772 -0.05435334519 -0.106163688 1.478322936e-38
-0.4866406918 -0.05509260669 0.08348754048 1.478322936e-38
-0.490121007 -0.06059765071 -0.02602340095 1.478322936e-38
-0.4182749391 -0.09555776417 0.1489435285 1.478322936e-38
-0.4788665175 -0.05670848861 -0.1239118576 1.478322936e-38
-0.488345325 -0.05415042117 0.07548547536 1.478322936e-38
-0.4908061624 -0.0587952733 -0.01847889461 1.478322936e-38
-0.3619302809 -0.08931813389 0.1401666999 1.478322936e-38
-0.4837361276 -0.03951479495 -0.06323804706 1.478322936e-38
-0.4801973403 -0.05447598919 0.1189222932 1.478322936e-38
-0.4892878234 -0.06130212545 -0.03672610223 1.478322936e-38
-0.4289829433 -0.09429293871 0.1494418085 1.478322936e-38
-0.4768698514 -0.05643777549 -0.1320534647 1.478322936e-38
-0.4892266095 -0.05442010239 0.07011035085 1.478322936e-38
-0.4911444783 -0.05790159851 -0.01364231016 1.478322936e-38
-0.4492199421 -0.09135008603 0.1513607502 1.478322936e-38
-0.4778344929 -0.05969461054 -0.1296439767 1.478322936e-38
-0.4910930991 -0.05341820419 0.05872400105 1.478322936e-38
-0.4913523197 -0.05662831664 -0.006094167009 1.478322936e-38
-0.4083773196 -0.09754636884 0.1484889537 1.478322936e-38
-0.4812850952 -0.05496831983 -0.1133518592 1.478322936e-38
-0.4870680869 -0.05406872183 0.08337801695 1.478322936e-38
-0.4904535115 -0.05993989483 -0.02257552184 1.478322936e-38
-0.3506537974 -0.08317127824 0.1394945532 1.478322936e-38
-0.4839602113 -0.03162545711 -0.05148046464 1.478322936e-38
-0.4790571332 -0.0524931401 0.1336292177 1.478322936e-38
-0.48895666 -0.06177164242 -0.04148619249 1.478322936e-38
-0.3476484418 0.05243905261 -0.0257647261 1.551683013e-38
-0.2529225945 -0.05179866031 -0.03400849923 1.551683013e-38
-0.4327082634 0.06734873354 -0.02793954127 1.551683013e-38
-0.09013967961 -0.1021610722 -0.06348802894 1.551683013e-38
-0.2936969399 -0.04506305233 0.1286479533 1.551683013e-38
0.04078598693 -0.05001055449 0.1316369474 1.551683013e-38
-0.3965248168 0.02783370949 0.1552500427 1.551683013e-38
-0.2620440125 -0.003106716555 -0.09256786108 1.551683013e-38
-0.3119814992 -0.02320851944 0.1297301054 1.551683013e-38
-0.004347145092 -0.05519072339 0.1344621629 1.551683013e-38
-0.4067260623 0.03014257923 0.1447401494 1.551683013e-38
-0.2397135347 -0.03329114988 -0.09000784904 1.551683013e-38
-0.2220028341 -0.08960304409 0.125388056 1.551683013e-38
0.1399758309 -0.03995019943 0.1272426546 1.551683013e-38
-0.3235451877 -0.0009212566074 0.1769656092 1.551683013e-38
-0.304620266 0.04323586449 -0.08727227896 1.551683013e-38
-0.3274036944 0.001930486062 0.1260828972 1.551683013e-38
-0.0181229841 -0.05823184922 0.1322320849 1.551683013e-38
-0.415653646 0.03288133815 0.1349773258 1.551683013e-38
-0.2342501134 -0.04374103248 -0.08649716526 1.551683013e-38
-0.3396560848 0.02772968449 0.1067253277 1.551683013e-38
-0.08822808415 -0.06982953846 0.1152977794 1.551683013e-38
-0.4375996292 0.04093358666 0.1035305411 1.551683013e-38
-0.2168452591 -0.06086819246 -0.08935146034 1.551683013e-38
-0.2961075306 -0.0437030457 0.1264686137 1.551683013e-38
0.02860580198 -0.05125399306 0.132966429 1.551683013e-38
-0.3983368874 0.02802890912 0.1542741209 1.551683013e-38
-0.2541961074 -0.01178424526 -0.0908241272 1.551683013e-38
-0.2126669735 -0.09522756934 0.11955861 1.551683013e-38
0.1427600682 -0.03960835561 0.1268490702 1.551683013e-38
-0.3044317663 -0.02662068605 0.1729793996 1.551683013e-38
-0.3255920112 0.05110904574 -0.08647803962 1.551683013e-38
0.06064854562 -0.1255297512 0.1227277815 1.625043089e-38
-0.3460633457 -0.09678630531 0.1088541299 1.625043089e-38
0.1049485579 -0.1197680682 0.1211483404 1.625043089e-38
-0.1850185692 -0.1135424748 0.1201752648 1.625043089e-38
-0.05667992681 -0.117899172 0.122446686 1.625043089e-38
-0.4296199679 -0.09111853689 0.09892610461 1.625043089e-38
0.2236853093 -0.09341611713 0.112507306 1.625043089e-38
-0.2580055594 -0.1052535176 0.1176615506 1.625043089e-38
-0.04296325147 -0.1178472117 0.1220912263 1.625043089e-38
-0.4198290408 -0.09234625846 0.1006115228 1.625043089e-38
0.2057174295 -0.09762845933 0.1135240495 1.625043089e-38
-0.2527775168 -0.1055754572 0.117973581 1.625043089e-38
-0.1259686649 -0.1176655814 0.1213577315 1.625043089e-38
-0.4594228566 -0.08053870499 0.09421999007 1.625043089e-38
0.270414561 -0.08099530637 0.1113070771 1.625043089e-38
-0.2955426276 -0.102210097 0.11434789 1.625043089e-38
-0.03381350636 -0.1177171618 0.1219767258 1.625043089e-38
-0.4158041477 -0.09285031259 0.1012486815 1.625043089e-38
0.1920562834 -0.1006311029 0.1145742834 1.625043089e-38
-0.247781381 -0.1061781198 0.1183389872 1.625043089e-38
-0.01369879022 -0.1185936779 0.1216485053 1.625043089e-38
-0.3975756168 -0.09441484511 0.1037611067 1.625043089e-38
0.1635585129 -0.1070825979 0.1170277968 1.625043089e-38
-0.2346970439 -0.1082620174 0.1192554161 1.625043089e-38
-0.05612211674 -0.1178348884 0.1224071085 1.625043089e-38
-0.4307317138 -0.09102160484 0.0986251384 1.625043089e-38
0.2183889151 -0.0946906209 0.1125931665 1.625043089e-38
-0.2599676549 -0.1049765646 0.1175714582 1.625043089e-38
-0.148727566 -0.1162809879 0.1211600751 1.625043089e-38
-0.4572815895 -0.08102965355 0.09540340304 1.625043089e-38
0.2629280388 -0.08322323114 0.1117732674 1.625043089e-38
-0.3052039742 -0.1011425778 0.1135552675 1.625043089e-38
-0.177535221 -0.07988119125 0.1860668063 1.698367293e-38
0.1551323831 -0.07590851188 0.1875852644 1.698367293e-38
-0.2013288736 -0.07905599475 0.1865013093 1.698367293e-38
-0.004813194275 -0.08420596272 0.1876843721 1.698367293e-38
-0.08669056743 -0.08119574189 0.1880634427 1.698367293e-38
0.3066040874 -0.06764557213 0.1819647551 1.698367293e-38
-0.3066721559 -0.07635819912 0.1783734411 1.698367293e-38
0.1272041053 -0.07549408078 0.1866813451 1.698367293e-38
-0.1011382639 -0.08098258078 0.1877050996 1.698367293e-38
0.2903846502 -0.06865908206 0.183105424 1.698367293e-38
-0.2927745283 -0.07663770765 0.1782504022 1.698367293e-38
0.119304575 -0.07590769231 0.1866919249 1.698367293e-38
-0.05896300077 -0.08359543979 0.1883055419 1.698367293e-38
0.340223372 -0.0655669719 0.1798447371 1.698367293e-38
-0.3261166215 -0.07216162235 0.1758237928 1.698367293e-38
0.183624655 -0.07618899643 0.1858080178 1.698367293e-38
-0.1055292636 -0.08090592921 0.1875893921 1.698367293e-38
0.2788596451 -0.06940750778 0.1838348657 1.698367293e-38
-0.2837692201 -0.07672432065 0.1788643301 1.698367293e-38
0.1125112996 -0.07613581419 0.1867154986 1.698367293e-38
-0.1236861199 -0.08070666343 0.1873233318 1.698367293e-38
0.2516236305 -0.0713121146 0.1852912158 1.698367293e-38
-0.265568316 -0.07799529284 0.1807299703 1.698367293e-38
0.08994933218 -0.07751408964 0.1870101392 1.698367293e-38
-0.09040988237 -0.08115142584 0.1880023181 1.698367293e-38
0.2999411225 -0.06802224368 0.1825321019 1.698367293e-38
-0.3029239476 -0.0761013329 0.178085357 1.698367293e-38
0.1327055097 -0.07563456148 0.1866400987 1.698367293e-38
-0.04610667378 -0.08424086869 0.188309148 1.698367293e-38
0.3435000181 -0.06585998833 0.1796640307 1.698367293e-38
-0.3330442607 -0.07112541795 0.1753172576 1.698367293e-38
0.2090252638 -0.07549992949 0.1854792833 1.698367293e-38
0.464425832 -0.02191676944 0.02867484652 1.771655483e-38
0.4071470797 -0.03017575108 -0.1550320089 1.771655483e-38
0.4642424285 -0.03878906742 -0.08698130399 1.771655483e-38
0.4611550272 -0.03496069089 -0.09552368522 1.771655483e-38
0.4385191202 -0.005781372078 0.08202435821 1.771655483e-38
0.3361300528 -0.02755145729 -0.1672010124 1.771655483e-38
0.4703065455 -0.03874093294 -0.04441951588 1.771655483e-38
0.4254851341 -0.03400293738 -0.1417192221 1.771655483e-38
0.4433827996 -0.007639527787 0.07755831629 1.771655483e-38
0.3451092839 -0.02739000507 -0.1673699021 1.771655483e-38
0.4706054032 -0.04007069394 -0.05074073747 1.771655483e-38
0.4321299195 -0.03335209191 -0.1345839798 1.771655483e-38
0.4123539329 0.00271591614 0.1038195267 1.771655483e-38
0.3122317791 -0.03024763986 -0.1530555636 1.771655483e-38
0.4694457948 -0.03326891735 -0.01503400505 1.771655483e-38
0.4184443057 -0.03189867735 -0.1486957967 1.771655483e-38
0.4459515512 -0.009449347854 0.07215964794 1.771655483e-38
0.3490510881 -0.02738636918 -0.1673600525 1.771655483e-38
0.4707732797 -0.04077285156 -0.05382538214 1.771655483e-38
0.4337265193 -0.03179764003 -0.1299620271 1.771655483e-38
0.4540229142 -0.0149580678 0.05473947152 1.771655483e-38
0.3585901856 -0.02754745074 -0.166399613 1.771655483e-38
0.4712791741 -0.0429482609 -0.06353075057 1.771655483e-38
0.4429425597 -0.03217424452 -0.1205453575 1.771655483e-38
0.4389588833 -0.005900778342 0.0814839229 1.771655483e-38
0.3351479173 -0.02753253654 -0.1675987393 1.771655483e-38
0.4703091979 -0.0386599265 -0.04400263727 1.771655483e-38
0.4269986749 -0.0341629982 -0.1401800215 1.771655483e-38
0.4036061168 0.005493166391 0.1106884405 1.771655483e-38
0.3051454723 -0.0312234927 -0.1486865431 1.771655483e-38
0.4691146612 -0.03116584569 -0.003904874204 1.771655483e-38
0.4160570204 -0.03056962229 -0.1505638063 1.771655483e-38
0.4020706713 -0.1254237294 0.0394833535 1.844943813e-38
0.3157919049 -0.1195531189 0.1331604272 1.844943813e-38
0.2345352173 -0.1187160239 0.0512718074 1.844943813e-38
0.3628900051 -0.1230882928 0.08099230379 1.844943813e-38
0.3061350286 -0.1189210191 0.114105545 1.844943813e-38
0.4112854898 -0.1239094436 0.109052442 1.844943813e-38
0.3755065799 -0.123982951 0.03021601215 1.844943813e-38
0.1689791679 -0.1165155694 0.07134059817 1.844943813e-38
0.3265694678 -0.1196537241 0.1116304994 1.844943813e-38
0.4051558971 -0.1232137382 0.1118720248 1.844943813e-38
0.3700121939 -0.1236057281 0.04625788704 1.844943813e-38
0.2189936489 -0.1180658862 0.07834210992 1.844943813e-38
0.2622891068 -0.1179951876 0.1119781286 1.844943813e-38
0.4206140935 -0.1240932643 0.05741471052 1.844943813e-38
0.3693114817 -0.1195662692 -0.06738188863 1.844943813e-38
0.04046714678 -0.1126345322 0.03724242374 1.844943813e-38
0.3389416337 -0.1200999245 0.1092998236 1.844943813e-38
0.4019999504 -0.1228961125 0.1130823568 1.844943813e-38
0.3586992323 -0.1230797768 0.05227509886 1.844943813e-38
0.2374556661 -0.118652828 0.08090367168 1.844943813e-38
0.3622348607 -0.1211825535 0.1018968523 1.844943813e-38
0.3881051838 -0.1217735931 0.1194660515 1.844943813e-38
0.3315360248 -0.1220317408 0.05721610412 1.844943813e-38
0.268825829 -0.1194956675 0.0848582983 1.844943813e-38
0.3161692917 -0.1193268225 0.1131114215 1.844943813e-38
0.4100023806 -0.1237729788 0.1095294505 1.844943813e-38
0.3757997453 -0.123994045 0.03530266508 1.844943813e-38
0.1942560375 -0.1173104346 0.07226934284 1.844943813e-38
0.248587653 -0.1179023609 0.108078979 1.844943813e-38
0.4057618976 -0.1211037338 -0.01789960265 1.844943813e-38
0.363463074 -0.1190458387 -0.07489409298 1.844943813e-38
-0.03863827139 -0.1100565717 0.02262750268 1.844943813e-38
0.1457119286 -0.1193521768 -0.0203634873 1.91819627e-38
-0.1566888541 -0.1149517819 -0.1113905236 1.91819627e-38
0.1147227138 -0.1178733706 -0.02828472294 1.91819627e-38
0.02151610516 -0.1123614833 -0.05681812391 1.91819627e-38
-0.0001502260566 -0.1146380454 -0.05854496732 1.91819627e-38
-0.2943255305 -0.1017051414 -0.1384918988 1.91819627e-38
0.2260783613 -0.1222304031 0.001226424589 1.91819627e-38
-0.1166708991 -0.1166936308 -0.103869535 1.91819627e-38
0.01567015983 -0.1138272211 -0.05223340169 1.91819627e-38
-0.2773169875 -0.1057966053 -0.1394903809 1.91819627e-38
0.2148365825 -0.1219255105 -0.001589282067 1.91819627e-38
-0.1020601764 -0.1165418774 -0.09822755307 1.91819627e-38
-0.05011245608 -0.1161008999 -0.07642048597 1.91819627e-38
-0.3353757262 -0.08957954496 -0.1360015869 1.91819627e-38
0.2746148705 -0.1231371462 0.01103468891 1.91819627e-38
-0.1672843993 -0.1135308072 -0.1170741096 1.91819627e-38
0.0227989573 -0.1140765697 -0.0507203415 1.91819627e-38
-0.2661210597 -0.1068826318 -0.1386972815 1.91819627e-38
0.2084736824 -0.1216963679 -0.00315165217 1.91819627e-38
-0.0944416821 -0.1162980199 -0.09488107264 1.91819627e-38
0.05177832395 -0.1150127426 -0.04525507987 1.91819627e-38
-0.2409460843 -0.1086944863 -0.1325732023 1.91819627e-38
0.1895059198 -0.1209384203 -0.007818599232 1.91819627e-38
-0.08236766607 -0.1156397387 -0.09062413871 1.91819627e-38
-0.001331902226 -0.1146537811 -0.05877890065 1.91819627e-38
-0.2950418293 -0.1020799205 -0.1386600733 1.91819627e-38
0.2246453613 -0.1221775636 0.0008446497959 1.91819627e-38
-0.1103452072 -0.1166233569 -0.1012801155 1.91819627e-38
-0.07048338652 -0.1168500483 -0.08321621269 1.91819627e-38
-0.3373698294 -0.09002515674 -0.1362950802 1.91819627e-38
0.2761988938 -0.1232748702 0.01137533877 1.91819627e-38
-0.1844952404 -0.1119630113 -0.1214878112 1.91819627e-38
-0.385379225 -0.08869389445 0.1346176863 1.991448586e-38
-0.4200199544 -0.1070363298 0.1355908811 1.991448586e-38
-0.2931983769 -0.1085675806 0.1447502673 1.991448586e-38
-0.2272368371 -0.02144155465 0.1257161796 1.991448586e-38
-0.2679491639 -0.03876006231 0.1316397637 1.991448586e-38
-0.3041068316 -0.1277245283 0.1526095569 1.991448586e-38
-0.1643294543 -0.1057734042 0.1590250432 1.991448586e-38
-0.3085021973 -0.0165252462 0.1226936504 1.991448586e-38
-0.2846816778 -0.04102361202 0.1319879442 1.991448586e-38
-0.3201837838 -0.1254598796 0.1509456336 1.991448586e-38
-0.1827180833 -0.1068515927 0.1570346057 1.991448586e-38
-0.2881155908 -0.01128664333 0.1229631826 1.991448586e-38
-0.2391046882 -0.04610722512 0.1348889321 1.991448586e-38
-0.2673335671 -0.1269594282 0.154030323 1.991448586e-38
-0.04169460759 -0.09375429153 0.1645910144 1.991448586e-38
-0.3494948447 -0.03226626664 0.1255995184 1.991448586e-38
-0.2949658334 -0.04144815356 0.1319219321 1.991448586e-38
-0.3326429725 -0.1287886649 0.1499542594 1.991448586e-38
-0.2010710835 -0.1072356999 0.1548007131 1.991448586e-38
-0.2807198167 -0.0112634683 0.1232266203 1.991448586e-38
-0.3104196489 -0.04354630038 0.1314294189 1.991448586e-38
-0.3558329642 -0.131200552 0.1474460512 1.991448586e-38
-0.2451260686 -0.1060643569 0.1484230459 1.991448586e-38
-0.2662992775 -0.01097503211 0.1223542318 1.991448586e-38
-0.2752926946 -0.03887216002 0.1316249818 1.991448586e-38
-0.315410018 -0.1266309172 0.1516828686 1.991448586e-38
-0.1695611328 -0.1057455987 0.1584386677 1.991448586e-38
-0.3028124869 -0.0141703682 0.1223857924 1.991448586e-38
-0.2338170111 -0.05340982974 0.1373230815 1.991448586e-38
-0.2422512472 -0.1246735752 0.1506135613 1.991448586e-38
-0.06070378795 -0.09398631006 0.1639754027 1.991448586e-38
-0.3625670075 -0.03775049001 0.1267884821 1.991448586e-38
0.3380844891 0.02376180887 -0.11786443 2.06466517e-38
0.091830872 0.1151214689 0.05647249147 2.06466517e-38
0.2083463371 0.05386306718 0.03123748675 2.06466517e-38
0.2921330631 0.03575307876 0.03302618116 2.06466517e-38
0.2627129853 0.03918397427 -0.08625277132 2.06466517e-38
0.179457888 0.06342145801 0.01126273256 2.06466517e-38
0.3210464418 0.03067880124 -0.02362015657 2.06466517e-38
0.1754433811 0.06387238204 0.08259255439 2.06466517e-38
0.2728596926 0.03777046129 -0.08496686071 2.06466517e-38
0.1672789156 0.06884238869 0.01850149781 2.06466517e-38
0.306017369 0.03328053653 -0.01743709855 2.06466517e-38
0.1925119311 0.0571503602 0.07477150857 2.06466517e-38
0.2205617726 0.04483489692 -0.07017009705 2.06466517e-38
0.2184603959 0.05060280859 -0.009002724662 2.06466517e-38
0.3425209522 0.02565523237 -0.04875534773 2.06466517e-38
0.1548905224 0.08336785436 0.0892284736 2.06466517e-38
0.2778660357 0.03668726981 -0.08583235741 2.06466517e-38
0.159044385 0.07295817137 0.0239062421 2.06466517e-38
0.2926927805 0.03501908109 -0.01434281934 2.06466517e-38
0.2006810904 0.05479637161 0.07107655704 2.06466517e-38
0.2891585231 0.03368158638 -0.09431520104 2.06466517e-38
0.151989758 0.08724468201 0.03984868899 2.06466517e-38
0.2611047029 0.03967324272 -0.005461138207 2.06466517e-38
0.2199044079 0.05054567009 0.06315325201 2.06466517e-38
0.2660736442 0.03871878237 -0.0838617906 2.06466517e-38
0.1775030345 0.06427863985 0.01259455737 2.06466517e-38
0.3189316392 0.03106904775 -0.0243756678 2.06466517e-38
0.1780781895 0.06277167052 0.08096306771 2.06466517e-38
0.2044938505 0.0495207198 -0.05638615415 2.06466517e-38
0.2249674946 0.04828605801 -0.01185668074 2.06466517e-38
0.3390473127 0.02602793463 -0.05210728198 2.06466517e-38
0.1273513585 0.09378600866 0.08732543886 2.06466517e-38
-0.2506994903 0.016340537 -0.1864782274 2.137881613e-38
-0.3373965323 -0.05033611134 -0.1840682775 2.137881613e-38
-0.3218386173 -0.02118531242 -0.1858027726 2.137881613e-38
-0.3968861103 -0.04778404906 -0.1779151559 2.137881613e-38
-0.3652916849 -0.0159552712 -0.1815149188 2.137881613e-38
-0.2206371129 -0.06040950865 -0.1857037395 2.137881613e-38
-0.2182642519 -0.002737107454 -0.1859963685 2.137881613e-38
-0.3292266726 -0.07798291743 -0.18301633 2.137881613e-38
-0.3579213023 -0.01319032069 -0.182484597 2.137881613e-38
-0.239696607 -0.06106321141 -0.1855708212 2.137881613e-38
-0.2357478738 -0.006245286204 -0.1863400042 2.137881613e-38
-0.3384306431 -0.07255896181 -0.1829347312 2.137881613e-38
-0.3954164386 -0.02664399333 -0.1771912128 2.137881613e-38
-0.1670235395 -0.06198053807 -0.185531646 2.137881613e-38
-0.1709165126 0.001266128616 -0.1830316037 2.137881613e-38
-0.2937786281 -0.07837990671 -0.1835658848 2.137881613e-38
-0.3534821868 -0.01224077493 -0.1829124987 2.137881613e-38
-0.2492808402 -0.0612732172 -0.1854378432 2.137881613e-38
-0.2434628904 -0.007688691374 -0.1864841878 2.137881613e-38
-0.3440500796 -0.06982910633 -0.1827804148 2.137881613e-38
-0.3362833858 -0.007888512686 -0.1844951361 2.137881613e-38
-0.2695153952 -0.06053673849 -0.1855282038 2.137881613e-38
-0.2633286417 -0.01091590151 -0.1869886667 2.137881613e-38
-0.3575541079 -0.06548700482 -0.1822227985 2.137881613e-38
-0.3661704361 -0.0169970803 -0.1813180149 2.137881613e-38
-0.2207292914 -0.05932385102 -0.1857420653 2.137881613e-38
-0.2221703231 -0.003388389945 -0.1860904694 2.137881613e-38
-0.3295536041 -0.07563344389 -0.1832117587 2.137881613e-38
-0.4014604688 -0.02607390471 -0.1766542047 2.137881613e-38
-0.144665584 -0.06146420911 -0.1852378696 2.137881613e-38
-0.1542243659 0.001629785169 -0.1820504218 2.137881613e-38
-0.2860828936 -0.07650139928 -0.1838265061 2.137881613e-38
-0.1145341694 0.09178825468 0.1551399678 2.211062324e-38
0.1605920941 0.05515905097 0.04912985861 2.211062324e-38
-0.2796251178 0.07890691608 0.1471986473 2.211062324e-38
0.04897234589 0.1002656668 0.1461002231 2.211062324e-38
0.1848465353 0.05946008489 0.1085490882 2.211062324e-38
0.2282411605 0.03672156483 -0.03599796817 2.211062324e-38
-0.0008517538663 0.1164230332 0.130733788 2.211062324e-38
0.2111153603 0.04584205151 0.06235602871 2.211062324e-38
0.1569459736 0.07761275023 0.1217287034 2.211062324e-38
0.2135040313 0.03749764711 -0.03069504723 2.211062324e-38
-0.05941496789 0.1162609085 0.1410309374 2.211062324e-38
0.2086387724 0.04655927792 0.06052647904 2.211062324e-38
0.2190360725 0.04625375941 0.08566420525 2.211062324e-38
0.2781077325 0.03503624722 -0.05069478974 2.211062324e-38
0.09047853202 0.09657990187 0.099536255 2.211062324e-38
0.2682637274 0.0447245799 0.04149115831 2.211062324e-38
0.1208196133 0.0858720243 0.1337101161 2.211062324e-38
0.2045210898 0.03946655244 -0.02188461274 2.211062324e-38
-0.09343709052 0.1122598499 0.1452206969 2.211062324e-38
0.2065540552 0.04702817649 0.06292899698 2.211062324e-38
0.06304240227 0.09455028921 0.1487569958 2.211062324e-38
0.1875836104 0.04523389041 0.0002823583782 2.211062324e-38
-0.1546452343 0.09884823859 0.1478564441 2.211062324e-38
0.1939027309 0.04972082749 0.08294521272 2.211062324e-38
0.1749198884 0.06595454365 0.1108225584 2.211062324e-38
0.2198523134 0.03641207889 -0.03624243662 2.211062324e-38
-0.01834713109 0.1169850603 0.1321829557 2.211062324e-38
0.2115118653 0.04605180398 0.05688911676 2.211062324e-38
0.2355097234 0.04615867138 0.08061181009 2.211062324e-38
0.2979019284 0.03523955122 -0.05367593095 2.211062324e-38
0.07698576152 0.1045386344 0.1097670645 2.211062324e-38
0.2846671939 0.04351213574 0.03685275093 2.211062324e-38
0.1692943871 -0.1187368259 0.1736444533 2.284242894e-38
0.38721174 -0.1128956378 0.18083857 2.284242894e-38
0.2674689293 -0.1183506697 0.1846228987 2.284242894e-38
0.2864973545 -0.1180900261 0.1858815849 2.284242894e-38
0.001709221164 -0.1165702417 0.1603246331 2.284242894e-38
0.3200260103 -0.1148139909 0.1852667034 2.284242894e-38
0.1442225873 -0.117909126 0.1713912338 2.284242894e-38
0.4410501122 -0.1129419357 0.1332314163 2.284242894e-38
0.02445362881 -0.1168534532 0.1609307528 2.284242894e-38
0.329259932 -0.1142962873 0.1850860715 2.284242894e-38
0.1586631387 -0.1185310706 0.1729040295 2.284242894e-38
0.4350699782 -0.1135421246 0.1519756615 2.284242894e-38
-0.06091545895 -0.1152586937 0.1554831564 2.284242894e-38
0.2917883992 -0.1165252924 0.1854100376 2.284242894e-38
0.09578191489 -0.116863586 0.1659607142 2.284242894e-38
0.452824235 -0.1091782898 0.06238846108 2.284242894e-38
0.036503613 -0.1169415489 0.1612653136 2.284242894e-38
0.3355253637 -0.1139644682 0.1849201024 2.284242894e-38
0.1708062291 -0.1187453419 0.1740720719 2.284242894e-38
0.4322849214 -0.1136292145 0.1597239375 2.284242894e-38
0.06783977151 -0.116997011 0.1628746837 2.284242894e-38
0.3470291495 -0.1133707091 0.1844978034 2.284242894e-38
0.1962574422 -0.1191530079 0.176774472 2.284242894e-38
0.4203940332 -0.1134465039 0.1752882451 2.284242894e-38
0.00680784788 -0.1166524962 0.1603934467 2.284242894e-38
0.3248080015 -0.1145408377 0.1852636933 2.284242894e-38
0.1443573534 -0.1179454252 0.1714522839 2.284242894e-38
0.4408162832 -0.1128422171 0.1326789707 2.284242894e-38
-0.06667481363 -0.1153636873 0.155169636 2.284242894e-38
0.2847525477 -0.1169622168 0.1852136999 2.284242894e-38
0.09350413829 -0.1168698594 0.165698424 2.284242894e-38
0.4541506171 -0.1079491898 0.04240601137 2.284242894e-38
0.1530908793 0.03838944808 0.1681832671 2.348204041e-38
-0.1143364459 0.03078111261 0.176740557 2.348204041e-38
0.119894892 0.03636589646 0.1734102964 2.348204041e-38
0.01181293838 0.03355647624 0.1705732644 2.348204041e-38
-0.01098681707 0.02590565197 0.1644926518 2.348204041e-38
-0.2962763309 0.02469446883 0.1819168776 2.348204041e-38
0.2516644895 0.03743796423 0.152851969 2.348204041e-38
-0.1324822307 0.03045837954 0.1814961284 2.348204041e-38
0.02275809273 0.02836574242 0.1702439189 2.348204041e-38
-0.2779090405 0.02417981252 0.1826527417 2.348204041e-38
0.2382713705 0.03926678002 0.1548657566 2.348204041e-38
-0.1079840064 0.0317334868 0.1758310646 2.348204041e-38
-0.06183734536 0.02119160816 0.1570189744 2.348204041e-38
-0.3353897929 0.02669375576 0.1791613102 2.348204041e-38
0.2906215489 0.03167208284 0.1457161903 2.348204041e-38
-0.1671760529 0.02980821207 0.1861700118 2.348204041e-38
0.03336277232 0.02931509353 0.1721882969 2.348204041e-38
-0.2675333917 0.02394708619 0.1829041988 2.348204041e-38
0.2300563753 0.0396726951 0.1562670618 2.348204041e-38
-0.09646540135 0.0325691551 0.1733072251 2.348204041e-38
0.05377073959 0.03244085237 0.1756556183 2.348204041e-38
-0.2343005985 0.02313929237 0.1855270267 2.348204041e-38
0.2088560462 0.0405664593 0.1595183909 2.348204041e-38
-0.09395863861 0.03280148283 0.1727696657 2.348204041e-38
-0.004550470505 0.02614725195 0.1654628813 2.348204041e-38
-0.2928002775 0.02455562353 0.182102561 2.348204041e-38
0.2487267852 0.0378924571 0.1533581018 2.348204041e-38
-0.1240654737 0.03078937344 0.179760769 2.348204041e-38
-0.06820617616 0.02133891359 0.1578083932 2.348204041e-38
-0.3444456756 0.02724510245 0.178172484 2.348204041e-38
0.292865932 0.03126899153 0.1449595094 2.348204041e-38
-0.1915625781 0.02893037722 0.1871058047 2.348204041e-38
0.2655785978 0.03615179285 -0.1470090598 2.347880341e-38
0.3057658374 0.03022494726 -0.1373728812 2.347880341e-38
0.2449909896 0.03696238995 -0.152866289 2.347880341e-38
0.105861254 0.02883348055 -0.1562764198 2.347880341e-38
0.1584088802 0.0330867134 -0.1629390866 2.347880341e-38
0.4130023122 0.004830386024 -0.01618010923 2.347880341e-38
0.3634275794 0.01854306832 -0.1031371802 2.347880341e-38
-0.0877289325 0.01915510185 -0.1684919149 2.347880341e-38
0.1754885614 0.03441371396 -0.1621189117 2.347880341e-38
0.4041641355 0.007807388436 -0.04237863794 2.347880341e-38
0.3465252519 0.02298493497 -0.1191605255 2.347880341e-38
-0.05959615111 0.02023628727 -0.1677419394 2.347880341e-38
0.08885879815 0.03005014732 -0.1650880575 2.347880341e-38
0.4250902534 -0.000628068985 0.03976345435 2.347880341e-38
0.3958359659 0.01038043387 -0.06509738415 2.347880341e-38
-0.1553652734 0.01643663645 -0.1685186177 2.347880341e-38
0.1840732992 0.03500331938 -0.1614997536 2.347880341e-38
0.4002189636 0.009412452579 -0.05529406294 2.347880341e-38
0.3359424472 0.02522129752 -0.1259852797 2.347880341e-38
-0.04136572778 0.0208193101 -0.1668446213 2.347880341e-38
0.2037071288 0.03605248034 -0.1593876928 2.347880341e-38
0.3880549967 0.01296129357 -0.07953904569 2.347880341e-38
0.3148367405 0.02885809168 -0.1340474635 2.347880341e-38
-0.002605134388 0.02304500341 -0.165292725 2.347880341e-38
0.1615374088 0.03324214742 -0.162640512 2.347880341e-38
0.4112920463 0.005397282075 -0.02080872096 2.347880341e-38
0.3609959781 0.0191842299 -0.1053412333 2.347880341e-38
-0.08321462572 0.01930438913 -0.1683524996 2.347880341e-38
0.05211195722 0.02762217075 -0.1652973741 2.347880341e-38
0.42503497 -0.001029781648 0.04665959254 2.347880341e-38
0.4002144933 0.008989097551 -0.05320934579 2.347880341e-38
-0.1782950908 0.01527470909 -0.1679085642 2.347880341e-38
-0.0581323728 0.1438504755 0.06844816357 2.347520768e-38
-0.3286180794 0.1199206263 0.08392103761 2.347520768e-38
-0.04904957116 0.1449393928 0.06898989528 2.347520768e-38
-0.1293732673 0.1445331275 0.06663621962 2.347520768e-38
-0.1410578489 0.1447966546 0.06679086387 2.347520768e-38
-0.4170584083 0.0848589763 0.08076547831 2.347520768e-38
0.03100308776 0.1396053284 0.06877093762 2.347520768e-38
-0.3034553826 0.1283642203 0.07342102379 2.347520768e-38
-0.1283753812 0.1445526481 0.06708227098 2.347520768e-38
-0.4060994983 0.08403342217 0.0853164196 2.347520768e-38
0.02126864716 0.1404454112 0.0687956363 2.347520768e-38
-0.2802195847 0.1360150725 0.06941669434 2.347520768e-38
-0.1960603446 0.1464112103 0.06528375298 2.347520768e-38
-0.4129852057 0.08532361686 0.04372065514 2.347520768e-38
0.06880003959 0.1304183751 0.06783282757 2.347520768e-38
-0.3480545878 0.105587326 0.09192406386 2.347520768e-38
-0.1213902906 0.1444242448 0.06724649668 2.347520768e-38
-0.4001981318 0.08339043707 0.0883430317 2.347520768e-38
0.01354231592 0.1411025375 0.06885029376 2.347520768e-38
-0.270483017 0.1388741136 0.06777546555 2.347520768e-38
-0.1047511622 0.1440795809 0.06761691719 2.347520768e-38
-0.3844574392 0.08439322561 0.09844049066 2.347520768e-38
-0.005450641736 0.1429014653 0.06917288899 2.347520768e-38
-0.2391246408 0.1459620893 0.06470005959 2.347520768e-38
-0.138512224 0.1447737515 0.06687067449 2.347520768e-38
-0.4133318067 0.08466222882 0.082454741 2.347520768e-38
0.03221243247 0.1393962651 0.06868504733 2.347520768e-38
-0.2964505553 0.1311136037 0.0722457096 2.347520768e-38
-0.2207198888 0.1472444236 0.06485549361 2.347520768e-38
-0.4102383256 0.08609969169 0.01868610457 2.347520768e-38
0.07239170372 0.1282590032 0.06763626635 2.347520768e-38
-0.365329355 0.0930313617 0.09855347127 2.347520768e-38
0.1203426719 -0.1287405491 -0.1242114529 2.347161195e-38
0.3151878715 -0.07572877407 -0.1419072598 2.347161195e-38
0.2386139631 -0.0879580453 -0.1752760857 2.347161195e-38
0.3758769333 -0.06390259415 -0.1540372223 2.347161195e-38
-0.1141450405 -0.1201475337 -0.1658504754 2.347161195e-38
0.2229789495 -0.09877903759 -0.1178569272 2.347161195e-38
0.1201994717 -0.1230601147 -0.1677373797 2.347161195e-38
0.2807545066 -0.07965333015 -0.1630349308 2.347161195e-38
-0.07458692044 -0.1199050099 -0.1568414867 2.347161195e-38
0.2314975113 -0.09577991068 -0.1210675612 2.347161195e-38
0.1515945047 -0.1179549545 -0.1696121097 2.347161195e-38
0.2889715433 -0.07783489674 -0.1661997736 2.347161195e-38
-0.1822643578 -0.1105594337 -0.1758066863 2.347161195e-38
0.1683753729 -0.1161011234 -0.1131044626 2.347161195e-38
-0.01269631367 -0.123688437 -0.1575629711 2.347161195e-38
0.2387343943 -0.09471199661 -0.1547613144 2.347161195e-38
-0.04965420067 -0.1214148998 -0.1522981822 2.347161195e-38
0.2354946733 -0.09428111464 -0.1230368391 2.347161195e-38
0.1763389856 -0.1134669855 -0.170120731 2.347161195e-38
0.2962926924 -0.07626003027 -0.1683687717 2.347161195e-38
0.02000564896 -0.1268106103 -0.1417370439 2.347161195e-38
0.2499735206 -0.09037096053 -0.1266676188 2.347161195e-38
0.2045483887 -0.1020585299 -0.1735029072 2.347161195e-38
0.3176483512 -0.0718350634 -0.1705061197 2.347161195e-38
-0.1038089246 -0.1206201464 -0.165023461 2.347161195e-38
0.2283819765 -0.09680691361 -0.1197776496 2.347161195e-38
0.1218200177 -0.1249827445 -0.163278237 2.347161195e-38
0.2802224457 -0.07944702357 -0.1648650914 2.347161195e-38
-0.1891604215 -0.1068700626 -0.1785475463 2.347161195e-38
0.1314876527 -0.1216212958 -0.1107005775 2.347161195e-38
-0.02316096425 -0.1232356727 -0.1553004533 2.347161195e-38
0.2319760323 -0.09844691306 -0.1515683085 2.347161195e-38
-0.03539111838 0.1351909786 -0.08732455224 2.346801622e-38
0.08589456975 0.1187608838 -0.07393863797 2.346801622e-38
0.05146722868 0.1279613972 -0.06992413849 2.346801622e-38
-0.06203607842 0.13723737 -0.10106197 2.346801622e-38
-0.170615539 0.1360452324 -0.0997139141 2.346801622e-38
0.1568832994 0.0709778592 -0.07498333603 2.346801622e-38
-0.09191574901 0.137650311 -0.07749702781 2.346801622e-38
0.06177173182 0.128114298 -0.09188923985 2.346801622e-38
-0.159947902 0.1354444474 -0.0977012068 2.346801622e-38
0.1452022791 0.07932296395 -0.07423657179 2.346801622e-38
-0.0767705664 0.1371229738 -0.07570052892 2.346801622e-38
0.03854536265 0.1314961612 -0.09028669447 2.346801622e-38
-0.2462970763 0.126750052 -0.1107579619 2.346801622e-38
0.1867428571 0.06073373929 -0.09107149392 2.346801622e-38
-0.1428510398 0.137081489 -0.08760632575 2.346801622e-38
0.09301878512 0.1161647812 -0.09634053707 2.346801622e-38
-0.1530629247 0.135220021 -0.09692270309 2.346801622e-38
0.1386728436 0.08452109247 -0.07440906018 2.346801622e-38
-0.06423443556 0.1368027776 -0.07387061417 2.346801622e-38
0.03198616579 0.1324882358 -0.0899791792 2.346801622e-38
-0.1275384724 0.1354609877 -0.0960880965 2.346801622e-38
0.1265079379 0.09473886341 -0.07474052906 2.346801622e-38
-0.041475337 0.1359068006 -0.07091258466 2.346801622e-38
0.01375542395 0.1338618696 -0.09149138629 2.346801622e-38
-0.1745437831 0.135728687 -0.09900913388 2.346801622e-38
0.1527500898 0.07351341844 -0.07422876358 2.346801622e-38
-0.0939630568 0.1374382526 -0.0787871182 2.346801622e-38
0.05215869844 0.1296498924 -0.09182249755 2.346801622e-38
-0.2671578228 0.1210568994 -0.1150610894 2.346801622e-38
0.1921125799 0.05845445395 -0.09620841593 2.346801622e-38
-0.1568684131 0.1363938153 -0.09007143974 2.346801622e-38
0.1045514867 0.107060805 -0.09944626689 2.346801622e-38
0.3246986568 -0.04809828848 0.1127394959 2.346406175e-38
0.2945746183 -0.02835328318 0.1847899109 2.346406175e-38
-0.03850782663 -0.02846869081 0.1702744961 2.346406175e-38
0.3539232612 -0.02956872806 0.1763519943 2.346406175e-38
0.1653041989 -0.05046638846 0.1381953359 2.346406175e-38
0.1345986426 -0.01789405197 0.1759771854 2.346406175e-38
-0.2088251561 -0.02399474382 0.1476613879 2.346406175e-38
0.2464870363 0.002563060494 0.1824852377 2.346406175e-38
0.206095621 -0.05580022186 0.1342532635 2.346406175e-38
0.1771204621 -0.02232409641 0.1793117821 2.346406175e-38
-0.195479095 -0.02591214143 0.1512269378 2.346406175e-38
0.2665378451 -0.004737143405 0.1825515479 2.346406175e-38
0.06858205795 -0.04417020082 0.141641587 2.346406175e-38
0.05935522914 -0.009904053062 0.1698202938 2.346406175e-38
-0.25597772 -0.01897847839 0.1253572851 2.346406175e-38
0.2026805431 0.01173112169 0.1820951104 2.346406175e-38
0.220694229 -0.05632257089 0.1298152059 2.346406175e-38
0.195321545 -0.02378665656 0.179987967 2.346406175e-38
-0.1857293695 -0.02720173448 0.15333426 2.346406175e-38
0.279263407 -0.008380891755 0.1825221032 2.346406175e-38
0.2424427271 -0.05634550378 0.1139155775 2.346406175e-38
0.2260423452 -0.02713636868 0.1811691225 2.346406175e-38
-0.160668537 -0.03024249338 0.1595786959 2.346406175e-38
0.2999704778 -0.01224728767 0.1823833436 2.346406175e-38
0.1748642474 -0.05240274221 0.1358426213 2.346406175e-38
0.1540226638 -0.01906573772 0.1781106293 2.346406175e-38
-0.2114593834 -0.02349774167 0.1461153775 2.346406175e-38
0.2485201508 0.001509772846 0.1825321913 2.346406175e-38
0.01934311725 -0.04531392083 0.1399881542 2.346406175e-38
0.04359636083 -0.007242102176 0.1691449732 2.346406175e-38
-0.2740454972 -0.01590433158 0.1190216914 2.346406175e-38
0.1799881309 0.004590381403 0.180490464 2.346406175e-38
0.1250946671 -0.08655762672 -0.06942973286 2.346010729e-38
-0.1044695526 -0.09986355156 0.04441082105 2.346010729e-38
-0.2258382887 -0.09101421386 0.1309335679 2.346010729e-38
0.1791777909 -0.07726746798 -0.1059200689 2.346010729e-38
-0.04258792475 -0.1087444574 0.08569631726 2.346010729e-38
-0.3494434655 -0.07448653877 0.1192295328 2.346010729e-38
-0.4823950529 -0.09258531034 0.05259568244 2.346010729e-38
0.3013696373 -0.05765843391 -0.1566620022 2.346010729e-38
-0.02733926103 -0.1084721386 0.07428323478 2.346010729e-38
-0.3309669197 -0.07359777391 0.1225531176 2.346010729e-38
-0.4736091793 -0.1028446332 0.06517670304 2.346010729e-38
0.2883513868 -0.05871622264 -0.1540495157 2.346010729e-38
-0.1005415022 -0.1052348688 0.1069499925 2.346010729e-38
-0.3728867769 -0.08095762134 0.1135057285 2.346010729e-38
-0.4848027825 -0.07337723672 0.05172974616 2.346010729e-38
0.3395731449 -0.05401645228 -0.1677640378 2.346010729e-38
-0.02134240419 -0.1084003076 0.06936445832 2.346010729e-38
-0.3154803514 -0.07592902333 0.1251913309 2.346010729e-38
-0.4634509385 -0.1057064161 0.07204752415 2.346010729e-38
0.2816383839 -0.05935047567 -0.1522979289 2.346010729e-38
0.004139518831 -0.1075205877 0.04738973826 2.346010729e-38
-0.2866536677 -0.08272687346 0.1272230148 2.346010729e-38
-0.4348544478 -0.1011874005 0.08509368449 2.346010729e-38
0.2609849572 -0.06192180887 -0.1458896846 2.346010729e-38
-0.04076488689 -0.1085985154 0.08549309522 2.346010729e-38
-0.3451932371 -0.07339353859 0.120222941 2.346010729e-38
-0.4811763167 -0.09535779804 0.0560169816 2.346010729e-38
0.3017945886 -0.0576345101 -0.1566389203 2.346010729e-38
-0.1247738749 -0.1024283767 0.1123523638 2.346010729e-38
-0.3789525032 -0.08289717883 0.1109727547 2.346010729e-38
-0.4841590524 -0.06991062313 0.05955663323 2.346010729e-38
0.3471369147 -0.05330942199 -0.1709224731 2.346010729e-38
0.3986679316 -0.02869298123 0.09014308453 2.345615283e-38
0.3744756877 -0.01913628355 0.121019803 2.345615283e-38
0.3803323507 -0.009914147668 0.1553770453 2.345615283e-38
0.3465244174 -0.01050274167 0.1474671364 2.345615283e-38
0.3248756528 -0.02349170111 0.1069546491 2.345615283e-38
0.2821063995 -0.01256241836 0.1422433704 2.345615283e-38
0.4367415607 -0.02625874989 0.1016349718 2.345615283e-38
0.230772987 -0.02819205076 0.1819082499 2.345615283e-38
0.3362318277 -0.02484774962 0.1035834998 2.345615283e-38
0.2888596654 -0.01203850657 0.1405799389 2.345615283e-38
0.4289979339 -0.0234787073 0.1118523404 2.345615283e-38
0.2477679253 -0.01868765801 0.1828168333 2.345615283e-38
0.2996341288 -0.02116424404 0.1142964363 2.345615283e-38
0.2635028362 -0.01969591528 0.1394742876 2.345615283e-38
0.4551647305 -0.03129635751 0.08708062768 2.345615283e-38
0.1212037206 -0.07046651095 0.1413589418 2.345615283e-38
0.3443505168 -0.02609755471 0.1002940312 2.345615283e-38
0.2908534408 -0.01297370531 0.1379693002 2.345615283e-38
0.4247793853 -0.02187965997 0.1178799272 2.345615283e-38
0.2567661107 -0.01506473869 0.1806779355 2.345615283e-38
0.3600749075 -0.02765471675 0.09617301077 2.345615283e-38
0.3160116673 -0.01292229071 0.1375374049 2.345615283e-38
0.4136297405 -0.01882285997 0.1278209388 2.345615283e-38
0.2822948992 -0.007934470661 0.1755399257 2.345615283e-38
0.3272079825 -0.02363619953 0.1067453176 2.345615283e-38
0.2843327224 -0.01274976321 0.1410452574 2.345615283e-38
0.4365313947 -0.0258153528 0.103969574 2.345615283e-38
0.2343114763 -0.02607836016 0.1818679124 2.345615283e-38
0.2918185592 -0.02039965242 0.1192085445 2.345615283e-38
0.2525202334 -0.02693171613 0.1329512596 2.345615283e-38
0.4549613595 -0.03281049803 0.08216653764 2.345615283e-38
0.07825173438 -0.08134317398 0.1162713468 2.345615283e-38
0.4873026609 -0.07764636725 -0.0524466671 2.345219836e-38
0.4659087956 -0.02808958665 0.09906702489 2.345219836e-38
0.4914777279 -0.06538642943 0.006911125034 2.345219836e-38
0.4917122722 -0.05884506926 -0.01726477779 2.345219836e-38
0.4276640117 -0.09203971922 -0.1640602946 2.345219836e-38
0.3977371752 -0.004980086349 0.1581710577 2.345219836e-38
0.4772202075 -0.0995041728 -0.08911240846 2.345219836e-38
0.4831585884 -0.04932491109 0.06081920862 2.345219836e-38
0.4432595372 -0.09124201536 -0.1613834053 2.345219836e-38
0.4123648107 -0.008247437887 0.1556274593 2.345219836e-38
0.4802700281 -0.09650243819 -0.07889471948 2.345219836e-38
0.4841671586 -0.04940915108 0.05263464153 2.345219836e-38
0.3847951591 -0.08845300972 -0.1600616127 2.345219836e-38
0.3718707263 4.33344394e-05 0.1621009707 2.345219836e-38
0.4561944902 -0.1084502265 -0.1387579739 2.345219836e-38
0.4763354063 -0.04591887072 0.09172400832 2.345219836e-38
0.4520992041 -0.09046261758 -0.1570137143 2.345219836e-38
0.42102018 -0.01015854534 0.1541356444 2.345219836e-38
0.4821746945 -0.0938770473 -0.07249090821 2.345219836e-38
0.4849140048 -0.04950998724 0.04658740386 2.345219836e-38
