# .PCD v0.7 - Point Cloud Data file format
VERSION 0.7
FIELDS x y z rgb
SIZE 4 4 4 4
TYPE F F F F
COUNT 1 1 1 1
WIDTH 823
HEIGHT 1
VIEWPOINT 0 0 0 1 0 0 0
POINTS 823
DATA ascii
0.05936982855 -0.2318157107 -0.2141882181 1.540360521e-39
0.02162676118 -0.1384413242 -0.125175789 1.540360521e-39
0.04927223176 -0.2411163151 -0.1999576837 1.540360521e-39
-0.02983805165 -0.2010198236 -0.1859468073 1.540360521e-39
-0.005480735563 -0.2172774076 -0.2301693112 1.540360521e-39
0.03023920394 -0.1938945651 -0.09906687587 1.540360521e-39
0.08129197359 -0.2681231201 -0.1205898821 1.540360521e-39
-0.02712756582 -0.1804923564 -0.1841358691 1.540360521e-39
0.08595549315 -0.2706389427 -0.1723973304 1.540360521e-39
0.0428471975 -0.2764114738 -0.08768651634 1.540360521e-39
0.05582819879 -0.2888076007 -0.07394421846 1.540360521e-39
-0.006046351045 -0.204219833 -0.1743094623 1.540360521e-39
0.08788546175 -0.2810123861 -0.1625218391 1.540360521e-39
0.0612606369 -0.2920218408 -0.1055415496 1.540360521e-39
0.03198140487 -0.2505916655 -0.1169782728 1.540360521e-39
-0.01078470144 -0.2479484528 -0.1811071485 1.540360521e-39
0.03451257944 -0.2460530847 -0.09068333358 1.540360521e-39
0.0330767706 -0.2387953997 -0.1347050667 1.540360521e-39
0.04466458783 -0.284450084 -0.1154067963 1.540360521e-39
0.01789649203 -0.1962068528 -0.1604457349 1.540360521e-39
0.0600191839 -0.2848534882 -0.0824534595 1.540360521e-39
0.0287024565 -0.2431886196 -0.1391108632 1.540360521e-39
0.04029475525 -0.2826968729 -0.1003053039 1.540360521e-39
-0.178257212 -0.1611102074 0.1086758003 2.277910146e-39
-0.236034587 -0.2233300805 -0.1042420194 2.277910146e-39
-0.1258754432 -0.1441231817 0.1750587523 2.277910146e-39
-0.2446968704 -0.181881547 0.007010881323 2.277910146e-39
-0.2047198713 -0.1380944401 0.08432655036 2.277910146e-39
-0.2381609976 -0.1904769838 -0.05617588013 2.277910146e-39
-0.09818392992 -0.1633550078 0.1975754797 2.277910146e-39
-0.1973288804 -0.1778884828 0.1220524982 2.277910146e-39
-0.1890895367 -0.1753151864 0.09071734548 2.277910146e-39
-0.2109552175 -0.2281752229 -0.14252083 2.277910146e-39
-0.09150741249 -0.1398464441 0.1945600063 2.277910146e-39
-0.2367279828 -0.186279133 0.06214469671 2.277910146e-39
-0.1976210475 -0.1373365521 0.03430065885 2.277910146e-39
-0.2160642892 -0.1867715716 -0.1047313735 2.277910146e-39
-0.06989777088 -0.1389161199 0.2086284161 2.277910146e-39
-0.1677882075 -0.05854422227 0.1006274596 2.277910146e-39
-0.1847136319 -0.1402388215 0.002217525616 2.277910146e-39
-0.2150319219 -0.1755084991 -0.1004269496 2.277910146e-39
-0.1046898961 -0.110046491 0.1440522522 2.277910146e-39
-0.1955501437 -0.1244128495 0.09471383691 2.277910146e-39
-0.1892689764 -0.1305204481 0.03779858723 2.277910146e-39
-0.2115069032 -0.1558784395 -0.05539046973 2.277910146e-39
-0.1434892565 -0.1075420976 0.1318751127 2.277910146e-39
-0.1773127019 -0.1291910261 -0.01474333275 2.277910146e-39
-0.2074955255 -0.1302157789 0.06452273577 2.277910146e-39
-0.2089937031 -0.1489882022 -0.03656014428 2.277910146e-39
-0.1675937325 -0.1078575775 0.1165458038 2.277910146e-39
-0.1899614632 -0.1249251366 0.07145433873 2.277910146e-39
-0.1499081999 -0.1094955355 0.09895060211 2.277910146e-39
-0.213515833 -0.1357248724 0.003582866397 2.277910146e-39
-0.1487241089 -0.1095489934 0.1081128195 2.277910146e-39
-0.2155109495 -0.1261991411 0.06082448736 2.277910146e-39
0.007921261713 -0.07240773737 -0.04232649878 3.015101038e-39
0.008354487829 -0.07571917772 -0.08043053001 3.015101038e-39
0.01060418691 -0.07534245402 0.1049727947 3.015101038e-39
-0.08883122355 -0.06356947124 0.07611212134 3.015101038e-39
0.00401230948 -0.07279733568 -0.06062382087 3.015101038e-39
-0.03331273049 -0.07701468468 -0.1204699799 3.015101038e-39
0.1625762284 -0.07142293453 0.1193949059 3.015101038e-39
0.06589880586 -0.0734686926 0.08709346503 3.015101038e-39
0.09994907677 -0.07303278893 0.07673897594 3.015101038e-39
0.009992239065 -0.0681701377 0.0179690998 3.015101038e-39
0.1393608004 -0.07064703107 0.1236486882 3.015101038e-39
-0.0134149529 -0.07181224227 0.101334475 3.015101038e-39
-0.01523922477 -0.0658128038 0.009666108526 3.015101038e-39
-0.0203560181 -0.0728700906 -0.1024284065 3.015101038e-39
0.1698920429 -0.06602264196 0.147642836 3.015101038e-39
0.005949852988 -0.06973853707 0.09215851873 3.015101038e-39
0.04020548984 -0.05663344264 0.02852453478 3.015101038e-39
-0.0116676297 -0.06584811211 -0.03548111022 3.015101038e-39
0.2080169767 -0.05946202576 0.03017121553 3.015101038e-39
0.008692757227 -0.05864141509 0.03896021098 3.015101038e-39
0.05771252885 -0.0540131256 0.01478066854 3.015101038e-39
0.01150278468 -0.06356957555 -0.04805658758 3.015101038e-39
0.1721113324 -0.05101346597 -0.01658025384 3.015101038e-39
-0.0244758334 -0.05759530142 -4.574097693e-05 3.015101038e-39
0.06721189618 -0.05604376644 -0.02837267332 3.015101038e-39
-0.04588516802 -0.06662838161 -0.1061116382 3.015101038e-39
0.1845610887 -0.05004382506 -0.02084767818 3.015101038e-39
-0.04096698388 -0.06017477438 -0.009969949722 3.015101038e-39
0.09365603328 -0.05686278269 0.02526334487 3.015101038e-39
0.01785650663 -0.05377509445 0.02411869913 3.015101038e-39
0.1851483583 -0.05063040927 -0.01382757258 3.015101038e-39
-0.004195390735 -0.06343413889 -0.0909338817 3.015101038e-39
0.03741042316 -0.1031384692 0.2649605572 3.75229193e-39
0.09821646661 -0.09646962583 -0.07077031583 3.75229193e-39
-0.08753565699 -0.1116321012 0.2650763094 3.75229193e-39
0.05255817994 -0.1120802984 0.2067620456 3.75229193e-39
0.02372166887 -0.1080763862 0.2639066577 3.75229193e-39
0.01672535576 -0.1077985987 0.1605187356 3.75229193e-39
-0.004693414085 -0.1108376607 0.2414365858 3.75229193e-39
0.1146520078 -0.103319861 0.1663769633 3.75229193e-39
0.03328340128 -0.1008572057 0.2698899806 3.75229193e-39
0.1702526659 -0.09190244973 -0.05109764636 3.75229193e-39
-0.06903134286 -0.1117193028 0.2672275007 3.75229193e-39
0.08072015643 -0.1025555283 0.2219753861 3.75229193e-39
2.61887908e-06 -0.1075602621 0.267139852 3.75229193e-39
-0.08647413552 -0.09634242207 0.0843597576 3.75229193e-39
-0.08355146646 -0.1132601872 0.2197391689 3.75229193e-39
0.06627504528 -0.110560596 0.2201189697 3.75229193e-39
0.004411676433 -0.1059970558 0.270083636 3.75229193e-39
-0.1213165969 -0.09163733572 -0.01959968358 3.75229193e-39
-0.03487672284 -0.1164962575 0.264451623 3.75229193e-39
-0.04768260568 -0.1049543023 0.1223812401 3.75229193e-39
-0.01803707704 -0.1143504381 0.2513259947 3.75229193e-39
-0.1224750206 -0.09588680416 0.09705131501 3.75229193e-39
-0.09754312038 -0.1273633242 0.2481157333 3.75229193e-39
-0.04892755672 -0.1068237051 0.1788316518 3.75229193e-39
0.02607618831 -0.112822786 0.2357425094 3.75229193e-39
-0.149132207 -0.1185280904 0.2215403467 3.75229193e-39
-0.003018116811 -0.113274008 0.2401848435 3.75229193e-39
-0.02008988895 -0.1073104069 0.1559317708 3.75229193e-39
-0.01814558171 -0.1140807495 0.22663562 3.75229193e-39
0.05504605919 -0.1118970886 0.1547772437 3.75229193e-39
0.01840092428 -0.1109026223 0.1969623864 3.75229193e-39
-0.0003635137982 -0.1083905622 0.1548341364 3.75229193e-39
0.2175651342 -0.08565039933 -0.03362771124 4.48912409e-39
0.2245698869 -0.07270932198 0.07265044004 4.48912409e-39
0.2166220844 -0.07839404047 0.02279669046 4.48912409e-39
0.2263223976 -0.08252546191 0.1469557881 4.48912409e-39
0.232765317 -0.08512989432 0.04592752084 4.48912409e-39
0.2343093306 -0.08339678496 0.1028448865 4.48912409e-39
0.1864822209 -0.0777438283 -0.07615800947 4.48912409e-39
0.2243821621 -0.07348167896 0.08059871197 4.48912409e-39
0.2197946906 -0.08696836978 -0.0253240075 4.48912409e-39
0.2189165652 -0.07412064075 0.07858218998 4.48912409e-39
0.230439052 -0.08719225228 0.0334164463 4.48912409e-39
0.222475037 -0.07604122162 0.1359329373 4.48912409e-39
0.2396871597 -0.09430137277 0.02593906596 4.48912409e-39
0.2333164215 -0.08601203561 0.09645878524 4.48912409e-39
0.2228894085 -0.08716315776 -0.02816483937 4.48912409e-39
0.2256997377 -0.07251846045 0.106601119 4.48912409e-39
0.2463784814 -0.09798948467 -0.01929928921 4.48912409e-39
0.2338587046 -0.08479549736 0.02805459872 4.48912409e-39
0.2070643008 -0.09435211122 -0.1041669101 4.48912409e-39
0.2392452806 -0.0854049176 0.1367893666 4.48912409e-39
0.2446610183 -0.09485978633 -0.0293786563 4.48912409e-39
0.2256670296 -0.08087567985 -0.0007442681817 4.48912409e-39
0.2294616252 -0.07284359634 0.06086141244 4.48912409e-39
0.2377421707 -0.08518820256 0.140029192 4.48912409e-39
0.2545459569 -0.1005397514 0.07156766206 4.48912409e-39
0.2373567969 -0.08992725611 -0.005612135399 4.48912409e-39
0.2300231159 -0.08946697414 -0.07326916605 4.48912409e-39
0.2511743605 -0.09282764792 0.09747960418 4.48912409e-39
0.2385281026 -0.09163763374 -0.005021697376 4.48912409e-39
0.2269662917 -0.07306242734 0.05451553687 4.48912409e-39
0.2302090079 -0.08812590688 -0.07007367909 4.48912409e-39
0.2345254272 -0.07707421482 0.12132328 4.48912409e-39
0.1029986963 -0.143282637 -0.05950069427 5.225597518e-39
-0.110183835 -0.2127952278 0.02152928337 5.225597518e-39
0.05000218377 -0.1522277296 -0.05646364018 5.225597518e-39
-0.02481927536 -0.1575615257 -0.05742931738 5.225597518e-39
0.1146844551 -0.1400133073 -0.07103618979 5.225597518e-39
-0.0584239848 -0.1734314263 -0.07380858809 5.225597518e-39
0.001860501012 -0.1681162119 -0.03768469021 5.225597518e-39
-0.1018224582 -0.19384031 -0.08641690016 5.225597518e-39
-0.01004806999 -0.1568736136 -0.08179643005 5.225597518e-39
-0.1166139841 -0.210831821 0.03659834713 5.225597518e-39
0.02407366037 -0.1550459117 -0.05993116647 5.225597518e-39
-0.01989081874 -0.1571631432 -0.0642875284 5.225597518e-39
0.09063790739 -0.1432069838 -0.0707507655 5.225597518e-39
-0.1042648107 -0.1937089264 -0.102011621 5.225597518e-39
-0.002068684204 -0.1569513381 -0.07116593421 5.225597518e-39
0.1814283133 -0.1331380308 -0.04892035201 5.225597518e-39
0.06874187291 -0.1461049467 -0.08468558639 5.225597518e-39
-0.1404014528 -0.1997048855 -0.1042775884 5.225597518e-39
0.03816540167 -0.1517322063 -0.09156932682 5.225597518e-39
-0.1018847451 -0.1845001876 -0.1097761095 5.225597518e-39
0.09528880566 -0.144054696 -0.08379466832 5.225597518e-39
-0.08509927988 -0.1805456132 -0.122133933 5.225597518e-39
0.09241871536 -0.1435733289 -0.08126054704 5.225597518e-39
-0.1234598979 -0.1921415031 -0.1156073064 5.225597518e-39
0.1214494482 -0.1441697478 -0.08865652978 5.225597518e-39
-0.05548781529 -0.1746464819 -0.1270134896 5.225597518e-39
0.1308261156 -0.1387453973 -0.07544582337 5.225597518e-39
-0.1673940718 -0.2015140206 -0.07043910772 5.225597518e-39
-0.01360125002 -0.1624389738 -0.103152141 5.225597518e-39
-0.046326112 -0.1629588008 -0.08821947873 5.225597518e-39
0.1097121984 -0.144248575 -0.08468504995 5.225597518e-39
-0.1474749595 -0.1964332163 -0.09691762179 5.225597518e-39
-0.05424604565 -0.09889597446 -0.032942608 5.962428276e-39
0.01987869292 -0.1228004545 -0.203420043 5.962428276e-39
-0.09469772875 -0.09622693062 0.003674386302 5.962428276e-39
0.1883179992 -0.1019433737 0.004213263281 5.962428276e-39
-0.0135224266 -0.1133243889 -0.1357824355 5.962428276e-39
0.1380645037 -0.1217206791 -0.1546162218 5.962428276e-39
-0.107078582 -0.1113722026 -0.1321447194 5.962428276e-39
0.153329581 -0.113870047 -0.09970188886 5.962428276e-39
-0.1482345015 -0.09856051207 -0.001773735508 5.962428276e-39
0.01081177965 -0.1195366159 -0.1683545113 5.962428276e-39
-0.1057142243 -0.1032979265 -0.05683160573 5.962428276e-39
0.1859772801 -0.1054793075 -0.0194129087 5.962428276e-39
-0.03883163631 -0.1057536006 -0.07293881476 5.962428276e-39
0.08183153719 -0.1221306622 -0.1693401933 5.962428276e-39
-0.1031910107 -0.1104881316 -0.1189948246 5.962428276e-39
0.2119311094 -0.1052744985 -0.05621945113 5.962428276e-39
-0.09775422513 -0.0988246426 -0.01647616737 5.962428276e-39
0.02842521667 -0.115072608 -0.1334084123 5.962428276e-39
-0.06979184598 -0.1007568613 -0.03262465075 5.962428276e-39
0.1642466038 -0.1081499457 -0.05238749832 5.962428276e-39
-0.1159971505 -0.1012045294 -0.02804304659 5.962428276e-39
0.03739016503 -0.1162886471 -0.1356468499 5.962428276e-39
-0.02487631142 -0.1032321155 -0.04685821757 5.962428276e-39
0.1862062961 -0.1121588796 -0.1256813258 5.962428276e-39
-0.0189237725 -0.1096079424 -0.09368932992 5.962428276e-39
0.1253925562 -0.119315438 -0.1268614233 5.962428276e-39
0.05073322728 -0.1088254601 -0.07514196634 5.962428276e-39
0.07332824916 -0.1234105229 -0.1730167121 5.962428276e-39
-0.08525903523 -0.1021337882 -0.03873969242 5.962428276e-39
0.0202498734 -0.1069913879 -0.06514004618 5.962428276e-39
-0.03310231119 -0.1010669097 -0.02004499361 5.962428276e-39
0.09438151121 -0.1064583883 -0.06154928729 5.962428276e-39
-0.1320798099 -0.1017188579 0.2273044437 6.698542971e-39
-0.03697585687 -0.09224230796 0.2928804457 6.698542971e-39
-0.0983523652 -0.09924830496 0.2855548859 6.698542971e-39
-0.03107072599 -0.08853457123 0.2858002186 6.698542971e-39
-0.1050378904 -0.1228086725 0.272482276 6.698542971e-39
0.0130494209 -0.09235005081 0.2958678901 6.698542971e-39
-0.133008644 -0.1084659994 0.2318047136 6.698542971e-39
0.03134450689 -0.07168986648 0.2692250311 6.698542971e-39
-0.1302357167 -0.04552103207 0.1807367802 6.698542971e-39
-0.1059473082 -0.113415353 0.2946071923 6.698542971e-39
-0.08195738494 -0.1171823665 0.3003353477 6.698542971e-39
-0.07339408249 -0.06269311905 0.2722645104 6.698542971e-39
-0.1336677074 -0.1198057607 0.2486665249 6.698542971e-39
-0.08274312317 -0.1352649927 0.313385278 6.698542971e-39
-0.01081192866 -0.1413795948 0.308029443 6.698542971e-39
-0.08221849799 -0.0629542917 0.2657999098 6.698542971e-39
-0.1366918981 -0.1100601777 0.2279825658 6.698542971e-39
-0.08575190604 -0.1410675496 0.3094203174 6.698542971e-39
-0.05635630712 -0.1373656392 0.3092718422 6.698542971e-39
0.0958250761 -0.1166368872 0.2625262737 6.698542971e-39
-0.111209996 -0.1336582005 0.2707333267 6.698542971e-39
0.01728773676 -0.1335651577 0.3057203293 6.698542971e-39
0.003133852966 -0.1418384761 0.2982856333 6.698542971e-39
0.05375270173 -0.1361018866 0.2930630744 6.698542971e-39
-0.06735327095 -0.156236276 0.2745407522 6.698542971e-39
-0.03870968521 -0.1279169917 0.3073396981 6.698542971e-39
-0.01719917543 -0.1522354782 0.2908405066 6.698542971e-39
0.05212472007 -0.1300278753 0.2930910587 6.698542971e-39
-0.07621914148 -0.1494250298 0.262663722 6.698542971e-39
0.0293159876 -0.108288072 0.296548605 6.698542971e-39
-0.003496349556 -0.1577880383 0.2894631326 6.698542971e-39
0.0519946143 -0.1382254809 0.2915636301 6.698542971e-39
0.1115376428 -0.3323188126 0.07684143633 7.434656265e-39
-0.07439528406 -0.3490200937 0.06047588587 7.434656265e-39
0.03040263057 -0.2988689244 0.1354625076 7.434656265e-39
0.04626169056 -0.3916216195 0.02569053322 7.434656265e-39
0.05767362937 -0.3355956376 0.104727976 7.434656265e-39
-0.03047865257 -0.3353013098 0.1005928963 7.434656265e-39
0.1101900563 -0.3362925649 0.05794008449 7.434656265e-39
-0.03642543405 -0.394752413 0.0274590198 7.434656265e-39
0.1193874031 -0.3426187634 0.04071064666 7.434656265e-39
-0.06305149198 -0.3371821344 0.0712967962 7.434656265e-39
0.06577575952 -0.3452211618 0.09619564563 7.434656265e-39
0.02487752587 -0.3958401382 0.02063053846 7.434656265e-39
0.09635926783 -0.3461076021 0.05914116651 7.434656265e-39
-0.05133797228 -0.3181663156 0.09527985007 7.434656265e-39
0.05752559379 -0.3574222922 0.08549171686 7.434656265e-39
-0.01989882067 -0.3964594603 0.01552243251 7.434656265e-39
0.1363207251 -0.3494342268 0.02887722291 7.434656265e-39
-0.0741283223 -0.3590696454 0.05611770973 7.434656265e-39
0.04357251525 -0.3719451129 0.07278814167 7.434656265e-39
-0.002498263959 -0.3853018284 0.05979980156 7.434656265e-39
0.1083035022 -0.3396150172 0.07216788828 7.434656265e-39
-0.09071217477 -0.3782872558 0.04173470661 7.434656265e-39
0.04292489216 -0.3788003922 0.05622269213 7.434656265e-39
0.04507533833 -0.2850107849 0.1371159703 7.434656265e-39
0.06633152068 -0.363650769 0.06903845817 7.434656265e-39
-0.04195671529 -0.3545480072 0.08424594253 7.434656265e-39
0.04831391945 -0.3744792938 0.06456170976 7.434656265e-39
0.02948054671 -0.3101634383 0.1238378808 7.434656265e-39
0.04601927102 -0.3707509041 0.07234063745 7.434656265e-39
-0.03040036 -0.3941961825 0.01111965999 7.434656265e-39
0.04317469522 -0.3903813958 0.02987064421 7.434656265e-39
0.05385724083 -0.3741156757 0.06783382595 7.434656265e-39
0.05847412348 -0.2432788759 0.1952333748 8.170410826e-39
0.05510657653 -0.1216690987 0.2554964125 8.170410826e-39
0.173376292 -0.2536609769 0.04424476251 8.170410826e-39
0.1085017696 -0.1049305871 0.1731491387 8.170410826e-39
0.05290041491 -0.2283368111 0.2127336413 8.170410826e-39
0.08536533266 -0.1901859343 0.227704227 8.170410826e-39
0.1856595576 -0.2502116561 0.04793969542 8.170410826e-39
0.09295380861 -0.1076238826 0.2092442364 8.170410826e-39
0.1144779548 -0.2445061654 0.131425336 8.170410826e-39
0.096467942 -0.1390145272 0.2412777543 8.170410826e-39
0.1774815619 -0.2610792518 0.0363651067 8.170410826e-39
0.07393977791 -0.11347799 0.1960171312 8.170410826e-39
0.05831107497 -0.2282778174 0.2193318456 8.170410826e-39
0.0489288345 -0.2137379348 0.2468725443 8.170410826e-39
0.2078824937 -0.2585443854 0.02272024751 8.170410826e-39
-0.004787825514 -0.1130000651 0.2053195089 8.170410826e-39
0.1207847148 -0.2123929411 0.1585905403 8.170410826e-39
0.09374002367 -0.1410030723 0.246551469 8.170410826e-39
0.1961487383 -0.1976624876 0.08933229744 8.170410826e-39
0.07613462955 -0.1003933474 0.2153190374 8.170410826e-39
0.1351049989 -0.1684936881 0.1716359407 8.170410826e-39
0.08622602373 -0.1173029318 0.2522760034 8.170410826e-39
0.1345823854 -0.1341173351 0.1996966451 8.170410826e-39
0.09396868199 -0.1084699407 0.2368571758 8.170410826e-39
0.05250686035 -0.1855179071 0.2367542088 8.170410826e-39
0.1500833333 -0.1347514093 0.1682129502 8.170410826e-39
0.1450951099 -0.1530622691 0.182933718 8.170410826e-39
0.05106668547 -0.1125337332 0.2516602874 8.170410826e-39
0.196055159 -0.1456761658 0.1018823385 8.170410826e-39
0.1142054275 -0.09981274605 0.1635603458 8.170410826e-39
0.2142202556 -0.1381893903 0.0808526054 8.170410826e-39
0.1075951755 -0.09212695807 0.2056382596 8.170410826e-39
0.01950582862 -0.2475639582 0.1207376346 8.906165387e-39
-0.0414313823 -0.2144294977 0.1328490078 8.906165387e-39
0.02641560882 -0.2684501708 0.1294663399 8.906165387e-39
-0.01939382032 -0.2483402044 0.1667624861 8.906165387e-39
-0.04171477258 -0.193232432 0.0534049347 8.906165387e-39
-0.0803449899 -0.1711085588 0.06760878861 8.906165387e-39
-0.03085300513 -0.2881167829 0.1758678406 8.906165387e-39
-0.0274974145 -0.2502838671 0.175765425 8.906165387e-39
0.01618202403 -0.2710197866 0.1395062506 8.906165387e-39
-0.05120902881 -0.2027893662 0.1423586458 8.906165387e-39
-0.02337995172 -0.291200757 0.1681507081 8.906165387e-39
-0.01811799221 -0.2502934635 0.1667314619 8.906165387e-39
-0.07201121747 -0.1795716286 0.07823968679 8.906165387e-39
-0.09845223278 -0.1433668882 0.06510006636 8.906165387e-39
-0.06101029739 -0.3103138208 0.1834205985 8.906165387e-39
-0.06224077567 -0.2566262782 0.2025926709 8.906165387e-39
-0.03428824991 -0.1807302684 0.1412435174 8.906165387e-39
-0.1027986258 -0.1445448846 0.1187733933 8.906165387e-39
-0.03421672806 -0.2692243755 0.1629573852 8.906165387e-39
-0.05567368492 -0.2117834091 0.1978866011 8.906165387e-39
-0.02326307073 -0.1906640828 0.1217022538 8.906165387e-39
-0.1018346995 -0.1174350306 0.1419749111 8.906165387e-39
-0.01913624629 -0.2563041449 0.1502225697 8.906165387e-39
-0.05905202776 -0.1522338837 0.1326601803 8.906165387e-39
8.603930473e-05 -0.1976549178 0.07283248007 8.906165387e-39
-0.1020050123 -0.1115104929 0.08073485643 8.906165387e-39
-0.02783476375 -0.2194556892 0.161908865 8.906165387e-39
-0.08911482245 -0.1397527009 0.1633384228 8.906165387e-39
-0.02806491777 -0.1831801981 0.142855078 8.906165387e-39
-0.04151333123 -0.1974679381 0.1712580025 8.906165387e-39
-0.01492230128 -0.195228219 0.1331506521 8.906165387e-39
-0.05638796464 -0.1543084383 0.1308334768 8.906165387e-39
-0.09397563338 -0.2773533165 0.1347793341 9.641561216e-39
-0.09513587505 -0.2167984843 0.1466627866 9.641561216e-39
-0.1253232509 -0.2782211602 0.08948788047 9.641561216e-39
-0.1024158075 -0.2615639567 0.1487698704 9.641561216e-39
-0.09537547827 -0.2880230844 0.07166527957 9.641561216e-39
-0.1157222241 -0.1789733768 0.1899387687 9.641561216e-39
-0.156280756 -0.2611231208 0.05307805166 9.641561216e-39
-0.1043290123 -0.2299700379 0.1748758107 9.641561216e-39
-0.09674176574 -0.290196687 0.1208298951 9.641561216e-39
-0.1065974459 -0.1826809794 0.1823647171 9.641561216e-39
-0.1379673034 -0.2757180035 0.07458829135 9.641561216e-39
-0.0961214304 -0.2128464878 0.2108941078 9.641561216e-39
-0.08883599192 -0.298671484 0.1003106982 9.641561216e-39
-0.122753337 -0.1212243885 0.1765327156 9.641561216e-39
-0.1616028845 -0.2637538314 0.05806179345 9.641561216e-39
-0.09953286499 -0.2139109522 0.218797192 9.641561216e-39
-0.09624355286 -0.287937969 0.1281379908 9.641561216e-39
-0.08313542604 -0.1964433342 0.1328523308 9.641561216e-39
-0.09967445582 -0.3265066147 0.07490638644 9.641561216e-39
-0.08524574339 -0.3098810613 0.1141421944 9.641561216e-39
-0.09006355703 -0.3084816337 0.1031621769 9.641561216e-39
-0.1100832075 -0.2090107352 0.1617218405 9.641561216e-39
-0.09817102551 -0.3284260333 0.08612203598 9.641561216e-39
-0.08823646605 -0.3159042001 0.1074433997 9.641561216e-39
-0.07289642096 -0.2697805464 0.07256253809 9.641561216e-39
-0.122374095 -0.1952085495 0.1900670379 9.641561216e-39
-0.09401934594 -0.2987324893 0.05612653494 9.641561216e-39
-0.1212959588 -0.3088693619 0.06630246341 9.641561216e-39
-0.09187004715 -0.3161601424 0.0262242388 9.641561216e-39
-0.08964373171 -0.2903914154 0.1398743391 9.641561216e-39
-0.09567196667 -0.3187932074 0.08558098972 9.641561216e-39
-0.09681207687 -0.330848366 0.06622356176 9.641561216e-39
0.07094845176 -0.09442180395 0.2962215245 1.037659831e-38
0.2107319832 -0.1231184527 0.07102359086 1.037659831e-38
0.2238664329 -0.1634976864 -0.03544113412 1.037659831e-38
0.2245381474 -0.1235810071 -0.1204319596 1.037659831e-38
0.1477643996 -0.09736698121 0.2296023816 1.037659831e-38
0.1697499603 -0.1041463912 0.1879849285 1.037659831e-38
0.2201835513 -0.1458388567 0.1182342768 1.037659831e-38
0.2107523531 -0.1442966014 -0.1659514308 1.037659831e-38
0.11416962 -0.1085482985 0.3224886358 1.037659831e-38
0.2116502374 -0.1322073787 0.0620938763 1.037659831e-38
0.2241192162 -0.1461721659 0.06557552516 1.037659831e-38
0.2270519286 -0.1284957379 -0.1233245507 1.037659831e-38
0.1043075621 -0.1042442992 0.304710567 1.037659831e-38
0.174782902 -0.1083260924 0.1716178954 1.037659831e-38
0.1838969588 -0.1029898748 0.2531309426 1.037659831e-38
0.2072382271 -0.1404220015 -0.1673258692 1.037659831e-38
0.01933531463 -0.093563281 0.3021911383 1.037659831e-38
0.1870725751 -0.111784339 0.1562906653 1.037659831e-38
0.1869334728 -0.08704621345 0.2385612279 1.037659831e-38
0.2490647733 -0.1162384376 -0.06832636148 1.037659831e-38
0.05533856526 -0.09428821504 0.3014698029 1.037659831e-38
0.1935047656 -0.1092136502 0.1386865526 1.037659831e-38
0.1080086231 -0.08938187361 0.2713338137 1.037659831e-38
0.2416224182 -0.1130254641 -0.05328525975 1.037659831e-38
0.109630689 -0.09323281795 0.2596898675 1.037659831e-38
0.1498101652 -0.09977961332 0.1915601641 1.037659831e-38
0.1729113907 -0.08714905381 0.2560588717 1.037659831e-38
0.2551986873 -0.1056551337 -0.06242242083 1.037659831e-38
0.08243953437 -0.09000918269 0.2865639329 1.037659831e-38
0.257468611 -0.09719131142 0.07087059319 1.037659831e-38
0.1145672053 -0.0898109898 0.2776044011 1.037659831e-38
0.2480173409 -0.1024227589 0.08287093788 1.037659831e-38
0.04552795365 -0.06690292805 -0.1703329384 1.111163541e-38
0.03882477432 -0.08007034659 -0.04828979075 1.111163541e-38
-0.08740162849 -0.05751999468 -0.1272306889 1.111163541e-38
0.1550207436 -0.08902561665 -0.06153006479 1.111163541e-38
0.02886015922 -0.06142062321 -0.1556893587 1.111163541e-38
0.009873396717 -0.06438798457 -0.1174934953 1.111163541e-38
-0.0962126404 -0.08065930754 -0.1551702023 1.111163541e-38
0.1785145104 -0.09659374505 -0.01957538538 1.111163541e-38
0.1281045675 -0.07913117111 -0.09095732868 1.111163541e-38
0.1057319269 -0.09097649902 -0.02085483819 1.111163541e-38
-0.0750631243 -0.08116388321 -0.1811585426 1.111163541e-38
0.1825443953 -0.09467680752 -0.05871095508 1.111163541e-38
0.08348628134 -0.06419933587 -0.1457285285 1.111163541e-38
0.07909993827 -0.08341763914 -0.05899726227 1.111163541e-38
-0.08698734641 -0.08707789332 -0.1774516851 1.111163541e-38
0.2343668789 -0.1051972285 -0.03292489052 1.111163541e-38
0.1606719047 -0.08666524291 -0.08217401803 1.111163541e-38
0.1744538993 -0.09869797528 -0.02595265023 1.111163541e-38
0.02596716024 -0.06724241376 -0.1704038382 1.111163541e-38
0.1513098478 -0.08705592155 -0.06857660413 1.111163541e-38
0.1723432839 -0.088999331 -0.08513644338 1.111163541e-38
0.212590605 -0.1038113609 -0.02709510736 1.111163541e-38
0.05812828243 -0.06544152647 -0.154469952 1.111163541e-38
0.209640637 -0.09850271046 -0.05045924336 1.111163541e-38
0.1455142051 -0.08144652843 -0.1068406925 1.111163541e-38
0.1872830838 -0.09157055616 -0.07550119609 1.111163541e-38
0.06440288574 -0.06425280124 -0.1438849121 1.111163541e-38
0.2314931154 -0.1023025811 -0.01300058607 1.111163541e-38
0.1399515718 -0.07800139487 -0.1008994281 1.111163541e-38
0.1860260516 -0.09156554192 -0.06693879515 1.111163541e-38
0.1245918795 -0.06938838959 -0.1341106445 1.111163541e-38
0.139266178 -0.07895965874 -0.09053777903 1.111163541e-38
-0.1445074081 -0.1100858301 0.05871169269 1.184631237e-38
-0.1765126437 -0.08539897203 -0.07912573963 1.184631237e-38
-0.1561955214 -0.1103322506 -0.04639049247 1.184631237e-38
-0.1961931139 -0.1090981141 -0.0767436102 1.184631237e-38
-0.1562977582 -0.1120962948 0.04108669609 1.184631237e-38
-0.1451146901 -0.06709972769 -0.07465668023 1.184631237e-38
-0.08640275151 -0.1045771539 0.06664268672 1.184631237e-38
-0.1958794296 -0.1019927561 -0.0772613138 1.184631237e-38
-0.1119050607 -0.1023937762 0.09519572556 1.184631237e-38
-0.1760244966 -0.09295127541 -0.08087166399 1.184631237e-38
-0.1051419228 -0.1068958715 0.04881538078 1.184631237e-38
-0.1991203725 -0.1032049581 -0.0803284198 1.184631237e-38
-0.1257775873 -0.1028576419 0.09252489358 1.184631237e-38
-0.1399466395 -0.06900434196 -0.0680064708 1.184631237e-38
-0.03833517805 -0.1091064215 0.0647924915 1.184631237e-38
-0.1500576735 -0.09284921736 -0.09745186567 1.184631237e-38
-0.1176206172 -0.1019718274 -0.03544113785 1.184631237e-38
-0.1350256503 -0.09061884135 -0.08504664153 1.184631237e-38
-0.06700378656 -0.1016884819 0.03344190493 1.184631237e-38
-0.191909954 -0.1105524376 -0.09173418581 1.184631237e-38
-0.09839048982 -0.09632231295 0.05341704562 1.184631237e-38
-0.1671562046 -0.1125414222 -0.03675816953 1.184631237e-38
-0.1248852089 -0.08009269089 -0.1241820306 1.184631237e-38
-0.2023921162 -0.1131656468 -0.07377090305 1.184631237e-38
-0.1215286478 -0.1019064859 -0.01992303878 1.184631237e-38
-0.2117006034 -0.1117699817 -0.01102226321 1.184631237e-38
-0.1383242458 -0.1066218019 -0.05149839073 1.184631237e-38
-0.1948677897 -0.1121337637 -0.07819406688 1.184631237e-38
-0.1309732199 -0.1060135514 -0.02993164025 1.184631237e-38
-0.1618092209 -0.1123450249 -0.02890708111 1.184631237e-38
-0.1368984729 -0.08700983971 -0.1250434667 1.184631237e-38
-0.2098510414 -0.1129836515 -0.06876627356 1.184631237e-38
-0.2445567846 -0.1342266053 -0.08499397337 1.258099074e-38
-0.1235880479 -0.1885595322 0.2038080394 1.258099074e-38
-0.2622250617 -0.146433875 -0.07073070109 1.258099074e-38
-0.2636211514 -0.1517045945 0.01196137536 1.258099074e-38
-0.2685926259 -0.1648970097 0.02713059448 1.258099074e-38
-0.2242875397 -0.1712645888 0.09181602299 1.258099074e-38
-0.2316353321 -0.158540234 -0.1363204271 1.258099074e-38
-0.2635299265 -0.1724164933 -0.06948601454 1.258099074e-38
-0.2467078716 -0.1442103684 0.03754412755 1.258099074e-38
-0.100382857 -0.172097683 0.2237179428 1.258099074e-38
-0.2581919432 -0.1320745498 -0.06464453042 1.258099074e-38
-0.2575449646 -0.1835695654 -0.005304754246 1.258099074e-38
-0.2678602934 -0.1710884273 -0.005445302464 1.258099074e-38
-0.1223616078 -0.1719715297 0.2096942365 1.258099074e-38
-0.2261712998 -0.1289897263 -0.0965365991 1.258099074e-38
-0.2274684459 -0.1668002903 -0.1022160053 1.258099074e-38
-0.2279988676 -0.1233081371 0.02816479281 1.258099074e-38
-0.1188184321 -0.170728296 0.215091154 1.258099074e-38
-0.260977447 -0.1370351613 -0.05800009146 1.258099074e-38
-0.2540003955 -0.1504039019 -0.07531306893 1.258099074e-38
-0.2282342911 -0.1173077226 -0.003734467784 1.258099074e-38
-0.169598341 -0.1354342401 0.1360901892 1.258099074e-38
-0.2630576193 -0.1419765651 -0.05538145825 1.258099074e-38
-0.2393815815 -0.1327125132 0.03453745693 1.258099074e-38
-0.2373214215 -0.1334958375 0.03790523484 1.258099074e-38
-0.2083616555 -0.1320988834 0.08907603472 1.258099074e-38
-0.255456388 -0.1304389536 -0.06115784124 1.258099074e-38
-0.2246073931 -0.1299787462 0.05931815878 1.258099074e-38
-0.234098345 -0.1151434928 -0.02951674908 1.258099074e-38
-0.1832008213 -0.109485276 0.08809559047 1.258099074e-38
-0.2423799038 -0.1158339903 -0.04611568153 1.258099074e-38
-0.2368719429 -0.1170688793 -0.02712754905 1.258099074e-38
-0.02626633644 -0.3488722146 -0.06934364885 1.331530897e-38
0.01505874284 -0.3909942806 0.03622513637 1.331530897e-38
-0.008819030598 -0.4068891406 0.03597189486 1.331530897e-38
0.07855270058 -0.3964163363 -0.01720768213 1.331530897e-38
0.02009580843 -0.4052304029 -0.05107108504 1.331530897e-38
-0.05540580302 -0.3861531913 0.04036686197 1.331530897e-38
-0.0522165671 -0.3374625146 -0.03245748207 1.331530897e-38
0.04181119427 -0.3943132758 0.04939953238 1.331530897e-38
-0.02922143787 -0.2934393585 -0.100007318 1.331530897e-38
-0.01027951669 -0.3909195364 0.06414476782 1.331530897e-38
-0.04457847774 -0.3982264102 0.007945429534 1.331530897e-38
0.0535462983 -0.3963429034 0.01202009805 1.331530897e-38
-0.005637161434 -0.383069694 -0.05608420447 1.331530897e-38
-0.03795656934 -0.3868741393 0.07031242549 1.331530897e-38
-0.04843317717 -0.3471885622 -0.02929268777 1.331530897e-38
0.03117634729 -0.3909518421 0.04428618774 1.331530897e-38
-0.01365448628 -0.3352032006 -0.09803123772 1.331530897e-38
-0.01856589876 -0.3845971227 0.06321948022 1.331530897e-38
-0.04539938644 -0.349032402 -0.03156973794 1.331530897e-38
0.005616941024 -0.3918372095 0.005502913613 1.331530897e-38
-0.01530328859 -0.3315557241 -0.08242658526 1.331530897e-38
-0.02763881534 -0.3869231343 0.04013095424 1.331530897e-38
-0.0547446683 -0.3689494133 -0.0002550780773 1.331530897e-38
0.02019416168 -0.3885349929 -0.03337712958 1.331530897e-38
0.02164403535 -0.3853746653 -0.057809636 1.331530897e-38
-0.02441437356 -0.3893153667 -0.01374123897 1.331530897e-38
-0.05444096401 -0.2935082614 -0.06345058978 1.331530897e-38
0.02643050626 -0.3894075155 -0.00608794298 1.331530897e-38
-0.04038938507 -0.2956796587 -0.07806064934 1.331530897e-38
0.007988082245 -0.3998926282 -0.006389396731 1.331530897e-38
-0.03851970658 -0.3415781558 -0.05184304714 1.331530897e-38
0.03075522743 -0.3896671236 -0.03278692067 1.331530897e-38
-0.02053685114 0.3305221796 0.0008493696805 1.404926846e-38
0.003327573417 0.3491148949 0.008639474399 1.404926846e-38
-0.0480353497 0.005136392545 0.02857723832 1.404926846e-38
-0.02182234451 0.3368064463 -0.001277799951 1.404926846e-38
-0.02246898971 0.2672559321 0.003770020558 1.404926846e-38
-0.01515836362 0.2747549117 -0.0001410618424 1.404926846e-38
-0.1069760248 -0.1339143813 0.03067279607 1.404926846e-38
-0.007822045125 0.332696557 0.0006887352793 1.404926846e-38
-0.0225365106 0.3360338211 -0.001557546319 1.404926846e-38
0.00842818059 0.3454955816 0.01204929315 1.404926846e-38
-0.07204911858 -0.08290092647 0.04173676297 1.404926846e-38
-0.008142183535 0.371650517 0.001213456853 1.404926846e-38
-0.02318105102 0.2757078409 0.001321966876 1.404926846e-38
0.0002930760384 0.326920867 0.00583061669 1.404926846e-38
-0.09520301223 -0.1030094624 0.03436313197 1.404926846e-38
-0.00790670421 0.3967262805 -0.002495313529 1.404926846e-38
-0.02687575854 0.3804119527 -0.01283670869 1.404926846e-38
0.003156688763 0.3916478455 0.004253279883 1.404926846e-38
-0.03214664757 0.1138523519 0.01418097597 1.404926846e-38
-0.0182817094 0.3576330841 0.0006188637926 1.404926846e-38
-0.03242187947 0.3123167157 -0.007645353675 1.404926846e-38
-0.009341306984 0.411257416 -0.006677390542 1.404926846e-38
-0.02641985193 0.2545367479 0.0006371773197 1.404926846e-38
-0.01976901479 0.3263877332 0.004257183988 1.404926846e-38
-0.03836426511 0.1918684095 -0.00411010813 1.404926846e-38
-0.02465131879 0.357465297 -0.006218617782 1.404926846e-38
-0.03588396311 0.2103634477 -0.004461854696 1.404926846e-38
-0.0374307707 0.0783945024 0.01993040554 1.404926846e-38
-0.04087676108 0.1875407547 -0.008498191833 1.404926846e-38
-0.03265799209 0.2981393635 -0.006780911703 1.404926846e-38
-0.04148198664 0.166383177 -0.005365990568 1.404926846e-38
-0.03421898931 0.2570509911 -0.007358138915 1.404926846e-38
-0.005568774417 -0.01136771031 -0.03535621613 1.478322936e-38
-0.0522675328 0.3000877202 -0.008878677152 1.478322936e-38
-0.01864218712 0.02905694954 -0.007163923699 1.478322936e-38
-0.02047304809 0.0833280012 -0.01713583246 1.478322936e-38
-0.03617531434 0.06561330706 -0.01403000858 1.478322936e-38
-0.03016907535 0.1317896843 -0.01416029967 1.478322936e-38
-0.005018430762 -0.04699799046 -0.04477287084 1.478322936e-38
-0.02710320428 0.2342380732 -0.01003366895 1.478322936e-38
-0.003950769082 -0.07641965896 -0.05023949221 1.478322936e-38
-0.03529616073 0.3209104836 -0.01088698208 1.478322936e-38
-0.01360425632 0.01073576976 -0.009343318641 1.478322936e-38
-0.02378042974 0.1999023408 0.003221474588 1.478322936e-38
-0.02620394714 -0.05402662233 -0.03625367954 1.478322936e-38
-0.03616509959 0.2537715733 -0.01011507958 1.478322936e-38
-0.01057441626 0.01053625811 0.002339975443 1.478322936e-38
-0.02512496151 0.1566506326 -0.006842609029 1.478322936e-38
-0.03916491568 -0.04345170781 -0.02854488231 1.478322936e-38
-0.03653318435 0.1570304334 -0.01068082824 1.478322936e-38
-0.02149474248 -0.08790498227 -0.04216515645 1.478322936e-38
-0.04891448095 0.06072665751 -0.01375678554 1.478322936e-38
-0.05305524915 -0.02532170154 -0.01751201972 1.478322936e-38
-0.06925189495 0.03655530512 -0.01273244713 1.478322936e-38
-0.05656555295 0.01184301544 -0.01567422599 1.478322936e-38
-0.02868391015 -0.1132280827 -0.05109483749 1.478322936e-38
-0.06563483179 0.1143198386 -0.008146216162 1.478322936e-38
-0.05417506769 -0.02241970412 -0.01717874035 1.478322936e-38
-0.006797983777 -0.1147887856 -0.0554058589 1.478322936e-38
-0.04408516735 -0.09365742654 -0.03703094646 1.478322936e-38
-0.05032195523 -0.04985745996 -0.02243420109 1.478322936e-38
-0.08930208534 -0.09004253894 -0.02209006064 1.478322936e-38
-0.03578201309 -0.1242999583 -0.0621362403 1.478322936e-38
-0.05734844506 -0.08848550916 -0.02842038684 1.478322936e-38
0.2202243507 -0.1088428497 -0.05294276401 1.551683013e-38
0.1687339097 -0.07854249328 0.0361360237 1.551683013e-38
0.1190761998 -0.07067199796 -0.09448105097 1.551683013e-38
0.1715356559 -0.08039146662 -0.05075859651 1.551683013e-38
0.2448358983 -0.1192606091 0.038134709 1.551683013e-38
0.207869187 -0.09859921783 0.04397485405 1.551683013e-38
0.2040657699 -0.09860613942 -0.05922870338 1.551683013e-38
0.1755747199 -0.07963322848 -0.005728218704 1.551683013e-38
0.1938196421 -0.0994098559 -0.103705883 1.551683013e-38
0.1609333456 -0.07435013354 -0.003365467535 1.551683013e-38
0.1480415463 -0.07440268248 -0.08975464106 1.551683013e-38
0.1711307466 -0.07885464281 -0.03290487453 1.551683013e-38
0.2219879776 -0.1051123366 0.01802717708 1.551683013e-38
0.1803977042 -0.08700861037 0.06247247383 1.551683013e-38
0.1704403758 -0.07959214598 -0.03988767788 1.551683013e-38
0.1069457829 -0.04171099514 0.04159130529 1.551683013e-38
0.1364925653 -0.06889214367 -0.05374220386 1.551683013e-38
0.1811157018 -0.08651187271 0.06434078515 1.551683013e-38
0.1474876851 -0.06771436334 -0.01347052027 1.551683013e-38
0.07346378267 -0.04017632455 -0.008858603425 1.551683013e-38
0.1834069937 -0.08310699463 -0.03718069196 1.551683013e-38
0.1546356976 -0.06898912042 0.03615078703 1.551683013e-38
0.07528562099 -0.03808286786 0.002810324542 1.551683013e-38
0.08560005575 -0.04737360775 -0.01471994258 1.551683013e-38
0.2215039134 -0.1026760861 0.02492282726 1.551683013e-38
0.163548246 -0.07453415543 0.007513054647 1.551683013e-38
0.2128449231 -0.09895801544 0.01683558524 1.551683013e-38
0.1725984961 -0.08050187677 0.02434984036 1.551683013e-38
0.1838626117 -0.08364191651 -0.04027957842 1.551683013e-38
0.1380366832 -0.06035414711 0.001902894583 1.551683013e-38
0.127233088 -0.05717555806 -0.0107387593 1.551683013e-38
0.1380773783 -0.06054256111 0.002032141201 1.551683013e-38
-0.1113365814 -0.2792743146 0.07864309102 1.625043089e-38
-0.1359697282 -0.2719357014 0.04979373142 1.625043089e-38
-0.07053463161 -0.2682522237 0.1280233264 1.625043089e-38
-0.1058535129 -0.2950818539 -0.002716381801 1.625043089e-38
-0.1680447906 -0.2478615195 0.1021969914 1.625043089e-38
-0.1832507998 -0.2287596613 0.1093896925 1.625043089e-38
0.002428914187 -0.3094384074 0.07228644937 1.625043089e-38
-0.1094301492 -0.2974053323 -0.02992328443 1.625043089e-38
-0.08221843839 -0.2948706448 0.0610191077 1.625043089e-38
-0.1314046383 -0.2889614701 0.05401116982 1.625043089e-38
-0.05786313862 -0.2746210396 0.114350915 1.625043089e-38
-0.1033927426 -0.299790442 -0.01397212222 1.625043089e-38
-0.1577832699 -0.2386196256 0.1098105088 1.625043089e-38
-0.184848547 -0.2142800838 0.1204843 1.625043089e-38
-0.04999319091 -0.2816214859 0.09425511211 1.625043089e-38
-0.1250284761 -0.254368484 -0.09106206894 1.625043089e-38
-0.1597103924 -0.2538275123 0.05994654074 1.625043089e-38
-0.1640418768 -0.256847769 0.06205349416 1.625043089e-38
-0.1271086037 -0.2728951573 0.06689733267 1.625043089e-38
-0.1309323311 -0.2831322551 0.01531897951 1.625043089e-38
-0.1574414372 -0.2536752224 0.08107051253 1.625043089e-38
-0.1442696303 -0.2707947195 0.05638542399 1.625043089e-38
-0.2062995732 -0.2341668904 0.0684601441 1.625043089e-38
-0.1598946005 -0.2753361464 0.03935131803 1.625043089e-38
-0.171783179 -0.2478180677 0.08735217154 1.625043089e-38
-0.1792212129 -0.2511784136 0.05863036215 1.625043089e-38
-0.1717639118 -0.2533501089 0.06922673434 1.625043089e-38
-0.1969753653 -0.2508729398 0.07607702166 1.625043089e-38
-0.1509195715 -0.2791305184 0.05543563515 1.625043089e-38
-0.1624264419 -0.2773324847 0.01485132892 1.625043089e-38
-0.1910556555 -0.2587676346 0.03643674031 1.625043089e-38
-0.1708151251 -0.270912677 0.04260783643 1.625043089e-38
0.09320361167 -0.1427384317 -0.1801485717 1.698367293e-38
0.1148964688 -0.1567093283 -0.1518820524 1.698367293e-38
0.07180056721 -0.154611364 -0.19174923 1.698367293e-38
0.05649441853 -0.2321525365 -0.07735750824 1.698367293e-38
0.07290993631 -0.195085004 -0.1419993341 1.698367293e-38
0.1374232024 -0.1266711205 -0.1549747288 1.698367293e-38
0.05068954825 -0.2919558883 -0.16003111 1.698367293e-38
0.03954197094 -0.2738910019 -0.03811074421 1.698367293e-38
0.07867448032 -0.1141083091 -0.1684842408 1.698367293e-38
0.08942199498 -0.2079654336 -0.1140780151 1.698367293e-38
0.08012258261 -0.1537151784 -0.1904089302 1.698367293e-38
0.05460586771 -0.2604216039 -0.04488531128 1.698367293e-38
0.1249885783 -0.1232655942 -0.1590603739 1.698367293e-38
0.1400748342 -0.1892287731 -0.1112307683 1.698367293e-38
0.06584253907 -0.2197831869 -0.167386204 1.698367293e-38
0.04292483255 -0.2896066606 -0.02984103933 1.698367293e-38
0.02714238316 -0.1100875884 -0.1336504221 1.698367293e-38
0.1122542545 -0.200035885 -0.09275781363 1.698367293e-38
0.06641346961 -0.1830355823 -0.1672780961 1.698367293e-38
0.04344852641 -0.2458400875 -0.05372962728 1.698367293e-38
0.07507431507 -0.1040641665 -0.1601973772 1.698367293e-38
0.09842406213 -0.1807087213 -0.1093732044 1.698367293e-38
0.08024130017 -0.139336586 -0.1788854152 1.698367293e-38
0.1200117022 -0.1469143778 -0.1346272677 1.698367293e-38
0.09210068733 -0.1503517628 -0.1512434632 1.698367293e-38
0.1069534346 -0.1366982311 -0.1467288285 1.698367293e-38
0.01243107021 -0.2714476883 -0.09877792001 1.698367293e-38
0.1070808843 -0.1197626814 -0.1575385034 1.698367293e-38
0.07614891231 -0.1315336972 -0.169001177 1.698367293e-38
0.02882068232 -0.2242147177 -0.08596403897 1.698367293e-38
0.05632994324 -0.1766719669 -0.1638855934 1.698367293e-38
0.04645191133 -0.2082725316 -0.09721785784 1.698367293e-38
0.06169664487 -0.06101926416 0.1768664122 1.771655483e-38
-0.007293825038 -0.07487010211 0.2881284058 1.771655483e-38
-0.03230736032 0.007521289866 0.1313154697 1.771655483e-38
0.03582088277 -0.06581931561 0.2103383392 1.771655483e-38
0.171956405 -0.06817863137 0.1488994807 1.771655483e-38
0.05611559749 -0.09423067421 0.2528111935 1.771655483e-38
-0.01376690157 -0.01420407742 0.162900269 1.771655483e-38
0.007345763966 -0.06640461087 0.278950572 1.771655483e-38
0.01714496687 -0.03338449076 0.1582742631 1.771655483e-38
0.009089502506 -0.07252620906 0.2865054607 1.771655483e-38
-0.01983142644 0.02361514233 0.08004043996 1.771655483e-38
0.01047699526 -0.0672615692 0.264277339 1.771655483e-38
0.1571772099 -0.05448017642 0.1320002377 1.771655483e-38
-0.01050044037 -0.08064174652 0.2903710306 1.771655483e-38
-0.02226021327 0.01075968239 0.1078238487 1.771655483e-38
0.02080655284 -0.08993668109 0.2917010486 1.771655483e-38
0.1020213887 -0.07827749848 0.1831641346 1.771655483e-38
0.05072368309 -0.09800361842 0.2908801734 1.771655483e-38
-0.02529767528 -0.04089294001 0.2073055208 1.771655483e-38
0.06342609972 -0.1024181992 0.2551619411 1.771655483e-38
0.1481266916 -0.09333189577 0.1973914057 1.771655483e-38
0.08499918133 -0.116013974 0.2670852244 1.771655483e-38
0.004667639267 -0.06316060573 0.2212162465 1.771655483e-38
0.08974004537 -0.1118366718 0.243536368 1.771655483e-38
0.1810485125 -0.089670524 0.181220606 1.771655483e-38
0.1441028714 -0.0900554508 0.1938072294 1.771655483e-38
0.02704896778 -0.09156552702 0.2557113469 1.771655483e-38
0.05558053777 -0.09965665638 0.2745070159 1.771655483e-38
0.02624218911 -0.06260939687 0.1980600953 1.771655483e-38
0.01430469006 -0.1029447392 0.3000840843 1.771655483e-38
0.02695827931 -0.09251173586 0.2771725357 1.771655483e-38
0.05614200234 -0.1014418006 0.262018621 1.771655483e-38
-0.0970043242 -0.1289512366 -0.06963218749 1.844943813e-38
-0.1435399354 -0.1262421757 -0.08078041673 1.844943813e-38
-0.2323958874 -0.1600449979 0.09591080993 1.844943813e-38
-0.2166340947 -0.1350901872 -0.05923453718 1.844943813e-38
-0.1638800353 -0.1408469081 -0.06165648252 1.844943813e-38
-0.1581212431 -0.1294147521 -0.1296548098 1.844943813e-38
-0.2270205319 -0.1580822319 0.09452428669 1.844943813e-38
-0.2224057019 -0.150427714 -0.05799060687 1.844943813e-38
-0.09059468657 -0.1305432022 -0.08041716367 1.844943813e-38
-0.1536987722 -0.1307922155 -0.09990923852 1.844943813e-38
-0.2361838371 -0.1691878885 0.1146633923 1.844943813e-38
-0.2291620672 -0.1528969258 0.04712386802 1.844943813e-38
-0.1551540196 -0.1343977749 -0.07889504731 1.844943813e-38
-0.1673984081 -0.1331285536 -0.1198914349 1.844943813e-38
-0.2276743948 -0.1617588848 0.1104946956 1.844943813e-38
-0.1209646612 -0.1352397799 0.08692557365 1.844943813e-38
-0.05248237401 -0.09918598086 -0.1020286754 1.844943813e-38
-0.1562593579 -0.124205105 -0.09362902492 1.844943813e-38
-0.07370208949 -0.1255220324 -0.03858938441 1.844943813e-38
-0.1682892293 -0.1328421831 0.03699813411 1.844943813e-38
-0.06718400121 -0.1053207144 -0.08631314337 1.844943813e-38
-0.0775282383 -0.1327916831 -0.01603695937 1.844943813e-38
-0.08637699485 -0.1300088018 0.004587623756 1.844943813e-38
-0.1838209927 -0.1136989743 -0.06342779845 1.844943813e-38
-0.08560790867 -0.1059108004 -0.08370828629 1.844943813e-38
-0.1354435831 -0.1224818006 -0.04827832803 1.844943813e-38
-0.06186378002 -0.1086617187 -0.09322062135 1.844943813e-38
-0.1628839225 -0.1119786799 -0.09333789349 1.844943813e-38
-0.08547188342 -0.1175965667 -0.04999737442 1.844943813e-38
-0.1306329221 -0.1328700334 -0.01986825839 1.844943813e-38
-0.05629502237 -0.1154635027 -0.06086907536 1.844943813e-38
-0.1918397546 -0.1165051982 -0.065250054 1.844943813e-38
-0.1599172205 -0.1540340334 0.02694277838 1.91819627e-38
-0.02230204269 -0.2002459168 0.2386309803 1.91819627e-38
-0.1418652534 -0.1593438238 0.2360948622 1.91819627e-38
-0.03917441517 -0.1830391139 0.2511413693 1.91819627e-38
-0.1551788002 -0.1669575274 0.08688373119 1.91819627e-38
-0.04799966887 -0.1924880743 0.04647393525 1.91819627e-38
-0.08023239672 -0.1503707021 0.2731224895 1.91819627e-38
0.0243405588 -0.1781937033 0.2467445433 1.91819627e-38
-0.143028453 -0.1795501262 0.1940204948 1.91819627e-38
-0.008192731999 -0.1975532621 0.2342270017 1.91819627e-38
-0.1444298923 -0.1550163329 0.2510363162 1.91819627e-38
0.008680282161 -0.1797001213 0.2524861097 1.91819627e-38
-0.1689666957 -0.1550030708 0.06562447548 1.91819627e-38
-0.07243751734 -0.2067004591 0.1575348973 1.91819627e-38
-0.1277887523 -0.1592717022 0.2679181397 1.91819627e-38
-0.04183517396 -0.1827022731 0.2431346476 1.91819627e-38
-0.1423505247 -0.1591768861 -0.01482547633 1.91819627e-38
-0.05097164959 -0.1951129735 0.05265993252 1.91819627e-38
-0.1296601146 -0.1962067038 0.1538233459 1.91819627e-38
-0.03819939494 -0.2147622406 0.2349307239 1.91819627e-38
-0.1351565123 -0.1642547101 -0.004896285012 1.91819627e-38
-0.03426614031 -0.1889922321 0.06474772096 1.91819627e-38
-0.09655739367 -0.1910950691 0.09230420738 1.91819627e-38
-0.09646084905 -0.2086839825 0.221116811 1.91819627e-38
-0.1301583201 -0.1688649058 0.005237933714 1.91819627e-38
-0.03939102963 -0.1452947706 -0.07184255123 1.91819627e-38
-0.1124387532 -0.1804086119 0.02770945616 1.91819627e-38
-0.04196571559 -0.2158237249 0.2357527465 1.91819627e-38
-0.111828506 -0.2009424418 0.1553238332 1.91819627e-38
-0.04569078237 -0.2111361474 0.1663126051 1.91819627e-38
-0.1138362512 -0.1794467866 0.02267786674 1.91819627e-38
-0.0324366875 -0.2249636203 0.2122026384 1.91819627e-38
0.133838594 -0.2616215646 -0.05878694355 1.991448586e-38
-0.01468971465 -0.1463762671 -0.1330638975 1.991448586e-38
0.1017773822 -0.2411103249 -0.04890632629 1.991448586e-38
0.02956825309 -0.1958046257 -0.1080096737 1.991448586e-38
0.1238391772 -0.2520298958 -0.08287401497 1.991448586e-38
0.02428527921 -0.1603126228 -0.1863315105 1.991448586e-38
0.1907357275 -0.2693796456 -0.01651703008 1.991448586e-38
0.02434034273 -0.1851605624 -0.04415880144 1.991448586e-38
0.1016540155 -0.2603473365 -0.06484538317 1.991448586e-38
-0.002912110882 -0.1553468704 -0.1064199954 1.991448586e-38
0.1129869595 -0.2499173582 -0.06193080172 1.991448586e-38
0.0207037162 -0.1886006445 -0.07393456995 1.991448586e-38
0.1583043635 -0.263214618 -0.04997942597 1.991448586e-38
0.01703894697 -0.1565681547 -0.1495301723 1.991448586e-38
0.1863805354 -0.263441354 -0.003855492454 1.991448586e-38
0.03229050338 -0.1961180419 -0.02243986912 1.991448586e-38
0.03991054744 -0.1736804694 -0.2162794173 1.991448586e-38
0.03208333626 -0.1768606156 -0.1168534979 1.991448586e-38
0.1205037534 -0.2182199806 -0.06014975533 1.991448586e-38
-0.01922111399 -0.1275364012 -0.1197334006 1.991448586e-38
0.04820200428 -0.1733186543 -0.1438667029 1.991448586e-38
0.03484545276 -0.1396382153 -0.09578093886 1.991448586e-38
0.08434370905 -0.1678266823 -0.03567496687 1.991448586e-38
0.04435707629 -0.1409975886 -0.1000562757 1.991448586e-38
0.08653268218 -0.2104700208 -0.1073705405 1.991448586e-38
0.04690572619 -0.1590738446 -0.1165272892 1.991448586e-38
0.1146799475 -0.2051281482 -0.06687422097 1.991448586e-38
-0.04233589396 -0.09865724295 -0.1991067231 1.991448586e-38
0.06391186267 -0.1800028086 -0.09445625544 1.991448586e-38
-0.001034691581 -0.1188993901 -0.1624409705 1.991448586e-38
0.01942456514 -0.1234878674 -0.1849540919 1.991448586e-38
0.0003956928558 -0.1170711517 -0.15981552 1.991448586e-38
