# .PCD v0.7 - Point Cloud Data file format
VERSION 0.7
FIELDS x y z rgb
SIZE 4 4 4 4
TYPE F F F F
COUNT 1 1 1 1
WIDTH 823
HEIGHT 1
VIEWPOINT 0 0 0 1 0 0 0
POINTS 823
DATA ascii
-0.1722705662 -0.143483907 0.1969604939 2.167082852e-39
-0.2231678963 -0.1432008147 -0.1177522913 2.167082852e-39
-0.1139925271 -0.1734539717 0.2182386369 2.167082852e-39
-0.2016241848 -0.1477541775 0.1808521003 2.167082852e-39
-0.1528587937 -0.1432015896 0.2030342072 2.167082852e-39
-0.2239301056 -0.1430242211 -0.1173628941 2.167082852e-39
-0.1110096425 -0.1731489003 0.2189502716 2.167082852e-39
-0.1838257313 -0.1570867896 0.1919832677 2.167082852e-39
-0.1368034035 -0.1502509266 0.2091926187 2.167082852e-39
-0.2746889889 -0.1467036903 -0.03428424895 2.167082852e-39
-0.1366693825 -0.1617303044 0.2100210488 2.167082852e-39
-0.2818008959 -0.1490156054 -0.004408971872 2.167082852e-39
-0.06148309633 -0.1561909616 0.2435485572 2.167082852e-39
-0.2251999229 -0.1467952281 -0.1079155952 2.167082852e-39
-0.09863720834 -0.1718515754 0.2235119194 2.167082852e-39
-0.146835044 -0.1631461531 0.2046020776 2.167082852e-39
-0.1753694564 -0.1491768658 0.1971014291 2.167082852e-39
-0.2250636518 -0.1365395784 -0.1242077351 2.167082852e-39
-0.1610768437 -0.1679363996 0.2058984041 2.167082852e-39
-0.2319495976 -0.1601076573 0.1524657756 2.167082852e-39
-0.1045901477 -0.1473544985 0.2187270075 2.167082852e-39
0.1483298838 -0.152506277 0.04026475921 1.435982003e-39
0.1694310009 -0.148244366 0.04093782976 1.435982003e-39
0.1738841236 -0.1441221237 0.0729925409 1.435982003e-39
0.1160003766 -0.1519519389 0.04575516656 1.435982003e-39
0.03884106129 -0.1550777853 0.02565168776 1.435982003e-39
0.1132599339 -0.1954012513 -0.03773304075 1.435982003e-39
0.09043106437 -0.1551231295 0.007827602327 1.435982003e-39
0.2464304268 -0.1588787138 0.02785991505 1.435982003e-39
0.1262127161 -0.1561869383 0.03284341469 1.435982003e-39
0.1606955826 -0.1539518833 0.03938855976 1.435982003e-39
0.1536809206 -0.1467995942 0.0924827233 1.435982003e-39
0.169240579 -0.14408952 0.07490057498 1.435982003e-39
0.1228264868 -0.1545828879 0.04012846202 1.435982003e-39
0.1464698315 -0.1600213796 0.03842298314 1.435982003e-39
0.1444201767 -0.1470500976 0.1086073443 1.435982003e-39
0.1811481118 -0.1411175132 0.07800065726 1.435982003e-39
0.1230738312 -0.1567382514 0.03787452355 1.435982003e-39
0.1416904181 -0.1634308547 0.03595648333 1.435982003e-39
0.1283560693 -0.1452346742 0.1002958715 1.435982003e-39
0.1804527342 -0.1417355239 0.07554638386 1.435982003e-39
0.01904800348 -0.1481312364 0.04026859254 1.435982003e-39
0.1509937197 -0.1770118773 0.03281677142 1.435982003e-39
0.08475358039 -0.1474496126 0.03560639173 1.435982003e-39
0.240996629 -0.1689997315 0.02729905955 1.435982003e-39
0.136780113 -0.1558553576 0.03848744929 1.435982003e-39
0.1436237842 -0.1599761695 0.0366618298 1.435982003e-39
0.1218259186 -0.1396599859 0.1059978381 1.435982003e-39
0.1582339257 -0.1460832506 0.07236988842 1.435982003e-39
0.09504751861 -0.151174143 0.03974295408 1.435982003e-39
0.1521758586 -0.1665816754 0.03632320464 1.435982003e-39
0.1342467368 -0.1498434693 0.08405278623 1.435982003e-39
0.2073114514 -0.1372690648 0.07082685083 1.435982003e-39
-0.2257889062 -0.1730204374 0.03256417811 7.045238224e-40
-0.1647436917 -0.167664364 0.1189478859 7.045238224e-40
-0.1966467053 -0.1723329723 0.105706051 7.045238224e-40
-0.1704934537 -0.1774735749 0.127070725 7.045238224e-40
-0.1960313767 -0.179361105 -0.09232857078 7.045238224e-40
-0.234365344 -0.1913787276 0.03626839817 7.045238224e-40
-0.2202857137 -0.1811238974 0.02870489098 7.045238224e-40
-0.1340215206 -0.1507013142 0.1395663619 7.045238224e-40
-0.2208872288 -0.170397073 0.005432045553 7.045238224e-40
-0.2080776095 -0.1572747082 0.08161305636 7.045238224e-40
-0.1997285485 -0.1689632237 0.104680717 7.045238224e-40
-0.1414016187 -0.1646520346 0.1414690167 7.045238224e-40
-0.2184079587 -0.1729608476 -0.008289504796 7.045238224e-40
-0.2116540819 -0.1623312086 0.07856735587 7.045238224e-40
-0.2072914839 -0.1680498421 0.09420288354 7.045238224e-40
-0.1536745876 -0.158364132 0.1226776689 7.045238224e-40
-0.2181364745 -0.17300421 -0.008471539244 7.045238224e-40
-0.2125862241 -0.1649362892 0.07812330127 7.045238224e-40
-0.2092470676 -0.1686928421 0.0905206278 7.045238224e-40
-0.1587912142 -0.1623978615 0.1190674081 7.045238224e-40
-0.1972963959 -0.1803342253 -0.09272733331 7.045238224e-40
-0.2366133183 -0.1899581403 0.04288782924 7.045238224e-40
-0.2203825712 -0.1809960306 0.02442726307 7.045238224e-40
-0.1394120008 -0.140255779 0.1215635017 7.045238224e-40
-0.2217545658 -0.1736381799 0.005404956173 7.045238224e-40
-0.2072118819 -0.1621633321 0.08128863573 7.045238224e-40
-0.2050802857 -0.1689667255 0.09708671272 7.045238224e-40
-0.1623538136 -0.1743826717 0.1193932891 7.045238224e-40
-0.2099034488 -0.1720472872 -0.03109590709 7.045238224e-40
-0.2374342829 -0.1722846329 0.06314090639 7.045238224e-40
-0.2169920951 -0.170436427 0.07627836615 7.045238224e-40
-0.1439242363 -0.1514576524 0.1277170479 7.045238224e-40
-0.03646655008 0.04034484178 0.04192626849 6.490113838e-41
-0.003530562157 0.02100473084 0.0493023321 6.490113838e-41
0.02736856043 -0.05075392127 0.09933257103 6.490113838e-41
-0.01535357162 0.06066815555 0.04511626065 6.490113838e-41
-0.1668459028 -0.1498242021 0.0003984998621 6.490113838e-41
-0.00553054316 -0.2217600793 0.1294776797 6.490113838e-41
0.06789566576 -0.2016796768 0.1369540691 6.490113838e-41
-0.03441230208 0.09487233311 0.01276136655 6.490113838e-41
-0.0496028401 0.0394538343 0.01692545786 6.490113838e-41
0.005887973122 -0.01812005602 0.07079631835 6.490113838e-41
0.03428449109 -0.08733923733 0.1080795825 6.490113838e-41
-0.004479471594 0.09070039541 0.03981441632 6.490113838e-41
-0.05659732968 0.03512223065 0.007125420962 6.490113838e-41
0.00856329035 -0.04219489917 0.07993513346 6.490113838e-41
0.03594560176 -0.1040922701 0.1058090553 6.490113838e-41
-0.003711757949 0.08927893639 0.04039804265 6.490113838e-41
-0.05713962018 0.03600463271 0.005381511524 6.490113838e-41
0.003525719279 -0.04946801439 0.07791139185 6.490113838e-41
0.03724680841 -0.1146606579 0.1065034941 6.490113838e-41
-0.006417067256 0.1042033881 0.03731971234 6.490113838e-41
-0.1502038389 -0.2197272331 0.04644779861 6.490113838e-41
-0.00594315771 -0.239431262 0.1366518289 6.490113838e-41
0.06782398373 -0.2159092277 0.1400425285 6.490113838e-41
-0.03344278783 0.08019263297 0.02241976187 6.490113838e-41
-0.04900151864 0.03559127823 0.02171050571 6.490113838e-41
-0.004412011709 -0.04183033109 0.07062615454 6.490113838e-41
0.03425455838 -0.1008316576 0.1024380028 6.490113838e-41
-0.00623136526 0.111239545 0.03525549918 6.490113838e-41
-0.08215089142 0.05577360466 -0.009169854224 6.490113838e-41
0.01301690098 -0.03654295951 0.08547605574 6.490113838e-41
0.04093548283 -0.1272957474 0.1130573079 6.490113838e-41
-0.00222774595 0.100199163 0.04005562514 6.490113838e-41
0.1254518628 -0.1676135361 -0.2612502575 8.028094954e-40
-0.04972817376 -0.1136621013 -0.2648420036 8.028094954e-40
0.106051892 -0.1635901481 -0.2634947896 8.028094954e-40
0.09887961298 -0.1633213907 -0.2542134225 8.028094954e-40
0.1718595773 -0.1816874593 -0.2148012072 8.028094954e-40
-0.1074473336 -0.1413699538 -0.1045915112 8.028094954e-40
-0.08397111297 -0.1244383454 0.0460604392 8.028094954e-40
-0.09154078364 -0.1202335134 -0.00949887652 8.028094954e-40
0.1535143852 -0.1758720577 -0.2533458769 8.028094954e-40
-0.03116640635 -0.1152618304 -0.2492086887 8.028094954e-40
0.04940818995 -0.1392603964 -0.2741336226 8.028094954e-40
0.03581449017 -0.1389743388 -0.2573962808 8.028094954e-40
0.1363406479 -0.171158731 -0.2611734569 8.028094954e-40
0.02463644557 -0.1125406846 -0.2467527092 8.028094954e-40
-0.01107679494 -0.1196375564 -0.2593356371 8.028094954e-40
0.02088629641 -0.1299834847 -0.2536922991 8.028094954e-40
0.1288737208 -0.1686510593 -0.2619891167 8.028094954e-40
0.01347365417 -0.1131375283 -0.2431949377 8.028094954e-40
-0.07213106006 -0.1209683716 -0.228189379 8.028094954e-40
-0.007062701508 -0.1240115613 -0.2431062162 8.028094954e-40
0.1690918952 -0.1804319322 -0.2191425562 8.028094954e-40
-0.06970082223 -0.1320598125 -0.1986897737 8.028094954e-40
-0.07889754325 -0.126805529 0.07773865759 8.028094954e-40
-0.08453109115 -0.118976824 -0.007577825803 8.028094954e-40
0.1123676375 -0.1624585539 -0.2676570714 8.028094954e-40
0.007406449411 -0.112424843 -0.2518309951 8.028094954e-40
-0.02493993752 -0.1174714044 -0.2637800574 8.028094954e-40
-0.001996834995 -0.1259657741 -0.2419046462 8.028094954e-40
0.1615983546 -0.1782113165 -0.2400240302 8.028094954e-40
0.004963055253 -0.1109718159 -0.2506145835 8.028094954e-40
-0.08627346158 -0.1218977645 -0.1811611652 8.028094954e-40
-0.01840935834 -0.1202897653 -0.2479587942 8.028094954e-40
0.02550708503 -0.1176184937 -0.2873109579 1.540360521e-39
0.1152721047 -0.1213386878 -0.2205800861 1.540360521e-39
0.02811709605 -0.1165220067 -0.2870288491 1.540360521e-39
0.06501498073 -0.1036685333 -0.2794896364 1.540360521e-39
0.1259572506 -0.1001542658 -0.2477571517 1.540360521e-39
0.2028789371 -0.1110736206 0.02325604111 1.540360521e-39
-0.07769331336 -0.1489972174 -0.2928802073 1.540360521e-39
0.183675155 -0.1095064953 0.007598924451 1.540360521e-39
0.0398863554 -0.1102703735 -0.2841550112 1.540360521e-39
0.1761543006 -0.1115673631 -0.1287243664 1.540360521e-39
-0.03562218323 -0.1432976574 -0.2931797504 1.540360521e-39
0.1754613817 -0.1044453755 -0.2105519623 1.540360521e-39
0.05589125305 -0.1072847545 -0.278909266 1.540360521e-39
0.1800868362 -0.1086494103 -0.05695204064 1.540360521e-39
-0.03978360444 -0.1454322487 -0.2903921008 1.540360521e-39
0.1889389157 -0.1048371568 -0.1654028147 1.540360521e-39
0.0555315651 -0.1073671877 -0.2789020538 1.540360521e-39
0.171541065 -0.1109347492 -0.04687877744 1.540360521e-39
-0.04040748626 -0.14530541 -0.2940429747 1.540360521e-39
0.1813679188 -0.1094669402 -0.1639059186 1.540360521e-39
0.1518824399 -0.1049311832 -0.2287486941 1.540360521e-39
0.1776738763 -0.1171445698 0.07130017877 1.540360521e-39
-0.06305395067 -0.1491063684 -0.2914792001 1.540360521e-39
0.1681714654 -0.1137431338 0.05426401645 1.540360521e-39
0.04205192253 -0.1099621579 -0.2832376361 1.540360521e-39
0.1573421508 -0.1127474234 -0.08890586346 1.540360521e-39
-0.02290634066 -0.1427689791 -0.2949037552 1.540360521e-39
0.1563961059 -0.1156973019 -0.211770907 1.540360521e-39
0.07816063613 -0.104660362 -0.268281728 1.540360521e-39
0.1998405606 -0.1078376397 -0.01519760489 1.540360521e-39
-0.06259833276 -0.1489144713 -0.288708657 1.540360521e-39
0.1961664855 -0.1040588245 -0.1216269284 1.540360521e-39
-0.1024509892 -0.09492187202 0.2434963435 2.277910146e-39
-0.1706130952 -0.1095386147 0.2425796241 2.277910146e-39
-0.07076180726 -0.09970854968 0.275880903 2.277910146e-39
-0.2189150602 -0.1176414639 0.122853227 2.277910146e-39
0.04603651911 -0.07826404274 0.2837210596 2.277910146e-39
-0.05326759443 -0.09449914098 0.2818133533 2.277910146e-39
0.09438633919 -0.1015879437 0.3160707355 2.277910146e-39
-0.09110283107 -0.09730951488 0.2551639974 2.277910146e-39
-0.09080044925 -0.0931045562 0.2492766678 2.277910146e-39
-0.1699971259 -0.1064332724 0.2427893132 2.277910146e-39
-0.02384148166 -0.09686691314 0.3066158891 2.277910146e-39
-0.19337672 -0.1030341089 0.1652671695 2.277910146e-39
-0.07847012579 -0.09355033934 0.2584724426 2.277910146e-39
-0.1655183583 -0.1068668365 0.2466874123 2.277910146e-39
-0.005900102202 -0.09582204372 0.3139842749 2.277910146e-39
-0.183240205 -0.1059434935 0.1956103295 2.277910146e-39
-0.06768489629 -0.09253464639 0.2628142834 2.277910146e-39
-0.1619504839 -0.107133545 0.2486210614 2.277910146e-39
-0.005652997177 -0.0969318524 0.3120102882 2.277910146e-39
-0.1639609784 -0.1066222042 0.2146426737 2.277910146e-39
0.04922850803 -0.07992110401 0.2920747101 2.277910146e-39
-0.08226425946 -0.09508052468 0.2679527104 2.277910146e-39
0.0958461687 -0.09974773228 0.3167131543 2.277910146e-39
-0.09060798585 -0.09884328395 0.2607853711 2.277910146e-39
-0.08970241994 -0.09459136426 0.2562205493 2.277910146e-39
-0.1593123972 -0.1080632806 0.2521636784 2.277910146e-39
-0.03729030862 -0.09987016767 0.2999629378 2.277910146e-39
-0.1762237549 -0.1083053276 0.2021545917 2.277910146e-39
-0.03314985335 -0.08718957007 0.272416234 2.277910146e-39
-0.161597833 -0.1036287919 0.2452943325 2.277910146e-39
0.03971900418 -0.08900216967 0.3184185028 2.277910146e-39
-0.143753171 -0.1034575552 0.2246479541 2.277910146e-39
-0.07409147918 -0.2232886255 -0.1953342557 3.015101038e-39
-0.06390783936 -0.167046994 -0.1885965765 3.015101038e-39
0.009807063267 -0.1540065557 -0.161325112 3.015101038e-39
-0.01654778607 -0.1454564333 -0.1708404869 3.015101038e-39
-0.1268806309 -0.2639017105 -0.1220738515 3.015101038e-39
-0.0346324183 -0.2392881364 -0.1881351024 3.015101038e-39
-0.03968075663 -0.2722945809 -0.1065405086 3.015101038e-39
0.1445977688 -0.1196752861 -0.09773052484 3.015101038e-39
0.003471882083 -0.2263531685 -0.1863387376 3.015101038e-39
-0.08824830502 -0.1852264702 -0.1914800107 3.015101038e-39
0.01295696665 -0.1560913026 -0.1661536545 3.015101038e-39
0.006681030151 -0.1347650141 -0.155624494 3.015101038e-39
0.01776805893 -0.2405799329 -0.1812966019 3.015101038e-39
-0.08405729383 -0.2005611658 -0.1899214983 3.015101038e-39
0.03322061896 -0.1652303636 -0.1683477014 3.015101038e-39
0.02803660929 -0.133455202 -0.1532707512 3.015101038e-39
0.02161634341 -0.2453304827 -0.1771403998 3.015101038e-39
-0.08158438653 -0.2040376812 -0.1888060123 3.015101038e-39
0.06403359771 -0.1705171913 -0.1640547812 3.015101038e-39
0.03642882407 -0.1304285377 -0.149935469 3.015101038e-39
-0.1104400679 -0.2705046535 -0.1010041535 3.015101038e-39
0.01356607862 -0.2348823398 -0.1890467703 3.015101038e-39
-0.06590625644 -0.2706210911 -0.1024211869 3.015101038e-39
0.1382450759 -0.1151674017 -0.09453584254 3.015101038e-39
0.03539062291 -0.2405576855 -0.1819745749 3.015101038e-39
-0.07577221096 -0.1978525668 -0.1884585768 3.015101038e-39
0.04439620301 -0.1573384106 -0.1537449211 3.015101038e-39
0.02724720165 -0.1308728606 -0.1516884863 3.015101038e-39
-0.01394585986 -0.2513903975 -0.1664848179 3.015101038e-39
-0.09914287925 -0.2075777203 -0.1919703782 3.015101038e-39
0.03232106939 -0.214946121 -0.1594120562 3.015101038e-39
0.07368779927 -0.1272818297 -0.1440205127 3.015101038e-39
-0.2609143555 -0.1374211907 0.07486004382 3.75229193e-39
-0.2172850817 -0.1062630937 0.1111495942 3.75229193e-39
-0.2453655005 -0.1192571521 0.07328808308 3.75229193e-39
-0.2632555664 -0.1546353996 0.07474785298 3.75229193e-39
-0.2894094288 -0.107168369 0.02531713061 3.75229193e-39
-0.1244584844 -0.09473643452 0.2226761878 3.75229193e-39
-0.2534632683 -0.1258969605 0.009084861726 3.75229193e-39
-0.06794883311 -0.06362912059 0.2587818503 3.75229193e-39
-0.2835954726 -0.1345380545 0.05646744743 3.75229193e-39
-0.1917356551 -0.09002471715 0.139721036 3.75229193e-39
-0.2631972432 -0.1233204752 0.04712424055 3.75229193e-39
-0.2393663824 -0.1609856486 0.1051538438 3.75229193e-39
-0.2891762257 -0.1176106334 0.04876683652 3.75229193e-39
-0.1833513677 -0.08317380399 0.147347942 3.75229193e-39
-0.2626692057 -0.1230360419 0.04319038615 3.75229193e-39
-0.2276458144 -0.1574317664 0.1278096586 3.75229193e-39
-0.2884868085 -0.1161784306 0.04866599292 3.75229193e-39
-0.1826596111 -0.08420178294 0.1508488059 3.75229193e-39
-0.2594977617 -0.1225093082 0.04282870516 3.75229193e-39
-0.2243160903 -0.1580752432 0.1336136162 3.75229193e-39
-0.2876256108 -0.1072360128 0.01563677937 3.75229193e-39
-0.1389511079 -0.07677326351 0.2079412937 3.75229193e-39
-0.2547991276 -0.1247125566 0.00879251305 3.75229193e-39
-0.05882587656 -0.05050619319 0.2550287545 3.75229193e-39
-0.281360954 -0.1222376153 0.05595568195 3.75229193e-39
-0.192405358 -0.09487951547 0.1420092136 3.75229193e-39
-0.2611667812 -0.1215490773 0.04581635073 3.75229193e-39
-0.2373533249 -0.1617698818 0.10962639 3.75229193e-39
-0.2947072685 -0.1083573774 0.03716256469 3.75229193e-39
-0.1731634736 -0.08077871799 0.15060395 3.75229193e-39
-0.26423347 -0.1251613349 0.03720456734 3.75229193e-39
-0.1876143515 -0.1538116187 0.181201458 3.75229193e-39
-0.04390288889 0.1740772575 0.001250971342 4.48912409e-39
-0.05166794732 -0.2453567535 -0.04602651671 4.48912409e-39
-0.02985075489 0.0397329554 0.004136452917 4.48912409e-39
-0.06494377553 -0.0571009405 -0.01591109671 4.48912409e-39
0.01856926829 0.2865299582 0.0124064032 4.48912409e-39
0.01690266654 -0.2015920281 0.0144428499 4.48912409e-39
0.04119252414 -0.09887463599 0.01498264261 4.48912409e-39
0.03110141121 -0.3321199119 -0.0186311584 4.48912409e-39
-0.03355097026 0.2497699112 0.005170116667 4.48912409e-39
-0.01834196039 -0.3648421764 -0.0513047576 4.48912409e-39
-0.03882008418 -0.1383480579 -0.01528000925 4.48912409e-39
-0.05435448512 -0.1011124402 -0.01593834348 4.48912409e-39
-0.02157987468 0.25133726 0.007671135012 4.48912409e-39
0.005104322452 -0.3765426874 -0.04023949802 4.48912409e-39
-0.03840722144 -0.1205655336 -0.01303829346 4.48912409e-39
-0.03417843208 -0.1363254786 -0.01007968839 4.48912409e-39
-0.01894383691 0.2507852018 0.008111183532 4.48912409e-39
0.01241665985 -0.3722188473 -0.03556735441 4.48912409e-39
-0.03392043337 -0.1102695167 -0.008519328199 4.48912409e-39
-0.02235051803 -0.1651317626 -0.004888887983 4.48912409e-39
0.01950569078 0.2628064454 0.009454705752 4.48912409e-39
0.02046977542 -0.2289900929 0.01497894619 4.48912409e-39
0.02584991232 -0.1245002523 0.0191698838 4.48912409e-39
0.02939661965 -0.3318158984 -0.01136913709 4.48912409e-39
-0.02383833937 0.2324701399 0.007267501671 4.48912409e-39
0.01473617833 -0.3687125444 -0.03473201022 4.48912409e-39
-0.03590128571 -0.04192567989 -0.002305254806 4.48912409e-39
-0.03096439689 -0.1173044071 -0.001577905961 4.48912409e-39
-0.01509956643 0.2646779418 0.00876809936 4.48912409e-39
-0.003675742308 -0.3683791757 -0.03055033833 4.48912409e-39
-0.01646525227 -0.2309396714 0.00400896091 4.48912409e-39
-0.02022965625 -0.2245095819 -0.01498341467 4.48912409e-39
0.004589972552 -0.1804228127 -0.0565123111 5.225597518e-39
-0.1756731868 -0.2094839066 0.0004106166016 5.225597518e-39
-0.1794578284 -0.208566457 0.0002051226329 5.225597518e-39
0.01072697155 -0.1773522049 -0.08783566952 5.225597518e-39
0.1331491619 -0.1466408223 0.004458584823 5.225597518e-39
-0.194321394 -0.1794417053 0.09024620056 5.225597518e-39
0.01796909049 -0.1641504616 -0.0301109571 5.225597518e-39
-0.1913028955 -0.1444126666 0.05424631014 5.225597518e-39
0.02271464095 -0.1686366946 -0.033855699 5.225597518e-39
-0.1854553074 -0.2119550109 0.02098401263 5.225597518e-39
-0.1123243868 -0.2038355619 -0.05776304007 5.225597518e-39
-0.07632094622 -0.1938774884 -0.06865315139 5.225597518e-39
0.03198847547 -0.1633928716 -0.03982964531 5.225597518e-39
-0.1859570593 -0.2118512839 0.0225422103 5.225597518e-39
-0.0947323069 -0.2014395148 -0.06618621945 5.225597518e-39
-0.1127110794 -0.2008005381 -0.05174172297 5.225597518e-39
0.03625350073 -0.161981225 -0.0475736782 5.225597518e-39
-0.1869280934 -0.2121572495 0.02446310781 5.225597518e-39
-0.1021193564 -0.2014563233 -0.06649968773 5.225597518e-39
-0.1177688912 -0.2000100762 -0.04347025231 5.225597518e-39
0.133781448 -0.1444989443 0.01670007966 5.225597518e-39
-0.1973009557 -0.1871445626 0.08482022583 5.225597518e-39
0.04176537693 -0.1568256915 -0.0165727362 5.225597518e-39
-0.184539333 -0.1263166666 0.07569725811 5.225597518e-39
0.02560878731 -0.170066908 -0.06810352951 5.225597518e-39
-0.1798612773 -0.2091122717 0.008133395575 5.225597518e-39
-0.1529003382 -0.2038883716 -0.03938407823 5.225597518e-39
-0.06988751888 -0.1907202601 -0.06643152982 5.225597518e-39
0.06224930286 -0.1543517858 -0.01775974408 5.225597518e-39
-0.1946380436 -0.2106526345 0.04424745962 5.225597518e-39
-0.05178629234 -0.1953075677 -0.07968568057 5.225597518e-39
-0.1742359102 -0.2080377787 0.0009999598842 5.225597518e-39
0.05914977938 -0.1041543409 0.03365544602 5.962428276e-39
-0.0551944226 -0.1376188993 0.168537125 5.962428276e-39
0.06201332435 -0.1338561177 0.2292211205 5.962428276e-39
0.07230819762 -0.1334345341 0.219012633 5.962428276e-39
0.1435886621 -0.1428947449 0.2274461538 5.962428276e-39
-0.2029194236 -0.1470485777 0.02560665831 5.962428276e-39
-0.112489067 -0.1312161237 -0.0294255726 5.962428276e-39
-0.06439166516 -0.1460418701 0.2580345273 5.962428276e-39
0.1211211458 -0.1120927706 0.08811418712 5.962428276e-39
-0.1425553709 -0.1412769109 0.1632821858 5.962428276e-39
0.03335188702 -0.129704535 0.1958704889 5.962428276e-39
0.02908875234 -0.1350808889 0.2523412108 5.962428276e-39
0.1338656396 -0.1196512431 0.1149220392 5.962428276e-39
-0.1605672389 -0.1414843649 0.1552115381 5.962428276e-39
0.0249094367 -0.1306664795 0.1795471311 5.962428276e-39
-0.00432666298 -0.1325196475 0.2470679432 5.962428276e-39
0.1341872215 -0.1202065721 0.1185817495 5.962428276e-39
-0.1532787234 -0.1404383928 0.1523186415 5.962428276e-39
0.0136115076 -0.1321845502 0.1637767553 5.962428276e-39
0.0001911204308 -0.1327623278 0.2482824922 5.962428276e-39
0.1291473657 -0.139252156 0.2192890197 5.962428276e-39
-0.1964787841 -0.1486410946 0.00480625825 5.962428276e-39
-0.111874029 -0.1311477721 -0.02655467391 5.962428276e-39
-0.08262004703 -0.1419762373 0.2376478761 5.962428276e-39
0.1187250316 -0.1160641015 0.09777742624 5.962428276e-39
-0.09209515154 -0.1397330314 0.1678092629 5.962428276e-39
0.008342413232 -0.1317156851 0.1891078502 5.962428276e-39
0.02861604281 -0.1328496933 0.2415306419 5.962428276e-39
0.148026973 -0.1226886809 0.1529039741 5.962428276e-39
-0.2014045119 -0.1477694213 0.1352805346 5.962428276e-39
-0.005443715025 -0.1351634413 0.1090791747 5.962428276e-39
-0.03550258651 -0.1346939653 0.2487805188 5.962428276e-39
0.06566590816 -0.1973153949 0.1761478484 6.698542971e-39
-0.1600571126 -0.2992226481 0.03548849374 6.698542971e-39
-0.07754450291 -0.2369010299 0.2037991881 6.698542971e-39
-0.04433465004 -0.269204855 0.1987275034 6.698542971e-39
-0.09034465998 -0.3403958678 0.08527286351 6.698542971e-39
-0.1932058632 -0.2871690094 -0.07217212766 6.698542971e-39
0.04472317547 -0.171433717 0.2108145207 6.698542971e-39
-0.167949602 -0.313988477 -0.0008674857672 6.698542971e-39
0.03884086013 -0.2574501038 0.1722699404 6.698542971e-39
-0.1813769042 -0.2920303643 0.01305827033 6.698542971e-39
-0.04348439723 -0.2200846076 0.216617763 6.698542971e-39
-0.06494476646 -0.3040421605 0.1645032316 6.698542971e-39
0.02256333828 -0.2906633615 0.1737056673 6.698542971e-39
-0.1898474842 -0.2899324298 0.006922961213 6.698542971e-39
-0.02640126832 -0.2137984633 0.2172531635 6.698542971e-39
-0.09335713834 -0.3028230071 0.1119943187 6.698542971e-39
0.01998058707 -0.2957718074 0.1746583134 6.698542971e-39
-0.1923014969 -0.2909795344 0.004454907496 6.698542971e-39
-0.03165440261 -0.210126698 0.2166986912 6.698542971e-39
-0.1106315479 -0.2961851358 0.08633481711 6.698542971e-39
-0.1188045219 -0.3327896893 0.05099596828 6.698542971e-39
-0.1964839399 -0.2830329835 -0.09297528118 6.698542971e-39
0.05730273947 -0.1656873971 0.2053498924 6.698542971e-39
-0.1760418564 -0.3129983842 -0.022929281 6.698542971e-39
0.0249497965 -0.26701352 0.1778862476 6.698542971e-39
-0.1842042804 -0.297250241 0.01164007094 6.698542971e-39
-0.0587750338 -0.2114312351 0.2140696645 6.698542971e-39
-0.08380868286 -0.2956459522 0.1302793026 6.698542971e-39
0.01021945663 -0.3276636004 0.1645423621 6.698542971e-39
-0.2166226208 -0.2669315338 -0.03236130252 6.698542971e-39
0.009269657545 -0.199905917 0.2166815996 6.698542971e-39
-0.1409902424 -0.2991835177 0.04584169388 6.698542971e-39
-0.216361165 -0.3183073699 0.004946697969 7.434656265e-39
-0.110294804 -0.3729088604 0.01789215021 7.434656265e-39
-0.1060737148 -0.3731518984 -0.04040255025 7.434656265e-39
-0.06583773345 -0.3888697922 0.02233322337 7.434656265e-39
-0.1055325195 -0.3665547669 -0.09460134804 7.434656265e-39
-0.09959442168 -0.3594678342 0.1265201718 7.434656265e-39
-0.07903210074 -0.376839906 0.04754538834 7.434656265e-39
-0.0004805177159 -0.3636365235 -0.182052806 7.434656265e-39
-0.1801755577 -0.3355855942 -0.01917200349 7.434656265e-39
-0.1068126783 -0.3660044074 0.04421719536 7.434656265e-39
-0.116119355 -0.3631907105 -0.02540173009 7.434656265e-39
-0.05218064785 -0.3906508982 0.004344614688 7.434656265e-39
-0.1313187778 -0.3616715968 -0.03191686049 7.434656265e-39
-0.1014548466 -0.3674021661 0.05459453166 7.434656265e-39
-0.1173594594 -0.3632546365 -0.02367081121 7.434656265e-39
-0.05003993958 -0.3918691576 0.01049898751 7.434656265e-39
-0.1234112084 -0.3656917512 -0.03688803688 7.434656265e-39
-0.100012973 -0.3691567481 0.05309507996 7.434656265e-39
-0.1057774276 -0.3718922734 -0.02848559245 7.434656265e-39
-0.04502559453 -0.3936944306 0.001712186495 7.434656265e-39
-0.1030052304 -0.3626948893 -0.09758909047 7.434656265e-39
-0.07873327285 -0.3677610159 0.1177225634 7.434656265e-39
-0.08117444813 -0.3744113445 0.04993310198 7.434656265e-39
-0.0006181299104 -0.3624898195 -0.1695943028 7.434656265e-39
-0.1414835453 -0.3541973531 -0.008680080995 7.434656265e-39
-0.09776745737 -0.3741842508 0.03592880443 7.434656265e-39
-0.09479518235 -0.3812634051 -0.04721571878 7.434656265e-39
-0.05039035529 -0.3944148719 0.009081114084 7.434656265e-39
-0.1345266998 -0.3538779318 -0.06412235647 7.434656265e-39
-0.110639587 -0.3602121472 0.08025082201 7.434656265e-39
-0.1086860448 -0.3688658774 -0.007184724789 7.434656265e-39
-0.04092675447 -0.3919356763 -0.004533557687 7.434656265e-39
0.1442228109 -0.3098922372 0.04682926089 8.170410826e-39
0.1601864547 -0.3064037859 0.0453812927 8.170410826e-39
0.04404688627 -0.2215269357 0.04217815772 8.170410826e-39
0.03109103628 0.01508505177 0.05554361641 8.170410826e-39
0.01680388674 0.2251757383 0.002830035985 8.170410826e-39
0.1718134135 -0.3217617571 0.01500632055 8.170410826e-39
0.00981037505 0.3337729573 0.0007933716406 8.170410826e-39
0.1490873247 -0.2691791058 0.06489738077 8.170410826e-39
0.06194463 -0.2715862095 0.04394524917 8.170410826e-39
0.1824526936 -0.3035020828 0.02860036865 8.170410826e-39
0.01756005734 -0.1472433805 0.02357019484 8.170410826e-39
0.08464550972 -0.2092315108 0.07377359271 8.170410826e-39
0.04190821946 -0.2344532758 0.03595481813 8.170410826e-39
0.1700733155 -0.3143444955 0.02826330066 8.170410826e-39
0.02748074941 -0.1957322955 0.02810895629 8.170410826e-39
0.09372985363 -0.2316494584 0.06953126192 8.170410826e-39
0.03499617428 -0.2141073644 0.03375874832 8.170410826e-39
0.1647864282 -0.3168548644 0.03007061221 8.170410826e-39
0.03314671293 -0.2107754201 0.03055087663 8.170410826e-39
0.08895813674 -0.2266848385 0.06600886583 8.170410826e-39
0.01761346497 0.2346096337 0.00325315306 8.170410826e-39
0.1318135858 -0.3206422329 0.01465219259 8.170410826e-39
0.01110481285 0.3142008185 0.000717928051 8.170410826e-39
0.1611452103 -0.2885966599 0.0587503016 8.170410826e-39
0.0541129671 -0.2599789798 0.0402985625 8.170410826e-39
0.1536094397 -0.3174790144 0.03515939787 8.170410826e-39
0.04057147726 -0.2372598648 0.0297284741 8.170410826e-39
0.05942123756 -0.1734085381 0.05991879106 8.170410826e-39
0.01993819512 -0.1683257967 0.02888694219 8.170410826e-39
0.193224147 -0.3047234118 0.01909050345 8.170410826e-39
0.006653866265 -0.01783680543 0.01260778867 8.170410826e-39
0.127029866 -0.2408418506 0.06990037858 8.170410826e-39
-0.1131388545 -0.052056171 0.1306744218 8.906165387e-39
-0.004566950724 -0.102913022 0.22770904 8.906165387e-39
-0.05158701167 -0.0856410116 0.1935141534 8.906165387e-39
-0.05892485008 -0.08562427014 0.1982010454 8.906165387e-39
-0.1020819396 -0.07368342578 0.209813267 8.906165387e-39
0.08020230383 -0.1212336868 0.2480482757 8.906165387e-39
-0.1031168923 -0.06406927854 -0.01747083291 8.906165387e-39
-0.1011524349 -0.05330659449 0.1629751474 8.906165387e-39
-0.1148292348 -0.05534561723 0.1635184288 8.906165387e-39
0.006129933055 -0.1056300029 0.2336569279 8.906165387e-39
-0.09506866336 -0.06011787429 0.09983011335 8.906165387e-39
-0.03816390038 -0.0945795998 0.2208832949 8.906165387e-39
-0.1194179431 -0.06219064072 0.1793004125 8.906165387e-39
0.003345886711 -0.1059230417 0.2364161611 8.906165387e-39
-0.09836154431 -0.05934970826 0.09223357588 8.906165387e-39
-0.04556293786 -0.0905682072 0.2145716548 8.906165387e-39
-0.1212209091 -0.06323020905 0.1790421754 8.906165387e-39
0.0006039663567 -0.10502211 0.2350494117 8.906165387e-39
-0.09557840228 -0.05938619748 0.1089115888 8.906165387e-39
-0.043695122 -0.08822921664 0.2119325399 8.906165387e-39
-0.0782386288 -0.08131463826 0.226429686 8.906165387e-39
0.0736368075 -0.123029165 0.2502087951 8.906165387e-39
-0.1048620269 -0.06214684248 -0.01835975796 8.906165387e-39
-0.1006337777 -0.05384319276 0.159639135 8.906165387e-39
-0.1217067242 -0.05798858404 0.1683563143 8.906165387e-39
-0.01080708951 -0.09925600886 0.2303738892 8.906165387e-39
-0.08344954252 -0.06562901288 0.1402042955 8.906165387e-39
-0.03682979569 -0.08997111022 0.218230024 8.906165387e-39
-0.1137336046 -0.0657608062 0.1903855801 8.906165387e-39
0.03552947193 -0.1188264564 0.2461296022 8.906165387e-39
-0.09811206162 -0.06308082491 0.04888281599 8.906165387e-39
-0.05456400663 -0.08615528792 0.2032890916 8.906165387e-39
0.04631656781 -0.3544126749 0.0879959166 9.641561216e-39
0.03283116594 -0.3540780246 0.1293568909 9.641561216e-39
-0.01996822283 -0.3444583118 0.1184154674 9.641561216e-39
0.03133212402 -0.3527965248 0.08199807256 9.641561216e-39
0.09297429025 -0.3598132432 -0.0423591733 9.641561216e-39
-0.1136771664 -0.3425684273 0.1446707249 9.641561216e-39
-0.1522024572 -0.3057252467 0.02440572903 9.641561216e-39
-0.05366794765 -0.3472546637 0.1503516287 9.641561216e-39
0.07073179632 -0.3564427793 0.03431991488 9.641561216e-39
0.01506135333 -0.3555910885 0.1483344883 9.641561216e-39
-0.05009767041 -0.341961652 0.120069772 9.641561216e-39
0.009614126757 -0.3410873711 0.1296076924 9.641561216e-39
0.06968707591 -0.35881567 0.03202945739 9.641561216e-39
0.0007952598971 -0.364353627 0.1487175226 9.641561216e-39
-0.06935637444 -0.3371779323 0.1156932339 9.641561216e-39
-0.0007249115733 -0.345349431 0.1204999462 9.641561216e-39
0.06802620739 -0.3589236438 0.03379463404 9.641561216e-39
-0.003732611891 -0.3668368459 0.1523855925 9.641561216e-39
-0.06770850718 -0.3373602033 0.1228396073 9.641561216e-39
-0.001575189293 -0.3450114727 0.133450821 9.641561216e-39
0.07844169438 -0.3635886312 -0.04157969728 9.641561216e-39
-0.1222325042 -0.3445684314 0.1279155016 9.641561216e-39
-0.1446271539 -0.3163740635 0.0198668167 9.641561216e-39
-0.07004340738 -0.3417681158 0.1402406991 9.641561216e-39
0.06375620514 -0.3560443521 0.05303048715 9.641561216e-39
0.004087376874 -0.3664423525 0.1479638219 9.641561216e-39
-0.04407795519 -0.3460555673 0.1254947037 9.641561216e-39
0.01375304628 -0.3449976146 0.1331696808 9.641561216e-39
0.0805265829 -0.360343039 -0.003225151449 9.641561216e-39
-0.03872931749 -0.3590580523 0.1702887267 9.641561216e-39
-0.1108156145 -0.324257344 0.09631513804 9.641561216e-39
-0.01428524498 -0.3413349092 0.1317653656 9.641561216e-39
0.06631785631 -0.08570180088 -0.1987379491 1.037659831e-38
-0.05648198351 -0.08315774053 -0.2039781511 1.037659831e-38
0.03418933973 -0.08923704922 -0.2537003756 1.037659831e-38
0.1127015352 -0.09933097661 -0.2504342794 1.037659831e-38
0.1304170489 -0.09919594228 -0.1579920053 1.037659831e-38
-0.10311272 -0.08893220127 -0.0127005307 1.037659831e-38
-0.1025655568 -0.09340164065 -0.08589009941 1.037659831e-38
0.002136741299 -0.0879650712 -0.2882085741 1.037659831e-38
0.09924864769 -0.09445130825 -0.2080648094 1.037659831e-38
-0.06601887196 -0.08475381136 -0.1709744036 1.037659831e-38
0.003272734117 -0.08738910407 -0.275369823 1.037659831e-38
0.08364832401 -0.09401524812 -0.2729851604 1.037659831e-38
0.09978544712 -0.09425602108 -0.2047382742 1.037659831e-38
-0.07074833661 -0.08549993485 -0.1406403929 1.037659831e-38
-0.03174238652 -0.08930397779 -0.274430275 1.037659831e-38
0.06982879341 -0.09016101807 -0.2709140778 1.037659831e-38
0.09908152372 -0.09402922541 -0.2034249157 1.037659831e-38
-0.07188854367 -0.08582109958 -0.1382914931 1.037659831e-38
-0.03787176684 -0.09078143537 -0.2691626847 1.037659831e-38
0.06597240269 -0.09103137255 -0.2737062275 1.037659831e-38
0.1320804656 -0.09999661893 -0.138259396 1.037659831e-38
-0.1038663536 -0.08863756806 -0.004774914123 1.037659831e-38
-0.09660497308 -0.09187193215 -0.1038248092 1.037659831e-38
-0.03826149926 -0.08702056855 -0.259939611 1.037659831e-38
0.08954849839 -0.09265007079 -0.2066720426 1.037659831e-38
-0.0656420514 -0.08533549309 -0.1625998616 1.037659831e-38
-0.01106879767 -0.0901439786 -0.2744134367 1.037659831e-38
0.0759947747 -0.09522823989 -0.2776374817 1.037659831e-38
0.1158537343 -0.09570525587 -0.1983361542 1.037659831e-38
-0.08711697906 -0.08751047403 -0.08754450083 1.037659831e-38
-0.06352396309 -0.09007310867 -0.2453995198 1.037659831e-38
0.04127427936 -0.08897335827 -0.272274673 1.037659831e-38
-0.002421381883 0.3355975151 -0.006488962099 1.111163541e-38
-0.01415815204 0.4539441168 0.01327272225 1.111163541e-38
-0.02260279842 0.4377029538 0.005260146689 1.111163541e-38
0.0009111610707 0.267893821 -0.009203998372 1.111163541e-38
-0.008147908375 0.1303639561 -0.01119611599 1.111163541e-38
0.026354542 0.4508275092 0.0194580052 1.111163541e-38
-0.001517145662 0.2933574915 -0.002052488271 1.111163541e-38
0.002263482427 0.4685592949 0.005586738698 1.111163541e-38
-0.002673835726 0.2777610123 -0.003592843655 1.111163541e-38
-0.002754927147 0.45840168 0.0187732242 1.111163541e-38
-0.01868387498 0.424323827 -0.001686047064 1.111163541e-38
0.002069179667 0.3345088065 -0.009916971438 1.111163541e-38
0.0007564275293 0.2950007617 -0.005418478977 1.111163541e-38
0.004188833293 0.4625422657 0.01859775186 1.111163541e-38
-0.01781795733 0.4017159939 -0.001424813643 1.111163541e-38
0.001636421657 0.3813108504 -0.01089992374 1.111163541e-38
0.001265957253 0.3024038076 -0.005896563176 1.111163541e-38
0.002541551366 0.4630631804 0.01798942685 1.111163541e-38
-0.0184872169 0.3974291682 -0.0005995686515 1.111163541e-38
0.0009195355233 0.3786841929 -0.01026831567 1.111163541e-38
-0.003391603008 0.1888870597 -0.009888314642 1.111163541e-38
0.03070377745 0.443595916 0.01890669204 1.111163541e-38
0.001705913106 0.2915303111 -0.003465062007 1.111163541e-38
0.003334152279 0.4725479484 0.0130656492 1.111163541e-38
0.001105039846 0.3162096739 -0.006037921645 1.111163541e-38
-0.004629027564 0.4613184929 0.01646076515 1.111163541e-38
-0.02009528689 0.415011704 0.0007808923838 1.111163541e-38
0.00413770834 0.3048889637 -0.007698855363 1.111163541e-38
-0.001503369538 0.2502707541 -0.006154952571 1.111163541e-38
0.01650558226 0.4585934579 0.02033786289 1.111163541e-38
-0.01601938158 0.356968224 -0.0002374588512 1.111163541e-38
-0.003272082191 0.4442054927 -0.01091537811 1.111163541e-38
0.1370486766 -0.1508211643 -0.06073947251 1.184631237e-38
-0.02511149831 -0.1049251854 -0.08192554116 1.184631237e-38
-0.05033638328 0.01741301827 -0.0121765295 1.184631237e-38
0.02214785479 0.01864528656 -0.01134357043 1.184631237e-38
0.2238572687 -0.1755400002 -0.07300228626 1.184631237e-38
0.05624896288 -0.2167458832 -0.1189379171 1.184631237e-38
0.1936226338 -0.1564078778 -0.06510551274 1.184631237e-38
0.0357134901 -0.02646142803 -0.01588563435 1.184631237e-38
0.1482136101 -0.1852525324 -0.08483598381 1.184631237e-38
-0.01860883646 -0.1346951723 -0.09466172755 1.184631237e-38
0.00166558323 -0.05217016488 -0.03900463134 1.184631237e-38
-0.002298045671 0.02408786491 -0.01142813824 1.184631237e-38
0.1320344657 -0.1732963175 -0.07775337249 1.184631237e-38
-0.01414558571 -0.1511728615 -0.1011051163 1.184631237e-38
0.02156712115 -0.09548772871 -0.06058299541 1.184631237e-38
-0.0050047962 0.02328229882 -0.01161419693 1.184631237e-38
0.1339097619 -0.1701417118 -0.07562333345 1.184631237e-38
-0.01228094194 -0.1580858231 -0.1038784757 1.184631237e-38
0.02558162622 -0.08189745992 -0.05182301626 1.184631237e-38
-0.006246857811 0.0259903837 -0.01125267521 1.184631237e-38
0.1779266 -0.1591422707 -0.06700884551 1.184631237e-38
0.07055911422 -0.2395398617 -0.133361727 1.184631237e-38
0.2139594406 -0.2025370747 -0.09718861431 1.184631237e-38
0.04606390372 -0.06402018666 -0.03636842221 1.184631237e-38
0.1199486554 -0.1605084687 -0.0699595511 1.184631237e-38
-0.01733530313 -0.1420275718 -0.09834378958 1.184631237e-38
-0.01059650443 0.003812652314 -0.01270832401 1.184631237e-38
-0.002033327706 0.03071203269 -0.01018901449 1.184631237e-38
0.1549952775 -0.1718082875 -0.0746088773 1.184631237e-38
0.00470690662 -0.1810419708 -0.1114006042 1.184631237e-38
0.05575716123 -0.2023053467 -0.1101441383 1.184631237e-38
-0.009557254612 0.01466275007 -0.01229885407 1.184631237e-38
0.02235577255 0.06819330901 -0.07346320152 1.258099074e-38
-0.04997177422 -0.07965704799 -0.15272066 1.258099074e-38
-0.08963021636 -0.02121235244 -0.1017131731 1.258099074e-38
-0.0009963434422 0.01535374299 -0.08486495167 1.258099074e-38
0.06021479517 0.07178862393 -0.02789226733 1.258099074e-38
-0.2295569181 -0.1170562878 -0.08793127537 1.258099074e-38
0.006053299177 0.01949741505 -0.08470284939 1.258099074e-38
0.05645943433 -0.003675235668 -0.07678552717 1.258099074e-38
0.03018545173 0.1065505072 -0.06239315867 1.258099074e-38
-0.1158019528 -0.1023972332 -0.1455755234 1.258099074e-38
-0.02243834361 -0.008644186892 -0.09519896656 1.258099074e-38
-0.01822013222 0.007566859014 -0.0868876949 1.258099074e-38
0.033834517 0.1011299863 -0.06089873239 1.258099074e-38
-0.125075385 -0.1081071869 -0.1451140642 1.258099074e-38
-0.0238545537 -0.01279798336 -0.09878379107 1.258099074e-38
-0.01364320051 -0.00355039537 -0.0924153924 1.258099074e-38
0.03469689935 0.1106581241 -0.05851648003 1.258099074e-38
-0.1144089401 -0.108075507 -0.150068298 1.258099074e-38
-0.0203970205 -0.009666939266 -0.09641861916 1.258099074e-38
0.008198576979 0.019158924 -0.08356617391 1.258099074e-38
0.063301377 0.06290629506 -0.02867022343 1.258099074e-38
-0.2371337861 -0.1193862036 -0.0825342983 1.258099074e-38
-0.005844101775 -0.00119923742 -0.09076415747 1.258099074e-38
0.05117816851 -0.01011048816 -0.08525270969 1.258099074e-38
0.03079388104 0.1097740009 -0.06159818545 1.258099074e-38
-0.08218725026 -0.09980518371 -0.158404693 1.258099074e-38
-0.04204852879 -0.007670386229 -0.09580361098 1.258099074e-38
0.009313440882 0.03359118104 -0.08068779111 1.258099074e-38
0.04082396626 0.1039167643 -0.05130305514 1.258099074e-38
-0.180302605 -0.1213176027 -0.133201763 1.258099074e-38
-0.02161144651 -0.01735695451 -0.1022702157 1.258099074e-38
-0.007517158985 -0.01741896942 -0.09906409681 1.258099074e-38
0.2727911174 -0.1397846192 -0.01938717812 1.331530897e-38
0.1743255407 -0.1243957579 -0.1862535179 1.331530897e-38
0.2672427893 -0.142781496 -0.03879425675 1.331530897e-38
0.2797283828 -0.1460754424 0.05421048403 1.331530897e-38
0.2912978828 -0.1536501497 0.01044341922 1.331530897e-38
0.08742921799 -0.1953803748 -0.2350222319 1.331530897e-38
0.1737377495 -0.1234538555 -0.1762647927 1.331530897e-38
0.204080686 -0.1677742153 0.1497786492 1.331530897e-38
0.2829250693 -0.140945822 0.01859213039 1.331530897e-38
0.1504787654 -0.1308362931 -0.2107670605 1.331530897e-38
0.2373809367 -0.1326877326 -0.08903355151 1.331530897e-38
0.2672685683 -0.1447627246 0.05772439763 1.331530897e-38
0.2734344006 -0.1463036835 0.05447560921 1.331530897e-38
0.1483103782 -0.1318361908 -0.2118413895 1.331530897e-38
0.2438330054 -0.1351630986 -0.08028575778 1.331530897e-38
0.2697557211 -0.1455452442 0.05905662477 1.331530897e-38
0.2738040686 -0.1463779658 0.05453453213 1.331530897e-38
0.1487369239 -0.1312162727 -0.2116547525 1.331530897e-38
0.246683687 -0.1347149014 -0.07889820635 1.331530897e-38
0.2719238102 -0.1456804723 0.05891414359 1.331530897e-38
0.2882745266 -0.1551035941 -0.001311867731 1.331530897e-38
0.09004817903 -0.1959530562 -0.2314273864 1.331530897e-38
0.1831256151 -0.1215033829 -0.1659641415 1.331530897e-38
0.1913525313 -0.1721717417 0.1571608782 1.331530897e-38
0.2820594013 -0.1438881755 0.03292723745 1.331530897e-38
0.1614358127 -0.1292347312 -0.1999533176 1.331530897e-38
0.2476673573 -0.1347118616 -0.07790671289 1.331530897e-38
0.2797923088 -0.1444567442 0.04744557664 1.331530897e-38
0.260627389 -0.1510571539 0.07777948678 1.331530897e-38
0.1236201376 -0.1494769007 -0.2269836664 1.331530897e-38
0.2446686476 -0.1348003596 -0.08071083575 1.331530897e-38
0.254778713 -0.1532699913 0.0849288553 1.331530897e-38
-0.03828049824 -0.08851086348 -0.2891956866 1.404926846e-38
-0.04958470166 -0.08733606339 -0.2962240875 1.404926846e-38
-0.03194397315 -0.09096162766 -0.2618426681 1.404926846e-38
0.1059764475 -0.1065287516 -0.2545495331 1.404926846e-38
-0.1322053373 -0.07920973003 -0.2688585222 1.404926846e-38
-0.1505998224 -0.114298895 -0.2487599403 1.404926846e-38
0.0917841047 -0.08512584865 -0.2139327824 1.404926846e-38
-0.008165981621 -0.08729700744 -0.2990438938 1.404926846e-38
-0.0543865338 -0.08672015369 -0.2865062058 1.404926846e-38
-0.07114536315 -0.08505472541 -0.2985969186 1.404926846e-38
0.00671388628 -0.0896794945 -0.2505553663 1.404926846e-38
0.08829759061 -0.1095268801 -0.2908169031 1.404926846e-38
-0.05717628077 -0.08665142953 -0.284817934 1.404926846e-38
-0.06972011179 -0.08568395674 -0.2917751968 1.404926846e-38
0.04845584929 -0.08963096887 -0.239229694 1.404926846e-38
0.07873897254 -0.107226789 -0.293382585 1.404926846e-38
-0.05456089601 -0.08715906739 -0.285320431 1.404926846e-38
-0.07340929657 -0.085252285 -0.2891018093 1.404926846e-38
0.06384243071 -0.08809962124 -0.2334901243 1.404926846e-38
0.07205203921 -0.105027236 -0.2942880988 1.404926846e-38
-0.1254558712 -0.07899937779 -0.2679775655 1.404926846e-38
-0.120089218 -0.1120952442 -0.2553374469 1.404926846e-38
0.112198405 -0.08518276364 -0.1941747665 1.404926846e-38
-0.006238242611 -0.08852822334 -0.2984080017 1.404926846e-38
-0.04179887101 -0.08832395077 -0.2893328071 1.404926846e-38
-0.06388663501 -0.08619377017 -0.2914206982 1.404926846e-38
0.04223803058 -0.09007392079 -0.2452492565 1.404926846e-38
0.08299179375 -0.1070785001 -0.287884593 1.404926846e-38
-0.08921293169 -0.0824348256 -0.2800343931 1.404926846e-38
-0.08880205452 -0.08398433775 -0.281531781 1.404926846e-38
0.0807371363 -0.08649793267 -0.2208667994 1.404926846e-38
0.05833690241 -0.09890007228 -0.3065415621 1.404926846e-38
-0.2312074453 -0.1009410769 0.08756451309 1.478322936e-38
-0.2812169194 -0.1464656889 -0.09072066098 1.478322936e-38
-0.2865323126 -0.1026807278 -0.04313432798 1.478322936e-38
-0.285071075 -0.09806537628 -0.007487013005 1.478322936e-38
-0.1005804762 -0.0813568458 0.1294270456 1.478322936e-38
-0.2538380325 -0.1114662141 0.07793203741 1.478322936e-38
-0.2170940042 -0.07821820676 0.05798646435 1.478322936e-38
-0.288600266 -0.1323763579 -0.05356233567 1.478322936e-38
-0.2108075768 -0.08986259252 0.1023424566 1.478322936e-38
-0.2870389819 -0.1446053088 -0.06722415239 1.478322936e-38
-0.2742189467 -0.09376103431 -0.004059021361 1.478322936e-38
-0.2889101505 -0.1054692566 -0.04255964234 1.478322936e-38
-0.2030289173 -0.08837235719 0.1119178608 1.478322936e-38
-0.290430665 -0.1438528895 -0.05309803411 1.478322936e-38
-0.2639714181 -0.09042454511 0.02284367196 1.478322936e-38
-0.2908345461 -0.1141264066 -0.03854728118 1.478322936e-38
-0.2033494562 -0.08851710707 0.1120700613 1.478322936e-38
-0.2910057902 -0.1435369998 -0.04914779216 1.478322936e-38
-0.2619546652 -0.08881450444 0.0223364532 1.478322936e-38
-0.290034622 -0.1125135347 -0.0303815268 1.478322936e-38
-0.09094032645 -0.08396454901 0.1340446323 1.478322936e-38
-0.2479091436 -0.1114128456 0.08361758292 1.478322936e-38
-0.2080618143 -0.07891821116 0.07246075571 1.478322936e-38
-0.2887707055 -0.1359678209 -0.04043093696 1.478322936e-38
-0.2145293206 -0.09216144681 0.1022086442 1.478322936e-38
-0.2902098 -0.1446309239 -0.05593927577 1.478322936e-38
-0.2727878392 -0.09319230169 -0.000132288551 1.478322936e-38
-0.2879260182 -0.1025570258 -0.008322187699 1.478322936e-38
-0.1730222851 -0.08405474573 0.1282986403 1.478322936e-38
-0.2880916595 -0.1392029673 -0.02068995684 1.478322936e-38
-0.2473778874 -0.08967027813 0.04087077826 1.478322936e-38
-0.2880642414 -0.1253692061 -0.05460095033 1.478322936e-38
-0.0404288508 -0.06347574294 0.04584765062 1.551683013e-38
0.08016256988 -0.07173834741 -0.04006819054 1.551683013e-38
-0.02591207437 -0.07123624533 0.04284401238 1.551683013e-38
0.09342013299 -0.06503085792 0.03226253763 1.551683013e-38
0.03157621622 -0.06233704463 0.03100230917 1.551683013e-38
0.06977846473 -0.07560350746 0.06254779547 1.551683013e-38
0.01753766648 -0.09721320868 0.1589069664 1.551683013e-38
-0.01176974643 -0.06286881119 -0.04339580983 1.551683013e-38
-0.03463897109 -0.06662915647 0.05991291255 1.551683013e-38
0.09615870565 -0.0706159696 -0.02789272927 1.551683013e-38
-0.02270247974 -0.08152464032 0.07194019109 1.551683013e-38
0.06887625158 -0.0700019598 -0.02877083793 1.551683013e-38
-0.02915467136 -0.06592009962 0.05815570056 1.551683013e-38
0.1038083509 -0.07046104968 -0.01150741428 1.551683013e-38
-0.02026970126 -0.08390831202 0.07808221877 1.551683013e-38
0.04937054589 -0.0703387633 -0.03071478568 1.551683013e-38
-0.02780910954 -0.06579163671 0.05713802204 1.551683013e-38
0.105960764 -0.07048612088 -0.009305069223 1.551683013e-38
-0.0152927395 -0.0847575143 0.08324431628 1.551683013e-38
0.0451939553 -0.07023525983 -0.03122061305 1.551683013e-38
0.01734353974 -0.06041111425 0.02927977964 1.551683013e-38
0.05502616242 -0.07783004642 0.06840370595 1.551683013e-38
0.01854547113 -0.09532242268 0.145531565 1.551683013e-38
-0.02215690352 -0.06205238029 -0.04571513459 1.551683013e-38
-0.02990593947 -0.06524442881 0.05427050963 1.551683013e-38
0.09911162406 -0.07068987936 -0.02860376611 1.551683013e-38
-0.01149857696 -0.07953032106 0.06707399338 1.551683013e-38
0.06688784063 -0.06932348758 -0.02881600708 1.551683013e-38
-0.02380130067 -0.06624989212 0.05832434446 1.551683013e-38
0.107561022 -0.06475676596 0.02770482935 1.551683013e-38
-0.01830630377 -0.08750698715 0.1007041857 1.551683013e-38
0.01596406847 -0.06715590507 -0.04078731686 1.551683013e-38
0.0509192571 -0.2191693932 0.1902675629 1.625043089e-38
0.002815015614 -0.2229326367 0.211150378 1.625043089e-38
0.07923623174 -0.2281347215 0.1735891998 1.625043089e-38
0.01653196849 -0.2201396227 0.1933851987 1.625043089e-38
0.00645295158 -0.205630213 0.2142163962 1.625043089e-38
-0.1085581258 -0.1610952914 0.229674235 1.625043089e-38
0.1505814493 -0.2387556732 0.1151154935 1.625043089e-38
-0.04246692359 -0.1939349622 0.2256465852 1.625043089e-38
0.03117345646 -0.2162553519 0.196333617 1.625043089e-38
-0.02366054989 -0.2296798825 0.2105052471 1.625043089e-38
0.1058895811 -0.2316145748 0.1641959399 1.625043089e-38
-0.00772673171 -0.2197719067 0.2014987022 1.625043089e-38
0.03192948923 -0.2128594667 0.1984515041 1.625043089e-38
-0.05004201084 -0.2106961906 0.2153833508 1.625043089e-38
0.1157508418 -0.2304943502 0.1618480086 1.625043089e-38
-0.008054886945 -0.2153199166 0.2055065036 1.625043089e-38
0.03387609124 -0.2124287188 0.1982067376 1.625043089e-38
-0.04661339149 -0.2110065371 0.2170740962 1.625043089e-38
0.118126601 -0.2287673056 0.1607592106 1.625043089e-38
0.0005726441159 -0.2049461007 0.2035677284 1.625043089e-38
-0.005738001782 -0.2046928406 0.2306153774 1.625043089e-38
-0.1123106107 -0.1603457034 0.2296218425 1.625043089e-38
0.1610047519 -0.2335547209 0.09844900668 1.625043089e-38
-0.07766607404 -0.171262145 0.2244757563 1.625043089e-38
0.04630308971 -0.2142872959 0.1944324076 1.625043089e-38
-0.01553045865 -0.2260177433 0.2137951255 1.625043089e-38
0.1121981665 -0.2285720855 0.1632353812 1.625043089e-38
0.01054888964 -0.1989423484 0.200372979 1.625043089e-38
0.01930608973 -0.2146314681 0.2011705488 1.625043089e-38
-0.1023467332 -0.1858366132 0.2101150155 1.625043089e-38
0.127478838 -0.23408629 0.1507989168 1.625043089e-38
-0.02565391175 -0.2198687345 0.2113512456 1.625043089e-38
-0.1121387482 -0.1023397222 0.2534360588 1.698367293e-38
0.02279508114 -0.1075014621 0.3003305197 1.698367293e-38
