# .PCD v0.7 - Point Cloud Data file format
VERSION 0.7
FIELDS x y z rgb
SIZE 4 4 4 4
TYPE F F F F
COUNT 1 1 1 1
WIDTH 813
HEIGHT 1
VIEWPOINT 0 0 0 1 0 0 0
POINTS 813
DATA ascii
0.02221822925 -0.04911114275 0.09535287321 8.742304551e-39
-0.1165550128 -0.0594856739 0.1670385599 8.742304551e-39
0.006642146967 -0.05079514906 0.1276432127 8.742304551e-39
-0.1050802469 -0.05976799503 0.1733421534 8.742304551e-39
-0.009970684536 -0.05036335438 0.1157536656 8.742304551e-39
-0.1871316582 -0.05392714217 0.08169525862 8.742304551e-39
-0.007406404708 -0.05319441482 0.1456612945 8.742304551e-39
-0.0964410156 -0.05941195786 0.1733707488 8.742304551e-39
0.018994065 -0.04830286652 0.1121500731 8.742304551e-39
-0.1792047471 -0.05224625021 0.09585841 8.742304551e-39
0.01587103307 -0.05003155395 0.1265012175 8.742304551e-39
-0.08796197921 -0.05880234763 0.1700004786 8.742304551e-39
0.0482503809 -0.04571102932 0.103535153 8.742304551e-39
-0.159073174 -0.04829084501 0.1547616124 8.742304551e-39
0.006873015314 -0.05098214373 0.1289114207 8.742304551e-39
-0.1070914641 -0.05949607491 0.1733544469 8.742304551e-39
0.03590880334 -0.04769058153 0.1145533621 8.742304551e-39
-0.1784840971 -0.05185320601 0.09728912264 8.742304551e-39
0.02134548686 -0.05033186078 0.1304536164 8.742304551e-39
-0.06385216862 -0.0536733456 0.1620829254 8.742304551e-39
0.04404651746 -0.04632373899 0.1070294678 8.742304551e-39
-0.1553065628 -0.0502592735 0.153376624 8.742304551e-39
0.002163637662 -0.05180859938 0.1352498233 8.742304551e-39
-0.1140782386 -0.05939464271 0.1757376045 8.742304551e-39
0.04843048751 -0.04763785005 0.1147004291 8.742304551e-39
-0.1705099493 -0.05016910285 0.1115040481 8.742304551e-39
0.003650887404 -0.05094969645 0.1262728125 8.742304551e-39
-0.04412256181 -0.05145677924 0.1458568573 8.742304551e-39
-0.1927594543 -0.00461324444 0.02479932085 8.012284103e-39
0.06698022783 0.003656240413 0.01918566972 8.012284103e-39
-0.05122774839 -0.000252049882 0.01961010322 8.012284103e-39
0.06684777141 0.008045310155 0.02436792478 8.012284103e-39
-0.2250299752 -0.008389608003 0.02880437113 8.012284103e-39
0.01786850952 0.004485566169 0.02199891582 8.012284103e-39
-0.1362394392 -0.002047077287 0.0236101523 8.012284103e-39
0.03080812842 0.005005109124 0.02239214256 8.012284103e-39
-0.3038656116 -0.01311313082 0.02356399968 8.012284103e-39
-0.07307471335 0.001622513402 0.0235568434 8.012284103e-39
-0.07184390724 0.001613532659 0.02318852395 8.012284103e-39
0.01286522113 0.006355219521 0.02512258478 8.012284103e-39
-0.310600996 -0.01448770612 0.02397835255 8.012284103e-39
-0.1598535627 -0.00439031329 0.02638913319 8.012284103e-39
-0.2233438492 -0.007494863123 0.02769414522 8.012284103e-39
-0.04775777459 0.002996629337 0.02323316596 8.012284103e-39
-0.2475685477 -0.01077704318 0.02957325615 8.012284103e-39
-0.1538122147 -0.003995157313 0.02594650723 8.012284103e-39
-0.2211373746 -0.008274265565 0.02911980264 8.012284103e-39
-0.126209721 -0.003659553826 0.02759103291 8.012284103e-39
-0.3058365583 -0.01445495058 0.02440295741 8.012284103e-39
-0.1743868589 -0.006729997229 0.02959312499 8.012284103e-39
-0.2271889299 -0.007444743067 0.02754332684 8.012284103e-39
-0.07134800404 0.001046030899 0.02440011315 8.012284103e-39
-0.2774042785 -0.01208945923 0.02562850341 8.012284103e-39
-0.1359786242 -0.00138601521 0.02314274199 8.012284103e-39
-0.2317862362 -0.008592330851 0.02827978693 8.012284103e-39
-0.1397673339 -0.004081102088 0.02701330744 8.012284103e-39
-0.314385891 -0.01461420674 0.02346091717 8.012284103e-39
-0.1258498877 -0.007595692296 0.03710849211 8.012284103e-39
-0.2805497944 -0.01185721252 0.02511800639 8.012284103e-39
-0.2174454331 -0.008763982914 0.03015865386 8.012284103e-39
-0.316914618 0.09608124942 -0.0002386898268 7.281903522e-39
-0.2921447754 0.1108084619 0.003933101892 7.281903522e-39
-0.3466311097 0.1178105846 0.008157053962 7.281903522e-39
-0.2859925926 0.1092525274 9.955395944e-05 7.281903522e-39
-0.2936909497 0.09390984476 -0.0003341068514 7.281903522e-39
-0.2549932897 0.08134009689 -0.0006196012837 7.281903522e-39
-0.3128111064 0.1096208096 -9.251548909e-05 7.281903522e-39
-0.2501703203 0.08685933799 -0.0005657806178 7.281903522e-39
-0.2684852183 0.06984297186 -0.0008039018721 7.281903522e-39
-0.2325452715 0.05546250939 -0.001375123509 7.281903522e-39
-0.3218275011 0.09983740747 -0.0001745794434 7.281903522e-39
-0.2557230592 0.08953729272 -0.0004344703339 7.281903522e-39
-0.2715645134 0.06862026453 -0.0008212152752 7.281903522e-39
-0.2369578779 0.05441722274 -0.001359028975 7.281903522e-39
-0.3354378045 0.1167846695 0.005878195167 7.281903522e-39
-0.2538820505 0.09291605651 -0.0004093425523 7.281903522e-39
-0.2813308537 0.08668929338 -0.0004530024889 7.281903522e-39
-0.2506959438 0.06795816123 -0.0009610064444 7.281903522e-39
-0.3076923192 0.1022043824 -0.0002110933419 7.281903522e-39
-0.2424380481 0.08492921293 -0.0006909781368 7.281903522e-39
-0.2709778547 0.07289884984 -0.0007469144184 7.281903522e-39
-0.2376286983 0.05578603223 -0.001325284946 7.281903522e-39
-0.3430686891 0.1180214882 0.01588751189 7.281903522e-39
-0.2741696835 0.1035954133 -0.0001529562287 7.281903522e-39
-0.2884532213 0.09297841787 -0.0003566872037 7.281903522e-39
-0.250657618 0.07413004339 -0.0008146901964 7.281903522e-39
-0.3232093155 0.1131232977 0.00014386978 7.281903522e-39
-0.2475428432 0.0842590034 -0.0006483586039 7.281903522e-39
-0.2680969238 0.07159149647 -0.0007721756701 7.281903522e-39
-0.2412055135 0.05422545969 -0.001303203288 7.281903522e-39
-0.3254907727 0.1145404726 0.0002952290233 7.281903522e-39
-0.2712324858 0.09248561412 -0.0003296572249 7.281903522e-39
0.03330689669 0.005403875839 -0.03057884052 6.55152294e-39
-0.1163726449 7.846206427e-05 -0.02605021 6.55152294e-39
0.01763163134 0.003185380716 -0.03045639768 6.55152294e-39
-0.3027522266 -0.01799109206 -0.02566203848 6.55152294e-39
0.0164335575 0.006385969929 -0.02775818855 6.55152294e-39
-0.07728512585 -0.0016110898 -0.02854103968 6.55152294e-39
0.0226251483 0.00279953354 -0.03134449944 6.55152294e-39
-0.2273226827 -0.006607175805 -0.02244895138 6.55152294e-39
-0.06977629662 0.003831561422 -0.02445044555 6.55152294e-39
-0.159208864 -0.003233570606 -0.0253627263 6.55152294e-39
0.0798041746 0.006350394804 -0.03182662278 6.55152294e-39
-0.2168339938 -0.003793392796 -0.0213960018 6.55152294e-39
-0.04089630395 0.004223932512 -0.02484398894 6.55152294e-39
-0.1401771605 -0.003017029027 -0.02659209445 6.55152294e-39
0.02347487025 0.002632224467 -0.03193799779 6.55152294e-39
-0.2329044938 -0.005614050198 -0.02163817734 6.55152294e-39
0.01069215685 0.004249524791 -0.02887145244 6.55152294e-39
-0.07906483859 -0.001388995908 -0.02843159251 6.55152294e-39
0.03400155157 0.00168505148 -0.03159011155 6.55152294e-39
-0.2187857181 -0.004395635333 -0.02163089812 6.55152294e-39
-0.07369991392 0.003938401118 -0.02418079786 6.55152294e-39
-0.1361053288 -0.002796113724 -0.02673432976 6.55152294e-39
0.03968230635 0.003562785452 -0.03202255815 6.55152294e-39
-0.240921542 -0.006073065102 -0.0215493422 6.55152294e-39
0.02433542721 0.007926842198 -0.02741957642 6.55152294e-39
-0.07248013467 -0.0009424460004 -0.0281334836 6.55152294e-39
0.06762351841 0.004298600834 -0.03155007958 6.55152294e-39
-0.2272706777 -0.004678759258 -0.02145840041 6.55152294e-39
-0.03592251986 0.005525249522 -0.02406935021 6.55152294e-39
-0.1261651814 -0.001538402168 -0.02659415826 6.55152294e-39
0.008392710239 0.0005060135736 -0.03190154955 6.55152294e-39
-0.1848471016 -0.00151057425 -0.02226956002 6.55152294e-39
-0.3070009649 0.01860553771 -0.03325714543 5.820783626e-39
-0.2997074127 0.02321171388 -0.003174493555 5.820783626e-39
-0.3401569128 0.02199880034 -0.07393211871 5.820783626e-39
-0.320823133 0.01911083423 0.03258186951 5.820783626e-39
-0.2946386933 0.003157379804 -0.04518612102 5.820783626e-39
-0.3047174513 0.02102490887 0.03494811803 5.820783626e-39
-0.2934893966 0.01631363109 0.03474988416 5.820783626e-39
-0.3339958489 0.0347350277 0.1029309407 5.820783626e-39
-0.2945967019 0.02377016656 -0.004366664216 5.820783626e-39
-0.3255811334 0.03019160591 0.08593115211 5.820783626e-39
-0.289383918 0.01503603067 0.04014761001 5.820783626e-39
-0.3365313411 0.02996553667 0.08782218397 5.820783626e-39
-0.2972291708 0.02132819965 -0.01735075377 5.820783626e-39
-0.3261166513 0.02957428619 0.08412053436 5.820783626e-39
-0.3041113317 0.01780845411 0.001086160075 5.820783626e-39
-0.3366932571 0.02810848691 0.07008931041 5.820783626e-39
-0.2946150601 0.004909772892 -0.04274920374 5.820783626e-39
-0.3204314411 0.02540198527 0.06573592126 5.820783626e-39
-0.3107786775 0.01874874718 0.05472118407 5.820783626e-39
-0.3366603851 0.03102618642 0.08815735579 5.820783626e-39
-0.296048522 0.01982138678 -0.01944858767 5.820783626e-39
-0.3260503709 0.03062763251 0.08741110563 5.820783626e-39
-0.3091672063 0.01786259934 -0.01025521196 5.820783626e-39
-0.3282761276 0.02258102037 0.05210618675 5.820783626e-39
-0.2913298905 0.001945866621 -0.04356013983 5.820783626e-39
-0.3034646511 0.02100197226 0.03717824817 5.820783626e-39
-0.2971143723 0.009703605436 0.02306444757 5.820783626e-39
-0.3282392025 0.03591436893 0.1087076887 5.820783626e-39
-0.2892680466 0.017963266 -0.01270954777 5.820783626e-39
-0.3275525868 0.03199562058 0.0915492326 5.820783626e-39
-0.3144554794 0.01661331393 0.01319739502 5.820783626e-39
-0.3184675276 0.01735935546 0.02742508613 5.820783626e-39
0.3959702253 -0.06877820939 -0.005097775254 5.090401643e-39
0.2250483334 -0.08049347252 0.02223515138 5.090401643e-39
0.2971971929 -0.08574912697 0.016792465 5.090401643e-39
0.1471786797 -0.07365813851 0.02337023057 5.090401643e-39
0.3939730823 -0.06884833425 -0.01041870471 5.090401643e-39
0.2619602084 -0.08551222086 0.02026440203 5.090401643e-39
0.3274771273 -0.08614113182 0.01399907842 5.090401643e-39
0.2131141126 -0.07981377095 0.02158157341 5.090401643e-39
0.321893394 -0.07467992604 -0.02349879593 5.090401643e-39
0.2160367668 -0.08265370131 0.02060834505 5.090401643e-39
0.3116940856 -0.08792133629 0.01462984737 5.090401643e-39
0.1953550726 -0.07999467105 0.02084328793 5.090401643e-39
0.3510687947 -0.07027036697 -0.0211910177 5.090401643e-39
0.2506703138 -0.08504699916 0.01979055069 5.090401643e-39
0.3355482817 -0.08461004496 0.01192167401 5.090401643e-39
0.2187502086 -0.08468477428 0.01960076019 5.090401643e-39
0.3853009343 -0.06901209056 -0.01504328754 5.090401643e-39
0.291044116 -0.0862153843 0.01720347442 5.090401643e-39
0.3403081596 -0.08421514928 0.01008540485 5.090401643e-39
0.2350120842 -0.08670242876 0.01839817874 5.090401643e-39
0.3582489192 -0.06996110827 -0.02062153071 5.090401643e-39
0.2809137702 -0.08781053871 0.01714785583 5.090401643e-39
0.3277207315 -0.0856718123 0.01393016428 5.090401643e-39
0.2210743129 -0.08608294278 0.01943410933 5.090401643e-39
0.3827967048 -0.06995163113 -0.01576804556 5.090401643e-39
0.2967872322 -0.08610325307 0.01661815681 5.090401643e-39
0.3534813523 -0.07970253378 0.007967523299 5.090401643e-39
0.2500987947 -0.08526057005 0.01892570592 5.090401643e-39
0.3527788222 -0.07047650218 -0.02105668373 5.090401643e-39
0.29585886 -0.08816523105 0.01571219601 5.090401643e-39
0.3392072022 -0.08241457492 0.01154392119 5.090401643e-39
0.24906905 -0.08869562298 0.01654777862 5.090401643e-39
0.0213552881 -0.06934347004 0.04162424803 4.359662329e-39
0.3218191862 -0.07207823545 0.02646630444 4.359662329e-39
0.2520244122 -0.07788061351 0.03372409195 4.359662329e-39
0.3754684627 -0.05872378126 0.008867977187 4.359662329e-39
0.1283750534 -0.07920141518 0.037477009 4.359662329e-39
0.2872290611 -0.07712261379 0.02941910364 4.359662329e-39
0.169835493 -0.07817146927 0.03633051366 4.359662329e-39
0.3282156587 -0.0138736181 -0.01695347577 4.359662329e-39
0.01613195427 -0.07563880086 0.04214978963 4.359662329e-39
0.3506503403 -0.06846489012 0.02042366378 4.359662329e-39
0.1800208986 -0.07669894397 0.03602172062 4.359662329e-39
0.3327099085 -0.01166724041 -0.01547699515 4.359662329e-39
0.1406419426 -0.08005097508 0.03719785437 4.359662329e-39
0.3488063216 -0.0694462806 0.02081658877 4.359662329e-39
0.2487369031 -0.08110886067 0.03317695856 4.359662329e-39
0.354644388 -0.02404090203 -0.007607924286 4.359662329e-39
0.2167446166 -0.08071223646 0.03545308858 4.359662329e-39
0.3116948307 -0.07434183359 0.02712805942 4.359662329e-39
0.2067863047 -0.08353182673 0.03587333113 4.359662329e-39
0.3316240907 -0.01654448546 -0.01596022397 4.359662329e-39
0.1569290906 -0.08305301517 0.03710787743 4.359662329e-39
0.3488752246 -0.06911026686 0.0208362136 4.359662329e-39
0.2572862208 -0.07942444086 0.03262153268 4.359662329e-39
0.3677595556 -0.03121480346 -0.00314766611 4.359662329e-39
0.1588723809 -0.08101571351 0.03684450313 4.359662329e-39
0.302982986 -0.07471975684 0.02809504792 4.359662329e-39
0.2233791202 -0.07818482071 0.03511974588 4.359662329e-39
0.332383275 -0.01315575931 -0.0156510137 4.359662329e-39
0.2099698484 -0.08577756584 0.03577386588 4.359662329e-39
0.3456303179 -0.07145953923 0.02172958665 4.359662329e-39
0.2681508362 -0.07825722545 0.03173455968 4.359662329e-39
0.3758381903 -0.05004248396 0.006671471056 4.359662329e-39
-0.1349566579 -0.06178686395 0.04527054355 3.628921614e-39
-0.2470169812 -0.06324711442 0.03393433243 3.628921614e-39
-0.1793598384 -0.06680636108 0.04226016253 3.628921614e-39
-0.1675565094 -0.0857001543 0.02574517019 3.628921614e-39
-0.1513727903 -0.07259733975 0.0368988812 3.628921614e-39
-0.2685934603 -0.06211588532 0.03070726059 3.628921614e-39
-0.1279358417 -0.08235830814 0.03213827312 3.628921614e-39
-0.2099137753 -0.06636271626 0.03984487802 3.628921614e-39
-0.1351666301 -0.03931800276 0.04822617769 3.628921614e-39
-0.2329398394 -0.05951128528 0.04058763757 3.628921614e-39
-0.1141953766 -0.08337275684 0.0346320048 3.628921614e-39
-0.2028984278 -0.06934218109 0.04013421386 3.628921614e-39
-0.1161801815 -0.06135351956 0.04461957514 3.628921614e-39
-0.2307329327 -0.06260345876 0.03818691522 3.628921614e-39
-0.1641893089 -0.06912925839 0.04273287952 3.628921614e-39
-0.1669374406 -0.07322797924 0.03973082826 3.628921614e-39
-0.1220042855 -0.07379671931 0.03950994089 3.628921614e-39
-0.2570106089 -0.05998612568 0.03475015238 3.628921614e-39
-0.1526988894 -0.08235044777 0.03087954037 3.628921614e-39
-0.1907870471 -0.06836293638 0.04219976813 3.628921614e-39
-0.1381320655 -0.05962123349 0.04546018317 3.628921614e-39
-0.2295718342 -0.06171626598 0.03955935314 3.628921614e-39
-0.1724612713 -0.06333453953 0.04805900156 3.628921614e-39
-0.1546197534 -0.08498220146 0.02784110606 3.628921614e-39
-0.0988059938 -0.08167292178 0.03755602241 3.628921614e-39
-0.2706699371 -0.05904389918 0.0328345336 3.628921614e-39
-0.1564940959 -0.07871426642 0.03380464017 3.628921614e-39
-0.2143371999 -0.06673447043 0.03963532671 3.628921614e-39
-0.1138214394 -0.07771012932 0.0416537486 3.628921614e-39
-0.2344804555 -0.05930682272 0.04060959816 3.628921614e-39
-0.185166955 -0.06011249125 0.04989501834 3.628921614e-39
-0.1476429105 -0.08020241559 0.03498872742 3.628921614e-39
0.09391978383 -0.102562651 0.000923262618 2.898180898e-39
0.2991280258 -0.09790181369 0.0007086106343 2.898180898e-39
-0.01739218459 -0.1005913392 0.00276167132 2.898180898e-39
0.1119011641 -0.1019111499 0.0001916252077 2.898180898e-39
0.06597286463 -0.1013281643 0.0007002007915 2.898180898e-39
0.2446670383 -0.09650755674 0.000821818423 2.898180898e-39
0.1439905912 -0.1022084504 0.0009537261794 2.898180898e-39
0.1795573831 -0.1016253829 0.00169434608 2.898180898e-39
0.2590894997 -0.09570587426 0.0005864155828 2.898180898e-39
0.3579180837 -0.09570667893 0.001131035853 2.898180898e-39
0.113843739 -0.1018737629 0.000221000053 2.898180898e-39
0.1672077179 -0.1019621789 0.00158301706 2.898180898e-39
0.2266609818 -0.09713441879 0.0008662890177 2.898180898e-39
0.3624455929 -0.09517671913 0.001230312861 2.898180898e-39
0.1655489504 -0.1016035378 0.00148674089 2.898180898e-39
0.1441500187 -0.1017371714 0.0008763715159 2.898180898e-39
0.1796842963 -0.1004877165 0.001274430426 2.898180898e-39
0.3016059697 -0.09755790979 0.0006195026799 2.898180898e-39
0.1890570223 -0.09968609363 0.00113987131 2.898180898e-39
0.152322486 -0.101571165 0.001083126757 2.898180898e-39
0.2263008803 -0.09697031975 0.0008275767905 2.898180898e-39
0.3673616946 -0.09476602823 0.001327654463 2.898180898e-39
0.1682331115 -0.1016158536 0.001513438066 2.898180898e-39
0.1113371104 -0.1015601605 9.938143194e-05 2.898180898e-39
0.1914734244 -0.1000118181 0.001243715407 2.898180898e-39
0.2751542926 -0.09656529129 0.0005283187493 2.898180898e-39
0.2144950777 -0.09834142029 0.001026020036 2.898180898e-39
0.173168093 -0.1016069278 0.001572381356 2.898180898e-39
0.3044249713 -0.0975260064 0.0005912910565 2.898180898e-39
0.3610838354 -0.09531849623 0.001214805408 2.898180898e-39
0.2286029011 -0.0975716114 0.0009066301864 2.898180898e-39
0.04847856984 -0.09746131301 -0.0008383745444 2.898180898e-39
0.1147867218 -0.04699827358 -0.04171002656 2.167082852e-39
-0.01360160578 -0.04830766097 -0.1598129272 2.167082852e-39
0.2058102787 -0.04607796296 -0.03891560808 2.167082852e-39
-0.06894921511 -0.0465887785 -0.2796136439 2.167082852e-39
0.05510033667 -0.04732279852 -0.0730978772 2.167082852e-39
-0.03124861419 -0.04806823283 -0.191657871 2.167082852e-39
0.2711569369 -0.045658499 -0.03752730787 2.167082852e-39
-0.0477068834 -0.04806583002 -0.2192366272 2.167082852e-39
0.1851202846 -0.04624740034 -0.03703934699 2.167082852e-39
0.03886867687 -0.04808772728 -0.09520559758 2.167082852e-39
0.2809889615 -0.04570512474 -0.03706048429 2.167082852e-39
-0.05834461004 -0.04725045711 -0.2397340089 2.167082852e-39
0.1656281948 -0.04633921757 -0.03719466552 2.167082852e-39
0.03668316454 -0.04800363258 -0.0955023542 2.167082852e-39
0.2521468401 -0.04545181617 -0.03798164055 2.167082852e-39
-0.06586004794 -0.04629813507 -0.2695751488 2.167082852e-39
0.124581039 -0.04706885293 -0.03980379924 2.167082852e-39
-0.007285404485 -0.04849212989 -0.1552248448 2.167082852e-39
0.2784638405 -0.04563704506 -0.03687058017 2.167082852e-39
-0.05660765618 -0.04749326035 -0.2328015417 2.167082852e-39
0.1640485078 -0.04640692472 -0.03743059188 2.167082852e-39
0.0412694104 -0.04789400473 -0.09059473872 2.167082852e-39
0.2385047674 -0.04547157511 -0.03840242699 2.167082852e-39
-0.07662378997 -0.04534364492 -0.2901871502 2.167082852e-39
0.1127917841 -0.04728991911 -0.03977379948 2.167082852e-39
-0.0194117967 -0.04828933626 -0.1714763641 2.167082852e-39
0.2784978449 -0.04551248625 -0.03641530871 2.167082852e-39
-0.05583482236 -0.04764952511 -0.2298795581 2.167082852e-39
0.1624217182 -0.04653136805 -0.03693554923 2.167082852e-39
0.03226841241 -0.04806165397 -0.09835397452 2.167082852e-39
0.2189607173 -0.04574285075 -0.0375523679 2.167082852e-39
-0.08055254817 -0.04467072338 -0.305231303 2.167082852e-39
-0.1699136049 -0.03029851615 -0.03902558237 1.435982003e-39
-0.3195708096 -0.03280406818 -0.0261952877 1.435982003e-39
-0.3040724695 -0.03894457221 -0.02553942986 1.435982003e-39
-0.2916631401 -0.02868794836 -0.03385228664 1.435982003e-39
-0.2030936629 -0.03074263223 -0.03820624202 1.435982003e-39
-0.3607826531 -0.03951342031 -0.01596274041 1.435982003e-39
-0.2007683367 -0.03708871081 -0.03286892548 1.435982003e-39
-0.1681088805 -0.03184145689 -0.03840103373 1.435982003e-39
-0.06257078052 -0.03089983203 -0.0392626524 1.435982003e-39
-0.2935748696 -0.03304565325 -0.02874027938 1.435982003e-39
-0.2034232169 -0.03851992264 -0.0311513897 1.435982003e-39
-0.1999406517 -0.02933902666 -0.03910770267 1.435982003e-39
-0.05886384845 -0.03114707954 -0.03847250715 1.435982003e-39
-0.3015040159 -0.03283231333 -0.02782596461 1.435982003e-39
-0.2490975559 -0.03899786621 -0.02807484195 1.435982003e-39
-0.2260588408 -0.02670380287 -0.03840853274 1.435982003e-39
-0.1191448867 -0.03179175779 -0.03905298188 1.435982003e-39
-0.3320253789 -0.03702799976 -0.02087829821 1.435982003e-39
-0.2339577377 -0.03757475689 -0.03046294488 1.435982003e-39
-0.1779989898 -0.02830195613 -0.04020663351 1.435982003e-39
-0.08702867478 -0.03333535418 -0.03819531947 1.435982003e-39
-0.292661339 -0.03318434954 -0.028654553 1.435982003e-39
-0.2504637539 -0.03464239463 -0.03056531213 1.435982003e-39
-0.2490011752 -0.02297461219 -0.04098442569 1.435982003e-39
-0.1396899372 -0.03184413537 -0.03867341951 1.435982003e-39
-0.3558253646 -0.0377801396 -0.01691012643 1.435982003e-39
-0.2053556144 -0.03431011736 -0.03480229899 1.435982003e-39
-0.1647457033 -0.02916160971 -0.03988537192 1.435982003e-39
-0.0467412211 -0.02967006527 -0.03855277598 1.435982003e-39
-0.2833684981 -0.03257602826 -0.02959972247 1.435982003e-39
-0.2174912244 -0.03531993553 -0.03285184503 1.435982003e-39
-0.276809752 -0.02692002617 -0.03511954099 1.435982003e-39
-0.09182588756 -0.05099631846 0.2689265013 7.045238224e-40
-0.03538481519 -0.05569022521 0.1068706214 7.045238224e-40
-0.1039292291 -0.04783123359 0.3370693922 7.045238224e-40
-0.05673677847 -0.05313500017 0.1893783212 7.045238224e-40
-0.09235078096 -0.05043169856 0.2759101689 7.045238224e-40
-0.042573791 -0.05458649248 0.1436815113 7.045238224e-40
-0.09366708994 -0.04973084852 0.2883760333 7.045238224e-40
-0.04160347208 -0.05457741767 0.1413868815 7.045238224e-40
-0.07191328704 -0.05199646577 0.2260124385 7.045238224e-40
-0.02853765152 -0.05601118878 0.08508173376 7.045238224e-40
-0.09586661309 -0.04982991889 0.3009951711 7.045238224e-40
-0.045964472 -0.05486040562 0.1515853703 7.045238224e-40
-0.0753916204 -0.05189732835 0.2350027412 7.045238224e-40
-0.02681494504 -0.05660712719 0.08180142939 7.045238224e-40
-0.1009373888 -0.04991074279 0.3233978152 7.045238224e-40
-0.0479959622 -0.05406103283 0.16164428 7.045238224e-40
-0.08630251139 -0.05078069493 0.2648985982 7.045238224e-40
-0.04120025784 -0.0555665195 0.1328583956 7.045238224e-40
-0.09320118278 -0.05038655177 0.2833267152 7.045238224e-40
-0.04003660753 -0.05512079224 0.1341909766 7.045238224e-40
-0.07063195109 -0.05204214156 0.2252101451 7.045238224e-40
-0.02015170269 -0.05662443116 0.07098162919 7.045238224e-40
-0.1023594365 -0.04877573997 0.3322011232 7.045238224e-40
-0.05234836787 -0.05315395445 0.1778678 7.045238224e-40
-0.08582227677 -0.0511175096 0.2580718696 7.045238224e-40
-0.04093103483 -0.05547493696 0.1295009255 7.045238224e-40
-0.09328023344 -0.05016191676 0.2845087051 7.045238224e-40
-0.04151210189 -0.05462718755 0.1408592165 7.045238224e-40
-0.0668662861 -0.05231293663 0.2155296206 7.045238224e-40
-0.01855841279 -0.05683799833 0.06962802261 7.045238224e-40
-0.09911310673 -0.0507925041 0.3008141816 7.045238224e-40
-0.06560126692 -0.0526121743 0.2101020068 7.045238224e-40
-0.3186927736 0.009516834281 -0.05602473393 6.490113838e-41
-0.2902219892 0.0003910711675 -0.08543118834 6.490113838e-41
-0.2997997105 0.003084897064 -0.0181977693 6.490113838e-41
-0.2479249537 -0.008317313157 -0.009750712663 6.490113838e-41
-0.3080875278 0.007972066291 -0.04601956159 6.490113838e-41
-0.2760931253 -0.0001861816272 -0.05273253098 6.490113838e-41
-0.3148389459 0.009580739774 -0.04477044567 6.490113838e-41
-0.2766584158 -0.002596241189 -0.077347368 6.490113838e-41
-0.3322790861 0.01336227171 -0.09331521392 6.490113838e-41
-0.2934410274 -0.004895547871 -0.09923495352 6.490113838e-41
-0.3125885129 0.00860000588 -0.03845388442 6.490113838e-41
-0.2648969591 -0.005824287422 -0.07153306901 6.490113838e-41
-0.3317790627 0.01385212224 -0.08976790309 6.490113838e-41
-0.2842874527 -0.002323976252 -0.08944601566 6.490113838e-41
-0.3049997687 0.006940336898 -0.03210127354 6.490113838e-41
-0.2653302252 -0.004164183512 -0.04825072736 6.490113838e-41
-0.3229506612 0.01164089609 -0.06491929293 6.490113838e-41
-0.2772966921 -1.371884719e-05 -0.05229799822 6.490113838e-41
-0.3053236604 0.007088124752 -0.03398809582 6.490113838e-41
-0.2685037255 -0.004148438107 -0.06614413112 6.490113838e-41
-0.3193086386 0.01066909637 -0.0730015263 6.490113838e-41
-0.2875007093 -0.003289634828 -0.09245207906 6.490113838e-41
-0.3012890518 0.005326598417 -0.0270065628 6.490113838e-41
-0.2574253678 -0.005896855146 -0.03220139444 6.490113838e-41
-0.3171404302 0.009343104437 -0.06019172445 6.490113838e-41
-0.2818163335 0.001463694847 -0.04946281388 6.490113838e-41
-0.3044603765 0.006859608926 -0.03218150139 6.490113838e-41
-0.2673239708 -0.005289537832 -0.0741410777 6.490113838e-41
-0.3210702837 0.01026838832 -0.08020578325 6.490113838e-41
-0.2777943909 -0.002169041196 -0.07988343388 6.490113838e-41
-0.3009198308 0.004088313319 -0.02128444239 6.490113838e-41
-0.2289639711 -0.01137237716 -0.02777355909 6.490113838e-41
0.1165301576 -0.08697686344 0.02633857168 8.028094954e-40
0.1081069186 -0.07342953235 0.02838584967 8.028094954e-40
0.01105256472 -0.09091817588 0.03073235415 8.028094954e-40
0.2160348892 -0.08087074012 0.02914904058 8.028094954e-40
0.1128608212 -0.08901169151 0.02549140342 8.028094954e-40
0.03040455095 -0.08310589939 0.03022864275 8.028094954e-40
-0.06292852759 -0.08390397578 0.03339357302 8.028094954e-40
0.1603922248 -0.08740668744 0.02614135109 8.028094954e-40
0.004878303502 -0.09179928154 0.03040192463 8.028094954e-40
0.1538250148 -0.08520003408 0.02728723735 8.028094954e-40
-0.07963638753 -0.08165814728 0.03406612948 8.028094954e-40
0.1887952685 -0.08543914557 0.02847683616 8.028094954e-40
0.04851558059 -0.09374526143 0.02733770572 8.028094954e-40
0.1490862668 -0.08362116665 0.02775754966 8.028094954e-40
-0.04962000251 -0.08542812616 0.03279276192 8.028094954e-40
0.2316296846 -0.08130923659 0.0298984535 8.028094954e-40
0.06482823193 -0.09351333976 0.02602426149 8.028094954e-40
0.07430687547 -0.09181583673 0.02701780014 8.028094954e-40
-0.07781732082 -0.08210636675 0.0340031907 8.028094954e-40
0.1870126128 -0.08479607105 0.02827510424 8.028094954e-40
0.04267580062 -0.09329613298 0.02840633318 8.028094954e-40
0.1463296413 -0.08586993068 0.0269857198 8.028094954e-40
-0.0218058005 -0.08842337132 0.03176496178 8.028094954e-40
0.2341149151 -0.08206260204 0.03009220399 8.028094954e-40
0.08265855908 -0.09337922931 0.02305545285 8.028094954e-40
0.07249382883 -0.0884027034 0.02767896466 8.028094954e-40
-0.06082237512 -0.08477390558 0.03323007748 8.028094954e-40
0.1639700085 -0.08847224712 0.02581446804 8.028094954e-40
0.02854555286 -0.09329946339 0.02859629318 8.028094954e-40
0.1358039677 -0.08766550571 0.0260522645 8.028094954e-40
0.06094736978 -0.09367216378 0.02657867782 8.028094954e-40
0.2938942611 -0.07955998182 0.03224225715 8.028094954e-40
-0.011389344 -0.0473738797 -0.1842072755 1.540360521e-39
-0.02582718432 -0.04845118523 -0.2070523202 1.540360521e-39
-0.02476337925 -0.04991239682 -0.2053443193 1.540360521e-39
0.002515748376 -0.06156669557 -0.1193823144 1.540360521e-39
-0.01565990411 -0.04812360555 -0.1689098924 1.540360521e-39
0.0005766730173 -0.07211550325 -0.02302291803 1.540360521e-39
-0.01294828672 -0.06065710261 -0.1112126559 1.540360521e-39
-0.003567750333 -0.06758558005 -0.04856210947 1.540360521e-39
-0.0045988122 -0.05544953048 -0.1441081017 1.540360521e-39
-0.01137773041 -0.0570464395 -0.1084739938 1.540360521e-39
-0.01343865413 -0.05817603692 -0.1165249571 1.540360521e-39
-0.007370740641 -0.06814859807 -0.06939425319 1.540360521e-39
-0.009757552296 -0.05149456486 -0.1583248526 1.540360521e-39
-0.01069467701 -0.05784572288 -0.1031835452 1.540360521e-39
-0.01429796312 -0.05685880408 -0.1266198903 1.540360521e-39
-0.008664529771 -0.06457865238 -0.08237430453 1.540360521e-39
-0.01446582377 -0.04881577939 -0.1521965861 1.540360521e-39
-0.01116132364 -0.06445215642 -0.09392997622 1.540360521e-39
0.004673592281 -0.0617361404 -0.1180939674 1.540360521e-39
-0.003449251177 -0.06573270261 -0.05119618773 1.540360521e-39
-0.01155460346 -0.05329066515 -0.1446436793 1.540360521e-39
-0.009671767242 -0.05825124308 -0.09741017222 1.540360521e-39
-0.01451176964 -0.05588642508 -0.1287374496 1.540360521e-39
-0.01201861445 -0.06263384223 -0.1032318994 1.540360521e-39
-0.01700238883 -0.04736762494 -0.1734618247 1.540360521e-39
0.0004614833451 -0.06774438173 -0.07259670645 1.540360521e-39
-0.009868515655 -0.05619579926 -0.1341072917 1.540360521e-39
-0.001757025719 -0.06902695447 -0.03346220031 1.540360521e-39
-0.01120652072 -0.05398935452 -0.141625315 1.540360521e-39
-0.006873100065 -0.06024135649 -0.08089563251 1.540360521e-39
-0.008563468233 -0.05416788906 -0.1464632452 1.540360521e-39
-0.01308392361 -0.05844150856 -0.1162682176 1.540360521e-39
0.150569737 -0.01886540279 0.04177320749 2.277910146e-39
-0.2036774307 -0.003972166684 0.03523195535 2.277910146e-39
0.1651709676 -0.01458295621 0.0409337692 2.277910146e-39
-0.06146203727 -0.01478853263 0.04251329228 2.277910146e-39
0.1149390489 -0.01844179071 0.04208786786 2.277910146e-39
-0.04860481247 -0.0082959719 0.04133073241 2.277910146e-39
0.2365711182 -0.01089888159 0.03773012757 2.277910146e-39
0.1043273211 -0.01681084558 0.04185606539 2.277910146e-39
0.1924103051 -0.01494914666 0.04060062766 2.277910146e-39
-0.0821403116 -0.01188940369 0.04215116054 2.277910146e-39
0.2542079687 -0.008926020004 0.03613118455 2.277910146e-39
0.08222620189 -0.01735311933 0.04214369133 2.277910146e-39
0.1773646921 -0.01547622774 0.04092209041 2.277910146e-39
-0.0878431797 -0.01424775738 0.04261056334 2.277910146e-39
0.2152385265 -0.01406977605 0.0393399708 2.277910146e-39
0.06531060487 -0.01795966737 0.04233578593 2.277910146e-39
0.1406733394 -0.01693730429 0.04156075418 2.277910146e-39
0.02164658904 -0.01516623702 0.04216778278 2.277910146e-39
0.2291758507 -0.0122501608 0.03836430982 2.277910146e-39
0.1317488104 -0.01607163437 0.04154766351 2.277910146e-39
0.1735391021 -0.01618145779 0.04106940329 2.277910146e-39
-0.03326499462 -0.01563248038 0.04240207374 2.277910146e-39
0.2132631987 -0.01496652514 0.03958358243 2.277910146e-39
0.02153238095 -0.01679760963 0.04241044819 2.277910146e-39
0.1256894618 -0.01797088422 0.04194762185 2.277910146e-39
-0.04101224616 -0.01291284431 0.04206440225 2.277910146e-39
0.2414862812 -0.01237517036 0.03761363775 2.277910146e-39
0.126718536 -0.01689653285 0.04177498445 2.277910146e-39
0.1999888867 -0.01401402708 0.0400601849 2.277910146e-39
0.04092480615 -0.01794328913 0.04256691039 2.277910146e-39
0.2505497038 -0.01368503552 0.03717952222 2.277910146e-39
0.07216043025 -0.01765801571 0.0422635898 2.277910146e-39
-0.037053857 0.0238615647 0.01284733135 3.015101038e-39
-0.1176039502 0.01737598702 0.01797782257 3.015101038e-39
0.1258672923 0.02244417183 0.01754456945 3.015101038e-39
0.05152209103 0.02450298704 0.0187169686 3.015101038e-39
-0.0101679787 0.02452245727 0.01190666761 3.015101038e-39
-0.1406128854 0.01485074684 0.01876406558 3.015101038e-39
0.2043493986 0.01859984174 0.01890913397 3.015101038e-39
0.1303233653 0.02585002966 0.02048927546 3.015101038e-39
0.1233427599 0.02121448703 0.01630194113 3.015101038e-39
-0.05517321825 0.02058509551 0.01903445274 3.015101038e-39
0.2299251407 0.01720093936 0.01974281855 3.015101038e-39
0.11752709 0.02533503063 0.0188331306 3.015101038e-39
0.111995168 0.02147466689 0.01573729329 3.015101038e-39
-0.05246732756 0.0206247773 0.01908206008 3.015101038e-39
0.2108994722 0.01835809276 0.01912595704 3.015101038e-39
0.05575162917 0.02451309748 0.01548867766 3.015101038e-39
0.09260415286 0.02213315293 0.01548446063 3.015101038e-39
-0.1133067757 0.01783445664 0.01885112375 3.015101038e-39
0.2563709617 0.01578819379 0.02020798437 3.015101038e-39
0.09485967457 0.02405554615 0.01711362042 3.015101038e-39
0.1075389236 0.02183389291 0.01569566317 3.015101038e-39
-0.02927569486 0.02165113203 0.01890570112 3.015101038e-39
0.2179820091 0.01794398576 0.01924493909 3.015101038e-39
0.01483778562 0.02406836115 0.01626525447 3.015101038e-39
0.06163426116 0.02409413457 0.01459367387 3.015101038e-39
-0.1366916001 0.01522973925 0.01881086081 3.015101038e-39
0.2615047395 0.01556590758 0.02029048093 3.015101038e-39
0.0978539139 0.0243691206 0.01763479412 3.015101038e-39
0.1481346041 0.02069805376 0.01711364649 3.015101038e-39
0.01790378056 0.02386434376 0.01714607701 3.015101038e-39
0.2305626273 0.01724897139 0.01946601458 3.015101038e-39
-0.04680847004 0.02268526331 0.01579737477 3.015101038e-39
-0.05460852757 -0.04244239628 0.3437324166 3.75229193e-39
-0.05026554689 -0.04770311713 0.2442046851 3.75229193e-39
-0.06033003703 -0.04246524349 0.3415351212 3.75229193e-39
-0.04689948633 -0.04965954274 0.164466098 3.75229193e-39
-0.0543294251 -0.04879306629 0.2437696606 3.75229193e-39
-0.05966987833 -0.04865445197 0.2446680218 3.75229193e-39
-0.05799411237 -0.04624771327 0.2784674466 3.75229193e-39
-0.06839902699 -0.04102358222 0.04612093791 3.75229193e-39
-0.04785531014 -0.04864010587 0.2335680872 3.75229193e-39
-0.05128771812 -0.05082399771 0.173102051 3.75229193e-39
-0.06732908636 -0.04662724584 0.2808708847 3.75229193e-39
-0.0678756237 -0.03973000869 0.03554017842 3.75229193e-39
-0.04871076345 -0.05073967203 0.2109318376 3.75229193e-39
-0.05818151683 -0.05029783025 0.1715851575 3.75229193e-39
-0.05515138805 -0.04840092361 0.2371367514 3.75229193e-39
-0.06545325369 -0.04042807966 0.08449821174 3.75229193e-39
-0.03784552217 -0.04950000346 0.1630623788 3.75229193e-39
-0.06371937692 -0.04956803843 0.1700566262 3.75229193e-39
-0.07188264281 -0.04857265949 0.1647381485 3.75229193e-39
-0.04907205328 -0.04059262946 0.06427954882 3.75229193e-39
-0.04695015773 -0.05075709894 0.2133095264 3.75229193e-39
-0.06295877695 -0.04758489132 0.155744791 3.75229193e-39
-0.05106995627 -0.04945095628 0.2198690027 3.75229193e-39
-0.05468826368 -0.04460162669 0.1270243973 3.75229193e-39
-0.02174723707 -0.04992099106 0.1626965702 3.75229193e-39
-0.04829480127 -0.0502541773 0.1929998845 3.75229193e-39
-0.03926702961 -0.0487075299 0.2094869763 3.75229193e-39
-0.04365520552 -0.03984708712 0.05745004117 3.75229193e-39
-0.03449600935 -0.05061472207 0.1661356688 3.75229193e-39
-0.05391379073 -0.0430926308 0.1220977977 3.75229193e-39
-0.03410210833 -0.04763694108 0.1499976963 3.75229193e-39
-0.04167789593 -0.04163563624 0.115669556 3.75229193e-39
0.2457372993 0.0122276675 0.02193870954 4.48912409e-39
0.3272955716 0.003035075963 0.01618533581 4.48912409e-39
0.160152927 0.007763415109 0.02575474046 4.48912409e-39
0.3781809211 -0.01778377965 0.009651079774 4.48912409e-39
0.2496107668 0.01053239685 0.02510402165 4.48912409e-39
0.2659818828 0.01422192063 0.0143382987 4.48912409e-39
0.05880370736 0.0009914856637 0.03245913982 4.48912409e-39
0.3481428623 -0.003280704143 0.01491093542 4.48912409e-39
0.1980261803 0.008342490532 0.02752512135 4.48912409e-39
0.3188393414 0.004387971014 0.01843845658 4.48912409e-39
0.05051374808 0.001284451457 0.03215803206 4.48912409e-39
0.3563108146 -0.006388154346 0.0137015814 4.48912409e-39
0.2023535073 0.008666668087 0.02727549896 4.48912409e-39
0.3027425706 0.007209996693 0.01890334114 4.48912409e-39
0.1172479764 0.004619503859 0.02801191062 4.48912409e-39
0.3791154027 -0.01978880912 0.01311612315 4.48912409e-39
0.2246942967 0.009977604263 0.02525637113 4.48912409e-39
0.2719066143 0.01225358993 0.02006674372 4.48912409e-39
0.1111474782 0.003586520907 0.0294884555 4.48912409e-39
0.3541471064 -0.005587126594 0.01395861432 4.48912409e-39
0.2028166205 0.008558690548 0.02751822025 4.48912409e-39
0.3035042286 0.007099332288 0.01881020889 4.48912409e-39
0.1416957825 0.006861027796 0.02588365227 4.48912409e-39
0.3802934587 -0.02266416512 0.01804220304 4.48912409e-39
0.2378269732 0.009327763692 0.02665975876 4.48912409e-39
0.2763725817 0.01244274992 0.01851214655 4.48912409e-39
0.1085472256 0.00284246332 0.03081006184 4.48912409e-39
0.3497385681 -0.003898390336 0.01520025078 4.48912409e-39
0.1752752364 0.006368614268 0.02938243188 4.48912409e-39
0.2879618406 0.01024005283 0.0186972376 4.48912409e-39
0.1688725203 0.009542935528 0.02299007773 4.48912409e-39
0.3676054478 -0.01132514514 0.01145582274 4.48912409e-39
0.3713593781 -0.0847845152 -0.0189854037 5.225597518e-39
0.199690327 -0.0905579403 -0.02802917548 5.225597518e-39
0.3373191655 -0.09174206108 -0.02075537294 5.225597518e-39
0.1249755993 -0.08362786472 -0.03610742465 5.225597518e-39
0.3772143722 -0.08697982877 -0.01732860692 5.225597518e-39
0.2571302056 -0.09492523223 -0.02264321968 5.225597518e-39
0.2691425681 -0.09459917247 -0.02272108197 5.225597518e-39
-0.02467058785 -0.1068194434 -0.05296505243 5.225597518e-39
0.3111015558 -0.08693189919 -0.02637848631 5.225597518e-39
0.1451723278 -0.0892983377 -0.03127168864 5.225597518e-39
0.262114346 -0.09398204833 -0.02341722883 5.225597518e-39
0.01217372902 -0.104730472 -0.05525799841 5.225597518e-39
0.2946131527 -0.09197895974 -0.02436920442 5.225597518e-39
0.128717497 -0.08667066693 -0.03378082812 5.225597518e-39
0.2685909867 -0.09615048021 -0.02138504572 5.225597518e-39
-0.007118123583 -0.104743138 -0.05597796291 5.225597518e-39
0.342297405 -0.09373421222 -0.01913994737 5.225597518e-39
0.1851937771 -0.0931635797 -0.02578033693 5.225597518e-39
0.2315069735 -0.09705286473 -0.02124327421 5.225597518e-39
-0.07985659689 -0.102428548 -0.04356691241 5.225597518e-39
0.2925820351 -0.0931276232 -0.02373942919 5.225597518e-39
0.1130606383 -0.08653354645 -0.03423181921 5.225597518e-39
0.2604605854 -0.09631734341 -0.02133108489 5.225597518e-39
0.05433957279 -0.08652234823 -0.04429872334 5.225597518e-39
0.3115493953 -0.09214679152 -0.02335575782 5.225597518e-39
0.2125539035 -0.09254462272 -0.02573789656 5.225597518e-39
0.2252356857 -0.09439059347 -0.02380296215 5.225597518e-39
-0.03913103417 -0.1101008058 -0.04907904938 5.225597518e-39
0.2588118017 -0.09314952046 -0.02423973754 5.225597518e-39
0.09216149896 -0.0846478045 -0.03736066073 5.225597518e-39
0.2372571081 -0.09446207434 -0.02348048054 5.225597518e-39
0.03845568374 -0.08933417499 -0.04949429259 5.225597518e-39
-0.2076911479 0.00890938472 -0.02893508784 5.962428276e-39
-0.03822154179 0.01347114984 -0.03498600051 5.962428276e-39
0.02194602042 0.0260088481 -0.02473575436 5.962428276e-39
0.1683097184 0.02146780305 -0.02791711874 5.962428276e-39
-0.1577890217 0.01040541474 -0.03269663453 5.962428276e-39
0.07614509761 0.0147585338 -0.03993744403 5.962428276e-39
-0.2528522611 0.01895534061 -0.009666365571 5.962428276e-39
-0.04964646325 0.02742401883 -0.01866773516 5.962428276e-39
-0.3104398549 0.004670690279 -0.01820488274 5.962428276e-39
-0.1488274038 0.01228575036 -0.03192827478 5.962428276e-39
-0.2634975016 0.01796085201 -0.008641452529 5.962428276e-39
0.02140617743 0.03024294972 -0.01815688796 5.962428276e-39
-0.2929621339 0.005215519108 -0.0208082553 5.962428276e-39
-0.1229646578 0.01177302748 -0.03432329744 5.962428276e-39
-0.1768038571 0.02405945212 -0.01510637812 5.962428276e-39
0.03469614685 0.02970919386 -0.02011335641 5.962428276e-39
-0.2083969414 0.009018269368 -0.02862925641 5.962428276e-39
-0.03531341627 0.01520830858 -0.03355398029 5.962428276e-39
-0.2305840403 0.0155078033 -0.01777331345 5.962428276e-39
-0.02595919371 0.02943638898 -0.01619459689 5.962428276e-39
-0.2766006291 0.006310144439 -0.02222822234 5.962428276e-39
-0.1372687817 0.01160089392 -0.03340694681 5.962428276e-39
-0.1243669987 0.02545789443 -0.01931294613 5.962428276e-39
0.1161441058 0.02619207092 -0.02379474044 5.962428276e-39
-0.1955503225 0.009182143025 -0.02992061898 5.962428276e-39
0.02809409797 0.01775833592 -0.03428651765 5.962428276e-39
-0.1923310757 0.01921522245 -0.01911818422 5.962428276e-39
-0.03566654399 0.02947828732 -0.01598140039 5.962428276e-39
-0.3023700416 0.004112864845 -0.02122408338 5.962428276e-39
-0.1115989238 0.01309092063 -0.0337873213 5.962428276e-39
-0.07416684926 0.02248246036 -0.02505598217 5.962428276e-39
0.1412187517 0.02385966852 -0.0256295763 5.962428276e-39
-0.03136245161 -0.03931836784 0.3695159554 6.698542971e-39
-0.01030932739 -0.04659599066 0.3067921996 6.698542971e-39
-0.01067360584 -0.04484694451 0.3289450705 6.698542971e-39
0.006516893394 -0.04850580543 0.2569648325 6.698542971e-39
-0.03553065658 -0.03733477369 0.3851000071 6.698542971e-39
-0.01108472049 -0.04551747814 0.318816483 6.698542971e-39
-0.02904506959 -0.04266411811 0.3654306233 6.698542971e-39
0.04720871523 -0.05717532709 0.1806366146 6.698542971e-39
-0.04194828495 -0.03457076475 0.4047355652 6.698542971e-39
0.003568447893 -0.04846793041 0.2704764903 6.698542971e-39
-0.02985272929 -0.04290064424 0.3648526669 6.698542971e-39
0.03811151907 -0.05420379713 0.2031734586 6.698542971e-39
-0.03997822106 -0.03595446795 0.4002968371 6.698542971e-39
0.004725093022 -0.04859036207 0.2668942809 6.698542971e-39
-0.02427215502 -0.04263941571 0.357411325 6.698542971e-39
0.02257532626 -0.05273718759 0.230392158 6.698542971e-39
-0.03769841045 -0.03755044937 0.392418921 6.698542971e-39
-0.004472471774 -0.04498449713 0.3138111532 6.698542971e-39
-0.02695820108 -0.04198516905 0.3605478108 6.698542971e-39
0.04176982492 -0.05511086062 0.192162022 6.698542971e-39
-0.03908826038 -0.03467809409 0.3980304599 6.698542971e-39
0.001421093009 -0.04665339366 0.2827600837 6.698542971e-39
-0.02185280621 -0.04249432683 0.3542177975 6.698542971e-39
0.01048852038 -0.0483484827 0.2573988438 6.698542971e-39
-0.03680925071 -0.03787242249 0.3869758248 6.698542971e-39
-0.01125095598 -0.04470379278 0.3272921443 6.698542971e-39
-0.02751980908 -0.04203968495 0.3570459783 6.698542971e-39
0.04832177609 -0.05417776853 0.1833544523 6.698542971e-39
-0.04133111984 -0.03622779995 0.4021461904 6.698542971e-39
-0.002921312116 -0.04441548511 0.3135775626 6.698542971e-39
-0.01812878624 -0.04307384416 0.3476692438 6.698542971e-39
-0.007678871974 -0.04408492148 0.3272839487 6.698542971e-39
-0.005673556123 -0.09558434039 0.01629749127 7.434656265e-39
-0.2295792401 -0.1001115069 -0.00312684942 7.434656265e-39
-0.1417651922 -0.1003302485 -0.006132525858 7.434656265e-39
-0.1290854067 -0.09650377184 0.02015299164 7.434656265e-39
-0.07251915336 -0.09545686096 0.02493184432 7.434656265e-39
-0.2169780433 -0.09684161097 0.01337376982 7.434656265e-39
-0.08210406452 -0.09636022896 0.01458436437 7.434656265e-39
-0.1951618344 -0.09790039808 0.01192264352 7.434656265e-39
0.01581631601 -0.08686549217 0.05292722955 7.434656265e-39
-0.2964858115 -0.09697522223 0.001304521458 7.434656265e-39
-0.0821710825 -0.09658844024 0.01074836776 7.434656265e-39
-0.1791174114 -0.09851723164 0.009921671823 7.434656265e-39
-0.004694866948 -0.08895380795 0.05273057148 7.434656265e-39
-0.2956789136 -0.09769780934 -0.0005875676288 7.434656265e-39
-0.1319348812 -0.09974444658 -0.003321456723 7.434656265e-39
-0.1509560943 -0.09720423818 0.01246489119 7.434656265e-39
-0.1029311344 -0.096118927 0.02213713154 7.434656265e-39
-0.2549545467 -0.0971583873 0.01302699093 7.434656265e-39
-0.1030520275 -0.09716778249 0.01058490574 7.434656265e-39
-0.1937425584 -0.0985199213 0.009826216847 7.434656265e-39
-0.02291472629 -0.09163392335 0.047528781 7.434656265e-39
-0.3058108091 -0.09533011168 0.00423288811 7.434656265e-39
-0.1337371916 -0.1001850218 -0.006270520389 7.434656265e-39
-0.14046745 -0.0967118144 0.01869945601 7.434656265e-39
-0.07932259887 -0.09608064592 0.01952577196 7.434656265e-39
-0.2342695892 -0.09682108462 0.01463682763 7.434656265e-39
-0.09280281514 -0.09637913108 0.01805221103 7.434656265e-39
-0.1910801381 -0.09921936691 0.008222647943 7.434656265e-39
-0.07683745772 -0.09587456286 0.0216787681 7.434656265e-39
-0.3030670583 -0.09439540654 0.00856168475 7.434656265e-39
-0.1368316561 -0.1010041162 -0.01793671958 7.434656265e-39
-0.06225531548 -0.09816614538 -0.003693280742 7.434656265e-39
0.1478703618 -0.0007589755696 0.02065142058 8.170410826e-39
0.1369802058 -0.01817891188 0.03804823384 8.170410826e-39
0.1496212929 -0.002033744939 0.02299092151 8.170410826e-39
0.04583853483 -0.04138649628 0.07234752923 8.170410826e-39
0.1395035982 -0.008461630903 0.03027313203 8.170410826e-39
0.1931869537 -0.01282021217 0.0332817696 8.170410826e-39
0.2905474007 -0.008991982788 0.02841806225 8.170410826e-39
-0.002370472299 -0.0487058349 0.1537924409 8.170410826e-39
0.2071242183 -0.004790574778 0.02574840188 8.170410826e-39
0.09860766679 -0.0289722085 0.04544854909 8.170410826e-39
0.2959482968 -0.008394058794 0.02799455822 8.170410826e-39
0.01204199251 -0.05124596879 0.1222949401 8.170410826e-39
0.2040751278 -0.005393639207 0.02646687068 8.170410826e-39
0.1123593226 -0.02569781989 0.04317565262 8.170410826e-39
0.2718610466 -0.006436139811 0.0272628814 8.170410826e-39
0.02030693181 -0.04802276194 0.1070074588 8.170410826e-39
0.1372417063 -0.01249567978 0.03436346725 8.170410826e-39
0.1681822985 -0.01572629064 0.03569432348 8.170410826e-39
0.3052453399 -0.008177336305 0.02775630169 8.170410826e-39
0.0152683612 -0.05079037696 0.1192344278 8.170410826e-39
0.2075452805 -0.006574394647 0.02772988006 8.170410826e-39
0.1074071378 -0.02681156434 0.04398975521 8.170410826e-39
0.2527753711 -0.003344635013 0.02486676537 8.170410826e-39
0.03235791251 -0.04523481801 0.09108085185 8.170410826e-39
0.1573659629 -0.008298794739 0.0296093598 8.170410826e-39
0.17813389 -0.0140868267 0.03444066644 8.170410826e-39
0.2897339165 -0.006401972845 0.02681224234 8.170410826e-39
0.005675731692 -0.05009397864 0.1448792517 8.170410826e-39
0.2303767651 -0.006068445742 0.02708821185 8.170410826e-39
0.1189396754 -0.02291327529 0.04149049148 8.170410826e-39
0.2755661309 -0.007206710055 0.02764948457 8.170410826e-39
0.06590172648 -0.0385183543 0.06103134528 8.170410826e-39
0.04321784154 -0.06063315272 0.08651271462 8.906165387e-39
0.007028419059 -0.05500655621 0.1292899251 8.906165387e-39
-0.010712035 -0.05171405524 0.1539961845 8.906165387e-39
-0.02423616312 -0.04839703813 0.1880553365 8.906165387e-39
0.03042841516 -0.05938849971 0.09821397066 8.906165387e-39
-0.008596700616 -0.05469760671 0.115479514 8.906165387e-39
-0.04407370463 -0.04380983487 0.2346564382 8.906165387e-39
-0.05959603935 -0.03852251917 0.2798337936 8.906165387e-39
0.004000761546 -0.05482275039 0.1298928708 8.906165387e-39
-0.05686113238 -0.04722379521 0.2035706341 8.906165387e-39
-0.04940282181 -0.04396964237 0.2354404181 8.906165387e-39
-0.05993068218 -0.03759103641 0.2842529118 8.906165387e-39
-0.003787588794 -0.05288461223 0.1398705244 8.906165387e-39
-0.04784189165 -0.04814297333 0.1939103752 8.906165387e-39
-0.02997126244 -0.04683478922 0.2033658624 8.906165387e-39
-0.06102284044 -0.04161925614 0.2603338659 8.906165387e-39
-0.002122413833 -0.05345442891 0.1339231431 8.906165387e-39
-0.03796009347 -0.04924291372 0.1795871407 8.906165387e-39
-0.04933715239 -0.04411352798 0.2343666703 8.906165387e-39
-0.06259014457 -0.03756713495 0.2796759605 8.906165387e-39
-0.0009347197483 -0.05333500728 0.1377270073 8.906165387e-39
-0.05151164532 -0.04768634588 0.1999864876 8.906165387e-39
-0.01105285902 -0.04804660007 0.1840946227 8.906165387e-39
-0.05586335808 -0.04531414062 0.2260721475 8.906165387e-39
0.02405508608 -0.05813989043 0.1119313836 8.906165387e-39
-0.02477894723 -0.05183169991 0.136649102 8.906165387e-39
-0.03539185226 -0.04399231821 0.2292607874 8.906165387e-39
-0.06246509403 -0.03642396256 0.2850724757 8.906165387e-39
0.002896017628 -0.05190232024 0.149985373 8.906165387e-39
-0.05255134776 -0.04622462392 0.2184543163 8.906165387e-39
0.005692316219 -0.0488191247 0.1724707633 8.906165387e-39
-0.04053946957 -0.04860814288 0.1949633062 8.906165387e-39
-0.05891332775 -0.03322715312 0.04589685798 9.641561216e-39
-0.03702221066 -0.05328482762 0.04337419569 9.641561216e-39
-0.1588109732 -0.0328604877 0.04255280644 9.641561216e-39
-0.2491504997 -0.03286886215 0.03755232692 9.641561216e-39
-0.04165269062 -0.03212364018 0.04470525682 9.641561216e-39
-0.02016705275 -0.0574843362 0.04469323158 9.641561216e-39
-0.2254019678 -0.03173711151 0.03592000157 9.641561216e-39
-0.3595447838 -0.03302177042 0.01471723896 9.641561216e-39
-0.1362653822 -0.03235851228 0.039876353 9.641561216e-39
-0.09532278031 -0.04446377605 0.04416484758 9.641561216e-39
-0.2319551706 -0.03227517754 0.03631804883 9.641561216e-39
-0.3500137329 -0.03236883134 0.01405654661 9.641561216e-39
-0.1395740509 -0.03216569871 0.04114969447 9.641561216e-39
-0.07411067933 -0.04364104941 0.04499265552 9.641561216e-39
-0.2019813657 -0.03126877174 0.03707706183 9.641561216e-39
-0.3446651101 -0.03404846787 0.02153140493 9.641561216e-39
-0.08192629367 -0.03249741346 0.04442767054 9.641561216e-39
