# .PCD v0.7 - Point Cloud Data file format
VERSION 0.7
FIELDS x y z rgb
SIZE 4 4 4 4
TYPE F F F F
COUNT 1 1 1 1
WIDTH 814
HEIGHT 1
VIEWPOINT 0 0 0 1 0 0 0
POINTS 814
DATA ascii
-0.06903379411 -0.4177958071 0.04251034185 1.258099074e-38
-0.05346988887 -0.3054461479 -0.0003148252144 1.258099074e-38
-0.08977280557 -0.4029867351 0.02066267654 1.258099074e-38
-0.04738730937 -0.2791132033 -0.001293281792 1.258099074e-38
-0.07393071055 -0.4118941128 0.03394140676 1.258099074e-38
-0.02403210662 -0.08122497797 -0.003791511524 1.258099074e-38
-0.09430527687 -0.4019756913 0.01353865676 1.258099074e-38
-0.05066850409 -0.2950710952 -0.0005532521172 1.258099074e-38
-0.0752600804 -0.4012970924 0.02502620965 1.258099074e-38
-0.02328864299 -0.05256110802 -0.003684532829 1.258099074e-38
-0.09492965043 -0.402156949 0.003233177587 1.258099074e-38
-0.04462930933 -0.2658342719 -0.001605538651 1.258099074e-38
-0.0738524422 -0.3940698504 0.0214672219 1.258099074e-38
-0.01789042167 0.2397924066 -0.002097873716 1.258099074e-38
-0.08856318891 -0.4003002942 0.01800835319 1.258099074e-38
-0.02558097802 -0.1111210734 -0.004070308991 1.258099074e-38
-0.07064013928 -0.3940866292 0.02440981194 1.258099074e-38
-0.05305409059 -0.3086488247 -5.82607463e-05 1.258099074e-38
-0.077822119 -0.3864189088 0.006925397087 1.258099074e-38
-0.1180734262 -0.4885950983 -0.0003200471401 1.331530897e-38
-0.09409724921 -0.4901182353 0.003711608937 1.331530897e-38
-0.05155823007 -0.4937434196 -0.08574768901 1.331530897e-38
-0.04338376597 -0.4937007427 -0.08258906007 1.331530897e-38
-0.1261761338 -0.4847092628 0.03999972343 1.331530897e-38
-0.1025944725 -0.4872846901 0.03732521459 1.331530897e-38
-0.05703701451 -0.4939770997 -0.08720264584 1.331530897e-38
-0.05805596337 -0.4935468733 -0.07077542692 1.331530897e-38
-0.1210833192 -0.4869005382 0.01384014916 1.331530897e-38
-0.06656470895 -0.4929670393 -0.03325115889 1.331530897e-38
-0.06174022704 -0.4938545823 -0.08748959005 1.331530897e-38
-0.05297781155 -0.493522495 -0.06929726154 1.331530897e-38
-0.09267107397 -0.4929277003 -0.046413064 1.331530897e-38
-0.08485326916 -0.4915303588 -0.002134141047 1.331530897e-38
-0.09238961339 -0.4935776591 -0.07483508438 1.331530897e-38
-0.07467861474 -0.4930058122 -0.05133624002 1.331530897e-38
-0.06186340004 -0.4935504496 -0.07104413956 1.331530897e-38
-0.09729905427 -0.489066571 0.01862992905 1.331530897e-38
-0.06676819921 -0.4940293431 -0.08060926944 1.331530897e-38
-0.07950589061 -0.4930845797 -0.05334724486 1.331530897e-38
-0.06836669147 -0.4934329391 -0.06709385663 1.331530897e-38
-0.107203573 -0.4882876277 0.01433249004 1.331530897e-38
-0.07698613405 -0.4940805137 -0.08013090491 1.331530897e-38
-0.08340195566 -0.4928300977 -0.04376726598 1.331530897e-38
-0.05981936678 -0.4935966432 -0.07472055405 1.331530897e-38
-0.106958285 -0.4890587628 0.003252196824 1.331530897e-38
-0.1063948423 -0.4900633991 -0.07028836757 1.331530897e-38
-0.08992961794 -0.4928021133 -0.04334422573 1.331530897e-38
-0.06011235341 -0.4935908318 -0.07522491366 1.331530897e-38
-0.1054696292 -0.4893046916 0.002466912149 1.331530897e-38
-0.06657426059 -0.4937425852 -0.0774583444 1.331530897e-38
-0.09217059612 -0.493044585 -0.05149650201 1.331530897e-38
0.01819003187 0.4911454022 0.02704280987 1.404926846e-38
0.03315443918 0.4920449257 0.02787159011 1.404926846e-38
0.01634543017 0.4924015403 0.02506244928 1.404926846e-38
0.04019350559 0.4912063479 0.02131057158 1.404926846e-38
0.01948550344 0.4902482927 0.02754650638 1.404926846e-38
0.03760821372 0.491509825 0.028637385 1.404926846e-38
0.002920373343 0.4946032465 0.01854294725 1.404926846e-38
0.04297362641 0.4909585416 0.02464934625 1.404926846e-38
0.02636836097 0.4896888137 0.02791390941 1.404926846e-38
0.03730461374 0.4913273454 0.02844503522 1.404926846e-38
0.02620447241 0.49048841 0.02371911332 1.404926846e-38
0.04562009871 0.4918060303 0.01996773668 1.404926846e-38
0.0271614939 0.4903619289 0.02770046517 1.404926846e-38
0.03793077543 0.4924946427 0.02685491182 1.404926846e-38
0.01799290068 0.4915308356 0.02695256472 1.404926846e-38
0.04168758914 0.4921332598 0.003688165918 1.404926846e-38
0.02710481547 0.4910866618 0.02578412741 1.404926846e-38
0.04247564822 0.4927775562 0.02192339674 1.404926846e-38
0.02283987962 0.4912547469 0.02528585494 1.404926846e-38
0.04430408031 0.4922564924 0.01194940601 1.404926846e-38
0.02106798068 0.4906650186 0.02733555995 1.404926846e-38
0.04336459562 0.4927879274 0.01622063667 1.404926846e-38
0.02229520679 0.4914069772 0.02556598373 1.404926846e-38
0.04433574155 0.4922169149 0.01047933102 1.404926846e-38
0.01956961863 0.4910395145 0.0258725211 1.404926846e-38
0.03754423186 0.4925414324 0.01243972685 1.404926846e-38
0.01823229901 0.4917710721 0.02620120719 1.404926846e-38
0.03484488279 0.4921573102 0.02181333676 1.404926846e-38
0.01929797605 0.4914872348 0.02613313124 1.404926846e-38
0.03315704316 0.4922202229 0.01791232638 1.404926846e-38
0.01353264693 0.4922957718 0.02734732628 1.404926846e-38
0.02625878528 0.4927477837 0.02600252628 1.404926846e-38
-0.02934639342 0.4853518009 0.00299564423 1.478322936e-38
-0.02804941125 0.4832045138 0.03185819462 1.478322936e-38
-0.01678729989 0.488368243 0.01891487837 1.478322936e-38
-0.02487448044 0.4872615337 0.01774712652 1.478322936e-38
-0.03586398065 0.4849169552 0.0119085405 1.478322936e-38
-0.01485365909 0.4846905768 0.03114490584 1.478322936e-38
-0.02613745444 0.4869072139 0.008180716075 1.478322936e-38
-0.01910635829 0.4871385694 0.02328102849 1.478322936e-38
-0.022763744 0.486266464 0.001068633632 1.478322936e-38
-0.02016697079 0.4840706885 0.03266144544 1.478322936e-38
-0.02350245416 0.485578984 0.0006596575258 1.478322936e-38
-0.02148425765 0.4873850048 0.02112648077 1.478322936e-38
-0.02507295087 0.4839405715 -0.001518101199 1.478322936e-38
-0.02485370636 0.4820652604 0.03548387066 1.478322936e-38
-0.02215590514 0.4827347994 -0.00176076591 1.478322936e-38
-0.03392268345 0.4848015606 0.02556215227 1.478322936e-38
-0.0262061283 0.4821017087 -0.001737570507 1.478322936e-38
-0.03393958881 0.4830589294 0.03003907204 1.478322936e-38
-0.02577321045 0.481597662 -0.001603579614 1.478322936e-38
-0.03407660127 0.4851308763 0.02389506623 1.478322936e-38
-0.02753137797 0.4804916084 -0.002092878101 1.478322936e-38
-0.04259442538 0.483800292 0.02523105219 1.478322936e-38
-0.01592096314 0.4628013968 -0.003364829579 1.478322936e-38
-0.03940610588 0.484339267 0.02441298775 1.478322936e-38
-0.03014831617 0.479002893 -0.003543846309 1.478322936e-38
-0.04742182046 0.4838993847 0.02089367621 1.478322936e-38
-0.01579845324 0.4571074545 -0.003681875998 1.478322936e-38
-0.04849712551 0.4835735857 0.01969051547 1.478322936e-38
-0.03083139658 0.4805778861 -0.003694538027 1.478322936e-38
-0.04458633065 0.4834764302 0.02494149096 1.478322936e-38
-0.0214561969 0.4760174751 -0.001869205036 1.478322936e-38
-0.03759006038 0.4833757877 0.005584155675 1.478322936e-38
0.01156238373 -0.2832601368 -0.003195495578 1.551683013e-38
0.002033327706 -0.1285704523 -0.0008247325313 1.551683013e-38
0.003492736025 -0.1926184446 -0.001228776178 1.551683013e-38
-0.001743270201 -0.02380266972 -0.00396357337 1.551683013e-38
0.02776557952 -0.3209315836 -0.001368456637 1.551683013e-38
0.006489692256 -0.2077099085 0.001459710184 1.551683013e-38
-0.0006920098094 -0.06093036011 -0.003189430106 1.551683013e-38
-0.001092329156 -0.03615958989 -0.002903641434 1.551683013e-38
0.02801707201 -0.3331169784 -0.002087045228 1.551683013e-38
0.004585941788 -0.1820542812 0.001499718754 1.551683013e-38
0.04655113071 -0.3590122163 0.001836737385 1.551683013e-38
0.002345133107 -0.1196284816 -0.0003906367056 1.551683013e-38
0.06207484752 -0.3894906044 0.01022752002 1.551683013e-38
0.002890452044 -0.1414305866 -0.00017359294 1.551683013e-38
0.06516857445 -0.3934331536 0.01319573727 1.551683013e-38
0.004641596228 -0.1787414104 0.000920683844 1.551683013e-38
0.06367417425 -0.3920783401 0.01018011849 1.551683013e-38
0.004305768292 -0.1980814487 -0.0007371845422 1.551683013e-38
0.05892400444 -0.3841136396 0.01033129171 1.551683013e-38
0.003785420675 -0.1648769081 0.0002181865275 1.551683013e-38
0.06578666717 -0.3955495954 0.01153854001 1.551683013e-38
0.01776663959 -0.3027314544 -0.003008810105 1.551683013e-38
0.05805902556 -0.3829217255 0.009668067098 1.551683013e-38
0.004068754613 -0.1708598882 0.0003573614813 1.551683013e-38
0.0664857626 -0.3964068592 0.01257108711 1.551683013e-38
0.01909960248 -0.3091623783 -0.002944105072 1.551683013e-38
0.04265833274 -0.3518416584 0.0007154400228 1.551683013e-38
0.003143054433 -0.1571697444 -0.0001342147589 1.551683013e-38
0.05754300579 -0.3823824525 0.008694067597 1.551683013e-38
0.002973950002 -0.1755653769 -0.001124686096 1.551683013e-38
0.05711834505 -0.3817926049 0.009030514397 1.551683013e-38
0.00194202119 -0.1321058869 -0.00114201149 1.551683013e-38
-0.08146204054 -0.4947990477 0.01914121397 1.625043089e-38
-0.1071893647 -0.4439465404 -0.02868787013 1.625043089e-38
-0.06865233183 -0.5007460117 -0.003098928602 1.625043089e-38
-0.07646184415 -0.4959280789 -0.0449328348 1.625043089e-38
-0.09756147861 -0.4807134569 0.02900423668 1.625043089e-38
-0.1071993038 -0.4477182329 -0.01959815435 1.625043089e-38
-0.059492331 -0.5050786734 -0.005186805502 1.625043089e-38
-0.0945399031 -0.4921490848 -0.03577336669 1.625043089e-38
-0.07002154738 -0.499861151 0.02383035794 1.625043089e-38
-0.1080177426 -0.4463921785 -0.03375829011 1.625043089e-38
-0.02803889848 -0.5076200962 0.00878724549 1.625043089e-38
-0.07859803736 -0.4962976575 -0.04012800008 1.625043089e-38
-0.08200274408 -0.4931409657 0.01592942141 1.625043089e-38
-0.1085221991 -0.457147032 -0.04312182963 1.625043089e-38
-0.05352444202 -0.5026609898 -0.01818097383 1.625043089e-38
-0.0935017243 -0.4806904197 -0.05552320555 1.625043089e-38
-0.08339586854 -0.4929549396 0.01093215309 1.625043089e-38
-0.1068407968 -0.4472606182 -0.04228932783 1.625043089e-38
-0.07060417533 -0.4991841316 -0.01512732822 1.625043089e-38
-0.1060966104 -0.4743480086 -0.05009745806 1.625043089e-38
-0.08861345053 -0.4906569719 0.002221237868 1.625043089e-38
-0.1065501422 -0.4462167025 -0.04235124215 1.625043089e-38
-0.05333087966 -0.5025808811 -0.01442463137 1.625043089e-38
-0.09798184782 -0.4851596653 -0.03147169948 1.625043089e-38
-0.08571181446 -0.4914099574 -0.0001196973026 1.625043089e-38
-0.1075162441 -0.457978487 -0.04673800617 1.625043089e-38
-0.07257734239 -0.497679323 -0.02335664816 1.625043089e-38
-0.1091610789 -0.4645383954 -0.03986778855 1.625043089e-38
-0.0961349234 -0.4866888821 -0.01468645968 1.625043089e-38
-0.1068859845 -0.4476499557 -0.04262831062 1.625043089e-38
-0.1083186716 -0.470692277 -0.02382393368 1.625043089e-38
-0.1066611335 -0.446842432 -0.04144214839 1.625043089e-38
0.03807801008 -0.4118176401 -0.09277198464 1.698367293e-38
0.05040960386 -0.4215918183 -0.08602292091 1.698367293e-38
0.06035446003 -0.4463058412 -0.08140598983 1.698367293e-38
0.002002311172 -0.3845296502 -0.1009289399 1.698367293e-38
-0.004692356102 -0.3973871768 -0.1075564176 1.698367293e-38
0.05515665561 -0.4134856462 -0.08331493288 1.698367293e-38
0.0421512723 -0.4345535338 -0.09265987575 1.698367293e-38
0.0002743601799 -0.3769523501 -0.09933823347 1.698367293e-38
0.007824559696 -0.4040788114 -0.1042271703 1.698367293e-38
0.06178656965 -0.4361575246 -0.07799579948 1.698367293e-38
0.05706055462 -0.4505371153 -0.08363862336 1.698367293e-38
0.005213317927 -0.3715240359 -0.09533147514 1.698367293e-38
0.0001045465469 -0.3861784637 -0.1023763493 1.698367293e-38
0.0601641275 -0.430456847 -0.07771763951 1.698367293e-38
0.06138210371 -0.4554772079 -0.08261378109 1.698367293e-38
0.02712161094 -0.3842192292 -0.09087727964 1.698367293e-38
0.009236758575 -0.3823421896 -0.09757964313 1.698367293e-38
0.05264890194 -0.4135720432 -0.08492606878 1.698367293e-38
0.0452975817 -0.4331229031 -0.08954823762 1.698367293e-38
0.04737177119 -0.3996355832 -0.08677060157 1.698367293e-38
0.01264171023 -0.3976957798 -0.09981580079 1.698367293e-38
0.05419824272 -0.4234492779 -0.08305015415 1.698367293e-38
0.0450216867 -0.4343271852 -0.08974658698 1.698367293e-38
0.04471237957 -0.3952268362 -0.08698492497 1.698367293e-38
0.02439499088 -0.4046331942 -0.09680131078 1.698367293e-38
0.05419501662 -0.4251401722 -0.08282976598 1.698367293e-38
0.04156761989 -0.432297498 -0.09330129623 1.698367293e-38
0.06051115319 -0.4022296965 -0.08122104406 1.698367293e-38
0.02330943383 -0.406319797 -0.09787397087 1.698367293e-38
0.05807457492 -0.4232603908 -0.07999306917 1.698367293e-38
0.05917345732 -0.4315065444 -0.07837833464 1.698367293e-38
0.05676256865 -0.4077498913 -0.08307426423 1.698367293e-38
0.08903219551 -0.4729909301 0.05317461491 1.771655483e-38
0.06530229002 -0.508392334 0.06934655458 1.771655483e-38
0.07998750359 -0.4480211139 0.04909014702 1.771655483e-38
0.05516238138 -0.4856503308 0.06768792868 1.771655483e-38
0.09494739026 -0.4613873661 0.04383255541 1.771655483e-38
0.0457941778 -0.5015258789 0.07128930837 1.771655483e-38
0.09561245143 -0.4591091871 0.04264203086 1.771655483e-38
0.0468256101 -0.4828718901 0.06855569035 1.771655483e-38
0.08493354917 -0.4398136139 0.04252880067 1.771655483e-38
0.03787229955 -0.4911901057 0.071121566 1.771655483e-38
0.08646436036 -0.4364560246 0.03981184959 1.771655483e-38
0.0242421478 -0.4809707701 0.07175203413 1.771655483e-38
0.08932368457 -0.4629966915 0.0487585403 1.771655483e-38
0.03848649934 -0.5001869202 0.07234673947 1.771655483e-38
0.08994480968 -0.4636450112 0.04877264053 1.771655483e-38
0.06415647268 -0.5036486387 0.06868804991 1.771655483e-38
0.09145982563 -0.471021086 0.05045698583 1.771655483e-38
0.05003862828 -0.5116049051 0.07284262031 1.771655483e-38
0.085832268 -0.4694968462 0.05400253087 1.771655483e-38
0.08409193903 -0.5092535019 0.06546066701 1.771655483e-38
0.09053798765 -0.473800987 0.05241909251 1.771655483e-38
0.07239311934 -0.520128727 0.07012476772 1.771655483e-38
0.08955749124 -0.4797115624 0.05508716777 1.771655483e-38
0.08461614698 -0.5152550936 0.0661348477 1.771655483e-38
0.09255920351 -0.4748478532 0.05102815479 1.771655483e-38
0.08729340881 -0.5304192305 0.0675118342 1.771655483e-38
0.09394851327 -0.4802710712 0.05206109583 1.771655483e-38
0.07728484273 -0.5178897381 0.0687109828 1.771655483e-38
0.08922789246 -0.4783995748 0.05469779298 1.771655483e-38
0.07452581078 -0.5248663425 0.07023210078 1.771655483e-38
0.08171537519 -0.483130306 0.06017285213 1.771655483e-38
0.07111061364 -0.5100290775 0.06846693158 1.771655483e-38
-0.02526517399 -0.3003888726 0.02101849951 1.844943813e-38
-0.03561613709 -0.3430482447 0.0332829766 1.844943813e-38
-0.03779523447 -0.3688829839 0.04863414913 1.844943813e-38
-0.03771695122 -0.3976987898 0.05701858923 1.844943813e-38
-0.02878075093 -0.3283784688 0.03260095417 1.844943813e-38
-0.03684251755 -0.3520335257 0.03564268351 1.844943813e-38
-0.04049734399 -0.3787714839 0.05067107826 1.844943813e-38
-0.03704230487 -0.3797860742 0.04889637232 1.844943813e-38
-0.02560443245 -0.3040163517 0.02276648208 1.844943813e-38
-0.03656824306 -0.3546674848 0.03740413487 1.844943813e-38
-0.04524175823 -0.4301128685 0.06961087137 1.844943813e-38
-0.03276865929 -0.366891861 0.04825904965 1.844943813e-38
-0.03980575129 -0.3763410747 0.05158680305 1.844943813e-38
-0.03515469283 -0.3207427561 0.02180130593 1.844943813e-38
-0.04565038159 -0.4145466387 0.06305036694 1.844943813e-38
-0.03339477256 -0.348767668 0.039367944 1.844943813e-38
-0.04393258691 -0.386598438 0.05418181047 1.844943813e-38
-0.03423207998 -0.3142283559 0.02038292959 1.844943813e-38
-0.0459248051 -0.4037325382 0.0587660633 1.844943813e-38
-0.03576290607 -0.364684999 0.04593440145 1.844943813e-38
-0.04942090809 -0.4151597023 0.06406755745 1.844943813e-38
-0.03361138701 -0.3226101696 0.02572504617 1.844943813e-38
-0.0442205146 -0.3999002874 0.05893936008 1.844943813e-38
-0.03412278742 -0.3588152826 0.04465673864 1.844943813e-38
-0.04849255085 -0.4152758121 0.06476546824 1.844943813e-38
-0.0321409516 -0.3251650929 0.02940807492 1.844943813e-38
-0.03766262531 -0.3614640832 0.04468727484 1.844943813e-38
-0.0329317227 -0.3409984708 0.03759003803 1.844943813e-38
-0.0396483317 -0.3700332642 0.04829087481 1.844943813e-38
-0.03443756327 -0.3239268661 0.02661388926 1.844943813e-38
-0.04131556675 -0.3775059283 0.05137069523 1.844943813e-38
-0.03498404473 -0.3484745026 0.03984715417 1.844943813e-38
-0.05300037935 -0.4184870124 0.09099069238 1.91819627e-38
-0.07481462508 -0.4283566475 0.05895081535 1.91819627e-38
-0.05919385701 -0.4236481488 0.08539577574 1.91819627e-38
-0.05210683495 -0.4248513579 0.08850440383 1.91819627e-38
-0.03981635347 -0.4114478827 0.09074086696 1.91819627e-38
-0.09741213918 -0.4173825383 0.03506578133 1.91819627e-38
-0.06520722806 -0.4292370081 0.0768121928 1.91819627e-38
-0.03089461476 -0.4247272909 0.08976848423 1.91819627e-38
-0.01468446758 -0.4069955051 0.08741082251 1.91819627e-38
-0.09131942689 -0.4165808856 0.03531658649 1.91819627e-38
-0.05538306758 -0.4189738035 0.09028982371 1.91819627e-38
0.01031941827 -0.4166815579 0.08511012048 1.91819627e-38
-0.03369816765 -0.3976773024 0.08996478468 1.91819627e-38
-0.05319276452 -0.4284185767 0.08605273068 1.91819627e-38
-0.04499134049 -0.417016685 0.09173640609 1.91819627e-38
0.02013214491 -0.4154751301 0.084265396 1.91819627e-38
-0.02598095685 -0.4044810236 0.08852868527 1.91819627e-38
-0.02105476521 -0.4271709323 0.08854232728 1.91819627e-38
-0.05163186044 -0.4216692746 0.09010763466 1.91819627e-38
-0.01233648509 -0.4241946638 0.08758695424 1.91819627e-38
-0.03059842065 -0.4064427018 0.08898396045 1.91819627e-38
-0.04375622422 -0.4309494495 0.08773007244 1.91819627e-38
-0.05370690301 -0.4230235815 0.08908882737 1.91819627e-38
-0.008233956993 -0.4241630435 0.08717503399 1.91819627e-38
-0.03121699579 -0.4090234637 0.08922679722 1.91819627e-38
-0.05837188289 -0.4314008653 0.08076293021 1.91819627e-38
-0.03975370154 -0.4253253639 0.08979614824 1.91819627e-38
-0.02716548182 -0.4312053919 0.08943042159 1.91819627e-38
-0.03499783576 -0.4134470224 0.09004535526 1.91819627e-38
-0.06214718893 -0.4302439988 0.07848347723 1.91819627e-38
-0.05982561782 -0.4245607555 0.08470153064 1.91819627e-38
-0.05390045047 -0.4325529337 0.08359933645 1.91819627e-38
0.06658497453 -0.4945349395 -0.06742129475 1.991448586e-38
0.07535568625 -0.4931868911 -0.01624920219 1.991448586e-38
0.08782050759 -0.491448015 0.0217685122 1.991448586e-38
0.08049321175 -0.4925353527 0.008100094274 1.991448586e-38
0.05807515979 -0.4911804795 -0.07598565519 1.991448586e-38
0.06222928315 -0.4963088334 -0.05617940798 1.991448586e-38
0.08895739913 -0.490468353 0.04006668553 1.991448586e-38
0.08263237774 -0.4852090776 0.04325822368 1.991448586e-38
0.06313062459 -0.4937331676 -0.06929968297 1.991448586e-38
0.08110113442 -0.4827487469 0.04225045443 1.991448586e-38
0.0879111141 -0.491867125 0.01247567777 1.991448586e-38
0.08122730255 -0.4874051809 0.0264958404 1.991448586e-38
0.0627065599 -0.4936034679 -0.07238385081 1.991448586e-38
0.08149755001 -0.4874558449 0.02489395067 1.991448586e-38
0.08797201514 -0.4922819436 0.0007436870364 1.991448586e-38
0.08151625842 -0.4897494912 0.01767440885 1.991448586e-38
0.05992683023 -0.495606333 -0.08410239965 1.991448586e-38
0.07406400144 -0.49185884 -0.01251206081 1.991448586e-38
0.08211874962 -0.4929656088 -0.01324559748 1.991448586e-38
0.07138442993 -0.4944300056 -0.02676005103 1.991448586e-38
0.06035056338 -0.4958225489 -0.08428835124 1.991448586e-38
0.07014767826 -0.4929032922 -0.02251853794 1.991448586e-38
0.08508476615 -0.4916576743 0.003243047511 1.991448586e-38
0.06611911952 -0.4953376651 -0.04504959658 1.991448586e-38
0.06527366489 -0.4961194694 -0.07338799536 1.991448586e-38
0.06216515601 -0.4934425354 -0.05273005739 1.991448586e-38
0.08365990967 -0.4932323396 -0.0183239039 1.991448586e-38
0.06945600361 -0.4941387177 -0.0347067751 1.991448586e-38
0.07306262106 -0.4951116443 -0.05633590743 1.991448586e-38
0.06533652544 -0.495156765 -0.045523718 1.991448586e-38
0.08321691304 -0.4919018745 -0.006990996655 1.991448586e-38
0.06702206284 -0.4953899384 -0.04067264497 1.991448586e-38
-0.06831946224 -0.3731709421 -0.01654079184 2.06466517e-38
-0.05492237583 -0.3587567806 -0.03348017484 2.06466517e-38
-0.06632465124 -0.3766835928 0.02392223477 2.06466517e-38
-0.07227041572 -0.3830879927 -0.03918189928 2.06466517e-38
-0.07036728412 -0.3774066567 -0.0216841884 2.06466517e-38
-0.05944471061 -0.3657774627 -0.03338994086 2.06466517e-38
-0.06313896179 -0.3725059927 0.02251196839 2.06466517e-38
-0.06826393306 -0.3782415986 -0.03726544604 2.06466517e-38
-0.06951513141 -0.3747785985 -0.01133876573 2.06466517e-38
-0.05095614865 -0.3505177498 -0.03156546876 2.06466517e-38
-0.0466725789 -0.3736578226 0.04197391123 2.06466517e-38
-0.07621449232 -0.3871087432 -0.04183017462 2.06466517e-38
-0.06912028044 -0.3748950958 0.01154064015 2.06466517e-38
-0.07115030289 -0.3783562779 -0.02575744502 2.06466517e-38
-0.03862437606 -0.3710703254 0.04500637576 2.06466517e-38
-0.07502862811 -0.3871653974 -0.0422668457 2.06466517e-38
-0.05520681664 -0.3773279786 0.03727548569 2.06466517e-38
-0.07252365351 -0.3791073263 -0.02181457542 2.06466517e-38
-0.06276467443 -0.3762481511 0.0275137797 2.06466517e-38
-0.07174260914 -0.3850110769 -0.0388610512 2.06466517e-38
-0.04868885875 -0.3733749092 0.03989924118 2.06466517e-38
-0.06877608597 -0.3734821975 -0.001738747698 2.06466517e-38
-0.0623983182 -0.3716961145 0.02238879353 2.06466517e-38
-0.07337583601 -0.3887872994 -0.0398702696 2.06466517e-38
-0.0384757854 -0.3692913651 0.04416559264 2.06466517e-38
-0.07093928754 -0.3767836988 -0.004307760391 2.06466517e-38
-0.06758145243 -0.372861743 0.009061550722 2.06466517e-38
-0.07186733186 -0.3846547306 -0.03648567572 2.06466517e-38
-0.05020491779 -0.3701079786 0.03427108377 2.06466517e-38
-0.07073967159 -0.3775927722 -0.02284093946 2.06466517e-38
-0.06873959303 -0.374232024 0.01106992364 2.06466517e-38
-0.06474879384 -0.3750463128 -0.03565695137 2.06466517e-38
-0.007960203104 0.475176692 -0.01574331895 2.137881613e-38
-0.009362658486 0.4935124218 -0.02757377736 2.137881613e-38
-0.006924890913 0.4559953511 -0.006646699272 2.137881613e-38
-0.03204001859 0.4914687276 -0.02875497006 2.137881613e-38
-0.008725756779 0.4802964926 -0.01765805297 2.137881613e-38
-0.007997293957 0.4927253723 -0.02683291025 2.137881613e-38
-0.007311347872 0.4531312287 -0.006902145687 2.137881613e-38
-0.03861781955 0.4906996489 -0.02846523002 2.137881613e-38
-0.008654367179 0.4645405412 -0.01029125042 2.137881613e-38
-0.01249746699 0.4947940111 -0.03148767725 2.137881613e-38
-0.005636870861 0.4288805723 0.001152209472 2.137881613e-38
-0.03017836623 0.491650939 -0.02989703231 2.137881613e-38
-0.004411594477 0.4350401163 -0.002085086657 2.137881613e-38
-0.008384504355 0.4922820032 -0.02579096891 2.137881613e-38
-0.009305592626 0.3780476153 -0.0001878738403 2.137881613e-38
-0.01844005287 0.4937768877 -0.03235433996 2.137881613e-38
-0.004309188109 0.4291075766 -0.0007851047558 2.137881613e-38
-0.007887862623 0.4770763218 -0.01647374779 2.137881613e-38
-0.006131579634 0.410735935 0.001461206819 2.137881613e-38
-0.02151585557 0.4932120144 -0.03183203191 2.137881613e-38
-0.005403302144 0.4349430799 1.845508814e-05 2.137881613e-38
-0.00679244101 0.4639180303 -0.01217081677 2.137881613e-38
-0.006382632069 0.411305964 0.001051023253 2.137881613e-38
-0.02230692469 0.4928400517 -0.03150955215 2.137881613e-38
-0.007135024294 0.447406292 -0.002175692702 2.137881613e-38
-0.006832530722 0.4624832571 -0.01172388252 2.137881613e-38
-0.004685181193 0.4335900843 -0.001006088802 2.137881613e-38
-0.01590365916 0.4939845502 -0.03196691349 2.137881613e-38
-0.006062932312 0.4438483417 -0.00300205336 2.137881613e-38
-0.00730637135 0.47223562 -0.01480070408 2.137881613e-38
-0.004394450691 0.4290240407 -0.001597030554 2.137881613e-38
-0.01601877436 0.4939599335 -0.03170515969 2.137881613e-38
-0.06852441281 -0.4771792889 -0.07233990729 2.211062324e-38
0.04134588316 -0.4780865908 -0.08976218104 2.211062324e-38
-0.06744418293 -0.4774053097 -0.07501386851 2.211062324e-38
0.02450036816 -0.4782700837 -0.09539718181 2.211062324e-38
-0.06235795096 -0.4768797755 -0.07690709829 2.211062324e-38
0.04260535538 -0.4777361751 -0.09040894359 2.211062324e-38
-0.04452163726 -0.4779915512 -0.08706599474 2.211062324e-38
0.0593649745 -0.4753400087 -0.09131684154 2.211062324e-38
-0.06167694554 -0.4767393768 -0.07838305831 2.211062324e-38
0.06555671245 -0.4744939506 -0.08927495033 2.211062324e-38
-0.09130221605 -0.4742437005 -0.04187860712 2.211062324e-38
0.04206438735 -0.4779741466 -0.09099689126 2.211062324e-38
-0.0726795122 -0.4766151011 -0.0671511218 2.211062324e-38
0.041454833 -0.477773577 -0.09038075805 2.211062324e-38
-0.1025627106 -0.4731950462 -0.01858321205 2.211062324e-38
-0.01567365043 -0.4809807837 -0.08991418034 2.211062324e-38
-0.08790082484 -0.4747200012 -0.04676901549 2.211062324e-38
-0.0116258394 -0.481436938 -0.09111058712 2.211062324e-38
-0.1000258252 -0.4726158082 -0.02725669183 2.211062324e-38
-0.04209412262 -0.4785792232 -0.08598683029 2.211062324e-38
-0.08959287405 -0.47461766 -0.04505665228 2.211062324e-38
-0.03413987532 -0.4800090492 -0.08790628612 2.211062324e-38
-0.1010834873 -0.4731145501 -0.02537826076 2.211062324e-38
-0.04207132012 -0.4787942469 -0.08532486111 2.211062324e-38
-0.08734632283 -0.4749657214 -0.04814150557 2.211062324e-38
-0.03461455554 -0.479775548 -0.08745241165 2.211062324e-38
-0.09655635804 -0.4737074673 -0.03672564402 2.211062324e-38
-0.0491094999 -0.4780286551 -0.08421371877 2.211062324e-38
-0.08600836247 -0.4750753045 -0.05072790757 2.211062324e-38
-0.01907285675 -0.4814673364 -0.08787050098 2.211062324e-38
-0.09637999535 -0.4733416736 -0.03626537696 2.211062324e-38
-0.05955021083 -0.4770303071 -0.08115018904 2.211062324e-38
0.01621686108 -0.3719519079 0.04437026754 2.284242894e-38
0.03233877569 -0.3943012059 0.05877879262 2.284242894e-38
0.005613074172 0.1542441249 0.001866375678 2.284242894e-38
0.05729563907 -0.4295133948 0.06514973193 2.284242894e-38
0.01828265563 -0.3828657866 0.05112528428 2.284242894e-38
0.04621961713 -0.4090748727 0.06364785135 2.284242894e-38
0.0108821718 0.3110399842 0.004275571555 2.284242894e-38
0.04626973346 -0.4258956611 0.06564383209 2.284242894e-38
0.0221693255 -0.395041734 0.05801155046 2.284242894e-38
0.05080620572 -0.4057426155 0.06318330765 2.284242894e-38
0.01132631302 -0.3111825287 0.01618899591 2.284242894e-38
0.08500862867 -0.4563070834 0.0649779886 2.284242894e-38
0.01175789721 -0.4028615952 0.06117593125 2.284242894e-38
0.06398519129 -0.4371540248 0.06538768858 2.284242894e-38
0.01760635339 -0.3893978596 0.05341233686 2.284242894e-38
0.08197039366 -0.4528095126 0.06503318995 2.284242894e-38
0.006927297451 -0.3989564478 0.05918301642 2.284242894e-38
0.05870768428 -0.4262298048 0.06460631639 2.284242894e-38
0.01941001229 -0.378372848 0.04761262611 2.284242894e-38
0.06417796761 -0.4335462153 0.06501621753 2.284242894e-38
0.01115533616 -0.3901683986 0.05461710691 2.284242894e-38
0.05136267096 -0.4152337015 0.06401217729 2.284242894e-38
0.01341493428 -0.3385119736 0.03066612035 2.284242894e-38
0.06723745912 -0.4337193668 0.06473693252 2.284242894e-38
0.0157978721 -0.3866783082 0.05287481099 2.284242894e-38
0.05457728356 -0.4135679901 0.0637351498 2.284242894e-38
-0.002511369297 -0.2317545414 0.008722106926 2.284242894e-38
0.05421969667 -0.4192367792 0.06413972378 2.284242894e-38
0.01376853324 -0.3778935075 0.04824382439 2.284242894e-38
0.04894080758 -0.4077653289 0.06354382634 2.284242894e-38
0.0175815355 -0.3700309694 0.04337549955 2.284242894e-38
0.04101483151 -0.4044010043 0.06216229126 2.284242894e-38
-0.002132114489 -0.3474759758 -0.02950373664 2.348204041e-38
0.001662565744 -0.2306258231 -0.002146210987 2.348204041e-38
0.01478051767 -0.3899936974 -0.04058588296 2.348204041e-38
-0.003573752707 -0.2534662187 -0.007332759909 2.348204041e-38
0.04076077789 -0.3796397448 -0.03979501128 2.348204041e-38
-0.0001531243324 -0.2007748187 0.003275218885 2.348204041e-38
-0.002188686514 -0.3362774849 -0.02574426122 2.348204041e-38
-0.001388340257 -0.204987064 0.001464246656 2.348204041e-38
-0.003066455713 -0.2970044017 -0.01585827395 2.348204041e-38
0.008819872513 -0.1297404021 0.006983002648 2.348204041e-38
-0.007664895616 -0.3484101892 -0.02965809591 2.348204041e-38
-0.004009188153 -0.2562116981 -0.00827657152 2.348204041e-38
0.022452306 -0.3393301368 -0.02931362763 2.348204041e-38
0.0007887033862 -0.2155811191 -0.00011472404 2.348204041e-38
-0.001242428436 -0.3797782958 -0.0421455875 2.348204041e-38
0.005294571631 -0.3256668746 -0.02380421944 2.348204041e-38
0.02089294605 -0.3446013033 -0.02973700315 2.348204041e-38
0.002660186263 -0.2428140938 -0.004867321346 2.348204041e-38
0.01379386801 -0.397123158 -0.04678712785 2.348204041e-38
0.01376567967 -0.3520804942 -0.03147646785 2.348204041e-38
0.02978605777 -0.3771894276 -0.03687199578 2.348204041e-38
0.01156844012 -0.3106521666 -0.01952788793 2.348204041e-38
0.01419148687 -0.4153841138 -0.05429342389 2.348204041e-38
0.01173423789 -0.366094321 -0.03581872955 2.348204041e-38
0.04553833604 -0.3827706575 -0.03769179806 2.348204041e-38
0.03398944438 -0.3452457488 -0.03075498156 2.348204041e-38
0.02029658668 -0.4454234838 -0.06622970104 2.348204041e-38
0.02899020538 -0.3759017885 -0.03950192034 2.348204041e-38
0.02470562607 -0.3903236985 -0.03994609043 2.348204041e-38
0.03052259237 -0.3437995017 -0.0303034056 2.348204041e-38
0.02219108492 -0.443995744 -0.06836299598 2.348204041e-38
0.04270691797 -0.4162806869 -0.05608593673 2.348204041e-38
0.06633328646 -0.3445678353 0.04889554903 2.347880341e-38
0.0675271526 -0.3468641937 -0.03880761936 2.347880341e-38
0.06362890452 -0.3304934502 -0.000858807005 2.347880341e-38
0.07820428163 -0.3552652597 -0.02758291364 2.347880341e-38
0.05973637849 -0.3318554163 0.03164253384 2.347880341e-38
0.06844317168 -0.3401974142 -0.01861315034 2.347880341e-38
0.0627874583 -0.3295413852 0.0006779670948 2.347880341e-38
0.06561011076 -0.3357304037 -0.01630838029 2.347880341e-38
0.05574777722 -0.3313338757 0.04689219967 2.347880341e-38
0.06431882083 -0.3528552055 -0.05000312626 2.347880341e-38
0.05493753776 -0.3234762251 0.01486702822 2.347880341e-38
0.06208271533 -0.3359110951 -0.02825233154 2.347880341e-38
0.05946325511 -0.3347066045 0.04355571046 2.347880341e-38
0.06340014189 -0.3490821123 -0.04792491347 2.347880341e-38
0.06660211831 -0.3418265283 0.04364964738 2.347880341e-38
0.06760950387 -0.3509783149 -0.04636156932 2.347880341e-38
0.05676184967 -0.3366115093 0.05061485246 2.347880341e-38
0.07368336618 -0.3563371301 -0.04477830976 2.347880341e-38
0.07442371547 -0.3494850695 0.04164051637 2.347880341e-38
0.07365947217 -0.35445714 -0.04082725197 2.347880341e-38
0.06044173613 -0.3413326144 0.05114314333 2.347880341e-38
0.07969441265 -0.3583339155 -0.03038758226 2.347880341e-38
0.07025232911 -0.3417803049 0.03630218282 2.347880341e-38
0.07577495277 -0.3486993313 -0.01828936301 2.347880341e-38
0.06157161295 -0.3397074938 0.04797206819 2.347880341e-38
0.0812061578 -0.3605749905 -0.03065773286 2.347880341e-38
0.07949035615 -0.3506629765 0.03460973874 2.347880341e-38
0.0660193786 -0.336796999 -0.01103870291 2.347880341e-38
0.07162868232 -0.3497959077 0.04626405984 2.347880341e-38
0.08643908799 -0.3727084398 -0.04599152505 2.347880341e-38
0.07470980287 -0.3530351222 0.04700500518 2.347880341e-38
0.08557844162 -0.3636884987 -0.02671106532 2.347880341e-38
-0.0299629923 -0.3886944056 0.05890777335 2.347520768e-38
-0.08398144692 -0.3936282694 0.006085272413 2.347520768e-38
-0.04747018218 -0.3839097023 0.0436231941 2.347520768e-38
-0.05082917586 -0.383677125 0.04102122411 2.347520768e-38
-0.01619063318 -0.3733626902 0.06583931297 2.347520768e-38
-0.09294815361 -0.4010295868 -0.00810357742 2.347520768e-38
-0.05895501003 -0.3791263103 0.03039917164 2.347520768e-38
-0.06693606079 -0.3807068467 0.0242534671 2.347520768e-38
-0.02053965814 -0.3808391988 0.06612882763 2.347520768e-38
-0.09391779453 -0.4001607895 -0.01623927057 2.347520768e-38
-0.03468348458 -0.3952095509 0.05946836621 2.347520768e-38
-0.0762912333 -0.3840045929 0.01152265258 2.347520768e-38
-0.0211203061 -0.3833500743 0.06568744779 2.347520768e-38
-0.07623806596 -0.3783275783 -0.01136279758 2.347520768e-38
-0.03960628808 -0.3962493837 0.05781367049 2.347520768e-38
-0.08427481353 -0.3845382929 -0.01098380797 2.347520768e-38
-0.02533211932 -0.3873302639 0.06260018796 2.347520768e-38
-0.07825557142 -0.3819760978 0.0009932514513 2.347520768e-38
-0.04968743771 -0.3948935866 0.05033325031 2.347520768e-38
-0.07252613455 -0.3836595714 0.01504217088 2.347520768e-38
-0.02457343787 -0.3835570812 0.06113148853 2.347520768e-38
-0.0799690783 -0.3837508261 0.0009484697948 2.347520768e-38
-0.05224327371 -0.3934264481 0.04776707292 2.347520768e-38
-0.07680059224 -0.3855198622 0.01200638711 2.347520768e-38
-0.02567373216 -0.3774015605 0.05624021962 2.347520768e-38
-0.08085861802 -0.3820385933 -0.007307380904 2.347520768e-38
-0.05485823378 -0.3886335194 0.0432385616 2.347520768e-38
-0.07723897696 -0.3817236125 -0.002539778361 2.347520768e-38
-0.03380755708 -0.381675899 0.05093193799 2.347520768e-38
-0.07953613251 -0.3827460408 -0.006477455143 2.347520768e-38
-0.06588312238 -0.3876400292 0.03484275565 2.347520768e-38
-0.06788945943 -0.3813546598 0.01660815068 2.347520768e-38
-0.0245682057 -0.4252358377 -0.1006777361 2.347161195e-38
-0.02326014265 -0.4085004032 -0.07795902342 2.347161195e-38
-0.02002709173 -0.3956288397 -0.07503132522 2.347161195e-38
-0.02898254618 -0.4160464406 -0.0620775111 2.347161195e-38
-0.02196609415 -0.4471925199 -0.1048494726 2.347161195e-38
-0.02528703213 -0.4162307382 -0.08749239147 2.347161195e-38
-0.01341005322 -0.3651818931 -0.04829699546 2.347161195e-38
-0.02027435787 -0.3967414498 -0.05496072024 2.347161195e-38
-0.02067250013 -0.442994386 -0.1045195386 2.347161195e-38
-0.02502490021 -0.4061509371 -0.06457478553 2.347161195e-38
-0.02535655722 -0.422698468 -0.09876204282 2.347161195e-38
-0.0252508074 -0.3846872449 -0.03787066042 2.347161195e-38
-0.006831243169 -0.4423530102 -0.1018644273 2.347161195e-38
-0.01757826097 -0.4015838504 -0.08055311441 2.347161195e-38
-0.01398025639 -0.4163828194 -0.09831148386 2.347161195e-38
-0.02750156261 -0.3970968127 -0.04555909336 2.347161195e-38
-0.02227709629 -0.4252680242 -0.1015674099 2.347161195e-38
-0.007454461418 -0.4027710855 -0.08928035945 2.347161195e-38
-0.01863978803 -0.4093381166 -0.09201968461 2.347161195e-38
-0.0275128521 -0.4112761617 -0.06550976634 2.347161195e-38
-0.02125477977 -0.4201197624 -0.09966236353 2.347161195e-38
-0.01061012782 -0.4068157971 -0.09158361703 2.347161195e-38
-0.0200383123 -0.4047079682 -0.08398417383 2.347161195e-38
-0.02964529395 -0.4143824279 -0.0735996291 2.347161195e-38
-0.02057010122 -0.4182736576 -0.09900025278 2.347161195e-38
-0.0177369602 -0.4115767181 -0.09353972971 2.347161195e-38
-0.02174893767 -0.4096468091 -0.09039247036 2.347161195e-38
-0.02627591044 -0.4069446623 -0.06736165285 2.347161195e-38
-0.01811414771 -0.4127715826 -0.09494114667 2.347161195e-38
-0.01997441612 -0.4097329676 -0.09221741557 2.347161195e-38
-0.02212259173 -0.3963455558 -0.06590557843 2.347161195e-38
-0.0284148287 -0.4092891216 -0.06521442533 2.347161195e-38
0.02056729794 -0.4884610772 -0.09315867722 2.346801622e-38
-0.01716781408 -0.474453032 -0.1028974429 2.346801622e-38
0.009539891966 -0.4894579947 -0.09675685316 2.346801622e-38
-0.06418129802 -0.4571380615 -0.08269972354 2.346801622e-38
0.03870719671 -0.4834096134 -0.09160977602 2.346801622e-38
-0.002470432315 -0.480455637 -0.1025023088 2.346801622e-38
0.001970113488 -0.4819481075 -0.1019169167 2.346801622e-38
-0.06789901853 -0.4638442695 -0.0867164582 2.346801622e-38
0.02881945483 -0.4884335995 -0.08774400502 2.346801622e-38
-0.04792119563 -0.4679488242 -0.0968721658 2.346801622e-38
0.02958910726 -0.4856992066 -0.09311796725 2.346801622e-38
-0.05230922252 -0.4662864208 -0.09515870363 2.346801622e-38
0.04416078702 -0.4825644791 -0.08920681477 2.346801622e-38
-0.003442887682 -0.4832318723 -0.1007785127 2.346801622e-38
0.03033675253 -0.4854082167 -0.09314997494 2.346801622e-38
-0.04065323621 -0.4686695933 -0.09922091663 2.346801622e-38
0.04654692486 -0.4806109667 -0.09049928188 2.346801622e-38
0.002232724801 -0.4902794361 -0.09664583206 2.346801622e-38
0.02655384503 -0.4854051471 -0.09554520994 2.346801622e-38
-0.04848939925 -0.4676347673 -0.09670362622 2.346801622e-38
0.04869277403 -0.479976058 -0.08958888054 2.346801622e-38
0.00587208895 -0.4888595045 -0.09774120152 2.346801622e-38
0.0281303972 -0.4844118953 -0.09604709595 2.346801622e-38
-0.03067439795 -0.4710921347 -0.1021764055 2.346801622e-38
0.04782831296 -0.4795584381 -0.09067326784 2.346801622e-38
0.007200800348 -0.4893298149 -0.09732487798 2.346801622e-38
0.02015332878 -0.4855801463 -0.09873612225 2.346801622e-38
-0.0210663639 -0.4753567874 -0.1026398391 2.346801622e-38
0.03194224834 -0.483379066 -0.09590219706 2.346801622e-38
-0.001683000708 -0.4882774651 -0.09787364304 2.346801622e-38
0.01805292442 -0.4859435558 -0.0989575386 2.346801622e-38
-0.04753991589 -0.4681767225 -0.09750366956 2.346801622e-38
0.01606866531 0.4979524612 0.03729118407 2.346406175e-38
0.0105305966 0.5021309257 0.04088462517 2.346406175e-38
0.01914782263 0.4841980934 0.02632432804 2.346406175e-38
-0.01217772625 0.493240118 0.04404820502 2.346406175e-38
0.01514732465 0.5025289059 0.03974452987 2.346406175e-38
0.01207184605 0.5031251907 0.03976781294 2.346406175e-38
0.02119560726 0.4973295629 0.03645606712 2.346406175e-38
-0.01131472923 0.4932192564 0.04499005526 2.346406175e-38
0.005007631145 0.5007484555 0.0444926694 2.346406175e-38
-5.372986197e-05 0.4983519614 0.04610401392 2.346406175e-38
0.01349607483 0.4547351897 0.01751464233 2.346406175e-38
-0.006317259744 0.4963968396 0.04427339882 2.346406175e-38
0.01813287847 0.4790372849 0.0238790717 2.346406175e-38
0.0150442766 0.499329567 0.03792206943 2.346406175e-38
-0.003367761383 0.2850778401 0.001739246887 2.346406175e-38
0.009359008633 0.5019595623 0.04223207012 2.346406175e-38
-0.0003155097365 0.3479219079 0.002576002851 2.346406175e-38
0.01727966778 0.4782602787 0.02345260046 2.346406175e-38
0.01097088959 0.4268469512 0.01089795027 2.346406175e-38
0.01796897501 0.4966003299 0.03600220755 2.346406175e-38
-0.003973641898 0.2311911285 0.0008246896905 2.346406175e-38
0.01709345728 0.4748059809 0.02211046405 2.346406175e-38
0.0114088431 0.4279919565 0.01107155718 2.346406175e-38
0.018764643 0.4963930249 0.03497462347 2.346406175e-38
-0.003778026206 0.1872706711 -0.0003577321477 2.346406175e-38
0.01791941375 0.4805660546 0.02440090291 2.346406175e-38
0.0162810348 0.4672653973 0.01995726116 2.346406175e-38
0.01855951175 0.4860123396 0.02747145295 2.346406175e-38
-0.002210524166 0.3149127066 0.001955372514 2.346406175e-38
0.01968484558 0.4852218926 0.02767953835 2.346406175e-38
0.008598033339 0.4185858071 0.009346973151 2.346406175e-38
0.0194906611 0.4862417579 0.02920128033 2.346406175e-38
0.08261585981 -0.4551140666 -0.05806460232 2.346010729e-38
0.09384544194 -0.4749195874 0.002777442569 2.346010729e-38
0.09392183274 -0.470325768 -0.001331730862 2.346010729e-38
0.09678013623 -0.4800393879 0.02643131092 2.346010729e-38
0.08537586778 -0.4621089399 -0.05209923536 2.346010729e-38
0.09561886638 -0.4723295867 0.01783424057 2.346010729e-38
0.09399503469 -0.4766128957 -0.0006660296349 2.346010729e-38
0.093908526 -0.4884191751 -0.00967483595 2.346010729e-38
0.08646573126 -0.4663365483 -0.05361453444 2.346010729e-38
0.09416949749 -0.4760817289 0.004995267373 2.346010729e-38
0.08784218878 -0.4685384929 -0.0498989448 2.346010729e-38
0.09459128231 -0.4797941148 0.00488136569 2.346010729e-38
0.06635265797 -0.4107853174 -0.06148564816 2.346010729e-38
0.09536259621 -0.4733974338 0.01463611983 2.346010729e-38
0.07145195454 -0.4238357246 -0.06333328784 2.346010729e-38
0.09486437589 -0.4809451997 0.007952127606 2.346010729e-38
0.0536837168 -0.38833341 -0.06063563377 2.346010729e-38
0.09187805653 -0.4744102061 -0.01898150146 2.346010729e-38
0.07443013042 -0.4328537285 -0.06539585441 2.346010729e-38
0.09561854601 -0.4766430259 0.01505017653 2.346010729e-38
0.04686741531 -0.3765616119 -0.06034008786 2.346010729e-38
0.09028676152 -0.4762402177 -0.03708075732 2.346010729e-38
0.07456495613 -0.4354829192 -0.06621520966 2.346010729e-38
0.09444313496 -0.4801182747 0.00241954159 2.346010729e-38
0.04842112586 -0.385897398 -0.06137045845 2.346010729e-38
0.09051200002 -0.4765941501 -0.03610676154 2.346010729e-38
0.07688351721 -0.4423881173 -0.06623366475 2.346010729e-38
0.09327897429 -0.4809587002 -0.009905066341 2.346010729e-38
0.05423838645 -0.3957499266 -0.06175031513 2.346010729e-38
0.09358518571 -0.4791357815 -0.003908547107 2.346010729e-38
0.07094085217 -0.4191881716 -0.06202754751 2.346010729e-38
0.09548518807 -0.4773766994 0.01404859871 2.346010729e-38
0.04788502306 -0.3410471678 0.01755808294 2.345615283e-38
0.02258570865 -0.3416500688 0.02333199233 2.345615283e-38
0.05710337311 -0.3466658294 0.03684294224 2.345615283e-38
0.05327700824 -0.3482527137 0.04338124767 2.345615283e-38
0.023236949 -0.3346957564 -0.007581828162 2.345615283e-38
0.0146759348 -0.3358291984 0.02350800857 2.345615283e-38
0.05975038558 -0.3465067446 0.03429084644 2.345615283e-38
0.03723886609 -0.3447574675 0.03055991977 2.345615283e-38
0.03688241169 -0.3319896758 -0.006970162503 2.345615283e-38
0.01086089481 -0.3321076035 0.01986469515 2.345615283e-38
0.07915215939 -0.3444086313 0.05001211166 2.345615283e-38
0.01992595196 -0.3410921097 0.02251939476 2.345615283e-38
0.04903714359 -0.3365902603 0.008268550038 2.345615283e-38
0.00461684633 -0.3379181623 0.01232321281 2.345615283e-38
0.065970622 -0.3536536098 0.06004183739 2.345615283e-38
0.001712387661 -0.3322873712 0.01150980219 2.345615283e-38
0.05662409216 -0.338346988 0.01645280607 2.345615283e-38
-0.0002890527248 -0.3362592161 0.01111781131 2.345615283e-38
0.04959201068 -0.3522057235 0.05073557049 2.345615283e-38
0.01515306812 -0.3376638889 0.02124755271 2.345615283e-38
0.05181833729 -0.3385470212 0.01667176001 2.345615283e-38
-0.0009410974453 -0.3345881999 0.01056810655 2.345615283e-38
0.05770373344 -0.3541123867 0.0553988032 2.345615283e-38
0.01441203058 -0.3388030529 0.01868807711 2.345615283e-38
0.04802022129 -0.3376769722 0.01708598435 2.345615283e-38
0.001112199854 -0.333943069 0.01278300863 2.345615283e-38
0.05299785361 -0.3530685604 0.05090561509 2.345615283e-38
0.003300438868 -0.3341672122 0.01208675746 2.345615283e-38
0.05857281759 -0.3457734287 0.03658786044 2.345615283e-38
0.004308226984 -0.3333554566 0.0153237097 2.345615283e-38
0.03899113461 -0.347577095 0.04733737558 2.345615283e-38
0.02437056042 -0.3364171088 0.0286485292 2.345615283e-38
0.05302026868 -0.4892399013 -0.07796803117 2.345219836e-38
0.02363708988 -0.4887220562 -0.08822615445 2.345219836e-38
0.07155843079 -0.4893358648 0.0550050959 2.345219836e-38
0.0231606029 -0.4885574579 -0.08557341248 2.345219836e-38
0.06207770854 -0.4892232716 -0.06559557468 2.345219836e-38
0.04229692742 -0.4891080856 -0.0835243836 2.345219836e-38
0.06249932945 -0.4872838855 0.07006810606 2.345219836e-38
0.02729737014 -0.4887189269 -0.08569651097 2.345219836e-38
0.04811738059 -0.4892158806 -0.08399373293 2.345219836e-38
0.05374699831 -0.4892252982 -0.0635875538 2.345219836e-38
0.08395820856 -0.4924533069 0.008414606564 2.345219836e-38
-0.01377831027 -0.4863010943 -0.09596247971 2.345219836e-38
0.04650967196 -0.4892866015 -0.08684663475 2.345219836e-38
-0.0009387281607 -0.4868644178 -0.09720594436 2.345219836e-38
0.05621799454 -0.4892404079 -0.0743964985 2.345219836e-38
-0.0167623423 -0.4860745072 -0.09354352951 2.345219836e-38
0.05112252757 -0.4892954528 -0.08662701398 2.345219836e-38
0.0167759452 -0.4886974692 -0.09597073495 2.345219836e-38
0.05626963452 -0.4892351329 -0.07215769589 2.345219836e-38
-0.000835873012 -0.4873343408 -0.09198067337 2.345219836e-38
0.05017601326 -0.4892691374 -0.08582203835 2.345219836e-38
0.0298964344 -0.4891791344 -0.09083168209 2.345219836e-38
0.07022286952 -0.4904243052 -0.04261327162 2.345219836e-38
0.004301636945 -0.4876643419 -0.09391143918 2.345219836e-38
0.0525499098 -0.4892516136 -0.08175550401 2.345219836e-38
0.04062752053 -0.4892331362 -0.08551971614 2.345219836e-38
0.07880263776 -0.4923762381 0.004698912613 2.345219836e-38
0.006168194115 -0.4878015816 -0.09437062591 2.345219836e-38
0.04042083025 -0.4892293513 -0.08576819301 2.345219836e-38
0.04229862988 -0.4892244935 -0.08477340639 2.345219836e-38
0.04227285087 -0.4891824126 -0.08421266824 2.345219836e-38
0.02804680169 -0.4888339341 -0.08729762584 2.345219836e-38
-0.0127890436 -0.337571919 0.02466825582 2.344788516e-38
0.009285890497 -0.09674737602 0.02239015512 2.344788516e-38
-0.01495179906 -0.3351676464 0.02619183622 2.344788516e-38
0.01110394113 -0.258990556 0.02992293797 2.344788516e-38
-0.01449960936 -0.336706847 0.02426639572 2.344788516e-38
0.008518028073 -0.04045302793 0.01225806493 2.344788516e-38
-0.001299343305 -0.2927027941 0.0264815297 2.344788516e-38
0.01141942572 -0.2574542463 0.0305041261 2.344788516e-38
-0.02726199478 -0.3408409357 0.01636872999 2.344788516e-38
0.008634844795 -0.02125100978 0.01054706797 2.344788516e-38
-0.04440633953 -0.3473848999 0.01962190866 2.344788516e-38
-0.005752045661 -0.3221779764 0.02141629532 2.344788516e-38
-0.02582890354 -0.3358422816 0.01095260121 2.344788516e-38
0.01020197198 -0.2265119106 0.02825883776 2.344788516e-38
-0.04597203061 -0.351572305 0.0266236905 2.344788516e-38
-0.004634943325 -0.3128673136 0.005465631839 2.344788516e-38
-0.03512848169 -0.3423970342 0.0136994049 2.344788516e-38
0.0002263560891 -0.3146879077 0.02868582681 2.344788516e-38
-0.01389570534 -0.3395953476 0.03111414425 2.344788516e-38
-0.001329309423 -0.3213909566 0.02755741216 2.344788516e-38
-0.04264977202 -0.3486443758 0.02251694351 2.344788516e-38
-0.004142916296 -0.3288430274 0.02891777083 2.344788516e-38
-0.01979482919 -0.3438567519 0.03273011371 2.344788516e-38
-0.002702006139 -0.3203476071 0.02609870024 2.344788516e-38
-0.0433732979 -0.3484151661 0.02421436086 2.344788516e-38
-0.002748966683 -0.326200366 0.02940389514 2.344788516e-38
-0.0166066885 -0.3462181389 0.03523889929 2.344788516e-38
9.321421385e-05 -0.3170902431 0.028802488 2.344788516e-38
-0.02624985948 -0.3422894776 0.02495097928 2.344788516e-38
0.003518395592 -0.30465886 0.03026869521 2.344788516e-38
-0.006535831839 -0.330036521 0.03127668425 2.344788516e-38
0.004011706449 -0.3002051115 0.02977047116 2.344788516e-38
0.08923327923 -0.4833391309 0.02743291482 2.344357197e-38
0.09835372865 -0.4439175725 -0.05800306424 2.344357197e-38
0.05873825401 -0.4829426408 0.04820239544 2.344357197e-38
0.09972134978 -0.445227474 -0.04406307265 2.344357197e-38
0.06843225658 -0.4830469191 0.04568371177 2.344357197e-38
0.09800673276 -0.4418984652 -0.06196342781 2.344357197e-38
0.06266909838 -0.484875232 0.03476277366 2.344357197e-38
0.1022413224 -0.4547457099 -0.03420453519 2.344357197e-38
0.08308297396 -0.4837529957 0.03189446405 2.344357197e-38
0.09177581966 -0.4057097733 -0.05996851251 2.344357197e-38
0.05007664114 -0.4830655754 0.06101111323 2.344357197e-38
0.101231955 -0.4449715316 -0.02992140129 2.344357197e-38
0.07647708803 -0.4819693863 0.04605730996 2.344357197e-38
0.1024737284 -0.4505438209 -0.0168920029 2.344357197e-38
0.06087538972 -0.4808555841 0.05898590386 2.344357197e-38
0.09939213842 -0.4301293492 -0.02138087153 2.344357197e-38
0.08317859471 -0.4804778993 0.04486108944 2.344357197e-38
0.1049935594 -0.4600786865 0.01001091208 2.344357197e-38
0.0718916133 -0.4800407588 0.05164608359 2.344357197e-38
0.09820153564 -0.4283649623 -0.02915732563 2.344357197e-38
0.07263661921 -0.4795156121 0.05460997671 2.344357197e-38
0.1054293513 -0.4601427019 0.02848863974 2.344357197e-38
0.08267246932 -0.478403151 0.05013142899 2.344357197e-38
0.09901253134 -0.4295991957 -0.02361177467 2.344357197e-38
0.07363324612 -0.4781395495 0.05671454966 2.344357197e-38
0.1052705944 -0.4590786994 0.03149589151 2.344357197e-38
0.0850328207 -0.4793501794 0.04258880392 2.344357197e-38
