# .PCD v0.7 - Point Cloud Data file format
VERSION 0.7
FIELDS x y z rgb
SIZE 4 4 4 4
TYPE F F F F
COUNT 1 1 1 1
WIDTH 827
HEIGHT 1
VIEWPOINT 0 0 0 1 0 0 0
POINTS 827
DATA ascii
0.08217991889 -0.0775680691 -0.04071650654 3.75229193e-39
-0.1256600618 -0.06642986089 0.02256493084 3.75229193e-39
0.1333194375 -0.07569571584 -0.07518358529 3.75229193e-39
0.1796363294 -0.06895381212 -0.1227298006 3.75229193e-39
0.3706277907 -0.001627633814 -0.07221615314 4.48912409e-39
0.4462389946 -0.03003217839 0.05273925886 4.48912409e-39
0.2071021348 0.008314397186 -0.1383731216 4.48912409e-39
0.321618259 0.002276776126 0.136449188 4.48912409e-39
0.4104516208 -0.01270702481 -0.09222136438 4.48912409e-39
0.4406195879 -0.01891092584 -0.04526328295 4.48912409e-39
0.04830285162 -0.01535021048 -0.1636698395 4.48912409e-39
0.4074184 -0.01394732576 0.04783687741 4.48912409e-39
0.299139142 -0.009646953084 -0.1604453623 4.48912409e-39
0.4028401375 -0.008257916197 -0.002347591566 4.48912409e-39
0.1839146614 0.006907790899 -0.1594761312 4.48912409e-39
0.3792476058 -0.009492661804 0.1318279505 4.48912409e-39
0.3930396736 -0.009352807887 -0.1082430035 4.48912409e-39
0.4208015203 -0.01098842826 -0.03682563826 4.48912409e-39
0.1030714959 -0.01612399705 -0.1656092852 4.48912409e-39
0.4179906249 -0.01880585589 0.09283836186 4.48912409e-39
0.3318062425 -0.004808194935 -0.1397062689 4.48912409e-39
0.4275042117 -0.01727223955 0.01817804202 4.48912409e-39
0.1443769336 -0.001778360456 -0.1654461026 4.48912409e-39
0.4094406068 -0.01830420457 0.1177620813 4.48912409e-39
0.3607094586 -0.007690294646 -0.1272562891 4.48912409e-39
0.4269436598 -0.01430224534 -0.01721314155 4.48912409e-39
0.2895442247 0.006777281407 -0.09216905385 4.48912409e-39
0.4351465106 -0.02756045945 0.1070793644 4.48912409e-39
0.330991447 0.00151670794 -0.1032679528 4.48912409e-39
0.4075737596 -0.00736375805 -0.06137457117 4.48912409e-39
0.1829964519 -0.01521469746 -0.1679921895 4.48912409e-39
0.449741751 -0.02660520561 0.01297589391 4.48912409e-39
0.2602759898 -0.00517474534 -0.1647445112 4.48912409e-39
0.3862950504 -0.004358711187 -0.03399541229 4.48912409e-39
0.2992973328 0.004752801266 -0.1091423556 4.48912409e-39
0.4336590767 -0.02295992896 0.07819893211 4.48912409e-39
0.3888973594 -0.03162272647 -0.1627345681 5.225597518e-39
-0.02107640542 -0.003155634506 -0.1747677624 5.225597518e-39
0.1313895881 -0.02371729724 -0.1705133766 5.225597518e-39
-0.08612127602 -0.03269559518 -0.1761865616 5.225597518e-39
0.344339788 -0.01468600146 -0.1638889313 5.225597518e-39
0.01209277194 0.001973976614 -0.1728886366 5.225597518e-39
-0.005310727749 -0.02965563908 -0.1759909093 5.225597518e-39
-0.2863888443 0.0007610244793 -0.1744595319 5.225597518e-39
0.1161668748 -0.004097636323 -0.1693789363 5.225597518e-39
-0.1546867937 0.0286746677 -0.1669658124 5.225597518e-39
0.09419366717 -0.02792038582 -0.172640875 5.225597518e-39
-0.1692711562 -0.0123415133 -0.1744672507 5.225597518e-39
0.2631751895 -0.01005110983 -0.1635886133 5.225597518e-39
-0.04755944014 0.007798353676 -0.172156468 5.225597518e-39
0.01644781232 -0.03083465248 -0.175981611 5.225597518e-39
-0.2366273105 -0.009434248321 -0.1749306023 5.225597518e-39
0.1855361909 -0.009843642823 -0.1656215489 5.225597518e-39
-0.1033716723 0.0212977957 -0.1689170152 5.225597518e-39
0.05774491653 -0.02791566402 -0.1745529771 5.225597518e-39
-0.1918623 -0.0127874203 -0.1748378724 5.225597518e-39
0.2289191037 -0.00987780001 -0.1636947095 5.225597518e-39
-0.06087809429 0.009489325806 -0.171793133 5.225597518e-39
0.1733078361 -0.02857746929 -0.1682773679 5.225597518e-39
-0.03493497148 -0.03441150114 -0.1756168753 5.225597518e-39
0.3280686438 -0.01248008758 -0.164734751 5.225597518e-39
0.07611119002 -0.004992130678 -0.1707649529 5.225597518e-39
0.1829360873 -0.0334276706 -0.1694882959 5.225597518e-39
-0.1406856626 0.001424106769 -0.1712584496 5.225597518e-39
0.2285029441 -0.01912711747 -0.1655835658 5.225597518e-39
-0.0409947224 -0.0100996336 -0.1740703583 5.225597518e-39
0.2621536553 -0.03074021637 -0.1698258817 5.225597518e-39
-0.06971310079 -0.005504828412 -0.1735281199 5.225597518e-39
-0.09907280654 -0.03156947345 0.1284822375 5.962428276e-39
-0.1013302207 -0.01273871958 0.0872284323 5.962428276e-39
-0.1043351218 -0.06269807369 0.1291257143 5.962428276e-39
0.2269578576 -0.09486994147 0.1322188228 5.962428276e-39
-0.1346306801 -0.03083174303 0.1245205402 5.962428276e-39
-0.01999907196 -0.01810239255 0.1025435701 5.962428276e-39
-0.2455222309 -0.07943800092 0.1250605732 5.962428276e-39
-0.1349366009 -0.1030561179 0.1286392212 5.962428276e-39
-0.2806075215 -0.05296664312 0.1120937914 5.962428276e-39
-0.2262856215 -0.007113925181 0.07188737392 5.962428276e-39
-0.1430326849 -0.0738119036 0.1316151619 5.962428276e-39
0.06663228571 -0.08400369436 0.1338228434 5.962428276e-39
-0.1955242753 -0.03506554663 0.1195728853 5.962428276e-39
-0.139678508 -0.01268833969 0.0927201286 5.962428276e-39
-0.21822685 -0.08072638512 0.1299670339 5.962428276e-39
-0.07604665309 -0.08436945081 0.1245504543 5.962428276e-39
-0.2484783232 -0.04529921338 0.1145783663 5.962428276e-39
-0.197535187 -0.005367160309 0.07504157722 5.962428276e-39
-0.1826408803 -0.07817333192 0.1339939088 5.962428276e-39
-0.003648100886 -0.08311037719 0.131967634 5.962428276e-39
-0.219214946 -0.03886129335 0.1167014986 5.962428276e-39
-0.1655937433 -0.009927967563 0.08896632493 5.962428276e-39
-0.08489666134 -0.05605874211 0.1289882064 5.962428276e-39
0.2444051057 -0.0672531575 0.1358812749 5.962428276e-39
-0.1730597317 -0.02922283486 0.119178459 5.962428276e-39
0.05942282453 -0.02110571973 0.1271599829 5.962428276e-39
-0.07412783056 -0.04938646778 0.1327057332 5.962428276e-39
0.02716169879 -0.05048944429 0.1440888643 5.962428276e-39
-0.2787929475 -0.02761050686 0.08977152407 5.962428276e-39
-0.2111917287 -0.0153070651 0.09018753469 5.962428276e-39
-0.04553231969 -0.04115758091 0.1385953128 5.962428276e-39
0.1633179337 -0.05160983279 0.1418286562 5.962428276e-39
-0.1454601288 0.06315514445 0.1233017966 6.698542971e-39
-0.1066740304 0.02884527855 0.1335850358 6.698542971e-39
-0.1543552279 0.02965006419 0.1342272162 6.698542971e-39
-0.04565237835 -0.0007314867107 0.1387946159 6.698542971e-39
-0.1748513877 0.06366512924 0.1243722215 6.698542971e-39
-0.12711218 -0.02912156284 0.1378897429 6.698542971e-39
-0.2560705543 -0.005846031476 0.1313280463 6.698542971e-39
0.3075271547 -0.03982639685 0.1347545236 6.698542971e-39
-0.3409519792 0.04480896145 0.1208680645 6.698542971e-39
0.03815227374 -0.04843079299 0.1457425952 6.698542971e-39
-0.175025329 -0.001190598472 0.1346033216 6.698542971e-39
0.1152001619 -0.05979211628 0.1483766288 6.698542971e-39
-0.2310461104 0.05407844484 0.1257098764 6.698542971e-39
-0.09656967223 -0.0526066944 0.1398702264 6.698542971e-39
-0.2367586195 -0.007927211002 0.1316395402 6.698542971e-39
0.2428609431 -0.0413406454 0.143400088 6.698542971e-39
-0.2993655503 0.05115475133 0.1222734228 6.698542971e-39
0.007247067988 -0.07620511204 0.1426735967 6.698542971e-39
-0.1923914552 -0.001214801683 0.1329789907 6.698542971e-39
0.1975122541 -0.05219097063 0.147056222 6.698542971e-39
-0.2620499134 0.05551107973 0.1237119958 6.698542971e-39
-0.04457052797 -0.05871042237 0.1404825896 6.698542971e-39
-0.1179599911 0.01681544818 0.1351462454 6.698542971e-39
0.1078959182 -0.05379601195 0.1465547681 6.698542971e-39
-0.1890376359 0.03930278495 0.129116863 6.698542971e-39
-0.004625883419 0.01436090842 0.1362727582 6.698542971e-39
-0.06396904588 0.01277009305 0.1356401891 6.698542971e-39
0.2283325046 -0.03056197055 0.1434491873 6.698542971e-39
-0.3211393058 -0.04210305586 0.1251871884 6.698542971e-39
0.1507701278 -0.02137120254 0.146672368 6.698542971e-39
0.02585273795 0.007906927727 0.1394611895 6.698542971e-39
0.08065746725 0.005387436599 0.1403141618 6.698542971e-39
0.3333204985 -0.07491012663 0.1637933105 7.434656265e-39
0.08204706758 -0.09911605716 0.1726775765 7.434656265e-39
0.2795785666 -0.1277074665 0.1746979356 7.434656265e-39
0.2629120946 -0.09005746245 0.1749352217 7.434656265e-39
0.3119099438 -0.07584386319 0.1645496041 7.434656265e-39
0.1576550603 -0.09386318922 0.1740395725 7.434656265e-39
0.3514715433 -0.1218044087 0.1717568338 7.434656265e-39
0.1565580219 -0.10638237 0.1733283997 7.434656265e-39
0.4013307691 -0.08259794116 0.1710918695 7.434656265e-39
-0.0775905624 -0.1109092012 0.1674599946 7.434656265e-39
0.3064496517 -0.1354210675 0.1737268865 7.434656265e-39
0.2378340662 -0.09740088135 0.1759195477 7.434656265e-39
0.3310783505 -0.09258430451 0.173913151 7.434656265e-39
0.04079626128 -0.1074101254 0.1711045504 7.434656265e-39
0.3392233253 -0.1276940554 0.1721709967 7.434656265e-39
0.1903244555 -0.1029776111 0.1738777012 7.434656265e-39
0.3689538836 -0.0939559713 0.1734196097 7.434656265e-39
-0.03868770599 -0.1106697395 0.1686256528 7.434656265e-39
0.3196134865 -0.1332413405 0.1731375307 7.434656265e-39
0.2127218395 -0.1015222222 0.1747471988 7.434656265e-39
0.3504159749 -0.09734217823 0.1740821004 7.434656265e-39
0.008670917712 -0.109942995 0.169984445 7.434656265e-39
0.2520087957 -0.1153334603 0.1742683798 7.434656265e-39
0.2528832257 -0.0819529593 0.1680147499 7.434656265e-39
0.2902608216 -0.07867689431 0.1694401652 7.434656265e-39
0.1103686392 -0.102607742 0.1738660634 7.434656265e-39
0.3022355437 -0.1036218628 0.1744574606 7.434656265e-39
0.2009029537 -0.08938159049 0.17129381 7.434656265e-39
0.372007221 -0.07157950103 0.1698946208 7.434656265e-39
-0.1326784939 -0.1126669794 0.1648401469 7.434656265e-39
0.2355296165 -0.1145294607 0.1724811345 7.434656265e-39
0.2803255916 -0.1074639186 0.1748266518 7.434656265e-39
0.09223206341 -0.05871934816 0.1784840524 8.170410826e-39
-0.0497690849 -0.0787595436 0.1772436351 8.170410826e-39
0.3312639892 -0.04372880235 0.1745790541 8.170410826e-39
-0.1169160903 -0.0981355086 0.1796801537 8.170410826e-39
0.1192942113 -0.05836320668 0.1783705354 8.170410826e-39
0.03714989498 -0.06836761534 0.1788721979 8.170410826e-39
0.4221661091 -0.04135239124 0.169694975 8.170410826e-39
-0.318490684 -0.0969747901 0.1522627622 8.170410826e-39
0.2827852964 -0.04387372732 0.1765472144 8.170410826e-39
-0.06359706074 -0.07102803141 0.1762348115 8.170410826e-39
0.3473798335 -0.04884085432 0.1742911488 8.170410826e-39
-0.1942026913 -0.09870763123 0.1774192452 8.170410826e-39
0.1959289312 -0.04917530715 0.1771636605 8.170410826e-39
0.01626624539 -0.06647875905 0.1777388453 8.170410826e-39
0.3942269385 -0.04549979046 0.1712866873 8.170410826e-39
-0.2745110095 -0.09905381501 0.1678028256 8.170410826e-39
0.2507339716 -0.0447047241 0.1770807654 8.170410826e-39
-0.02713364922 -0.06972549856 0.1768554449 8.170410826e-39
0.3648633361 -0.04749874771 0.1730354428 8.170410826e-39
-0.2327710688 -0.09964119643 0.1748110801 8.170410826e-39
0.2224780619 -0.04529711232 0.1768965572 8.170410826e-39
0.00353214913 -0.0653726384 0.1772650182 8.170410826e-39
0.2992829382 -0.05111982673 0.1759217829 8.170410826e-39
-0.1304885149 -0.08624529839 0.1769972742 8.170410826e-39
0.1498914361 -0.05393307284 0.1775775999 8.170410826e-39
0.06095544621 -0.06912487745 0.1795765907 8.170410826e-39
0.07461433858 -0.08836065978 0.1781136841 8.170410826e-39
-0.181167677 -0.07630494237 0.1774507463 8.170410826e-39
0.1805107147 -0.06853574514 0.1788094193 8.170410826e-39
-0.09122279286 -0.07550284266 0.1763410866 8.170410826e-39
0.2176649421 -0.07162525505 0.1774830967 8.170410826e-39
-0.1107222289 -0.08364305645 0.1766729653 8.170410826e-39
0.04330557957 -0.05001475289 0.1737373471 8.906165387e-39
-0.2801297903 -0.0008674336132 0.17184636 8.906165387e-39
-0.1901964396 -0.1068079099 0.1665203869 8.906165387e-39
-0.2827186882 -0.03309709579 0.1687873304 8.906165387e-39
0.0896371603 -0.04209630191 0.1729452014 8.906165387e-39
-0.1947529018 -0.02182290331 0.1756590903 8.906165387e-39
-0.359454155 -0.1091103777 0.1629855037 8.906165387e-39
-0.4411316216 -0.08378536999 0.1541385204 8.906165387e-39
-0.1918263584 -0.04591382667 0.1697802544 8.906165387e-39
-0.4031105936 0.00291541894 0.1631196737 8.906165387e-39
-0.2531758845 -0.1112573817 0.1663428098 8.906165387e-39
-0.3395879865 -0.08370192349 0.165046826 8.906165387e-39
-0.04323911667 -0.05131361634 0.1718529165 8.906165387e-39
-0.317458421 0.0111564761 0.1704413146 8.906165387e-39
-0.3158482909 -0.1100778282 0.1652470529 8.906165387e-39
-0.4103673995 -0.09149993956 0.1584715545 8.906165387e-39
-0.124624595 -0.0504482016 0.1703357846 8.906165387e-39
-0.3718025684 0.004699136131 0.1650160849 8.906165387e-39
-0.2863504291 -0.1123929545 0.1659077257 8.906165387e-39
-0.3748598695 -0.08720332384 0.1626045257 8.906165387e-39
-0.08210364729 -0.05045009032 0.1711154133 8.906165387e-39
-0.3452660143 0.01288017165 0.1679760963 8.906165387e-39
-0.1408748627 -0.09053855389 0.1677810252 8.906165387e-39
-0.2802844048 -0.07447210699 0.168713823 8.906165387e-39
-0.008701507002 -0.05397160724 0.1722222567 8.906165387e-39
-0.2580219805 -0.007509749848 0.173269555 8.906165387e-39
-0.1756520718 -0.07495202124 0.1696562767 8.906165387e-39
-0.3939960897 -0.04790667072 0.1615895927 8.906165387e-39
-0.2281854153 -0.06893390417 0.1695169359 8.906165387e-39
-0.4352902174 -0.02689708397 0.1594063491 8.906165387e-39
-0.071826078 -0.07265309989 0.1688286662 8.906165387e-39
-0.3214451671 -0.04179394618 0.1669178605 8.906165387e-39
0.01658199728 -0.04598226771 0.146974802 9.641561216e-39
0.2021332532 -0.04490297288 0.1303586513 9.641561216e-39
-0.1980453432 -0.05226754025 0.1462101489 9.641561216e-39
-0.3245351017 -0.06034956872 0.1342595518 9.641561216e-39
0.1224746034 -0.0446886234 0.1369731128 9.641561216e-39
0.2878259718 -0.04705183208 0.1148570031 9.641561216e-39
-0.3677888215 -0.05792016536 0.1419660002 9.641561216e-39
-0.3714087307 -0.03590331227 0.02558398619 9.641561216e-39
-0.142644316 -0.0504988879 0.1490501165 9.641561216e-39
-0.2240247279 -0.0446193628 0.08617408574 9.641561216e-39
-0.241339311 -0.05476302281 0.1438213289 9.641561216e-39
-0.3611070216 -0.06110864133 0.1129511371 9.641561216e-39
-0.03521010652 -0.04856820405 0.1448416412 9.641561216e-39
0.2204955816 -0.04602831975 0.106957227 9.641561216e-39
-0.3347205222 -0.05764858797 0.1429370195 9.641561216e-39
-0.3754677474 -0.04622200131 0.06368240714 9.641561216e-39
-0.101162754 -0.05091985315 0.1463381499 9.641561216e-39
-0.1247688979 -0.04882918298 0.110137552 9.641561216e-39
-0.2876829207 -0.05617193505 0.143310219 9.641561216e-39
-0.3667143285 -0.0538417995 0.09288967401 9.641561216e-39
-0.06762159616 -0.04979383945 0.1454546005 9.641561216e-39
0.08327124268 -0.04974275082 0.1222912446 9.641561216e-39
-0.1693117023 -0.05202832818 0.1464170069 9.641561216e-39
-0.2679508626 -0.06165550277 0.1344232112 9.641561216e-39
0.07589427382 -0.0466648452 0.1323388368 9.641561216e-39
0.3410583436 -0.04887829721 0.09709805995 9.641561216e-39
-0.1635394096 -0.06053219736 0.1290221214 9.641561216e-39
-0.3355791271 -0.05510015786 0.09765166044 9.641561216e-39
-0.07606549561 -0.05968999863 0.1296217293 9.641561216e-39
-0.06465272605 -0.05211388692 0.1210229397 9.641561216e-39
0.01553327031 -0.05999375507 0.1132560968 9.641561216e-39
-0.2397542 -0.06265628338 0.1206279472 9.641561216e-39
-0.1158648133 -0.1096470207 -0.03689782321 1.037659831e-38
0.1686761826 -0.1084550098 -0.03997794166 1.037659831e-38
-0.010712713 -0.108022742 -0.03806890547 1.037659831e-38
0.350959301 -0.1134732738 -0.04730824009 1.037659831e-38
-0.0607211329 -0.1088598594 -0.03739294037 1.037659831e-38
0.144203037 -0.1084739119 -0.03976216912 1.037659831e-38
0.1024708897 -0.10819152 -0.038789168 1.037659831e-38
0.4511580467 -0.110869348 -0.04230387136 1.037659831e-38
-0.2908909619 -0.1008993164 -0.03522904217 1.037659831e-38
0.2405672073 -0.1095851064 -0.04186504707 1.037659831e-38
0.01292745676 -0.1082632542 -0.03815380856 1.037659831e-38
0.378824383 -0.1131865755 -0.04672880843 1.037659831e-38
-0.1613545716 -0.1085222438 -0.03637688234 1.037659831e-38
0.1912412196 -0.1084881648 -0.04019772634 1.037659831e-38
0.07598119974 -0.1082938388 -0.03861191124 1.037659831e-38
0.427157253 -0.1130523831 -0.04366261885 1.037659831e-38
-0.2183777839 -0.1043231636 -0.03632893041 1.037659831e-38
0.2269401699 -0.1092581004 -0.04143332317 1.037659831e-38
0.04797270522 -0.1080948338 -0.03847275302 1.037659831e-38
0.3959872127 -0.113255851 -0.0472124368 1.037659831e-38
-0.1982544363 -0.1075208932 -0.03622669354 1.037659831e-38
0.2051790208 -0.1086267084 -0.04079596326 1.037659831e-38
0.05064922944 -0.1070125103 -0.03951373696 1.037659831e-38
0.3100706935 -0.113115944 -0.0459674485 1.037659831e-38
-0.08494753391 -0.1082641259 -0.03761596978 1.037659831e-38
0.1033899859 -0.1053850725 -0.04062033817 1.037659831e-38
-0.02409093268 -0.1069581658 -0.03836387023 1.037659831e-38
0.3478530049 -0.1112591177 -0.03981885314 1.037659831e-38
-0.2649321854 -0.1013692841 -0.03575291485 1.037659831e-38
0.2869596183 -0.1109365895 -0.04573599622 1.037659831e-38
-0.06865279377 -0.1062654629 -0.0395392403 1.037659831e-38
0.2797323167 -0.1105424017 -0.04418516904 1.037659831e-38
-0.2563724816 0.09403723478 -0.1103884056 1.111163541e-38
-0.03803277388 0.1085515842 -0.1115363613 1.111163541e-38
-0.2463704497 0.1021658406 -0.09685392678 1.111163541e-38
0.1373933107 0.05521821976 -0.1064423695 1.111163541e-38
-0.220918715 0.1000235677 -0.1124817356 1.111163541e-38
-0.02060045116 0.1073774397 -0.1064551249 1.111163541e-38
-0.3608812988 0.06498567015 -0.0845438391 1.111163541e-38
0.2985575795 0.002474606503 -0.05932392925 1.111163541e-38
-0.06558785588 0.1092280373 -0.1136830077 1.111163541e-38
0.1172563881 0.06980448216 -0.1026470587 1.111163541e-38
-0.274059087 0.09524215013 -0.09508422762 1.111163541e-38
0.1870147139 0.02788197063 -0.09111692011 1.111163541e-38
-0.1953227669 0.1039695516 -0.1097458526 1.111163541e-38
0.02771196142 0.09701986611 -0.1108286679 1.111163541e-38
-0.326988399 0.07787796855 -0.08844310045 1.111163541e-38
0.2652363479 0.007167115808 -0.06256448478 1.111163541e-38
-0.1031268537 0.1092621982 -0.1099805832 1.111163541e-38
0.09435668588 0.08000573516 -0.1064636931 1.111163541e-38
-0.2944046855 0.08872056752 -0.09245577455 1.111163541e-38
0.2167163789 0.01467157342 -0.08163202554 1.111163541e-38
-0.1392143518 0.107265465 -0.1108461246 1.111163541e-38
0.06540546566 0.08861321956 -0.108171396 1.111163541e-38
-0.2087743431 0.1071143448 -0.09504657984 1.111163541e-38
0.1589891016 0.04427681118 -0.09765595198 1.111163541e-38
-0.1608039588 0.1055787206 -0.1125959456 1.111163541e-38
0.006748111919 0.1031135917 -0.1014991775 1.111163541e-38
-0.1667294353 0.1116682962 -0.09154809266 1.111163541e-38
0.1961754113 0.02714418806 -0.06572278589 1.111163541e-38
-0.05147187039 0.1121119708 -0.1019861773 1.111163541e-38
0.156309545 0.0500995405 -0.08144409209 1.111163541e-38
-0.124943912 0.1131239459 -0.09415534139 1.111163541e-38
0.09366044402 0.08160381019 -0.09196461737 1.111163541e-38
0.01957031712 -0.05507706478 -0.1819490939 1.184631237e-38
-0.1977110654 -0.03390656039 -0.1787904799 1.184631237e-38
0.06131760404 -0.0124168992 -0.1708891541 1.184631237e-38
-0.3154120147 0.01344330795 -0.1680278927 1.184631237e-38
-0.07396920025 -0.05741293356 -0.1837884784 1.184631237e-38
-0.1600162387 -0.0316997245 -0.1793709993 1.184631237e-38
0.2700923681 -0.06604792178 -0.1744659394 1.184631237e-38
-0.1232776493 0.01120709628 -0.1701273173 1.184631237e-38
0.1968926936 -0.06357317418 -0.1791095734 1.184631237e-38
0.03688365594 -0.03600252047 -0.1759665161 1.184631237e-38
0.1112394407 -0.0282646995 -0.1728707999 1.184631237e-38
-0.2163627595 0.01203597337 -0.1750442684 1.184631237e-38
0.07020939887 -0.0555367209 -0.1811276674 1.184631237e-38
-0.09636481106 -0.03032153845 -0.1796414256 1.184631237e-38
0.2216966301 -0.0524687916 -0.1755921543 1.184631237e-38
-0.1531946957 0.005710976198 -0.1732422858 1.184631237e-38
0.1330038905 -0.05238450319 -0.1789105386 1.184631237e-38
-0.01907148585 -0.03466821462 -0.1787466407 1.184631237e-38
0.1625593007 -0.04035921395 -0.1748682261 1.184631237e-38
-0.1803947389 0.008266445249 -0.1744117588 1.184631237e-38
0.09850620478 -0.05143528432 -0.1794517487 1.184631237e-38
-0.06262038648 -0.03321662545 -0.1803678423 1.184631237e-38
-0.05466361344 0.006914896891 -0.1679784209 1.184631237e-38
-0.2644953132 0.0118150739 -0.1723700464 1.184631237e-38
-0.02069657482 -0.05926234275 -0.1836533844 1.184631237e-38
-0.2072741687 -0.04320395365 -0.1805651188 1.184631237e-38
0.03049209714 -0.0177706778 -0.1712599844 1.184631237e-38
-0.1644484103 -0.01542755123 -0.1780524701 1.184631237e-38
0.1504358947 -0.06145906076 -0.1812592894 1.184631237e-38
0.02129664086 -0.03943459317 -0.1792664081 1.184631237e-38
-0.0857052803 -0.008892553858 -0.1745472699 1.184631237e-38
-0.2391287237 -0.01901593618 -0.1741390228 1.184631237e-38
-0.4446853995 0.03196780756 0.08873234689 1.258099074e-38
-0.4262892008 0.04470193386 0.1141424179 1.258099074e-38
-0.4512219429 0.04020532593 -0.0819754675 1.258099074e-38
-0.4499511719 0.01520813722 0.09142816812 1.258099074e-38
-0.4350798726 0.05095632747 0.09354048967 1.258099074e-38
-0.4645901918 -0.01217244007 0.08011263609 1.258099074e-38
-0.4131720662 -0.0009522733162 -0.1504144371 1.258099074e-38
-0.2705182433 -0.07494594902 -0.1437621117 1.258099074e-38
-0.4549934566 0.04638939351 -0.04853953794 1.258099074e-38
-0.386590749 0.04738824442 0.1256537586 1.258099074e-38
-0.4499596655 0.03249083087 -0.09431543946 1.258099074e-38
-0.4704199433 -0.003566398984 -0.01546218805 1.258099074e-38
-0.4417273998 0.04878422245 0.0528832525 1.258099074e-38
-0.44633919 0.007942249067 0.1142984778 1.258099074e-38
-0.441121906 0.004366042092 -0.138844043 1.258099074e-38
-0.4167976677 -0.06822934747 -0.1464692056 1.258099074e-38
-0.4533816874 0.04700367898 -0.01258772146 1.258099074e-38
-0.4070428908 0.03930595145 0.1237181425 1.258099074e-38
-0.4485937655 0.01603638753 -0.1194153577 1.258099074e-38
-0.4757952988 -0.06512438506 -0.09821842611 1.258099074e-38
-0.447687 0.04973250255 0.009317029268 1.258099074e-38
-0.4372077286 0.01758001 0.1224007532 1.258099074e-38
-0.4666502774 0.002028849907 -0.05323341489 1.258099074e-38
-0.4653074741 0.01245662943 -0.005935104564 1.258099074e-38
-0.4515450895 0.03103992529 0.03030623123 1.258099074e-38
-0.4720020592 -0.01410483196 0.01357255597 1.258099074e-38
-0.3457634151 -0.04017569125 -0.1547830403 1.258099074e-38
-0.3219868839 -0.07354196161 -0.1515374035 1.258099074e-38
-0.4673040509 -0.01594313048 -0.09455480427 1.258099074e-38
-0.446369648 0.02882095054 0.07271692902 1.258099074e-38
-0.4281009138 -0.06497642398 -0.1473656893 1.258099074e-38
-0.3597144186 -0.07119129598 -0.1526878625 1.258099074e-38
-0.3214300573 -0.115562655 -0.151598528 1.331530897e-38
-0.21166192 -0.08144304156 0.1535320878 1.331530897e-38
-0.2640967667 -0.0890077576 0.1426853836 1.331530897e-38
-0.2154257596 -0.1033295318 -0.1454953998 1.331530897e-38
-0.2665657401 -0.09657859057 -0.1026967242 1.331530897e-38
-0.2676289082 -0.08275316656 0.1653254181 1.331530897e-38
-0.3774628341 -0.1173296869 -0.06392180175 1.331530897e-38
-0.05537403002 -0.09181809425 0.05402313173 1.331530897e-38
-0.326066345 -0.04535288736 -0.1842978448 1.331530897e-38
-0.0298948437 -0.0872714445 0.1222488135 1.331530897e-38
-0.3328901231 -0.09770905972 0.1210401803 1.331530897e-38
-0.1791702807 -0.09304492921 -0.1361176521 1.331530897e-38
-0.2444666177 -0.1161089018 -0.1543118805 1.331530897e-38
-0.1975291669 -0.0788622126 0.1638024449 1.331530897e-38
-0.3658610284 -0.1092521325 -0.009536439553 1.331530897e-38
-0.08741761744 -0.09046175331 -0.03526458517 1.331530897e-38
-0.2974193692 -0.1124863699 -0.1772410721 1.331530897e-38
-0.09857055545 -0.08378731459 0.1383604556 1.331530897e-38
-0.3598082364 -0.1040415913 0.04247666523 1.331530897e-38
-0.1399750262 -0.09017243236 -0.09771709889 1.331530897e-38
-0.2745198309 -0.1220929846 -0.1697752178 1.331530897e-38
-0.1658177376 -0.08007415384 0.1580297202 1.331530897e-38
-0.3658779263 -0.09750527889 0.1453481466 1.331530897e-38
-0.2174023688 -0.09336838871 -0.07686301321 1.331530897e-38
-0.2673933506 -0.1072084084 -0.1395863891 1.331530897e-38
-0.3077531159 -0.0980540216 0.0551514551 1.331530897e-38
-0.3889399469 -0.09353881329 -0.1412264109 1.331530897e-38
-0.1856128275 -0.09462317824 0.0564837195 1.331530897e-38
-0.3441998959 -0.1186847463 -0.1706153005 1.331530897e-38
-0.1535134017 -0.08965353668 0.1110877991 1.331530897e-38
-0.3446720541 -0.1106135398 -0.06536327302 1.331530897e-38
-0.3042335212 -0.1010354459 -0.03823221102 1.331530897e-38
0.1896683276 -0.04904013127 -0.09316517413 1.404926846e-38
0.2739540637 -0.02699116617 -0.09111386538 1.404926846e-38
0.1371865869 -0.04583733529 -0.02911979891 1.404926846e-38
0.3164125681 -0.04089070112 -0.09237653762 1.404926846e-38
0.1285838485 -0.04409006238 -0.05978219211 1.404926846e-38
0.2763216794 -0.01252678782 -0.1302024573 1.404926846e-38
-0.001349254628 -0.0469801873 0.09471374005 1.404926846e-38
0.4011851251 -0.09924949706 -0.08517732471 1.404926846e-38
0.2482919097 -0.020930117 -0.1289104521 1.404926846e-38
0.3562551439 -0.04328781366 -0.1364262551 1.404926846e-38
0.122151956 -0.04048984125 -0.01318177581 1.404926846e-38
0.3323449194 -0.05099719763 -0.09380986542 1.404926846e-38
0.1973593533 -0.03970277682 -0.1227477938 1.404926846e-38
0.2969456613 -0.01229417976 -0.1334791332 1.404926846e-38
0.05159175023 -0.04200418293 0.04455995932 1.404926846e-38
0.3767127395 -0.08644109964 -0.0921831578 1.404926846e-38
0.229648456 -0.02664030157 -0.1271458268 1.404926846e-38
0.3426150382 -0.03495064005 -0.1352836341 1.404926846e-38
0.09221544862 -0.03957591206 0.0135171935 1.404926846e-38
0.3433279693 -0.05959808826 -0.09310604632 1.404926846e-38
0.2136715353 -0.03361103684 -0.1244371831 1.404926846e-38
0.3218411803 -0.02308586426 -0.1309996247 1.404926846e-38
0.1634968519 -0.05017282069 -0.0572976768 1.404926846e-38
0.2759431005 -0.02424731106 -0.1014624313 1.404926846e-38
0.1527860016 -0.0478928946 -0.09822874516 1.404926846e-38
0.3095422089 -0.01690258831 -0.1328964978 1.404926846e-38
0.2070200592 -0.0425908491 -0.0999320522 1.404926846e-38
0.3315385282 -0.04300038517 -0.1070523709 1.404926846e-38
0.2169915587 -0.02685293742 -0.1356224567 1.404926846e-38
0.4073083401 -0.09267489612 -0.1141876504 1.404926846e-38
0.2202360034 -0.03550216183 -0.1065628827 1.404926846e-38
0.2868065834 -0.02653438412 -0.1079357862 1.404926846e-38
0.201976642 -0.08930773288 0.0866394937 1.478322936e-38
-0.3059534729 0.04769265279 0.002728878288 1.478322936e-38
0.1199667677 -0.05191516876 0.1132283732 1.478322936e-38
-0.06782692671 0.01472827047 0.08593671024 1.478322936e-38
0.1500765383 -0.07512465864 0.07292259485 1.478322936e-38
-0.1825296283 0.03190176934 0.08851461858 1.478322936e-38
0.2858491242 -0.09828613698 0.1257278323 1.478322936e-38
0.1139495447 -0.05305303633 0.1033565626 1.478322936e-38
0.3225691915 -0.09077741206 0.1007513404 1.478322936e-38
-0.3406347334 0.04199489579 0.007499490865 1.478322936e-38
0.1766738147 -0.08306869119 0.09703343362 1.478322936e-38
-0.0373833999 0.001832036069 0.08660915494 1.478322936e-38
0.2181765586 -0.08612950891 0.06772550195 1.478322936e-38
-0.2643722892 0.03422199562 0.07405516505 1.478322936e-38
0.265144825 -0.09574810416 0.1192453653 1.478322936e-38
0.03834321722 -0.03472263739 0.090990372 1.478322936e-38
0.2987951636 -0.09105365723 0.09126659483 1.478322936e-38
-0.3101565242 0.04580540955 0.03921807557 1.478322936e-38
0.2110652179 -0.09131672233 0.1012556404 1.478322936e-38
-0.01856601052 -0.01143419091 0.08596845716 1.478322936e-38
0.2541446686 -0.09022189677 0.0796527788 1.478322936e-38
-0.2848532796 0.04949754104 0.06309900433 1.478322936e-38
0.04589194432 -0.04839966074 0.04821148142 1.478322936e-38
-0.1400135159 -0.003623924218 0.04266335443 1.478322936e-38
0.1246766001 -0.06520068645 0.04775023088 1.478322936e-38
-0.2129101008 0.02201560512 0.06268838793 1.478322936e-38
-0.1910379827 0.01154246368 0.04266858101 1.478322936e-38
-0.2500059903 0.01653139107 0.02384933084 1.478322936e-38
0.1980390102 -0.08110675961 0.04289808497 1.478322936e-38
-0.3048539162 0.04954898357 -0.03408681601 1.478322936e-38
-0.1538681239 -0.01513386425 0.002258021384 1.478322936e-38
-0.2403730601 0.01866766065 -0.02897062898 1.478322936e-38
0.1295769662 0.07336266339 -0.02037732303 1.551683013e-38
-0.07017056644 0.07915532589 -0.05321466178 1.551683013e-38
0.009449491277 -0.09918717295 -0.1387299299 1.551683013e-38
-0.1723711789 -0.1499789804 -0.1502567083 1.551683013e-38
0.2016043812 0.03349725157 0.009414469823 1.551683013e-38
-0.06950901449 0.09598760307 -0.04734100401 1.551683013e-38
0.05109231547 0.1067508683 -0.03119006939 1.551683013e-38
-0.3114181757 -0.07788088173 -0.1378851831 1.551683013e-38
-0.03350960836 0.05969903991 -0.1125033572 1.551683013e-38
-0.2895104587 -0.01739691012 -0.1052773669 1.551683013e-38
-0.01736512594 -0.03411573544 -0.1285143346 1.551683013e-38
-0.2835430205 -0.1479008049 -0.1505154818 1.551683013e-38
0.163788721 0.04840770364 -0.03658952191 1.551683013e-38
-0.108034119 0.05749017745 -0.06801510602 1.551683013e-38
-0.0685229674 0.06761108339 -0.1041248962 1.551683013e-38
-0.3168105483 -0.1031310186 -0.1440453678 1.551683013e-38
0.01024319138 0.09804834425 -0.09744548053 1.551683013e-38
-0.2433206737 0.006099608727 -0.09335771948 1.551683013e-38
-0.05085011199 0.03240598366 -0.1146757156 1.551683013e-38
-0.3018991947 -0.1290605366 -0.1478716433 1.551683013e-38
0.07739377767 0.09881523252 -0.07012949139 1.551683013e-38
-0.1550391763 0.04077136517 -0.07595436275 1.551683013e-38
-0.05013250187 0.003471172415 -0.1207816452 1.551683013e-38
-0.09026585519 -0.1227870136 -0.1444167346 1.551683013e-38
0.02767797559 0.1075808257 -0.05464243516 1.551683013e-38
-0.08591617644 0.06666105241 -0.09190070629 1.551683013e-38
-0.03069902211 0.1080517843 -0.05496492982 1.551683013e-38
-0.2011843175 -0.06772684306 -0.1336698532 1.551683013e-38
-0.004819624126 0.1089499667 -0.0750316456 1.551683013e-38
-0.192578122 -0.02803775109 -0.1208359599 1.551683013e-38
-0.07877162844 -0.06821466237 -0.134929657 1.551683013e-38
-0.2121164203 -0.1054841354 -0.1432353407 1.551683013e-38
-0.2799247801 -0.03382652253 0.1144123524 1.625043089e-38
-0.3186177909 -0.02771734633 0.1087047458 1.625043089e-38
-0.1374385655 -0.05091117322 0.05933375657 1.625043089e-38
-0.2041986883 -0.04889808968 -0.08529578894 1.625043089e-38
-0.3717500567 -0.02219507284 0.1391512305 1.625043089e-38
-0.4636904895 -0.0437078476 0.0629753992 1.625043089e-38
-0.007972071879 -0.07151401788 0.01882782765 1.625043089e-38
0.02623562329 -0.0658878535 -0.04843178391 1.625043089e-38
-0.1490204632 -0.04249313846 0.1009841561 1.625043089e-38
-0.2016112506 -0.04558803141 0.01976105757 1.625043089e-38
-0.1095465347 -0.05556741729 0.03549245745 1.625043089e-38
-0.1330855042 -0.05168748647 -0.07956655324 1.625043089e-38
-0.2514728606 -0.02951484546 0.1231628284 1.625043089e-38
-0.3491093814 -0.03247801587 0.05929910019 1.625043089e-38
-0.04053690284 -0.06671894342 0.03394412249 1.625043089e-38
-0.02757554129 -0.06374844164 -0.04170000553 1.625043089e-38
-0.1956248283 -0.03894540668 0.1073834077 1.625043089e-38
-0.2249971777 -0.04229836538 0.003829803318 1.625043089e-38
-0.08122575283 -0.06079546735 0.0347943753 1.625043089e-38
-0.0942447558 -0.05622141063 -0.0536833629 1.625043089e-38
-0.2215827554 -0.03396410868 0.1159667745 1.625043089e-38
-0.278308928 -0.03660508245 -0.01061845478 1.625043089e-38
-0.2445416898 -0.04138254374 0.08720616996 1.625043089e-38
-0.1685563773 -0.0486584045 -0.04528999329 1.625043089e-38
-0.29865399 -0.02412429079 0.1314511746 1.625043089e-38
-0.3915147483 -0.02910225466 0.1135577112 1.625043089e-38
-0.2282591611 -0.04171361402 0.06662847102 1.625043089e-38
-0.1049359441 -0.05799350888 0.001654697931 1.625043089e-38
-0.1805103719 -0.04836034402 0.06320524216 1.625043089e-38
-0.1620423943 -0.04952322319 0.0007529294817 1.625043089e-38
-0.32838732 -0.03054259717 0.1046696678 1.625043089e-38
-0.2172818333 -0.04485900328 -0.01002248004 1.625043089e-38
0.292715162 -0.02053328976 -0.1668282598 1.698367293e-38
0.3826587498 -0.009866118431 -0.1519781649 1.698367293e-38
0.2185349613 -0.03255111724 -0.144939214 1.698367293e-38
0.360347271 -0.120879814 -0.1547449827 1.698367293e-38
0.3629066944 -0.06540246308 -0.1696283966 1.698367293e-38
0.3486359417 -0.006017291918 -0.1316714287 1.698367293e-38
0.2263860852 -0.1017775238 -0.1671134233 1.698367293e-38
0.2615480721 -0.1236865073 -0.1238264441 1.698367293e-38
0.2650568485 -0.0459185876 -0.08794590086 1.698367293e-38
0.379519701 -0.1025282368 -0.1596059054 1.698367293e-38
0.2091297209 -0.03950820491 -0.1642432511 1.698367293e-38
0.3357984722 -0.1369367987 -0.1526499093 1.698367293e-38
0.3333105445 0.0001273602247 -0.1604092866 1.698367293e-38
0.4099735618 -0.03970122337 -0.1616050303 1.698367293e-38
0.2314416766 -0.07829336822 -0.1650693119 1.698367293e-38
0.2880859375 -0.1450767219 -0.1399538517 1.698367293e-38
0.2977356315 -0.01912925951 -0.1266470999 1.698367293e-38
0.395208627 -0.08559570462 -0.1609052569 1.698367293e-38
0.2215487808 -0.05707707629 -0.1666956842 1.698367293e-38
0.3119200468 -0.1479346603 -0.1492662579 1.698367293e-38
0.3100635707 -0.008945018053 -0.1417927146 1.698367293e-38
0.411881417 -0.06205515563 -0.1633101702 1.698367293e-38
0.2584283054 -0.02079549804 -0.1641699076 1.698367293e-38
0.3242446482 -0.1313399971 -0.1635059118 1.698367293e-38
0.3426188231 -0.03783494979 -0.1693746597 1.698367293e-38
0.3702960312 -0.03276010603 -0.1679076254 1.698367293e-38
0.2622225583 -0.1285445988 -0.1692825705 1.698367293e-38
0.358890146 -0.09310533851 -0.1682148576 1.698367293e-38
0.324718833 -0.04696970433 -0.1702749878 1.698367293e-38
0.3109421432 -0.1134812981 -0.168716982 1.698367293e-38
0.289300561 -0.05123366416 -0.1697472036 1.698367293e-38
0.2970181704 -0.1408923566 -0.1656995714 1.698367293e-38
0.1337971985 0.05977661535 0.08479630202 1.771655483e-38
0.04286079854 0.111283958 0.1079119965 1.771655483e-38
-0.053623382 0.116884701 0.06645750254 1.771655483e-38
-0.09651613981 0.1227823794 0.09239513427 1.771655483e-38
0.1536337435 0.04438534006 0.09379710257 1.771655483e-38
0.08500636369 0.089512676 0.1041213349 1.771655483e-38
-0.1620334834 0.1163225174 0.06352023035 1.771655483e-38
-0.2055864781 0.1166330948 0.07359421998 1.771655483e-38
0.00987027958 0.1119095832 0.04912089556 1.771655483e-38
-0.06987416744 0.1229471415 0.09483881295 1.771655483e-38
-0.0621291846 0.1205610111 0.08149288595 1.771655483e-38
-0.131947875 0.1216122061 0.08824118227 1.771655483e-38
0.1037940234 0.07866181433 0.0766010955 1.771655483e-38
0.001374236424 0.1200565398 0.09968581051 1.771655483e-38
-0.1244364232 0.1182525754 0.0704184249 1.771655483e-38
-0.1716174185 0.1192541495 0.08082720637 1.771655483e-38
0.04472855479 0.1071217731 0.05996860936 1.771655483e-38
-0.0497536175 0.1222974136 0.0951397717 1.771655483e-38
-0.08930844814 0.1197783053 0.07654361427 1.771655483e-38
-0.1509329826 0.1209437475 0.08575801551 1.771655483e-38
0.07975959778 0.09617713839 0.06582710147 1.771655483e-38
-0.02609662339 0.1215238944 0.09798133373 1.771655483e-38
-0.02537457459 0.1186805516 0.07930030674 1.771655483e-38
0.03394710645 0.1112469956 0.06897798181 1.771655483e-38
0.1479993612 0.04126656801 0.1106328666 1.771655483e-38
0.1554042101 0.0234376844 0.1401262581 1.771655483e-38
0.00189921027 0.1169693768 0.08756744862 1.771655483e-38
-0.08609704673 0.1166077405 0.06379704922 1.771655483e-38
0.1042554379 0.07729325444 0.08893366903 1.771655483e-38
0.1253656298 0.04882053658 0.1389204562 1.771655483e-38
0.05153529346 0.107517384 0.09129905701 1.771655483e-38
0.08051607013 0.09289910644 0.08322566003 1.771655483e-38
-0.2617530823 0.04909355566 -0.03991236538 1.844943813e-38
-0.2517198622 0.04077486694 0.03496760875 1.844943813e-38
-0.2110712081 -0.02891871333 -0.03398383036 1.844943813e-38
-0.3334514201 0.06111922115 -0.1019045338 1.844943813e-38
-0.3065599799 0.05441719294 -0.1148613468 1.844943813e-38
-0.2807264924 0.05490222573 0.02240911312 1.844943813e-38
-0.2242867053 -0.0253741499 -0.1577355862 1.844943813e-38
-0.3026937842 0.04665614665 0.06985719502 1.844943813e-38
-0.2544567883 0.02875794843 -0.1399890631 1.844943813e-38
-0.2203267813 -0.01295281481 0.03840715438 1.844943813e-38
-0.2150283456 -0.02511676587 -0.06682339311 1.844943813e-38
-0.317986995 0.05786079913 0.0007512288867 1.844943813e-38
-0.2613058388 0.04421621189 -0.053485699 1.844943813e-38
-0.2526755333 0.04247261956 0.07474967092 1.844943813e-38
-0.2208937705 -0.02972639911 -0.1335130781 1.844943813e-38
-0.3256936669 0.05235907063 0.04703057185 1.844943813e-38
-0.2616031468 0.03651401401 -0.1077677608 1.844943813e-38
-0.2218871862 -0.007196141873 0.08358204365 1.844943813e-38
-0.2154852599 -0.03007219546 -0.1053927839 1.844943813e-38
-0.3333107233 0.05798589438 0.01923082583 1.844943813e-38
-0.2618936896 0.04026576877 -0.08517172933 1.844943813e-38
-0.24192819 0.03229037672 0.0852862224 1.844943813e-38
-0.2459824085 0.008736413904 -0.1122468933 1.844943813e-38
-0.3161626756 0.0562158376 -0.04330832511 1.844943813e-38
-0.2937294841 0.05314434692 -0.06349793077 1.844943813e-38
-0.2652282715 0.05047494546 0.05676111206 1.844943813e-38
-0.2898510993 0.03679997474 -0.1508862972 1.844943813e-38
-0.2597162426 0.04350661114 0.01101267897 1.844943813e-38
-0.2465707511 0.02451554686 -0.08234336227 1.844943813e-38
-0.2303329706 0.001140334643 0.01618482172 1.844943813e-38
-0.2490154058 0.0241107177 -0.03587167338 1.844943813e-38
-0.3905396163 0.05521219596 -0.09838724881 1.844943813e-38
-0.4463466704 -0.09663780034 -0.06432572752 1.91819627e-38
-0.2500478327 -0.02467858605 -0.1065774634 1.91819627e-38
-0.3338060677 -0.06609432399 -0.1569503099 1.91819627e-38
-0.1786428094 -0.04763605073 -0.07012421638 1.91819627e-38
-0.3979199827 -0.09655014426 -0.07409206778 1.91819627e-38
-0.2652291656 -0.0410236679 -0.148370713 1.91819627e-38
-0.2503569722 -0.01611686312 -0.04416959733 1.91819627e-38
0.01172199752 -0.09920299798 0.08041033894 1.91819627e-38
-0.3333838284 -0.1099672467 -0.1487251967 1.91819627e-38
-0.1285685599 -0.05390679464 0.04879485816 1.91819627e-38
-0.3245150149 -0.04285408929 -0.1465767622 1.91819627e-38
-0.1358595639 -0.06271010637 -0.01354377624 1.91819627e-38
-0.3951662779 -0.1008365229 -0.1103308499 1.91819627e-38
-0.2136458308 -0.04313382506 -0.1152699813 1.91819627e-38
-0.2591979206 -0.02027031966 -0.08315292001 1.91819627e-38
-0.04128207639 -0.09428382665 0.05316757783 1.91819627e-38
-0.3421526551 -0.1251013875 -0.1283929795 1.91819627e-38
-0.1616742462 -0.04117520526 0.01476542279 1.91819627e-38
-0.2944216728 -0.02378914878 -0.123599641 1.91819627e-38
-0.1075123325 -0.07389438897 0.01192002185 1.91819627e-38
-0.3731666803 -0.107144624 -0.1142459586 1.91819627e-38
-0.2042145431 -0.04021437839 -0.07502744347 1.91819627e-38
-0.2754974067 -0.120035015 -0.1386618912 1.91819627e-38
-0.158438161 -0.06276358664 -0.1193825454 1.91819627e-38
-0.3645195663 -0.1001619473 -0.09257182479 1.91819627e-38
-0.2370180339 -0.1211413071 -0.1132465675 1.91819627e-38
-0.1900666058 -0.1054795012 -0.14059636 1.91819627e-38
-0.01904618926 -0.1057973355 0.0323962979 1.91819627e-38
-0.2373185456 -0.07136443257 -0.1517000198 1.91819627e-38
-0.01600319147 -0.1136763021 -0.086699076 1.91819627e-38
-0.2789475918 -0.1276412904 -0.1228933185 1.91819627e-38
-0.09712213278 -0.08986572176 -0.1108691171 1.91819627e-38
0.2708651423 -0.1381654292 -0.176984787 1.991448586e-38
0.1069632545 -0.1106428578 -0.128377825 1.991448586e-38
0.2235025465 -0.1232202575 -0.140011698 1.991448586e-38
-0.03118320368 -0.1076655984 -0.1312503517 1.991448586e-38
0.2897691131 -0.1349513978 -0.1808308214 1.991448586e-38
0.152989164 -0.1131315455 -0.1282708049 1.991448586e-38
0.325446099 -0.123607859 -0.1415444762 1.991448586e-38
-0.2095857114 -0.1118387878 -0.1527268291 1.991448586e-38
0.1124973521 -0.1166931465 -0.156339705 1.991448586e-38
-0.01847068965 -0.112806268 -0.1458634138 1.991448586e-38
0.2757264078 -0.134536624 -0.1424886733 1.991448586e-38
-0.07576666772 -0.1084799021 -0.1359452754 1.991448586e-38
0.2040111572 -0.1195522621 -0.1453579068 1.991448586e-38
0.07646286488 -0.1123907939 -0.1332736164 1.991448586e-38
0.3084261119 -0.1330699176 -0.1449233443 1.991448586e-38
-0.1702607721 -0.1114942729 -0.1493302286 1.991448586e-38
0.1397748291 -0.1169986725 -0.1533042789 1.991448586e-38
0.01463338546 -0.1134130508 -0.1440136284 1.991448586e-38
0.2937855422 -0.1380106807 -0.1454441249 1.991448586e-38
-0.1097418219 -0.1099958047 -0.1408814937 1.991448586e-38
0.184571296 -0.1175065562 -0.1486305892 1.991448586e-38
0.04963204265 -0.1128759012 -0.1374898851 1.991448586e-38
0.2402632236 -0.1200410277 -0.1291734129 1.991448586e-38
0.02457736805 -0.108215794 -0.1285064816 1.991448586e-38
0.2579035759 -0.1355395466 -0.1724667698 1.991448586e-38
0.1948072761 -0.112448737 -0.1222738251 1.991448586e-38
0.3436684012 -0.1139758974 -0.136841327 1.991448586e-38
-0.1028635874 -0.109870553 -0.1579397023 1.991448586e-38
0.2630645633 -0.1211687177 -0.1238887832 1.991448586e-38
0.04904177412 -0.1148274988 -0.1534966826 1.991448586e-38
0.2176788151 -0.122191906 -0.166687578 1.991448586e-38
-0.005337589886 -0.1136236712 -0.1551798433 1.991448586e-38
0.3491451442 -0.04196643829 0.1272491217 2.06466517e-38
0.2373134345 -0.03169090673 0.1321319044 2.06466517e-38
0.4420527816 -0.04196435586 0.1142045707 2.06466517e-38
0.07291948795 -0.06068213284 -0.004374446347 2.06466517e-38
0.3143858314 -0.02108890004 0.1564291269 2.06466517e-38
0.2273647487 -0.03568952158 0.1191477925 2.06466517e-38
0.4535508156 -0.07792901993 -0.02095635794 2.06466517e-38
0.1972097456 -0.04569089413 0.09715206176 2.06466517e-38
0.4020957649 -0.02910964191 0.1378644705 2.06466517e-38
0.3028638959 -0.02435812727 0.1489648074 2.06466517e-38
0.4531824291 -0.05321083218 0.07359462231 2.06466517e-38
0.1229194775 -0.06167402864 0.05232636258 2.06466517e-38
0.3422885239 -0.01947503351 0.1579424143 2.06466517e-38
0.2597985566 -0.02807400562 0.1383241415 2.06466517e-38
0.4552703202 -0.06931613386 0.01553646103 2.06466517e-38
0.1672528833 -0.05221540108 0.07885657996 2.06466517e-38
0.3854060769 -0.02271563374 0.1467400938 2.06466517e-38
0.2901456654 -0.02600816451 0.1476285309 2.06466517e-38
0.4546122253 -0.06098266691 0.04527331516 2.06466517e-38
0.1375226825 -0.05821120366 0.06316819042 2.06466517e-38
0.3610538244 -0.01945772767 0.1564044505 2.06466517e-38
0.2676543891 -0.02644432709 0.1440466791 2.06466517e-38
0.4262340367 -0.03746060655 0.1233890876 2.06466517e-38
0.09518433362 -0.06203058362 0.01956321113 2.06466517e-38
0.3205936551 -0.03853781149 0.1328221262 2.06466517e-38
0.2438170761 -0.05675767362 0.1038531885 2.06466517e-38
0.4503359497 -0.0468663238 0.1014682949 2.06466517e-38
0.2182138711 -0.06187963486 0.0895164758 2.06466517e-38
0.4040379524 -0.04922585562 0.1099448055 2.06466517e-38
0.285448879 -0.04854218289 0.1203367785 2.06466517e-38
0.3450376689 -0.06175944954 0.09689424187 2.06466517e-38
0.2002166808 -0.0798997879 0.06027418375 2.06466517e-38
0.005094595719 0.1126615927 -0.008067611605 2.137881613e-38
-0.1918143034 0.1116361842 -0.06205226108 2.137881613e-38
0.1564029157 0.05115592852 -0.0805734843 2.137881613e-38
-0.3811632693 0.04986038804 -0.07651649415 2.137881613e-38
-0.05249662697 0.1187972501 -0.0227986183 2.137881613e-38
-0.1672091484 0.1157754585 -0.0440248847 2.137881613e-38
0.3695659935 -0.0758728236 -0.1049155369 2.137881613e-38
-0.212631464 0.1098986864 -0.05521050468 2.137881613e-38
0.2383687347 0.003079643007 -0.05619950593 2.137881613e-38
-0.03729923442 0.1151234582 -0.04477138817 2.137881613e-38
0.2164812535 0.0154363988 -0.09449794143 2.137881613e-38
-0.2999887764 0.07030732185 -0.07781586051 2.137881613e-38
0.08125334978 0.09439907223 -0.02739822492 2.137881613e-38
-0.1319086105 0.1168696806 -0.04545651004 2.137881613e-38
0.3019855618 -0.0356801115 -0.0985481441 2.137881613e-38
-0.2373559922 0.1012124196 -0.06444817036 2.137881613e-38
0.1691898853 0.04591754079 -0.04313409701 2.137881613e-38
-0.07157572359 0.1160574555 -0.05254602432 2.137881613e-38
0.2597724497 -0.01033759583 -0.0996952951 2.137881613e-38
-0.2706992328 0.08017865568 -0.07064441592 2.137881613e-38
0.1212374195 0.075999856 -0.03019123711 2.137881613e-38
-0.10392306 0.1166078225 -0.05083951354 2.137881613e-38
0.1149900258 0.07398147136 -0.0712973997 2.137881613e-38
-0.3402538002 0.0548433885 -0.08260829002 2.137881613e-38
0.009914631955 0.1072423011 -0.03874668479 2.137881613e-38
-0.1243057922 0.118703641 -0.0358101353 2.137881613e-38
0.3533325493 -0.06480839849 -0.07552971691 2.137881613e-38
-0.2331424356 0.09663257748 -0.05126857385 2.137881613e-38
0.1748324633 0.0440652892 -0.03471635655 2.137881613e-38
-0.06227027997 0.1189962551 -0.03458857164 2.137881613e-38
0.07839727402 0.09593693912 -0.02690307423 2.137881613e-38
-0.2517211139 0.08914019912 -0.06812702119 2.137881613e-38
-0.1934222281 -0.1135225743 0.08647509664 2.211062324e-38
-0.1345687211 -0.1174440309 0.07233184576 2.211062324e-38
-0.370729357 -0.1088304818 0.06868829578 2.211062324e-38
0.009345006198 -0.118184112 0.07337030768 2.211062324e-38
-0.217258364 -0.1145507544 0.07985776663 2.211062324e-38
-0.1585971862 -0.1153182611 0.08035948128 2.211062324e-38
-0.4697306752 -0.09147666395 -0.1090744287 2.211062324e-38
0.2153351307 -0.1084439158 0.100044772 2.211062324e-38
-0.3983132541 -0.1049241796 0.09911091626 2.211062324e-38
-0.01453785971 -0.1145625487 0.08625695854 2.211062324e-38
-0.4624657333 -0.09952509403 0.00563348271 2.211062324e-38
0.112069875 -0.1146688312 0.0811689198 2.211062324e-38
-0.2730881274 -0.1124781892 0.08727026731 2.211062324e-38
-0.1034458876 -0.1159090251 0.08141122758 2.211062324e-38
-0.4740365446 -0.09481218457 -0.06610384583 2.211062324e-38
0.1833244264 -0.1105599776 0.09217561781 2.211062324e-38
-0.3529082835 -0.1085006893 0.09544160962 2.211062324e-38
-0.05235982314 -0.1139863729 0.08989691734 2.211062324e-38
-0.4696314633 -0.09790499508 -0.03428277746 2.211062324e-38
0.1425048411 -0.113284342 0.08406414092 2.211062324e-38
-0.3095843792 -0.1105855927 0.09162421525 2.211062324e-38
-0.08128774911 -0.114403151 0.08934759349 2.211062324e-38
-0.4216328561 -0.1020403877 0.05825357512 2.211062324e-38
0.0413100943 -0.1175811514 0.07515148818 2.211062324e-38
-0.232392028 -0.1130528301 0.08893102407 2.211062324e-38
-0.1340787113 -0.1121089756 0.0990595296 2.211062324e-38
-0.4545075595 -0.1008035839 0.02453222685 2.211062324e-38
0.08117610961 -0.1169452593 0.07523757964 2.211062324e-38
-0.3395373523 -0.1111417264 0.07569810003 2.211062324e-38
-0.05516181886 -0.1157565787 0.08528162539 2.211062324e-38
-0.4423867166 -0.1005861685 0.0802853331 2.211062324e-38
0.01796894148 -0.1140825748 0.08980610967 2.211062324e-38
-0.07226450741 0.1163549051 -0.01294646319 2.284242894e-38
0.0971859768 0.0930499807 -0.005370215047 2.284242894e-38
-0.1254105419 0.1207493544 0.0282959491 2.284242894e-38
0.1012396514 0.09614233673 0.05469276756 2.284242894e-38
0.001923976 0.1186959445 -0.01162352227 2.284242894e-38
0.01873019338 0.118929632 0.02602744661 2.284242894e-38
-0.2654364109 0.09033324569 0.05902577564 2.284242894e-38
0.1815800369 0.03775046393 0.06465062499 2.284242894e-38
0.02877399512 0.1162170246 0.05234516412 2.284242894e-38
0.1705100685 0.0466241017 0.02747497521 2.284242894e-38
-0.1721602082 0.1173476353 0.03690533713 2.284242894e-38
0.121502392 0.08077274263 0.05528743565 2.284242894e-38
-0.06575200707 0.1200854853 0.03524436802 2.284242894e-38
0.09377944469 0.09904550761 0.02542791702 2.284242894e-38
-0.2290499061 0.1062363014 0.04974852502 2.284242894e-38
0.1574754119 0.0565289557 0.05747775361 2.284242894e-38
-0.01450156793 0.1177294627 0.04519795626 2.284242894e-38
0.1394970417 0.06792520732 0.02619484439 2.284242894e-38
-0.2065273672 0.1122105047 0.04679260775 2.284242894e-38
0.1358713359 0.07053025812 0.05513946339 2.284242894e-38
-0.03682523221 0.1182492971 0.0407120958 2.284242894e-38
0.1109892651 0.08790250868 0.02549548633 2.284242894e-38
-0.144474104 0.1188933775 0.04283611849 2.284242894e-38
