# .PCD v0.7 - Point Cloud Data file format
VERSION 0.7
FIELDS x y z rgb
SIZE 4 4 4 4
TYPE F F F F
COUNT 1 1 1 1
WIDTH 831
HEIGHT 1
VIEWPOINT 0 0 0 1 0 0 0
POINTS 831
DATA ascii
0.09740849584 0.06630254537 -0.02175269648 1.551683013e-38
0.08899123222 0.03596161678 -0.03986269981 1.551683013e-38
0.08546861261 0.02585817501 -0.05455353484 1.551683013e-38
0.09946227074 -0.02805815637 0.1930075586 1.551683013e-38
0.09100221843 0.02365346253 0.06517495215 1.551683013e-38
0.08711897582 0.01943384856 0.02850806341 1.551683013e-38
0.09332853556 0.04575201124 -0.1385682672 1.551683013e-38
0.09531912208 0.03199411556 0.2540721893 1.551683013e-38
0.09523221105 -0.02233300172 0.04743017629 1.551683013e-38
0.09836891294 -0.02647704259 0.1089863032 1.551683013e-38
0.1002956927 0.07230871916 -0.1648364514 1.551683013e-38
0.09834468365 -0.01276972983 0.1590833664 1.551683013e-38
0.0928875953 0.04401904717 -0.1716712564 1.551683013e-38
0.09943561256 -0.01363091078 0.2037266493 1.551683013e-38
-0.09967296571 0.07267968357 0.2578180432 1.625043089e-38
-0.1090967134 0.1039627716 -0.001240249141 1.625043089e-38
-0.09921438247 0.0443280153 0.4198554754 1.625043089e-38
-0.1021035761 0.07936475426 -0.08531632274 1.625043089e-38
-0.09894168377 0.06628250331 0.4093042314 1.625043089e-38
-0.1083102301 0.1023355424 0.1675104648 1.625043089e-38
-0.0964115113 -0.001228892594 0.3366026282 1.625043089e-38
-0.0999250859 0.06586878002 -0.2730251551 1.625043089e-38
-0.1050633192 0.08023036271 0.1346876174 1.625043089e-38
-0.109458521 0.1035940126 -0.06149475276 1.625043089e-38
-0.09817831963 0.008603598922 0.391861707 1.625043089e-38
-0.09902474284 0.08107302338 -0.1393746734 1.625043089e-38
-0.1040846482 0.09796491265 0.2837715447 1.625043089e-38
-0.1080838591 0.1039467752 0.08710072935 1.625043089e-38
-0.09564510733 0.04796822369 0.2860374749 1.625043089e-38
-0.09814292938 0.0774089247 -0.2147651911 1.625043089e-38
-0.1042893231 0.09427412599 0.2136061341 1.625043089e-38
-0.1069904715 0.09569113702 0.02122074179 1.625043089e-38
-0.09669671953 0.05449935049 0.3253638744 1.625043089e-38
-0.0994047448 0.06906253844 -0.09926431626 1.625043089e-38
-0.09906002134 0.0862352401 0.3784426153 1.625043089e-38
-0.1081349403 0.09804940224 0.1533208191 1.625043089e-38
-0.09694229066 0.06510317326 0.2975060046 1.625043089e-38
-0.0955626145 0.04759030417 -0.09475893527 1.625043089e-38
-0.09775513411 0.07095080614 0.346126914 1.625043089e-38
-0.102452755 0.07184781134 0.0315024741 1.625043089e-38
-0.09898687154 0.07165236771 0.2730895877 1.625043089e-38
-0.09531829506 0.04578736797 -0.09005766362 1.625043089e-38
-0.09641513973 0.04326097295 0.1918055266 1.625043089e-38
-0.09330803156 0.05016591772 -0.160725385 1.625043089e-38
-0.1001215577 0.07403568923 0.2532625496 1.625043089e-38
-0.10534513 0.08461873978 -0.02787867747 1.625043089e-38
-0.02407930233 0.1316680014 -0.1897569001 1.698367293e-38
0.08973143995 0.05143437907 -0.3602206707 1.698367293e-38
-0.006906175986 0.1254757792 -0.3378246725 1.698367293e-38
0.1123201475 -0.1104089096 -0.4754520059 1.698367293e-38
0.05394254997 0.09531503916 -0.2489591837 1.698367293e-38
0.100601919 -0.04866776988 -0.4741865396 1.698367293e-38
0.09139350802 -0.00806421414 -0.4850843847 1.698367293e-38
0.1064811647 -0.08776410669 -0.4836456776 1.698367293e-38
-0.03277711198 0.1341750622 -0.1520428807 1.698367293e-38
0.07076455653 0.1092329994 -0.3398246169 1.698367293e-38
0.09087865055 0.06988347322 -0.458299458 1.698367293e-38
0.1049165279 -0.0825220421 -0.4780359566 1.698367293e-38
0.03250838816 0.115404278 -0.2415295541 1.698367293e-38
0.08851160854 0.07665258646 -0.4141130149 1.698367293e-38
0.08838650584 -0.01433984935 -0.4904635251 1.698367293e-38
0.1059741378 -0.07162538171 -0.4668908119 1.698367293e-38
0.002135988791 0.1274155825 -0.2276819199 1.698367293e-38
0.08960007131 0.08454992622 -0.4216789007 1.698367293e-38
0.08762670308 0.04868399724 -0.4652016759 1.698367293e-38
0.1118951365 -0.1053198352 -0.4772179127 1.698367293e-38
0.07223022729 0.1103663817 -0.3497912288 1.698367293e-38
0.08215853572 0.02795880847 -0.4557039738 1.698367293e-38
0.09076998383 -0.006062872708 -0.4694400728 1.698367293e-38
0.08281900734 -0.1036335304 -0.4914081097 1.698367293e-38
0.05822305381 0.1173607111 -0.3767259419 1.698367293e-38
0.09837923199 -0.03647263721 -0.4737833738 1.698367293e-38
0.09686918557 -0.02997756749 -0.4721157551 1.698367293e-38
0.09457881004 -0.07981695235 -0.486386925 1.698367293e-38
0.03859679028 0.1089687273 -0.4153329134 1.698367293e-38
0.1036682427 -0.08980254084 -0.4853176773 1.698367293e-38
-0.05024980754 0.1334554702 -0.273561269 1.698367293e-38
0.08624432981 0.05615907907 -0.4182427227 1.698367293e-38
0.08097591251 0.1174580157 0.2728749216 1.771655483e-38
0.0691594854 -0.05749766529 0.4780325294 1.771655483e-38
0.04883229733 0.1448484808 0.1351857185 1.771655483e-38
0.09025175869 0.1022634804 0.4479165375 1.771655483e-38
0.09902025759 0.1257490516 0.1737325788 1.771655483e-38
0.08583052456 0.06807821244 0.4642725289 1.771655483e-38
0.05791543797 0.1575121731 -0.05102599412 1.771655483e-38
0.07855129987 -0.06380265206 0.4197337627 1.771655483e-38
0.08407760412 0.1124646887 0.3491621912 1.771655483e-38
0.06615855545 -0.02811249532 0.4806741774 1.771655483e-38
0.08663474768 0.146572873 0.04250402004 1.771655483e-38
0.09119211137 0.03767295927 0.3876745999 1.771655483e-38
0.08368869871 0.1178055778 0.2728073895 1.771655483e-38
0.08458907902 0.01775764115 0.4634577632 1.771655483e-38
0.06865811348 0.1510718316 0.01353579015 1.771655483e-38
0.08543463051 -0.007802177221 0.3780635297 1.771655483e-38
0.08838037401 0.1039979607 0.3128082752 1.771655483e-38
0.0824624747 0.02392854542 0.4707505405 1.771655483e-38
0.0526204668 0.1410059184 0.2112154216 1.771655483e-38
0.09651248157 0.04147635028 0.3470549881 1.771655483e-38
0.0955343321 0.1072863415 0.2216195166 1.771655483e-38
0.08858909458 0.0898924768 0.4532167017 1.771655483e-38
0.06942335516 0.1378283203 0.2034788728 1.771655483e-38
0.08608530462 -0.02384316176 0.3159974515 1.771655483e-38
0.10347794 0.1149017289 0.1508679837 1.771655483e-38
0.08079919964 0.03756735101 0.4757213593 1.771655483e-38
0.1057904661 0.1503513604 -0.02175732702 1.771655483e-38
0.08864350617 0.03907035664 0.4022499323 1.771655483e-38
0.1066720039 0.1382073164 0.07621418685 1.771655483e-38
0.08648303896 -0.01528321579 0.4381037056 1.771655483e-38
0.09186849743 0.07258412242 0.2925950289 1.771655483e-38
0.08445226401 0.02953692898 0.4669242203 1.771655483e-38
-0.0928882286 0.06212158129 -0.337577045 1.844943813e-38
-0.08953522891 0.04914935678 0.05329246446 1.844943813e-38
-0.08541448414 0.03655549511 0.2034792751 1.844943813e-38
-0.09651753306 -0.03331157565 0.2653133869 1.844943813e-38
-0.08768098801 0.05890884995 -0.1295908391 1.844943813e-38
-0.09044487774 0.05674678087 -0.124313198 1.844943813e-38
-0.0966566354 -0.05819530413 0.3727717996 1.844943813e-38
-0.09118441492 0.005181854591 0.1189509034 1.844943813e-38
-0.09296361357 0.06199734285 -0.4044570923 1.844943813e-38
-0.08831176162 0.04511161149 0.0902666077 1.844943813e-38
-0.09124873579 0.00925763417 0.246784091 1.844943813e-38
-0.09534864128 -0.004959691782 0.18651326 1.844943813e-38
-0.09272857755 0.06159278005 -0.2802323401 1.844943813e-38
-0.09333181381 0.05097807571 -0.04579452798 1.844943813e-38
-0.09636214375 -0.01552559901 0.2941080928 1.844943813e-38
-0.08957596868 0.01133353915 0.116859071 1.844943813e-38
-0.09319967777 0.05051117018 -0.3163331151 1.844943813e-38
-0.09551279992 0.04424991086 0.001171796001 1.844943813e-38
-0.08640527725 0.01661509089 0.1910744756 1.844943813e-38
-0.08832054585 0.01565997861 0.1175149009 1.844943813e-38
-0.08912268281 0.05191167071 -0.1914540827 1.844943813e-38
-0.09347919375 0.03821181133 -0.1246712282 1.844943813e-38
-0.08349636942 0.02369225956 0.1622751802 1.844943813e-38
-0.09007677436 0.0184247233 -0.007051785011 1.844943813e-38
-0.08979697526 0.04642636701 -0.2392625511 1.844943813e-38
-0.0930237323 0.03299247473 -0.05024628341 1.844943813e-38
-0.08955825865 0.0317296423 0.007936426438 1.844943813e-38
-0.08823875338 0.03447736055 -0.08660963923 1.844943813e-38
-0.09188517928 0.02670139074 -0.0144516807 1.844943813e-38
-0.09159360826 0.01063734107 0.01438327879 1.844943813e-38
-0.08871418983 0.04239076376 -0.143162027 1.844943813e-38
-0.08542378247 0.02876484208 0.1000700742 1.844943813e-38
-0.09507413208 -0.157826677 0.369306922 1.91819627e-38
-0.09192726016 -0.1511388123 0.0744984746 1.91819627e-38
-0.1032836288 -0.1598677486 0.4082230031 1.91819627e-38
-0.06480263919 -0.1469130814 0.1827262342 1.91819627e-38
-0.1065504923 -0.1546921283 0.1560650468 1.91819627e-38
-0.06687775254 -0.1520081311 0.3088122308 1.91819627e-38
-0.04586184397 -0.1589463651 0.403416425 1.91819627e-38
-0.08099078387 -0.1491711587 0.02141157165 1.91819627e-38
-0.1010629684 -0.1578499973 0.3310963809 1.91819627e-38
-0.09722708166 -0.1483377218 0.003406638047 1.91819627e-38
-0.09091996402 -0.1589006335 0.3845804334 1.91819627e-38
-0.05914589763 -0.1448981017 0.1043836698 1.91819627e-38
-0.1001013592 -0.1569331139 0.245681569 1.91819627e-38
-0.07594396174 -0.1532760561 0.2774595916 1.91819627e-38
-0.03353603929 -0.154215008 0.3503698409 1.91819627e-38
-0.07858857512 -0.1485445201 0.0401183255 1.91819627e-38
-0.09740239382 -0.1570005417 0.2995202839 1.91819627e-38
-0.07937137783 -0.1536409259 0.2148755193 1.91819627e-38
-0.06328179687 -0.1594054848 0.4024950266 1.91819627e-38
-0.054338824 -0.1455299109 0.1782810241 1.91819627e-38
-0.1054205447 -0.1547014266 0.1645067483 1.91819627e-38
-0.07257898152 -0.152206704 0.2749488056 1.91819627e-38
-0.07754275948 -0.1577657163 0.3719718158 1.91819627e-38
-0.04540403932 -0.1493936479 0.2880399823 1.91819627e-38
-0.09173342586 -0.1545284241 0.1838026196 1.91819627e-38
-0.08963679522 -0.152544722 0.09966170788 1.91819627e-38
-0.07365710288 -0.1555689424 0.3166751564 1.91819627e-38
-0.04816293344 -0.1499108821 0.2961126566 1.91819627e-38
-0.09339408576 -0.1601627171 0.4042551517 1.91819627e-38
-0.1003936827 -0.150813207 0.04929349199 1.91819627e-38
-0.1001701504 -0.1579086632 0.3161720932 1.91819627e-38
-0.04521974176 -0.1475931406 0.2269469202 1.91819627e-38
0.1111963838 -0.1313357204 -0.2806710005 1.991448586e-38
0.1060836166 -0.1262017041 -0.002849913901 1.991448586e-38
0.1085893959 -0.1343580931 0.04960329458 1.991448586e-38
0.1044127345 -0.1348677576 0.1415083706 1.991448586e-38
0.1105372161 -0.1562609226 -0.3405306339 1.991448586e-38
0.1136396974 -0.1339685023 -0.2468946576 1.991448586e-38
0.1088177487 -0.1499901116 -0.1023194194 1.991448586e-38
0.1055799872 -0.06051432341 0.248967573 1.991448586e-38
0.1131218672 -0.1353363991 -0.2532169521 1.991448586e-38
0.1045619696 -0.1269129515 0.03471484035 1.991448586e-38
0.1098542139 -0.1477389038 -0.01345673203 1.991448586e-38
0.1044282764 -0.1374275535 0.1765723228 1.991448586e-38
0.1090575382 -0.1414888203 -0.3108868003 1.991448586e-38
0.111327447 -0.1334717721 -0.2052982599 1.991448586e-38
0.1093306541 -0.1465345174 -0.0614236854 1.991448586e-38
0.1102707461 -0.1032087952 0.195925951 1.991448586e-38
0.1087779924 -0.1324731261 -0.309876889 1.991448586e-38
0.1129771098 -0.1333966404 -0.03813978657 1.991448586e-38
0.1149322689 -0.1459091604 0.1153456047 1.991448586e-38
0.1047892645 -0.1346780062 0.1838515699 1.991448586e-38
0.1078431383 -0.1613028347 -0.4006037414 1.991448586e-38
0.1080682799 -0.1277246624 -0.3074300587 1.991448586e-38
0.110556066 -0.1516730487 0.02115340903 1.991448586e-38
0.1046932563 -0.145361051 0.2182805836 1.991448586e-38
0.09462018311 -0.1514353454 -0.4403530359 1.991448586e-38
0.1113777906 -0.1269597858 -0.06991346925 1.991448586e-38
0.1140294969 -0.1563553959 -0.1659076065 1.991448586e-38
0.1043523178 -0.142555654 0.1863493323 1.991448586e-38
0.1131945029 -0.1395894885 -0.2069985271 1.991448586e-38
0.1050817296 -0.1344207674 0.2090849429 1.991448586e-38
0.1082331762 -0.1295754611 -0.3293714821 1.991448586e-38
0.1097472459 -0.1319897771 -0.1485053003 1.991448586e-38
-0.09954630584 -0.06987431645 -0.3957356513 2.06466517e-38
-0.1010936275 -0.04730049893 -0.4459193647 2.06466517e-38
-0.09065802395 -0.06315464526 -0.1232745275 2.06466517e-38
-0.09484671801 -0.05931650102 -0.2679899335 2.06466517e-38
-0.09894495457 -0.08297935128 -0.4227223992 2.06466517e-38
-0.1013471559 -0.01361106429 -0.3702007532 2.06466517e-38
-0.1015556529 -0.0925026238 0.1393817663 2.06466517e-38
-0.09016706795 -0.05336309597 -0.109019421 2.06466517e-38
-0.09668320417 -0.0893696472 -0.3446514606 2.06466517e-38
-0.1071550995 -0.01850344613 -0.4784535766 2.06466517e-38
-0.09181337059 -0.1125556082 0.006388286594 2.06466517e-38
-0.09439538419 -0.07164523005 -0.2578062117 2.06466517e-38
-0.09911682457 -0.07156237215 -0.3947085142 2.06466517e-38
-0.1002732664 -0.036537949 -0.4228407145 2.06466517e-38
-0.100306198 -0.1093525663 0.1027932912 2.06466517e-38
-0.08983379602 -0.08233866096 -0.1768059582 2.06466517e-38
-0.09673634171 -0.09308657795 -0.3253875673 2.06466517e-38
-0.1021395996 -0.07288528979 -0.4574827552 2.06466517e-38
-0.09116474539 -0.1112629324 -0.05735963583 2.06466517e-38
-0.0908934772 -0.1152429655 -0.2271746695 2.06466517e-38
-0.1009088829 -0.1224170327 -0.4071749151 2.06466517e-38
-0.09950532019 -0.07286696881 -0.4071916938 2.06466517e-38
-0.08925124258 -0.09756395966 -0.08189624548 2.06466517e-38
-0.08832325786 -0.1201729625 -0.1469079852 2.06466517e-38
-0.09653031081 -0.1285172701 -0.3573980629 2.06466517e-38
-0.1110905111 -0.1187348738 -0.4766889513 2.06466517e-38
-0.09629002213 -0.1086409166 -0.3312015831 2.06466517e-38
-0.08969075233 -0.09138672054 -0.1518869549 2.06466517e-38
-0.09216260165 -0.110725902 0.00571476575 2.06466517e-38
-0.09464424849 -0.1209037602 -0.3214974999 2.06466517e-38
-0.09853704274 -0.1130853668 -0.3919333518 2.06466517e-38
-0.1138275713 -0.1007455885 -0.4880844653 2.06466517e-38
0.06403481215 0.1034412906 -0.4715864062 2.137881613e-38
0.09035308659 0.1378777772 -0.4828673601 2.137881613e-38
-0.1073070094 0.1589123607 -0.09444189817 2.137881613e-38
-0.1015629917 0.1584591866 -0.3375751078 2.137881613e-38
-0.1060518995 0.08962738514 -0.3949753642 2.137881613e-38
-0.05965806916 0.1315168589 -0.483944267 2.137881613e-38
-0.1000127643 0.1570947915 -0.2985379398 2.137881613e-38
-0.1056826115 0.1359655708 -0.4624003172 2.137881613e-38
0.08568884432 0.085821338 -0.4558483362 2.137881613e-38
0.1016558334 0.122551389 -0.4774196446 2.137881613e-38
-0.1060751975 0.1508724838 -0.2042892575 2.137881613e-38
-0.1023292765 0.1488903463 -0.3987770379 2.137881613e-38
-0.103407532 0.08477547765 -0.4535346031 2.137881613e-38
0.001474871184 0.1377061456 -0.4868138134 2.137881613e-38
-0.1076069549 0.1402367055 -0.2511947751 2.137881613e-38
-0.104194358 0.1376316994 -0.4446506798 2.137881613e-38
0.009932004847 0.088472642 -0.4595756829 2.137881613e-38
0.03893896937 0.1306677014 -0.4843461514 2.137881613e-38
-0.1038788706 0.1517128795 -0.1689103842 2.137881613e-38
-0.1029314846 0.1530412287 -0.3620004654 2.137881613e-38
-0.1119490415 0.09572212398 -0.4515618086 2.137881613e-38
-0.06172528118 0.1262868047 -0.4809440076 2.137881613e-38
-0.1090910137 0.1247100011 -0.240259394 2.137881613e-38
-0.1040227711 0.1321404576 -0.4072815776 2.137881613e-38
-0.1050715074 0.1194021031 -0.3452179134 2.137881613e-38
-0.09126695991 0.1202220842 -0.4768434465 2.137881613e-38
-0.1037540138 0.1088796258 -0.3195845187 2.137881613e-38
-0.1074940711 0.1229485944 -0.460526526 2.137881613e-38
-0.1052637249 0.1022585034 -0.347746253 2.137881613e-38
-0.05798247457 0.12322025 -0.4814038873 2.137881613e-38
-0.107511729 0.102964595 -0.4433158636 2.137881613e-38
-0.05173418298 0.1204119995 -0.4804543257 2.137881613e-38
-0.1002942026 0.01196381729 0.07224378735 2.211062324e-38
-0.1047338173 -0.01398063265 0.3023252785 2.211062324e-38
-0.09263066202 0.01811413467 -0.2922517359 2.211062324e-38
-0.06902462989 -0.07565175742 -0.3160883486 2.211062324e-38
-0.1028691679 0.05378881469 -0.1828576177 2.211062324e-38
-0.09595205635 -0.01471065357 -0.06642334163 2.211062324e-38
-0.1084515303 0.0646180734 -0.4059801102 2.211062324e-38
-0.09709653258 -0.02745839395 -0.164746955 2.211062324e-38
-0.1071583554 0.03868186474 0.1889702827 2.211062324e-38
-0.1025096253 -0.02411483973 0.3342599273 2.211062324e-38
-0.1072867885 0.06324794143 -0.3284337819 2.211062324e-38
-0.09046054631 0.004868505988 -0.2271253169 2.211062324e-38
-0.1015555635 0.06096896529 -0.1065078229 2.211062324e-38
-0.1056156382 0.01379062701 0.1577898413 2.211062324e-38
-0.1103610992 0.0798772946 -0.3613482118 2.211062324e-38
-0.09715159982 0.0114961192 -0.1803878993 2.211062324e-38
-0.1078836992 0.05691098794 0.1296128631 2.211062324e-38
-0.1050630733 0.009896774776 0.2081815153 2.211062324e-38
-0.09642183781 0.06051436067 -0.193556577 2.211062324e-38
-0.08176951855 -0.008456092328 -0.2865596414 2.211062324e-38
-0.09826042503 0.04251709953 -0.0496140644 2.211062324e-38
-0.09480240196 -0.008935754187 -0.003264366183 2.211062324e-38
-0.0974932313 0.09332494438 -0.1888342798 2.211062324e-38
-0.08920098841 0.02655622922 -0.2244238257 2.211062324e-38
-0.09986075759 0.08270237595 -0.08531314135 2.211062324e-38
-0.09200433642 -0.03660163656 -0.1152626574 2.211062324e-38
-0.09934002906 0.09740985185 -0.1096829772 2.211062324e-38
-0.0923646912 0.02675612085 -0.08962787688 2.211062324e-38
-0.100257881 0.1086221114 -0.1992379725 2.211062324e-38
-0.09486942738 0.01261030324 0.09638099372 2.211062324e-38
-0.1093905196 0.0921966508 0.1142463684 2.211062324e-38
-0.1003321931 0.02735893056 0.1513197273 2.211062324e-38
0.09316506982 0.01125627849 0.4793542624 2.284242894e-38
-0.07130671293 -0.04714073241 0.4637399316 2.284242894e-38
-0.1037458479 -0.02171318233 0.4078854322 2.284242894e-38
0.1038137749 -0.03635536507 0.4651372135 2.284242894e-38
-0.002305615228 0.008672662079 0.4833120704 2.284242894e-38
0.007556167897 0.07074502856 0.4880032241 2.284242894e-38
-0.1060253531 0.04668841138 0.160395056 2.284242894e-38
0.09459831566 -0.1529884338 0.4716051221 2.284242894e-38
0.09984495491 -0.02315107919 0.4726497829 2.284242894e-38
-0.08306331933 0.02705986984 0.4741883278 2.284242894e-38
-0.1119326279 0.01281685103 0.329256624 2.284242894e-38
0.09393839538 -0.07489436865 0.4754606187 2.284242894e-38
0.0622279048 0.03072116897 0.4847695827 2.284242894e-38
-0.03202845156 0.06038615853 0.4865000248 2.284242894e-38
-0.1029808447 0.019327268 0.2332988977 2.284242894e-38
0.09192741662 -0.1270704418 0.4741861224 2.284242894e-38
0.08516913652 -0.009440610185 0.4809723198 2.284242894e-38
-0.06075986102 0.04172772542 0.4854587317 2.284242894e-38
-0.1132092401 -0.02262363955 0.4207790792 2.284242894e-38
0.08799112588 -0.08704998344 0.4771642685 2.284242894e-38
0.03167288005 0.01381615456 0.4851489365 2.284242894e-38
-0.03225601837 0.0231778305 0.4853090048 2.284242894e-38
-0.1025163531 -0.03292449936 0.3557492197 2.284242894e-38
0.04463838413 -0.09833144397 0.4854418635 2.284242894e-38
0.02886252664 0.02782244608 0.4867518246 2.284242894e-38
0.06358357519 -0.04848023877 0.4844935834 2.284242894e-38
-0.1099056229 -0.007683744188 0.2788554132 2.284242894e-38
0.03914291784 -0.07106033713 0.4865670502 2.284242894e-38
-0.02056114376 -0.01160021219 0.4840101302 2.284242894e-38
0.0753101036 -0.09283084422 0.4810982049 2.284242894e-38
0.0825150609 -0.05588816851 0.479934752 2.284242894e-38
0.03566012904 -0.03844373301 0.4837268293 2.284242894e-38
-0.06738913804 0.1425526291 -0.4221310616 2.348204041e-38
-0.06726716459 0.1523738056 -0.290076822 2.348204041e-38
-0.06559316814 0.1088581979 -0.4560838342 2.348204041e-38
-0.05190392584 0.1257540584 -0.4392668605 2.348204041e-38
-0.02676651441 -0.06665182114 -0.4887833595 2.348204041e-38
-0.08292204887 0.1541788727 -0.3436262906 2.348204041e-38
-0.08108913898 -0.1107953042 -0.4880864322 2.348204041e-38
-0.02314487286 0.1493324786 -0.2307971567 2.348204041e-38
-0.06845974177 0.1485900581 -0.3945278823 2.348204041e-38
-0.05656971037 0.1515619159 -0.2197794169 2.348204041e-38
-0.06645315886 -0.04334251583 -0.4896201491 2.348204041e-38
-0.09251115471 0.1554604322 -0.3843809068 2.348204041e-38
-0.02960182726 0.04455260932 -0.4819518626 2.348204041e-38
-0.1003024727 0.1538014412 -0.3096376956 2.348204041e-38
-0.0881472528 -0.06352929771 -0.4884678721 2.348204041e-38
-0.02918552794 0.15124017 -0.2898546755 2.348204041e-38
-0.0158621408 0.1398354173 -0.4021743238 2.348204041e-38
-0.05186576396 0.1520578414 -0.2512793541 2.348204041e-38
-0.1228193268 0.04656371847 -0.4854561687 2.348204041e-38
-0.06032178551 0.01506197546 -0.4929098189 2.348204041e-38
-0.004523298703 0.07149868459 -0.4634726942 2.348204041e-38
-0.08619364351 0.1524850875 -0.3898045421 2.348204041e-38
-0.0801447928 -0.00566831138 -0.4908225834 2.348204041e-38
-0.05686577037 0.09212633222 -0.4675810933 2.348204041e-38
-0.02499739081 0.1202280372 -0.4385598898 2.348204041e-38
-0.07927688956 0.1507902443 -0.3875799477 2.348204041e-38
-0.07988948375 0.0006089582457 -0.4910914302 2.348204041e-38
-0.09006104618 0.1263576597 -0.4513577819 2.348204041e-38
-0.08191599697 0.1272941381 -0.4489710331 2.348204041e-38
-0.04549039528 0.1505263895 -0.3457868099 2.348204041e-38
-0.06815958023 0.1363116205 -0.4338305295 2.348204041e-38
-0.0700455606 0.09984775633 -0.4657333195 2.348204041e-38
0.02347161248 0.1414141357 0.1559313536 2.347880341e-38
0.0023651917 0.1454357654 -0.1852063835 2.347880341e-38
0.0892540291 0.1224244907 -0.3185834885 2.347880341e-38
0.08665493131 0.1176291779 -0.1408385634 2.347880341e-38
0.04916618392 0.1350625902 -0.01726923138 2.347880341e-38
0.02227651514 0.1444221884 -0.0317912139 2.347880341e-38
0.1043643504 0.1118880361 -0.2101313025 2.347880341e-38
0.1144256294 0.09762781113 0.1516555697 2.347880341e-38
0.058129251 0.1467879266 0.3039318323 2.347880341e-38
0.07529561222 0.122294791 -0.2287507504 2.347880341e-38
0.117931813 0.07092928141 -0.165502578 2.347880341e-38
0.1111388355 0.04345909879 0.1441949308 2.347880341e-38
0.06974519044 0.1315847486 0.1638188809 2.347880341e-38
0.05579103529 0.1290078908 -0.02141915821 2.347880341e-38
0.110291101 0.1033324599 -0.0619623661 2.347880341e-38
0.1048016474 0.1131218225 0.2413004786 2.347880341e-38
0.07156363875 0.1388293654 0.3179801404 2.347880341e-38
0.06129320338 0.1278059185 -0.05481401458 2.347880341e-38
0.1168261766 0.07899954915 -0.150188148 2.347880341e-38
0.102863878 0.1126949564 -0.03173690289 2.347880341e-38
0.09257804602 0.1216379255 0.2375316918 2.347880341e-38
0.05937331542 0.1331033707 0.07197263092 2.347880341e-38
0.1143122017 0.08442379534 -0.1226545498 2.347880341e-38
0.06920760125 0.1299004108 0.0734822154 2.347880341e-38
0.1050288826 0.1199562326 0.3740133643 2.347880341e-38
0.08527256548 0.1233446822 0.1232685 2.347880341e-38
0.1115682945 0.09668705612 -0.06889362633 2.347880341e-38
0.08101481944 0.128446877 0.2124607116 2.347880341e-38
0.1106025949 0.09249158204 0.1131006852 2.347880341e-38
0.1068790555 0.10460262 -0.01031240169 2.347880341e-38
0.08415048569 0.1357695609 0.3815545738 2.347880341e-38
0.08313812315 0.1215438396 -0.02570550889 2.347880341e-38
0.000243999064 0.05687978119 0.4697313011 2.347520768e-38
-0.1007454023 -0.05130816996 -0.04715885222 2.347520768e-38
-0.110877119 -0.05136104301 0.2402073592 2.347520768e-38
-0.1138020232 -0.03414691985 0.4837241769 2.347520768e-38
-0.01431552134 0.08949903399 0.4436458647 2.347520768e-38
-0.1079727113 -0.06062892079 0.1631844789 2.347520768e-38
-0.1175248846 0.04454952106 0.4652874768 2.347520768e-38
-0.1182229891 -0.09615039825 0.3779165447 2.347520768e-38
-0.1055377498 0.06541671604 0.4672022164 2.347520768e-38
-0.1014561355 -0.05365012214 -0.1058830097 2.347520768e-38
-0.1059122756 -0.03459247574 0.2810283899 2.347520768e-38
-0.117244713 -0.0772768259 0.4247210324 2.347520768e-38
-0.09848630428 0.09535638988 0.4444276989 2.347520768e-38
-0.09803780913 -0.0524655506 0.05922997743 2.347520768e-38
-0.1138382927 -0.02152959444 0.352719456 2.347520768e-38
-0.1131941453 -0.07220117748 0.3492486775 2.347520768e-38
-0.1128694117 -0.003195227357 0.3784967661 2.347520768e-38
-0.0985538736 -0.04939691722 0.04486903176 2.347520768e-38
-0.1015787795 -0.03278448433 0.1573354155 2.347520768e-38
-0.1137565449 -0.02091990598 0.4542102814 2.347520768e-38
-0.1142788827 0.08564237505 0.4298004508 2.347520768e-38
-0.1053975299 -0.05317853764 0.1268833131 2.347520768e-38
-0.1087966338 -0.03179148212 0.2128279805 2.347520768e-38
-0.11736691 0.03184992447 0.4690130949 2.347520768e-38
-0.1173560843 0.05893168971 0.4572494626 2.347520768e-38
-0.1053062975 -0.05362866446 0.2227891535 2.347520768e-38
-0.0970524177 0.03351350129 0.4787036479 2.347520768e-38
-0.1141442358 -0.06077585369 0.458311826 2.347520768e-38
-0.1099294573 -0.01609180868 0.3046345413 2.347520768e-38
-0.1054369658 -0.0485977903 0.1659571081 2.347520768e-38
-0.1140277162 -0.02223925851 0.3669856489 2.347520768e-38
-0.09595718235 -0.04272549227 0.02700948343 2.347520768e-38
0.04298608378 0.0317100957 -0.4835202098 2.347161195e-38
0.01912500523 0.07856550068 -0.485999316 2.347161195e-38
-0.1014511883 -0.009270283394 -0.4771651924 2.347161195e-38
-0.06331042945 0.08196444064 -0.4882530868 2.347161195e-38
0.06770759821 -0.02324816398 -0.480275929 2.347161195e-38
0.09533810616 0.0311942827 -0.482200861 2.347161195e-38
0.09378301352 -0.1011166424 -0.4721812904 2.347161195e-38
-0.1085113809 0.0626635775 -0.471103251 2.347161195e-38
-0.02210710198 -0.0004993527546 -0.4848294556 2.347161195e-38
-0.0321947448 0.05217553675 -0.4867812991 2.347161195e-38
-0.01444048993 -0.03565550223 -0.4808826149 2.347161195e-38
-0.09984844178 0.0167543143 -0.4785636365 2.347161195e-38
0.05296174809 0.01086298842 -0.4825792611 2.347161195e-38
0.06202531233 0.04695018381 -0.4828212261 2.347161195e-38
0.05338331684 -0.05353098735 -0.4794818163 2.347161195e-38
-0.1032768786 0.03620415181 -0.4736455977 2.347161195e-38
0.01589697786 0.03292090073 -0.4838190973 2.347161195e-38
0.03844592348 0.04152468964 -0.4830955863 2.347161195e-38
-0.07844296098 -0.02610862628 -0.4847857356 2.347161195e-38
-0.07646938413 0.009899993427 -0.4866480827 2.347161195e-38
0.04202248901 0.008248372935 -0.482650578 2.347161195e-38
0.08383759856 0.008170490153 -0.4808606207 2.347161195e-38
0.03363835439 -0.006303547416 -0.4815128148 2.347161195e-38
-0.04991714656 -0.0007989628357 -0.486038208 2.347161195e-38
-0.0308923237 -0.03361225873 -0.4830934703 2.347161195e-38
0.05150429159 0.05515738577 -0.4839883149 2.347161195e-38
0.07806514949 -0.04611513019 -0.4780479968 2.347161195e-38
-0.02673154138 0.05023412779 -0.4869543016 2.347161195e-38
-0.004482034128 -0.04493034631 -0.4806136787 2.347161195e-38
-0.05151891336 0.05441022664 -0.4881806374 2.347161195e-38
-0.07706608623 -0.001933847903 -0.4866330028 2.347161195e-38
-0.02511367016 0.03065281548 -0.4862702489 2.347161195e-38
-0.05661508441 0.1271163076 -0.1342054158 2.346801622e-38
-0.05413820967 0.1368637085 0.1174334213 2.346801622e-38
-0.09425468743 0.1429818571 -0.4124377966 2.346801622e-38
-0.06552627683 0.1454856098 -0.1003707796 2.346801622e-38
-0.06644418836 0.1174930707 -0.4450823963 2.346801622e-38
-0.04972860217 0.1377734989 -0.06336773187 2.346801622e-38
0.05682593212 0.1196458563 -0.4872683287 2.346801622e-38
-0.07688318193 0.1577229947 -0.3379240334 2.346801622e-38
-0.05871049687 0.1265971214 -0.045112703 2.346801622e-38
-0.08771619201 0.1413952708 0.2571560442 2.346801622e-38
-0.01280922163 0.1299377233 -0.4832168519 2.346801622e-38
-0.0842192173 0.1476705521 -0.1983325183 2.346801622e-38
-0.08320078999 0.1112850532 -0.3713376522 2.346801622e-38
-0.06342739612 0.1425649226 0.04265275598 2.346801622e-38
0.01671267115 0.1253003776 -0.4849496484 2.346801622e-38
-0.07689898461 0.1525649428 -0.3437976241 2.346801622e-38
-0.05492088199 0.1339697093 -0.2796816826 2.346801622e-38
-0.05975280702 0.1359542906 0.1055744588 2.346801622e-38
-0.06899305433 0.1421527565 -0.445769757 2.346801622e-38
-0.07165138423 0.1450681835 -0.2037684172 2.346801622e-38
-0.04119227082 0.1096981689 -0.45612064 2.346801622e-38
-0.05785517767 0.1369107515 -0.1549776345 2.346801622e-38
-0.04202127084 0.1377719939 -0.4550815821 2.346801622e-38
-0.06561952829 0.149035424 -0.3058975637 2.346801622e-38
-0.07991994917 0.1236729622 -0.3944448233 2.346801622e-38
-0.06551794708 0.1357793659 -0.004308007192 2.346801622e-38
0.02269265614 0.1025771126 -0.4746403098 2.346801622e-38
-0.07499153167 0.1419501901 -0.3671472371 2.346801622e-38
-0.0891501978 0.1286143064 -0.3810499907 2.346801622e-38
-0.07224137336 0.1358722299 0.1514276266 2.346801622e-38
-0.09220271558 0.1243234426 -0.400349319 2.346801622e-38
-0.06882563978 0.1384033561 -0.1287693977 2.346801622e-38
-0.07950885594 0.1266169548 0.488815546 2.346406175e-38
0.07483456284 0.1167738363 0.423848629 2.346406175e-38
0.1027784124 0.07733430713 0.393230319 2.346406175e-38
-0.08935303986 0.1290434599 0.4327054024 2.346406175e-38
0.1012634039 0.1019933149 0.4547697902 2.346406175e-38
0.01007980201 0.1216794401 0.4612439871 2.346406175e-38
0.09799175709 0.07815721631 0.427965641 2.346406175e-38
0.01790878549 0.1131761894 0.4259059131 2.346406175e-38
-0.07628681511 0.1334511936 0.4808863103 2.346406175e-38
0.07263209671 0.1256092936 0.4695152938 2.346406175e-38
0.09789892286 0.06944387406 0.4318135083 2.346406175e-38
-0.0326865539 0.1196454316 0.4362390041 2.346406175e-38
0.04888896644 0.1119777262 0.4870092273 2.346406175e-38
0.02826705202 0.1183922663 0.4580665231 2.346406175e-38
0.09523072839 0.05748283491 0.3797711432 2.346406175e-38
-0.01949895173 0.1148156226 0.4576545358 2.346406175e-38
-0.001229963615 0.1071882695 0.4898234904 2.346406175e-38
0.09344630688 0.1192167997 0.4814561009 2.346406175e-38
0.1141420603 0.08756054938 0.4504333138 2.346406175e-38
-0.09590787441 0.1299608797 0.4884432256 2.346406175e-38
0.07130096108 0.08672016859 0.474383235 2.346406175e-38
0.01335804444 0.1137515679 0.4851575792 2.346406175e-38
0.1022530943 0.08758497238 0.4692209363 2.346406175e-38
-0.06425748765 0.11896272 0.4906689227 2.346406175e-38
0.02059590444 0.1032810882 0.4907216728 2.346406175e-38
-0.02534296736 0.1172652692 0.4827417433 2.346406175e-38
0.08311183751 0.08870869875 0.4863830209 2.346406175e-38
-0.03981107846 0.1183919013 0.4832259417 2.346406175e-38
0.07644617558 0.07991514355 0.4732619226 2.346406175e-38
-0.0212388467 0.1113595217 0.4510963261 2.346406175e-38
-0.01146369521 0.09259159118 0.4939179718 2.346406175e-38
-0.003821648657 0.1155680493 0.4860961437 2.346406175e-38
-0.07051140815 0.1286256015 -0.479770124 2.346010729e-38
0.09196150303 0.104153201 -0.482943356 2.346010729e-38
0.09724319726 -0.05068295076 -0.4063287079 2.346010729e-38
0.09614768624 -0.04966726527 -0.4433964789 2.346010729e-38
0.05763564631 0.149195075 -0.4237612486 2.346010729e-38
0.02723504417 0.1271013916 -0.4827593863 2.346010729e-38
0.0929825604 0.01570456661 -0.190995872 2.346010729e-38
0.09885697812 0.09374647588 -0.4472942948 2.346010729e-38
-0.089920111 0.1390046775 -0.4560843706 2.346010729e-38
0.09987948835 0.1017975062 -0.4729999006 2.346010729e-38
0.09227273613 0.02147898823 -0.3239406943 2.346010729e-38
0.0938218087 -0.009549684823 -0.4463421702 2.346010729e-38
-0.02109974436 0.1468061209 -0.4271667302 2.346010729e-38
0.06566570699 0.1323391944 -0.4762106836 2.346010729e-38
0.09292776138 0.03487105668 -0.2948786914 2.346010729e-38
0.09956751019 0.05435983464 -0.4707830548 2.346010729e-38
-0.06768299639 0.1417519152 -0.4511418045 2.346010729e-38
0.08706732839 0.1314350665 -0.473257333 2.346010729e-38
0.09381965548 0.027008662 -0.3790777922 2.346010729e-38
0.09936732054 -0.0230458919 -0.4761828184 2.346010729e-38
0.01859536953 0.1487003416 -0.4259256721 2.346010729e-38
0.03727912903 0.1293713599 -0.4812651575 2.346010729e-38
0.09481370449 0.06228095293 -0.3816196024 2.346010729e-38
0.1020421013 0.03603308275 -0.4888366461 2.346010729e-38
-0.02246773615 0.1402465999 -0.4728575945 2.346010729e-38
0.08666072041 0.1249717698 -0.4806150496 2.346010729e-38
0.09959802032 0.1015203148 -0.4525399804 2.346010729e-38
0.09964689612 0.07322650403 -0.4874355495 2.346010729e-38
0.08064045012 0.1323344558 -0.4793438315 2.346010729e-38
0.100530237 0.1036767885 -0.4588062465 2.346010729e-38
0.001751182717 0.1431689262 -0.462945044 2.346010729e-38
0.1030229181 0.1385148019 -0.4187078178 2.346010729e-38
0.1123233289 0.1497221738 -0.02428009175 2.345615283e-38
0.06051093712 0.159422785 -0.2670406103 2.345615283e-38
-0.01711082272 0.1937467307 -0.410964191 2.345615283e-38
0.1038238257 0.1258478463 0.3562919497 2.345615283e-38
0.09401910752 0.1535180211 -0.2207862586 2.345615283e-38
0.09936743975 0.1442754716 0.1349886507 2.345615283e-38
0.02981818654 0.1640682817 -0.0498072654 2.345615283e-38
0.0007615907234 0.1695803404 -0.01726228558 2.345615283e-38
0.1091663465 0.1425049901 0.03972573951 2.345615283e-38
0.04906931892 0.1633922607 -0.2070580721 2.345615283e-38
0.02048487402 0.1714386046 -0.2787109613 2.345615283e-38
0.09478151798 0.1569907814 0.1685267836 2.345615283e-38
0.1065808758 0.1547190845 -0.1149309576 2.345615283e-38
0.09019012749 0.1588833332 0.003762327135 2.345615283e-38
0.02223567665 0.1656729579 -0.08019485325 2.345615283e-38
0.0390663445 0.1614321023 -0.01944851503 2.345615283e-38
0.1128376946 0.146667406 -0.0193721801 2.345615283e-38
0.0842262134 0.1587342024 -0.01968857087 2.345615283e-38
-0.02982902527 0.1906669736 -0.3170184791 2.345615283e-38
0.06857078522 0.1627935767 0.260989219 2.345615283e-38
0.09904143959 0.1557756513 -0.122003302 2.345615283e-38
0.09782158583 0.148143515 0.1801449656 2.345615283e-38
0.005819694605 0.1731990129 -0.1705683768 2.345615283e-38
0.05209232122 0.1616144478 0.2259105295 2.345615283e-38
0.1085676625 0.1560424268 -0.04551962763 2.345615283e-38
0.09721487015 0.1436865628 0.2715229094 2.345615283e-38
0.08660425991 0.1562468112 -0.1394161135 2.345615283e-38
0.07725775987 0.1611958146 0.03163851798 2.345615283e-38
0.09833590686 0.1597424746 0.09045642614 2.345615283e-38
0.06431154907 0.161721468 -0.04935719445 2.345615283e-38
0.1037012264 0.1513644755 0.08953851461 2.345615283e-38
0.09736789018 0.1540164202 0.1594446599 2.345615283e-38
0.04918767884 -0.1592970937 -0.1851105243 2.345219836e-38
-0.04847111925 -0.1683054268 -0.4316089451 2.345219836e-38
-0.05476669222 -0.1635336578 -0.2860817611 2.345219836e-38
0.07282034308 -0.1545529217 -0.1997588128 2.345219836e-38
0.05387661979 -0.1713546664 0.2235488892 2.345219836e-38
0.0812676996 -0.1562015861 -0.03248228505 2.345219836e-38
-0.002529015997 -0.1674230248 0.1761525571 2.345219836e-38
0.003783233929 -0.1641388237 -0.3919654489 2.345219836e-38
0.02189662121 -0.1594037116 -0.2800839245 2.345219836e-38
-0.08301790059 -0.1796191037 -0.4432343245 2.345219836e-38
0.01794683747 -0.154066056 -0.03224943206 2.345219836e-38
0.03851090372 -0.1594373733 -0.2925153971 2.345219836e-38
0.06186697632 -0.1595217586 0.01467877999 2.345219836e-38
-0.002726909472 -0.1611626595 -0.3021197617 2.345219836e-38
0.02139074728 -0.1594911367 0.02469590306 2.345219836e-38
0.03757313266 -0.1587683111 -0.3468976617 2.345219836e-38
0.04583203793 -0.1500896215 -0.07451470196 2.345219836e-38
-0.04426385835 -0.1644950062 -0.3844614625 2.345219836e-38
-0.03890351206 -0.1622869819 -0.2721276283 2.345219836e-38
0.003936422989 -0.1593816876 -0.3030593395 2.345219836e-38
0.06983346492 -0.168070063 0.1575576514 2.345219836e-38
0.07731197774 -0.1546969712 -0.04586661234 2.345219836e-38
0.007703312207 -0.1572860926 -0.1659583449 2.345219836e-38
-0.01668219082 -0.1601022184 -0.3131429553 2.345219836e-38
0.09598165751 -0.16447258 0.08491960168 2.345219836e-38
0.0560057126 -0.1565234512 -0.3464509547 2.345219836e-38
0.02652074024 -0.1576159298 0.01100507658 2.345219836e-38
-0.07966960222 -0.1612349749 -0.3621375263 2.345219836e-38
0.01398271043 -0.1567550898 -0.2181103379 2.345219836e-38
0.00954154972 -0.1598949581 -0.4320725203 2.345219836e-38
0.05379163474 -0.1541594416 -0.1810218692 2.345219836e-38
0.0146462908 -0.1605309993 -0.3700841069 2.345219836e-38
0.1137562022 0.118286185 0.4151655138 2.344788516e-38
0.09580662847 0.1385326982 -0.141142562 2.344788516e-38
0.1003114879 0.09273706377 0.2123489678 2.344788516e-38
0.1030973047 0.1072751731 0.2517570257 2.344788516e-38
0.09835986793 0.09503746033 0.2547255754 2.344788516e-38
0.0957242623 0.1148087308 0.1534385681 2.344788516e-38
0.09803617746 0.1115022376 -0.04535270855 2.344788516e-38
0.1086736023 0.1433900148 0.434489578 2.344788516e-38
0.1126498133 0.1244786605 0.4637694657 2.344788516e-38
0.09379123151 0.1353612095 -0.1609665006 2.344788516e-38
0.09622303396 0.09602122009 0.1472049057 2.344788516e-38
0.1033585593 0.1297071725 0.3420542479 2.344788516e-38
0.1064057052 0.1154026836 0.3682263792 2.344788516e-38
0.0975355804 0.1087500006 0.03966420516 2.344788516e-38
0.09710105509 0.1024821997 0.08581318706 2.344788516e-38
0.103701815 0.132161051 0.3823309243 2.344788516e-38
0.1132424101 0.1145603359 0.4088463187 2.344788516e-38
0.09840563685 0.1204739735 -0.03120009974 2.344788516e-38
0.1000911742 0.09032871574 0.09648058563 2.344788516e-38
0.09341772646 0.1183103919 0.2649296224 2.344788516e-38
0.09838671982 0.1027101278 0.2901796699 2.344788516e-38
0.09576167911 0.1007945612 0.1441813707 2.344788516e-38
0.09812883288 0.109692879 0.05393902957 2.344788516e-38
0.09345748276 0.1172939092 0.2209439576 2.344788516e-38
0.1100741401 0.110645622 0.3640480042 2.344788516e-38
0.09730454534 0.09359057993 0.2151387185 2.344788516e-38
0.09695570916 0.1147602499 0.3198817968 2.344788516e-38
0.09354409575 0.1266424656 0.2577500641 2.344788516e-38
0.1045380905 0.1227164492 0.3825225234 2.344788516e-38
0.09613761306 0.09763796628 0.1142294034 2.344788516e-38
0.1138878614 0.1218652278 0.4458058774 2.344788516e-38
0.09599609673 0.113675788 0.1816586256 2.344788516e-38
0.06720114499 -0.1495465338 0.1757242233 2.344357197e-38
-0.004925382324 -0.1508156359 0.06755931675 2.344357197e-38
0.03273410723 -0.1546905786 0.2655481696 2.344357197e-38
0.04133908078 -0.149616152 -0.06368672103 2.344357197e-38
0.08570118248 -0.1501679569 0.2831842601 2.344357197e-38
0.0612522997 -0.1502269506 0.09693127871 2.344357197e-38
0.09022030234 -0.156298548 0.4025505185 2.344357197e-38
0.004746706691 -0.1537886858 0.17281048 2.344357197e-38
0.04419609904 -0.1515797228 0.1438976228 2.344357197e-38
-0.02035273425 -0.1423102021 -0.1617572457 2.344357197e-38
0.06387349218 -0.1522513926 0.3104568422 2.344357197e-38
0.05589721352 -0.15156506 -0.08428997546 2.344357197e-38
0.07310560346 -0.1500894278 0.1366318166 2.344357197e-38
0.05704281852 -0.1524235457 -0.1180002242 2.344357197e-38
0.0633328706 -0.1544528753 0.3394315243 2.344357197e-38
0.006765053608 -0.1502646059 0.02863548696 2.344357197e-38
0.06683449447 -0.1504464895 0.0295475889 2.344357197e-38
0.03229723126 -0.1535412967 -0.2441803366 2.344357197e-38
0.0370683223 -0.1537648886 0.1928526461 2.344357197e-38
0.01602246612 -0.1512492001 0.05166676268 2.344357197e-38
0.09841898829 -0.151610896 0.1636575162 2.344357197e-38
0.06262267381 -0.1514702141 -0.07298152894 2.344357197e-38
0.05649579316 -0.1531452686 0.2782593369 2.344357197e-38
0.01812870428 -0.1525153518 0.1235738993 2.344357197e-38
0.09763022512 -0.1546705067 0.238696903 2.344357197e-38
0.02094844356 -0.1509438902 -0.09567339718 2.344357197e-38
0.09680059552 -0.156786412 0.3481890261 2.344357197e-38
0.01939122938 -0.1542198211 0.2021336704 2.344357197e-38
0.09688011557 -0.1543842554 0.2891702354 2.344357197e-38
0.01405287441 -0.151315406 -0.2298613638 2.344357197e-38
0.06159438565 -0.1506662667 0.02831873484 2.344357197e-38
0.05228561163 -0.1544974744 -0.1951135546 2.344357197e-38
0.04677559063 0.1537103206 0.4518906176 2.343925737e-38
-0.03270610422 0.1455516517 0.4374372959 2.343925737e-38
0.0751330182 0.1465356797 0.4302451313 2.343925737e-38
-0.08129962534 0.1629773676 0.3540421128 2.343925737e-38
-0.08306946605 0.1578972042 0.4357810915 2.343925737e-38
0.0324183926 0.1390295178 0.3858188987 2.343925737e-38
0.07400206476 0.1427282691 0.1851789653 2.343925737e-38
-0.08311280608 0.164954111 0.1234753802 2.343925737e-38
0.05755678192 0.1535491198 0.4443278611 2.343925737e-38
-0.07003173232 0.1469880491 0.4124741256 2.343925737e-38
0.0835179314 0.1452016979 0.3218083382 2.343925737e-38
-0.07247285545 0.1676203161 0.2730003297 2.343925737e-38
-0.06311158836 0.1634727716 0.4411433637 2.343925737e-38
0.06070207804 0.1294769496 0.3120545149 2.343925737e-38
0.07772289217 0.1439260095 0.261166513 2.343925737e-38
-0.07425846159 0.1711432934 0.1950935721 2.343925737e-38
-0.01947966777 0.1609140038 0.4293194413 2.343925737e-38
-0.006755874958 0.1446692497 0.3323732316 2.343925737e-38
0.08179701865 0.1454262435 0.349678576 2.343925737e-38
-0.06621670723 0.1669212133 0.2957413793 2.343925737e-38
-0.07507620752 0.1683852673 0.3850982189 2.343925737e-38
-0.01052126568 0.1475744694 0.3437246978 2.343925737e-38
0.07067748159 0.1445893943 0.2834774256 2.343925737e-38
-0.0356881097 0.1626754105 0.235459134 2.343925737e-38
-0.05666153878 0.1625193805 0.4039812386 2.343925737e-38
-0.06561145186 0.166235745 0.3268513978 2.343925737e-38
0.06208183244 0.1485289633 0.3712826073 2.343925737e-38
-0.02445460111 0.152845934 0.2274497151 2.343925737e-38
0.06431248784 0.1470718533 0.4380653501 2.343925737e-38
-0.06711184233 0.1684275419 0.268609941 2.343925737e-38
0.06169407442 0.145819962 0.278532207 2.343925737e-38
-0.01739149541 0.1565847844 0.301153928 2.343925737e-38
0.1043708101 -0.03557701409 0.06112303957 2.343458544e-38
0.1026094109 -0.00995101314 -0.1383650005 2.343458544e-38
0.1067532897 -0.07512260973 -0.009060798213 2.343458544e-38
0.1049913093 0.004434351809 0.2716619968 2.343458544e-38
0.1083739549 -0.06397216022 0.01042802073 2.343458544e-38
0.09735819697 0.01028309669 -0.01909583434 2.343458544e-38
0.1067647561 -0.07899663597 -0.08067391068 2.343458544e-38
0.09965462238 -0.009961562231 0.06777393073 2.343458544e-38
0.1022715569 -0.01727203652 0.09200496972 2.343458544e-38
0.1082811356 -0.06074813008 -0.2550658584 2.343458544e-38
0.1058814749 -0.1024151146 0.03802284226 2.343458544e-38
0.1048082337 -0.008769794367 0.2303481847 2.343458544e-38
0.1021146476 -0.03324031085 0.054777015 2.343458544e-38
0.1027129889 0.01039530523 -0.1891927868 2.343458544e-38
0.1072737649 -0.06549023092 -0.1140984669 2.343458544e-38
0.09702333063 0.0109048374 0.05137561634 2.343458544e-38
0.09755270928 -0.001775043085 0.04831296951 2.343458544e-38
0.1060534343 -0.04752583057 -0.3839343786 2.343458544e-38
0.1063427702 -0.08469100296 0.02773486078 2.343458544e-38
0.1049959511 -0.001979341032 0.2556546032 2.343458544e-38
0.1034048051 -0.04354301468 0.0118742818 2.343458544e-38
0.1007647142 0.01349967998 -0.187928319 2.343458544e-38
0.105292052 -0.04952261597 -0.108941637 2.343458544e-38
0.1000262201 0.00611072639 -0.1191553622 2.343458544e-38
0.1040086597 -0.04113488272 0.04988880083 2.343458544e-38
0.09904225916 0.004284150898 -0.09181262553 2.343458544e-38
0.1082039773 -0.03819984943 -0.2798157334 2.343458544e-38
0.09848071635 0.01831855997 -0.1188558936 2.343458544e-38
0.1049444452 -0.05376540124 -0.08221698552 2.343458544e-38
0.1051674113 -0.02830580063 0.1332010329 2.343458544e-38
0.1026687101 -0.02009518631 0.09217814356 2.343458544e-38
0.1005423665 0.00569553487 -0.1295561194 2.343458544e-38
-0.0740340054 -0.131414488 -0.1641553193 2.343027224e-38
-0.05842456594 -0.1319587678 -0.3581866622 2.343027224e-38
-0.03974240273 -0.1386772692 -0.06980540603 2.343027224e-38
0.05448635295 -0.1381374151 -0.410076052 2.343027224e-38
-0.05580642074 -0.1334876567 -0.3349432945 2.343027224e-38
-0.03416560963 -0.1306565255 -0.4246098995 2.343027224e-38
-0.04088313133 -0.1409330368 0.1770301759 2.343027224e-38
-0.05062550306 -0.1348361075 -0.3600330353 2.343027224e-38
-0.06653044373 -0.1352565736 -0.06280849129 2.343027224e-38
-0.07407334447 -0.1326953173 -0.2789197266 2.343027224e-38
-0.01685579307 -0.1407775879 0.1032734811 2.343027224e-38
0.04159741476 -0.1404463947 -0.3364949524 2.343027224e-38
-0.06076860428 -0.1342281848 -0.2138452381 2.343027224e-38
-0.02606925368 -0.1335006207 -0.3771873415 2.343027224e-38
-0.03333956003 -0.1405992359 0.1656368077 2.343027224e-38
-0.01135591883 -0.1386375725 -0.3140331805 2.343027224e-38
-0.05159811303 -0.1392036378 -0.05429464951 2.343027224e-38
-0.07671637833 -0.1340353787 -0.2928248048 2.343027224e-38
-0.0407435149 -0.139552474 -0.006703598425 2.343027224e-38
0.05441249534 -0.1437187791 -0.3152010739 2.343027224e-38
-0.05500663444 -0.135060221 -0.2553187907 2.343027224e-38
-0.06071610749 -0.1329505444 -0.3592705727 2.343027224e-38
-0.06180312112 -0.1354562491 -0.08629339188 2.343027224e-38
0.0206236504 -0.1413645893 -0.2670568824 2.343027224e-38
-0.04803888127 -0.136707902 -0.1441578716 2.343027224e-38
-0.0365630649 -0.131374374 -0.4079385102 2.343027224e-38
-0.07658903301 -0.1324318498 -0.2502750754 2.343027224e-38
-0.01863593236 -0.1409816891 -0.07100040466 2.343027224e-38
-0.07578569651 -0.1359933019 0.03047484718 2.343027224e-38
0.03642524034 -0.1374088675 -0.4049271345 2.343027224e-38
-0.0742520839 -0.134108007 -0.05728175119 2.343027224e-38
-0.06752490997 -0.1341019422 -0.3174089491 2.343027224e-38
-0.1210473478 -0.05396578833 0.043479193 2.342559891e-38
-0.1030006334 -0.03241081536 0.1308966279 2.342559891e-38
-0.1000507474 -0.02788425982 0.2322430164 2.342559891e-38
-0.1016359925 -0.1476840973 -0.4013988078 2.342559891e-38
-0.1080169156 -0.03881522268 -0.1765688062 2.342559891e-38
-0.1273326129 -0.03266427666 -0.03197998554 2.342559891e-38
-0.1006622314 -0.04181199148 0.3495407999 2.342559891e-38
-0.1088910326 -0.04221109673 -0.2509128451 2.342559891e-38
-0.1221571639 -0.04438546672 -0.03555033728 2.342559891e-38
-0.1004279554 -0.03193875775 0.1614348292 2.342559891e-38
-0.09799267352 -0.04460723326 0.2755052745 2.342559891e-38
-0.1084454954 -0.07930830866 -0.3261807859 2.342559891e-38
-0.1093883365 -0.03560763225 -0.1431312859 2.342559891e-38
-0.112873584 -0.03527182713 0.07848343998 2.342559891e-38
-0.09724842757 -0.05085276067 0.3139365017 2.342559891e-38
-0.1122097969 -0.05440044031 -0.2661136687 2.342559891e-38
-0.1124595776 -0.03603509068 -0.101944305 2.342559891e-38
-0.1078756824 -0.03805917874 0.1045540944 2.342559891e-38
-0.09909347445 -0.04185744748 0.2138040364 2.342559891e-38
-0.104366079 -0.1248036772 -0.3696399629 2.342559891e-38
-0.1065769196 -0.04575339705 -0.1992709935 2.342559891e-38
-0.1221649051 -0.03999739513 0.01725217141 2.342559891e-38
-0.1016103029 -0.04387838393 0.1597189009 2.342559891e-38
-0.1084812507 -0.08878305554 -0.3117914498 2.342559891e-38
-0.1060141847 -0.04790007323 -0.1354671568 2.342559891e-38
-0.1152539402 -0.05540052056 -0.04673982412 2.342559891e-38
-0.1013312563 -0.07070435584 0.173533693 2.342559891e-38
-0.1087157056 -0.0776354298 -0.2303117216 2.342559891e-38
-0.09985543787 -0.04910238832 0.2466504127 2.342559891e-38
-0.1065713242 -0.05076005682 -0.209997654 2.342559891e-38
-0.1211176515 -0.03673512489 -0.06129213423 2.342559891e-38
-0.1171821877 -0.08179923892 0.04273413494 2.342559891e-38
0.07110797614 0.08348867297 -0.4884979427 2.342128572e-38
-0.0711068809 -0.09813395143 -0.4774231315 2.342128572e-38
0.06791806221 -0.1414476484 -0.4764998853 2.342128572e-38
0.05009850487 -0.1399915069 -0.4766719937 2.342128572e-38
0.02755070291 -0.01240434218 -0.4790465534 2.342128572e-38
0.01170840487 0.002270400291 -0.4787668586 2.342128572e-38
0.1073117927 -0.002184847603 -0.4841807485 2.342128572e-38
-0.01398221031 -0.1443745047 -0.4785573781 2.342128572e-38
0.0763387084 0.121464774 -0.4819165766 2.342128572e-38
-0.06911657751 -0.1288555562 -0.4779319465 2.342128572e-38
0.06955411285 -0.03140797094 -0.479136616 2.342128572e-38
0.02920089476 -0.1373988688 -0.4771278203 2.342128572e-38
0.0390743427 0.04126220196 -0.4806075096 2.342128572e-38
-0.02405540459 -0.04858115315 -0.4785900116 2.342128572e-38
0.09427738935 -0.002904466586 -0.4813817143 2.342128572e-38
0.006830714643 -0.1107954457 -0.4778984189 2.342128572e-38
0.07808008045 0.04166063294 -0.4847624302 2.342128572e-38
