# .PCD v0.7 - Point Cloud Data file format
VERSION 0.7
FIELDS x y z rgb
SIZE 4 4 4 4
TYPE F F F F
COUNT 1 1 1 1
WIDTH 809
HEIGHT 1
VIEWPOINT 0 0 0 1 0 0 0
POINTS 809
DATA ascii
0.1112216637 -0.05049493164 -0.01817800291 1.093308476e-38
0.3160656393 -0.01798145287 -0.01810538396 1.093308476e-38
0.1766032279 -0.04096391425 -0.01792650111 1.093308476e-38
0.190025419 -0.04084919021 -0.01511858683 1.093308476e-38
0.07557801157 -0.05379938707 -0.019331282 1.093308476e-38
0.3117772341 -0.01555886492 -0.02024992183 1.093308476e-38
0.1543569416 -0.04281146452 -0.01899557002 1.093308476e-38
0.2856023312 -0.01751839742 -0.02152321301 1.093308476e-38
-0.09361275285 -0.06038347259 -0.01897663064 1.093308476e-38
0.327791661 -0.01306916866 -0.01915897615 1.093308476e-38
0.06049723551 -0.05580165982 -0.01903636195 1.093308476e-38
0.2082806975 -0.0432402119 -0.01074730232 1.093308476e-38
0.1620740145 -0.04504996911 -0.01612211391 1.093308476e-38
0.3736932874 -0.009777084924 -0.0115613183 1.093308476e-38
-0.07386520505 -0.05210907757 0.05511439219 1.020306431e-38
-0.04928419366 -0.05055824295 -0.1872891784 1.020306431e-38
0.008904316463 -0.03897449374 -0.06816143543 1.020306431e-38
-0.03158196807 -0.04895201698 -0.1365344822 1.020306431e-38
-0.05222291872 -0.05268089846 0.06838169694 1.020306431e-38
-0.01547438279 -0.05232287943 -0.1650903076 1.020306431e-38
0.05665216967 -0.05017594248 -0.04809235409 1.020306431e-38
-0.1060201004 -0.04496787488 -0.1399780512 1.020306431e-38
-0.05932521075 -0.04419048876 -0.04340725392 1.020306431e-38
-0.02785302699 -0.05102721974 -0.1979673207 1.020306431e-38
0.02448253147 -0.04481395707 -0.0688399598 1.020306431e-38
-0.1292147785 -0.04126844555 -0.1287914068 1.020306431e-38
-0.005468841176 -0.03742593899 -0.07689959556 1.020306431e-38
-0.04281885922 -0.0397497043 -0.07893837988 1.020306431e-38
0.02855218574 -0.04691117257 -0.04384874552 1.020306431e-38
-0.1240873486 -0.04016389698 -0.1054018512 1.020306431e-38
-0.005608602427 -0.03707427159 -0.05112143978 1.020306431e-38
-0.08459810168 -0.04752338305 -0.01377561688 1.020306431e-38
0.0009006650653 -0.04391329736 -0.001434176229 1.020306431e-38
-0.09897586703 -0.04181028157 -0.09827824682 1.020306431e-38
-0.0447864756 -0.04811004922 0.0134471748 1.020306431e-38
-0.08786235005 -0.04825877026 -0.001903039869 1.020306431e-38
0.02030294202 -0.0439084135 -0.04443774 1.020306431e-38
-0.1541446596 -0.03962552547 -0.1005955637 1.020306431e-38
-0.04567563161 -0.03945733234 -0.06830905378 1.020306431e-38
-0.06719539315 -0.04865803197 -0.001292451518 1.020306431e-38
0.03103083931 -0.04732375965 -0.04468769953 1.020306431e-38
-0.1388067901 -0.0403781943 -0.07725612074 1.020306431e-38
-0.007126559038 -0.03718320653 -0.07310356945 1.020306431e-38
-0.108795464 -0.04655065015 -0.007202754263 1.020306431e-38
-0.01066287607 -0.03903486952 -0.03676891327 1.020306431e-38
-0.0880073905 -0.0419969596 -0.0989986062 1.020306431e-38
0.02553180605 -0.0571173057 -0.03677319363 9.472685133e-39
-0.1830252856 -0.05614152923 -0.02566985227 9.472685133e-39
-0.1303187162 -0.05567961931 -0.03206650168 9.472685133e-39
-0.2711584866 -0.05051836744 -0.02141600475 9.472685133e-39
0.006720501464 -0.05641127005 -0.03645767644 9.472685133e-39
-0.1635643244 -0.05579948053 -0.02892762795 9.472685133e-39
-0.05516343936 -0.05417796969 -0.03490385786 9.472685133e-39
-0.3190019131 -0.04600948468 -0.01727402024 9.472685133e-39
0.09511378407 -0.05789160728 -0.03792788833 9.472685133e-39
-0.2106514424 -0.05423956364 -0.0248032622 9.472685133e-39
-0.06449958682 -0.05620853603 -0.0339932479 9.472685133e-39
-0.3140743077 -0.04659779742 -0.01750461385 9.472685133e-39
0.0846516937 -0.05889093503 -0.03755920008 9.472685133e-39
-0.220873937 -0.05362138525 -0.02351311408 9.472685133e-39
-0.08565419167 -0.05679572374 -0.03316512704 9.472685133e-39
-0.3304136395 -0.04326102138 -0.01565685309 9.472685133e-39
0.07852480561 -0.05908941105 -0.03741784766 9.472685133e-39
-0.2318941355 -0.05235277116 -0.02347008511 9.472685133e-39
-0.0891662389 -0.05595429614 -0.03334961832 9.472685133e-39
-0.287065953 -0.04822777212 -0.01930042356 9.472685133e-39
0.03339745477 -0.05953972042 -0.03646453097 9.472685133e-39
-0.1997503042 -0.05457134172 -0.02486305311 9.472685133e-39
-0.06543622166 -0.05592292547 -0.03404804319 9.472685133e-39
-0.3160492182 -0.04555055872 -0.01701475307 9.472685133e-39
0.1146456301 -0.06007643417 -0.03764630482 9.472685133e-39
-0.2306857556 -0.05257211998 -0.02302281559 9.472685133e-39
-0.07758033276 -0.05624995008 -0.03359361365 9.472685133e-39
-0.3281337917 -0.04327724874 -0.01581567898 9.472685133e-39
0.1009718478 -0.06048263982 -0.03757876903 9.472685133e-39
-0.2305682749 -0.05226806551 -0.02379067615 9.472685133e-39
-0.1468830407 -0.05513103679 -0.03146545216 9.472685133e-39
-0.2862379849 -0.04943589866 -0.0204779692 9.472685133e-39
-0.02380242571 -0.05047712475 0.0804881379 8.742304551e-39
-0.1021691039 -0.05085559562 0.1692007929 8.742304551e-39
0.02304586954 -0.04237570614 0.1053138822 8.742304551e-39
-0.03486072272 -0.04901121184 0.1185874417 8.742304551e-39
0.02315638401 -0.04626009986 0.0853023082 8.742304551e-39
-0.07549444586 -0.05085651577 0.1543148607 8.742304551e-39
-0.005006688647 -0.04316362739 0.1054227427 8.742304551e-39
-0.08439321071 -0.05087504163 0.1639418751 8.742304551e-39
-0.009934284724 -0.0452202633 0.09254340082 8.742304551e-39
-0.1038049012 -0.05136542395 0.15095824 8.742304551e-39
-0.03733373806 -0.04971573129 0.1526363939 8.742304551e-39
-0.0798170343 -0.05079384148 0.1645070165 8.742304551e-39
0.01646248437 -0.04512751475 0.09145063907 8.742304551e-39
-0.1032726392 -0.05214943364 0.1588216275 8.742304551e-39
-0.01286188327 -0.0473360233 0.1205980852 8.742304551e-39
-0.06650472432 -0.05116973445 0.1512084752 8.742304551e-39
0.04967037216 -0.04323862121 0.09726829082 8.742304551e-39
-0.1006278619 -0.05128886178 0.1752166301 8.742304551e-39
-0.009210430086 -0.04399229959 0.1037916914 8.742304551e-39
-0.04938134179 -0.05104805529 0.1346210837 8.742304551e-39
0.03991507739 -0.04395021126 0.09558719397 8.742304551e-39
-0.1022784114 -0.04979226738 0.1847731173 8.742304551e-39
-0.02240459435 -0.04867943376 0.12485791 8.742304551e-39
-0.07474526763 -0.0512702316 0.1565892994 8.742304551e-39
-0.01303543057 -0.04502727836 0.09750241786 8.742304551e-39
-0.1081974506 -0.05271329731 0.1397635937 8.742304551e-39
-0.01286991406 -0.04626467824 0.1150409952 8.742304551e-39
-0.08041230589 -0.05126264319 0.1612303406 8.742304551e-39
-0.0003396421671 -0.04373722896 0.09755328298 8.742304551e-39
-0.1021304056 -0.05094096437 0.1565116942 8.742304551e-39
-0.004558702931 -0.04330752045 0.1005023345 8.742304551e-39
-0.03091274761 -0.04819472134 0.1125335917 8.742304551e-39
-0.294016093 0.01649523713 0.01146554574 8.012284103e-39
-0.1702066809 0.0003734458878 0.0226549115 8.012284103e-39
-0.2532165349 0.02049329318 0.01238194201 8.012284103e-39
-0.1596621722 0.01115584932 0.01772814058 8.012284103e-39
-0.2722397745 -0.003699133638 0.0242912136 8.012284103e-39
-0.1311870515 0.009123519063 0.01822346635 8.012284103e-39
-0.2406230867 0.01224825624 0.01700226218 8.012284103e-39
-0.1043430939 0.006108407862 0.01957416907 8.012284103e-39
-0.2851394713 0.02588197403 0.005737510044 8.012284103e-39
-0.1553068906 -0.007674801629 0.02746835537 8.012284103e-39
-0.2028444409 0.005463345442 0.02041150257 8.012284103e-39
-0.2051612288 -0.01028165687 0.02906156518 8.012284103e-39
-0.3272145092 0.0142455129 0.007880427875 8.012284103e-39
-0.08931420743 -0.02066469379 0.04166225716 8.012284103e-39
-0.3003098071 0.01248281635 0.01311159972 8.012284103e-39
-0.2311401069 -0.01067679189 0.02947713807 8.012284103e-39
-0.3364951611 0.0157065317 0.0092183128 8.012284103e-39
-0.2005399466 -0.01456119772 0.03536531702 8.012284103e-39
-0.3074274957 0.01268720161 0.01252341364 8.012284103e-39
-0.2796089351 -0.01021884754 0.02669977397 8.012284103e-39
-0.329697758 0.01377581339 0.01091946475 8.012284103e-39
-0.2767624259 -0.009807758033 0.02682315744 8.012284103e-39
-0.2977908552 0.008936648257 0.01509436313 8.012284103e-39
-0.2751497626 -0.009290699847 0.02666394785 8.012284103e-39
-0.3571417332 -0.002088735113 0.009866029024 8.012284103e-39
-0.251899451 -0.01026601251 0.03064224124 8.012284103e-39
-0.3159282207 0.01046747807 0.01323248725 8.012284103e-39
-0.2780293226 -0.008301126771 0.02592720091 8.012284103e-39
-0.346026659 0.01072279178 0.00827221293 8.012284103e-39
-0.2133138627 -0.01450105384 0.03437267244 8.012284103e-39
-0.3189906478 0.01667317003 0.01018003188 8.012284103e-39
-0.2952398658 0.003028904786 0.01803297922 8.012284103e-39
-0.3718450367 0.08500877023 0.0002598208375 7.281903522e-39
-0.343554318 0.09784997255 0.0002860107925 7.281903522e-39
-0.4023654759 0.1050622389 0.001326209051 7.281903522e-39
-0.3370216787 0.1013115495 0.0004256695684 7.281903522e-39
-0.3528369367 0.07798266411 0.000115091214 7.281903522e-39
-0.3130561709 0.07673756778 -0.0001932638697 7.281903522e-39
-0.3814946115 0.0826234296 0.0003153458238 7.281903522e-39
-0.3034672141 0.08411599696 -2.568610944e-05 7.281903522e-39
-0.3348333538 0.05607847124 -0.0003035021946 7.281903522e-39
-0.2568104565 0.03520929813 -0.001350457198 7.281903522e-39
-0.3794361651 0.07093517482 0.0002671282273 7.281903522e-39
-0.3118787706 0.08323293179 -3.636907786e-05 7.281903522e-39
-0.3349297345 0.05978472158 -0.0002674767748 7.281903522e-39
-0.2565731406 0.03161432967 -0.001376186847 7.281903522e-39
-0.3938457966 0.1024641395 0.0008628668729 7.281903522e-39
-0.2985266149 0.07600458711 -0.0002228233498 7.281903522e-39
-0.3379904032 0.07169613987 -6.9453381e-05 7.281903522e-39
-0.2983276844 0.0560108833 -0.0006015170948 7.281903522e-39
-0.3994669318 0.1049694717 0.01301736198 7.281903522e-39
-0.3282711804 0.09554894269 0.0002063368447 7.281903522e-39
-0.3560324907 0.09028603137 0.0002101256978 7.281903522e-39
-0.333615303 0.09056673199 0.0001218242105 7.281903522e-39
-0.3918760717 0.1033168137 0.0009704196709 7.281903522e-39
-0.3075353503 0.08342982084 -3.800634295e-05 7.281903522e-39
-0.3476312757 0.07825651765 7.674540393e-05 7.281903522e-39
-0.3073999882 0.06609401852 -0.0003952276602 7.281903522e-39
-0.3927071393 0.1035767198 0.001003445708 7.281903522e-39
-0.3137259781 0.08260736614 -4.499987699e-05 7.281903522e-39
-0.3402694166 0.07327819616 -3.309221938e-05 7.281903522e-39
-0.3204806447 0.06768344343 -0.0002755410969 7.281903522e-39
-0.4014286101 0.1044197157 0.001214934397 7.281903522e-39
-0.3324888945 0.09620598704 0.0002219590824 7.281903522e-39
0.03409197181 0.004698145203 -0.02508730441 6.55152294e-39
-0.06566604972 0.003748354735 -0.0225750953 6.55152294e-39
0.03624122962 0.003632253734 -0.02571977302 6.55152294e-39
-0.25799492 -0.006516356952 -0.02284033038 6.55152294e-39
0.02150375955 0.008626634255 -0.02139593475 6.55152294e-39
-0.01316446345 0.0002336427569 -0.02577370033 6.55152294e-39
0.06617414951 0.003328564344 -0.02771491744 6.55152294e-39
-0.2258719355 -0.003891165368 -0.02193881571 6.55152294e-39
-0.06999817491 0.006447516382 -0.01862775721 6.55152294e-39
-0.1347622424 0.001214272692 -0.02148881927 6.55152294e-39
0.1431767195 0.002870037686 -0.02672650293 6.55152294e-39
-0.2456811517 -0.005036028568 -0.02221225575 6.55152294e-39
-0.008738668635 0.007013600785 -0.01948845945 6.55152294e-39
-0.1131412834 0.002496624831 -0.02119562961 6.55152294e-39
0.1288583875 0.002115149517 -0.02658022009 6.55152294e-39
-0.2207207531 -0.00212404551 -0.02060784586 6.55152294e-39
-0.01752288826 0.005442081485 -0.02069865726 6.55152294e-39
-0.09638027847 0.00377428974 -0.020811975 6.55152294e-39
0.02139473706 0.002428333042 -0.02542529069 6.55152294e-39
-0.2175933421 -0.001279941993 -0.0200713668 6.55152294e-39
-0.0005392841413 0.004385421053 -0.02216437645 6.55152294e-39
-0.06507277489 0.00477499608 -0.02151921019 6.55152294e-39
0.07327371836 0.000108525157 -0.02771923132 6.55152294e-39
-0.2378589362 -0.00286239339 -0.02049673162 6.55152294e-39
-0.05298450589 0.005947944243 -0.02003092505 6.55152294e-39
-0.1396559179 0.002012324519 -0.02055230364 6.55152294e-39
0.1274362952 0.001877775067 -0.02624684572 6.55152294e-39
-0.2100090981 -0.0005271359696 -0.01981853135 6.55152294e-39
0.0171373412 0.003753838129 -0.02387843095 6.55152294e-39
-0.07621359825 0.004553196952 -0.02107765898 6.55152294e-39
0.04607903212 0.002367804991 -0.02691839635 6.55152294e-39
-0.1700556129 0.001370906015 -0.01958950609 6.55152294e-39
-0.3205145001 -0.02106986567 -0.0587092787 5.820783626e-39
-0.3331154585 -0.01500095241 0.0344752036 5.820783626e-39
-0.3373884261 -0.01979125664 -0.04534044117 5.820783626e-39
-0.3573664427 -0.01533144526 0.01291262824 5.820783626e-39
-0.306753248 -0.02301994339 -0.07890853286 5.820783626e-39
-0.3302743435 -0.01527804136 0.03309469298 5.820783626e-39
-0.3121592402 -0.01303589437 0.07258789986 5.820783626e-39
-0.3595422208 -0.007935807109 0.1064025909 5.820783626e-39
-0.3167004585 -0.01648119837 -0.01051629521 5.820783626e-39
-0.3418195844 -0.008975060657 0.09577269107 5.820783626e-39
-0.2998610139 -0.01656804606 0.06799805909 5.820783626e-39
-0.3562039137 -0.01294366457 0.1140232459 5.820783626e-39
-0.3121596277 -0.02214523405 -0.04352974519 5.820783626e-39
-0.3620139062 -0.004848858342 0.0906496495 5.820783626e-39
-0.308988601 -0.02381928079 0.02085946314 5.820783626e-39
-0.3540799618 -0.01286315266 0.1039446294 5.820783626e-39
-0.3045529127 -0.02328277193 -0.05656022951 5.820783626e-39
-0.3477766812 -0.008248160593 0.08229923248 5.820783626e-39
-0.3166275024 -0.02365985326 -0.005273581948 5.820783626e-39
-0.3519124091 -0.01566153578 0.05917441472 5.820783626e-39
-0.2993210554 -0.02413510531 -0.08901453763 5.820783626e-39
-0.3334719837 -0.01632807963 0.02133244649 5.820783626e-39
-0.3041675091 -0.02292414755 0.03770479932 5.820783626e-39
-0.3563669026 -0.01239293627 0.09246195108 5.820783626e-39
-0.3050051928 -0.02406031638 -0.07242072374 5.820783626e-39
-0.3373581171 -0.01185281016 0.06699236482 5.820783626e-39
-0.3083897531 -0.02369575575 0.02007192187 5.820783626e-39
-0.3614379764 -0.01075690798 0.1008968875 5.820783626e-39
-0.3047569394 -0.02364147268 -0.07207965106 5.820783626e-39
-0.3334313333 -0.01238311734 0.05927333608 5.820783626e-39
-0.3378072381 -0.01715398021 -0.008308763616 5.820783626e-39
-0.3464718759 -0.01821896434 0.01810872741 5.820783626e-39
0.405811727 -0.04707912728 -0.01092512626 5.090401643e-39
0.1724515557 -0.06410659105 0.01498197019 5.090401643e-39
0.3108099401 -0.06373271346 0.009675404057 5.090401643e-39
0.1564174891 -0.06403048337 0.01621539518 5.090401643e-39
0.409211427 -0.0470645763 -0.008467262611 5.090401643e-39
0.2326242775 -0.06340955198 0.01274158433 5.090401643e-39
0.3396976888 -0.06603713334 0.008624946699 5.090401643e-39
0.169547677 -0.0629478097 0.01671045832 5.090401643e-39
0.3210915625 -0.058609467 -0.02261967212 5.090401643e-39
0.1558627188 -0.06337100267 0.01700780354 5.090401643e-39
0.3445615768 -0.06673081964 0.008245359175 5.090401643e-39
0.1794220805 -0.06518896669 0.01333532389 5.090401643e-39
0.348112911 -0.05632825941 -0.02025445364 5.090401643e-39
0.2240935117 -0.06406525522 0.01218658499 5.090401643e-39
0.3754701614 -0.05918603763 0.005260301754 5.090401643e-39
0.2368046194 -0.06648597121 0.007234901655 5.090401643e-39
0.3578821123 -0.0541940406 -0.01917872764 5.090401643e-39
0.2894872129 -0.06409420073 0.008885835297 5.090401643e-39
0.3493278027 -0.06685365736 0.008475903422 5.090401643e-39
0.2246790379 -0.06643874198 0.007832121104 5.090401643e-39
0.3774998188 -0.05286324024 -0.01679435186 5.090401643e-39
0.3032155931 -0.0641169399 0.009019100107 5.090401643e-39
0.3879353106 -0.05588594452 0.001801712322 5.090401643e-39
0.2564475536 -0.06567773968 0.007674265653 5.090401643e-39
0.3318172395 -0.05882762 -0.02148624137 5.090401643e-39
0.2806670964 -0.0644543767 0.00849331636 5.090401643e-39
0.3833497763 -0.05651905015 0.003767096205 5.090401643e-39
0.2157947123 -0.06701945513 0.008699186146 5.090401643e-39
0.3189475536 -0.05903688818 -0.02252955362 5.090401643e-39
0.3067307174 -0.06405556947 0.008721371181 5.090401643e-39
0.3442655802 -0.06619562954 0.008923659101 5.090401643e-39
0.2099357843 -0.06670575589 0.009477055632 5.090401643e-39
0.156756714 -0.03998819366 0.03420116007 4.359662329e-39
0.379502207 -0.04638331383 0.01473814808 4.359662329e-39
0.3160583377 -0.05045023933 0.02056387626 4.359662329e-39
0.4293007553 -0.03029521741 0.003947066143 4.359662329e-39
0.1688763946 -0.0429193303 0.03225150704 4.359662329e-39
0.3344337344 -0.0481647253 0.01986920834 4.359662329e-39
0.218018949 -0.04483865947 0.02911655605 4.359662329e-39
0.3753784597 -0.0104441829 -0.01130505931 4.359662329e-39
0.07020819932 -0.03910944611 0.03648896143 4.359662329e-39
0.4095341563 -0.04095295817 0.01027607545 4.359662329e-39
0.2395499796 -0.04170769826 0.02878183685 4.359662329e-39
0.3848895729 -0.01158006489 -0.008289802819 4.359662329e-39
0.1543548256 -0.04883663729 0.03122715652 4.359662329e-39
0.406059444 -0.04086975008 0.01137750689 4.359662329e-39
0.3134062886 -0.04601189122 0.02237347327 4.359662329e-39
0.4154370129 -0.02146581747 0.002058555372 4.359662329e-39
0.2007764578 -0.05227809772 0.02772693336 4.359662329e-39
0.3881887794 -0.04534951225 0.01375815645 4.359662329e-39
0.3176283538 -0.0483779721 0.0213351734 4.359662329e-39
0.431878984 -0.02969668247 0.004442163277 4.359662329e-39
0.2501957417 -0.04951064289 0.02544219792 4.359662329e-39
0.3793069422 -0.04581723735 0.01523542218 4.359662329e-39
0.2797582448 -0.04972429201 0.02353617176 4.359662329e-39
0.4026561975 -0.01705694944 -0.003320883028 4.359662329e-39
0.2123328596 -0.04939197376 0.02792028897 4.359662329e-39
0.4097930491 -0.04029246047 0.01052064355 4.359662329e-39
0.3198082149 -0.04892953858 0.02095317282 4.359662329e-39
0.4017419815 -0.01611851156 -0.00277411961 4.359662329e-39
0.2195162624 -0.04940710589 0.02744698152 4.359662329e-39
0.3944953382 -0.04465137422 0.01271339506 4.359662329e-39
0.3144683242 -0.04948161542 0.02115167305 4.359662329e-39
0.4331792593 -0.02895883471 0.004992451053 4.359662329e-39
-0.1997515261 -0.02927532792 0.08073648065 3.628921614e-39
-0.2782280743 -0.03002516367 0.08221363276 3.628921614e-39
-0.2328817397 -0.03001946956 0.08290500939 3.628921614e-39
-0.1843696982 -0.06053842232 0.0319817625 3.628921614e-39
-0.1593310833 -0.05029381067 0.0359098129 3.628921614e-39
-0.3028576374 -0.04719692096 0.04031451046 3.628921614e-39
-0.1626669765 -0.04989370331 0.03952119127 3.628921614e-39
-0.2512224019 -0.0309420526 0.0850668177 3.628921614e-39
-0.1753748953 -0.03520303965 0.07036849856 3.628921614e-39
-0.2744706273 -0.03072386049 0.08122843504 3.628921614e-39
-0.1598932743 -0.04807157069 0.04739754274 3.628921614e-39
-0.2476077974 -0.03348152712 0.0765080899 3.628921614e-39
-0.1286346167 -0.04767296091 0.0568642579 3.628921614e-39
-0.2658492029 -0.02997200005 0.09084182233 3.628921614e-39
-0.1998782903 -0.03643615544 0.07056090981 3.628921614e-39
-0.2225867957 -0.03464229405 0.07830554992 3.628921614e-39
-0.1606105119 -0.04252789915 0.06082623079 3.628921614e-39
-0.2888254225 -0.0291414652 0.08230307698 3.628921614e-39
-0.2334523797 -0.03275011107 0.0827658698 3.628921614e-39
-0.2256182581 -0.03334099799 0.08269948512 3.628921614e-39
-0.178548187 -0.04749974981 0.04686847329 3.628921614e-39
-0.30420807 -0.03062989376 0.07687419653 3.628921614e-39
-0.2380595952 -0.04183527827 0.05181527883 3.628921614e-39
-0.2496070713 -0.04085085914 0.05313570797 3.628921614e-39
-0.1929628998 -0.02993369475 0.08827979863 3.628921614e-39
-0.280126363 -0.02807644196 0.09471300989 3.628921614e-39
-0.2046644837 -0.04337786138 0.05304775387 3.628921614e-39
-0.239337787 -0.03576277941 0.07079038769 3.628921614e-39
-0.1028167158 -0.04512246326 0.07125084847 3.628921614e-39
-0.2803996801 -0.02932276949 0.08395624161 3.628921614e-39
-0.2273315042 -0.03569704294 0.06942614168 3.628921614e-39
-0.1991479993 -0.04620391503 0.04666315392 3.628921614e-39
0.1422334909 -0.06746958196 -0.0002190833911 2.898180898e-39
0.2655091882 -0.06354239583 -0.001093032304 2.898180898e-39
0.05148626491 -0.06949241459 -0.001584083424 2.898180898e-39
0.08545804769 -0.06847172976 -0.00112217525 2.898180898e-39
0.1275711358 -0.06785480678 -0.0003875791735 2.898180898e-39
0.2115017027 -0.06452210993 -0.0005666547804 2.898180898e-39
0.1427118033 -0.06751731038 -0.0002079829574 2.898180898e-39
0.1654808521 -0.06686463207 -0.0001287152991 2.898180898e-39
0.2297742516 -0.06386765093 -0.0007239541737 2.898180898e-39
0.2958612144 -0.06382615864 -0.001490943949 2.898180898e-39
0.1585096866 -0.0672570616 -4.534889013e-05 2.898180898e-39
0.1355345249 -0.06769750267 -0.0003184610978 2.898180898e-39
0.2769883871 -0.06310418993 -0.001162023749 2.898180898e-39
0.2617790699 -0.0635972172 -0.001023983234 2.898180898e-39
0.1695239991 -0.06645861268 -0.0001200791448 2.898180898e-39
0.02254509367 -0.07198206335 -0.00181231543 2.898180898e-39
0.2702213526 -0.06305190176 -0.001112250146 2.898180898e-39
0.2361845374 -0.06377176195 -0.0007619092357 2.898180898e-39
0.1739346236 -0.06608483195 -0.0001023774967 2.898180898e-39
0.04455657303 -0.07116004825 -0.001155162696 2.898180898e-39
0.2141009271 -0.06444372237 -0.0004823663912 2.898180898e-39
0.2467296422 -0.06372030824 -0.0008344648522 2.898180898e-39
0.2099966258 -0.06449265033 -0.0004855245061 2.898180898e-39
0.07529573143 -0.0705531016 -0.0006865829928 2.898180898e-39
0.316485703 -0.06259436905 -0.00177040603 2.898180898e-39
0.2858453989 -0.06370352209 -0.001328929444 2.898180898e-39
0.1741490662 -0.06620105356 -0.0001759678125 2.898180898e-39
0.05414184928 -0.07131829858 -0.001105590258 2.898180898e-39
0.3247092366 -0.06241132319 -0.001891997294 2.898180898e-39
0.3029327393 -0.06368242204 -0.001656896784 2.898180898e-39
0.1780175269 -0.06601922959 -0.000219732523 2.898180898e-39
-0.002547847107 -0.07232750207 -0.0022872712 2.898180898e-39
0.005926323123 -0.03396304697 -0.118267633 2.167082852e-39
-0.06237663701 -0.03974177688 -0.1757024378 2.167082852e-39
0.07432176173 -0.02603622153 -0.07280877978 2.167082852e-39
-0.1754152179 -0.04239674285 -0.2823710442 2.167082852e-39
-0.01549390052 -0.03639912605 -0.1303464174 2.167082852e-39
-0.09011626244 -0.04083098099 -0.2030314505 2.167082852e-39
0.1443710625 -0.02452225983 -0.04579728842 2.167082852e-39
-0.1106026098 -0.04030495882 -0.2242268622 2.167082852e-39
0.05139276758 -0.0295941364 -0.07837433368 2.167082852e-39
-0.0500475131 -0.03853799775 -0.1647560149 2.167082852e-39
0.1979138702 -0.02171363868 -0.03405367211 2.167082852e-39
-0.123232156 -0.04098230228 -0.2347992957 2.167082852e-39
0.04569792002 -0.03048301861 -0.07974623144 2.167082852e-39
-0.01385167334 -0.03599406034 -0.1320971549 2.167082852e-39
0.1391436011 -0.02253889665 -0.04658625647 2.167082852e-39
-0.1369008571 -0.04212612659 -0.2445617467 2.167082852e-39
0.01105867885 -0.0326773338 -0.1140299812 2.167082852e-39
-0.05148037896 -0.03819907457 -0.1672760993 2.167082852e-39
0.08461399376 -0.02553836256 -0.06585880369 2.167082852e-39
-0.1666587591 -0.0432872884 -0.270889163 2.167082852e-39
-0.01804353297 -0.03588137403 -0.140989542 2.167082852e-39
-0.07907487452 -0.04070005193 -0.1934169978 2.167082852e-39
0.131153062 -0.02322064526 -0.04841163009 2.167082852e-39
-0.1494378895 -0.04264654219 -0.2566981316 2.167082852e-39
0.008856389672 -0.03318198398 -0.1161665693 2.167082852e-39
-0.05268288776 -0.03840533644 -0.1683318466 2.167082852e-39
0.1298466027 -0.02315818705 -0.04873720929 2.167082852e-39
-0.1643461287 -0.04278981686 -0.269629091 2.167082852e-39
0.0209786389 -0.03147647157 -0.1015212014 2.167082852e-39
-0.06978678703 -0.04009217769 -0.1821915209 2.167082852e-39
0.06177028641 -0.02654866502 -0.07741114497 2.167082852e-39
-0.1934933513 -0.04223889858 -0.2952538431 2.167082852e-39
-0.1865812689 -0.0385418199 -0.02107658237 1.435982003e-39
-0.3410767317 -0.02766097896 -0.02592665702 1.435982003e-39
-0.3108222187 -0.03636618331 -0.009728478268 1.435982003e-39
-0.2975417376 -0.02725781873 -0.0310005229 1.435982003e-39
-0.170672223 -0.04232459888 -0.03779512271 1.435982003e-39
-0.3913257718 -0.0282001812 -0.008187901229 1.435982003e-39
-0.2050486505 -0.03801947832 -0.01132001262 1.435982003e-39
-0.2050788701 -0.03728796169 -0.03296759725 1.435982003e-39
-0.09623500705 -0.04464067891 -0.01307664812 1.435982003e-39
-0.3509701192 -0.03050464578 -0.0169316791 1.435982003e-39
-0.1855736673 -0.03741655871 -0.01017565373 1.435982003e-39
-0.2291628271 -0.03164081275 -0.04335186258 1.435982003e-39
-0.04928167537 -0.04405257106 -0.03937071934 1.435982003e-39
-0.3517536521 -0.02673516236 -0.02640181221 1.435982003e-39
-0.2134236097 -0.03435676172 -0.01618471555 1.435982003e-39
-0.2295508385 -0.02887192182 -0.05191345885 1.435982003e-39
-0.05978952348 -0.04344466701 -0.01481779572 1.435982003e-39
-0.3701589406 -0.02937679179 -0.01232532412 1.435982003e-39
-0.2916067243 -0.03093658015 -0.02277034335 1.435982003e-39
-0.2862801254 -0.02242641337 -0.04026008025 1.435982003e-39
-0.1558234841 -0.03785069287 -0.01702548377 1.435982003e-39
-0.3867832124 -0.02786494419 -0.008409242146 1.435982003e-39
-0.2469281554 -0.03036038764 -0.03019240312 1.435982003e-39
-0.2446939498 -0.02759396657 -0.04469942674 1.435982003e-39
-0.08407699317 -0.04179721698 -0.009754166007 1.435982003e-39
-0.3700869679 -0.02840409614 -0.01510165539 1.435982003e-39
-0.1928183436 -0.03567119688 -0.02660715953 1.435982003e-39
-0.2337756753 -0.02843789384 -0.05046316236 1.435982003e-39
-0.01940389723 -0.0450363718 -0.01644600369 1.435982003e-39
-0.3575798273 -0.03182194754 -0.01350018848 1.435982003e-39
-0.242357254 -0.03655332327 -0.01166059636 1.435982003e-39
-0.3189384043 -0.02401133999 -0.03824985772 1.435982003e-39
-0.1682676375 -0.048472289 0.2533403337 7.045238224e-40
-0.104445599 -0.04749086872 0.1312056929 7.045238224e-40
-0.20181638 -0.04745259881 0.2966074347 7.045238224e-40
-0.1278205365 -0.04684930295 0.1990804672 7.045238224e-40
-0.1538179815 -0.04672144353 0.250508219 7.045238224e-40
-0.1388684362 -0.04704871774 0.1555216312 7.045238224e-40
-0.167610839 -0.04754370078 0.2679802179 7.045238224e-40
-0.1087388918 -0.04735112563 0.1651736349 7.045238224e-40
-0.1452035159 -0.04745151475 0.2014636695 7.045238224e-40
-0.09815312922 -0.04727650806 0.1211603358 7.045238224e-40
-0.1764155477 -0.04841745645 0.277097553 7.045238224e-40
-0.1238721684 -0.04784388468 0.1784506291 7.045238224e-40
-0.1544950753 -0.047805693 0.2156237215 7.045238224e-40
-0.07248424739 -0.04849716276 0.1202964261 7.045238224e-40
-0.1896410286 -0.04936373979 0.2794627249 7.045238224e-40
-0.1224081442 -0.04767656326 0.1861875355 7.045238224e-40
-0.1297739744 -0.04686388001 0.2087799609 7.045238224e-40
-0.08657284081 -0.04755458981 0.1260969341 7.045238224e-40
-0.1977267116 -0.04937941208 0.2853187919 7.045238224e-40
-0.1330744624 -0.04761279747 0.2034212798 7.045238224e-40
-0.1581670791 -0.04796521738 0.2447984517 7.045238224e-40
-0.1120655909 -0.04833570123 0.1527413726 7.045238224e-40
-0.1786406785 -0.0490373522 0.2727687359 7.045238224e-40
-0.1306892484 -0.04781479761 0.1912043393 7.045238224e-40
-0.1524614841 -0.04807779565 0.2171380669 7.045238224e-40
-0.0950371176 -0.04839441553 0.1263913512 7.045238224e-40
-0.1845459491 -0.04929777235 0.2790124714 7.045238224e-40
-0.1248215437 -0.04739014804 0.1919222623 7.045238224e-40
-0.1543387622 -0.04800165445 0.2335857004 7.045238224e-40
-0.09177137911 -0.04770090804 0.1401155442 7.045238224e-40
-0.1951965392 -0.04883507267 0.2801231146 7.045238224e-40
-0.143247366 -0.04767410457 0.2094251364 7.045238224e-40
-0.3733872175 -0.0003113048151 -0.08797108382 6.490113838e-41
-0.3386854827 -0.01059616543 -0.1090268046 6.490113838e-41
-0.3464806974 -0.01444281917 -0.02958928421 6.490113838e-41
-0.2964755893 -0.02455823682 -0.04071403667 6.490113838e-41
-0.3679186106 -0.0005037444062 -0.06797924638 6.490113838e-41
-0.3274159133 -0.01015658025 -0.07419099659 6.490113838e-41
-0.3727720082 0.0003467565402 -0.06333356351 6.490113838e-41
-0.3202179074 -0.01316398662 -0.09385145456 6.490113838e-41
-0.3742939532 -0.001706716837 -0.1023458317 6.490113838e-41
-0.3376438916 -0.01268434152 -0.1145364717 6.490113838e-41
-0.3718984127 -0.0004964707769 -0.05989376828 6.490113838e-41
-0.2976799309 -0.01823718846 -0.09384002537 6.490113838e-41
-0.3756482899 -0.0009833989898 -0.1060356051 6.490113838e-41
-0.3286064863 -0.01467350777 -0.112469092 6.490113838e-41
-0.3642597198 -0.004830886144 -0.03271518275 6.490113838e-41
-0.2813641131 -0.02367915586 -0.08263842016 6.490113838e-41
-0.3661301732 -0.002756278962 -0.101990968 6.490113838e-41
-0.318120867 -0.01206593029 -0.07742656022 6.490113838e-41
-0.3269358277 -0.01879464649 -0.03495907784 6.490113838e-41
-0.2368382215 -0.03471673653 -0.04800125957 6.490113838e-41
-0.3639822304 -0.001376352389 -0.0878418833 6.490113838e-41
-0.3291279674 -0.008613713086 -0.07602589577 6.490113838e-41
-0.344496727 -0.01096074842 -0.04375225306 6.490113838e-41
-0.2723555267 -0.02451071329 -0.07933265716 6.490113838e-41
-0.3629491329 -0.004296975676 -0.1089918166 6.490113838e-41
-0.325689435 -0.01169782411 -0.1009456664 6.490113838e-41
-0.3589316607 -0.006722053513 -0.03658930585 6.490113838e-41
-0.2939479947 -0.02031401172 -0.08792378753 6.490113838e-41
-0.3715748191 -0.002060030354 -0.1195441261 6.490113838e-41
-0.3322046101 -0.01053250954 -0.1007353291 6.490113838e-41
-0.3490845561 -0.01067246404 -0.0369415395 6.490113838e-41
-0.2795347869 -0.02598134615 -0.05236992612 6.490113838e-41
0.07347761095 -0.06268054247 0.02317876555 8.028094954e-40
0.08993332088 -0.05210861936 0.0269046519 8.028094954e-40
-0.03533738479 -0.0605160296 0.02645820007 8.028094954e-40
0.2460134625 -0.04423589259 0.01830622181 8.028094954e-40
0.1067934185 -0.06012715399 0.02279258519 8.028094954e-40
-0.03150177374 -0.05412123352 0.03746638447 8.028094954e-40
-0.1169220582 -0.05609474331 0.02827089466 8.028094954e-40
0.1771909446 -0.05370812118 0.01751256548 8.028094954e-40
-0.01793452911 -0.06476867944 0.01513645146 8.028094954e-40
0.1132476628 -0.0510792397 0.02663007937 8.028094954e-40
-0.1337786317 -0.05505424365 0.02818208933 8.028094954e-40
0.2006210834 -0.05213533714 0.008259402588 8.028094954e-40
0.003686847165 -0.0649471283 0.01042994112 8.028094954e-40
0.1086534932 -0.04621651024 0.03000497818 8.028094954e-40
-0.09248375893 -0.05864867568 0.02763574198 8.028094954e-40
0.2328945845 -0.04966915026 -0.001688340912 8.028094954e-40
0.008827110752 -0.06475454569 0.01678200811 8.028094954e-40
0.0928113088 -0.0586136803 0.02426844835 8.028094954e-40
-0.03029131703 -0.06236658245 0.02445814945 8.028094954e-40
0.2533733547 -0.04652818665 0.006745949388 8.028094954e-40
0.06971717626 -0.06511033326 0.01163053419 8.028094954e-40
0.0922709927 -0.06164568663 0.02287266403 8.028094954e-40
-0.08451592922 -0.05960733443 0.0268687997 8.028094954e-40
0.2185138166 -0.05170733854 -0.005184197798 8.028094954e-40
0.02722388506 -0.06495764852 0.01412629429 8.028094954e-40
0.1600889415 -0.05288910866 0.02446411178 8.028094954e-40
-0.1027141809 -0.05828096345 0.02773204818 8.028094954e-40
0.2286863327 -0.04974725097 0.003003353486 8.028094954e-40
-0.001754416269 -0.06472701579 0.01493700501 8.028094954e-40
0.1296481937 -0.06080814078 0.009733235464 8.028094954e-40
-0.005126774311 -0.06354049593 0.02288911678 8.028094954e-40
0.2893260419 -0.04610074311 0.0039861775 8.028094954e-40
-0.07737476379 -0.04861089215 -0.2034817487 1.540360521e-39
-0.1372808963 -0.05083630234 -0.2091681063 1.540360521e-39
-0.1365338266 -0.04992047697 -0.2182571739 1.540360521e-39
-0.06898191571 -0.05144081637 -0.1484493166 1.540360521e-39
-0.1319887787 -0.05027045682 -0.1985681951 1.540360521e-39
-0.03824303672 -0.06214023381 -0.08797483891 1.540360521e-39
-0.05219912529 -0.06010942534 -0.1266073287 1.540360521e-39
-0.1461528838 -0.05751181766 -0.1105151847 1.540360521e-39
-0.07257873565 -0.04967040196 -0.1779331714 1.540360521e-39
-0.1416245848 -0.05288935825 -0.164963752 1.540360521e-39
-0.08734132349 -0.05530987307 -0.1367152631 1.540360521e-39
-0.1526991576 -0.06052612141 -0.09455794096 1.540360521e-39
-0.07217413932 -0.04897069559 -0.2020636052 1.540360521e-39
-0.1544647068 -0.05508671701 -0.1367289871 1.540360521e-39
-0.09908635914 -0.0543387197 -0.1471890807 1.540360521e-39
-0.1496010274 -0.05745342374 -0.117858015 1.540360521e-39
-0.08177226037 -0.04971270636 -0.1713709384 1.540360521e-39
-0.1451487988 -0.05526709929 -0.1232371554 1.540360521e-39
-0.1055010185 -0.05271083862 -0.1484734118 1.540360521e-39
-0.09361142665 -0.0547907576 -0.1392663419 1.540360521e-39
-0.09476475418 -0.04841310158 -0.1910697967 1.540360521e-39
-0.08409551531 -0.05314528942 -0.1429881752 1.540360521e-39
-0.07271197438 -0.05607569963 -0.1392739862 1.540360521e-39
-0.143086195 -0.05700651556 -0.1275437623 1.540360521e-39
-0.03403263912 -0.05267131701 -0.198512733 1.540360521e-39
-0.1489621848 -0.05528692529 -0.1281327009 1.540360521e-39
-0.08325947821 -0.05256157741 -0.1506996453 1.540360521e-39
-0.1343839318 -0.05707373843 -0.1244371533 1.540360521e-39
-0.0438766405 -0.05156596005 -0.192539975 1.540360521e-39
-0.09976763278 -0.05400467664 -0.1361554265 1.540360521e-39
-0.06643161178 -0.05065102503 -0.1705447137 1.540360521e-39
-0.08842226118 -0.05199862272 -0.1463702917 1.540360521e-39
0.1186655462 -0.01034787577 0.0373592563 2.277910146e-39
-0.133832261 -0.01269553974 0.03897149488 2.277910146e-39
0.2072946131 -0.007194655482 0.03533523902 2.277910146e-39
-0.1216249913 -0.01314253639 0.03910409659 2.277910146e-39
0.07594566792 -0.0110345399 0.03795517609 2.277910146e-39
-0.07954553515 -0.007489190903 0.03724039719 2.277910146e-39
0.265504688 -0.00652043242 0.03183019161 2.277910146e-39
0.07780808955 -0.01011337154 0.0377327688 2.277910146e-39
0.1872832328 -0.007662489079 0.03563342616 2.277910146e-39
-0.1942970157 -0.01104622893 0.03834529221 2.277910146e-39
0.31360659 -0.007826346904 0.0289535746 2.277910146e-39
0.07158640772 -0.01057402883 0.03787815943 2.277910146e-39
0.1814630479 -0.007738249376 0.03559289873 2.277910146e-39
-0.1862014085 -0.01726504974 0.04019388556 2.277910146e-39
0.2797483206 -0.009333667345 0.03032616526 2.277910146e-39
0.09386727959 -0.01021677442 0.03738691285 2.277910146e-39
0.1651571393 -0.009632363915 0.03625007719 2.277910146e-39
-0.03784170374 -0.01249125414 0.03889418766 2.277910146e-39
0.2196719497 -0.01031517889 0.03513053805 2.277910146e-39
0.03198558837 -0.01176127978 0.03842607513 2.277910146e-39
0.09651903808 -0.01119449921 0.03752249479 2.277910146e-39
-0.022748271 -0.01190983783 0.03868699819 2.277910146e-39
0.2379129082 -0.009707198478 0.03392082453 2.277910146e-39
0.06950163841 -0.01106455456 0.03780257702 2.277910146e-39
0.1656690687 -0.009141794406 0.03590218723 2.277910146e-39
-0.1247885823 -0.01514552161 0.03971306607 2.277910146e-39
0.281963557 -0.009135550819 0.02985845134 2.277910146e-39
0.08176870644 -0.01072501205 0.03763969243 2.277910146e-39
0.1803970039 -0.008215503767 0.03560669348 2.277910146e-39
-0.0273526907 -0.01324214134 0.0390727073 2.277910146e-39
0.2583646178 -0.008107268251 0.03189092502 2.277910146e-39
0.01861756481 -0.01187671721 0.03854582831 2.277910146e-39
-0.03151439503 0.01197753102 0.01027805358 3.015101038e-39
-0.1028820127 0.005143245216 0.01192248333 3.015101038e-39
0.1172850132 0.01418200973 0.01554555353 3.015101038e-39
-0.02644121461 0.01023537014 0.01146086026 3.015101038e-39
0.0007688014884 0.01417667419 0.01112843025 3.015101038e-39
-0.1935639083 -0.005073148757 0.01353371795 3.015101038e-39
0.1892117411 0.01318574604 0.01658841595 3.015101038e-39
0.06615555286 0.01206277404 0.0156652052 3.015101038e-39
0.05775063112 0.01486299466 0.01327995397 3.015101038e-39
-0.108266592 0.004600172862 0.01305162162 3.015101038e-39
0.2000586838 0.01257737167 0.01693651453 3.015101038e-39
0.07294241339 0.01416183356 0.01542397123 3.015101038e-39
0.08105906099 0.01418620348 0.0145827923 3.015101038e-39
-0.06973525882 0.0077519021 0.01134494971 3.015101038e-39
0.1897280216 0.01303653326 0.0166609399 3.015101038e-39
0.035144113 0.01383274887 0.01321170479 3.015101038e-39
0.09809266776 0.01450502686 0.01550314389 3.015101038e-39
-0.08426181227 0.006102066953 0.01233803947 3.015101038e-39
0.1588463187 0.01369931176 0.01630407013 3.015101038e-39
-0.02458763681 0.01115031913 0.01086556911 3.015101038e-39
0.05538450181 0.01447717473 0.01381155383 3.015101038e-39
-0.1269270629 0.001954087755 0.0134736076 3.015101038e-39
0.1829371154 0.01292373333 0.01671952941 3.015101038e-39
0.01575849392 0.01300460938 0.0123626478 3.015101038e-39
0.100313738 0.01448760182 0.01558924932 3.015101038e-39
-0.08865654469 0.00573985232 0.01232398208 3.015101038e-39
0.1917521209 0.01274617109 0.01676168293 3.015101038e-39
-0.0003909645311 0.01284524146 0.01151707489 3.015101038e-39
0.1045020372 0.01444094628 0.0155360885 3.015101038e-39
-0.1078726128 0.004110344686 0.01323667075 3.015101038e-39
0.1693145633 0.01344994549 0.01631515659 3.015101038e-39
-0.06587919593 0.008862223476 0.00994602032 3.015101038e-39
-0.1481966078 -0.05106342584 0.202368319 3.75229193e-39
-0.1273242235 -0.04531921819 0.1468433887 3.75229193e-39
-0.1436672062 -0.05180751532 0.2073793411 3.75229193e-39
-0.1475542039 -0.04507121444 0.06117035449 3.75229193e-39
-0.1264307052 -0.04603173211 0.1319147497 3.75229193e-39
-0.1383852363 -0.04724056274 0.1527557224 3.75229193e-39
-0.135266304 -0.05107056722 0.1871098429 3.75229193e-39
-0.1207353994 -0.04831998423 -0.02479557507 3.75229193e-39
-0.1419944167 -0.04864192754 0.1623920053 3.75229193e-39
-0.1422044039 -0.04530291259 0.1017772108 3.75229193e-39
-0.1269252747 -0.04864473641 0.1743456125 3.75229193e-39
-0.07765230536 -0.04649309069 -0.003254953539 3.75229193e-39
-0.08856643736 -0.04495187476 0.09799550474 3.75229193e-39
-0.1718518883 -0.04518737644 0.03302442655 3.75229193e-39
-0.1372371763 -0.04403287172 0.106198065 3.75229193e-39
0.026941875 -0.04237939417 -0.03146399185 3.75229193e-39
-0.09992982447 -0.04528868943 0.0833433792 3.75229193e-39
-0.1909703463 -0.04379718751 0.03434028476 3.75229193e-39
-0.1413986832 -0.04433175549 0.0801859647 3.75229193e-39
-0.01899304613 -0.04149987549 -0.01585851237 3.75229193e-39
-0.03592797741 -0.04727118462 0.04766587913 3.75229193e-39
-0.1714618206 -0.04405125976 0.04658131301 3.75229193e-39
-0.1384656727 -0.04343977198 0.07556778193 3.75229193e-39
0.04206179082 -0.04210783541 -0.03859297931 3.75229193e-39
-0.06538505107 -0.04516905546 0.09203720093 3.75229193e-39
-0.06964920461 -0.04004958645 0.01019259263 3.75229193e-39
-0.1405702978 -0.04590174183 0.08313363791 3.75229193e-39
0.1018381193 -0.04026383907 -0.02286780439 3.75229193e-39
-0.06455741823 -0.04874894395 0.05738249421 3.75229193e-39
-0.04460962489 -0.04327359423 -0.02219911292 3.75229193e-39
-0.1303350478 -0.04719524458 0.07052209973 3.75229193e-39
-0.02312219702 -0.04405515641 -0.01906320453 3.75229193e-39
0.2207262665 0.006018994376 0.01833656244 4.48912409e-39
0.3046615422 0.009705759585 0.002616976853 4.48912409e-39
0.1271836758 0.008655281737 0.01590901241 4.48912409e-39
0.4159547687 -0.0236473009 -0.002980875317 4.48912409e-39
0.2283907086 0.0004092938907 0.02595336176 4.48912409e-39
0.2466305941 0.01484906487 0.00313367974 4.48912409e-39
0.0056972038 -0.003250956303 0.0278917253 4.48912409e-39
0.3337649107 0.002465809463 0.002760511357 4.48912409e-39
0.1767271459 0.002823879942 0.02378938533 4.48912409e-39
0.3050406873 0.004572143778 0.01215810236 4.48912409e-39
0.00743090827 -0.001507037086 0.02580313943 4.48912409e-39
0.3310508132 0.003159495769 0.004022647161 4.48912409e-39
0.1749964207 0.004600682296 0.02149373665 4.48912409e-39
0.2885209024 0.009017782286 0.009435807355 4.48912409e-39
0.06521240622 0.004433588125 0.02024580166 4.48912409e-39
0.346739918 -0.0006102993502 0.00313769374 4.48912409e-39
0.1842585653 0.006971160416 0.01812603511 4.48912409e-39
0.2746647298 0.01255595032 0.006189201958 4.48912409e-39
0.1409037113 0.01107278746 0.01302454527 4.48912409e-39
0.3755666614 -0.007845665328 0.001686077798 4.48912409e-39
0.2376980335 0.009832034819 0.01261609327 4.48912409e-39
0.2771529257 0.01188209839 0.006833743304 4.48912409e-39
0.08961132169 0.009005125612 0.01571219601 4.48912409e-39
0.3479963541 -0.001139066648 0.003653759602 4.48912409e-39
0.1931524128 0.007451551035 0.01731410623 4.48912409e-39
0.2993478477 0.00933976192 0.006179118063 4.48912409e-39
0.06722413003 0.003751638345 0.0210861098 4.48912409e-39
0.3816410303 -0.009376253001 0.001247861655 4.48912409e-39
0.1858662963 0.006937543396 0.01813599654 4.48912409e-39
0.2774023116 0.01198968012 0.006632430013 4.48912409e-39
0.1593955755 0.01054838859 0.0123107601 4.48912409e-39
0.399469018 -0.01618044265 -0.0008028557641 4.48912409e-39
0.3347902 -0.03800460696 -0.01937174611 5.225597518e-39
0.06803259254 -0.05093720555 -0.04374965653 5.225597518e-39
0.2933633924 -0.05190311745 -0.02063876018 5.225597518e-39
0.00686892122 -0.06550487131 -0.07150184363 5.225597518e-39
0.3535032272 -0.04018356279 -0.01556297671 5.225597518e-39
0.2049740255 -0.05602083355 -0.02524923161 5.225597518e-39
0.2210654318 -0.05724446848 -0.02373800613 5.225597518e-39
-0.04417140782 -0.09513057023 -0.1006851047 5.225597518e-39
0.292070657 -0.04268889874 -0.02547299303 5.225597518e-39
0.05109290406 -0.04674973339 -0.05908270553 5.225597518e-39
0.162334159 -0.05197983235 -0.03041378222 5.225597518e-39
-0.03031396866 -0.09754313529 -0.08046909422 5.225597518e-39
0.2431800663 -0.05303769559 -0.0254848469 5.225597518e-39
0.04068696871 -0.04437727109 -0.07512693107 5.225597518e-39
0.1171036065 -0.05023441836 -0.03473557904 5.225597518e-39
-0.04202037677 -0.09545589238 -0.09248893708 5.225597518e-39
0.2531170845 -0.06098326668 -0.01719621196 5.225597518e-39
0.03650932014 -0.05596394464 -0.05287271738 5.225597518e-39
0.1311543435 -0.05208139494 -0.03186507896 5.225597518e-39
-0.02949897945 -0.09440165758 -0.08386206627 5.225597518e-39
0.2413208634 -0.06117892265 -0.01817927696 5.225597518e-39
0.0343570374 -0.06113233417 -0.04981593043 5.225597518e-39
0.1038172618 -0.05182001367 -0.03555285186 5.225597518e-39
-0.04478980228 -0.09753341973 -0.0873984918 5.225597518e-39
0.1498446167 -0.05231780186 -0.02808527276 5.225597518e-39
-0.009723695926 -0.07964707166 -0.06509268284 5.225597518e-39
0.1002337709 -0.05225458369 -0.03584304079 5.225597518e-39
-0.04576023296 -0.09722477943 -0.08913632482 5.225597518e-39
0.2201069295 -0.05980635807 -0.02220966481 5.225597518e-39
-0.003957433626 -0.07405570149 -0.06865184754 5.225597518e-39
0.2072282434 -0.05820798874 -0.02242353931 5.225597518e-39
-0.03217708319 -0.09130893648 -0.09565703571 5.225597518e-39
-0.268206507 0.003240518039 -0.0190469753 5.962428276e-39
-0.1619460434 0.003820125014 -0.03148958087 5.962428276e-39
-0.1408251822 0.007684001233 -0.01977205276 5.962428276e-39
-0.0002801716328 0.009770220146 -0.02790171467 5.962428276e-39
-0.2361418307 0.003261964303 -0.02422993816 5.962428276e-39
-0.01670477912 0.001850051573 -0.0425558351 5.962428276e-39
-0.2748305798 0.005977119785 -0.004306051414 5.962428276e-39
-0.138207227 0.008213901892 -0.01806874573 5.962428276e-39
-0.3182831705 0.002638743725 -0.01161029935 5.962428276e-39
-0.1826433539 0.003330900101 -0.03077174537 5.962428276e-39
-0.2985349596 0.005872968119 -0.0007732657832 5.962428276e-39
-0.0849744156 0.01075027417 -0.01681591012 5.962428276e-39
-0.3154228032 0.001580717624 -0.01647677831 5.962428276e-39
-0.1588730663 0.003056281945 -0.03348328173 5.962428276e-39
-0.2518105507 0.007290826645 -0.004116966389 5.962428276e-39
-0.05412715673 0.01198375598 -0.01613993756 5.962428276e-39
-0.3188435733 0.001688814024 -0.01564086787 5.962428276e-39
-0.1143248007 0.005397725385 -0.03351240605 5.962428276e-39
-0.1987013519 0.007835224271 -0.01099507138 5.962428276e-39
-0.017128231 0.01146559417 -0.01934557408 5.962428276e-39
-0.2599078119 0.002898360835 -0.02217261679 5.962428276e-39
-0.0938699618 0.005666657351 -0.03529206663 5.962428276e-39
-0.2543164194 0.007038305514 -0.004635747988 5.962428276e-39
-0.05837190524 0.01175215747 -0.01637938805 5.962428276e-39
-0.3275194764 0.001482060994 -0.01482518949 5.962428276e-39
-0.1547985524 0.004010417499 -0.03160201386 5.962428276e-39
-0.2481479794 0.006947927177 -0.00619463902 5.962428276e-39
-0.07742850482 0.0110724289 -0.01700885408 5.962428276e-39
-0.3406319022 0.0005091726198 -0.01473379787 5.962428276e-39
-0.1769242734 0.004578871187 -0.0275241863 5.962428276e-39
-0.1462799162 0.006735900883 -0.02307241596 5.962428276e-39
0.008489635773 0.01041086391 -0.02501829155 5.962428276e-39
-0.1222985759 -0.03998000547 0.284155935 6.698542971e-39
-0.04390928894 -0.04402371496 0.1954785585 6.698542971e-39
-0.07238677144 -0.04076542705 0.2393372208 6.698542971e-39
-0.02911253646 -0.04459958896 0.1714770347 6.698542971e-39
-0.1340608299 -0.03974465653 0.2965353131 6.698542971e-39
-0.0500030145 -0.04420100152 0.2049916536 6.698542971e-39
-0.09639216214 -0.04060542211 0.268263936 6.698542971e-39
0.008187692612 -0.05135688931 0.1368631572 6.698542971e-39
-0.1479408145 -0.03816131875 0.3071888387 6.698542971e-39
-0.02121995017 -0.04681817442 0.1624361128 6.698542971e-39
-0.1029658914 -0.04161168262 0.2764858902 6.698542971e-39
-0.0009482649039 -0.0487241298 0.1439695209 6.698542971e-39
-0.1456139088 -0.03886444494 0.3081301451 6.698542971e-39
-0.02632507682 -0.04650819302 0.1670789868 6.698542971e-39
-0.1003857777 -0.04137400538 0.2733661532 6.698542971e-39
-0.006421831436 -0.04622106627 0.1491274685 6.698542971e-39
-0.1500463039 -0.03784044832 0.3067090809 6.698542971e-39
-0.05366264656 -0.04225032032 0.2118423134 6.698542971e-39
-0.09180951118 -0.0410011746 0.2564466596 6.698542971e-39
-0.03067941964 -0.04381234944 0.1722354144 6.698542971e-39
-0.1418893039 -0.03854093328 0.2992517948 6.698542971e-39
-0.07030813396 -0.04078317806 0.2359101772 6.698542971e-39
-0.1181619093 -0.04076743498 0.2837533653 6.698542971e-39
-0.02137677185 -0.04465539753 0.1606320739 6.698542971e-39
-0.1601698846 -0.0363846682 0.3102632463 6.698542971e-39
-0.05644132569 -0.04245116562 0.2152083069 6.698542971e-39
-0.1095175147 -0.04102489352 0.2774747014 6.698542971e-39
-0.01580728777 -0.04485541582 0.1567763537 6.698542971e-39
-0.1604689956 -0.03715542331 0.3169273734 6.698542971e-39
-0.06565303355 -0.04149099812 0.229093954 6.698542971e-39
-0.07736179233 -0.0403970778 0.2452481091 6.698542971e-39
-0.05718263611 -0.04172831029 0.2170462459 6.698542971e-39
0.0673590228 -0.06208073348 0.02225504629 7.434656265e-39
-0.1402291059 -0.06855481863 -0.01708660088 7.434656265e-39
-0.05050061643 -0.07332997769 -0.02047343552 7.434656265e-39
-0.02762787789 -0.0564821586 0.04321240634 7.434656265e-39
-0.02624621801 -0.05696171522 0.04190363362 7.434656265e-39
-0.1239928603 -0.0611983873 0.01340391673 7.434656265e-39
0.01145864744 -0.06889230758 0.00963049382 7.434656265e-39
-0.0859226957 -0.06140294671 0.0173350051 7.434656265e-39
0.06234286353 -0.0570371598 0.03550907597 7.434656265e-39
-0.1971850693 -0.06631992012 -0.008112848736 7.434656265e-39
0.02377638593 -0.07441213727 -0.006398381665 7.434656265e-39
-0.08910248429 -0.06201628968 0.0148476027 7.434656265e-39
0.04544268176 -0.05338244885 0.04658657685 7.434656265e-39
-0.2368261069 -0.060681317 -0.001419111155 7.434656265e-39
0.01051636785 -0.07213659585 0.001222118153 7.434656265e-39
-0.0687431097 -0.06304965168 0.01524299011 7.434656265e-39
0.02431869693 -0.05932758376 0.03337072954 7.434656265e-39
-0.2005618513 -0.06614390016 -0.008579386398 7.434656265e-39
-0.009308791719 -0.07105765492 0.0003547370143 7.434656265e-39
-0.04617873952 -0.06220484152 0.02417206764 7.434656265e-39
0.02520974725 -0.05557829887 0.04337350652 7.434656265e-39
-0.1676263362 -0.06432563066 0.002922034822 7.434656265e-39
0.008620555513 -0.06666219234 0.01677570306 7.434656265e-39
-0.07480185479 -0.06349722296 0.01191763766 7.434656265e-39
0.07594222575 -0.0528363809 0.04590934142 7.434656265e-39
-0.2070938796 -0.06538529694 -0.007966618054 7.434656265e-39
0.01426619384 -0.06506016105 0.02017837204 7.434656265e-39
