# .PCD v0.7 - Point Cloud Data file format
VERSION 0.7
FIELDS x y z rgb
SIZE 4 4 4 4
TYPE F F F F
COUNT 1 1 1 1
WIDTH 824
HEIGHT 1
VIEWPOINT 0 0 0 1 0 0 0
POINTS 824
DATA ascii
-0.2139629722 0.01473447029 -0.08141360432 6.490113838e-41
-0.1930033863 -0.00955206994 0.2093424201 6.490113838e-41
-0.2222723365 -0.008485940285 -0.447427392 6.490113838e-41
-0.203349337 0.00381485722 -0.2839290202 6.490113838e-41
-0.2182843387 0.0190716628 -0.2077002227 6.490113838e-41
-0.197870791 -0.009889237583 0.07066914439 6.490113838e-41
-0.2234702408 0.02641563118 -0.4297823012 6.490113838e-41
-0.1810686737 -0.02700525708 -0.2178389877 6.490113838e-41
-0.1966708153 -0.005682696123 -0.05980701745 6.490113838e-41
-0.1854952127 -0.01676611044 -0.1575558633 6.490113838e-41
-0.2256238014 0.03230080009 -0.2304551899 6.490113838e-41
-0.2038356662 0.006708030123 -0.3010856807 6.490113838e-41
-0.2174673378 -0.03480099142 -0.4606081247 6.490113838e-41
-0.2110078484 -0.02055409364 -0.3884826005 6.490113838e-41
-0.1967144758 -0.005181767978 -0.1579395235 6.490113838e-41
-0.0365790166 -0.08498680592 -0.09753608704 8.028094954e-40
0.04946643859 -0.09149980545 0.1359814554 8.028094954e-40
0.1032076031 -0.09087923914 0.1514349133 8.028094954e-40
0.07223047316 -0.090161331 -0.2053714097 8.028094954e-40
-0.01574795134 -0.08523911983 0.07156642526 8.028094954e-40
0.06002417207 -0.09094917774 0.03055315092 8.028094954e-40
-0.005270469468 -0.08885538578 0.279499799 8.028094954e-40
0.08020154387 -0.08958289027 -0.0216236487 8.028094954e-40
0.03176366165 -0.08859941363 -0.1418440491 8.028094954e-40
0.08114890009 -0.09315639734 0.1304711998 8.028094954e-40
0.09035114944 -0.09253529459 0.2135420144 8.028094954e-40
0.06780231744 -0.08834256977 -0.1411766708 8.028094954e-40
-0.0002588331699 -0.08745188266 -0.02863731794 8.028094954e-40
0.03789953142 -0.09084484726 0.07890244573 8.028094954e-40
0.05851599202 -0.09180506319 0.2620067 8.028094954e-40
0.07949944586 -0.08798973262 -0.07096076757 8.028094954e-40
0.04117294401 -0.0892476961 -0.08928648382 8.028094954e-40
0.07032725215 -0.09359509498 0.101429522 8.028094954e-40
0.03932238743 -0.0909505114 0.1612670273 8.028094954e-40
0.05911824107 -0.08852164447 -0.1671043783 8.028094954e-40
0.03963789716 -0.08984391391 0.01196884364 8.028094954e-40
0.07354124635 -0.0904219225 0.02749392018 8.028094954e-40
-0.0153500149 -0.08733228594 0.1755108833 8.028094954e-40
0.00508863572 -0.08955392241 -0.2335983962 8.028094954e-40
0.06234846264 -0.0895704329 -0.04348806664 8.028094954e-40
0.07503736764 -0.08786959201 -0.10459961 8.028094954e-40
-0.01478128508 -0.08615013957 0.1201873049 8.028094954e-40
-0.0146060409 -0.0860747546 -0.01838526502 8.028094954e-40
0.02186796442 -0.08869878203 0.07220185548 8.028094954e-40
0.05765233934 -0.08844549954 -0.130115658 8.028094954e-40
0.02785834856 -0.08889811486 -0.1057472751 8.028094954e-40
0.07918199152 -0.09344352782 0.07369806617 8.028094954e-40
-0.18625471 0.06451853365 -0.4801542759 1.540360521e-39
-0.08133833855 -0.08396099508 -0.3721597195 1.540360521e-39
-0.151127547 0.07423017919 -0.4829918444 1.540360521e-39
-0.05732939392 -0.09203585982 -0.4442087412 1.540360521e-39
-0.1887514293 0.02275863662 -0.4674080312 1.540360521e-39
-0.1617249697 -0.07463910431 -0.4498708248 1.540360521e-39
-0.03588284925 0.03033999167 -0.4948325455 1.540360521e-39
0.0003642774827 -0.07866171747 -0.3935508132 1.540360521e-39
-0.2251874357 -0.08646830171 -0.3514232934 1.540360521e-39
-0.03107988089 -0.07636845857 -0.3413766026 1.540360521e-39
-0.1043784618 0.05690444261 -0.4885022342 1.540360521e-39
-0.008987086825 -0.08400067687 -0.4243829846 1.540360521e-39
-0.1934015453 -0.04433716834 -0.42222175 1.540360521e-39
-0.144806236 -0.0928979516 -0.4052555859 1.540360521e-39
-0.07014991343 0.03603283688 -0.4955731332 1.540360521e-39
-0.01329421904 -0.08091665059 -0.3975911736 1.540360521e-39
-0.2080599219 -0.07060936838 -0.3970389664 1.540360521e-39
-0.1046599969 -0.08775770664 -0.3870353997 1.540360521e-39
-0.1552914232 0.05933836848 -0.481977731 1.540360521e-39
-0.06354462355 -0.08740641177 -0.4697209299 1.540360521e-39
-0.1807918102 -0.0005854814663 -0.4573274255 1.540360521e-39
-0.1595298946 -0.0858900547 -0.4433837831 1.540360521e-39
-0.1091537848 0.01771500893 -0.476079464 1.540360521e-39
-0.09698431194 -0.04172629118 -0.4713901877 1.540360521e-39
-0.1693710983 -0.02716644108 -0.4594409764 1.540360521e-39
-0.1587724984 -0.09330104291 -0.3769023716 1.540360521e-39
-0.1586638391 -0.004829059821 -0.4710095823 1.540360521e-39
-0.1200274229 -0.02543414012 -0.4770360589 1.540360521e-39
-0.1041913629 0.0416630283 -0.4849247038 1.540360521e-39
0.001532829134 -0.07562308758 -0.3539115489 1.540360521e-39
-0.2136030197 -0.08833115548 -0.3585387766 1.540360521e-39
-0.1213640049 -0.08758633584 -0.4579301476 1.540360521e-39
-0.1963719428 0.1093055382 -0.1496272832 2.277910146e-39
-0.1966459751 0.1059385091 -0.3093575239 2.277910146e-39
-0.2059296072 0.103568621 0.3233239651 2.277910146e-39
-0.2025299668 0.1000065804 -0.04677958786 2.277910146e-39
-0.1890418679 0.1106177717 0.06719999015 2.277910146e-39
-0.1968359947 0.1076120734 -0.2177608609 2.277910146e-39
-0.1955016106 0.09942479432 0.4217342138 2.277910146e-39
-0.2039411664 0.1084007621 0.2146621048 2.277910146e-39
-0.1898168623 0.1159822494 -0.207040593 2.277910146e-39
-0.1964519024 0.1058848053 -0.3401670754 2.277910146e-39
-0.2057266831 0.1013029143 0.3745070398 2.277910146e-39
-0.2013349682 0.1032965034 0.1023179218 2.277910146e-39
-0.1863465756 0.116390124 -0.08648261428 2.277910146e-39
-0.1964617372 0.1078749821 -0.2406665683 2.277910146e-39
-0.1994075179 0.09977976233 0.409915179 2.277910146e-39
-0.2021776587 0.1039460525 0.1588220298 2.277910146e-39
-0.1872848123 0.1165847182 -0.1398502439 2.277910146e-39
-0.1946919113 0.108169958 -0.2726404965 2.277910146e-39
-0.2047701925 0.1053311005 0.2980244756 2.277910146e-39
-0.2025531083 0.09676454961 0.01291979663 2.277910146e-39
-0.1890651882 0.1138929948 -0.004684223793 2.277910146e-39
-0.1979741454 0.1061166227 -0.1714791954 2.277910146e-39
-0.2029953301 0.1074511185 0.2440931201 2.277910146e-39
-0.2009305805 0.09769846499 0.05790986121 2.277910146e-39
-0.1912647039 0.1125913709 -0.01610751078 2.277910146e-39
-0.2010347396 0.103400372 -0.0945269689 2.277910146e-39
-0.1936541647 0.1144404262 0.1880348027 2.277910146e-39
-0.2011857182 0.1057057157 0.1243804097 2.277910146e-39
-0.2045696378 0.1019391492 0.3543184698 2.277910146e-39
-0.2029300183 0.1012779027 0.01507522166 2.277910146e-39
-0.1991789937 0.1060795188 -0.07149524242 2.277910146e-39
-0.2003549486 0.1038047224 -0.118094109 2.277910146e-39
-0.03928023577 -0.009030466899 0.006225372199 3.015101038e-39
0.03355487436 -0.0107147675 0.02932525985 3.015101038e-39
-0.001536452444 -0.009191406891 0.1025673673 3.015101038e-39
-0.01979279332 -0.002057825914 0.2842782438 3.015101038e-39
-0.05330686271 -0.008629249409 -0.08269551396 3.015101038e-39
-0.003605047707 -0.01961711422 -0.22653988 3.015101038e-39
0.0849332884 -0.005165677983 0.2105881572 3.015101038e-39
0.187373355 0.004359823652 0.2903777063 3.015101038e-39
-0.001780998893 -0.006345143076 0.1730172634 3.015101038e-39
0.05954117328 -0.01554001682 0.1138805598 3.015101038e-39
0.07555053383 -0.01388171129 0.1436142027 3.015101038e-39
0.08977174759 0.001742671826 0.2911716104 3.015101038e-39
-0.04477340356 -0.008591304533 0.02835604921 3.015101038e-39
0.03682957962 -0.01264311466 -0.1852476448 3.015101038e-39
0.09573057294 -0.008247643709 0.1881759167 3.015101038e-39
0.1175064147 0.001555668772 0.2977431715 3.015101038e-39
-0.04108372331 -0.007495577913 0.1346135437 3.015101038e-39
0.04851830006 -0.009370652027 -0.07094887644 3.015101038e-39
0.02185340971 -0.009578733705 0.04800549895 3.015101038e-39
-0.05927870795 -0.005400092341 0.2399333864 3.015101038e-39
-0.0710889101 -0.009476951323 0.06994004548 3.015101038e-39
0.003844646038 -0.009858475998 -0.09377263486 3.015101038e-39
0.01662553102 -0.01023189444 0.005508746952 3.015101038e-39
-0.08804775774 -0.007021675818 0.2030611634 3.015101038e-39
-0.06952994317 -0.007921250537 0.1382591277 3.015101038e-39
-0.02710771933 -0.004204013385 0.1871741116 3.015101038e-39
-0.02202257141 -0.009943621233 -0.07978823781 3.015101038e-39
-0.02575506642 -0.007261173334 0.1265716255 3.015101038e-39
0.1497206092 -0.001350225066 0.2496968359 3.015101038e-39
0.1540118903 0.003039353061 0.2884486914 3.015101038e-39
0.0004244628071 -0.008614484221 0.1503316909 3.015101038e-39
0.06151627749 -0.003219078295 0.2250254005 3.015101038e-39
0.1495734453 0.01967728697 0.4858106375 3.75229193e-39
0.2079953551 -0.04492367804 0.2099016458 3.75229193e-39
0.09292519093 -0.06742005795 0.485422045 3.75229193e-39
0.2076646537 -0.001952122315 0.4449542463 3.75229193e-39
-0.06627184153 0.01244404446 0.4928690791 3.75229193e-39
0.2052991837 -0.06997256726 0.407171607 3.75229193e-39
-0.195993647 -0.05875238031 0.492882967 3.75229193e-39
0.208851859 -0.03562783822 0.2944217622 3.75229193e-39
0.1927343756 -0.04683906212 0.4785652161 3.75229193e-39
0.2091215849 -0.03595135733 0.167479381 3.75229193e-39
-0.1193198413 -0.09380447865 0.4911478758 3.75229193e-39
0.203682676 -0.008818305098 0.4117614925 3.75229193e-39
0.02317189984 0.01997341402 0.4900600314 3.75229193e-39
0.2021907121 -0.0689920336 0.3177101016 3.75229193e-39
-0.1462199241 -0.08975403011 0.4915651977 3.75229193e-39
0.2043337673 -0.01777563058 0.3530070782 3.75229193e-39
0.09524636716 -0.0005702375784 0.487065047 3.75229193e-39
0.2038057894 -0.06308593601 0.2809078395 3.75229193e-39
0.05990714207 -0.08608629555 0.486572057 3.75229193e-39
0.2036094815 0.002317850944 0.44167611 3.75229193e-39
-0.1816552579 0.01379863266 0.4938563406 3.75229193e-39
0.1954602897 -0.06910869479 0.3845040798 3.75229193e-39
0.02702020295 -0.03821579367 0.4890569448 3.75229193e-39
0.1359985471 -0.05675327033 0.4845841229 3.75229193e-39
-0.130314514 -0.03255119175 0.4947034121 3.75229193e-39
0.2040807754 -0.07121578604 0.3801330924 3.75229193e-39
0.001042492338 0.01667749882 0.4907135665 3.75229193e-39
0.1769770086 -0.07794290036 0.4814084768 3.75229193e-39
-0.07411851734 -0.05351528898 0.4928736687 3.75229193e-39
0.2091557384 -0.05119708925 0.436629355 3.75229193e-39
0.1054354832 -0.03663257882 0.4857643247 3.75229193e-39
0.198697865 -0.05912696198 0.4701299369 3.75229193e-39
-0.07650734484 -0.07943913341 -0.04022634402 4.48912409e-39
-0.04926898703 -0.09621039033 -0.3042105436 4.48912409e-39
0.03871150687 -0.06938806921 0.2393024713 4.48912409e-39
0.02732442878 -0.04548864439 0.0357458815 4.48912409e-39
-0.1176885143 -0.09751743078 0.135779649 4.48912409e-39
-0.08911019564 -0.08725982904 -0.1302743405 4.48912409e-39
-0.1279886365 -0.1043939963 0.1839919835 4.48912409e-39
0.01859802194 -0.06234487146 -0.2092191577 4.48912409e-39
-0.1629086733 -0.09903998673 -0.08097232133 4.48912409e-39
-0.05055450276 -0.0960604623 -0.3453773856 4.48912409e-39
-0.06926436722 -0.1008976102 0.208586961 4.48912409e-39
-0.02235580981 -0.06704925001 -0.04740826413 4.48912409e-39
-0.1691970527 -0.09783384949 0.09806462377 4.48912409e-39
-0.07022126764 -0.09136850387 -0.229756847 4.48912409e-39
-0.09075976908 -0.1029910445 0.1841960847 4.48912409e-39
0.01320803817 -0.05764898285 -0.1587656289 4.48912409e-39
-0.1621139795 -0.09597225487 0.03195852041 4.48912409e-39
-0.04695561528 -0.09484562278 -0.2853837311 4.48912409e-39
-0.007738241926 -0.07533343881 0.1529054493 4.48912409e-39
0.01152118761 -0.05497923121 0.03427478299 4.48912409e-39
-0.1602824628 -0.102836974 0.1389571726 4.48912409e-39
-0.09312498569 -0.09114230424 -0.1718183458 4.48912409e-39
-0.03073351458 -0.07669560611 0.1197441369 4.48912409e-39
-0.02884356678 -0.07076551765 0.01971715502 4.48912409e-39
-0.1130138561 -0.08815211803 0.07079189271 4.48912409e-39
0.004001059569 -0.05607699603 -0.1527222842 4.48912409e-39
-0.08773335814 -0.08879451454 0.09754488617 4.48912409e-39
-0.121698536 -0.08817048371 -0.04411464557 4.48912409e-39
-0.1480366141 -0.09169762582 0.05334496498 4.48912409e-39
0.01698346995 -0.05294951797 -0.1076391861 4.48912409e-39
-0.1689182073 -0.09956890345 -0.04214978218 4.48912409e-39
-0.1490098536 -0.1029174924 -0.1764859557 4.48912409e-39
-0.2065785825 -0.004387328401 -0.416600734 5.225597518e-39
-0.1925820559 -0.04565631598 -0.08465648443 5.225597518e-39
-0.2188756764 0.06414595246 -0.2825171649 5.225597518e-39
-0.0183087308 -0.06054159626 -0.2913568914 5.225597518e-39
-0.0175851509 -0.01702778414 -0.4077052772 5.225597518e-39
-0.2078550309 -0.0417875126 -0.3037796915 5.225597518e-39
-0.1951508969 0.02163166553 -0.1361881495 5.225597518e-39
0.04407074302 -0.05745743215 -0.3469880819 5.225597518e-39
-0.2244007736 0.05046234652 -0.3795034289 5.225597518e-39
-0.1855604947 -0.03941661492 -0.00212636264 5.225597518e-39
-0.2135894299 0.05163753778 -0.251861304 5.225597518e-39
0.04300838709 -0.06421581656 -0.2859100103 5.225597518e-39
-0.0848961845 0.002936414443 -0.4131972194 5.225597518e-39
-0.1950193942 -0.04820023105 -0.1921441406 5.225597518e-39
-0.2020542026 0.03334866092 -0.1946655512 5.225597518e-39
0.0419507958 -0.06408208609 -0.3101699948 5.225597518e-39
-0.1921654642 0.03691573068 -0.4195387661 5.225597518e-39
-0.1849414706 -0.05500146747 -0.09678734094 5.225597518e-39
-0.2155401409 0.02720223367 -0.2976885736 5.225597518e-39
-0.07352207601 -0.05810444057 -0.3032745421 5.225597518e-39
-0.06609340012 0.004899254069 -0.4124876261 5.225597518e-39
-0.1867550462 -0.05767159909 -0.235253796 5.225597518e-39
-0.2166888267 -0.01744607463 -0.3330106139 5.225597518e-39
-0.1897202879 -0.05138364807 -0.3641541004 5.225597518e-39
-0.1273774207 -0.01952099055 -0.4073987007 5.225597518e-39
-0.1651767641 -0.06135990098 -0.3112596869 5.225597518e-39
-0.01647124812 -0.04021652788 -0.3736254573 5.225597518e-39
-0.213469848 -0.03868063912 -0.3543090224 5.225597518e-39
-0.214970246 -0.01516922098 -0.2728292346 5.225597518e-39
-0.09225809574 -0.05054625124 -0.3623383343 5.225597518e-39
-0.15607135 -0.01772209629 -0.4110553563 5.225597518e-39
-0.1971906573 -0.01608929597 -0.09586218745 5.225597518e-39
-0.2027972788 0.009200123139 -0.2336594015 5.962428276e-39
-0.167331323 0.05997762457 -0.4376884401 5.962428276e-39
-0.2168108672 0.01805924624 -0.28050825 5.962428276e-39
0.009047663771 -0.002849064535 -0.2583349049 5.962428276e-39
-0.1238619536 0.009691907093 -0.3060552478 5.962428276e-39
-0.1283099055 0.02624537051 -0.3641057014 5.962428276e-39
-0.2357165813 0.06168934703 -0.434343189 5.962428276e-39
-0.01177265495 0.03682783246 -0.4044859409 5.962428276e-39
-0.1670076698 0.005995470099 -0.187970832 5.962428276e-39
-0.2019187957 0.06184754893 -0.4439620674 5.962428276e-39
-0.2236382216 0.02900365554 -0.3153896034 5.962428276e-39
0.0530420132 -0.00120468752 -0.3164567947 5.962428276e-39
-0.1314725131 0.002391851507 -0.2430623025 5.962428276e-39
-0.1630796045 0.04369186237 -0.4076437354 5.962428276e-39
-0.2301975787 0.04826752096 -0.3882793784 5.962428276e-39
0.006648755632 0.01695058309 -0.3575980365 5.962428276e-39
-0.1345635802 0.005483047105 -0.187238425 5.962428276e-39
-0.1923384517 0.04506671429 -0.410333246 5.962428276e-39
-0.2015633136 0.03375729173 -0.3745901585 5.962428276e-39
-0.04375259951 0.003896577982 -0.3029099107 5.962428276e-39
-0.05372385308 -0.002676637145 -0.2712162137 5.962428276e-39
-0.1598036736 0.01704621129 -0.3119526803 5.962428276e-39
-0.2164785862 0.05337895826 -0.423476249 5.962428276e-39
-0.1000996679 0.04030584544 -0.4019608498 5.962428276e-39
-0.04908943176 0.001505902736 -0.2100998908 5.962428276e-39
-0.04487479478 0.0001791641116 -0.2445247471 5.962428276e-39
-0.1364677548 0.01925313473 -0.3462420404 5.962428276e-39
-0.1096298993 0.05650722608 -0.4339967668 5.962428276e-39
-0.200512141 0.01525198855 -0.2616727948 5.962428276e-39
-0.05038601533 0.02771103382 -0.3716158867 5.962428276e-39
-0.1735654026 0.01301149279 -0.2815513909 5.962428276e-39
-0.1828965098 0.01976071484 -0.3177274168 5.962428276e-39
0.03318422288 -0.0675707683 0.4727159739 6.698542971e-39
-0.1372137815 -0.1068431661 0.440649122 6.698542971e-39
0.07950706035 -0.08764704317 0.4672659039 6.698542971e-39
-0.171413824 -0.1008894965 0.4605438113 6.698542971e-39
0.01199835353 -0.09954993427 0.4394460022 6.698542971e-39
-0.02080787532 -0.09436764568 0.3913600743 6.698542971e-39
0.1783282608 -0.06915065646 0.4551718235 6.698542971e-39
-0.1832830012 -0.03259636462 0.4686027467 6.698542971e-39
-0.05141789094 -0.0840613842 0.4671535194 6.698542971e-39
-0.1786011904 -0.1059559584 0.4463261962 6.698542971e-39
0.1057506427 -0.08827517927 0.4676404595 6.698542971e-39
-0.1836078465 -0.0805754289 0.4609721601 6.698542971e-39
-0.000538870634 -0.09133413434 0.4632976949 6.698542971e-39
-0.07869107276 -0.09900736064 0.4041391611 6.698542971e-39
0.1391864419 -0.08720524609 0.4639147222 6.698542971e-39
-0.1905992925 -0.04708043858 0.4622249603 6.698542971e-39
-0.04037764668 -0.09557399899 0.4613112807 6.698542971e-39
-0.1319974512 -0.1027254611 0.4255115986 6.698542971e-39
0.08983271569 -0.05812779069 0.4738472104 6.698542971e-39
-0.1223800033 -0.04849608988 0.4758506715 6.698542971e-39
0.02268891223 -0.09736558795 0.4062770307 6.698542971e-39
-0.05027763918 -0.09391391277 0.4045490026 6.698542971e-39
0.1307508796 -0.04781771079 0.4640873969 6.698542971e-39
-0.07161150873 -0.0464393273 0.474756062 6.698542971e-39
0.04159574211 -0.09370087832 0.4641549289 6.698542971e-39
-0.09618374705 -0.1036901101 0.4420346618 6.698542971e-39
0.07503144443 -0.04359679669 0.4744199514 6.698542971e-39
-0.002182487631 -0.05218705162 0.4751935303 6.698542971e-39
0.04878915474 -0.03784726188 0.4737348258 6.698542971e-39
-0.1333211064 -0.02784203738 0.4780557156 6.698542971e-39
-0.01064926386 -0.07792387158 0.4678295553 6.698542971e-39
-0.1296579093 -0.09566055238 0.4649788141 6.698542971e-39
-0.01209594961 -0.07177893817 0.4047985077 7.434656265e-39
-0.1723422706 0.009521286003 -0.03707801923 7.434656265e-39
-0.2020034641 0.04754647985 0.1116852835 7.434656265e-39
0.04632069543 -0.07694983482 0.2568484247 7.434656265e-39
-0.1882091314 -0.04237243906 0.3919644654 7.434656265e-39
-0.1811398864 -0.04528030381 0.2728383541 7.434656265e-39
-0.1821159124 -0.0008540151175 0.3656881452 7.434656265e-39
-0.1442332268 -0.03549253196 0.02754670754 7.434656265e-39
0.1565783024 -0.1024163663 0.3815240562 7.434656265e-39
-0.1815361679 0.01450463757 -0.1400471479 7.434656265e-39
-0.1965940893 0.0401541777 0.1839775145 7.434656265e-39
-0.07880332321 -0.06792894006 0.1136361063 7.434656265e-39
0.1014085934 -0.08199048042 0.4224260151 7.434656265e-39
-0.1675940752 0.003054914763 0.1436960399 7.434656265e-39
-0.1890688539 0.02923005074 0.2819500566 7.434656265e-39
-0.1482059658 -0.04919958115 0.1014924273 7.434656265e-39
0.1284498274 -0.09712944925 0.4018910527 7.434656265e-39
-0.1692876071 0.006053828169 0.06750967354 7.434656265e-39
-0.1843201667 0.02431020141 0.1015384942 7.434656265e-39
-0.04195125774 -0.08041417599 0.3088870943 7.434656265e-39
-0.04131487384 -0.07364007086 0.3929404616 7.434656265e-39
-0.1750216931 -0.02478195168 0.2199079841 7.434656265e-39
-0.1834660769 0.007837403566 0.3397775292 7.434656265e-39
-0.1267565638 -0.07656844705 0.3358724415 7.434656265e-39
0.05933854729 -0.08020270616 0.4132143855 7.434656265e-39
-0.1495751888 -0.06492838264 0.2513026595 7.434656265e-39
-0.1042889431 -0.06767370552 0.4037142396 7.434656265e-39
-0.194158271 -0.05743351206 0.3658921421 7.434656265e-39
-0.1438463032 -0.05931260437 0.2354078442 7.434656265e-39
-0.06735802442 -0.06653531641 0.05789535865 7.434656265e-39
0.1015996709 -0.09562092274 0.3521876037 7.434656265e-39
-0.156268239 -0.009669017047 -0.06858459115 7.434656265e-39
0.02620456927 -0.07233808935 0.4012009203 8.170410826e-39
-0.1415174007 -0.06664410979 0.1334749609 8.170410826e-39
0.1816751659 -0.07165829092 0.2964173257 8.170410826e-39
-0.1568765044 -0.07009530813 -0.05438160896 8.170410826e-39
-0.03985900432 -0.07858195901 0.3096080124 8.170410826e-39
-0.1075173765 -0.07149146497 0.2640078366 8.170410826e-39
0.1622548997 -0.105493173 0.4303528666 8.170410826e-39
-0.1517551988 -0.06716825813 -0.2398015708 8.170410826e-39
0.1159962788 -0.07627070695 0.2036346644 8.170410826e-39
-0.1676601171 -0.0653771162 0.06746549159 8.170410826e-39
0.1859806329 -0.07377581298 0.3578336239 8.170410826e-39
-0.1710045636 -0.07223877311 -0.127968654 8.170410826e-39
-0.04825266823 -0.07716134936 0.2051142454 8.170410826e-39
-0.1307231933 -0.06768479943 0.1901329458 8.170410826e-39
0.171588853 -0.09122930467 0.4248303175 8.170410826e-39
-0.1596437097 -0.06977821141 -0.191716522 8.170410826e-39
0.01885883324 -0.07913576812 0.2119245678 8.170410826e-39
-0.1125767529 -0.06986005604 0.123776041 8.170410826e-39
0.1438423842 -0.07368273288 0.3488919437 8.170410826e-39
-0.1170082316 -0.0730689019 0.01387621835 8.170410826e-39
-0.03332860395 -0.07862462848 0.08864709735 8.170410826e-39
-0.07245497406 -0.07459077984 0.1603779793 8.170410826e-39
0.06872613728 -0.0727911219 0.3565500975 8.170410826e-39
-0.06642571837 -0.07817376405 0.02486778609 8.170410826e-39
0.02776009962 -0.077828601 0.1186292991 8.170410826e-39
-0.04035224393 -0.08051645756 -0.06765459478 8.170410826e-39
-0.1033381522 -0.07599115372 0.3564198911 8.170410826e-39
-0.0336388275 -0.07941034436 0.03203911707 8.170410826e-39
0.1079573035 -0.06978049129 0.4266807735 8.170410826e-39
-0.09601676464 -0.07891242951 -0.192094788 8.170410826e-39
0.0620097816 -0.07528528571 0.2886441946 8.170410826e-39
-0.08124405146 -0.07508385926 0.3208758831 8.170410826e-39
-0.1529863328 0.01857730746 0.4360613525 8.906165387e-39
-0.1625332236 0.01180907618 0.1218177527 8.906165387e-39
-0.03584967554 -0.006486518774 0.4230515361 8.906165387e-39
-0.1605101973 0.0303123761 -0.1024485528 8.906165387e-39
-0.1706820279 0.01635004207 0.2401165366 8.906165387e-39
-0.1394541711 -0.01097112056 0.3093708754 8.906165387e-39
-0.1608737707 -0.1195886582 0.4470049739 8.906165387e-39
-0.1868628114 0.07504890859 0.1937728971 8.906165387e-39
-0.16817002 -0.01413955167 0.4480261803 8.906165387e-39
-0.1743522584 0.01923921891 0.1680610627 8.906165387e-39
-0.07064249367 -0.05449595675 0.4303049445 8.906165387e-39
-0.1772313118 0.04701561853 0.001034006127 8.906165387e-39
-0.1807862371 0.09571488947 0.3296713531 8.906165387e-39
-0.1349966675 -0.02445686795 0.2148499936 8.906165387e-39
-0.1133741736 -0.09573595226 0.4394738078 8.906165387e-39
-0.1680571437 0.04776686803 0.08986003697 8.906165387e-39
-0.1747370809 0.07526630163 0.4210980535 8.906165387e-39
-0.1506040692 -0.01103280764 0.2072244585 8.906165387e-39
-0.06733985245 0.006722624879 0.4016862512 8.906165387e-39
-0.1550094634 0.03347006813 -0.03416543081 8.906165387e-39
-0.1748210043 0.03703577444 0.2771973908 8.906165387e-39
-0.1377129555 -0.02051964216 0.264297843 8.906165387e-39
-0.04490105063 -0.01943592727 0.3430279791 8.906165387e-39
-0.1142370105 -0.04509170353 0.187052086 8.906165387e-39
-0.1373080164 0.007673709188 0.3415415287 8.906165387e-39
-0.1656270623 0.0328665413 0.1451303661 8.906165387e-39
-0.1424492747 0.02243791148 0.3766889274 8.906165387e-39
-0.1213175207 -0.01160991564 0.3382763565 8.906165387e-39
-0.1735417545 -0.09478548169 0.4520655572 8.906165387e-39
-0.1856253594 0.07141762972 0.2394279093 8.906165387e-39
-0.1596828103 0.04343584552 0.4307116568 8.906165387e-39
-0.1674525738 0.02227907628 0.09082758427 8.906165387e-39
-0.1875935197 -0.07313278317 0.1253300607 9.641561216e-39
-0.1341176182 -0.06355356425 0.3505877554 9.641561216e-39
-0.1732199192 -0.065554142 -0.09244219214 9.641561216e-39
-0.1923373789 -0.05318843946 0.4649166465 9.641561216e-39
-0.1538084894 -0.06383494288 0.01282573957 9.641561216e-39
-0.2156738341 -0.08534453809 0.3469859958 9.641561216e-39
-0.1541809291 -0.04331300035 -0.2499150038 9.641561216e-39
-0.1904829741 0.03252086416 0.3500468135 9.641561216e-39
-0.1806812137 -0.07809557021 0.2345914245 9.641561216e-39
-0.134595409 -0.06360217929 0.2257228643 9.641561216e-39
-0.1617847681 -0.05697900057 -0.1662655622 9.641561216e-39
-0.1966204196 0.003485598369 0.4410977364 9.641561216e-39
-0.1626829207 -0.06977161765 0.09117405117 9.641561216e-39
-0.1618984044 -0.07241949439 0.3176176846 9.641561216e-39
-0.1492627859 -0.04851971939 -0.1986653507 9.641561216e-39
-0.1941042691 0.02170720883 0.4131709337 9.641561216e-39
-0.177990675 -0.0762796849 0.2040958852 9.641561216e-39
-0.156694144 -0.07302584499 0.2612130642 9.641561216e-39
-0.1574261785 -0.05900612846 -0.1225836426 9.641561216e-39
-0.1922112256 -0.06364841759 0.452611804 9.641561216e-39
-0.143723473 -0.06123936921 0.05553413555 9.641561216e-39
-0.1830644608 -0.07956623286 0.2767095268 9.641561216e-39
-0.09779928625 -0.04484228045 -0.04095671326 9.641561216e-39
-0.1958884448 -0.09935047477 0.4531156719 9.641561216e-39
-0.1464719176 -0.06535877287 0.1192140877 9.641561216e-39
-0.1773981452 -0.07574377209 0.4150977433 9.641561216e-39
-0.1119509488 -0.05275609344 0.0479876101 9.641561216e-39
-0.2203453779 -0.08619192243 0.4110093713 9.641561216e-39
-0.1624220759 -0.06452853233 -0.05512339249 9.641561216e-39
-0.1738042533 0.007546050474 0.3889632523 9.641561216e-39
-0.1550090164 -0.07119927555 0.1806438118 9.641561216e-39
-0.1549706012 -0.05573511496 0.4054614902 9.641561216e-39
0.07156094909 -0.01632569171 0.4359251857 1.037659831e-38
0.01116489433 -0.09315129369 0.107071735 1.037659831e-38
0.2106932849 -0.02446999215 0.3697758615 1.037659831e-38
0.0731882602 -0.08094988018 0.1293868721 1.037659831e-38
0.1277119517 -0.02603288554 0.3589378893 1.037659831e-38
0.1188229322 -0.03317349777 0.3349822164 1.037659831e-38
0.02241812833 0.01435153 0.4160229564 1.037659831e-38
0.02722512372 -0.06762860715 -0.2721856236 1.037659831e-38
-0.1121701598 -0.0005659460439 0.4037728012 1.037659831e-38
0.1133113205 -0.09581939876 0.1371689439 1.037659831e-38
0.2030287981 -0.0249800887 0.4015958905 1.037659831e-38
0.0007773114485 -0.07962177694 -0.07393307984 1.037659831e-38
0.1318327039 -0.03566700593 0.3862789571 1.037659831e-38
0.1563109159 -0.07553306222 0.2435824871 1.037659831e-38
0.1299884915 -5.61773777e-06 0.4357165694 1.037659831e-38
0.01647520065 -0.06839225441 -0.1544244885 1.037659831e-38
0.05093430728 -0.014486067 0.4119732976 1.037659831e-38
0.1649607867 -0.07776647806 0.2187504321 1.037659831e-38
0.118308343 -0.07184912264 0.2541478872 1.037659831e-38
0.01447584666 -0.0855769515 0.04392996058 1.037659831e-38
0.1258130521 -0.02101672441 0.3666867018 1.037659831e-38
0.1976308078 -0.04555536807 0.3270632923 1.037659831e-38
0.1594022661 -0.04965245724 0.3310237825 1.037659831e-38
-0.07501228154 -0.08759024739 -0.1116228998 1.037659831e-38
0.07976271212 -0.009234433994 0.4077145457 1.037659831e-38
0.1408265233 -0.07349127531 0.2048482299 1.037659831e-38
0.01854933798 -0.01168935373 0.3531445265 1.037659831e-38
-0.06364891678 -0.09128516912 0.0597951822 1.037659831e-38
-0.04595221952 0.02610896155 0.4074035287 1.037659831e-38
0.05714106932 -0.07852496207 -0.004769063555 1.037659831e-38
-0.1174882278 -0.005039574578 0.4151628911 1.037659831e-38
0.001576042385 -0.09336831421 0.1572974026 1.037659831e-38
-0.1131530628 0.004096971359 -0.3597966135 1.111163541e-38
0.01343999337 -0.005405155476 -0.02785870992 1.111163541e-38
0.06191045418 -0.0127738798 -0.1059143394 1.111163541e-38
0.06406886131 -0.01161140203 0.07526691258 1.111163541e-38
-0.06036617607 -4.972144961e-05 -0.3720261157 1.111163541e-38
-0.001033708104 -0.006132632028 -0.1877148449 1.111163541e-38
-0.001632845495 -0.007869966328 -0.376092732 1.111163541e-38
0.09419284016 -0.02086414769 0.1815703958 1.111163541e-38
0.02749145776 -0.008597730659 -0.227368325 1.111163541e-38
0.0394558683 -0.008356726728 0.06198402494 1.111163541e-38
0.05729904771 -0.01588138938 -0.2514644861 1.111163541e-38
0.09043254703 -0.01982370391 0.1722445637 1.111163541e-38
-0.03497853875 -0.004161402583 -0.2843336165 1.111163541e-38
0.005970370024 -0.004763865378 -0.05237462372 1.111163541e-38
0.04245858267 -0.01437112968 -0.3226832747 1.111163541e-38
0.09515363723 -0.02062509209 0.1541624069 1.111163541e-38
-0.004942168482 -0.006215970963 -0.2575465143 1.111163541e-38
3.425776958e-05 -0.004307617899 -0.03350599855 1.111163541e-38
0.04908439517 -0.01499606296 -0.2180193812 1.111163541e-38
0.0681746304 -0.01136786118 0.06501641124 1.111163541e-38
-0.005335362162 -0.00620161416 -0.3212682307 1.111163541e-38
0.01149579883 -0.007522433531 -0.1215602607 1.111163541e-38
-0.000912807649 -0.007719991263 -0.3376206756 1.111163541e-38
0.07074635476 -0.0119796358 -0.08830808848 1.111163541e-38
0.01979754679 -0.01020114496 -0.3010474741 1.111163541e-38
0.0266536288 -0.007563442923 -0.04728108644 1.111163541e-38
-0.09762565047 0.001251827227 -0.2976613045 1.111163541e-38
0.03841578588 -0.01215290651 -0.2185514867 1.111163541e-38
0.03611430526 -0.01249161735 -0.2914602757 1.111163541e-38
0.07190985233 -0.01098359376 0.02928161807 1.111163541e-38
0.04071187973 -0.01145397965 -0.1661524624 1.111163541e-38
0.04778874665 -0.009513644502 -0.0149365468 1.111163541e-38
-0.1722634137 0.1214141399 -0.1673398316 1.184631237e-38
-0.154428795 0.1139969751 -0.3675718606 1.184631237e-38
-0.1582297832 0.1134469956 -0.02864357084 1.184631237e-38
-0.1537894756 0.04417166486 0.2500791848 1.184631237e-38
-0.14943932 0.1178204268 -0.1720045805 1.184631237e-38
-0.1470963061 0.1150401011 -0.2050181776 1.184631237e-38
-0.1516330689 0.09448467195 0.2638198137 1.184631237e-38
-0.1602866352 0.1241276935 -0.1855755597 1.184631237e-38
-0.1512866765 0.115432106 -0.4243057668 1.184631237e-38
-0.1499405652 0.1144432798 -0.3855244219 1.184631237e-38
-0.1534130871 0.1131660044 0.06394455582 1.184631237e-38
-0.1622602344 0.1050957739 0.04792311788 1.184631237e-38
-0.1554811001 0.1140513048 -0.3674639761 1.184631237e-38
-0.1445899308 0.1123084277 -0.2682816684 1.184631237e-38
-0.1564585865 0.1046225578 0.1632369459 1.184631237e-38
-0.1758090556 0.1133517548 -0.07055541128 1.184631237e-38
-0.1693883836 0.1174245998 -0.4099262655 1.184631237e-38
-0.1534069628 0.1137997583 -0.314663887 1.184631237e-38
-0.1576473266 0.1160541773 -0.08909904212 1.184631237e-38
-0.1467301846 0.02351374365 0.332049042 1.184631237e-38
-0.1758391559 0.122652933 -0.2996815145 1.184631237e-38
-0.1533782035 0.116363287 -0.2324867994 1.184631237e-38
-0.16979222 0.1187308207 0.003881881945 1.184631237e-38
-0.1504403651 0.07087109238 0.3118462861 1.184631237e-38
-0.1571412235 0.1231669858 -0.178690806 1.184631237e-38
-0.1651016474 0.1213452071 -0.2391326874 1.184631237e-38
-0.1645158231 0.1003158465 0.04691726342 1.184631237e-38
-0.1444937438 0.1132047176 -0.1398376375 1.184631237e-38
-0.1547753811 0.1118539795 0.122566171 1.184631237e-38
-0.1822247207 0.1161673293 -0.3967896998 1.184631237e-38
-0.1577997804 0.1162322685 -0.441873014 1.184631237e-38
-0.1554230154 0.1137021631 -0.3340548873 1.184631237e-38
-0.2197950482 0.09249307215 -0.09474278241 1.258099074e-38
-0.2076693177 0.0116003463 0.4500416219 1.258099074e-38
-0.2346739918 0.06269440055 0.2079164684 1.258099074e-38
-0.213381961 0.0534170866 0.4600259364 1.258099074e-38
-0.2198822498 0.08932106942 0.009505110793 1.258099074e-38
-0.2356608957 0.04055849463 0.2508897483 1.258099074e-38
-0.217575565 0.08925500512 0.05027827621 1.258099074e-38
-0.2292505652 0.07831356674 0.2759038508 1.258099074e-38
-0.2237346321 0.08942795545 -0.266720742 1.258099074e-38
-0.204444319 -0.03397908434 0.4402332008 1.258099074e-38
-0.2279858589 0.08098374307 0.1558589488 1.258099074e-38
-0.2242712677 0.07954980433 0.3670045137 1.258099074e-38
-0.2286462039 0.08881182969 -0.1252079606 1.258099074e-38
-0.2181993574 0.03718579188 0.3415072262 1.258099074e-38
-0.2167822719 0.08798612654 0.07768482715 1.258099074e-38
-0.2218155861 0.08933541924 0.3075875044 1.258099074e-38
-0.2215500027 0.08928496391 -0.1789250672 1.258099074e-38
-0.210833177 0.02899004146 0.4362553954 1.258099074e-38
-0.2192194164 0.08731631935 0.2056988478 1.258099074e-38
-0.219533205 0.08587279916 0.4446803927 1.258099074e-38
-0.2228783071 0.08674327284 -0.04473762959 1.258099074e-38
-0.2300149351 0.05432004109 0.2599890828 1.258099074e-38
-0.2210368067 0.09441620857 0.2407806963 1.258099074e-38
-0.2254941761 0.09163802117 0.4092880785 1.258099074e-38
-0.2403113991 0.05998837203 0.05777582899 1.258099074e-38
-0.2170183063 0.05946270004 0.4184297621 1.258099074e-38
-0.2177805007 0.08972322941 0.001531155547 1.258099074e-38
-0.2290799916 0.04730981961 0.3031899035 1.258099074e-38
-0.231241852 0.08029256016 0.1089416072 1.258099074e-38
-0.2235754579 0.06346557289 0.358522743 1.258099074e-38
-0.2219030112 0.09571423382 -0.2357077599 1.258099074e-38
-0.2143317461 -0.005343580153 0.3993023932 1.258099074e-38
-0.1045080423 -0.07142589986 -0.2144073397 1.331530897e-38
-0.028115483 -0.08624181151 0.3482433558 1.331530897e-38
0.02878235094 -0.07885538042 -0.001694498817 1.331530897e-38
0.01399727352 -0.0684973821 -0.1477469504 1.331530897e-38
-0.003242555773 -0.06744304299 -0.2486291975 1.331530897e-38
-0.1116390377 -0.0837823227 0.04130234197 1.331530897e-38
-0.1307911128 -0.06597881019 -0.3187429905 1.331530897e-38
0.05739833415 -0.08151035756 0.2664127052 1.331530897e-38
-0.1848355532 -0.04255444184 -0.440775007 1.331530897e-38
0.05660635605 -0.07985979319 0.3741371334 1.331530897e-38
-0.02907571755 -0.07204397023 -0.1337552667 1.331530897e-38
0.04081274942 -0.08198917657 0.1024739444 1.331530897e-38
-0.1305348724 -0.06447880715 -0.3490084708 1.331530897e-38
-0.08504381776 -0.08941111714 0.1903159022 1.331530897e-38
-0.09601661563 -0.06797515601 -0.2790492773 1.331530897e-38
0.05640559644 -0.08214260638 0.1923845708 1.331530897e-38
-0.1793160886 -0.09534810483 -0.429025352 1.331530897e-38
-0.03457068652 -0.08576593548 0.2608683109 1.331530897e-38
-0.0918577835 -0.07596859336 -0.1189596877 1.331530897e-38
0.02465756238 -0.0823488459 0.06340041012 1.331530897e-38
-0.03532222658 -0.07024157792 -0.3377255201 1.331530897e-38
-0.08900325 -0.08058491349 -0.001521779923 1.331530897e-38
-0.1345550418 -0.07968883216 -0.1692908555 1.331530897e-38
-0.01270617731 -0.08667457849 0.1552371979 1.331530897e-38
-0.08014562726 -0.07594972849 -0.3827496767 1.331530897e-38
-0.03849985078 -0.0660546273 -0.1734304428 1.331530897e-38
-0.1405682266 -0.06652671844 -0.2709432244 1.331530897e-38
-0.1388583481 -0.08000148833 -0.09963130206 1.331530897e-38
-0.1857117712 -0.07874592394 -0.3705225885 1.331530897e-38
0.01430998649 -0.07262060046 -0.07264124602 1.331530897e-38
-0.1307074577 -0.07909503579 -0.415032506 1.331530897e-38
0.005769621115 -0.08358899504 0.2523829341 1.331530897e-38
-0.1258657128 0.004310581367 -0.136066854 1.404926846e-38
-0.1456142813 0.03526627272 -0.02395758033 1.404926846e-38
-0.1452359259 0.06555145979 0.2301002741 1.404926846e-38
-0.1233330518 0.002289782977 -0.23462753 1.404926846e-38
-0.1495584399 0.05274447799 -0.04070597142 1.404926846e-38
-0.1315900832 0.009243835695 0.3080317974 1.404926846e-38
-0.1357794851 0.07349004596 0.3567850888 1.404926846e-38
-0.142463997 0.01328208391 -0.3092108369 1.404926846e-38
-0.1486644447 0.02266255021 -0.3677378595 1.404926846e-38
-0.1428758204 0.02618045174 -0.1515832841 1.404926846e-38
-0.1444408447 0.05465973169 0.2383529693 1.404926846e-38
-0.1297099292 0.007026884705 -0.2952821553 1.404926846e-38
-0.1537112445 0.03764619678 -0.2742648423 1.404926846e-38
-0.1402134746 0.0331024453 0.1388715059 1.404926846e-38
-0.1404123157 0.0845111534 0.2996752262 1.404926846e-38
-0.1424562484 0.0126917772 -0.300511688 1.404926846e-38
-0.1565890014 0.0379325375 -0.3020940423 1.404926846e-38
-0.1472385228 0.0430810526 0.05689424276 1.404926846e-38
-0.1494697481 0.0563294366 0.2038928419 1.404926846e-38
-0.1393354386 0.00567660341 -0.1877323836 1.404926846e-38
-0.1582518667 0.06855908036 -0.1461783499 1.404926846e-38
-0.1390600801 0.03560441732 0.3215752244 1.404926846e-38
-0.156707406 0.06822758913 0.05187406763 1.404926846e-38
-0.1476914734 0.01740719378 0.0390580669 1.404926846e-38
-0.1520766318 0.03205409274 -0.2290159613 1.404926846e-38
-0.1463942975 0.02978511341 0.1234207898 1.404926846e-38
-0.1401120126 0.01857324131 -0.01080340985 1.404926846e-38
-0.1332024336 0.003392936662 0.2188874483 1.404926846e-38
-0.1482388228 0.04159975052 -0.1618605405 1.404926846e-38
-0.1338305622 0.01220027916 -0.1392576993 1.404926846e-38
-0.1563058645 0.05329622701 -0.3275776803 1.404926846e-38
-0.1454511285 0.03843088076 -0.1135767773 1.404926846e-38
-0.1172639281 -0.01670984365 0.1309904903 1.478322936e-38
-0.1483804137 -0.004477508366 0.2232744992 1.478322936e-38
-0.1116036549 -0.02417441271 0.2787407339 1.478322936e-38
-0.108535625 -0.02088212594 -0.01519966964 1.478322936e-38
-0.1570321769 0.007940155454 0.2834674716 1.478322936e-38
-0.1157651097 -0.014001959 -0.2121333033 1.478322936e-38
-0.1256500483 -0.01416978054 0.3866418302 1.478322936e-38
-0.1152651832 -0.02301554009 0.2308105081 1.478322936e-38
-0.1204027683 -0.005383737385 -0.1302399635 1.478322936e-38
-0.1454662681 -0.0012793981 0.3262992501 1.478322936e-38
-0.1114295796 -0.02081347629 0.3230220973 1.478322936e-38
-0.1118735299 -0.01748090982 0.05039821565 1.478322936e-38
-0.1467193961 0.02833671495 -0.02551994845 1.478322936e-38
-0.1277264059 0.00555718923 -0.177024141 1.478322936e-38
-0.1162166372 -0.01949583367 0.3720234931 1.478322936e-38
-0.1095179543 -0.0266079586 0.1716977507 1.478322936e-38
-0.1325505376 0.00418321602 -0.08212421089 1.478322936e-38
-0.1324400902 0.005865454674 -0.1221096516 1.478322936e-38
-0.1150991023 -0.02403265797 0.2590040267 1.478322936e-38
-0.1199330091 -0.01021930762 0.04498578981 1.478322936e-38
-0.153791219 0.009495927021 0.1587310284 1.478322936e-38
-0.1215113029 0.002241041511 -0.2774478495 1.478322936e-38
-0.1206437647 -0.01506328676 0.3064044714 1.478322936e-38
-0.1203192621 -0.009588796645 -0.05796974152 1.478322936e-38
-0.1435547173 -0.0001863539219 0.156539157 1.478322936e-38
-0.1196742579 -0.01060148887 -0.09349887073 1.478322936e-38
-0.1391433477 -0.007044429891 0.1929714531 1.478322936e-38
-0.1165558249 -0.0137819415 -0.1909179837 1.478322936e-38
-0.1378359497 -0.009079333395 0.2094522119 1.478322936e-38
-0.1245485917 -0.007533512078 0.06169709563 1.478322936e-38
-0.1346441954 0.01885405183 -0.2098344266 1.478322936e-38
-0.1459966898 0.01309093554 0.07157118618 1.478322936e-38
0.2099748254 -0.01283554453 0.08558787405 1.551683013e-38
0.2098661512 0.001931197359 0.3192225099 1.551683013e-38
0.1131361127 -0.0112928329 0.09335017204 1.551683013e-38
0.1312315464 -0.01397209056 0.07726491243 1.551683013e-38
0.2247835845 -0.01615624875 0.1076874807 1.551683013e-38
0.2054407746 -0.0009236947517 0.2383391559 1.551683013e-38
0.2092749625 -0.00371280103 0.2022353113 1.551683013e-38
0.2026481926 -0.003933219239 0.1641720533 1.551683013e-38
0.1171527132 -0.02325107343 0.008421464823 1.551683013e-38
0.2060257494 0.003800234059 0.3570291996 1.551683013e-38
0.143366158 -0.003133772872 0.1339200586 1.551683013e-38
0.1599917561 -0.006417741533 0.1082587466 1.551683013e-38
0.1857328713 -0.01545425598 0.064570494 1.551683013e-38
0.1998754591 0.001480567153 0.2693116069 1.551683013e-38
0.1789850295 -0.0004043467052 0.1717184931 1.551683013e-38
0.1869515181 -0.004221905954 0.134548977 1.551683013e-38
0.1609706134 -0.02153049782 0.02648834698 1.551683013e-38
0.2149835825 -0.001028572791 0.2836130261 1.551683013e-38
0.1542208344 -0.008554732427 0.09963791817 1.551683013e-38
0.1725098938 -0.01046611741 0.09109485894 1.551683013e-38
0.2035039365 -0.01053900924 0.09401835501 1.551683013e-38
0.2008990794 -0.000751515734 0.2258517593 1.551683013e-38
0.2172948122 -0.007142839488 0.1604316235 1.551683013e-38
0.2014168799 -0.006919443142 0.1287575513 1.551683013e-38
0.1281244308 -0.01960890554 0.05298751593 1.551683013e-38
0.1589466482 -0.001784831285 0.1435102224 1.551683013e-38
0.2278374135 -0.0158166755 0.1383322626 1.551683013e-38
0.2311172783 -0.01481983904 0.1887612343 1.551683013e-38
0.04698737338 -0.01580935717 0.09264667332 1.551683013e-38
0.212349236 -0.00444723526 0.1903138161 1.551683013e-38
0.1152290478 -0.0207806956 0.03921280056 1.551683013e-38
0.2052879035 0.001823291066 0.2990472317 1.551683013e-38
-0.2055484205 -0.00913622696 0.2534641922 1.625043089e-38
-0.1976276785 0.07233702391 0.07007933408 1.625043089e-38
-0.1954484582 -0.05817462131 0.3680564463 1.625043089e-38
-0.1991282701 0.02612083592 0.06320561469 1.625043089e-38
-0.1966981441 -0.04285372794 0.4088633657 1.625043089e-38
-0.1945460588 0.06318472326 0.2118730247 1.625043089e-38
-0.2031502426 -0.05625087023 0.1350499839 1.625043089e-38
-0.2052797675 0.04815370962 -0.2254927158 1.625043089e-38
-0.2015408128 0.0105634816 0.1557983756 1.625043089e-38
-0.201520741 0.06693209708 -0.03161496669 1.625043089e-38
-0.1897153258 -0.07997981459 0.3085654378 1.625043089e-38
-0.2018569708 0.05368837342 -0.1027103588 1.625043089e-38
-0.1986563653 0.0630813092 0.3319500387 1.625043089e-38
-0.1954246014 0.0712929517 0.1544177085 1.625043089e-38
-0.2034516931 -0.06076135486 0.24482131 1.625043089e-38
-0.2032675445 0.05250178277 -0.1674058437 1.625043089e-38
-0.1964812279 0.06466535479 0.2506263256 1.625043089e-38
-0.1979601383 0.0715900138 0.1002611443 1.625043089e-38
-0.2011493891 -0.05279341713 0.2958318889 1.625043089e-38
-0.1988005787 0.02852693945 -0.0178234335 1.625043089e-38
-0.2005272657 0.04527651891 0.3938635886 1.625043089e-38
-0.1939282864 0.06626944244 0.2043922096 1.625043089e-38
-0.2044662535 0.0003873835958 0.2825872004 1.625043089e-38
-0.1982230991 -0.02664307132 -0.01139961369 1.625043089e-38
-0.2009950131 -0.008278735913 0.3511324227 1.625043089e-38
-0.202197209 -0.0006593064172 0.1063110158 1.625043089e-38
-0.2001891583 0.05078750849 0.3116649389 1.625043089e-38
-0.179444164 -0.06065292656 0.07791379094 1.625043089e-38
-0.2057477087 -0.04907263815 0.1937446445 1.625043089e-38
-0.2003726065 0.01390061434 -0.1172082201 1.625043089e-38
-0.1980749816 0.03167578205 0.1917255968 1.625043089e-38
-0.199268803 0.06945607811 0.02937462926 1.625043089e-38
-0.1757516265 -0.00123503746 -0.2419377863 1.698367293e-38
0.01269139722 0.001139886212 -0.2477283925 1.698367293e-38
-0.1953051537 -0.009881212376 -0.2632790804 1.698367293e-38
0.08823326975 -0.002911969321 -0.3554806113 1.698367293e-38
-0.01762763411 -0.002380999969 -0.1461578757 1.698367293e-38
-0.1011973321 0.002154831309 -0.3034740984 1.698367293e-38
-0.04262290895 -0.07695125788 -0.4397262335 1.698367293e-38
0.04266537353 -0.09813681245 -0.4063054025 1.698367293e-38
-0.1432523727 0.01131959353 0.02106862888 1.698367293e-38
0.07564733177 0.004989947658 -0.3377993107 1.698367293e-38
-0.125516817 0.001512131421 -0.3905578554 1.698367293e-38
0.05207968503 -0.03809363022 -0.365034461 1.698367293e-38
-0.09969897568 0.006145943888 -0.1166297793 1.698367293e-38
-0.001459970023 0.001551775844 -0.291716516 1.698367293e-38
-0.0449096337 -0.008124701679 -0.4442688525 1.698367293e-38
0.04033313319 -0.07570939511 -0.4073638022 1.698367293e-38
-0.1266952902 0.01001472771 -0.0583939068 1.698367293e-38
-0.009525950067 0.004529683385 -0.3380473554 1.698367293e-38
-0.03860912472 0.002494672779 -0.4047866464 1.698367293e-38
0.04978585988 -0.03468503058 -0.367477715 1.698367293e-38
-0.08171521127 0.004585479852 -0.2434827834 1.698367293e-38
0.02627247758 0.007507704664 -0.3810867667 1.698367293e-38
0.03108576871 -0.009337556548 -0.4146939218 1.698367293e-38
0.006429539062 -0.09276419133 -0.4412879944 1.698367293e-38
-0.1244468391 0.004604537971 -0.2629275918 1.698367293e-38
0.03508839011 -0.03170604631 -0.4169876575 1.698367293e-38
0.05556960776 -0.02722117491 -0.3945962787 1.698367293e-38
0.01430109981 -0.05056904629 -0.4280087054 1.698367293e-38
-0.144266665 -0.0003741904802 -0.3824892342 1.698367293e-38
0.03572552279 -0.09107366949 -0.4178927839 1.698367293e-38
-0.1516501755 0.009285987355 -0.04564486444 1.698367293e-38
0.04876207933 0.003245059168 -0.328663975 1.698367293e-38
0.1354835331 0.005288922228 0.3471230865 1.771655483e-38
-0.003597500967 -0.0231052842 0.391479522 1.771655483e-38
0.08612784743 0.001222835272 0.3209838271 1.771655483e-38
0.08502812684 0.0139986705 0.3706969023 1.771655483e-38
0.1647587121 0.002284016227 0.2842666507 1.771655483e-38
-0.02613092586 0.02986609563 0.3863536716 1.771655483e-38
0.09013013542 0.002471823711 0.216329053 1.771655483e-38
0.1390764564 -0.04046100006 0.3859786987 1.771655483e-38
0.1205255687 0.006541742943 0.3645137846 1.771655483e-38
-0.1089006662 0.01551465224 0.3901586235 1.771655483e-38
0.08132155985 0.001032940694 0.2864916623 1.771655483e-38
0.1677353084 0.0229461845 0.3969573081 1.771655483e-38
0.1304802597 0.0007101966767 0.3265990615 1.771655483e-38
-0.0560070388 0.02523522265 0.3928678632 1.771655483e-38
0.05244019628 0.0002964809537 0.2610439658 1.771655483e-38
0.1505236328 -0.007579792291 0.3922738433 1.771655483e-38
0.1580048054 0.003391288221 0.3414417207 1.771655483e-38
-0.1068715602 0.02181750722 0.3925391138 1.771655483e-38
0.08274696767 0.002817282453 0.3358531296 1.771655483e-38
0.2041596472 0.01612782851 0.3875245452 1.771655483e-38
0.1986886263 0.001563709811 0.3038262725 1.771655483e-38
0.02209347114 0.03379434347 0.3954069316 1.771655483e-38
0.1072136834 0.004905179143 0.3426192105 1.771655483e-38
0.2065418065 -0.01245149504 0.3715078533 1.771655483e-38
0.205247432 0.002433984308 0.2613507211 1.771655483e-38
0.1214869544 0.03599754348 0.4028451145 1.771655483e-38
0.2038615793 0.002454516245 0.1911239028 1.771655483e-38
0.1411197931 0.02429437079 0.3845386207 1.771655483e-38
0.1813637614 0.004661370534 0.2357260436 1.771655483e-38
0.1564502716 -0.0169470869 0.3869679272 1.771655483e-38
0.198331058 0.007522108499 0.3680845797 1.771655483e-38
0.0136682149 0.008518012241 0.394716084 1.771655483e-38
-0.2133761644 0.06062377244 -0.3455121517 1.844943813e-38
-0.2188546807 0.07641973346 -0.1137019992 1.844943813e-38
-0.2122574002 0.0357436277 0.1415108293 1.844943813e-38
-0.2140233517 0.04654372483 -0.04151560739 1.844943813e-38
-0.2178426236 0.06897067279 -0.2559287548 1.844943813e-38
-0.219372198 0.05526330322 -0.198330462 1.844943813e-38
-0.2087500244 0.01681597345 0.29109779 1.844943813e-38
-0.2189956009 0.0220008418 0.001651364728 1.844943813e-38
-0.2108600736 0.06120380014 -0.3912405074 1.844943813e-38
-0.2160416842 0.0749174282 -0.07575050741 1.844943813e-38
-0.2137437016 0.03603271022 0.1763678342 1.844943813e-38
-0.2127819359 0.04130534828 -0.001639394439 1.844943813e-38
-0.2129015326 0.0608910732 -0.3354749084 1.844943813e-38
-0.2164077312 0.06791841984 -0.1469012052 1.844943813e-38
-0.2093357146 0.02301523089 0.2397502959 1.844943813e-38
-0.212936461 0.02960257791 0.03300997987 1.844943813e-38
-0.2132742852 0.0548315458 -0.3678160012 1.844943813e-38
-0.2189418674 0.04449282214 -0.1134594157 1.844943813e-38
-0.2146286815 0.04980696738 0.08642818034 1.844943813e-38
-0.2111607194 0.0572434701 -0.04765085131 1.844943813e-38
-0.2169305384 0.05305293202 -0.2515132427 1.844943813e-38
-0.2203454524 0.03928773105 -0.1710615009 1.844943813e-38
-0.2151769698 0.05947831273 0.03684832156 1.844943813e-38
-0.2112082094 0.04155215994 -0.08939168602 1.844943813e-38
-0.2157317698 0.04955246672 -0.3001997173 1.844943813e-38
-0.2219254225 0.0372373201 -0.1341535002 1.844943813e-38
-0.2160236835 0.08745002002 -0.1628098935 1.844943813e-38
-0.2127592862 0.06894872338 -0.2057481706 1.844943813e-38
-0.2105760127 0.01625484414 0.09969827533 1.844943813e-38
-0.2176497877 0.02240032889 -0.04217634723 1.844943813e-38
-0.2152247131 0.06999886781 -0.2903434038 1.844943813e-38
-0.2151686847 0.06859435886 0.0006361789419 1.844943813e-38
-0.1312081665 -0.09367201477 0.3771442771 1.91819627e-38
-0.1073917001 -0.09315861017 0.08501837403 1.91819627e-38
-0.01841180213 -0.09155065566 0.368681103 1.91819627e-38
-0.06564792246 -0.09176087379 0.1030089408 1.91819627e-38
-0.1402577162 -0.0920542106 0.1275292784 1.91819627e-38
-0.04828924313 -0.09339679778 0.2531260848 1.91819627e-38
0.07770945877 -0.09068630636 0.2899467945 1.91819627e-38
-0.1042546853 -0.08185551316 -0.1298098713 1.91819627e-38
-0.1355582029 -0.0920926854 0.3351519704 1.91819627e-38
