# .PCD v0.7 - Point Cloud Data file format
VERSION 0.7
FIELDS x y z rgb
SIZE 4 4 4 4
TYPE F F F F
COUNT 1 1 1 1
WIDTH 824
HEIGHT 1
VIEWPOINT 0 0 0 1 0 0 0
POINTS 824
DATA ascii
0.2028558105 -0.06076486781 0.1057388335 5.962428276e-39
-0.07434879988 -0.03334853798 0.1053936705 5.962428276e-39
0.05170296505 -0.02181868814 0.0536239855 5.962428276e-39
-0.169183597 -0.0710086748 0.1189034954 5.962428276e-39
0.01994784363 -0.08027448505 0.1132304966 5.962428276e-39
-0.2492530048 -0.05190271139 0.1075888649 5.962428276e-39
-0.1837915033 -0.03238263354 0.01443907805 5.962428276e-39
0.07317604125 -0.04470567778 0.1162457541 5.962428276e-39
0.3294096887 -0.0378825888 0.08912376314 5.962428276e-39
-0.04352921247 -0.02817126177 0.1016162485 5.962428276e-39
0.2027437836 -0.01288148668 0.05257998034 5.962428276e-39
0.09158725291 -0.03574160486 0.1137666926 5.962428276e-39
0.1862282604 -0.03582795337 0.1061021462 5.962428276e-39
-0.3062634468 -0.04916534573 0.07847288251 5.962428276e-39
-0.1897595376 -0.03311504424 0.06300186366 5.962428276e-39
0.1239125878 -0.02752961777 0.1085466892 5.962428276e-39
0.2702157795 -0.03410896659 0.0967656523 5.962428276e-39
-0.1910497546 0.02237886563 0.1288487911 6.698542971e-39
-0.146398887 0.01183701865 0.1304958463 6.698542971e-39
-0.2288112491 -0.04068456218 0.1358804554 6.698542971e-39
-0.05399845913 -0.02257864177 0.1328137517 6.698542971e-39
-0.2519049942 0.008351098746 0.1309350282 6.698542971e-39
-0.2180600762 -0.06780446321 0.1362137049 6.698542971e-39
-0.3644191921 -0.09004761279 0.1243317872 6.698542971e-39
0.2786210477 -0.02502068318 0.1392795444 6.698542971e-39
-0.4433392584 -0.05226124078 0.1130032837 6.698542971e-39
0.0223107934 -0.07949884981 0.1382944882 6.698542971e-39
-0.2921430171 -0.06486919522 0.1314149946 6.698542971e-39
0.150446251 -0.002311598044 0.1429935843 6.698542971e-39
-0.3732291162 -0.04034505785 0.1256963015 6.698542971e-39
-0.06904373318 -0.0564587675 0.1371263266 6.698542971e-39
-0.2379393727 -0.04818851501 0.1360891014 6.698542971e-39
0.09651258588 -0.002352676587 0.1422499418 6.698542971e-39
-0.3057909608 -0.01047127042 0.1295324415 6.698542971e-39
-0.1249768138 -0.07321824878 0.1365694255 6.698542971e-39
-0.3217714429 -0.07078111917 0.1304966062 6.698542971e-39
0.208134532 -0.01376716606 0.1447083354 6.698542971e-39
-0.4089128375 -0.02680284902 0.1258390546 6.698542971e-39
-0.03246224672 -0.02234518155 0.1353891343 6.698542971e-39
-0.1688097864 -0.02406652085 0.1340274811 6.698542971e-39
0.03176924214 -0.01258563437 0.1400595158 6.698542971e-39
-0.2787714601 -0.01931559481 0.1319921315 6.698542971e-39
-0.0338456668 0.01076593343 0.1314450502 6.698542971e-39
-0.09154178947 -0.007898475975 0.1299620271 6.698542971e-39
0.1912988275 -0.00876065623 0.1443421245 6.698542971e-39
-0.403178066 -0.1099244133 0.1121703759 6.698542971e-39
0.1301326752 -0.008838337846 0.1441155225 6.698542971e-39
0.001260689693 0.009880702011 0.1355564594 6.698542971e-39
0.0595276691 0.00615349086 0.140562892 6.698542971e-39
0.3971156776 -0.05505771562 0.1472487897 7.434656265e-39
0.1349557936 -0.08487963676 0.1462537497 7.434656265e-39
0.3323071301 -0.1248182878 0.1455857307 7.434656265e-39
0.3310980201 -0.08415011317 0.1441371739 7.434656265e-39
0.3776140511 -0.06024582684 0.1479792893 7.434656265e-39
0.2165808082 -0.07940216362 0.1485266536 7.434656265e-39
0.3881687224 -0.1167882979 0.1471017003 7.434656265e-39
0.2079967409 -0.07941773534 0.1377208531 7.434656265e-39
0.4440890551 -0.08263419569 0.1436808407 7.434656265e-39
-0.05345534906 -0.08941955119 0.1285963655 7.434656265e-39
0.3565075994 -0.1282210648 0.1458737552 7.434656265e-39
0.2883691788 -0.08930400014 0.1402259022 7.434656265e-39
0.3874826729 -0.09798198938 0.1497787386 7.434656265e-39
0.05508764461 -0.08960489929 0.1405941993 7.434656265e-39
0.3422045708 -0.1273434013 0.1466797888 7.434656265e-39
0.3054449558 -0.0851643458 0.1426704675 7.434656265e-39
0.367074877 -0.09773034602 0.1506106406 7.434656265e-39
0.07484129816 -0.08846187592 0.1418007761 7.434656265e-39
0.3690634668 -0.127762109 0.1450746357 7.434656265e-39
0.2504713535 -0.08267975599 0.1389939338 7.434656265e-39
0.4168182015 -0.09554108977 0.1450211555 7.434656265e-39
-0.02443596721 -0.0904385075 0.1317482144 7.434656265e-39
0.32051 -0.1137117147 0.1440246701 7.434656265e-39
0.3211344481 -0.06572783738 0.1455515027 7.434656265e-39
0.3560882509 -0.06652667373 0.1482718438 7.434656265e-39
0.1546038687 -0.08332821727 0.1443708837 7.434656265e-39
0.3506558537 -0.1089170501 0.1492764801 7.434656265e-39
0.2597702444 -0.07242052257 0.1471778452 7.434656265e-39
0.4220574498 -0.06410069019 0.1470825821 7.434656265e-39
-0.1559287459 -0.08617000282 0.1168806627 7.434656265e-39
0.3002045751 -0.1122912019 0.1387437284 7.434656265e-39
0.3325703442 -0.1108137444 0.1460579187 7.434656265e-39
0.1564002931 -0.04894498363 0.1584032327 8.170410826e-39
0.04860548303 -0.06502301246 0.1539551616 8.170410826e-39
0.3706740439 -0.04130403325 0.153296262 8.170410826e-39
0.04135698453 -0.07227241993 0.1502955556 8.170410826e-39
0.1784200519 -0.04919275269 0.158606872 8.170410826e-39
0.1207368374 -0.05435801297 0.1580478698 8.170410826e-39
0.4613991976 -0.04149726033 0.113549076 8.170410826e-39
-0.146621272 -0.07086404413 0.1531544179 8.170410826e-39
0.3305523694 -0.03717405349 0.1560108364 8.170410826e-39
0.0326515995 -0.06457300484 0.1540765017 8.170410826e-39
0.4201214015 -0.03931200132 0.1502396166 8.170410826e-39
-0.07362127304 -0.07233086228 0.1546242237 8.170410826e-39
0.2665969729 -0.03784484044 0.157804653 8.170410826e-39
0.08066414297 -0.05767441168 0.1570167243 8.170410826e-39
0.3855001628 -0.03804627433 0.1532018483 8.170410826e-39
-0.0383801125 -0.07118270546 0.1550138295 8.170410826e-39
0.2306151837 -0.04094024375 0.1589501798 8.170410826e-39
0.09949071705 -0.05562710389 0.1575867385 8.170410826e-39
0.4443800151 -0.03717376292 0.1412189305 8.170410826e-39
-0.1060115173 -0.07225394249 0.1527970433 8.170410826e-39
0.2953850329 -0.0355460532 0.1566629261 8.170410826e-39
0.06188159436 -0.05963315442 0.1559144109 8.170410826e-39
0.3531433344 -0.03845867887 0.1542912424 8.170410826e-39
-0.01650523953 -0.06443059444 0.1546203345 8.170410826e-39
0.2039672136 -0.04344841465 0.1588378847 8.170410826e-39
0.1424467117 -0.05070155486 0.1586313695 8.170410826e-39
0.1441960484 -0.063679263 0.1556669474 8.170410826e-39
-0.0460273847 -0.05481341109 0.1574579477 8.170410826e-39
0.2253223956 -0.05312455446 0.1592467576 8.170410826e-39
0.004761794116 -0.05965403467 0.154570505 8.170410826e-39
0.2917868197 -0.05397523567 0.1550967246 8.170410826e-39
-0.001821009326 -0.06527763605 0.1540707797 8.170410826e-39
-0.0724831745 -0.03393338621 0.1541044861 8.906165387e-39
-0.2908541262 -0.00982515607 0.1641768217 8.906165387e-39
-0.2966983318 -0.09160775691 0.1649145186 8.906165387e-39
-0.3198328614 -0.04795311391 0.1671938896 8.906165387e-39
-0.01771699078 -0.0286275316 0.1546870619 8.906165387e-39
-0.2314434201 -0.01632968523 0.160773173 8.906165387e-39
-0.3792080879 -0.08868495375 0.1609388292 8.906165387e-39
-0.4416877329 -0.0655593574 0.1554060429 8.906165387e-39
-0.2778453529 -0.03983181715 0.1660933942 8.906165387e-39
-0.4137220681 -0.01236439403 0.1661383659 8.906165387e-39
-0.3437387347 -0.09076580405 0.1627300531 8.906165387e-39
-0.400180012 -0.07314991951 0.1618528366 8.906165387e-39
-0.1865245551 -0.03616927192 0.1591527462 8.906165387e-39
-0.353046149 -0.002936608158 0.1672949791 8.906165387e-39
-0.3189281523 -0.09245015681 0.1635513455 8.906165387e-39
-0.3758740127 -0.07211207598 0.1643498093 8.906165387e-39
-0.1519912034 -0.03694292158 0.157212317 8.906165387e-39
-0.3112901449 -0.004767850973 0.1652441472 8.906165387e-39
-0.3590925932 -0.09361549467 0.161715284 8.906165387e-39
-0.4196711779 -0.07433056831 0.1577106267 8.906165387e-39
-0.2357957214 -0.03670029715 0.1620774418 8.906165387e-39
-0.3908541799 -0.003525167936 0.1666829586 8.906165387e-39
-0.2540666461 -0.081618011 0.1665270478 8.906165387e-39
-0.3367696106 -0.06547476351 0.1657105982 8.906165387e-39
-0.115248777 -0.03763194755 0.1550538093 8.906165387e-39
-0.2660999 -0.005974027794 0.1614979208 8.906165387e-39
-0.2677027285 -0.06507777423 0.1663729101 8.906165387e-39
-0.4089868069 -0.04249664024 0.1661438942 8.906165387e-39
-0.3103410006 -0.06376001984 0.1663153172 8.906165387e-39
-0.4394277334 -0.03003166616 0.164074555 8.906165387e-39
-0.2074544728 -0.06365998089 0.1619494557 8.906165387e-39
-0.3694186807 -0.03795640916 0.1673597246 8.906165387e-39
0.06242476031 -0.01463647 0.1278147846 9.641561216e-39
0.1896290928 -0.009453931823 0.09354440123 9.641561216e-39
-0.235870257 -0.03156238794 0.1519154161 9.641561216e-39
-0.3413743675 -0.04133901 0.142472893 9.641561216e-39
0.1923865676 -0.01313943788 0.111913234 9.641561216e-39
0.2447830737 -0.009912948124 0.08753342181 9.641561216e-39
-0.405826956 -0.04337926582 0.1579323262 9.641561216e-39
-0.3284186423 -0.01001241151 -0.0003160685301 9.641561216e-39
-0.1635802686 -0.02522451244 0.1492605656 9.641561216e-39
-0.2326924205 -0.01615993865 0.05339790508 9.641561216e-39
-0.2877678573 -0.03421930969 0.1499995887 9.641561216e-39
-0.3688471019 -0.02642098069 0.1005692557 9.641561216e-39
-0.04711124301 -0.01528324373 0.1295903474 9.641561216e-39
0.03517509624 -0.006889346056 0.09452527016 9.641561216e-39
-0.2533157766 -0.02929435484 0.154355675 9.641561216e-39
-0.355006963 -0.03219102696 0.1185709462 9.641561216e-39
-0.01176155545 -0.01693108492 0.1382974535 9.641561216e-39
0.2313989848 -0.009181845002 0.08669130504 9.641561216e-39
-0.3512870967 -0.03348456323 0.1569048017 9.641561216e-39
-0.3555373847 -0.01688234322 0.04887683317 9.641561216e-39
-0.102533944 -0.02095001936 0.1442199051 9.641561216e-39
-0.1350803673 -0.0129781384 0.0757355541 9.641561216e-39
-0.209093377 -0.02761955932 0.1549606919 9.641561216e-39
-0.2951974869 -0.03865889832 0.1452880353 9.641561216e-39
0.113125436 -0.01228227559 0.1151791513 9.641561216e-39
0.3373934627 -0.01028581895 0.05243937671 9.641561216e-39
-0.184078753 -0.02298612148 0.1273929179 9.641561216e-39
-0.31480214 -0.02373456582 0.09171324968 9.641561216e-39
-0.06559830159 -0.01359230001 0.1106572002 9.641561216e-39
-0.04991158098 -0.007193396799 0.09096926451 9.641561216e-39
0.05285035446 -0.006466894411 0.07494774461 9.641561216e-39
-0.2645805478 -0.03053433634 0.1190418303 9.641561216e-39
-0.1422906071 -0.08735409379 -0.0344585292 1.037659831e-38
0.1643622816 -0.09020040184 -0.03842963651 1.037659831e-38
-0.03738283366 -0.08722659945 -0.03608519211 1.037659831e-38
0.3617106676 -0.09708752483 -0.04668588564 1.037659831e-38
-0.0731915459 -0.08699902147 -0.03532537445 1.037659831e-38
0.1439039111 -0.08972566575 -0.03809192032 1.037659831e-38
0.1160956398 -0.08891779184 -0.03720331937 1.037659831e-38
0.4454524219 -0.08966761082 -0.04455939308 1.037659831e-38
-0.3480928242 -0.08792182058 -0.03160564974 1.037659831e-38
0.250823915 -0.09285337478 -0.04086543247 1.037659831e-38
0.06506472081 -0.08830525726 -0.03640551865 1.037659831e-38
0.3997343183 -0.09634943306 -0.04456782714 1.037659831e-38
-0.2097667456 -0.08949461579 -0.03338590637 1.037659831e-38
0.2015160173 -0.09121827036 -0.03909718618 1.037659831e-38
0.01097626518 -0.08762676269 -0.03579883277 1.037659831e-38
0.3792588711 -0.09642207623 -0.04750901461 1.037659831e-38
-0.1810851544 -0.08792097867 -0.0329737626 1.037659831e-38
0.1780287623 -0.09073849022 -0.03879340738 1.037659831e-38
0.07359322906 -0.08837880194 -0.03650871664 1.037659831e-38
0.4271096289 -0.09194194525 -0.04745211452 1.037659831e-38
-0.2601517439 -0.08969353884 -0.03211730346 1.037659831e-38
0.2262609899 -0.09208127111 -0.04000492021 1.037659831e-38
-0.008474281058 -0.08807920665 -0.04007054865 1.037659831e-38
0.3257462084 -0.09681529552 -0.04593148828 1.037659831e-38
-0.1102464721 -0.08793047816 -0.03688009083 1.037659831e-38
0.05760960653 -0.09110660106 -0.04442866519 1.037659831e-38
-0.06378700584 -0.08673857152 -0.03536259755 1.037659831e-38
0.3546921611 -0.09676463902 -0.03926406056 1.037659831e-38
-0.3156279624 -0.0891873017 -0.03374880925 1.037659831e-38
0.2929859161 -0.09599716961 -0.04632527754 1.037659831e-38
-0.1409789473 -0.09118182957 -0.04190182686 1.037659831e-38
0.292629391 -0.09593373537 -0.0443341136 1.037659831e-38
-0.154942587 0.08717330545 -0.1211833209 1.111163541e-38
0.02023706585 0.1210166141 -0.1152379587 1.111163541e-38
-0.1425962597 0.1068316996 -0.09930216521 1.111163541e-38
0.167819351 0.08063759655 -0.1063409224 1.111163541e-38
-0.1285037994 0.1020892784 -0.1169937775 1.111163541e-38
0.04148216173 0.1228652224 -0.1109101847 1.111163541e-38
-0.2390092611 0.06477074325 -0.09459149837 1.111163541e-38
0.3734203577 0.03531111777 -0.04645345733 1.111163541e-38
-0.02181000821 0.1227769777 -0.1135765836 1.111163541e-38
0.1452626139 0.09519864619 -0.1116890162 1.111163541e-38
-0.1630959511 0.09766566753 -0.09941010177 1.111163541e-38
0.2822255492 0.04684679583 -0.06099552661 1.111163541e-38
-0.05048539117 0.1240271926 -0.1096406206 1.111163541e-38
0.09826595336 0.1149741262 -0.1152288392 1.111163541e-38
-0.1440556496 0.1064501181 -0.100063391 1.111163541e-38
0.2271649539 0.05617884919 -0.07699090987 1.111163541e-38
-0.09547340125 0.1176382378 -0.1111719981 1.111163541e-38
0.07798491418 0.1194316149 -0.114014931 1.111163541e-38
-0.2087712437 0.07844554633 -0.09821753949 1.111163541e-38
0.3230958581 0.04121528193 -0.05797554553 1.111163541e-38
-0.03571875021 0.1239557713 -0.1116222441 1.111163541e-38
0.1333219707 0.10439872 -0.1112802848 1.111163541e-38
-0.1227034852 0.1199017018 -0.09666921198 1.111163541e-38
0.2061446756 0.06403742731 -0.08940627426 1.111163541e-38
-0.0893881917 0.1170535535 -0.114213258 1.111163541e-38
0.08335279673 0.1255948991 -0.1053098142 1.111163541e-38
-0.08372310549 0.131250158 -0.09447542578 1.111163541e-38
0.2393640876 0.05420333147 -0.06862596422 1.111163541e-38
0.01669713669 0.1280109435 -0.1034284309 1.111163541e-38
0.2010598481 0.06807941943 -0.07840039581 1.111163541e-38
-0.05181170627 0.1319488734 -0.09597896039 1.111163541e-38
0.1503181607 0.1022327989 -0.09379113466 1.111163541e-38
-0.02662515827 -0.06463415921 -0.1345346421 1.184631237e-38
-0.3343135417 -0.03247918189 -0.1649822146 1.184631237e-38
0.007938941009 -0.002267995616 -0.1459282339 1.184631237e-38
-0.3826679885 0.01913257502 -0.1597007066 1.184631237e-38
-0.1519920677 -0.06240392104 -0.146693036 1.184631237e-38
-0.3246863484 -0.03437099233 -0.1656075418 1.184631237e-38
0.2211189121 -0.06096535176 -0.1313539892 1.184631237e-38
-0.1903233975 0.01325596683 -0.1605662704 1.184631237e-38
0.1445478499 -0.06555571407 -0.1313297898 1.184631237e-38
-0.0646173209 -0.03618512675 -0.1513855159 1.184631237e-38
0.104985036 -0.02550567687 -0.1464330256 1.184631237e-38
-0.2983181775 0.00941141136 -0.1684843898 1.184631237e-38
0.0550008826 -0.06438027322 -0.1343254596 1.184631237e-38
-0.2286236286 -0.03153328225 -0.1638977826 1.184631237e-38
0.03383864835 -0.01183508337 -0.1470481753 1.184631237e-38
-0.3225061893 0.01824876666 -0.1679982841 1.184631237e-38
0.008543455042 -0.05902357772 -0.1385331005 1.184631237e-38
-0.1807202548 -0.02847131342 -0.1576100886 1.184631237e-38
0.174554795 -0.04318936169 -0.1402069479 1.184631237e-38
-0.238942802 0.01706949063 -0.1647114605 1.184631237e-38
0.08021397144 -0.05808483064 -0.1399994493 1.184631237e-38
-0.07010073215 -0.03060199879 -0.1500898153 1.184631237e-38
-0.09687976539 0.01177429594 -0.1473894417 1.184631237e-38
-0.3532171547 0.01994717121 -0.1655578315 1.184631237e-38
-0.03518774733 -0.06709293276 -0.1333898008 1.184631237e-38
-0.2022725642 -0.05206926912 -0.1588377655 1.184631237e-38
-0.03392039612 -0.004934944212 -0.1455059797 1.184631237e-38
-0.2182053328 -0.01088764798 -0.1640126407 1.184631237e-38
0.1123425588 -0.06536417454 -0.1336812377 1.184631237e-38
-0.01234338339 -0.0399338156 -0.148563385 1.184631237e-38
-0.1306696087 -0.00047664062 -0.1545381546 1.184631237e-38
-0.3118559122 -0.01050955616 -0.1708959192 1.184631237e-38
-0.4686791003 -0.003068273654 0.1133769974 1.258099074e-38
-0.4216770828 0.02282794192 0.1372419149 1.258099074e-38
-0.4683938026 0.01177804079 -0.09381397814 1.258099074e-38
-0.4742493629 -0.02479387634 0.1261334717 1.258099074e-38
-0.4406511486 0.0288426429 0.1241176277 1.258099074e-38
-0.4777929485 -0.04163332283 0.1310134828 1.258099074e-38
-0.3863275945 -0.009504687972 -0.1663863063 1.258099074e-38
-0.1244898215 -0.009748075157 -0.134492144 1.258099074e-38
-0.4689111412 0.009479246102 -0.02948815934 1.258099074e-38
-0.3810651898 0.02527027391 0.1393660456 1.258099074e-38
-0.4471375644 -0.002568135038 -0.1286519915 1.258099074e-38
-0.4055386484 -0.06977241486 -0.1023399904 1.258099074e-38
-0.4702583551 0.00647048559 0.01765804924 1.258099074e-38
-0.4435656965 -0.009203546681 0.1416631192 1.258099074e-38
-0.4565833807 -0.0002707242966 -0.1101979315 1.258099074e-38
-0.4609806836 -0.05480091274 0.0009695521439 1.258099074e-38
-0.4695069194 0.004054628313 0.06266196817 1.258099074e-38
-0.4706994593 -0.03962391615 0.1444949806 1.258099074e-38
-0.4040782154 -0.01033005584 -0.1653939039 1.258099074e-38
-0.3510242105 -0.06398963183 -0.1397392303 1.258099074e-38
-0.4703547657 0.005956415553 0.01128517836 1.258099074e-38
-0.4130639136 -0.003618120216 0.1444136798 1.258099074e-38
-0.4746590555 -0.01623592153 -0.03482306004 1.258099074e-38
-0.4767530859 -0.0363125056 0.006980146281 1.258099074e-38
-0.4790878892 -0.01853992604 0.06277477741 1.258099074e-38
-0.472737968 -0.05886359513 0.04623904452 1.258099074e-38
-0.2705820799 -0.02969978191 -0.1559046954 1.258099074e-38
-0.217377305 -0.03023939021 -0.1425314099 1.258099074e-38
-0.4210901558 -0.04829698056 -0.1042228565 1.258099074e-38
-0.4736884534 -0.0192177631 0.1102240756 1.258099074e-38
-0.3174447417 -0.05554232001 -0.150972262 1.258099074e-38
-0.2746172845 -0.04199206829 -0.1515196264 1.258099074e-38
-0.3199080229 -0.123334907 -0.1728994697 1.331530897e-38
-0.2564878762 -0.05698117241 0.09143900126 1.331530897e-38
-0.324144721 -0.06674100459 0.06688896567 1.331530897e-38
-0.2397453487 -0.08976802975 -0.148416087 1.331530897e-38
-0.280005157 -0.08422866464 -0.1283933818 1.331530897e-38
-0.2923369408 -0.054716371 0.112669386 1.331530897e-38
-0.3868541121 -0.05289794132 -0.1751917303 1.331530897e-38
-0.1123626828 -0.04920992255 0.008498389274 1.331530897e-38
-0.3283189237 0.01737294532 -0.1553517133 1.331530897e-38
-0.0546910651 -0.04159455001 0.04357455671 1.331530897e-38
-0.3564152718 -0.06590150297 -0.09565600008 1.331530897e-38
-0.212609902 -0.05533767864 -0.09982655197 1.331530897e-38
-0.3075571656 -0.08881311119 -0.1708379388 1.331530897e-38
-0.2144301236 -0.04715582356 0.09791593999 1.331530897e-38
-0.347050339 -0.064274095 -0.03460206091 1.331530897e-38
-0.2292250395 -0.06635931134 -0.1373213977 1.331530897e-38
-0.2931495905 -0.1280067861 -0.1742626876 1.331530897e-38
-0.2590283155 -0.05078041926 0.1098984554 1.331530897e-38
-0.3632410467 -0.06766594946 -0.1290308833 1.331530897e-38
-0.1684572995 -0.05493094772 -0.0712242201 1.331530897e-38
-0.3180777133 -0.03612947837 -0.164193362 1.331530897e-38
-0.1212734804 -0.04272269085 0.06514717638 1.331530897e-38
-0.3703257442 -0.05517264828 0.01475858781 1.331530897e-38
-0.2521675229 -0.06142525747 -0.1251274943 1.331530897e-38
-0.2827383876 -0.1210062802 -0.1589374095 1.331530897e-38
-0.3181580007 -0.06560865045 -0.03275078908 1.331530897e-38
-0.4156961739 0.02289714478 -0.1589728296 1.331530897e-38
-0.2467721105 -0.06341522932 -0.02119281888 1.331530897e-38
-0.3522877693 -0.01030511409 -0.1638391316 1.331530897e-38
-0.2359806299 -0.05803253129 0.06015923619 1.331530897e-38
-0.3514044583 -0.1000591144 -0.1738021225 1.331530897e-38
-0.3095788658 -0.08191153407 -0.1275325119 1.331530897e-38
0.1539693773 -0.0256085638 -0.01614475437 1.404926846e-38
0.2898325324 -0.01789591089 -0.1175679564 1.404926846e-38
0.1480214298 -0.03138438612 0.07158513367 1.404926846e-38
0.3412021101 -0.03446549177 -0.1046496332 1.404926846e-38
0.04778878763 -0.02656257339 0.03427161276 1.404926846e-38
0.2392223924 -0.01748223603 -0.1320971102 1.404926846e-38
-0.1090057641 -0.04730276391 0.1125325635 1.404926846e-38
0.427306354 -0.07090309262 -0.06890570372 1.404926846e-38
0.223123312 -0.01926609129 -0.1285280287 1.404926846e-38
0.3834747076 -0.03787032515 -0.1289289296 1.404926846e-38
0.08156014234 -0.04412620142 0.1020222381 1.404926846e-38
0.384842664 -0.0556252785 -0.08314280957 1.404926846e-38
0.1536007375 -0.02390671894 -0.08295100927 1.404926846e-38
0.3282832801 -0.01883426309 -0.1325178146 1.404926846e-38
0.1420563161 -0.03671597689 0.09012057632 1.404926846e-38
0.3675201237 -0.04687462002 -0.0979103297 1.404926846e-38
0.1405591816 -0.02318880707 -0.06758504361 1.404926846e-38
0.3077708781 -0.01179571915 -0.1387867332 1.404926846e-38
0.01038669702 -0.04684370756 0.1050406918 1.404926846e-38
0.412697196 -0.06679517031 -0.07097888738 1.404926846e-38
0.2108437866 -0.02151604928 -0.1221525073 1.404926846e-38
0.3688051403 -0.03174436837 -0.1263394803 1.404926846e-38
0.1749456227 -0.02953886427 0.03125823289 1.404926846e-38
0.3173962533 -0.0283187367 -0.1066240221 1.404926846e-38
0.07761255652 -0.02073146589 -0.01075071003 1.404926846e-38
0.3293187022 -0.01419854816 -0.1376713514 1.404926846e-38
0.2089633048 -0.02667879313 -0.08545843512 1.404926846e-38
0.3643039167 -0.04124284536 -0.1105932146 1.404926846e-38
0.1764617413 -0.01779939793 -0.1277181208 1.404926846e-38
0.4423998594 -0.06786025316 -0.08870045841 1.404926846e-38
0.2275551707 -0.02297377773 -0.1142438352 1.404926846e-38
0.3162796497 -0.02318206057 -0.1204910949 1.404926846e-38
-0.03423665464 0.06100789085 0.04893185198 1.478322936e-38
-0.174731791 0.03171299398 0.02080185525 1.478322936e-38
-0.1074598059 0.09721378982 0.08163712919 1.478322936e-38
-0.1578593999 0.07245622575 0.08192550391 1.478322936e-38
-0.09462215006 0.06472153217 0.02118932828 1.478322936e-38
-0.1534349918 0.06690521538 0.1010322571 1.478322936e-38
0.1503518075 0.01497932244 0.1102207825 1.478322936e-38
-0.1141950339 0.09452366084 0.06878373772 1.478322936e-38
0.1403500736 0.003999301232 0.04499807954 1.478322936e-38
-0.191270873 0.04072562605 0.03069995157 1.478322936e-38
-0.06145330891 0.07998553663 0.07700767368 1.478322936e-38
-0.1489496231 0.08173655719 0.07752036303 1.478322936e-38
-0.01322208811 0.03942160308 -0.004352843855 1.478322936e-38
-0.1766439527 0.03930781782 0.07584901899 1.478322936e-38
-0.1010847539 0.08476557583 0.05683030561 1.478322936e-38
-0.1573746502 0.07898978889 0.09022919089 1.478322936e-38
-0.09843022376 0.04743459448 -0.02005346678 1.478322936e-38
-0.1721855849 0.04392769933 0.09363663942 1.478322936e-38
0.08276751637 0.04753162339 0.1214750633 1.478322936e-38
-0.1273864061 0.09806358069 0.08528224379 1.478322936e-38
0.08840213716 0.01911026053 0.0289975889 1.478322936e-38
-0.1977865994 0.03744615242 0.07844088227 1.478322936e-38
-0.1359062791 0.07305809855 0.03352681547 1.478322936e-38
-0.1556509286 0.0541658178 0.05764305592 1.478322936e-38
-0.1267046928 0.06417475641 0.01561147626 1.478322936e-38
-0.1608511508 0.0471589528 0.08344963193 1.478322936e-38
-0.1534103751 0.04497421533 0.04461810365 1.478322936e-38
-0.1640255451 0.03458236158 0.01649072021 1.478322936e-38
-0.1056689173 0.04240965843 -0.05149652436 1.478322936e-38
-0.1803926826 0.03772413731 -0.01277008187 1.478322936e-38
-0.1521395892 0.04208704829 -0.02517165989 1.478322936e-38
-0.15855591 0.03019537218 -0.03270414472 1.478322936e-38
0.1235922873 0.1229685396 -0.02671062015 1.551683013e-38
-0.02696917951 0.01412382722 -0.04303558171 1.551683013e-38
-0.006081342231 -0.02947498485 -0.1253302842 1.551683013e-38
-0.1242165491 -0.08431263268 -0.1350505799 1.551683013e-38
0.212175861 0.07433073223 -0.01299225446 1.551683013e-38
-0.02401617169 0.07563975453 -0.03911288083 1.551683013e-38
0.0641739741 0.1306820959 -0.03033241443 1.551683013e-38
-0.2627662718 -0.0390561074 -0.09624813497 1.551683013e-38
0.000363767118 0.1094476059 -0.08662623167 1.551683013e-38
-0.2429179996 -0.02934899367 -0.05492275581 1.551683013e-38
-0.02444498427 0.03141562268 -0.1030500457 1.551683013e-38
-0.2399539948 -0.06671598554 -0.1271956116 1.551683013e-38
0.1209884882 0.1222329736 -0.04331737384 1.551683013e-38
-0.07412359864 -0.01566873491 -0.04088808596 1.551683013e-38
-0.01014887728 -0.0123390127 -0.1178031787 1.551683013e-38
-0.2122654915 -0.08083054423 -0.132522881 1.551683013e-38
0.1257799566 0.1212414578 -0.03836555034 1.551683013e-38
-0.06765431166 -0.01027421094 -0.0424111858 1.551683013e-38
-0.04565823451 0.06857180595 -0.0805234164 1.551683013e-38
-0.263797611 -0.0536327064 -0.1188129634 1.551683013e-38
0.03290967271 0.1296349317 -0.07722249627 1.551683013e-38
-0.2000553012 -0.02211478166 -0.03651542217 1.551683013e-38
-0.04115947708 -0.006458661985 -0.1130267531 1.551683013e-38
-0.03367643058 -0.0724061504 -0.1314834952 1.551683013e-38
0.05584333465 0.1313559115 -0.04027657211 1.551683013e-38
-0.05437425524 0.03000040539 -0.07229587436 1.551683013e-38
-0.01187690347 0.112293385 -0.03602306917 1.551683013e-38
-0.1491705179 -0.03413148224 -0.1044144109 1.551683013e-38
0.009275371209 0.1327817589 -0.05250089243 1.551683013e-38
-0.1449388117 -0.02077551559 -0.08129376173 1.551683013e-38
-0.05997000635 -0.03765632957 -0.1233529076 1.551683013e-38
-0.1697793305 -0.05749076605 -0.1218429133 1.551683013e-38
-0.1689739376 -0.01176880021 0.06531839073 1.625043089e-38
-0.195638597 -0.01271622721 0.07184790075 1.625043089e-38
-0.03382017463 -0.03223769367 0.02215407416 1.625043089e-38
-0.0423781164 -0.02588710934 -0.07120621204 1.625043089e-38
-0.2761470973 -0.007694886997 0.1128924787 1.625043089e-38
-0.3564361632 -0.02117307484 0.1041961983 1.625043089e-38
0.06059962511 -0.04871444777 -0.002689012326 1.625043089e-38
0.09334961325 -0.04710507765 -0.07594309002 1.625043089e-38
-0.04673642665 -0.03825248778 0.07294601202 1.625043089e-38
-0.03175088763 -0.02799074352 0.01861174591 1.625043089e-38
0.03735025972 -0.04890784994 0.02250644937 1.625043089e-38
0.02338220179 -0.04013970122 -0.0378976278 1.625043089e-38
-0.1107097119 -0.02872341685 0.09135583043 1.625043089e-38
-0.1449825764 -0.01642463729 0.02576790005 1.625043089e-38
-0.0006157010212 -0.03902429715 0.02194486558 1.625043089e-38
-0.007197762374 -0.03153819218 -0.07021021843 1.625043089e-38
-0.1588671505 -0.01424587145 0.1020390168 1.625043089e-38
-0.2180288136 -0.01773681678 0.04137184843 1.625043089e-38
0.04973160475 -0.05046421289 0.0220822189 1.625043089e-38
0.05577555671 -0.04236776382 -0.07119850814 1.625043089e-38
-0.08246756345 -0.03125936165 0.09109959006 1.625043089e-38
-0.07371041179 -0.02204392478 0.007795943413 1.625043089e-38
-0.1127253398 -0.01945208572 0.04099695012 1.625043089e-38
-0.01054575667 -0.02685947157 -0.0582206212 1.625043089e-38
-0.2067940384 -0.003597630421 0.1128985211 1.625043089e-38
-0.3045958877 -0.0148038473 0.09521639347 1.625043089e-38
-0.0840389058 -0.02106463723 0.02624818869 1.625043089e-38
0.0181250833 -0.03688370064 0.001239198609 1.625043089e-38
-0.07072176039 -0.02623477206 0.02718627639 1.625043089e-38
-0.005391545594 -0.03076542914 -0.001616122667 1.625043089e-38
-0.2344812155 -0.01413139142 0.06311286241 1.625043089e-38
-0.06266184151 -0.02222537808 -0.02400725521 1.625043089e-38
0.3320397735 -0.02978724986 -0.154333666 1.698367293e-38
0.4004032612 -0.02196772769 -0.1441682726 1.698367293e-38
0.2290271819 -0.01021277439 -0.1326537579 1.698367293e-38
0.365303874 -0.1262733638 -0.1482197195 1.698367293e-38
0.3619642258 -0.08665024489 -0.1646327525 1.698367293e-38
0.3724685907 0.005580218509 -0.09935519844 1.698367293e-38
0.2798534632 -0.1096154004 -0.159102276 1.698367293e-38
0.2972555459 -0.1072623208 -0.1004265323 1.698367293e-38
0.2546596527 -0.01174393669 -0.0598445721 1.698367293e-38
0.3762980998 -0.1135370433 -0.1527536511 1.698367293e-38
0.2801244557 -0.06253366917 -0.1618645042 1.698367293e-38
0.3379037082 -0.1480030864 -0.1331241578 1.698367293e-38
0.3380790651 -0.002457002876 -0.128614977 1.698367293e-38
0.4009388983 -0.06895378977 -0.1606700569 1.698367293e-38
0.2754640579 -0.03962700814 -0.1650625765 1.698367293e-38
0.3476647139 -0.1419290155 -0.1400602758 1.698367293e-38
0.3612242639 -0.03130273521 -0.1526224315 1.698367293e-38
0.4025079012 -0.05302550271 -0.1607055962 1.698367293e-38
0.2831297219 -0.08031304181 -0.1602913439 1.698367293e-38
0.3128834963 -0.1336822957 -0.1254926473 1.698367293e-38
0.2999702394 -0.004342394415 -0.07042686641 1.698367293e-38
0.3921904564 -0.100694783 -0.1547573358 1.698367293e-38
0.2946972549 -0.01661559753 -0.1532546729 1.698367293e-38
0.3393145204 -0.143113628 -0.1506138444 1.698367293e-38
0.3510384858 -0.06195690855 -0.16105856 1.698367293e-38
0.3753294349 -0.05093416572 -0.1619688869 1.698367293e-38
0.2999287546 -0.1385189444 -0.1603014618 1.698367293e-38
0.3589093089 -0.1176951453 -0.1597971618 1.698367293e-38
0.3386501074 -0.08934227377 -0.164438948 1.698367293e-38
0.3314862549 -0.1314108372 -0.1604264081 1.698367293e-38
0.3142470717 -0.08079030365 -0.1640226543 1.698367293e-38
0.3188043535 -0.1476183087 -0.1511220187 1.698367293e-38
0.1667563468 0.09077384323 0.08740864694 1.771655483e-38
0.05258123949 0.1305346042 0.1034583896 1.771655483e-38
-0.02840382792 0.1408812553 0.06758341938 1.771655483e-38
-0.09478891641 0.1325357109 0.1031523943 1.771655483e-38
0.2039309591 0.06638989598 0.1023603529 1.771655483e-38
0.08528655767 0.1278776377 0.1006733552 1.771655483e-38
-0.155034855 0.1319318563 0.07884739339 1.771655483e-38
-0.1900149584 0.1171623617 0.08915008605 1.771655483e-38
0.004251931328 0.1405400932 0.06741181761 1.771655483e-38
-0.05568679422 0.1346661597 0.103332445 1.771655483e-38
-0.08265200257 0.1385932118 0.08549915254 1.771655483e-38
-0.1102787107 0.1328099668 0.09672118723 1.771655483e-38
0.1149091199 0.1226054356 0.07483255863 1.771655483e-38
0.01126641408 0.1331915259 0.1034356728 1.771655483e-38
-0.04217313603 0.1383245587 0.08932153136 1.771655483e-38
-0.1081580669 0.1322179437 0.09958267957 1.771655483e-38
0.1574015915 0.0959462598 0.08751372993 1.771655483e-38
0.03145167604 0.1317290515 0.1043550298 1.771655483e-38
-0.1181508675 0.1365586668 0.08255986124 1.771655483e-38
-0.1678709984 0.1230641156 0.1000938788 1.771655483e-38
0.05030438676 0.1370227635 0.06574357301 1.771655483e-38
-0.04048881307 0.1349559873 0.104318358 1.771655483e-38
-0.01246857457 0.1388380229 0.08153804392 1.771655483e-38
0.03509130701 0.1367528886 0.07997946441 1.771655483e-38
0.16526483 0.08898297697 0.1039258018 1.771655483e-38
0.167902559 0.07898962498 0.1337607801 1.771655483e-38
0.01805212162 0.1354179084 0.08855532855 1.771655483e-38
-0.06055938825 0.1402800828 0.06632272154 1.771655483e-38
0.1238357574 0.1120292619 0.0931507796 1.771655483e-38
0.1328914464 0.09255495667 0.1350418627 1.771655483e-38
0.0670869723 0.1308624893 0.09725186974 1.771655483e-38
0.09794403613 0.1264379472 0.08729864657 1.771655483e-38
-0.3395264745 -0.01513194572 -0.008614660241 1.844943813e-38
-0.3038769364 -0.007694823667 0.05500859395 1.844943813e-38
-0.1439608783 0.0004318239808 0.06624163687 1.844943813e-38
-0.4109705687 -0.01928891428 -0.08821933717 1.844943813e-38
-0.3601159751 -0.0167075675 -0.08020362258 1.844943813e-38
-0.3682911694 -0.01070032269 0.03337650374 1.844943813e-38
-0.1109899133 -0.01609654725 -0.06822386384 1.844943813e-38
-0.3700674772 -2.924585715e-05 0.08172705024 1.844943813e-38
-0.1881959736 -0.01271765213 -0.07282263041 1.844943813e-38
-0.1730484515 0.007503854576 0.1003101915 1.844943813e-38
-0.1241711155 -0.009825547226 0.003412328428 1.844943813e-38
-0.4284038544 -0.01924467459 0.04323219508 1.844943813e-38
-0.2910138965 -0.01792337187 -0.02674784139 1.844943813e-38
-0.2571915984 0.01031296421 0.1050520837 1.844943813e-38
-0.1381555498 -0.001833049348 0.04866764322 1.844943813e-38
-0.4271025062 -0.02100174502 -0.001509991242 1.844943813e-38
-0.3020358086 -0.01551063266 -0.008908084594 1.844943813e-38
-0.3108050823 0.005021858495 0.09189937264 1.844943813e-38
-0.1153280362 -0.01375075616 -0.02927368134 1.844943813e-38
-0.4043053389 -0.007657101844 0.0893894136 1.844943813e-38
-0.2035449892 -0.01220891438 -0.06753776968 1.844943813e-38
-0.2137346119 0.01774768718 0.1190785617 1.844943813e-38
-0.158240214 -0.004534577485 -0.0220097322 1.844943813e-38
-0.3883523643 -0.01544734091 -0.006659973878 1.844943813e-38
-0.3384001553 -0.01561908517 -0.01893457212 1.844943813e-38
-0.3424021602 -0.001341863652 0.07599066198 1.844943813e-38
-0.2764448225 -0.008128446527 -0.105606176 1.844943813e-38
-0.3141663373 -0.01132103987 0.03826679662 1.844943813e-38
-0.1895627528 -0.003928011749 0.01391840447 1.844943813e-38
-0.2067969292 0.0005746893003 0.07745534927 1.844943813e-38
-0.2348880321 -0.003409271827 0.03511299193 1.844943813e-38
-0.4216860235 -0.02271073498 -0.04356158897 1.844943813e-38
-0.3902675807 -0.08607070893 -0.07485455275 1.91819627e-38
-0.2951823175 -0.01390376501 -0.13675946 1.91819627e-38
-0.3206396401 -0.07893647254 -0.1371843964 1.91819627e-38
-0.2446682453 -0.01957314834 -0.1059764475 1.91819627e-38
-0.3531051576 -0.09197680652 -0.07944348454 1.91819627e-38
-0.2440455556 -0.06867337227 -0.1300349683 1.91819627e-38
-0.3203453422 0.007610807195 -0.07790430635 1.91819627e-38
-0.1698199958 -0.04649761319 0.01242078282 1.91819627e-38
-0.3062330782 -0.09971259534 -0.1325546652 1.91819627e-38
-0.2638484836 -0.01630658656 -0.0324171111 1.91819627e-38
-0.3169976771 -0.01725459285 -0.1363496184 1.91819627e-38
-0.2142922431 -0.03449228406 -0.04644145817 1.91819627e-38
-0.348218441 -0.09813674539 -0.1122146696 1.91819627e-38
-0.2593142688 -0.01508085802 -0.1190893278 1.91819627e-38
-0.3304975033 -0.05389253795 -0.1397120506 1.91819627e-38
-0.2271947563 -0.0275338497 -0.08247932792 1.91819627e-38
-0.3806264699 -0.09263061732 -0.09243221581 1.91819627e-38
-0.2364118695 -0.04218155518 -0.1286730617 1.91819627e-38
-0.3387957215 0.008319156244 -0.101039201 1.91819627e-38
-0.2045011669 -0.04100886732 -0.006523930002 1.91819627e-38
-0.3413127959 -0.0977241993 -0.1137907505 1.91819627e-38
-0.2857138813 -0.007796844933 -0.042113401 1.91819627e-38
-0.2725220025 -0.09798297286 -0.1209428832 1.91819627e-38
-0.2125129998 -0.04068233445 -0.1258683801 1.91819627e-38
-0.3260769546 -0.09983974695 -0.09354483336 1.91819627e-38
-0.2423856407 -0.09857840836 -0.1030799821 1.91819627e-38
-0.2119768858 -0.0954747349 -0.1192547232 1.91819627e-38
-0.1673754454 -0.04625255987 -0.04468386993 1.91819627e-38
-0.2643401623 -0.08225718141 -0.1319745034 1.91819627e-38
-0.106867604 -0.07404953986 -0.1100948974 1.91819627e-38
-0.2899762988 -0.09813803434 -0.1012440622 1.91819627e-38
-0.1602458358 -0.0638621226 -0.1188402101 1.91819627e-38
0.3089606166 -0.1273801178 -0.1539675742 1.991448586e-38
0.1877169907 -0.09000492841 -0.1175935492 1.991448586e-38
0.311958015 -0.10541486 -0.1195622757 1.991448586e-38
0.06702608615 -0.08743642271 -0.1191535294 1.991448586e-38
0.335790962 -0.132815972 -0.1603549123 1.991448586e-38
0.2292701304 -0.09483011067 -0.1177500263 1.991448586e-38
0.3665846586 -0.1267385185 -0.1296083629 1.991448586e-38
-0.1224651411 -0.09440339357 -0.1382514089 1.991448586e-38
0.1692931354 -0.08839051425 -0.1355533302 1.991448586e-38
0.02757209353 -0.08858912438 -0.133081913 1.991448586e-38
0.3403513432 -0.1315990686 -0.1298278421 1.991448586e-38
-0.005709914025 -0.08962743729 -0.1294065118 1.991448586e-38
0.2556542754 -0.09536684304 -0.127884537 1.991448586e-38
0.1424482167 -0.09055168182 -0.1218020841 1.991448586e-38
0.3290657997 -0.1238018051 -0.1247189641 1.991448586e-38
0.0349384211 -0.08934690058 -0.1255930215 1.991448586e-38
0.2770078778 -0.09907113761 -0.1247457638 1.991448586e-38
0.1627702266 -0.09088726342 -0.1195410639 1.991448586e-38
0.3550337255 -0.1333819479 -0.1306835115 1.991448586e-38
-0.09045860916 -0.09293121845 -0.1313494444 1.991448586e-38
0.2004851103 -0.09004103392 -0.1331859529 1.991448586e-38
0.07151415199 -0.08914835751 -0.1288453341 1.991448586e-38
0.3386576176 -0.1089148223 -0.1134524271 1.991448586e-38
0.1071969345 -0.08352010697 -0.112094298 1.991448586e-38
0.2850987315 -0.1183690429 -0.1495551467 1.991448586e-38
0.2822339237 -0.09773758054 -0.1066682488 1.991448586e-38
0.3911573887 -0.1118921861 -0.12368799 1.991448586e-38
-0.01833625324 -0.08718663454 -0.1399293393 1.991448586e-38
0.3628769815 -0.1112311408 -0.1040369272 1.991448586e-38
0.1163529009 -0.08655863255 -0.1340533793 1.991448586e-38
0.2647358775 -0.1044900194 -0.1447370499 1.991448586e-38
0.06155046821 -0.08542047441 -0.1363730133 1.991448586e-38
0.3806790411 -0.01716420054 0.110802196 2.06466517e-38
0.2605206966 -0.020771835 0.111867331 2.06466517e-38
0.4471970201 -0.02042697743 0.08700106293 2.06466517e-38
0.1166325659 -0.04548327252 -0.02957214788 2.06466517e-38
0.34429726 -0.01337705459 0.1412699968 2.06466517e-38
0.2471247762 -0.02378313057 0.1061093584 2.06466517e-38
0.4431988001 -0.0295874849 -0.03246133402 2.06466517e-38
0.2401233763 -0.02851437964 0.09390521049 2.06466517e-38
0.432525605 -0.01875436865 0.1179519594 2.06466517e-38
0.3362733126 -0.01300206129 0.1383632571 2.06466517e-38
0.4459495842 -0.02569995448 0.01901798695 2.06466517e-38
0.19899562 -0.03798361868 0.03048504516 2.06466517e-38
0.3909569979 -0.0160863921 0.1234544143 2.06466517e-38
0.282607764 -0.01583349332 0.1197879314 2.06466517e-38
0.4472661018 -0.02398051694 0.04530947283 2.06466517e-38
0.1718050092 -0.04544132948 0.001430350356 2.06466517e-38
0.3584425449 -0.01470103953 0.1337833107 2.06466517e-38
0.2723007202 -0.0188338533 0.112538971 2.06466517e-38
0.4448307157 -0.02824294753 -0.01166968886 2.06466517e-38
0.2199808806 -0.03400970995 0.07355581224 2.06466517e-38
0.4175748825 -0.01709484868 0.1305426359 2.06466517e-38
0.3157869577 -0.01328269485 0.1348715425 2.06466517e-38
0.4476208687 -0.01993433014 0.1048240811 2.06466517e-38
0.1413799822 -0.0446456708 -0.01405547187 2.06466517e-38
0.3542776406 -0.01595222205 0.1162224188 2.06466517e-38
0.2921257019 -0.02617989853 0.08477627486 2.06466517e-38
0.4462613761 -0.02093497105 0.0659185946 2.06466517e-38
0.2601697445 -0.0381112732 0.06396631151 2.06466517e-38
0.4174882472 -0.01802429557 0.09257754683 2.06466517e-38
0.3077365756 -0.01829264872 0.1053199992 2.06466517e-38
0.3556868732 -0.02342326008 0.07730977237 2.06466517e-38
0.2474661171 -0.05618400127 0.0163739752 2.06466517e-38
-0.04445356131 0.1461514086 -0.008926444687 2.137881613e-38
-0.1646578163 0.137776643 -0.06655072421 2.137881613e-38
0.08241938055 0.1296858191 -0.04929113016 2.137881613e-38
-0.3120441437 0.06329521537 -0.1024724767 2.137881613e-38
-0.08745674044 0.1502588391 -0.02804186195 2.137881613e-38
-0.167839855 0.1419513077 -0.05539336801 2.137881613e-38
0.3073970675 0.01007995103 -0.07572292536 2.137881613e-38
-0.1770753115 0.1333796829 -0.05791959539 2.137881613e-38
0.1457765549 0.1080181152 -0.0268404223 2.137881613e-38
-0.07613863051 0.1523867846 -0.05738785863 2.137881613e-38
0.1787341237 0.08307366073 -0.06494758278 2.137881613e-38
-0.2212941945 0.1057342067 -0.07844043523 2.137881613e-38
0.03930019587 0.136309877 -0.03505133092 2.137881613e-38
-0.1420935094 0.1503838152 -0.06830924004 2.137881613e-38
0.1370480359 0.1066300049 -0.06308434159 2.137881613e-38
-0.247216329 0.09205925465 -0.08161687106 2.137881613e-38
-0.02412005514 0.1479322463 -0.03157022968 2.137881613e-38
-0.1363300234 0.1494502127 -0.04562836513 2.137881613e-38
0.239670068 0.04786991701 -0.0749745965 2.137881613e-38
-0.188145116 0.1255456805 -0.06565004587 2.137881613e-38
0.09811258316 0.1256764531 -0.02002064884 2.137881613e-38
-0.09342224151 0.1531422585 -0.05815961957 2.137881613e-38
0.03686366975 0.1369305998 -0.04842114821 2.137881613e-38
-0.2799528241 0.07599174976 -0.09247453511 2.137881613e-38
-0.0255691465 0.1487726569 -0.04335602373 2.137881613e-38
-0.1047223508 0.1486325115 -0.02793600596 2.137881613e-38
0.2711940706 0.03033312224 -0.04175006598 2.137881613e-38
-0.1845706701 0.1291560829 -0.04475932196 2.137881613e-38
0.1054479778 0.1212952659 0.0001215338707 2.137881613e-38
-0.06808719784 0.1492239982 -0.02983420528 2.137881613e-38
0.02022680454 0.1378218085 -0.01051270217 2.137881613e-38
-0.18848598 0.1241955087 -0.06085818261 2.137881613e-38
-0.291566819 -0.08493031561 0.06918314844 2.211062324e-38
-0.2369092405 -0.08700160682 0.05720102042 2.211062324e-38
-0.4166957438 -0.08393513411 0.0633963719 2.211062324e-38
-0.08925197273 -0.08650565892 0.05659034476 2.211062324e-38
-0.3196606934 -0.0860215947 0.06386315078 2.211062324e-38
-0.2736476362 -0.08534398675 0.06646231562 2.211062324e-38
-0.4738956392 -0.07621470094 -0.08982801437 2.211062324e-38
0.1191787943 -0.0779575631 0.0739319846 2.211062324e-38
-0.4467258453 -0.07906283438 0.08095118403 2.211062324e-38
-0.1276000142 -0.08233886957 0.07211263478 2.211062324e-38
-0.4689229429 -0.07639625669 0.005818366073 2.211062324e-38
0.03326873109 -0.08077394962 0.07229709625 2.211062324e-38
-0.3938908577 -0.08229281753 0.07540103048 2.211062324e-38
-0.1866796166 -0.08416080475 0.06561990082 2.211062324e-38
-0.4629096389 -0.07772293687 0.03696221113 2.211062324e-38
-0.0003705471463 -0.0832804516 0.06256704777 2.211062324e-38
-0.3623137474 -0.08342577517 0.07177889347 2.211062324e-38
-0.1988877058 -0.08530460298 0.06147037446 2.211062324e-38
-0.4749959111 -0.07597357035 -0.04449147731 2.211062324e-38
0.08412411809 -0.08030124009 0.06664666533 2.211062324e-38
-0.4150028825 -0.08067990094 0.07815731317 2.211062324e-38
-0.1431566924 -0.08418703079 0.06281577051 2.211062324e-38
-0.4495463669 -0.08034426719 0.06044284627 2.211062324e-38
-0.0470382385 -0.08655890077 0.05472543463 2.211062324e-38
-0.3426725268 -0.08386265486 0.0705588609 2.211062324e-38
-0.2285519242 -0.08275000006 0.07339029014 2.211062324e-38
-0.4646478593 -0.07719504833 0.04293936864 2.211062324e-38
-0.0157925766 -0.08599562198 0.05534955114 2.211062324e-38
-0.3917571604 -0.08381971717 0.0659128949 2.211062324e-38
-0.1233006045 -0.08531045169 0.06170285866 2.211062324e-38
-0.4665916264 -0.07727988809 0.07918789238 2.211062324e-38
-0.05288328975 -0.08299522102 0.06702582538 2.211062324e-38
-0.05957138538 0.1395102739 -0.008779009804 2.284242894e-38
0.1024677679 0.1382973641 -0.001895768102 2.284242894e-38
-0.1075953022 0.1422360837 0.02535619028 2.284242894e-38
0.08000164479 0.1431951076 0.05442361906 2.284242894e-38
0.04222287238 0.1436558366 -0.01300569344 2.284242894e-38
-0.01076495741 0.1451730728 0.028581433 2.284242894e-38
-0.1837341487 0.08817641437 0.04635681584 2.284242894e-38
0.1684152633 0.109655261 0.05956902727 2.284242894e-38
0.007911390625 0.1454631835 0.05047015473 2.284242894e-38
0.1593417525 0.115636602 0.03329238296 2.284242894e-38
-0.1486887187 0.1062128618 0.03702911362 2.284242894e-38
0.110082604 0.1370530576 0.05642548203 2.284242894e-38
-0.07519068569 0.1471178532 0.03855933249 2.284242894e-38
0.1005419418 0.1404630691 0.02977210842 2.284242894e-38
-0.1429663748 0.1103209853 0.03705713525 2.284242894e-38
0.08976526558 0.1420437694 0.05628640205 2.284242894e-38
-0.0943299979 0.1461228281 0.03554314747 2.284242894e-38
0.06909029931 0.1447127312 0.02925891243 2.284242894e-38
-0.1734362543 0.09268864989 0.03896578774 2.284242894e-38
0.1591145545 0.1151506454 0.0655156374 2.284242894e-38
-0.02506339736 0.1469827592 0.05005317181 2.284242894e-38
0.14198488 0.1251408011 0.03545778245 2.284242894e-38
-0.1203560382 0.1330955923 0.03774145991 2.284242894e-38
0.05360262096 0.142362684 0.06075715646 2.284242894e-38
0.07143112272 0.1434177309 -0.0008411927265 2.284242894e-38
0.03822226077 0.1445464045 0.03278758377 2.284242894e-38
-0.1369963586 0.1179323867 0.05318375304 2.284242894e-38
-0.03617382422 0.1442710459 0.01414955594 2.284242894e-38
-0.1586664915 0.1093667373 0.07581575215 2.284242894e-38
0.1481357813 0.1205203831 0.01074986439 2.284242894e-38
-0.09841296077 0.1467502862 0.05903276429 2.284242894e-38
-0.09159140289 0.1459240317 0.03154391795 2.284242894e-38
0.05716788024 0.08503281325 -0.1313448995 2.348204041e-38
0.02019235119 0.1048129201 -0.1236968637 2.348204041e-38
-0.2853791118 0.05551475286 -0.1139362827 2.348204041e-38
-0.1459261477 0.06796704233 -0.1348548383 2.348204041e-38
0.09893525392 0.0795410648 -0.1332137883 2.348204041e-38
0.001460037078 0.1050097495 -0.1230534092 2.348204041e-38
-0.08104224503 0.0975599885 -0.1236586273 2.348204041e-38
-0.003361950163 0.07614617795 -0.1360569 2.348204041e-38
0.2548271418 0.0522492677 -0.117949076 2.348204041e-38
0.1436931193 0.09779704362 -0.124144122 2.348204041e-38
-0.2206730247 0.07789482921 -0.1123984754 2.348204041e-38
-0.09494441748 0.07389815897 -0.1350559294 2.348204041e-38
0.1845954061 0.07302417606 -0.1250241995 2.348204041e-38
0.05721124634 0.1024499834 -0.1244835556 2.348204041e-38
-0.2745952308 0.06497829407 -0.107691668 2.348204041e-38
-0.1106308103 0.07912392914 -0.1316039115 2.348204041e-38
0.1636185795 0.08065741509 -0.1263822615 2.348204041e-38
0.0457411781 0.1065696329 -0.1228931025 2.348204041e-38
-0.1838317513 0.08466537297 -0.1177453548 2.348204041e-38
-0.003439599182 0.08172488958 -0.1330897063 2.348204041e-38
0.2296907604 0.06471309811 -0.118795298 2.348204041e-38
0.1023776457 0.1046220437 -0.1236811727 2.348204041e-38
-0.3368192017 0.03821637109 -0.1081417724 2.348204041e-38
-0.1866943091 0.05674112216 -0.1361679584 2.348204041e-38
0.1393725723 0.07298415899 -0.13461335 2.348204041e-38
-0.1087899581 0.08553402871 -0.1286579818 2.348204041e-38
-0.298122704 0.03984032571 -0.1272706985 2.348204041e-38
-0.2197599262 0.05108065531 -0.1351506859 2.348204041e-38
0.07135561109 0.08460260928 -0.1314460933 2.348204041e-38
-0.03650813922 0.08228285611 -0.1329059154 2.348204041e-38
-0.3353578746 0.03553360701 -0.1146586463 2.348204041e-38
-0.2148895711 0.06470431387 -0.1256635189 2.348204041e-38
-0.1250080764 0.1364950687 -0.007250976283 2.347880341e-38
0.1033112034 0.1322489828 0.007834983058 2.347880341e-38
-0.1795448661 0.08812121302 -0.02417425066 2.347880341e-38
0.3410617113 -0.06166556478 -0.1297806799 2.347880341e-38
-0.09165401012 0.1428223103 0.006529008504 2.347880341e-38
0.162488386 0.08638490736 -0.001561201992 2.347880341e-38
-0.252549082 0.04288918898 0.02983628586 2.347880341e-38
0.2243545949 0.01113325451 -0.0569704473 2.347880341e-38
-0.185357362 0.09539794922 0.005406177603 2.347880341e-38
-0.09857337177 0.1420102865 0.006183356512 2.347880341e-38
-0.2181021273 0.05445070937 0.007253185846 2.347880341e-38
0.2592998445 -0.05274877325 -0.1124748811 2.347880341e-38
-0.1535719633 0.1261973381 -0.004193747882 2.347880341e-38
-0.0163623374 0.1478893459 0.007559216116 2.347880341e-38
-0.2015575022 0.06457166374 -0.01428786665 2.347880341e-38
0.2790063322 -0.07335563749 -0.1299632639 2.347880341e-38
-0.1402918398 0.1327115744 -0.008288376033 2.347880341e-38
0.0654720366 0.1469000578 0.00912479125 2.347880341e-38
-0.2431584299 0.04525430501 0.00727481395 2.347880341e-38
0.2409817129 -0.04832284525 -0.1080368757 2.347880341e-38
-0.1825327426 0.09766390175 0.004969075322 2.347880341e-38
-0.0435276255 0.1443120092 0.005652812775 2.347880341e-38
-0.1650347859 0.1123317108 -0.05983445048 2.347880341e-38
0.2925006747 -0.06969808042 -0.1270762533 2.347880341e-38
-0.1304160506 0.137805149 0.005317291245 2.347880341e-38
-0.016059516 0.1480489969 0.01383546181 2.347880341e-38
-0.1974588931 0.08014964312 -0.06577754766 2.347880341e-38
-0.1184394956 0.1358346194 0.08036138862 2.347880341e-38
-0.1863652915 0.1019980609 0.0281557329 2.347880341e-38
-0.1679493189 0.1222578809 0.0453956835 2.347880341e-38
-0.2096565813 0.06471664459 0.04228893295 2.347880341e-38
0.2651818395 -0.05516075715 -0.1087878123 2.347880341e-38
0.2983029485 0.04921915382 0.09284365922 2.347520768e-38
-0.1838189512 0.08222970366 0.1047072634 2.347520768e-38
0.1450379491 0.08361857384 0.1246411279 2.347520768e-38
0.01672859862 0.1185659394 0.1273404211 2.347520768e-38
0.3362334073 0.04340742901 0.08093739301 2.347520768e-38
-0.1329936236 0.1023822129 0.1106347367 2.347520768e-38
0.03616510332 0.1164594293 0.1265941858 2.347520768e-38
