# .PCD v0.7 - Point Cloud Data file format
VERSION 0.7
FIELDS x y z rgb
SIZE 4 4 4 4
TYPE F F F F
COUNT 1 1 1 1
WIDTH 832
HEIGHT 1
VIEWPOINT 0 0 0 1 0 0 0
POINTS 832
DATA ascii
0.04351176322 0.02166819386 -0.3636034429 5.962428276e-39
-0.02816462517 0.09331228584 -0.3709914684 5.962428276e-39
0.1048447117 0.08121415973 -0.3936640918 5.962428276e-39
0.05362078175 -0.02379265986 -0.2343876064 5.962428276e-39
0.06799476594 -0.01470136177 -0.319093734 5.962428276e-39
0.08193132281 0.05233202875 -0.3841725588 5.962428276e-39
0.08845884353 0.0986161083 -0.4044954181 5.962428276e-39
0.0002858042717 0.003735569539 -0.3602811098 5.962428276e-39
0.09033951908 0.03037908487 -0.3877767324 5.962428276e-39
-0.01394047402 0.002055381425 -0.3594800532 5.962428276e-39
0.01693509705 0.03631747514 -0.3587608337 5.962428276e-39
-0.06888716668 -0.1211914644 0.460695684 6.698542971e-39
-0.1263559908 -0.05041991174 0.4637188017 6.698542971e-39
0.05979461223 -0.08299732953 0.4556821585 6.698542971e-39
-0.1304546744 0.1551175267 0.4474363625 6.698542971e-39
-0.01104443334 -0.1532133818 0.4625401497 6.698542971e-39
-0.101282768 -0.1747747213 0.4595865607 6.698542971e-39
0.1343465298 -0.1323188543 0.4170098603 6.698542971e-39
-0.1546687931 0.24996005 0.4258078933 6.698542971e-39
-0.1178252473 0.06697738916 0.4623212218 6.698542971e-39
-0.1516024023 -0.09793527424 0.4508844912 6.698542971e-39
0.07480014116 -0.166793406 0.457382232 6.698542971e-39
-0.1399647743 -0.01882090047 0.4543378949 6.698542971e-39
-0.07817969471 -0.1975767612 0.4567367733 6.698542971e-39
-0.1293229014 -0.2419611961 0.4464653432 6.698542971e-39
0.05977839604 -0.1288315803 0.4599262774 6.698542971e-39
-0.1061204523 -0.03258193284 0.463886559 6.698542971e-39
-0.02132166736 -0.248630017 0.4435662925 6.698542971e-39
-0.1185952425 -0.2493911535 0.44895491 6.698542971e-39
0.09811194241 -0.1710808724 0.4515173137 6.698542971e-39
-0.07545948774 -0.03735852987 0.4612649083 6.698542971e-39
0.02464894019 -0.217900008 0.4560664892 6.698542971e-39
-0.09547110647 -0.2068258822 0.455771029 6.698542971e-39
0.1124952808 -0.1105539799 0.4415724277 6.698542971e-39
-0.04399111494 -0.02949198894 0.4556445479 6.698542971e-39
0.02307843417 -0.2151614428 0.4566544294 6.698542971e-39
-0.1276115328 -0.1951208413 0.4543918073 6.698542971e-39
0.06658025086 -0.0998249799 0.4568431079 6.698542971e-39
-0.03407657519 -0.1452170163 0.4633221328 6.698542971e-39
0.07323499024 -0.06281155348 0.4517659247 6.698542971e-39
-0.1084062308 0.08970351517 0.4628272057 6.698542971e-39
-0.09401086718 -0.1514070481 0.4620575309 6.698542971e-39
-0.1096608192 -0.1054228321 0.4627121687 6.698542971e-39
0.1014904678 -0.2432324737 0.417019695 7.434656265e-39
-0.07306297123 -0.1963445246 0.1627389938 7.434656265e-39
-0.06326270103 -0.08954642713 0.3384626806 7.434656265e-39
0.116337277 -0.2233744711 0.3149498105 7.434656265e-39
0.07025436312 -0.185744822 0.4191792011 7.434656265e-39
-0.007684079465 -0.2052484006 0.2927144766 7.434656265e-39
0.0139757162 -0.2165327519 0.4160501659 7.434656265e-39
0.005286525004 -0.220018208 0.1774650812 7.434656265e-39
0.1474440247 -0.249433443 0.3711625338 7.434656265e-39
-0.07796684653 -0.2150624841 0.04167668521 7.434656265e-39
-0.03101586737 -0.1318864673 0.3668875396 7.434656265e-39
0.07553487271 -0.2233997136 0.2934012711 7.434656265e-39
0.1181492731 -0.2631272078 0.4219952822 7.434656265e-39
-0.04270971939 -0.2179611325 0.2263058126 7.434656265e-39
-0.03794073686 -0.1616169065 0.3315263689 7.434656265e-39
0.1021444499 -0.2310531288 0.3482238054 7.434656265e-39
0.1058919579 -0.2398478985 0.4215788841 7.434656265e-39
-0.0133483531 -0.2128971517 0.2898733616 7.434656265e-39
-0.02120862901 -0.1998875588 0.358397156 7.434656265e-39
0.07603680342 -0.233089298 0.3857145905 7.434656265e-39
0.1063750982 -0.2599143386 0.4169924259 7.434656265e-39
0.001503220527 -0.2155407965 0.2871098518 7.434656265e-39
-0.0178406015 -0.2028880268 0.3797500432 7.434656265e-39
0.06911907345 -0.227938205 0.3954426944 7.434656265e-39
0.1099506989 -0.2604467869 0.4148993194 7.434656265e-39
0.02542732097 -0.21596618 0.3510658443 7.434656265e-39
0.07374829054 -0.2141048163 0.4188674092 7.434656265e-39
0.003886501305 -0.222167924 0.3966017962 7.434656265e-39
0.05946948007 -0.2182079256 0.3952912986 7.434656265e-39
0.06289439648 -0.2198699564 0.2718008757 7.434656265e-39
0.1417525411 -0.2521659732 0.3749218583 7.434656265e-39
-0.02678526193 -0.2327492088 0.1291546673 7.434656265e-39
0.1172703058 -0.2511117756 0.4010030031 8.170410826e-39
-0.05160094798 -0.1435275525 0.2370114475 8.170410826e-39
0.118952848 -0.2846173346 0.3291553557 8.170410826e-39
0.01160324458 -0.09484528005 0.07454869896 8.170410826e-39
0.1235003844 -0.2462823242 0.3579345644 8.170410826e-39
0.009858743288 -0.1982536465 0.3178257942 8.170410826e-39
0.1177901998 -0.3252648711 0.378567487 8.170410826e-39
-0.04808846861 -0.063159585 -0.102635853 8.170410826e-39
0.1169332787 -0.2449162453 0.2899496555 8.170410826e-39
-0.05757575482 -0.1088313982 0.1980261803 8.170410826e-39
0.1298634261 -0.2814074457 0.37326774 8.170410826e-39
-0.03635696694 -0.06233077869 0.02732449584 8.170410826e-39
0.09489027411 -0.2187857777 0.2388514876 8.170410826e-39
-0.003116970183 -0.1887409985 0.2876925766 8.170410826e-39
0.1271251887 -0.2496890128 0.3609326482 8.170410826e-39
-0.005942289717 -0.1220204085 0.1587385237 8.170410826e-39
0.07593400776 -0.2073357552 0.173568368 8.170410826e-39
0.06765826046 -0.2083744258 0.2914930284 8.170410826e-39
0.1251166016 -0.2412144542 0.3538739383 8.170410826e-39
0.03212273121 -0.171105355 0.211307779 8.170410826e-39
0.1032024994 -0.2160820067 0.2414613664 8.170410826e-39
0.09025909752 -0.1955827177 0.2514365315 8.170410826e-39
0.1265227497 -0.233947739 0.3684991002 8.170410826e-39
0.07237783074 -0.1912467182 0.2154398412 8.170410826e-39
0.1072489172 -0.2192927897 0.24698852 8.170410826e-39
0.053468436 -0.1561618447 0.1116316542 8.170410826e-39
0.1209042296 -0.233365342 0.3708316982 8.170410826e-39
0.119518809 -0.2234381139 0.3342658281 8.170410826e-39
0.1222508997 -0.2772502899 0.3500079811 8.170410826e-39
0.04059740528 -0.09292528778 -0.006821869407 8.170410826e-39
0.1215460896 -0.2343691438 0.3228194118 8.170410826e-39
0.06897057593 -0.2107521743 0.2943204045 8.170410826e-39
-0.09920470417 -0.1600003242 0.4003865719 8.906165387e-39
-0.07096456736 -0.009946513921 0.3039859831 8.906165387e-39
-0.004826910328 -0.1153914481 0.3828779459 8.906165387e-39
-0.1121117398 0.09468219429 0.04972463474 8.906165387e-39
-0.07752114534 -0.0331379883 0.3914503157 8.906165387e-39
-0.02159900218 -0.07299479097 0.3823544979 8.906165387e-39
-0.1098218411 -0.2396451533 0.3908904493 8.906165387e-39
-0.1170947179 0.1264206916 0.385020256 8.906165387e-39
-0.1188941896 -0.1443274468 0.399195224 8.906165387e-39
-0.07769802213 -0.003528736765 0.3514500558 8.906165387e-39
-0.09587067366 -0.1724307835 0.3976979852 8.906165387e-39
-0.1267632246 0.1033532768 0.2279003114 8.906165387e-39
-0.1256351769 -0.0226879362 0.3900742531 8.906165387e-39
-0.017381154 -0.05248922482 0.292388618 8.906165387e-39
-0.08481177688 -0.09988280386 0.3967190087 8.906165387e-39
-0.1158950254 0.06620398909 0.1532331854 8.906165387e-39
-0.1107075661 0.01596327871 0.3950348794 8.906165387e-39
-0.05640767515 -0.04429028183 0.3907649517 8.906165387e-39
-0.05055677891 -0.1005112678 0.3917154074 8.906165387e-39
-0.1083141863 0.02411396429 0.2764475644 8.906165387e-39
-0.114093937 -0.03558103368 0.3966119587 8.906165387e-39
-0.09878044575 0.03686500713 0.3112437725 8.906165387e-39
-0.04933480918 -0.08450495452 0.3924122751 8.906165387e-39
-0.03786141425 -0.02021959797 0.3484341204 8.906165387e-39
-0.1095311567 -0.02776916325 0.39884758 8.906165387e-39
-0.1218601316 0.09971757233 0.3439275324 8.906165387e-39
-0.1115105897 -0.07115408778 0.4003812373 8.906165387e-39
-0.1020458564 -0.04809249192 0.4015517533 8.906165387e-39
-0.1211645827 -0.2122642845 0.3964029253 8.906165387e-39
-0.1089672893 0.06497085094 0.391581744 8.906165387e-39
-0.1177535355 -0.1197878197 0.3940433562 8.906165387e-39
-0.1119308099 0.03672413155 0.2041223347 8.906165387e-39
-0.1636871099 -0.2155536711 0.3431724608 9.641561216e-39
-0.1333085746 -0.0001361146569 0.2656981945 9.641561216e-39
-0.1418902278 -0.2216477394 0.1787054539 9.641561216e-39
-0.1545374393 0.0626295805 0.3892636001 9.641561216e-39
-0.1541377008 -0.2016499639 0.2605598271 9.641561216e-39
-0.160840407 -0.149091199 0.376945585 9.641561216e-39
-0.1235589981 -0.215658322 -0.005034836475 9.641561216e-39
-0.14752765 0.2039364129 0.2901687324 9.641561216e-39
-0.1644059867 -0.200020209 0.3661192656 9.641561216e-39
-0.1356082261 -0.05325171724 0.2713168263 9.641561216e-39
-0.1352767199 -0.2185188979 0.112324819 9.641561216e-39
-0.1516370922 0.09225384891 0.3759075999 9.641561216e-39
-0.1638791412 -0.217175141 0.3054583669 9.641561216e-39
-0.1464777738 -0.05368030444 0.3235678971 9.641561216e-39
-0.1362499744 -0.2189563364 0.1282059401 9.641561216e-39
-0.1591802835 0.007364743389 0.3932491839 9.641561216e-39
-0.1587554812 -0.2121978551 0.2829475999 9.641561216e-39
-0.1578633338 -0.145225361 0.3564241529 9.641561216e-39
-0.1286931485 -0.2216542661 0.1318615079 9.641561216e-39
-0.1614319086 -0.07916162163 0.398439616 9.641561216e-39
-0.1585485637 -0.2108375281 0.3138432801 9.641561216e-39
-0.1528923661 -0.07854182273 0.3503492773 9.641561216e-39
-0.1225416139 -0.217698887 0.1736230552 9.641561216e-39
-0.160913378 -0.09597877413 0.3938272893 9.641561216e-39
-0.1588004231 -0.2126132846 0.3084969521 9.641561216e-39
-0.1552069485 -0.02276770957 0.3653760552 9.641561216e-39
-0.1504692137 -0.1959568709 0.2725572586 9.641561216e-39
-0.1599989086 -0.1121606678 0.3903409839 9.641561216e-39
-0.1389775872 -0.220631063 0.1764410883 9.641561216e-39
-0.1378794014 0.05406408384 0.2710029185 9.641561216e-39
-0.1583958417 -0.1808043718 0.3420986533 9.641561216e-39
-0.1393724978 -0.001966011943 0.2981742918 9.641561216e-39
0.01587731019 -0.01656356268 0.3810855746 1.037659831e-38
0.07534141093 -0.0296929162 -0.04056474939 1.037659831e-38
0.0284510497 -0.02563772909 0.1111314744 1.037659831e-38
0.08446478844 -0.03385903314 -0.2603137791 1.037659831e-38
0.06200794876 -0.03064342961 0.2196893692 1.037659831e-38
0.03094958514 -0.02230628394 0.1666620523 1.037659831e-38
-0.004807211459 -0.01986444183 0.2926194668 1.037659831e-38
0.101797156 -0.05934651196 -0.321016103 1.037659831e-38
-0.02483355626 -0.01256405003 0.3754999936 1.037659831e-38
0.1122033447 -0.04808645695 -0.05902292952 1.037659831e-38
0.02326758392 -0.03504005075 0.251041919 1.037659831e-38
0.09708340466 -0.05527684838 -0.2864417732 1.037659831e-38
0.04788324237 -0.05415455252 0.2985502481 1.037659831e-38
0.06974560767 -0.02314876206 0.06593767554 1.037659831e-38
0.04967344925 -0.02248399518 0.1058162451 1.037659831e-38
0.1040061712 -0.05033415183 -0.2092215717 1.037659831e-38
0.06275444478 -0.03437476978 0.2178843468 1.037659831e-38
0.08523201197 -0.01762656122 0.09064882249 1.037659831e-38
0.06336563081 -0.02156434022 0.1376911104 1.037659831e-38
0.05725167319 -0.04289313406 -0.1922143549 1.037659831e-38
0.06767971069 -0.06659707427 0.3273239732 1.037659831e-38
0.1007297486 -0.02191537991 0.01281290781 1.037659831e-38
0.07931488752 -0.03115211986 0.1257625818 1.037659831e-38
0.04167379066 -0.04479803517 -0.194725588 1.037659831e-38
0.06124676764 -0.05915606394 0.3173301518 1.037659831e-38
0.1271132976 -0.03524945304 -0.06771623343 1.037659831e-38
0.04224066809 -0.04076720402 0.267436713 1.037659831e-38
0.05742300302 -0.02478350513 0.04669753462 1.037659831e-38
0.01917321607 -0.02929964289 0.3334550858 1.037659831e-38
0.1021672413 -0.04943890497 -0.234977141 1.037659831e-38
0.04450160637 -0.03387571871 0.3835625947 1.037659831e-38
0.05423846841 -0.02782570757 0.01236644667 1.037659831e-38
-0.01165852789 -0.03196202591 -0.3498513103 1.111163541e-38
0.08060910553 -0.03743747622 -0.1941824853 1.111163541e-38
0.11583478 -0.03999966383 -0.2950615883 1.111163541e-38
0.1061346084 -0.05187601596 -0.09806163609 1.111163541e-38
-0.02596804686 -0.03123155609 -0.3507652879 1.111163541e-38
-0.004817344248 -0.04209823906 -0.2887148857 1.111163541e-38
-0.1014867052 -0.01929893531 -0.361654073 1.111163541e-38
0.1268136203 -0.07663430274 0.05354985595 1.111163541e-38
0.1047675535 -0.03839148581 -0.2631506622 1.111163541e-38
0.07810018957 -0.04005455226 -0.1641514152 1.111163541e-38
0.1091535091 -0.04049141333 -0.33496508 1.111163541e-38
0.1198394597 -0.06310004741 0.03025505133 1.111163541e-38
-8.238106966e-05 -0.03252713382 -0.3399767876 1.111163541e-38
0.0818387419 -0.03491406515 -0.2461268902 1.111163541e-38
0.1320340484 -0.04796368256 -0.282476902 1.111163541e-38
0.1228089556 -0.06393069774 -0.06618505716 1.111163541e-38
-0.006138090976 -0.03315214813 -0.344799757 1.111163541e-38
0.05538897216 -0.03594148532 -0.2553009093 1.111163541e-38
0.1289350688 -0.09576632828 -0.3698375523 1.111163541e-38
0.1264720261 -0.05981437489 -0.1697715968 1.111163541e-38
0.07926389575 -0.04434416816 -0.3638820946 1.111163541e-38
0.1096596941 -0.04142145813 -0.2564976513 1.111163541e-38
0.06556010246 -0.1162371039 -0.384116888 1.111163541e-38
0.1274739206 -0.06103300676 -0.2335084379 1.111163541e-38
0.09081446379 -0.0485207811 -0.3613989353 1.111163541e-38
0.1068035662 -0.04217111692 -0.2175082564 1.111163541e-38
-0.02285534702 -0.04946932197 -0.3666439056 1.111163541e-38
0.1279012561 -0.04406616464 -0.3055637777 1.111163541e-38
0.0758164227 -0.06341612339 -0.3683795333 1.111163541e-38
0.1246814132 -0.06137734279 -0.1647351235 1.111163541e-38
0.1103830114 -0.04458561167 -0.2177543193 1.111163541e-38
0.09257923812 -0.03981953487 -0.212828666 1.111163541e-38
-0.1386204809 0.2056960166 -0.152655527 1.184631237e-38
-0.1343136579 0.2325463742 -0.2603268325 1.184631237e-38
-0.1316857636 0.2168910205 0.08019822091 1.184631237e-38
-0.1161548868 0.1646926701 0.3041418195 1.184631237e-38
-0.1260335147 0.2231867015 -0.01192896068 1.184631237e-38
-0.1251794547 0.2351594418 -0.03816414624 1.184631237e-38
-0.124464035 0.22101596 0.2589735389 1.184631237e-38
-0.1249092221 0.1914159656 0.02382985875 1.184631237e-38
-0.1186337918 0.2267500907 -0.3134815097 1.184631237e-38
-0.116928108 0.2252095044 -0.3142917454 1.184631237e-38
-0.1169058606 0.1957078576 0.1479432583 1.184631237e-38
-0.1074182019 0.15440768 0.1534332186 1.184631237e-38
-0.1384943873 0.2254542261 -0.2135563195 1.184631237e-38
-0.1326265931 0.2221946269 -0.117389746 1.184631237e-38
-0.1252772212 0.1991609484 0.06437712163 1.184631237e-38
-0.0983915329 0.02411312051 0.3177164197 1.184631237e-38
-0.1315880716 0.1850436628 -0.1799083054 1.184631237e-38
-0.1303467751 0.209443301 -0.1078046337 1.184631237e-38
-0.1072329357 0.1357751787 0.07736810297 1.184631237e-38
-0.09880772233 0.001600554679 0.3285807967 1.184631237e-38
-0.1236764565 0.1229534969 -0.2394585013 1.184631237e-38
-0.1230603531 0.1536009014 -0.123104468 1.184631237e-38
-0.1078201607 0.141515255 0.07333254069 1.184631237e-38
-0.09903580695 0.04765986279 0.2944344282 1.184631237e-38
-0.108423993 0.1352667511 -0.01259910688 1.184631237e-38
-0.1196548268 0.1473662853 -0.1144074276 1.184631237e-38
-0.09907767177 0.1009397209 0.09618239105 1.184631237e-38
-0.1187451407 0.1849867404 0.07833264768 1.184631237e-38
-0.114740923 0.1837164164 0.2031309754 1.184631237e-38
-0.1343111843 0.1827463657 -0.2496223003 1.184631237e-38
-0.1400941014 0.2333199531 -0.3640188575 1.184631237e-38
-0.1420420855 0.2231212556 -0.1866635531 1.184631237e-38
-0.1409772038 0.1790661365 -0.1425193995 1.258099074e-38
-0.1463544667 0.01998791657 0.3471022844 1.258099074e-38
-0.1484544575 0.1552437097 0.185842976 1.258099074e-38
-0.1514683962 0.1244248748 0.3792140484 1.258099074e-38
-0.1388254762 0.1805543005 -0.03004190512 1.258099074e-38
-0.144744575 0.05894666538 0.2368732244 1.258099074e-38
-0.1420436502 0.181235671 -0.01348855626 1.258099074e-38
-0.1465117335 0.1080802456 0.1846105307 1.258099074e-38
-0.143403098 0.1744154394 -0.2815469205 1.258099074e-38
-0.1417559385 -0.03591137007 0.3563035131 1.258099074e-38
-0.1458979696 0.1605999917 0.1019282565 1.258099074e-38
-0.1506759226 0.1476170719 0.2838089466 1.258099074e-38
-0.1425988376 0.1703505367 -0.1548691988 1.258099074e-38
-0.1470603496 0.06681870669 0.2982789874 1.258099074e-38
-0.1442397237 0.1602422148 0.1537354439 1.258099074e-38
-0.1538043171 0.1574192345 0.3912736773 1.258099074e-38
-0.1447045058 0.1626660973 -0.05559884757 1.258099074e-38
-0.1457403302 0.0868568942 0.2549598813 1.258099074e-38
-0.1393652707 0.1628607512 0.182243824 1.258099074e-38
-0.1540385038 0.1600479335 0.3656318188 1.258099074e-38
-0.1470793039 0.153249383 -0.04749077559 1.258099074e-38
-0.1490966827 0.1186121479 0.3463808894 1.258099074e-38
-0.145673126 0.1587892175 0.2142801881 1.258099074e-38
-0.1552757174 0.1569926739 0.3590779006 1.258099074e-38
-0.1502770036 0.139850378 -0.004488399718 1.258099074e-38
-0.1524978876 0.1370622814 0.359436512 1.258099074e-38
-0.1442917585 0.1534957141 0.05633001775 1.258099074e-38
-0.1487440467 0.1178021207 0.3064638972 1.258099074e-38
-0.1447615772 0.1593961865 0.04386857152 1.258099074e-38
-0.1465875804 0.1139594913 0.2296458483 1.258099074e-38
-0.1420854032 0.1734564602 -0.2149978876 1.258099074e-38
-0.1458415836 0.02608002722 0.3138931096 1.258099074e-38
-0.04061713815 -0.2365259379 -0.1438695788 1.331530897e-38
-0.06213146821 -0.2337204814 0.1318056434 1.331530897e-38
0.04242495447 -0.2503342927 -0.03216428682 1.331530897e-38
0.07482653856 -0.2496437877 -0.09701932967 1.331530897e-38
-0.001118361484 -0.2390356213 -0.2278664857 1.331530897e-38
-0.103784509 -0.2123969197 0.007851320319 1.331530897e-38
-0.1164985299 -0.2247356623 -0.2917975783 1.331530897e-38
0.04550140351 -0.2513958514 0.1251470596 1.331530897e-38
-0.1256338805 -0.1734455824 -0.3500375152 1.331530897e-38
0.00308006024 -0.2453714013 0.182840243 1.331530897e-38
-0.05673839152 -0.2325404733 -0.2224909514 1.331530897e-38
0.02854938433 -0.2450541407 -0.01495827921 1.331530897e-38
-0.1127555892 -0.2244733423 -0.3233295977 1.331530897e-38
-0.1009721234 -0.2145905495 0.02519947104 1.331530897e-38
-0.08971638232 -0.2289593518 -0.2016641647 1.331530897e-38
-0.0106796883 -0.2357064188 -0.08202487975 1.331530897e-38
-0.003912898246 -0.2465679795 -0.3888807595 1.331530897e-38
-0.09452037513 -0.2205395401 -0.1220412999 1.331530897e-38
-0.1403043419 -0.2012866139 -0.2257254422 1.331530897e-38
-0.04685180634 -0.2274589241 -0.03819322959 1.331530897e-38
-0.0828095302 -0.2414833605 -0.38422665 1.331530897e-38
-0.09128210694 -0.2199860364 -0.07862539589 1.331530897e-38
-0.1397464722 -0.183781758 -0.2311307639 1.331530897e-38
-0.07509414852 -0.2228408158 -0.06257769465 1.331530897e-38
-0.08450721949 -0.2403824776 -0.380708158 1.331530897e-38
-0.05215192586 -0.2287878096 -0.1923967302 1.331530897e-38
-0.133304283 -0.2166626453 -0.2661165595 1.331530897e-38
-0.1354813725 -0.2077688277 -0.1836969554 1.331530897e-38
-0.1387712359 -0.1947927028 -0.3007270694 1.331530897e-38
0.04045264795 -0.246677503 -0.09789073467 1.331530897e-38
-0.10952124 -0.1994747072 -0.3844539821 1.331530897e-38
-0.05053949356 -0.2290947884 0.006916993763 1.331530897e-38
-0.121748805 0.1689159572 -0.2608406544 1.404926846e-38
-0.1118238866 0.07277881354 -0.03136642277 1.404926846e-38
-0.1200095341 0.1533175856 0.1572511196 1.404926846e-38
-0.1068547443 0.05415252224 -0.1406556666 1.404926846e-38
-0.1259910911 0.1485057771 -0.06815091521 1.404926846e-38
-0.1181819662 0.02964480035 0.2803865373 1.404926846e-38
-0.1228290275 0.110249348 0.3808633089 1.404926846e-38
-0.1170718819 0.1445832998 -0.3399005532 1.404926846e-38
-0.1187304631 0.151832521 -0.3648823798 1.404926846e-38
-0.1101324707 0.08370716125 -0.1933982372 1.404926846e-38
-0.1192813441 0.1431082636 0.2748996913 1.404926846e-38
-0.1091227457 0.09444087744 -0.2789280415 1.404926846e-38
-0.1186840162 0.1550358981 -0.2732718289 1.404926846e-38
-0.1209599674 0.09327587485 0.1350139827 1.404926846e-38
-0.1184290797 0.1451451331 0.2519007921 1.404926846e-38
-0.1067615971 0.07354678214 -0.2452408522 1.404926846e-38
-0.1262150556 0.1718783826 -0.1708161384 1.404926846e-38
-0.1187678501 0.09477668256 0.3177056909 1.404926846e-38
-0.121563226 0.1700784862 0.1495261341 1.404926846e-38
-0.1206372082 0.1154921576 -0.03786408156 1.404926846e-38
-0.117494449 0.1461671144 -0.2789367735 1.404926846e-38
-0.1181585565 0.1108809561 0.2316932529 1.404926846e-38
-0.1247582212 0.1666636169 0.05200692266 1.404926846e-38
-0.1209538653 0.1107471883 0.1263127029 1.404926846e-38
-0.1163778305 0.1399639547 -0.2683193684 1.404926846e-38
-0.1203482524 0.1273141503 0.1171629056 1.404926846e-38
-0.1193999276 0.1101630926 -0.008829763159 1.404926846e-38
-0.1205746233 0.1046782508 0.3558121622 1.404926846e-38
-0.1270651519 0.1800013036 0.225304693 1.404926846e-38
-0.1192676872 0.1219936088 -0.1365946531 1.404926846e-38
-0.1213347092 0.1690882742 -0.3083174229 1.404926846e-38
-0.1241956279 0.1617889404 -0.1670149565 1.404926846e-38
-0.1046815068 0.04642896727 -0.1335584223 1.478322936e-38
-0.1114122421 0.1682812572 0.1851595342 1.478322936e-38
-0.1069606841 0.0971301645 0.1118487567 1.478322936e-38
-0.1042475104 0.008863686584 -0.1731880605 1.478322936e-38
-0.1056784838 0.1285542846 0.03202901781 1.478322936e-38
-0.1054970473 0.116807282 -0.1193659604 1.478322936e-38
-0.117868647 0.1628123671 0.2925078869 1.478322936e-38
-0.1053982377 0.0658666268 0.1527176201 1.478322936e-38
-0.1012910679 0.04290291667 -0.2936288118 1.478322936e-38
-0.1156029701 0.1603850573 0.2795376182 1.478322936e-38
-0.09741513431 0.02197332866 0.1951016784 1.478322936e-38
-0.1021762863 -0.001890411251 -0.01151768025 1.478322936e-38
-0.1027143672 0.05337410048 -0.1584675014 1.478322936e-38
-0.102842845 0.1230323613 -0.1115289181 1.478322936e-38
-0.1009110361 0.0166184213 0.09652220458 1.478322936e-38
-0.1031437293 0.003916623536 -0.09381829947 1.478322936e-38
-0.1025793627 0.0522191301 -0.1153099462 1.478322936e-38
-0.09976969659 0.061298199 -0.2595588863 1.478322936e-38
-0.09899181128 0.0116554061 0.1431978643 1.478322936e-38
-0.1024903655 0.005741265137 -0.1276574433 1.478322936e-38
-0.102910623 0.04704782367 -0.08395083249 1.478322936e-38
-0.1008524448 0.05729870498 -0.2253887802 1.478322936e-38
-0.09556263685 -0.00413006451 0.1723845899 1.478322936e-38
-0.1022383347 0.009070132859 -0.1699979454 1.478322936e-38
-0.1030924097 0.04053576291 -0.06857747585 1.478322936e-38
-0.1028082296 0.01970894262 -0.1949909776 1.478322936e-38
-0.1033052504 0.02712787315 -0.02140542679 1.478322936e-38
-0.09989453852 -0.02822337113 -0.2353273183 1.478322936e-38
-0.1035172194 0.06718076766 0.08000355959 1.478322936e-38
-0.1038809717 0.02999872714 -0.05479218438 1.478322936e-38
-0.1042931527 0.1007165462 -0.2415650189 1.478322936e-38
-0.1100122333 0.1207207143 0.2022064179 1.478322936e-38
0.1177206561 -0.04618664458 -0.2244879603 1.551683013e-38
0.09360476583 -0.04655516893 0.2861229777 1.551683013e-38
-0.001754535479 -0.02288261801 -0.1734554172 1.551683013e-38
2.616643906e-05 -0.02639048174 -0.102503933 1.551683013e-38
0.1288971454 -0.05622205883 -0.1039877683 1.551683013e-38
0.04689253867 -0.03388188407 0.1357667893 1.551683013e-38
0.04437927157 -0.03385693952 0.1550437063 1.551683013e-38
0.04916372895 -0.03391599283 0.08730969578 1.551683013e-38
0.0799407959 -0.02841013111 -0.2991355658 1.551683013e-38
0.09149185568 -0.04207137227 0.3139584064 1.551683013e-38
0.0155451512 -0.02750263922 0.002123948652 1.551683013e-38
0.04789026454 -0.02767967433 -0.05075794086 1.551683013e-38
0.09860502928 -0.03449127823 -0.2188950032 1.551683013e-38
0.06596283615 -0.04047808796 0.1855249554 1.551683013e-38
0.008321808651 -0.02697023563 -0.08653454483 1.551683013e-38
0.04989795759 -0.02733370103 -0.1297042668 1.551683013e-38
0.1009472385 -0.03328406811 -0.1604440659 1.551683013e-38
0.07729005814 -0.04635283723 0.1298444122 1.551683013e-38
0.08917787671 -0.04316526651 -0.004506245255 1.551683013e-38
0.08532348275 -0.02942376584 -0.1104277149 1.551683013e-38
0.08495248109 -0.02959983796 -0.2181422561 1.551683013e-38
0.0984795019 -0.05429684743 0.1521970183 1.551683013e-38
0.1003511474 -0.04387521744 -0.004957628902 1.551683013e-38
0.08873431385 -0.03193599731 -0.08605280519 1.551683013e-38
0.05963394046 -0.02685631625 -0.2403131276 1.551683013e-38
0.06899703294 -0.04062813148 0.0907330662 1.551683013e-38
0.1303413808 -0.05898218229 -0.0388805978 1.551683013e-38
0.1316265613 -0.05829834566 0.02958698012 1.551683013e-38
-0.01247222163 -0.02530262806 -0.1031026617 1.551683013e-38
0.06722418964 -0.0419213362 0.04835731536 1.551683013e-38
0.06315318495 -0.02728742175 -0.2567943037 1.551683013e-38
0.07435706258 -0.04459475353 0.2010069937 1.551683013e-38
-0.1447892338 0.1391591877 0.2146477699 1.625043089e-38
-0.1492991 0.1824680716 -0.01149168704 1.625043089e-38
-0.1431057304 0.01486914512 0.3049575388 1.625043089e-38
-0.1468761265 0.1348280162 -0.009685943834 1.625043089e-38
-0.1482906491 0.1548547894 0.3476078212 1.625043089e-38
-0.1457693428 0.1860444844 0.1887200773 1.625043089e-38
-0.1431688964 -0.0967092216 0.1538300812 1.625043089e-38
-0.1480898112 0.1684222519 -0.2107946724 1.625043089e-38
-0.1461995393 0.141217798 0.1159022972 1.625043089e-38
-0.1515566856 0.1836770475 -0.1223898381 1.625043089e-38
-0.1428141445 -0.01287179813 0.2691265941 1.625043089e-38
-0.147521168 0.1551545411 -0.1241707355 1.625043089e-38
-0.1432648897 0.1633311361 0.2560535967 1.625043089e-38
-0.1434738338 0.1755619347 0.1210137382 1.625043089e-38
-0.1415913105 0.05056021735 0.2575299442 1.625043089e-38
-0.1478153318 0.1247405857 -0.0547317639 1.625043089e-38
-0.1433261186 0.1581528038 0.2594352663 1.625043089e-38
-0.1440137625 0.1725598574 0.1872833818 1.625043089e-38
-0.1427737325 0.07926027477 0.2399422675 1.625043089e-38
-0.1520595998 0.09760813415 -0.02403517812 1.625043089e-38
-0.1440084726 0.1250826567 0.2995808721 1.625043089e-38
-0.1460809559 0.1372695118 0.1248690858 1.625043089e-38
-0.1416461915 0.09232655913 0.2469682544 1.625043089e-38
-0.1541284472 0.08127169311 0.0227577202 1.625043089e-38
-0.1442613155 0.1049508452 0.2995148599 1.625043089e-38
-0.1487979293 0.1118224636 0.08472227305 1.625043089e-38
-0.1434914172 0.1223015636 0.2878271341 1.625043089e-38
-0.1482352912 0.1073520109 0.1407775581 1.625043089e-38
-0.1449719667 0.0522945784 0.2028427273 1.625043089e-38
-0.149422273 0.106384024 -0.07995612174 1.625043089e-38
-0.1446565986 0.1517580897 0.1039388999 1.625043089e-38
-0.1466362327 0.1815745533 0.05170358717 1.625043089e-38
0.05353226513 -0.002151038963 -0.3963114917 1.698367293e-38
0.1339574456 -0.09008903056 -0.3652569652 1.698367293e-38
0.008232109249 -0.02936845087 -0.4473039806 1.698367293e-38
0.1338209361 -0.1856110096 -0.365626663 1.698367293e-38
0.1170285195 -0.02146911062 -0.4243746698 1.698367293e-38
0.1252907068 -0.05984122679 -0.3993480504 1.698367293e-38
0.08252841234 -0.190176487 -0.4334312677 1.698367293e-38
0.137079522 -0.2701321542 -0.4170625508 1.698367293e-38
-0.1160312667 -0.01571980305 -0.3854425251 1.698367293e-38
0.13375929 -0.137105599 -0.3682290912 1.698367293e-38
0.08937419951 -0.1045738012 -0.443090111 1.698367293e-38
0.137827456 -0.2183295637 -0.3831011057 1.698367293e-38
0.09895405918 0.01304565091 -0.4310352206 1.698367293e-38
0.1338404566 -0.08723876625 -0.3629873097 1.698367293e-38
0.1002571657 -0.1233942136 -0.431984812 1.698367293e-38
0.1343689859 -0.2006161511 -0.3686366677 1.698367293e-38
0.1171206683 -0.02556747198 -0.431451261 1.698367293e-38
0.1290325373 -0.1049627215 -0.4002267122 1.698367293e-38
0.1090537533 -0.164341718 -0.4267436266 1.698367293e-38
0.1339734346 -0.2464004457 -0.4255620241 1.698367293e-38
0.1122689024 0.01141874772 -0.4388916194 1.698367293e-38
0.1299106628 -0.148214221 -0.4021879733 1.698367293e-38
0.1156129986 -0.1676163971 -0.4243041277 1.698367293e-38
0.1044425219 -0.2397554666 -0.4272669852 1.698367293e-38
0.1108478457 -0.0008847487625 -0.4434784353 1.698367293e-38
0.1335361153 -0.1905795038 -0.3962950706 1.698367293e-38
0.1298812479 -0.1473530382 -0.4009917676 1.698367293e-38
0.1177796721 -0.1656408459 -0.4185271859 1.698367293e-38
0.08552666754 -0.03532598913 -0.4585332572 1.698367293e-38
0.1274035424 -0.2524122 -0.4258266687 1.698367293e-38
0.000981673249 -0.008612605743 -0.4126253426 1.698367293e-38
0.1321196705 -0.1416140646 -0.3768984079 1.698367293e-38
0.1293796897 0.01753933355 0.3569925129 1.771655483e-38
-0.02702120692 -0.04668521881 0.3308217525 1.771655483e-38
0.1117054746 -0.009905626997 0.3100885153 1.771655483e-38
0.1127032042 0.05875915289 0.3553152084 1.771655483e-38
0.09334026277 -0.01179411914 0.116365321 1.771655483e-38
0.0374462232 0.03013464436 0.3426180482 1.771655483e-38
0.01286176033 -0.02797722816 0.05927956477 1.771655483e-38
0.08169166744 -0.07440368086 0.3387097418 1.771655483e-38
0.09213614464 0.05172453821 0.348826915 1.771655483e-38
-0.07529701293 0.01210550778 0.330763191 1.771655483e-38
0.06685377657 -0.01265564561 0.287299186 1.771655483e-38
0.0143186124 0.04032935575 0.3437442183 1.771655483e-38
0.1229280308 0.02961400896 0.3508104682 1.771655483e-38
-0.04843174294 0.03810670972 0.3369021416 1.771655483e-38
0.1015761346 0.01246552821 0.36116606 1.771655483e-38
0.1233336702 0.03548736498 0.3645006716 1.771655483e-38
0.1469269097 0.01440497953 0.3430528641 1.771655483e-38
-0.02041708864 0.05065937713 0.3428556323 1.771655483e-38
0.1171351373 0.0271650441 0.3635641634 1.771655483e-38
0.1467481554 -0.04903963953 0.351215452 1.771655483e-38
0.1408957094 -0.006489429623 0.3174328506 1.771655483e-38
0.01714321598 -0.01080084685 0.3391480446 1.771655483e-38
0.09738460183 0.0202995576 0.3502902389 1.771655483e-38
0.1445975155 -0.0570404008 0.3458411992 1.771655483e-38
0.1373011172 -0.01450910512 0.260007441 1.771655483e-38
0.07484693825 0.01794076152 0.3504680395 1.771655483e-38
0.1179952919 -0.01399038173 0.1472622603 1.771655483e-38
0.1299968213 0.02646219172 0.3648422956 1.771655483e-38
0.04720299318 -0.01919173077 0.2276312262 1.771655483e-38
0.09430541843 -0.0676137507 0.3416422904 1.771655483e-38
0.1514824182 0.01051206887 0.3591534793 1.771655483e-38
0.01342035737 -0.03650303185 0.336165607 1.771655483e-38
-0.1304436326 0.132672146 -0.2516935766 1.844943813e-38
-0.1426243335 0.09226479381 -0.001439294661 1.844943813e-38
-0.1419754177 0.03008832969 0.220227018 1.844943813e-38
-0.137841478 0.03186338767 0.05335431546 1.844943813e-38
-0.1311668903 0.1054932177 -0.120082818 1.844943813e-38
-0.1321235001 0.1038840711 -0.1043547615 1.844943813e-38
-0.1355102807 -0.06738868356 0.2798179686 1.844943813e-38
-0.1400543451 -0.0001411288977 0.04544849694 1.844943813e-38
-0.1307294071 0.1404913366 -0.2554890513 1.844943813e-38
-0.1423881203 0.07810025662 0.0916723758 1.844943813e-38
-0.1425052732 0.01537459064 0.2475574911 1.844943813e-38
-0.1388024241 0.04061538354 0.08880194277 1.844943813e-38
-0.1301319003 0.114070788 -0.2056357712 1.844943813e-38
-0.1364192367 0.09570708871 -0.05456877127 1.844943813e-38
-0.1421028078 0.03492382541 0.1968152225 1.844943813e-38
-0.1402850747 0.05283082649 0.02477300167 1.844943813e-38
-0.1327434033 0.08412496001 -0.1810818911 1.844943813e-38
-0.1353048533 0.07550895214 -0.09678190947 1.844943813e-38
-0.1422775835 0.04717193171 0.1552440077 1.844943813e-38
-0.13972646 0.04210297018 0.01312262099 1.844943813e-38
-0.131148994 0.0691839233 -0.2062761188 1.844943813e-38
-0.1357303411 0.05891553685 -0.09439948201 1.844943813e-38
-0.1426580846 0.05523880944 0.1348931789 1.844943813e-38
-0.1401303262 0.04652090743 -0.04612218589 1.844943813e-38
-0.1315269023 0.06080319732 -0.1951569468 1.844943813e-38
-0.1376865804 0.05350285396 -0.08394880593 1.844943813e-38
-0.1357588768 0.09130042791 -0.06294174492 1.844943813e-38
-0.1336661428 0.05474190041 -0.1437426507 1.844943813e-38
-0.1417487115 0.01487994101 0.1819334775 1.844943813e-38
-0.1387743652 0.02311215922 0.03811757267 1.844943813e-38
-0.1283198148 0.1180099994 -0.180585742 1.844943813e-38
-0.1391926259 0.07558621466 0.03935718536 1.844943813e-38
-0.1056843325 -0.2550014257 0.3169730604 1.91819627e-38
-0.1155547127 -0.2469035238 -0.05732708797 1.91819627e-38
-0.03558377549 -0.2494168878 0.3953290284 1.91819627e-38
-0.1009367332 -0.2307166606 -0.2058397233 1.91819627e-38
-0.1288079917 -0.2451548129 0.04701445997 1.91819627e-38
-0.08145222813 -0.2495031655 0.1382003278 1.91819627e-38
0.07059532404 -0.2548449039 0.3586829901 1.91819627e-38
-0.0883166343 -0.2177538574 -0.3609071374 1.91819627e-38
-0.1141768172 -0.2545205951 0.298707366 1.91819627e-38
-0.1101571247 -0.2473510504 -0.06429528445 1.91819627e-38
-0.02459912933 -0.256087333 0.3653507829 1.91819627e-38
-0.09127904475 -0.22556898 -0.184237808 1.91819627e-38
-0.1168257147 -0.2539062798 0.2077233493 1.91819627e-38
-0.09445996583 -0.2496428937 0.1520948112 1.91819627e-38
-0.004753103014 -0.2578823566 0.3517059982 1.91819627e-38
-0.08371008188 -0.2317657024 0.02426143922 1.91819627e-38
-0.1168361083 -0.2427091151 0.003010215471 1.91819627e-38
-0.08248635381 -0.2434310764 0.1199730262 1.91819627e-38
-0.07071857899 -0.2559592426 0.2956631184 1.91819627e-38
-0.06455503404 -0.2452264875 0.1704749912 1.91819627e-38
-0.1124595627 -0.2452362925 -0.00745408237 1.91819627e-38
-0.1103858575 -0.2486754507 -0.08591166139 1.91819627e-38
-0.08051760495 -0.2558726966 0.3001284897 1.91819627e-38
-0.04455083981 -0.2628686726 0.2679175138 1.91819627e-38
-0.09414365888 -0.2383385003 0.01606001146 1.91819627e-38
-0.1169001386 -0.2485137731 -0.1786759645 1.91819627e-38
-0.1030152366 -0.2560558021 0.2338780314 1.91819627e-38
-0.011688333 -0.2631480992 0.2545519769 1.91819627e-38
-0.02728930861 -0.25501737 0.3711062372 1.91819627e-38
-0.1137503386 -0.241387412 -0.2436197996 1.91819627e-38
-0.1105121449 -0.2563346922 0.2432747632 1.91819627e-38
-0.08242810518 -0.2238166332 0.05250545219 1.91819627e-38
0.09968624264 -0.1377155632 -0.1795975268 1.991448586e-38
-0.1316483915 -0.07354363799 0.0293416027 1.991448586e-38
0.0744227618 -0.1248783469 0.1791840643 1.991448586e-38
0.02173285745 -0.1107684821 0.1745574623 1.991448586e-38
0.1158899888 -0.1831579655 -0.2918302715 1.991448586e-38
-0.0158830937 -0.06885755807 -0.2997712195 1.991448586e-38
0.09743008763 -0.1494852304 -0.09516236186 1.991448586e-38
-0.0329441689 -0.06856696308 0.3450690508 1.991448586e-38
0.07002357394 -0.1112259179 -0.1856973469 1.991448586e-38
-0.1527470052 -0.0557250008 0.1294343174 1.991448586e-38
0.08602967113 -0.1198999733 0.02277433313 1.991448586e-38
-0.1121328399 -0.05961702019 0.2151080966 1.991448586e-38
0.1187839806 -0.15591003 -0.2742376029 1.991448586e-38
-0.1260787845 -0.05615235493 -0.175976038 1.991448586e-38
0.0690157935 -0.1177899688 0.108819589 1.991448586e-38
-0.0760255307 -0.08481293172 0.2009622604 1.991448586e-38
0.1240111962 -0.1748913378 -0.3430633545 1.991448586e-38
-0.1066831946 -0.06116393954 -0.2203489244 1.991448586e-38
0.09522636235 -0.1223935485 0.01594451442 1.991448586e-38
-0.05601014197 -0.09229961038 0.1106654257 1.991448586e-38
0.09891553223 -0.1535036862 -0.3697470725 1.991448586e-38
-0.09044215828 -0.08298502862 -0.07604221255 1.991448586e-38
0.09911619872 -0.1312886924 0.03346404806 1.991448586e-38
0.03399284557 -0.1081317291 0.09841372818 1.991448586e-38
0.08260379732 -0.1474913955 -0.3715011477 1.991448586e-38
-0.09677474201 -0.08680795878 0.02860215865 1.991448586e-38
0.1039486304 -0.1477609575 -0.1892876774 1.991448586e-38
0.0683036074 -0.109830752 -0.1708680689 1.991448586e-38
0.04532727972 -0.1046871543 -0.07399304211 1.991448586e-38
-0.01848463342 -0.09199404716 0.2506965995 1.991448586e-38
0.06821669638 -0.1109606847 -0.2668844163 1.991448586e-38
-0.1227730811 -0.07574919611 -0.01881602407 1.991448586e-38
-0.1389627606 0.007520284504 -0.2640238106 2.06466517e-38
-0.1435284913 0.00396897411 -0.3740336895 2.06466517e-38
-0.1211099997 -0.1589116454 0.02023976855 2.06466517e-38
-0.1396180838 -0.1270763874 -0.2554223835 2.06466517e-38
-0.1417375952 -0.1893762648 -0.3550356925 2.06466517e-38
-0.147592023 -0.1042652205 -0.381367147 2.06466517e-38
-0.109508507 -0.1878731847 0.2683008313 2.06466517e-38
-0.1307342649 -0.1627796441 -0.08093618602 2.06466517e-38
-0.1412182599 -0.0358720012 -0.2242649645 2.06466517e-38
-0.1399900466 0.08252942562 -0.3554132283 2.06466517e-38
-0.1182008684 -0.1436509788 0.1383200586 2.06466517e-38
-0.1440006196 -0.09614097327 -0.1771090031 2.06466517e-38
-0.14117755 -0.03738920763 -0.2695808709 2.06466517e-38
-0.1459115148 -0.06785935909 -0.3638266623 2.06466517e-38
-0.1288001984 -0.1200741604 0.03690444306 2.06466517e-38
-0.1360822618 -0.1484860778 -0.1930655837 2.06466517e-38
-0.144199267 -0.1925614476 -0.3536963165 2.06466517e-38
-0.1463180035 -0.1461960971 -0.3603326082 2.06466517e-38
-0.1304889619 -0.143865183 -0.03147634491 2.06466517e-38
-0.1338469535 -0.1551142037 -0.1085144877 2.06466517e-38
-0.142798245 -0.156454578 -0.3105203807 2.06466517e-38
-0.1478017718 -0.1084937081 -0.3802129626 2.06466517e-38
-0.1381847113 -0.103181161 -0.02716861852 2.06466517e-38
-0.1352226883 -0.1500570178 -0.111059621 2.06466517e-38
-0.1418317854 -0.1481493562 -0.254986316 2.06466517e-38
-0.1471096873 -0.1457390487 -0.393735081 2.06466517e-38
-0.1419754475 -0.07454060763 -0.2945184112 2.06466517e-38
-0.1393070817 -0.1263177842 -0.1622923166 2.06466517e-38
-0.113173157 -0.1850722283 0.1415474415 2.06466517e-38
-0.1439963877 -0.08667013794 -0.1712475419 2.06466517e-38
-0.1440779716 -0.09181663394 -0.3081033826 2.06466517e-38
-0.1389492601 0.04150223359 -0.3264077008 2.06466517e-38
-0.09145596623 -0.008907805197 -0.3959246278 2.137881613e-38
0.008980211802 0.06249314919 -0.4283980429 2.137881613e-38
-0.1457199603 0.2447692752 -0.1421761662 2.137881613e-38
-0.1584765762 0.2175571322 -0.35702461 2.137881613e-38
-0.1536937952 0.05610570684 -0.2551165223 2.137881613e-38
-0.08467309922 0.09959341586 -0.4002766013 2.137881613e-38
-0.1570110321 0.2373547107 -0.3462269306 2.137881613e-38
-0.1246062145 0.1413873583 -0.3952205181 2.137881613e-38
-0.01026350353 -0.04216605052 -0.4003214836 2.137881613e-38
0.03421486914 0.04562927783 -0.431193769 2.137881613e-38
-0.1535681188 0.2231530249 -0.2138617784 2.137881613e-38
-0.1561767757 0.1681901217 -0.3524975479 2.137881613e-38
-0.115178518 -0.04852647707 -0.3740034699 2.137881613e-38
-0.07661671191 0.07374987006 -0.4056788385 2.137881613e-38
-0.1503980905 0.2261036485 -0.1854394376 2.137881613e-38
-0.1595890224 0.175996393 -0.3334846795 2.137881613e-38
-0.147929728 0.005522425752 -0.3415106237 2.137881613e-38
-0.1113924384 0.06601879746 -0.3915494084 2.137881613e-38
-0.1589897126 0.1934402734 -0.2444283068 2.137881613e-38
-0.1587019265 0.134928003 -0.3323503733 2.137881613e-38
-0.1572499573 0.1094814539 -0.307212621 2.137881613e-38
-0.1128668711 0.03568127751 -0.395055294 2.137881613e-38
-0.1565900594 0.1659767777 -0.2185712159 2.137881613e-38
-0.1582065672 0.1095026061 -0.3257886171 2.137881613e-38
-0.1618911922 0.1868259311 -0.2781548202 2.137881613e-38
-0.1462380439 0.07547168434 -0.3678618968 2.137881613e-38
-0.1565652192 0.1022971794 -0.3058533669 2.137881613e-38
-0.1320585161 0.05324103683 -0.3585788608 2.137881613e-38
-0.1574513167 0.2357567698 -0.2816571593 2.137881613e-38
-0.1259732544 0.1009808257 -0.381854713 2.137881613e-38
-0.09337965399 -0.002064746572 -0.3972809315 2.137881613e-38
-0.1083268747 0.03790655732 -0.3977000415 2.137881613e-38
-0.1077378914 -0.08070357144 -0.1698009819 2.211062324e-38
-0.114173241 -0.08357068896 -0.06767027825 2.211062324e-38
-0.136994794 0.06554945558 -0.3795767128 2.211062324e-38
-0.1256090701 -0.1110281944 -0.3829852343 2.211062324e-38
-0.1273190379 0.03672866896 -0.280051887 2.211062324e-38
-0.1072100103 -0.08195052296 -0.2104141116 2.211062324e-38
-0.1398254633 0.1935832351 -0.3841543496 2.211062324e-38
-0.1250553727 -0.04836952686 -0.2766092122 2.211062324e-38
-0.1200441867 0.0262174122 -0.04124380276 2.211062324e-38
-0.1116642356 -0.07151287794 -0.01953645796 2.211062324e-38
-0.1384070069 0.109081693 -0.3887301385 2.211062324e-38
-0.1302835047 -0.06547940522 -0.3304465711 2.211062324e-38
-0.1212333441 0.05077385902 -0.1994635314 2.211062324e-38
-0.1127040237 -0.04503406584 -0.1190086007 2.211062324e-38
-0.1359861344 0.08445300162 -0.3467832208 2.211062324e-38
-0.1322253644 -0.03713374957 -0.3574536145 2.211062324e-38
-0.1257859021 0.07922480255 -0.2405493855 2.211062324e-38
-0.1114922166 -0.02314870618 -0.1670468748 2.211062324e-38
-0.1417235285 0.1368229389 -0.3361385465 2.211062324e-38
-0.1369908601 0.0530379191 -0.343108952 2.211062324e-38
-0.1347790062 0.1174938306 -0.2832725048 2.211062324e-38
-0.1193541437 0.03500098363 -0.2346115857 2.211062324e-38
-0.1382447928 0.1359747201 -0.3184801936 2.211062324e-38
-0.1343897581 0.04934734851 -0.3247668445 2.211062324e-38
-0.1374284327 0.1255150139 -0.3023570776 2.211062324e-38
-0.1315689534 -0.003890338354 -0.3057029247 2.211062324e-38
-0.1286724359 0.1071495786 -0.2156254202 2.211062324e-38
-0.1218995973 0.06740564853 -0.2340652794 2.211062324e-38
-0.1393795907 0.1387841851 -0.3445258439 2.211062324e-38
-0.1200871766 -0.02843929827 -0.2737909555 2.211062324e-38
-0.1226558015 0.03774348274 -0.1415099055 2.211062324e-38
-0.1148080155 -0.04783585668 -0.1011505947 2.211062324e-38
0.09477356821 -0.04680984095 0.4695273936 2.284242894e-38
-0.01720614731 -0.08605337143 0.4635650516 2.284242894e-38
-0.114312686 -0.002691151574 0.4415132999 2.284242894e-38
0.1227652729 -0.1052502468 0.4347694218 2.284242894e-38
-0.0585232079 0.04417297989 0.4805313945 2.284242894e-38
-0.1086577773 -0.02987888828 0.4110008776 2.284242894e-38
-0.151356414 0.01778729819 0.2325092107 2.284242894e-38
0.1213816628 -0.2911599576 0.4380508661 2.284242894e-38
0.109006308 -0.07406137884 0.4641914368 2.284242894e-38
0.03558682278 -0.1549521685 0.4582763314 2.284242894e-38
-0.1458798498 0.002443846082 0.3411706388 2.284242894e-38
0.1228954941 -0.144486323 0.4321484268 2.284242894e-38
0.08452282846 0.03503735736 0.480173409 2.284242894e-38
-0.05461926013 -0.05872458965 0.4521125853 2.284242894e-38
-0.1480266005 0.03107215837 0.4143480659 2.284242894e-38
0.1162369624 -0.1103200167 0.4400497079 2.284242894e-38
0.06179871038 0.02301670797 0.4792634845 2.284242894e-38
-0.06470732391 -0.00634484319 0.4622395337 2.284242894e-38
-0.161004588 0.07645750046 0.3621844947 2.284242894e-38
0.09261490405 -0.09266576171 0.4614055753 2.284242894e-38
0.08181566 0.06980516762 0.4798153043 2.284242894e-38
-0.008556261659 -0.006661297753 0.4774883986 2.284242894e-38
-0.160849914 0.06772144139 0.374150902 2.284242894e-38
0.06125539169 -0.08915255219 0.4688407183 2.284242894e-38
0.04011771828 0.08004776388 0.4806895852 2.284242894e-38
0.09823664278 -0.07851380855 0.4612663388 2.284242894e-38
-0.1548971534 0.0500298664 0.3996298313 2.284242894e-38
-0.1110895351 0.02251730859 0.4568691552 2.284242894e-38
0.0139910616 0.004365111701 0.4806416333 2.284242894e-38
0.08708267659 -0.1387012303 0.4566119611 2.284242894e-38
0.1124157235 -0.04606987908 0.4634829462 2.284242894e-38
0.0712049678 -0.04236002266 0.4757698774 2.284242894e-38
-0.1394843608 0.1370630562 -0.385502398 2.348204041e-38
-0.1578129977 0.2568385303 -0.1199449301 2.348204041e-38
-0.1678444147 0.06748846173 -0.3927136064 2.348204041e-38
-0.1493232995 0.2487716526 -0.1652306169 2.348204041e-38
-0.1063068062 0.06939412653 -0.4315680265 2.348204041e-38
-0.162936464 0.257905215 -0.1134316027 2.348204041e-38
-0.1210345328 -0.1921345592 -0.3870572448 2.348204041e-38
-0.1553167999 0.25645262 0.1093073338 2.348204041e-38
-0.142864719 0.2009932399 -0.2916660905 2.348204041e-38
-0.1550940573 0.2570352554 0.08238396049 2.348204041e-38
-0.1562859118 -0.09178973734 -0.3995746672 2.348204041e-38
-0.1478300095 0.2324639708 -0.18695122 2.348204041e-38
-0.1193373129 0.1090338379 -0.3880197704 2.348204041e-38
-0.1530012935 0.2510548532 -0.2462498099 2.348204041e-38
-0.149481371 -0.05559010059 -0.4071608484 2.348204041e-38
-0.1256611347 0.1169484928 -0.3929207027 2.348204041e-38
-0.07234027982 0.06473783404 -0.4311330318 2.348204041e-38
-0.1452175379 0.2138461322 -0.3245371282 2.348204041e-38
-0.08936098963 -0.1327577084 -0.4117683768 2.348204041e-38
-0.102520138 0.04337751493 -0.4346529543 2.348204041e-38
-0.07423523813 0.04210063815 -0.4408781528 2.348204041e-38
-0.1589720547 0.1106616184 -0.4038129151 2.348204041e-38
-0.1149916053 -0.1029425636 -0.4111305475 2.348204041e-38
-0.1141148806 0.003904360114 -0.4306886196 2.348204041e-38
-0.08118250966 0.05860416591 -0.4348811805 2.348204041e-38
-0.1500701308 0.1265816242 -0.3951514661 2.348204041e-38
-0.05647589266 -0.03292976692 -0.4422195852 2.348204041e-38
-0.1131061614 -0.06184819713 -0.4193318188 2.348204041e-38
-0.1640527397 0.01413846388 -0.4022307396 2.348204041e-38
-0.1440305114 0.2342606783 -0.2884536684 2.348204041e-38
-0.1380244792 0.1419920921 -0.3772240877 2.348204041e-38
-0.1439650506 0.1403674185 -0.3817339838 2.348204041e-38
-0.05431274697 -0.007512524724 0.1786369979 2.347880341e-38
-0.04537518322 -0.04165435582 -0.009257441387 2.347880341e-38
0.04760836437 -0.02730248868 -0.2515900433 2.347880341e-38
0.07266223431 -0.02246431075 -0.02187134698 2.347880341e-38
0.04028827325 -0.02103504911 0.2391002625 2.347880341e-38
-0.07839685678 -0.004023321439 0.009636730887 2.347880341e-38
0.0584926866 -0.01779230312 -0.1850935221 2.347880341e-38
0.07160922885 -0.02603088692 0.1954298764 2.347880341e-38
-0.08657249063 0.08403023332 0.2540230155 2.347880341e-38
-0.00378211285 -0.03578013927 0.006352959201 2.347880341e-38
0.03046721034 -0.01635102555 -0.1676795632 2.347880341e-38
0.05142746866 -0.02768071555 0.128100127 2.347880341e-38
-0.05794276297 -0.002110901056 0.1887747943 2.347880341e-38
-0.0812748 0.003153369529 0.01507497206 2.347880341e-38
0.05457157642 -0.0168936383 -0.09118738025 2.347880341e-38
0.0140820127 -0.04153996706 0.07355970889 2.347880341e-38
-0.0252470132 -0.01836527325 0.2884927094 2.347880341e-38
-0.06502748281 -0.009533483535 0.07694233954 2.347880341e-38
0.04934282228 -0.02279636823 0.01587830298 2.347880341e-38
-0.01002123207 -0.03845413774 0.135902077 2.347880341e-38
0.02668890543 -0.02122721821 0.3031279147 2.347880341e-38
-0.01575355977 -0.02580841631 0.1164886951 2.347880341e-38
0.04788379744 -0.02314585075 0.01699194871 2.347880341e-38
-0.001709454926 -0.02817112394 0.1560600549 2.347880341e-38
0.04364167154 -0.02375064045 0.3024418354 2.347880341e-38
0.0261557661 -0.02281585336 0.1038354412 2.347880341e-38
0.02687863447 -0.02698870189 0.1563508511 2.347880341e-38
-0.01123254653 -0.02279036678 0.2106520683 2.347880341e-38
0.07258339226 -0.01741063036 -0.08083727956 2.347880341e-38
0.07156600803 -0.01748580299 0.1192132309 2.347880341e-38
-0.04417830333 0.003893319517 0.2884662151 2.347880341e-38
-0.02826739103 -0.0295867566 0.05128404871 2.347880341e-38
0.09426791221 -0.05082274228 0.243981272 2.347520768e-38
-0.1244281232 -0.05584148318 -0.08115815371 2.347520768e-38
-0.132200703 -0.03862323985 0.1773504615 2.347520768e-38
-0.1263571084 -0.1337544918 0.3400511444 2.347520768e-38
0.03122985736 -0.02089889906 0.1759532392 2.347520768e-38
-0.1340997517 -0.1268133074 0.173386842 2.347520768e-38
-0.07609467208 -0.03030156717 0.2925474942 2.347520768e-38
-0.1336847544 -0.1782080829 0.1566323191 2.347520768e-38
0.01953966357 -0.04690700769 0.314812243 2.347520768e-38
-0.117954202 -0.0623826161 -0.1581429243 2.347520768e-38
-0.1388568878 -0.03994053602 0.259080857 2.347520768e-38
-0.141492486 -0.1426728815 0.3004210591 2.347520768e-38
-0.02104413509 -0.03718020394 0.2973519564 2.347520768e-38
-0.1412324011 -0.09936000407 0.08954800665 2.347520768e-38
-0.1319948733 -0.01998868957 0.0917808041 2.347520768e-38
-0.1259470135 -0.0931886062 0.3287674189 2.347520768e-38
-0.07264766097 -0.01435933169 0.2343133092 2.347520768e-38
-0.1444598734 -0.1126579791 0.1057937965 2.347520768e-38
-0.1229924411 -0.02424009703 0.1841658056 2.347520768e-38
-0.06446435302 -0.03772493079 0.3206754625 2.347520768e-38
-0.04861110449 -0.03172509745 0.2713752687 2.347520768e-38
