# .PCD v0.7 - Point Cloud Data file format
VERSION 0.7
FIELDS x y z rgb
SIZE 4 4 4 4
TYPE F F F F
COUNT 1 1 1 1
WIDTH 818
HEIGHT 1
VIEWPOINT 0 0 0 1 0 0 0
POINTS 818
DATA ascii
0.06604852527 -0.05413313583 0.2072337717 4.359662329e-39
0.07287553698 -0.06382056326 0.314193964 4.359662329e-39
0.07907611877 -0.02593639866 0.364221096 4.359662329e-39
0.07837790996 -0.03696588799 0.3905093372 4.359662329e-39
0.067224361 -0.05597542971 0.2371933609 4.359662329e-39
0.08172089607 -0.05558731779 0.4255883992 4.359662329e-39
0.07496540993 -0.03897057101 0.3181249499 4.359662329e-39
0.07797997445 -0.04904096201 0.3729549944 4.359662329e-39
0.06643988937 -0.05831414461 0.2317856401 4.359662329e-39
0.08443176746 -0.03890216351 0.4471212924 4.359662329e-39
0.05855172127 -0.06239284575 0.09507203102 4.359662329e-39
0.07767622173 -0.0586810559 0.3655256331 4.359662329e-39
0.06653333455 -0.04699999094 0.2165568173 4.359662329e-39
-0.08340732008 -0.07227104157 -0.225484699 3.628921614e-39
-0.08054082096 -0.09380467236 0.04301147535 3.628921614e-39
-0.07834143192 -0.09606389701 0.1032832935 3.628921614e-39
-0.08749715239 -0.08321907371 0.1597142965 3.628921614e-39
-0.06972205639 -0.09110782295 -0.3398563266 3.628921614e-39
-0.07670206577 -0.09743888676 -0.2450915575 3.628921614e-39
-0.0791644156 -0.1031800658 -0.1419140846 3.628921614e-39
-0.06709741801 -0.08562128246 0.3208514452 3.628921614e-39
-0.08211526275 -0.07305627316 -0.1632893831 3.628921614e-39
-0.08631513268 -0.08139146864 0.007413273677 3.628921614e-39
-0.080579862 -0.1008898392 -0.03004744649 3.628921614e-39
-0.07838235795 -0.08512169123 0.2657362819 3.628921614e-39
-0.07553156465 -0.09009007365 -0.2865727246 3.628921614e-39
-0.0800698474 -0.08874950558 -0.1130617782 3.628921614e-39
-0.07950651646 -0.09654697031 -0.1116862148 3.628921614e-39
-0.0717836991 -0.08572729677 0.2943434119 3.628921614e-39
-0.08001795411 -0.07881496102 -0.221500501 3.628921614e-39
-0.08298642188 -0.08311358839 -0.01030236762 3.628921614e-39
-0.07466909289 -0.09752356261 0.08399886638 3.628921614e-39
-0.07829471678 -0.08912637085 0.188326329 3.628921614e-39
-0.06648991257 -0.09664618224 -0.3247607648 3.628921614e-39
-0.07742010057 -0.08640730381 -0.20476906 3.628921614e-39
-0.07684979588 -0.09328011423 -0.0535591431 3.628921614e-39
-0.06853958964 -0.09383860976 0.2483093888 3.628921614e-39
-0.07115476578 -0.09461677074 -0.2828787863 3.628921614e-39
-0.08300761878 -0.07590547204 0.1508723199 3.628921614e-39
-0.07769438624 -0.09012777358 -0.265249759 3.628921614e-39
-0.06757324934 -0.09496928751 0.2756367624 3.628921614e-39
-0.08296649903 -0.09389747679 0.0005378592177 3.628921614e-39
-0.08547758311 -0.08118987083 0.2216411233 3.628921614e-39
-0.08499822766 -0.07750780135 -0.07724246383 3.628921614e-39
-0.08396605402 -0.08440624923 0.1347988546 3.628921614e-39
0.05983890221 -0.1123026907 0.178226769 2.898180898e-39
0.07355481386 -0.1045942008 0.0805619508 2.898180898e-39
0.05315515026 -0.09332388639 -0.1291545182 2.898180898e-39
0.07965905219 -0.1007567346 0.06669715047 2.898180898e-39
0.07368598878 -0.1064351201 0.206425935 2.898180898e-39
0.07423616946 -0.1073410586 0.1529568136 2.898180898e-39
0.0555587858 -0.09196279943 -0.2758815885 2.898180898e-39
0.06351338327 -0.09230032563 -0.1047033221 2.898180898e-39
0.001505753724 -0.1024609506 0.3247298598 2.898180898e-39
0.06923220307 -0.09363441914 0.02101289295 2.898180898e-39
0.05870964378 -0.09201475978 -0.2157553136 2.898180898e-39
0.07348673046 -0.08992229402 -0.03691659123 2.898180898e-39
0.06734806299 -0.1076346487 0.2381057441 2.898180898e-39
0.07057342678 -0.1047203988 0.1145609692 2.898180898e-39
0.05692964047 -0.09162049741 -0.2517112494 2.898180898e-39
0.07195876539 -0.09065752476 -0.08685572445 2.898180898e-39
0.02199152857 -0.1012322158 0.3267634809 2.898180898e-39
0.07370654494 -0.1016359851 0.05358684063 2.898180898e-39
0.05180009082 -0.09223455191 -0.1617098153 2.898180898e-39
0.07422287762 -0.08933521062 -0.0120711755 2.898180898e-39
0.06244259328 -0.1050128341 0.2877815366 2.898180898e-39
0.07110845298 -0.1053317189 0.1683511436 2.898180898e-39
0.04092491791 -0.09885648638 -0.0897943303 2.898180898e-39
0.06195309013 -0.09157257527 -0.04691497609 2.898180898e-39
0.05797832459 -0.1087805331 0.2206255645 2.898180898e-39
0.07912449539 -0.104477495 0.1766307801 2.898180898e-39
0.05770582706 -0.1077013984 0.241004169 2.898180898e-39
0.06061082706 -0.0923223719 -0.02757582441 2.898180898e-39
0.05181590468 -0.09402934462 -0.07760139555 2.898180898e-39
0.08025296032 -0.1043545157 0.1150564179 2.898180898e-39
0.0180246383 -0.09976504743 0.3491966426 2.898180898e-39
0.06822286546 -0.1057702973 0.08115143329 2.898180898e-39
-0.07160244137 0.05264482647 0.1288076192 2.167082852e-39
-0.02362861671 -0.1090011969 -0.4169537127 2.167082852e-39
-0.0623113364 0.04897020757 -0.003619126044 2.167082852e-39
-0.006445150822 -0.02780066617 -0.3778049648 2.167082852e-39
-0.02251903899 0.002011851408 -0.1690436006 2.167082852e-39
-0.03684492782 -0.02052002214 -0.3885622323 2.167082852e-39
-0.0686436668 0.04872753471 0.2032277733 2.167082852e-39
-0.03460997343 0.004392778035 -0.278299123 2.167082852e-39
-0.03141855076 0.02511065267 0.09088236839 2.167082852e-39
-0.01776294783 -0.1139336452 -0.4163986444 2.167082852e-39
-0.07309040427 0.05013884604 0.1796444207 2.167082852e-39
-0.01412107982 -0.01516502723 -0.3425926268 2.167082852e-39
-0.02255458571 -4.566833377e-05 -0.07752592862 2.167082852e-39
-0.04751940072 -0.03742611408 -0.4023401439 2.167082852e-39
-0.0651781857 0.03430336341 0.2595990598 2.167082852e-39
-0.02252294868 -0.007827099413 -0.2891969085 2.167082852e-39
-0.03176131472 0.01977045648 0.02744924463 2.167082852e-39
-0.04586549103 -0.08709894866 -0.4193157256 2.167082852e-39
-0.05284517631 0.04116107151 -0.002330962103 2.167082852e-39
-0.01971884631 -0.01233531162 -0.3445722461 2.167082852e-39
0.002142010722 -0.02905294113 -0.1339837462 2.167082852e-39
-0.003020314733 -0.02857392468 -0.3729254603 2.167082852e-39
-0.04666710645 0.03717939928 -0.09545178711 2.167082852e-39
-0.0369630903 0.002657850506 -0.3267050683 2.167082852e-39
0.0007007670356 -0.03480562195 -0.05126889795 2.167082852e-39
0.007242241409 -0.04006273672 -0.3857255578 2.167082852e-39
-0.04906141758 0.03886949271 0.002760500181 2.167082852e-39
-0.04554337636 0.01893142611 -0.2734670639 2.167082852e-39
-0.05067084357 0.02848320641 0.1928993911 2.167082852e-39
-0.01899990626 -0.06340036541 -0.4165558517 2.167082852e-39
-0.03198276088 0.02180736884 -0.03303493187 2.167082852e-39
-0.007572629023 -0.04807184637 -0.4038646221 2.167082852e-39
-0.04242767766 0.1241444647 -0.1122975871 1.435982003e-39
-0.01326626912 0.1076584533 0.2916080654 1.435982003e-39
-0.04873856157 0.127239123 -0.1559968591 1.435982003e-39
-0.04289781675 0.1177089438 0.07754500955 1.435982003e-39
-0.04657111317 0.1247844324 -0.09780097008 1.435982003e-39
-0.02814625949 0.1098764464 0.1973490566 1.435982003e-39
-0.04522473738 0.1192066669 -0.3111551404 1.435982003e-39
-0.03297557309 0.1122286692 0.1666601449 1.435982003e-39
-0.01734898426 0.1060367748 0.1233025268 1.435982003e-39
-0.01450749021 0.1076800376 0.2886398435 1.435982003e-39
-0.04658271372 0.1242147759 -0.2362183481 1.435982003e-39
-0.0304645393 0.1130798534 0.1282212138 1.435982003e-39
-0.04845648631 0.117976144 -0.02169608511 1.435982003e-39
-0.02113451436 0.107021831 0.2247845083 1.435982003e-39
-0.03814473748 0.1192251295 -0.264282763 1.435982003e-39
-0.02605174296 0.1114689857 0.1362988353 1.435982003e-39
-0.024173012 0.1090464666 0.07137326896 1.435982003e-39
-0.006941512693 0.1042557433 0.2657054365 1.435982003e-39
-0.04108163714 0.1243432611 -0.1535435319 1.435982003e-39
-0.03532365337 0.1146360189 0.0538562499 1.435982003e-39
-0.04153520614 0.1185969487 -0.05857982859 1.435982003e-39
-0.01827971451 0.1068594605 0.1946545392 1.435982003e-39
-0.03091979586 0.1177460179 -0.1803424507 1.435982003e-39
-0.04496551678 0.1179274917 0.05818035454 1.435982003e-39
-0.02977195941 0.1095611826 0.04596054181 1.435982003e-39
-0.02410618216 0.1093811765 0.1800159216 1.435982003e-39
-0.03100410104 0.1178343669 -0.2106282711 1.435982003e-39
-0.03485982493 0.1109718904 0.2164176702 1.435982003e-39
-0.05142302066 0.1205445454 -0.03335074335 1.435982003e-39
-0.02827296034 0.1112997532 0.1599136293 1.435982003e-39
-0.03550102934 0.1121653244 0.0561308302 1.435982003e-39
-0.02755188756 0.1093871146 0.2433214188 1.435982003e-39
-0.05736555904 0.07812039554 0.4067715406 7.045238224e-40
0.03591511399 0.003046324477 0.4839547276 7.045238224e-40
-0.01713541709 -0.07615370303 0.4739362597 7.045238224e-40
-0.03032033332 0.0544908531 0.4663010538 7.045238224e-40
-0.03102149628 -0.07147794217 0.4690812826 7.045238224e-40
0.02060647681 -0.09423279762 0.4759022892 7.045238224e-40
0.008225412108 -0.072512649 0.4775701463 7.045238224e-40
0.006619431078 0.06990788877 0.4551902413 7.045238224e-40
-0.04958937317 0.07139599323 0.3714097142 7.045238224e-40
0.04626147449 0.0658532232 0.4538284242 7.045238224e-40
-0.01589512266 -0.04208669439 0.4778669178 7.045238224e-40
-0.01163007785 0.07494743913 0.4536316097 7.045238224e-40
-0.03177425265 -0.007388464641 0.4780947268 7.045238224e-40
0.03209886327 -0.0261782147 0.4841697216 7.045238224e-40
-0.003302755766 -0.04560943693 0.4794551134 7.045238224e-40
0.001954620006 0.05859486759 0.4601524174 7.045238224e-40
-0.05379091948 0.07812149823 0.4513423443 7.045238224e-40
0.04533463344 0.01887146011 0.476719439 7.045238224e-40
-0.0183225479 -0.06942952424 0.4743326604 7.045238224e-40
-0.04642812908 0.07273026556 0.4564994872 7.045238224e-40
-0.03781608865 -0.04139712453 0.4706345499 7.045238224e-40
0.01792497374 -0.04986518621 0.4809484482 7.045238224e-40
-0.01674583554 -0.112960659 0.4704717994 7.045238224e-40
-0.01696265861 0.002555785701 0.4821393192 7.045238224e-40
-0.0430437848 0.03232241794 0.474259913 7.045238224e-40
0.02069338039 0.00479098456 0.4824971259 7.045238224e-40
-0.02576079778 -0.1124104857 0.4676237404 7.045238224e-40
-0.009703845717 -0.01396280061 0.4818012714 7.045238224e-40
-0.0007516815094 0.05227010325 0.4634719491 7.045238224e-40
0.02302961424 0.06573705375 0.4034584165 7.045238224e-40
-0.0430936031 0.06196888536 0.46127671 7.045238224e-40
0.0006890072254 -0.0634496361 0.4779038727 7.045238224e-40
-0.09389830381 0.02493830211 -0.4541772306 6.490113838e-41
-0.07954696566 0.06233687699 -0.3023586571 6.490113838e-41
-0.07786758989 0.02769336291 -0.08623412997 6.490113838e-41
-0.08687710017 -0.01353852637 -0.429613173 6.490113838e-41
-0.09222035855 0.05137881264 -0.4299191535 6.490113838e-41
-0.09138071537 0.06537269801 -0.409802407 6.490113838e-41
-0.08222744614 0.05645033717 -0.2271700203 6.490113838e-41
-0.06744497269 -0.1320579946 -0.4467066824 6.490113838e-41
-0.075184457 -0.05043728277 -0.4503755867 6.490113838e-41
-0.0817424953 0.04103294387 -0.2703142166 6.490113838e-41
-0.08411234617 0.02912084758 -0.1611952782 6.490113838e-41
-0.06960934401 -0.08128450811 -0.4434017241 6.490113838e-41
-0.09147869796 0.01100517903 -0.4461645782 6.490113838e-41
-0.08299180865 0.06789965928 -0.3528673947 6.490113838e-41
-0.08370117843 0.03715436906 -0.2100446224 6.490113838e-41
-0.06814201176 -0.1330199391 -0.452991724 6.490113838e-41
-0.08772116899 -0.02366978116 -0.4501246512 6.490113838e-41
-0.0800030604 0.06113380566 -0.3232528269 6.490113838e-41
-0.08251862228 0.01461026631 -0.1160591841 6.490113838e-41
-0.07348951697 -0.05636383593 -0.4456835687 6.490113838e-41
-0.08859349787 0.007800192107 -0.3677935898 6.490113838e-41
-0.08703671396 0.0392392166 -0.3544465005 6.490113838e-41
-0.0829789117 0.01458149217 -0.1982930154 6.490113838e-41
-0.0778683424 -0.04364365339 -0.4532859325 6.490113838e-41
-0.08924455196 -0.006435812917 -0.330637306 6.490113838e-41
-0.08542907238 0.01059911959 -0.2563675046 6.490113838e-41
-0.08537050337 0.0128096249 -0.2542693317 6.490113838e-41
-0.08165142685 -0.03587242588 -0.452049762 6.490113838e-41
-0.08815091848 0.01667627506 -0.4030216336 6.490113838e-41
-0.0866958499 -0.02200329676 -0.3502560258 6.490113838e-41
-0.08578041196 -0.03336729854 -0.4315182269 6.490113838e-41
-0.09067354351 0.008942946792 -0.3528786004 6.490113838e-41
-0.06298211962 -0.04569016024 -0.1838818341 8.028094954e-40
-0.02189877629 -0.03624118119 0.2106948793 8.028094954e-40
0.02604737878 -0.03167336807 0.2500382066 8.028094954e-40
-0.001992632868 -0.03071033582 -0.2982296646 8.028094954e-40
-0.03301433474 -0.04853782803 0.008301415481 8.028094954e-40
0.006064873189 -0.03808156401 0.02702204324 8.028094954e-40
-0.03047182038 -0.03213328496 0.363296628 8.028094954e-40
0.008129496127 -0.02702440135 -0.1263095438 8.028094954e-40
-0.02872406133 -0.04113182053 -0.1874947399 8.028094954e-40
0.002174526686 -0.03408991918 0.2051411122 8.028094954e-40
0.006982350722 -0.0303242933 0.3044593036 8.028094954e-40
0.001134901773 -0.02939767949 -0.2227279544 8.028094954e-40
-0.03853939474 -0.04173830524 -0.04640022665 8.028094954e-40
-0.009700098075 -0.0391706042 0.1225520223 8.028094954e-40
-0.03567318991 -0.03159936145 0.3606429398 8.028094954e-40
0.002665170701 -0.02871108614 -0.1448222101 8.028094954e-40
-0.02319308184 -0.03603163734 -0.1350448281 8.028094954e-40
-0.002757616807 -0.0349826552 0.1690301597 8.028094954e-40
-0.03512096778 -0.03387117013 0.2742880285 8.028094954e-40
-0.02280545421 -0.03463014588 -0.2433172166 8.028094954e-40
-0.0202070009 -0.04364394769 -0.007264896296 8.028094954e-40
0.01943333074 -0.03357614204 -0.04173885658 8.028094954e-40
-0.05241221935 -0.03430405632 0.267476052 8.028094954e-40
-0.0635722205 -0.03873869032 -0.2432256937 8.028094954e-40
-0.01648872718 -0.03324379027 -0.1220308989 8.028094954e-40
0.01305092499 -0.02772527188 -0.1608205438 8.028094954e-40
-0.05012878031 -0.0357846804 0.2400617748 8.028094954e-40
-0.06109918281 -0.03615067527 -0.1393924057 8.028094954e-40
-0.04152750596 -0.0380702503 -0.07048621029 8.028094954e-40
-0.0009559241007 -0.03149336949 -0.1737893969 8.028094954e-40
-0.01557895448 -0.04220183194 0.006433172617 8.028094954e-40
0.01183457952 -0.03497002646 0.1084753498 8.028094954e-40
-0.05129268393 -0.005606801249 -0.4459361732 1.540360521e-39
0.01002653968 -0.1163503155 -0.4155965149 1.540360521e-39
-0.04669384286 0.003404767951 -0.4632224143 1.540360521e-39
-0.01830482483 -0.1119854897 -0.4558016062 1.540360521e-39
-0.04845704883 -0.03094391339 -0.4447092414 1.540360521e-39
-0.0386639908 -0.09420155734 -0.4529210031 1.540360521e-39
-0.007409875747 0.08738137037 -0.4683743119 1.540360521e-39
0.02822157741 -0.1155282184 -0.4445984662 1.540360521e-39
-0.0509548597 -0.08613859117 -0.3954513669 1.540360521e-39
0.03260041773 -0.1142767593 -0.404348284 1.540360521e-39
-0.0520526506 0.05821611732 -0.4737530947 1.540360521e-39
-0.003592195455 -0.1162936613 -0.445628196 1.540360521e-39
-0.05155436322 -0.05257345736 -0.4391053021 1.540360521e-39
-0.02430026978 -0.1079981253 -0.4405132234 1.540360521e-39
-0.02632890269 0.07094852626 -0.4741286337 1.540360521e-39
0.02660771087 -0.1153489277 -0.4623629451 1.540360521e-39
-0.0557419695 -0.07741079479 -0.4024719 1.540360521e-39
-0.002022544853 -0.114762038 -0.4220437706 1.540360521e-39
-0.05012823641 0.03567524999 -0.4739389122 1.540360521e-39
-0.01141752303 -0.08678239584 -0.471016109 1.540360521e-39
-0.04852294922 -0.05060800165 -0.4453919828 1.540360521e-39
-0.03643067926 -0.09696300328 -0.4248053432 1.540360521e-39
-0.02869233117 -0.02490159124 -0.4697150886 1.540360521e-39
-0.02126957849 -0.06615313888 -0.4677038789 1.540360521e-39
-0.04616349936 -0.07290031761 -0.4556416571 1.540360521e-39
-0.0190234594 -0.1111330688 -0.3972448707 1.540360521e-39
-0.04105146229 0.002480784897 -0.4685215056 1.540360521e-39
-0.03375785798 -0.07257083803 -0.4663712084 1.540360521e-39
-0.05594136193 0.04868677631 -0.473374784 1.540360521e-39
0.04411235452 -0.113442421 -0.410158217 1.540360521e-39
-0.04516733065 -0.08168816566 -0.4506081641 1.540360521e-39
-0.03251149505 -0.07263439149 -0.4695715308 1.540360521e-39
-0.07846157253 0.1108777374 -0.1736841947 2.277910146e-39
-0.08072213084 0.1083316058 -0.3374751508 2.277910146e-39
-0.08535365015 0.1305817515 0.3233728707 2.277910146e-39
-0.07959377766 0.1090378761 -0.08219989389 2.277910146e-39
-0.07964226604 0.1277891099 0.09572665393 2.277910146e-39
-0.07866106182 0.1102069095 -0.2273677289 2.277910146e-39
-0.09234783053 0.1318778247 0.4122324586 2.277910146e-39
-0.08390471339 0.1223003268 0.2008570582 2.277910146e-39
-0.07673189044 0.1184398085 -0.2660855651 2.277910146e-39
-0.08233963698 0.1059650183 -0.3695788085 2.277910146e-39
-0.08868534863 0.1332947761 0.3711674809 2.277910146e-39
-0.08130418509 0.1122367755 0.07301731408 2.277910146e-39
-0.07900788635 0.125166446 -0.03556218371 2.277910146e-39
-0.07960614562 0.1094541773 -0.2674572468 2.277910146e-39
-0.09224534035 0.1330941767 0.4057253897 2.277910146e-39
-0.08369328827 0.1180967242 0.1592316478 2.277910146e-39
-0.07770255208 0.1277443469 -0.1134476215 2.277910146e-39
-0.08063081652 0.1085973531 -0.3151195347 2.277910146e-39
-0.08422619104 0.133157298 0.3074075282 2.277910146e-39
-0.08131930232 0.108702749 0.015016146 2.277910146e-39
-0.07931383699 0.1261876523 0.06745257974 2.277910146e-39
-0.07842981815 0.1092693061 -0.1888310164 2.277910146e-39
-0.08354957402 0.1304173023 0.2720856369 2.277910146e-39
-0.08210469037 0.1160800382 0.09826911241 2.277910146e-39
-0.07908548415 0.1284711808 -0.02321701869 2.277910146e-39
-0.07887940854 0.1119664013 -0.1359775364 2.277910146e-39
-0.08262583613 0.1308021843 0.2433982641 2.277910146e-39
-0.08299272507 0.1199580505 0.1470955163 2.277910146e-39
-0.08235286176 0.1255011111 0.1693228632 2.277910146e-39
-0.07886932045 0.1103438735 -0.1441942304 2.277910146e-39
-0.07962523401 0.1164258868 -0.002468098421 2.277910146e-39
-0.0787980184 0.1122428253 -0.1053535193 2.277910146e-39
-0.01531856228 0.003472024575 -0.1539056748 3.015101038e-39
0.02194826864 -0.001857342781 -0.2029788196 3.015101038e-39
-0.005671560299 0.001710234443 -0.2014079243 3.015101038e-39
-0.05142659694 -0.005342426244 0.08759341389 3.015101038e-39
-0.03884806484 0.00282702269 -0.2298968285 3.015101038e-39
-0.009264661931 -0.0002357850317 -0.3453021348 3.015101038e-39
0.00512446044 -0.003405250376 0.01238688733 3.015101038e-39
-0.008517607115 -0.001245885156 0.2471418381 3.015101038e-39
-0.02121497318 0.00143245887 -0.02395261824 3.015101038e-39
0.007840874605 -0.0006254852633 -0.1182465404 3.015101038e-39
0.007779885083 -0.001387387281 -0.1066434532 3.015101038e-39
-0.02057938464 -0.003061190015 0.1610560864 3.015101038e-39
-0.04918713868 0.00286318548 -0.1880301535 3.015101038e-39
0.02335333079 -0.003961649723 -0.3119829893 3.015101038e-39
0.01204944775 -0.004722256679 -0.02294152044 3.015101038e-39
-0.001511084149 -0.0008986673784 0.2505122721 3.015101038e-39
-0.0419091396 0.002533195773 -0.07318691164 3.015101038e-39
0.02738424577 -0.003068515332 -0.2280622572 3.015101038e-39
0.01118859742 2.979813144e-05 -0.1806615889 3.015101038e-39
-0.03693130985 -0.002745521255 0.06456755102 3.015101038e-39
-0.06493517756 0.0005529848277 -0.1446304768 3.015101038e-39
-0.02673438564 0.0003584779042 -0.321618855 3.015101038e-39
0.001545693842 0.0005325148231 -0.2431762069 3.015101038e-39
-0.04518664256 -0.002146664774 0.04117293283 3.015101038e-39
-0.04555178061 0.0003232893068 -0.02984985337 3.015101038e-39
-0.0001564165577 0.001342412666 -0.1693987697 3.015101038e-39
-0.01102267299 0.0009807801107 -0.242716372 3.015101038e-39
-0.0008718913887 -0.001474483288 0.1002965495 3.015101038e-39
0.01075131912 -0.002871841192 0.04217895493 3.015101038e-39
0.01529176533 -0.001783641637 0.1193150654 3.015101038e-39
0.002835149178 0.001525432104 -0.1385133266 3.015101038e-39
0.002376883989 -0.003048403421 0.01510337647 3.015101038e-39
0.07376445085 0.03149566054 0.4081598818 3.75229193e-39
0.08628593385 0.01499392185 0.1722022593 3.75229193e-39
0.07847431302 -0.07520566136 0.4389776289 3.75229193e-39
0.07114157826 0.004837862682 0.3680624068 3.75229193e-39
0.06910600513 0.03265591711 0.4778317213 3.75229193e-39
0.08186516911 -0.04474563897 0.3044504821 3.75229193e-39
0.05308217928 -0.0462095663 0.4826010764 3.75229193e-39
0.08173190802 -0.01443530153 0.2539139688 3.75229193e-39
0.07198696584 -0.01151060872 0.3908833563 3.75229193e-39
0.0861614123 0.01970966905 0.1226358488 3.75229193e-39
0.06845833361 -0.06787374616 0.4784857929 3.75229193e-39
0.07674374431 0.005360572599 0.3087456524 3.75229193e-39
0.07807043195 0.02653896995 0.4522619843 3.75229193e-39
0.08222600073 -0.005130754318 0.2282989323 3.75229193e-39
0.04762997106 -0.04410676286 0.4828487933 3.75229193e-39
0.08227674663 -0.006921151187 0.260027498 3.75229193e-39
0.07522845268 0.009928124025 0.4291658401 3.75229193e-39
0.0844097957 0.002250874415 0.2026026547 3.75229193e-39
0.07498747855 -0.06309463084 0.4739712477 3.75229193e-39
0.07009818405 0.02245819941 0.379596889 3.75229193e-39
0.01409887243 0.03128040582 0.4825146496 3.75229193e-39
0.07330337912 -0.003049481427 0.3195871711 3.75229193e-39
0.06675548106 -0.01648535579 0.478141427 3.75229193e-39
0.07614106685 -0.03684934974 0.4093402922 3.75229193e-39
0.02634027414 -1.20755285e-05 0.4828361273 3.75229193e-39
0.08023661375 -0.01686295122 0.29467237 3.75229193e-39
0.06220314652 0.0005518327816 0.4802333415 3.75229193e-39
0.07473374903 -0.04292809963 0.3751587868 3.75229193e-39
0.07644665241 -0.0126153389 0.4735468924 3.75229193e-39
0.07574275136 -0.0257780496 0.3434354365 3.75229193e-39
0.07539220154 -0.01857794076 0.4386889637 3.75229193e-39
0.07051683217 -0.02719076164 0.3649626374 3.75229193e-39
0.07941430062 -0.002884257119 -0.08909070492 4.48912409e-39
0.08828745037 -0.01360839605 -0.4337514341 4.48912409e-39
0.06462135166 -0.01275048405 0.2257459164 4.48912409e-39
0.07824422419 0.01506365649 -0.00551135838 4.48912409e-39
0.07705775648 -0.01997437887 0.03021837026 4.48912409e-39
0.08362734318 -0.01615892351 -0.2989538014 4.48912409e-39
0.06971236318 -0.02001885511 0.1552942544 4.48912409e-39
0.08143018931 0.01877977513 -0.2907679975 4.48912409e-39
0.07937050611 -0.03273777664 -0.2387453318 4.48912409e-39
0.08965819329 -0.01145445928 -0.4678121805 4.48912409e-39
0.06849782914 -0.01597402059 0.1675730199 4.48912409e-39
0.07838210464 0.01900724322 -0.1226316094 4.48912409e-39
0.07779223472 -0.01910101995 -0.03989928588 4.48912409e-39
0.08721275628 -0.006218900904 -0.3502433598 4.48912409e-39
0.07068959624 -0.0203628093 0.1409012526 4.48912409e-39
0.08021341264 0.01657640189 -0.2231402397 4.48912409e-39
0.07769747078 -0.02752267197 -0.1584469974 4.48912409e-39
0.0875261873 -0.01137866359 -0.4048856497 4.48912409e-39
0.06905691326 -0.007285251748 0.1752125323 4.48912409e-39
0.07822733372 0.01292357408 -0.007741248235 4.48912409e-39
0.07684581727 -0.02322518826 0.02544760145 4.48912409e-39
0.0838829577 -0.01588514075 -0.3173185587 4.48912409e-39
0.07554202527 -0.007758342661 0.104074873 4.48912409e-39
0.07891400158 0.008593854494 -0.03859720007 4.48912409e-39
0.0765792802 -0.0149387503 -0.008156286553 4.48912409e-39
0.08719784021 0.004146609921 -0.3627893925 4.48912409e-39
0.07470618188 -0.01435355749 0.08924174309 4.48912409e-39
0.08072247356 0.002280639252 -0.1943181306 4.48912409e-39
0.07823579758 -0.009551664814 -0.08817300946 4.48912409e-39
0.08198634535 0.01253848057 -0.2593558133 4.48912409e-39
0.0783007592 -0.01332743 -0.1235034466 4.48912409e-39
0.0823796168 -0.03073026426 -0.3267900348 4.48912409e-39
-0.07980053127 0.1047689989 -0.3254719675 5.225597518e-39
-0.07368241251 0.05995845422 -0.1460127085 5.225597518e-39
-0.07929366082 0.1273436993 -0.2582549453 5.225597518e-39
-0.0768462643 -0.02208434418 -0.4068871439 5.225597518e-39
0.007520589978 0.07056048512 -0.4228439033 5.225597518e-39
-0.07713103294 0.04397127777 -0.2346915901 5.225597518e-39
-0.07869120687 0.07213273644 -0.2586042583 5.225597518e-39
-0.01158329844 0.0341454111 -0.4149562716 5.225597518e-39
-0.08107598126 0.1327947676 -0.3006416559 5.225597518e-39
-0.07151127607 0.08423978835 -0.04164421931 5.225597518e-39
-0.07709282637 0.1233928055 -0.190594852 5.225597518e-39
-0.03489783034 -0.01434139907 -0.4084576666 5.225597518e-39
-0.0508264266 0.07955791801 -0.4210988283 5.225597518e-39
-0.075777933 0.07284687459 -0.2000781298 5.225597518e-39
-0.0765324384 0.1234661341 -0.1545783728 5.225597518e-39
0.03055259027 0.002250127494 -0.4148884118 5.225597518e-39
-0.07953584939 0.1029390618 -0.3817471862 5.225597518e-39
-0.07192944735 0.08892163634 -0.09160548449 5.225597518e-39
-0.07883262634 0.1323519647 -0.2035658658 5.225597518e-39
-0.07602550089 -0.01954923756 -0.4048242271 5.225597518e-39
0.0155730322 0.0257528685 -0.4199300706 5.225597518e-39
-0.07852353156 0.03978905827 -0.2827267647 5.225597518e-39
-0.08020012081 0.07298422605 -0.3764306307 5.225597518e-39
-0.07907498628 0.02554568648 -0.3756690025 5.225597518e-39
-0.04915877432 0.03782658651 -0.4215145707 5.225597518e-39
-0.0803476572 0.01648092829 -0.3397991359 5.225597518e-39
-0.01713821664 0.02019130252 -0.4173920751 5.225597518e-39
-0.07848689705 0.06518427283 -0.3743876815 5.225597518e-39
-0.07871618122 0.09158150852 -0.2530567944 5.225597518e-39
-0.07617042214 0.03851882368 -0.4076398313 5.225597518e-39
-0.07734703273 0.06188989431 -0.3942520022 5.225597518e-39
-0.07281141728 0.07735922188 -0.1468482167 5.225597518e-39
-0.03614743426 0.02070278674 -0.2772672176 5.962428276e-39
-0.006151076872 0.09709720314 -0.4255622923 5.962428276e-39
-0.0354665108 0.04846971482 -0.336370945 5.962428276e-39
0.05791183561 0.008914222941 -0.3232651353 5.962428276e-39
0.05513397977 0.008649107069 -0.3618862033 5.962428276e-39
0.0294909589 0.05193054304 -0.414367944 5.962428276e-39
-0.07639411092 0.09626764804 -0.3550518453 5.962428276e-39
0.06766352803 0.03478356078 -0.4324968159 5.962428276e-39
-0.0240932554 0.01401934586 -0.1937528849 5.962428276e-39
-0.04592661932 0.1020440161 -0.3945731223 5.962428276e-39
-0.04668131471 0.06383344531 -0.3429144621 5.962428276e-39
0.06717506051 0.006592245307 -0.3450098932 5.962428276e-39
0.04228181764 0.01126972958 -0.333331883 5.962428276e-39
0.01865764149 0.07901056856 -0.4278285801 5.962428276e-39
-0.06149324775 0.08409464359 -0.3485199213 5.962428276e-39
0.07512809336 0.004290792625 -0.4008833766 5.962428276e-39
0.005803311244 0.01129127759 -0.1855810285 5.962428276e-39
-0.01907962747 0.08682348579 -0.3997915387 5.962428276e-39
-0.03690588102 0.06634198129 -0.3566777706 5.962428276e-39
0.0603810139 0.009080756456 -0.390293479 5.962428276e-39
0.06997209787 0.0100750979 -0.2552768588 5.962428276e-39
0.01756665483 0.02155856043 -0.3495461345 5.962428276e-39
-0.03421989828 0.07562734187 -0.3730114698 5.962428276e-39
0.05855093524 0.02692679502 -0.4188097119 5.962428276e-39
0.04510509968 0.002672427567 -0.1252344698 5.962428276e-39
0.04976366088 0.009794496 -0.3400829136 5.962428276e-39
-0.00454065064 0.04162272811 -0.3806473911 5.962428276e-39
0.05349064618 0.07542746514 -0.4473431706 5.962428276e-39
-0.0171716176 0.01207932923 -0.276429534 5.962428276e-39
0.03841286525 0.03157506883 -0.4107749462 5.962428276e-39
-0.0108552482 0.02230869979 -0.3071852922 5.962428276e-39
-0.001373856445 0.02458431758 -0.3421816826 5.962428276e-39
-0.004613270052 -0.08518163115 0.4768860042 6.698542971e-39
-0.05193483457 -0.1136424616 0.4277768135 6.698542971e-39
0.02729936317 -0.08638007939 0.4749285281 6.698542971e-39
-0.06036439911 -0.09230351448 0.4573464692 6.698542971e-39
-0.00273888628 -0.1190948114 0.4575849473 6.698542971e-39
0.002284165239 -0.13116467 0.4124854207 6.698542971e-39
0.09584745765 -0.1129323915 0.4503453672 6.698542971e-39
-0.07862879336 -0.0746332556 0.4242222607 6.698542971e-39
-0.02834694088 -0.09581138939 0.4692931771 6.698542971e-39
-0.0720192641 -0.1079659984 0.416788727 6.698542971e-39
0.02996861376 -0.1135630459 0.4641475379 6.698542971e-39
-0.07023598999 -0.1041321307 0.4338284731 6.698542971e-39
-0.004562688991 -0.1207545474 0.4442184269 6.698542971e-39
-0.02109045722 -0.1263997406 0.4124826789 6.698542971e-39
0.0584686771 -0.1132842004 0.4610322714 6.698542971e-39
-0.07333184034 -0.1026115045 0.4279521704 6.698542971e-39
-0.01806097664 -0.1187841371 0.4377854168 6.698542971e-39
-0.04480763152 -0.1269476116 0.3861528635 6.698542971e-39
0.05459489673 -0.07995022833 0.4742020071 6.698542971e-39
-0.06766616553 -0.09123842418 0.4513498545 6.698542971e-39
0.002875625622 -0.1250928044 0.436937809 6.698542971e-39
-0.01607721299 -0.1188557371 0.4336909056 6.698542971e-39
0.07247902453 -0.0646545589 0.472086966 6.698542971e-39
-0.04428698495 -0.08112504333 0.4723100066 6.698542971e-39
0.01403693296 -0.1157601699 0.4619244933 6.698542971e-39
-0.03270204738 -0.1172100306 0.4314704537 6.698542971e-39
0.06195786968 -0.07456541061 0.4717860818 6.698542971e-39
-0.03428417072 -0.07883009315 0.4790332317 6.698542971e-39
0.0153610995 -0.0319865942 0.4798538685 6.698542971e-39
-0.05715757981 -0.1017895266 0.4519597292 6.698542971e-39
-0.005870405119 -0.08893018216 0.4767065346 6.698542971e-39
-0.02094392106 -0.110600397 0.4553964436 6.698542971e-39
0.04545748606 -0.07190518826 0.4570311606 7.434656265e-39
-0.02943382785 0.0179179199 0.2575609088 7.434656265e-39
-0.06878091395 0.05486877635 0.2269105166 7.434656265e-39
0.05558645725 -0.08846784383 0.4268264472 7.434656265e-39
0.01648841426 -0.02590704896 0.4432243407 7.434656265e-39
0.002906172769 -0.02065589651 0.4068345726 7.434656265e-39
-0.04197743535 0.02919009887 0.4192064703 7.434656265e-39
0.01406534389 -0.05392100662 0.3812224865 7.434656265e-39
0.08109787852 -0.1254912317 0.4264290333 7.434656265e-39
-0.023887299 0.01618067548 0.2481451482 7.434656265e-39
-0.06638425589 0.04757539928 0.2960185409 7.434656265e-39
0.03140971065 -0.08058109134 0.416829586 7.434656265e-39
0.05549644306 -0.08738602698 0.462454319 7.434656265e-39
-0.01272401121 0.004179140553 0.3852748275 7.434656265e-39
-0.06617612392 0.05397442728 0.3728863001 7.434656265e-39
0.02783273906 -0.05973590538 0.4158213735 7.434656265e-39
0.08102440834 -0.1142504588 0.4469819963 7.434656265e-39
-0.03085867688 0.02454187348 0.3637919128 7.434656265e-39
-0.06214819103 0.04395890981 0.253508389 7.434656265e-39
0.05224114656 -0.09703401476 0.4477463365 7.434656265e-39
0.03845287114 -0.05534784123 0.4531157613 7.434656265e-39
0.004349107388 -0.02096049488 0.4133750498 7.434656265e-39
-0.05321300402 0.0379480347 0.3976088166 7.434656265e-39
0.034230683 -0.08442351222 0.4383999705 7.434656265e-39
0.0514876321 -0.09589020908 0.4478229582 7.434656265e-39
0.0165646635 -0.03344173357 0.4019328952 7.434656265e-39
0.01464007515 -0.02304727025 0.4382048249 7.434656265e-39
0.02360695787 -0.05172490701 0.4277650714 7.434656265e-39
0.05732066929 -0.09255607426 0.4545200169 7.434656265e-39
0.04287048429 -0.07384838909 0.391217947 7.434656265e-39
0.06412552297 -0.1028448492 0.4560369253 7.434656265e-39
-0.00268815551 -0.003066820791 0.3563653529 7.434656265e-39
0.05707324669 -0.07500962913 0.387593329 8.170410826e-39
-0.04631176218 -0.05662053451 0.1419450045 8.170410826e-39
0.08852545172 -0.07264648378 0.3404426277 8.170410826e-39
-0.01288862713 -0.06093505025 0.009926693514 8.170410826e-39
-0.001431084238 -0.06546753645 0.1629923135 8.170410826e-39
-0.04242505878 -0.06858446449 0.2161613852 8.170410826e-39
0.09804826975 -0.1400920153 0.4498959184 8.170410826e-39
-0.01322890352 -0.06411029398 -0.1147990748 8.170410826e-39
0.06248129532 -0.06262167543 0.2401628941 8.170410826e-39
-0.02693943679 -0.05765565857 0.1213097051 8.170410826e-39
0.09880010039 -0.1095618308 0.4043121934 8.170410826e-39
-0.03125383332 -0.06159258261 -0.03065712936 8.170410826e-39
0.0004439502663 -0.06670822203 0.1726563573 8.170410826e-39
-0.04097386077 -0.06373857707 0.1843996793 8.170410826e-39
0.102016598 -0.1365295053 0.4373523593 8.170410826e-39
-0.03490514308 -0.06536287814 -0.1019784436 8.170410826e-39
0.02685831301 -0.0679198876 0.2407876849 8.170410826e-39
-0.03984353319 -0.05628017709 0.1373298168 8.170410826e-39
0.0933098048 -0.07896868885 0.3527230322 8.170410826e-39
-0.03693985939 -0.05930566788 0.04441545531 8.170410826e-39
0.01062559616 -0.06251007318 0.1070687473 8.170410826e-39
-0.0297328867 -0.06025454774 0.1572892219 8.170410826e-39
0.03174902871 -0.07391608506 0.3934195042 8.170410826e-39
-0.005273233633 -0.06096991152 0.03472558409 8.170410826e-39
0.01445220318 -0.06576030701 0.1467046738 8.170410826e-39
-0.00938565284 -0.06070695445 0.001268773573 8.170410826e-39
-0.007853413932 -0.07800622284 0.4104431272 8.170410826e-39
0.02933304198 -0.06250634044 -0.01052428689 8.170410826e-39
0.09698410332 -0.09601570666 0.3912702501 8.170410826e-39
0.001957339467 -0.06130423024 -0.03101609834 8.170410826e-39
0.04161988199 -0.06314677 0.2863573134 8.170410826e-39
0.001901236828 -0.06990499049 0.229925856 8.170410826e-39
-0.06967937201 0.0274652224 0.435614109 8.906165387e-39
-0.06346650422 0.08127312362 0.295338273 8.906165387e-39
-0.04740875587 0.02516608499 0.4184808135 8.906165387e-39
-0.05555972457 0.08106379211 0.09067436308 8.906165387e-39
-0.05501685292 0.04729611799 0.3913274407 8.906165387e-39
-0.04475812241 0.02611496858 0.38621521 8.906165387e-39
-0.09137191623 -0.08310623467 0.4438780844 8.906165387e-39
-0.06807738543 0.103524901 0.3319790661 8.906165387e-39
-0.08139338344 -0.003887149505 0.4378333688 8.906165387e-39
-0.07598147541 0.1063132659 0.3146978021 8.906165387e-39
-0.06543440372 -0.008788571693 0.432398051 8.906165387e-39
-0.05849482864 0.09311163425 0.1921380907 8.906165387e-39
-0.08060269058 0.08836485445 0.4254632294 8.906165387e-39
-0.04850504547 0.04056992754 0.3440204263 8.906165387e-39
-0.09273204952 -0.05497647077 0.4424456358 8.906165387e-39
-0.07382882386 0.1101948917 0.2943878174 8.906165387e-39
-0.08598417044 0.08246611059 0.4432917833 8.906165387e-39
-0.06289216131 0.05782882497 0.3368534744 8.906165387e-39
-0.05888774246 0.03661432862 0.4313743114 8.906165387e-39
-0.0600277856 0.08473796397 0.1436033994 8.906165387e-39
-0.07729802281 0.08809436113 0.3991335034 8.906165387e-39
-0.06077664346 0.04916730151 0.3699276447 8.906165387e-39
-0.04981352761 0.03236520663 0.4142308235 8.906165387e-39
-0.04572837427 0.03014175035 0.3297791481 8.906165387e-39
-0.08535028994 0.08942703158 0.4330530763 8.906165387e-39
-0.07511952519 0.09899765998 0.324339062 8.906165387e-39
-0.06615420431 0.04338016734 0.4364426434 8.906165387e-39
-0.05372464284 0.04661892354 0.3947785199 8.906165387e-39
-0.08929157257 -0.014846568 0.4377691746 8.906165387e-39
-0.06773512065 0.08198136091 0.3678697646 8.906165387e-39
-0.06917281449 0.0576579459 0.4366695285 8.906165387e-39
-0.05869303271 0.07542460412 0.2774852812 8.906165387e-39
-0.08730128407 -0.07818003744 0.3609006405 9.641561216e-39
-0.07283829898 -0.05066321418 0.4010642171 9.641561216e-39
-0.06748517603 -0.0770361647 0.2259005308 9.641561216e-39
-0.07564020902 0.0232882034 0.4288577437 9.641561216e-39
-0.06726299226 -0.07389323413 0.3125146925 9.641561216e-39
-0.07854152471 -0.07369036227 0.42764768 9.641561216e-39
-0.04331411049 -0.06763409078 -0.02524999902 9.641561216e-39
-0.07206118852 0.08658929169 0.3427380919 9.641561216e-39
-0.07914387435 -0.07918004692 0.4022491872 9.641561216e-39
-0.07390377671 -0.07268132269 0.3888759315 9.641561216e-39
-0.0499650687 -0.07143563777 0.09233210236 9.641561216e-39
-0.07458811998 0.07133813947 0.4005924463 9.641561216e-39
-0.07085744292 -0.07329734415 0.3401626348 9.641561216e-39
-0.07600811869 -0.06234697253 0.4204209447 9.641561216e-39
-0.04178540781 -0.06649763882 0.04118326306 9.641561216e-39
-0.07177751511 0.08837036043 0.3446559906 9.641561216e-39
-0.08219106495 -0.07598571479 0.3814152181 9.641561216e-39
-0.07370581478 -0.06566140056 0.4084123075 9.641561216e-39
-0.05750886351 -0.07610758394 0.139647752 9.641561216e-39
-0.075824067 0.03435612097 0.4235580266 9.641561216e-39
-0.05352804437 -0.06925484538 0.315618217 9.641561216e-39
-0.07636718452 -0.06516502798 0.4228493571 9.641561216e-39
-0.04132514074 -0.06577510387 0.2049573958 9.641561216e-39
-0.07704022527 0.01198102534 0.4255842268 9.641561216e-39
-0.06629132479 -0.07222601771 0.3576988578 9.641561216e-39
-0.07531260699 -0.003864917206 0.4007745683 9.641561216e-39
-0.0476459004 -0.07023320347 0.2084130496 9.641561216e-39
-0.07703304291 0.01461457741 0.4229397178 9.641561216e-39
-0.08441755921 -0.07697879523 0.3087203205 9.641561216e-39
-0.07477977127 0.0148283029 0.3817673624 9.641561216e-39
-0.07776177675 -0.07590015978 0.3707120121 9.641561216e-39
-0.0750528723 0.002670013579 0.397682339 9.641561216e-39
0.03818250448 -0.04013153911 0.3919060826 1.037659831e-38
0.02234498225 -0.04604173824 -0.1679390222 1.037659831e-38
0.04377090186 -0.04367693886 0.1092509627 1.037659831e-38
0.03336433694 -0.04708726704 -0.2670207918 1.037659831e-38
0.02265125513 -0.05250082538 0.1806508303 1.037659831e-38
0.02572090924 -0.05242606252 0.09437481314 1.037659831e-38
0.01626555622 -0.02284416929 0.3533894718 1.037659831e-38
0.1011750922 -0.05213135481 -0.3940786123 1.037659831e-38
0.03359181061 -0.03993294761 0.4166818559 1.037659831e-38
0.0312034525 -0.05255145207 -0.1154901236 1.037659831e-38
0.02338291146 -0.03072061576 0.240271166 1.037659831e-38
0.07344525307 -0.06435010582 -0.3266090453 1.037659831e-38
0.0127590457 -0.0419228822 0.2520398498 1.037659831e-38
0.04113846645 -0.06947057694 0.02693219669 1.037659831e-38
0.02556486242 -0.02280754223 0.3172943294 1.037659831e-38
0.1103147343 -0.07230230421 -0.3583340347 1.037659831e-38
0.01436788402 -0.04002812132 0.3591302931 1.037659831e-38
0.04374184459 -0.0774871856 -0.01509837434 1.037659831e-38
0.0235999357 -0.06609876454 0.04950492084 1.037659831e-38
0.02777726389 -0.07183225453 -0.2729381919 1.037659831e-38
0.00913421344 -0.05622604489 0.185253799 1.037659831e-38
0.04807521775 -0.06498284638 0.07587884367 1.037659831e-38
0.01637418196 -0.0620034039 0.141137436 1.037659831e-38
-0.01841056906 -0.06877180934 -0.3159725964 1.037659831e-38
-0.01050540153 -0.03407076374 0.3385213315 1.037659831e-38
0.04117124155 -0.07124895602 -0.07930675894 1.037659831e-38
-0.002104666783 -0.04122902825 0.2423675358 1.037659831e-38
-0.006492292508 -0.06174196303 -0.3044630289 1.037659831e-38
0.009487697855 -0.03240835294 0.392842561 1.037659831e-38
0.08288367093 -0.066988267 -0.2463669479 1.037659831e-38
0.003938453272 -0.02748193592 0.3634741008 1.037659831e-38
0.01661317609 -0.07133689523 -0.003812028328 1.037659831e-38
0.02492550761 -0.02493330278 -0.3791877627 1.111163541e-38
0.02979657613 -0.01397988945 -0.2117729932 1.111163541e-38
0.06592004001 -0.01560426317 -0.2125042081 1.111163541e-38
0.04346179217 -0.01023583114 -0.1661839187 1.111163541e-38
0.02187096886 -0.04500743002 -0.4037238955 1.111163541e-38
0.03300358728 -0.01186168008 -0.2939451039 1.111163541e-38
0.04156852514 -0.05417845771 -0.3965503573 1.111163541e-38
0.06478472799 -0.01351452526 -0.1212477535 1.111163541e-38
0.04232474044 -0.0137603255 -0.2988485098 1.111163541e-38
0.02365439199 -0.01306685619 -0.1665756255 1.111163541e-38
0.06585383415 -0.02296669967 -0.2711014152 1.111163541e-38
0.06150050089 -0.009530674666 -0.1286091059 1.111163541e-38
0.008303734474 -0.02574210241 -0.3803887665 1.111163541e-38
0.03341314942 -0.0147585161 -0.2523475885 1.111163541e-38
0.05847148225 -0.03943452612 -0.3545217514 1.111163541e-38
0.06353714317 -0.01201696601 -0.1074428335 1.111163541e-38
0.02920128778 -0.01233829837 -0.3497882783 1.111163541e-38
0.03351799399 -0.01289593335 -0.1649946421 1.111163541e-38
0.06246400252 -0.01699058339 -0.2508161664 1.111163541e-38
0.05761544779 -0.008520697244 -0.1279084235 1.111163541e-38
0.01994028874 -0.03710048273 -0.3972963691 1.111163541e-38
0.03479024023 -0.01445552334 -0.2288634926 1.111163541e-38
0.05173486471 -0.04122858867 -0.3693102896 1.111163541e-38
0.05782087147 -0.009397433139 -0.1530356109 1.111163541e-38
0.03850296512 -0.03113001026 -0.3808494806 1.111163541e-38
0.0315537788 -0.0116893379 -0.1687471569 1.111163541e-38
-0.02583943121 -0.06479527056 -0.4137427211 1.111163541e-38
0.05284636468 -0.01527270861 -0.256906271 1.111163541e-38
0.04857399687 -0.02341761626 -0.3448826075 1.111163541e-38
0.05183662474 -0.01023141202 -0.1654894054 1.111163541e-38
0.03951283172 -0.0150091527 -0.2444664091 1.111163541e-38
0.0322223641 -0.01270616148 -0.1679579616 1.111163541e-38
-0.07745723426 0.1062311009 -0.2037468255 1.184631237e-38
-0.0507917963 0.1368919164 -0.3558963835 1.184631237e-38
-0.0755526796 0.1301925033 -0.1224897653 1.184631237e-38
-0.07284963131 0.07855801284 0.1807036847 1.184631237e-38
-0.06943359971 0.1240810305 -0.1882001013 1.184631237e-38
-0.06662219763 0.1265045702 -0.1945619434 1.184631237e-38
-0.08043255657 0.1128081009 0.09141530842 1.184631237e-38
-0.09281408787 0.1037369594 -0.1329203993 1.184631237e-38
-0.05393964425 0.1250078976 -0.4431675076 1.184631237e-38
-0.05141204968 0.1335365027 -0.378870666 1.184631237e-38
-0.08054735512 0.1321056038 -0.02673074603 1.184631237e-38
-0.08503159881 0.09632995725 0.01109903958 1.184631237e-38
-0.05931571499 0.1317748725 -0.361130923 1.184631237e-38
-0.06450513005 0.1317610592 -0.2694372237 1.184631237e-38
-0.07871766388 0.1202248558 0.04621881247 1.184631237e-38
-0.08539685607 0.1098695919 -0.132945478 1.184631237e-38
-0.04628223926 0.1321543455 -0.4112184048 1.184631237e-38
-0.06169462577 0.1350522786 -0.3090583086 1.184631237e-38
-0.07541526109 0.131301567 -0.1023893952 1.184631237e-38
-0.0669451803 0.08803545684 0.2661867142 1.184631237e-38
-0.06557326764 0.1295151561 -0.3380339146 1.184631237e-38
-0.06402738392 0.126282841 -0.2047882378 1.184631237e-38
-0.07486578822 0.131139636 -0.09002234787 1.184631237e-38
-0.07361292839 0.1257289499 0.1092625111 1.184631237e-38
-0.06555944681 0.1219691336 -0.3762383759 1.184631237e-38
-0.06581488252 0.1252479255 -0.2516271174 1.184631237e-38
-0.0799626708 0.1117051914 0.04122246802 1.184631237e-38
-0.0686359182 0.1222803891 -0.1862213314 1.184631237e-38
-0.08127887547 0.1265528798 -0.1115779728 1.184631237e-38
-0.06311177462 0.1226889789 -0.3852036595 1.184631237e-38
-0.06408249587 0.1172877774 -0.4087780416 1.184631237e-38
-0.07096324116 0.1256361604 -0.3290560246 1.184631237e-38
-0.08507677913 0.07512620836 -0.0530112721 1.258099074e-38
-0.07997107506 0.04825717583 0.4587421119 1.258099074e-38
-0.09917910397 0.08327966183 0.2981871068 1.258099074e-38
-0.07412157953 0.08596301079 0.4721652865 1.258099074e-38
-0.09201345593 0.07973028719 0.07969643176 1.258099074e-38
-0.105100885 0.06508152932 0.2868304551 1.258099074e-38
-0.09218798578 0.08349025995 0.1524488777 1.258099074e-38
-0.1023997292 0.09029248357 0.3251516223 1.258099074e-38
-0.0742097348 0.06948567182 -0.1983461082 1.258099074e-38
-0.08231017739 0.03123041615 0.4474391639 1.258099074e-38
-0.09362092614 0.08046633005 0.1771238148 1.258099074e-38
-0.09713460505 0.0861762166 0.3832149804 1.258099074e-38
-0.08743744344 0.07589744031 -0.02231155336 1.258099074e-38
-0.1002019867 0.06041334942 0.3653322458 1.258099074e-38
-0.09467352182 0.07827929407 0.1267758161 1.258099074e-38
-0.1031356081 0.08269257843 0.3321957588 1.258099074e-38
-0.08110323548 0.06753883511 -0.1280472726 1.258099074e-38
-0.08503641933 0.06323267519 0.4295309782 1.258099074e-38
-0.09902801365 0.07633757591 0.2379258573 1.258099074e-38
-0.07677616924 0.08661376685 0.4600796402 1.258099074e-38
-0.08860477805 0.07098255306 -0.01635770686 1.258099074e-38
-0.1055273712 0.05356868356 0.2699297071 1.258099074e-38
-0.0999680385 0.08004811406 0.2381481975 1.258099074e-38
-0.09912471473 0.07647708058 0.3833827376 1.258099074e-38
-0.08561187983 0.06619231403 -0.06873159856 1.258099074e-38
-0.09808814526 0.06067983806 0.3919357955 1.258099074e-38
-0.0976575315 0.07768055052 0.1887161881 1.258099074e-38
-0.1060075387 0.06228317693 0.3374411762 1.258099074e-38
-0.09768367559 0.07409004122 0.1324756444 1.258099074e-38
-0.09412779659 0.06594832987 0.4097507596 1.258099074e-38
-0.08645793796 0.0785145089 0.02460210398 1.258099074e-38
-0.08465616405 0.06590989977 0.4010066092 1.258099074e-38
-0.07195265591 -0.07094812393 -0.3998422921 1.331530897e-38
-0.04588662088 -0.1012402922 0.0442456007 1.331530897e-38
-0.04015531018 -0.07952199876 -0.3063003123 1.331530897e-38
-0.01654319093 -0.07287997752 -0.322226882 1.331530897e-38
-0.04423766956 -0.09916245192 -0.4432267845 1.331530897e-38
-0.08385485411 -0.07714102417 -0.2443276942 1.331530897e-38
-0.07657806575 -0.04748092219 -0.4086530209 1.331530897e-38
-0.02176062576 -0.09182918072 -0.0220488552 1.331530897e-38
-0.07455580682 0.05173768103 -0.4465272427 1.331530897e-38
-0.03078887239 -0.09907409549 0.08813223988 1.331530897e-38
-0.04308959469 -0.07880084962 -0.3580794334 1.331530897e-38
-0.02782979794 -0.07986731827 -0.1976073682 1.331530897e-38
-0.07774697244 -0.05777138099 -0.4384796023 1.331530897e-38
-0.07665293664 -0.08742193133 -0.1214366257 1.331530897e-38
-0.06538908929 -0.0739832148 -0.4152101576 1.331530897e-38
-0.01773706265 -0.09013223648 -0.09904366732 1.331530897e-38
-0.0786292851 0.007157709915 -0.4531759918 1.331530897e-38
-0.06464273483 -0.09537573159 -0.01269027218 1.331530897e-38
-0.05890804902 -0.07973148674 -0.3310286403 1.331530897e-38
-0.02909997851 -0.07869746536 -0.2407405078 1.331530897e-38
-0.04124423862 -0.09387952089 -0.4337334037 1.331530897e-38
-0.09012153 -0.06411276758 -0.2991663814 1.331530897e-38
-0.1046486497 -0.00237907772 -0.3523118496 1.331530897e-38
-0.06559766084 -0.08055353165 -0.182090342 1.331530897e-38
-0.07645680755 -0.07463413477 -0.4396899641 1.331530897e-38
-0.07376512885 -0.07605772465 -0.270963937 1.331530897e-38
-0.09087195247 -0.003363820259 -0.3748928308 1.331530897e-38
-0.07690668851 -0.08644190431 -0.1171735525 1.331530897e-38
-0.08126559854 -0.01345486939 -0.425678432 1.331530897e-38
-0.04369771853 -0.07393676043 -0.2418065518 1.331530897e-38
-0.07764182985 -0.05300545692 -0.4511829913 1.331530897e-38
-0.04144242778 -0.08373123407 -0.1821491867 1.331530897e-38
-0.02745518647 0.08861724287 -0.1909824312 1.404926846e-38
-0.03057865426 0.1003867313 -0.005971956998 1.404926846e-38
-0.02685218304 0.1086578667 0.05941667035 1.404926846e-38
-0.02788997442 0.09148211777 -0.08732726425 1.404926846e-38
-0.03181399778 0.1008478776 -0.03425494581 1.404926846e-38
-0.0008393300814 0.1094418913 0.3075972795 1.404926846e-38
-0.03811657056 0.1140562668 0.2369720936 1.404926846e-38
-0.0336827375 0.09213490784 -0.2716383636 1.404926846e-38
-0.03179552779 0.09122560918 -0.3228185773 1.404926846e-38
-0.030863069 0.09812938422 -0.03350133449 1.404926846e-38
-0.02294325456 0.1096927449 0.1613634229 1.404926846e-38
-0.02686812542 0.08784515411 -0.2233987302 1.404926846e-38
-0.04273769259 0.1045569777 -0.165464893 1.404926846e-38
-0.01618341543 0.1016022563 0.1572534591 1.404926846e-38
-0.0345200263 0.1124416068 0.2179713547 1.404926846e-38
-0.02617502026 0.0870327279 -0.2732771039 1.404926846e-38
-0.0352293402 0.09466221929 -0.2845754921 1.404926846e-38
-0.02522951551 0.103073746 0.06777179241 1.404926846e-38
-0.02634496242 0.1081668958 0.1072176099 1.404926846e-38
-0.0212557856 0.08769536018 -0.2116196901 1.404926846e-38
-0.03996816278 0.100082472 -0.1483842134 1.404926846e-38
-0.008462592028 0.1022935435 0.2004555762 1.404926846e-38
-0.03034762666 0.1046625376 0.007912869565 1.404926846e-38
-0.02916634828 0.09386584163 -0.05984420702 1.404926846e-38
-0.02426495031 0.0870860368 -0.3367474377 1.404926846e-38
-0.02788696624 0.1000279486 0.02657277882 1.404926846e-38
-0.03078135476 0.09990076721 -0.01382432319 1.404926846e-38
-0.02664464153 0.100539282 0.05119210854 1.404926846e-38
-0.03608558327 0.093946971 -0.2514097393 1.404926846e-38
-0.02662870288 0.09035364538 -0.1326699257 1.404926846e-38
-0.04124309123 0.1028766558 -0.1505896598 1.404926846e-38
-0.03293156624 0.09226866066 -0.1166442782 1.404926846e-38
-0.02494074963 0.08198279887 0.1706630439 1.478322936e-38
-0.06707601249 0.09000904113 0.1135134771 1.478322936e-38
-0.01453424711 0.0757605359 0.2231417447 1.478322936e-38
-0.02872742154 0.04635874555 -0.09116570652 1.478322936e-38
-0.03011781722 0.1027630642 0.2910213768 1.478322936e-38
