# .PCD v0.7 - Point Cloud Data file format
VERSION 0.7
FIELDS x y z rgb
SIZE 4 4 4 4
TYPE F F F F
COUNT 1 1 1 1
WIDTH 816
HEIGHT 1
VIEWPOINT 0 0 0 1 0 0 0
POINTS 816
DATA ascii
-0.2188102156 -0.009416867979 -0.009679268114 7.281903522e-39
-0.3247997463 0.02148445137 -0.01586355083 7.281903522e-39
-0.2933665812 0.05123443529 -0.00481579639 7.281903522e-39
-0.2876373529 0.008404616266 -0.01887900382 7.281903522e-39
-0.2406928241 -0.004675130825 -0.007643051445 7.281903522e-39
-0.3166680038 -0.001382543705 -0.02475079894 7.281903522e-39
-0.2796393037 0.03883510455 -0.003760092892 7.281903522e-39
-0.282153815 0.006442130078 -0.01677099429 7.281903522e-39
-0.2103045285 -0.01068278775 -0.01023800299 7.281903522e-39
-0.3221471608 0.01134116016 -0.02463009581 7.281903522e-39
-0.2897201478 0.05050617084 -0.003725891467 7.281903522e-39
-0.2886225581 0.006638541352 -0.01916333102 7.281903522e-39
-0.2360888422 -0.006428764202 -0.008387158625 7.281903522e-39
-0.3286123276 0.01925191097 -0.00665996829 7.281903522e-39
-0.3017111421 0.06267440319 -0.003062499454 7.281903522e-39
-0.2900342345 0.01406553015 -0.01797605865 7.281903522e-39
-0.261903882 0.00419842964 -0.007957542315 7.281903522e-39
-0.3327041864 0.01354764961 -0.01412967592 7.281903522e-39
-0.2830497026 0.0493058525 -0.001341233845 7.281903522e-39
-0.2649015784 -0.006892363541 -0.01506968122 7.281903522e-39
-0.2296205163 -0.01301192772 -0.01368486602 7.281903522e-39
-0.3116852939 0.04163626954 -0.01476572454 7.281903522e-39
-0.2855246663 0.04087851197 -0.004694051109 7.281903522e-39
0.1045100242 0.01618203893 -0.033633288 6.55152294e-39
-0.0444832705 -0.0001613721251 -0.04206930473 6.55152294e-39
0.1697954535 0.02175139263 -0.03081815317 6.55152294e-39
-0.2444471568 -0.0170204062 -0.04493746161 6.55152294e-39
0.1169884577 0.0167617891 -0.03358615935 6.55152294e-39
0.07876447588 0.00888228137 -0.0383842364 6.55152294e-39
0.2017991394 0.02314642817 -0.03015146405 6.55152294e-39
-0.1338981688 -0.005260523409 -0.04044052213 6.55152294e-39
0.0693224594 0.009093436413 -0.0376223363 6.55152294e-39
-0.09255171567 -0.001626050565 -0.04088812321 6.55152294e-39
0.2119278163 0.02322352305 -0.02999335155 6.55152294e-39
-0.1503167003 -0.003334092675 -0.0372101143 6.55152294e-39
0.1459098309 0.01927923597 -0.03240368515 6.55152294e-39
0.07018095255 0.007148248609 -0.0394230932 6.55152294e-39
0.2626010478 0.02365408652 -0.0111227585 6.55152294e-39
-0.1418630779 -0.005091630854 -0.03952681646 6.55152294e-39
0.08412957937 0.01191331726 -0.03612806275 6.55152294e-39
-0.03164821491 -0.001010745415 -0.04442958161 6.55152294e-39
0.2185796201 0.02354443073 -0.02588264085 6.55152294e-39
-0.1571295708 -0.004576159175 -0.03769814223 6.55152294e-39
0.09704488516 0.01331992634 -0.03566303849 6.55152294e-39
0.009083107114 0.00155454746 -0.04277725518 6.55152294e-39
0.1433732808 0.02024177276 -0.03115292825 6.55152294e-39
-0.1781166047 -0.006748924032 -0.03793499246 6.55152294e-39
0.1245991141 0.01974063925 -0.03160361946 6.55152294e-39
0.06298372895 0.006049000658 -0.04025798663 6.55152294e-39
0.1547072232 0.02111464553 -0.03093779273 6.55152294e-39
-0.08425946534 0.001346155186 -0.03826438263 6.55152294e-39
0.04168498516 0.01406853925 -0.03235492483 6.55152294e-39
-0.06571837515 -0.0009172630962 -0.04162620381 6.55152294e-39
0.07634347677 0.01029702369 -0.03694721684 6.55152294e-39
-0.06700002402 0.0005891248002 -0.04014141485 6.55152294e-39
-0.2711139321 -0.04050472379 -0.02760894969 5.820783626e-39
-0.2849287987 -0.0373945795 -0.02045706287 5.820783626e-39
-0.3131112754 -0.04024045169 -0.06093110889 5.820783626e-39
-0.3206919134 -0.03363818675 -0.0180993434 5.820783626e-39
-0.2427264154 -0.04361883551 -0.03457851335 5.820783626e-39
-0.3001623154 -0.02906994894 -0.006039286964 5.820783626e-39
-0.3217909336 -0.03847321495 -0.02558009513 5.820783626e-39
-0.238813594 -0.01518596523 0.01865296997 5.820783626e-39
-0.2895959616 -0.03385853767 -0.01108560525 5.820783626e-39
-0.2628162801 -0.01989804022 0.01868752576 5.820783626e-39
-0.3295143247 -0.04007022828 -0.0307533294 5.820783626e-39
-0.3035823405 -0.02380645089 0.01583280601 5.820783626e-39
-0.2692281306 -0.04134079069 -0.02534597926 5.820783626e-39
-0.3025806546 -0.02605773695 0.01154537499 5.820783626e-39
-0.3316908181 -0.03521043807 -0.0198193714 5.820783626e-39
-0.266433388 -0.02032509632 0.01675577275 5.820783626e-39
-0.2830094099 -0.03616997227 -0.01545503642 5.820783626e-39
-0.2768283486 -0.02092995308 0.01883365586 5.820783626e-39
-0.3249231875 -0.03975521401 -0.03343062475 5.820783626e-39
-0.2949229181 -0.02241220511 0.01659420319 5.820783626e-39
-0.2736453712 -0.03893630579 -0.02100689895 5.820783626e-39
-0.2958289683 -0.02512745 0.01451420039 5.820783626e-39
-0.3146081567 -0.0413794443 -0.03511606902 5.820783626e-39
-0.3262878656 -0.02784743533 0.008843294345 5.820783626e-39
-0.2428279817 -0.04343722761 -0.03101374395 5.820783626e-39
-0.303501308 -0.02688780054 0.001879695454 5.820783626e-39
-0.3122316003 -0.03908580542 -0.02692816779 5.820783626e-39
-0.3150811493 -0.02478304878 0.01688751951 5.820783626e-39
-0.2869390547 -0.02988034673 -0.001586737693 5.820783626e-39
-0.2794008851 -0.02193179727 0.01897717454 5.820783626e-39
-0.3250896335 -0.03006275184 -0.007854132913 5.820783626e-39
-0.3307049572 -0.03040353395 -0.007807045709 5.820783626e-39
0.3571235538 -0.05748131499 0.006075095385 5.090401643e-39
0.169975251 -0.03627882153 0.09884295613 5.090401643e-39
0.2051176131 -0.04293463007 0.07328882068 5.090401643e-39
0.1122102737 -0.0319089517 0.1198220626 5.090401643e-39
0.3633581698 -0.0542819351 -0.004700162448 5.090401643e-39
0.235905081 -0.04682052881 0.0611201562 5.090401643e-39
0.3328417242 -0.06086475402 0.01589603536 5.090401643e-39
0.1381500363 -0.0363586098 0.09009966999 5.090401643e-39
0.2971469462 -0.05456481874 -0.02157967538 5.090401643e-39
0.1648934484 -0.03857532144 0.0838150084 5.090401643e-39
0.3103249669 -0.06783278286 0.01754710637 5.090401643e-39
0.1254345179 -0.03826482967 0.0759896785 5.090401643e-39
0.3304562569 -0.05275914818 -0.01650281996 5.090401643e-39
0.1972599626 -0.04694381356 0.05241074413 5.090401643e-39
0.3263336122 -0.06264308095 0.01562519744 5.090401643e-39
0.1155766025 -0.03590908274 0.08622781932 5.090401643e-39
0.3006188273 -0.05405560136 -0.02119380236 5.090401643e-39
0.1588337868 -0.03980260715 0.07765732706 5.090401643e-39
0.3076117635 -0.06254508346 0.02219931036 5.090401643e-39
0.1262833476 -0.03376226127 0.09932085127 5.090401643e-39
0.3275181353 -0.05301277712 -0.01697796397 5.090401643e-39
0.1766412109 -0.04135744274 0.07320914418 5.090401643e-39
0.2578083575 -0.06027389318 0.02621809766 5.090401643e-39
0.136584416 -0.03632928804 0.08842196316 5.090401643e-39
0.3616421223 -0.05330454186 -0.007577104028 5.090401643e-39
0.2152189314 -0.04786118865 0.04515786842 5.090401643e-39
0.2614224851 -0.06117358804 0.02537775412 5.090401643e-39
0.1928931177 -0.04298462719 0.06869108975 5.090401643e-39
0.3641007245 -0.05078636482 -0.00930211693 5.090401643e-39
0.2163099498 -0.05034568161 0.03548058495 5.090401643e-39
0.277446419 -0.06043778732 0.02487318031 5.090401643e-39
0.2067109942 -0.0528492853 0.0282580927 5.090401643e-39
0.08669287711 -0.0463680923 0.0620692037 4.359662329e-39
0.2861223221 -0.05009958148 0.0319009237 4.359662329e-39
0.226815626 -0.05044770986 0.03477494419 4.359662329e-39
0.3444439769 -0.02536422573 0.008302840404 4.359662329e-39
0.1581298858 -0.05042949691 0.04012752697 4.359662329e-39
0.2256082594 -0.05078215152 0.03456077725 4.359662329e-39
0.1852180809 -0.05103814229 0.03663430735 4.359662329e-39
0.3325875401 -0.01682233438 -0.00538571924 4.359662329e-39
0.1143612638 -0.05032497272 0.04461161047 4.359662329e-39
0.3308156431 -0.05134373158 0.02116350643 4.359662329e-39
0.2249758244 -0.0544036366 0.03354107216 4.359662329e-39
0.3354397118 -0.01789764687 0.001203283085 4.359662329e-39
0.1878822893 -0.05220019817 0.03497834504 4.359662329e-39
0.2925036252 -0.05567954853 0.02716353536 4.359662329e-39
0.1778906435 -0.05212228373 0.03557547182 4.359662329e-39
0.3292995691 -0.0157769043 -0.007896572351 4.359662329e-39
0.1300855726 -0.05029701069 0.04355549067 4.359662329e-39
0.3256346583 -0.05069618672 0.02277930081 4.359662329e-39
0.1969820559 -0.05276020244 0.03456166014 4.359662329e-39
0.3355594873 -0.01703247055 0.0007515772013 4.359662329e-39
0.1397487074 -0.05072310939 0.04107550904 4.359662329e-39
0.3046910763 -0.05250160024 0.02654189616 4.359662329e-39
0.2215006948 -0.05352878571 0.03345010802 4.359662329e-39
0.3405858278 -0.02159063891 0.007160176057 4.359662329e-39
0.2033715844 -0.05171879381 0.03440016136 4.359662329e-39
0.2452354729 -0.05390769988 0.03272538632 4.359662329e-39
0.2171564549 -0.05343425646 0.03368327767 4.359662329e-39
0.3410423398 -0.02210538462 0.007384948432 4.359662329e-39
0.2127442658 -0.05765078217 0.03525928035 4.359662329e-39
0.2928929627 -0.05510974303 0.02731515281 4.359662329e-39
0.2430921197 -0.05888205022 0.0326570347 4.359662329e-39
0.3408173025 -0.04763448238 0.01972332411 4.359662329e-39
-0.1073841155 -0.03619731963 0.03342144564 3.628921614e-39
-0.273889184 -0.021052178 0.02104978636 3.628921614e-39
-0.1150970906 -0.0320739001 0.03637193143 3.628921614e-39
-0.1380562931 -0.03550643474 0.03063757531 3.628921614e-39
0.04669709876 -0.04957446083 0.04291280359 3.628921614e-39
-0.3145143092 -0.01290751062 0.02547192387 3.628921614e-39
-0.04594447091 -0.04776813835 0.03659210354 3.628921614e-39
-0.2415291965 -0.01085848175 0.05099733174 3.628921614e-39
-0.04306801409 -0.04580456018 0.03906865045 3.628921614e-39
-0.2465254068 -0.01687823795 0.03615801036 3.628921614e-39
-0.08495924622 -0.02719195187 0.05175653473 3.628921614e-39
-0.142784819 -0.03536567464 0.03203891963 3.628921614e-39
0.2189495713 -0.03066531755 0.05282491073 3.628921614e-39
-0.288146168 -0.01362518873 0.03066783398 3.628921614e-39
-0.04387883842 -0.04495278001 0.04053192213 3.628921614e-39
-0.1867141575 -0.03188088164 0.02878615819 3.628921614e-39
0.05754503608 -0.04986585304 0.04477032274 3.628921614e-39
-0.2555342615 -0.01876403578 0.02838227898 3.628921614e-39
-0.05610315129 -0.04265193269 0.03902609646 3.628921614e-39
-0.1990020424 -0.03063355573 0.02731814422 3.628921614e-39
0.08942182362 -0.04745155573 0.04634552822 3.628921614e-39
-0.2731735706 -0.0153754605 0.03150289133 3.628921614e-39
-0.1090455353 -0.03182784095 0.04227429256 3.628921614e-39
-0.1640040427 -0.03576581553 0.02874231152 3.628921614e-39
0.0819548592 -0.04891473427 0.04561009631 3.628921614e-39
-0.3068647087 -0.006858457346 0.04848960415 3.628921614e-39
-0.1228894368 -0.03916982189 0.0296490062 3.628921614e-39
-0.2473869473 -0.02266160585 0.02349211089 3.628921614e-39
-0.1329720616 -0.03425997868 0.03146683052 3.628921614e-39
-0.2550188005 -0.01456763316 0.03517082706 3.628921614e-39
-0.1781109124 -0.03056372702 0.0286516659 3.628921614e-39
-0.1465011388 -0.03695522994 0.02835138887 3.628921614e-39
0.07207300514 -0.05996224284 0.02103601396 2.898180898e-39
0.31812042 -0.06884387136 -0.0009798329556 2.898180898e-39
0.03938178718 -0.05924162269 0.02939168178 2.898180898e-39
0.1083369479 -0.06138468906 0.01419704035 2.898180898e-39
0.03654481098 -0.05864016339 0.03374449164 2.898180898e-39
0.2070571631 -0.06877151877 -0.002193241613 2.898180898e-39
0.1366529465 -0.06447886676 0.000913847005 2.898180898e-39
0.241900146 -0.06886458397 -0.001692921156 2.898180898e-39
0.324826926 -0.06859240681 -0.0008499638643 2.898180898e-39
0.3490082026 -0.06642521173 0.0002148225904 2.898180898e-39
0.05052540824 -0.06027601287 0.004816786852 2.898180898e-39
0.1090506986 -0.06785815954 -0.003575823968 2.898180898e-39
0.2589919567 -0.0703330785 -0.001767737791 2.898180898e-39
0.3354018033 -0.0673968941 -0.0006454865215 2.898180898e-39
0.1074913889 -0.06387996674 0.00361691229 2.898180898e-39
0.2082359642 -0.06806392968 -0.002237694338 2.898180898e-39
0.3208204806 -0.06899725646 -0.0008051877958 2.898180898e-39
0.3518116772 -0.06638231128 0.0004283841408 2.898180898e-39
0.08734703809 -0.05862402171 0.02184164152 2.898180898e-39
0.1891795248 -0.0659269467 -0.001300666714 2.898180898e-39
0.2819990516 -0.07091863453 -0.00123600231 2.898180898e-39
0.3429420292 -0.06652635336 -0.0001995107159 2.898180898e-39
0.1288462728 -0.06135307997 0.01588795707 2.898180898e-39
0.08910108358 -0.0659282431 -0.002461778698 2.898180898e-39
0.2125389278 -0.06907190382 -0.002601612126 2.898180898e-39
0.2404444963 -0.06958024949 -0.001029031933 2.898180898e-39
0.2300186157 -0.06969655305 -0.001871182234 2.898180898e-39
0.208357513 -0.06715028733 -0.001610441599 2.898180898e-39
0.3290911913 -0.06795863807 -0.0007895127055 2.898180898e-39
0.3515978754 -0.06657163054 0.0004907836556 2.898180898e-39
0.2611690462 -0.07045528293 -0.001491734525 2.898180898e-39
0.005920005497 -0.06743409485 -0.004053262994 2.898180898e-39
0.1241594106 -0.02739841118 -0.1615991294 2.167082852e-39
0.1093693152 -0.02740125172 -0.2131458521 2.167082852e-39
0.2856819034 -0.02814579383 -0.04523750022 2.167082852e-39
0.1170503795 -0.01611526497 -0.3714667857 2.167082852e-39
0.118721284 -0.02726250514 -0.1848523617 2.167082852e-39
0.1102187261 -0.02404695563 -0.2715270221 2.167082852e-39
0.3128454685 -0.02776609547 -0.04322172329 2.167082852e-39
0.1109486148 -0.02512540296 -0.2593641281 2.167082852e-39
0.2091703564 -0.03127248585 -0.0565107204 2.167082852e-39
0.1157201231 -0.0271556098 -0.2003010362 2.167082852e-39
0.2976962626 -0.02708275616 -0.04528374225 2.167082852e-39
0.1127582043 -0.0178707093 -0.3510322571 2.167082852e-39
0.160549432 -0.03206979111 -0.08582276851 2.167082852e-39
0.1130123585 -0.025737077 -0.2355971336 2.167082852e-39
0.356231004 -0.02689947002 -0.04000527784 2.167082852e-39
0.1127321422 -0.02275871113 -0.2875263095 2.167082852e-39
0.1930410117 -0.03192789108 -0.05931384116 2.167082852e-39
0.1158609912 -0.02673823386 -0.2046795338 2.167082852e-39
0.3039607704 -0.02732635476 -0.04421826452 2.167082852e-39
0.1117595807 -0.02025926486 -0.3228562772 2.167082852e-39
0.1741262227 -0.03166935593 -0.07529646903 2.167082852e-39
0.1145022586 -0.02611633204 -0.2211606503 2.167082852e-39
0.2680068314 -0.02858639881 -0.04805361107 2.167082852e-39
0.1124394536 -0.01651765592 -0.3751363158 2.167082852e-39
0.1335107386 -0.02906094864 -0.1275228858 2.167082852e-39
0.1137920395 -0.02422943339 -0.2558155358 2.167082852e-39
0.2589578927 -0.0301789958 -0.04748646915 2.167082852e-39
0.108153291 -0.02322839573 -0.2890640795 2.167082852e-39
0.1921822876 -0.03121301532 -0.05994696915 2.167082852e-39
0.1183778718 -0.0271839425 -0.1862022132 2.167082852e-39
0.2259090543 -0.02989631891 -0.05349002033 2.167082852e-39
0.1156882346 -0.0162870083 -0.3711308539 2.167082852e-39
-0.07661553472 -0.007142526563 -0.04030869156 1.435982003e-39
-0.2515116036 0.001689298311 -0.02738497593 1.435982003e-39
-0.1527063102 -0.01002120972 -0.03440626338 1.435982003e-39
-0.202823177 -0.00193008536 -0.02842762507 1.435982003e-39
-0.0372537747 -0.003734243335 -0.04283131659 1.435982003e-39
-0.3007728755 -0.0170281902 -0.0200361684 1.435982003e-39
-0.04392894357 -0.007815976627 -0.04100362957 1.435982003e-39
-0.102936089 -0.005089067854 -0.03985613585 1.435982003e-39
0.09808883071 -0.005123414099 -0.04405847192 1.435982003e-39
-0.204077825 -0.0001412555575 -0.02871749923 1.435982003e-39
-0.04735747725 -0.008260993287 -0.04058779404 1.435982003e-39
-0.1376044005 -0.0007284580497 -0.04056336731 1.435982003e-39
0.1000096649 -2.07722187e-05 -0.04441590607 1.435982003e-39
-0.2637970746 -0.005315722898 -0.02488354594 1.435982003e-39
0.01070197765 -0.008506368846 -0.04186051339 1.435982003e-39
-0.08962731808 4.772096872e-05 -0.04242346808 1.435982003e-39
0.1179955974 -0.003368633101 -0.04414925724 1.435982003e-39
-0.2256746441 -0.0005070045008 -0.02707391046 1.435982003e-39
-0.05465965718 -0.009283611551 -0.04037619382 1.435982003e-39
-0.1419557184 -0.001681236783 -0.03974430263 1.435982003e-39
0.1072192192 -0.002087344183 -0.04424919561 1.435982003e-39
-0.247885406 -0.00491923606 -0.02485664189 1.435982003e-39
-0.1359433681 -0.008648872375 -0.03679056093 1.435982003e-39
-0.1868187189 0.0007876379532 -0.03232738748 1.435982003e-39
-0.01228296105 -0.003851633053 -0.04321027175 1.435982003e-39
-0.2858483195 -0.01616971008 -0.02084174938 1.435982003e-39
-0.103302747 -0.0005507841124 -0.04172739759 1.435982003e-39
-0.1437485516 -0.0009358149837 -0.03999763355 1.435982003e-39
-0.0554006137 -0.01116069965 -0.04052860662 1.435982003e-39
-0.2078723162 -0.005454501137 -0.02631511912 1.435982003e-39
-0.1431460381 -0.007896639407 -0.03593158722 1.435982003e-39
-0.2191196829 -0.001674456871 -0.02702364512 1.435982003e-39
0.1306642294 -0.03052718565 0.2555426657 7.045238224e-40
0.08336159587 -0.03704176843 0.2187645286 7.045238224e-40
0.1086006761 -0.02195544541 0.4052017331 7.045238224e-40
0.09975067526 -0.03155628219 0.3048934042 7.045238224e-40
0.1008735076 -0.03142351657 0.3037610948 7.045238224e-40
0.08564724773 -0.03647923842 0.2288059443 7.045238224e-40
0.0932700187 -0.03086186759 0.3262566924 7.045238224e-40
0.07211489975 -0.04095935449 0.1741679013 7.045238224e-40
0.1078810021 -0.03493646532 0.2352882922 7.045238224e-40
0.07919042557 -0.04950715229 0.1157393456 7.045238224e-40
0.1144114956 -0.0206069462 0.4020396769 7.045238224e-40
0.07287519425 -0.03826604038 0.2131837308 7.045238224e-40
0.09921257943 -0.03386166692 0.2776737213 7.045238224e-40
0.07356417179 -0.04284773394 0.1517990828 7.045238224e-40
0.0963960886 -0.02850680798 0.3532145321 7.045238224e-40
0.07928948849 -0.03855233639 0.1980509162 7.045238224e-40
0.1108592749 -0.03428770602 0.2407355011 7.045238224e-40
0.07842712849 -0.04887138307 0.1197080985 7.045238224e-40
0.1020064652 -0.02595189586 0.3743088841 7.045238224e-40
0.07407125086 -0.03747710586 0.2266362756 7.045238224e-40
0.1071025208 -0.03393344209 0.2564207017 7.045238224e-40
0.0747968331 -0.04394423589 0.14553608 7.045238224e-40
0.1141301095 -0.02082436346 0.4010341167 7.045238224e-40
0.07429280132 -0.03692513332 0.2449096143 7.045238224e-40
0.09879800677 -0.03318751231 0.2878278494 7.045238224e-40
0.09074479342 -0.03749890625 0.2069453448 7.045238224e-40
0.1059984565 -0.02955423295 0.3213985562 7.045238224e-40
0.07715689391 -0.03911162168 0.1899754256 7.045238224e-40
0.09592770785 -0.03517359123 0.2512333095 7.045238224e-40
0.08208473027 -0.0426451005 0.141141817 7.045238224e-40
0.1116860658 -0.02925446443 0.3137259781 7.045238224e-40
0.07803618163 -0.03718068823 0.2257742137 7.045238224e-40
-0.3067890406 -0.002508682897 -0.02809982002 6.490113838e-41
-0.2830162346 -0.005523838568 -0.04806482792 6.490113838e-41
-0.2793596089 -0.005051601678 -0.005294102244 6.490113838e-41
-0.2291982323 -0.008692288771 -0.01790849864 6.490113838e-41
-0.320726037 -0.004264872521 -0.03500177711 6.490113838e-41
-0.262078464 -0.006731365807 -0.02793605812 6.490113838e-41
-0.3042587042 -0.002690476365 -0.03019139916 6.490113838e-41
-0.2602353692 -0.007014854345 -0.0337532647 6.490113838e-41
-0.3297780752 -0.002214689273 -0.06040484831 6.490113838e-41
-0.2966322899 -0.004489523824 -0.07579177618 6.490113838e-41
-0.2837632 -0.004568697885 -0.02476815879 6.490113838e-41
-0.2284478098 -0.009541139938 -0.02575471625 6.490113838e-41
-0.329256624 -0.002155669499 -0.05469557643 6.490113838e-41
-0.2805462182 -0.004862644244 -0.03653714061 6.490113838e-41
-0.3072065711 -0.002499776427 -0.03015412949 6.490113838e-41
-0.2424073666 -0.008273915388 -0.03170066327 6.490113838e-41
-0.329139024 -0.002124050632 -0.06394694 6.490113838e-41
-0.3072040677 -0.002977423836 -0.07136887312 6.490113838e-41
-0.2995796204 -0.003004373284 -0.02900400572 6.490113838e-41
-0.2376165092 -0.008746546693 -0.02737022378 6.490113838e-41
-0.3302342594 -0.002201287309 -0.06040297076 6.490113838e-41
-0.3054570556 -0.004415111151 -0.05965474993 6.490113838e-41
-0.2706366777 -0.005404598545 -0.01442794222 6.490113838e-41
-0.2157331258 -0.009868647903 -0.01997049525 6.490113838e-41
-0.322899729 -0.00353931752 -0.03950657696 6.490113838e-41
-0.2721824348 -0.005640156567 -0.03120925464 6.490113838e-41
-0.2890386283 -0.003647069447 -0.01535371691 6.490113838e-41
-0.2683415413 -0.006364817265 -0.03145962209 6.490113838e-41
-0.2941165268 -0.003676969791 -0.03629139066 6.490113838e-41
-0.2769685388 -0.006215104368 -0.04532625899 6.490113838e-41
-0.26112023 -0.00667141797 -0.01604131795 6.490113838e-41
-0.2171158195 -0.009620425291 -0.01853023656 6.490113838e-41
0.1215268746 -0.06919045746 0.0356099233 8.028094954e-40
0.1579813957 -0.03194594756 0.1095266417 8.028094954e-40
0.1064655781 -0.05764618888 0.07533951849 8.028094954e-40
0.2568940222 -0.05390604958 0.06452747434 8.028094954e-40
0.1548674554 -0.06524153799 0.05635239184 8.028094954e-40
0.1000550538 -0.03462497517 0.1138868332 8.028094954e-40
-0.07540547103 -0.05748416856 0.03941487893 8.028094954e-40
0.1615454704 -0.05907891691 0.07058739662 8.028094954e-40
0.04756405205 -0.06761863828 0.04782529175 8.028094954e-40
0.1923933774 -0.0490254052 0.08262769878 8.028094954e-40
-0.07625426352 -0.05774064362 0.03956770152 8.028094954e-40
0.2329240888 -0.05768624321 0.06001871452 8.028094954e-40
0.09481234103 -0.06487799436 0.06208084896 8.028094954e-40
0.1244975999 -0.03989876434 0.1027461514 8.028094954e-40
-0.1412435174 -0.05209093168 0.03736365214 8.028094954e-40
0.1855852306 -0.06153031811 0.06271045655 8.028094954e-40
0.06495736539 -0.06849066168 0.04822836816 8.028094954e-40
0.172770977 -0.04397056997 0.09195332229 8.028094954e-40
-0.05437262729 -0.05762414634 0.04384659603 8.028094954e-40
0.1918716282 -0.05489068851 0.07477653027 8.028094954e-40
0.0662477389 -0.06833658367 0.04875116795 8.028094954e-40
0.1519414186 -0.04047565535 0.09988544881 8.028094954e-40
-0.007609071676 -0.06325256079 0.04140964895 8.028094954e-40
0.2354414612 -0.05139920488 0.07153397053 8.028094954e-40
0.1254753917 -0.06942918152 0.04810362309 8.028094954e-40
0.09027969837 -0.04219226539 0.09625917673 8.028094954e-40
-0.02001656592 -0.05903284997 0.05048096925 8.028094954e-40
0.1619668901 -0.05013563111 0.08365818858 8.028094954e-40
0.0243436005 -0.06606986374 0.04455466941 8.028094954e-40
0.1821665615 -0.05889138579 0.06550902128 8.028094954e-40
0.049119059 -0.06519239396 0.05306539312 8.028094954e-40
0.2227632999 -0.05474625155 0.06552371383 8.028094954e-40
0.09474021196 -0.02568923123 -0.2127049863 1.540360521e-39
0.04292821139 -0.0333677046 -0.2408815324 1.540360521e-39
0.03083698638 -0.03571622446 -0.2296664417 1.540360521e-39
0.1412459612 -0.03203249723 -0.1335806251 1.540360521e-39
0.07504639775 -0.02927726321 -0.2318807691 1.540360521e-39
0.1101202294 -0.03900981322 -0.04981341213 1.540360521e-39
0.1123920754 -0.02825994603 -0.1459035873 1.540360521e-39
0.03857344761 -0.041331321 -0.04434791207 1.540360521e-39
0.1234054267 -0.02381093614 -0.2000471205 1.540360521e-39
0.05659810826 -0.03154560551 -0.1823691279 1.540360521e-39
0.06084387004 -0.03249692544 -0.1403146833 1.540360521e-39
0.1101881936 -0.03472171724 -0.08688312024 1.540360521e-39
0.1120513231 -0.02456379868 -0.2318408191 1.540360521e-39
0.108262457 -0.0348431468 -0.08675427735 1.540360521e-39
0.08779302239 -0.0326301679 -0.1092071757 1.540360521e-39
0.07793176919 -0.03704274073 -0.06626761705 1.540360521e-39
0.1259959638 -0.02267329581 -0.2206367999 1.540360521e-39
0.06736884266 -0.02928143926 -0.1722646803 1.540360521e-39
0.06170781702 -0.03034554608 -0.1638485789 1.540360521e-39
0.1046648622 -0.03423596919 -0.08925403655 1.540360521e-39
0.1182478368 -0.02357390337 -0.2274350375 1.540360521e-39
0.08657807857 -0.02828510106 -0.1552883536 1.540360521e-39
0.04763707891 -0.03255429864 -0.1525072604 1.540360521e-39
0.1404358298 -0.03253602609 -0.1263836622 1.540360521e-39
0.09447664768 -0.02616802976 -0.2212551981 1.540360521e-39
0.1153089032 -0.04178567231 -0.03799151257 1.540360521e-39
0.06998557597 -0.03324610367 -0.1176522523 1.540360521e-39
0.04915075377 -0.03757310659 -0.07920183241 1.540360521e-39
0.1101107895 -0.02697358653 -0.1647290438 1.540360521e-39
0.03017120436 -0.039858412 -0.07867631316 1.540360521e-39
0.06519050896 -0.0331113562 -0.121694915 1.540360521e-39
0.06770443171 -0.03390365094 -0.1043097228 1.540360521e-39
0.122015357 -0.01985402964 0.03995358944 2.277910146e-39
-0.1839164793 -0.01779705845 0.03064476885 2.277910146e-39
0.280697763 -0.01821205579 0.03775306046 2.277910146e-39
-0.08458916098 -0.01976294443 0.03575122729 2.277910146e-39
0.04567292333 -0.02039917 0.04103213921 2.277910146e-39
-0.1139557436 -0.01620624587 0.03469071537 2.277910146e-39
0.3037880361 -0.01857289858 0.0364702493 2.277910146e-39
0.06318197399 -0.01990171708 0.04025659338 2.277910146e-39
0.1973689049 -0.01784466021 0.03790211678 2.277910146e-39
-0.1919522732 -0.01695903949 0.03005604818 2.277910146e-39
0.3212983012 -0.01807875559 0.03529030085 2.277910146e-39
0.02278955467 -0.02102952264 0.03961846977 2.277910146e-39
0.1546732932 -0.0180439651 0.03841394559 2.277910146e-39
-0.07950552553 -0.01831170358 0.03567914292 2.277910146e-39
0.3705813885 -0.01869381033 0.02923703007 2.277910146e-39
0.04978777841 -0.02014701068 0.04002825171 2.277910146e-39
0.2035407871 -0.01771298237 0.03778252006 2.277910146e-39
-0.1661753654 -0.01914049126 0.03149724752 2.277910146e-39
0.3401303291 -0.01885307766 0.03448717296 2.277910146e-39
0.01879634522 -0.02033972368 0.03974198923 2.277910146e-39
0.1779738814 -0.01781564951 0.03819537535 2.277910146e-39
-0.1242902949 -0.01844138093 0.03357883543 2.277910146e-39
0.2229307592 -0.01829615235 0.03808478266 2.277910146e-39
-0.03176404163 -0.01861973293 0.03777303174 2.277910146e-39
0.07508597523 -0.01875118911 0.03929370642 2.277910146e-39
-0.09337592125 -0.01589857973 0.03540312871 2.277910146e-39
0.1963374764 -0.01757778227 0.03813556954 2.277910146e-39
0.08437845111 -0.01911734231 0.03979252651 2.277910146e-39
0.1741485149 -0.0193271786 0.03857076168 2.277910146e-39
-0.05318763107 -0.01714636758 0.03708770499 2.277910146e-39
0.1863656044 -0.01845279895 0.03839654475 2.277910146e-39
0.07446335256 -0.01666132361 0.0391372256 2.277910146e-39
0.002502222545 0.006917226594 0.01776480861 3.015101038e-39
-0.02866575494 -0.0005940703559 0.0232764408 3.015101038e-39
0.0996921435 -0.0003774282231 0.08505606651 3.015101038e-39
0.1050364301 -0.005815984216 0.1033309698 3.015101038e-39
-0.04317091778 0.0119073363 0.009038096294 3.015101038e-39
-0.09796617925 -0.004393396899 0.020146586 3.015101038e-39
0.183594048 0.009315613657 0.05924697593 3.015101038e-39
0.1920557618 -0.004122097511 0.1242568195 3.015101038e-39
0.118035987 0.01220749319 0.04681475088 3.015101038e-39
0.06439713389 0.003472896293 0.05524142459 3.015101038e-39
0.1886478812 0.01163837593 0.04842422903 3.015101038e-39
0.1302161217 0.003084720578 0.0767191276 3.015101038e-39
0.01534701325 0.01209549792 0.01280205604 3.015101038e-39
-0.02974727191 -0.003045968479 0.02813601866 3.015101038e-39
0.2018036991 0.01181893982 0.04906527698 3.015101038e-39
0.1796635836 0.0003528801899 0.09697826207 3.015101038e-39
0.06433539838 0.01050196774 0.02901807241 3.015101038e-39
0.03232329339 4.807161167e-05 0.04588428885 3.015101038e-39
0.1489329338 0.007717070635 0.06101939827 3.015101038e-39
0.1500182003 -0.001611042069 0.09765195101 3.015101038e-39
0.0272430256 0.01137766894 0.01603430323 3.015101038e-39
-0.01332540531 -0.001726152492 0.0298809316 3.015101038e-39
0.1502784193 0.009890720248 0.05467965826 3.015101038e-39
0.09268131852 -0.00074897788 0.08309882134 3.015101038e-39
-0.01878418401 0.01398444269 0.009158080444 3.015101038e-39
-0.0697183758 -0.004259494599 0.02108715475 3.015101038e-39
0.1786847562 0.01222035009 0.04831847548 3.015101038e-39
0.1606951952 -0.0006296627107 0.09634710103 3.015101038e-39
0.1694245636 0.01420647278 0.03903057426 3.015101038e-39
0.1118054017 0.005485139787 0.0681572184 3.015101038e-39
0.2204360068 0.01578173414 0.03986497968 3.015101038e-39
0.02835490927 0.005630071275 0.02792293578 3.015101038e-39
0.1007614583 -0.01870337687 0.4299005866 3.75229193e-39
0.1088670343 -0.02335305884 0.361331284 3.75229193e-39
0.1044631824 -0.01677477174 0.4424450397 3.75229193e-39
0.1012275219 -0.02910272218 0.3179399669 3.75229193e-39
0.109390296 -0.01960241795 0.4046123922 3.75229193e-39
0.09911078215 -0.02423257567 0.3599987328 3.75229193e-39
0.1099429578 -0.02257386036 0.3612139821 3.75229193e-39
0.1011501998 -0.06336876005 0.06724759936 3.75229193e-39
0.1029405221 -0.02507835254 0.3465467691 3.75229193e-39
0.1316012144 -0.03860384971 0.2008374333 3.75229193e-39
0.09313695133 -0.01811992191 0.4069397449 3.75229193e-39
0.06718937308 -0.05817227811 0.1538991034 3.75229193e-39
0.1233091429 -0.03496037051 0.2371911258 3.75229193e-39
0.08351026475 -0.03058891557 0.3090352416 3.75229193e-39
0.09704594314 -0.01975893416 0.3874984086 3.75229193e-39
0.09029874206 -0.05808851868 0.1181565151 3.75229193e-39
0.1139113903 -0.02849491313 0.308206588 3.75229193e-39
0.1062077582 -0.03342590481 0.2682352662 3.75229193e-39
0.105440788 -0.01867329516 0.4029134512 3.75229193e-39
0.0885688588 -0.05322989076 0.1537794024 3.75229193e-39
0.1178817227 -0.028080035 0.3111810386 3.75229193e-39
0.1000980809 -0.03369116038 0.2719694078 3.75229193e-39
0.1065632626 -0.02009778284 0.382558912 3.75229193e-39
0.08184468001 -0.04557707906 0.2129115015 3.75229193e-39
0.1247977093 -0.03564811125 0.2353575528 3.75229193e-39
0.08689706773 -0.02847603336 0.3276044726 3.75229193e-39
0.0963486135 -0.03012027033 0.3161293268 3.75229193e-39
0.07113997638 -0.05317974836 0.1816368848 3.75229193e-39
0.09031051397 -0.03393568471 0.2821674645 3.75229193e-39
0.1131112948 -0.03863424808 0.2210218161 3.75229193e-39
0.08354829997 -0.03878193349 0.2550981641 3.75229193e-39
0.08632544428 -0.03919932246 0.2455489635 3.75229193e-39
0.1219018027 0.008533573709 0.03941358998 4.48912409e-39
0.2484484911 0.01499022916 0.03067713603 4.48912409e-39
0.1754600704 0.01677732915 0.03089844249 4.48912409e-39
0.3313998878 0.0003341920674 0.0217795372 4.48912409e-39
0.1655511111 0.0114705218 0.03774818406 4.48912409e-39
0.1558898985 0.01104934607 0.03773568571 4.48912409e-39
-0.05341513455 -0.001637524343 0.04233669117 4.48912409e-39
0.2394203246 0.01370149199 0.03362212703 4.48912409e-39
0.05890716612 0.003123062663 0.04148806632 4.48912409e-39
0.2365540117 0.01662947983 0.02876252122 4.48912409e-39
-0.07732437551 -0.00276452722 0.04323992133 4.48912409e-39
0.32296893 0.002963700099 0.02308899164 4.48912409e-39
0.0967630446 0.006538972259 0.03966822103 4.48912409e-39
0.1548084915 0.009593859315 0.03947740048 4.48912409e-39
-0.1145613119 -0.004421985708 0.04574335739 4.48912409e-39
0.2795172334 0.01306852605 0.02834139951 4.48912409e-39
0.06804936379 0.00363168749 0.04134046286 4.48912409e-39
0.234651342 0.01419366151 0.03359355405 4.48912409e-39
-0.04514679313 -0.002051916905 0.04368016869 4.48912409e-39
0.2954393625 0.01049729437 0.02649854496 4.48912409e-39
0.08170560002 0.005560722668 0.03987658396 4.48912409e-39
0.217829898 0.01235457417 0.03678546846 4.48912409e-39
0.03787278756 0.004631666932 0.03884755075 4.48912409e-39
0.3222516477 0.003315891139 0.02297344245 4.48912409e-39
0.1174809113 0.004479777068 0.04496526346 4.48912409e-39
0.1470600963 0.01059236471 0.03769244999 4.48912409e-39
0.01325049903 0.002020808868 0.04061187431 4.48912409e-39
0.218693465 0.008008856326 0.04733842239 4.48912409e-39
0.05382400751 7.589533925e-05 0.04625099152 4.48912409e-39
0.1685947925 0.01332282554 0.03514553979 4.48912409e-39
0.04116987437 0.003141055815 0.04085553437 4.48912409e-39
0.2731809914 0.01323183347 0.0297321137 4.48912409e-39
0.3300481141 -0.01668403484 -0.08062833548 5.225597518e-39
0.1834875196 -0.03126711771 -0.06735346466 5.225597518e-39
0.3057322502 -0.02578261867 -0.07094178349 5.225597518e-39
0.1269309521 -0.0461566411 -0.06273946166 5.225597518e-39
0.3452712595 -0.01919008605 -0.07327695936 5.225597518e-39
0.2318691164 -0.02951123752 -0.06403753906 5.225597518e-39
0.2082769722 -0.04232753068 -0.05147938803 5.225597518e-39
0.06967359781 -0.04693223163 -0.08021580428 5.225597518e-39
0.2619993091 -0.03535204753 -0.05722111836 5.225597518e-39
0.1522144824 -0.04362556338 -0.05728434026 5.225597518e-39
0.2241799235 -0.04302413017 -0.04943622649 5.225597518e-39
0.09446921945 -0.04744518921 -0.07942326367 5.225597518e-39
0.3110202849 -0.03278348967 -0.05510625243 5.225597518e-39
0.1660725772 -0.04620711133 -0.05020888522 5.225597518e-39
0.1972688287 -0.03837683052 -0.05765452236 5.225597518e-39
0.08204909414 -0.04846011475 -0.08124224097 5.225597518e-39
0.2440690398 -0.02915931679 -0.06683027744 5.225597518e-39
0.1441608667 -0.04017690197 -0.06602396816 5.225597518e-39
0.2311540693 -0.04125968739 -0.05087757856 5.225597518e-39
0.09809046984 -0.04569216818 -0.07866681367 5.225597518e-39
0.2874840498 -0.03088306077 -0.06427461654 5.225597518e-39
0.1587120146 -0.04126194865 -0.05955088139 5.225597518e-39
0.255943954 -0.05027618259 -0.04278542846 5.225597518e-39
0.1298394203 -0.04617672786 -0.06099149212 5.225597518e-39
0.3120796978 -0.03744300827 -0.05016340315 5.225597518e-39
0.1980159134 -0.04061939195 -0.05488361418 5.225597518e-39
0.2507410347 -0.05331024155 -0.0401121974 5.225597518e-39
0.1040444523 -0.04437919706 -0.07757854462 5.225597518e-39
0.2267674208 -0.04228338227 -0.04991447181 5.225597518e-39
0.1578506976 -0.04416177049 -0.05479466543 5.225597518e-39
0.2668548822 -0.06245564669 -0.03534870967 5.225597518e-39
0.145208329 -0.04407996684 -0.05825553462 5.225597518e-39
-0.08975186944 0.001540112076 -0.04476863146 5.962428276e-39
-0.0307135433 -0.005898716394 -0.06060114875 5.962428276e-39
-0.1080180183 0.01130834781 -0.02528875507 5.962428276e-39
0.1198931336 0.005713251885 -0.03485511243 5.962428276e-39
-0.1511778384 0.001412215643 -0.03976529092 5.962428276e-39
0.08641076833 -0.009414506145 -0.0709989816 5.962428276e-39
-0.2406026125 0.01020905282 -0.01121759322 5.962428276e-39
-0.06183850393 0.007139717694 -0.03297404945 5.962428276e-39
-0.2817142904 0.003762298264 -0.02486916259 5.962428276e-39
-0.1052811816 -0.001927384525 -0.04715721309 5.962428276e-39
-0.1922115386 0.01244097855 -0.00923990272 5.962428276e-39
0.08405853808 0.003079114016 -0.04390213639 5.962428276e-39
-0.2461411059 0.0006562358467 -0.03132474795 5.962428276e-39
-0.006264358759 -0.002711259527 -0.0541867353 5.962428276e-39
-0.2563512921 0.01014058571 -0.006704043597 5.962428276e-39
0.0271899607 0.005768630188 -0.03883846849 5.962428276e-39
-0.2947624922 0.003914079163 -0.02442317456 5.962428276e-39
-0.09118919075 -0.002298239386 -0.0497151278 5.962428276e-39
-0.2093834281 0.01167643629 -0.01084670331 5.962428276e-39
0.04363314435 0.004789680708 -0.04146233946 5.962428276e-39
-0.273761481 0.00253752456 -0.02712429129 5.962428276e-39
-0.06641753018 -0.001696715364 -0.05021903664 5.962428276e-39
-0.106025897 0.01093728468 -0.02545980737 5.962428276e-39
0.12955755 5.885213614e-05 -0.0488787666 5.962428276e-39
-0.1923408657 0.0003954618878 -0.03681485355 5.962428276e-39
0.06761053205 -0.003701468697 -0.05840582773 5.962428276e-39
-0.0141344713 0.003529202426 -0.04436807334 5.962428276e-39
0.05631506816 -0.005166685674 -0.05892322212 5.962428276e-39
-0.157195732 0.003541823477 -0.03504928946 5.962428276e-39
-0.09092863649 -0.002770327497 -0.05056102574 5.962428276e-39
-0.001721134526 0.004402735736 -0.04591168091 5.962428276e-39
0.1241039783 -0.003814414376 -0.05917490274 5.962428276e-39
0.07985766232 -0.01949912682 0.3985099494 6.698542971e-39
0.09544656426 -0.02990143746 0.2495670766 6.698542971e-39
0.0834691003 -0.02328203432 0.3355512917 6.698542971e-39
0.1142210513 -0.02693840303 0.2136615515 6.698542971e-39
0.07429579645 -0.0162336491 0.4313338995 6.698542971e-39
0.07971464843 -0.02487796731 0.3157862425 6.698542971e-39
0.07750424743 -0.02064693905 0.3830183744 6.698542971e-39
0.160959959 -0.02824074775 0.1854076982 6.698542971e-39
0.0695939064 -0.01480175834 0.4472951591 6.698542971e-39
0.1068178862 -0.02573844977 0.2558090687 6.698542971e-39
0.08359510452 -0.02173589543 0.3613851666 6.698542971e-39
0.1644786149 -0.0254479479 0.2092591077 6.698542971e-39
0.06913807988 -0.01364051923 0.4470183849 6.698542971e-39
0.09959089011 -0.02414437942 0.3009495735 6.698542971e-39
0.07442262024 -0.02001083456 0.3939110041 6.698542971e-39
0.1713477373 -0.02645293623 0.1858626306 6.698542971e-39
0.06777895242 -0.01397438999 0.4461480081 6.698542971e-39
0.113644585 -0.0278775543 0.2491591871 6.698542971e-39
0.08191826195 -0.02196582966 0.3599255383 6.698542971e-39
0.1436880678 -0.02604112402 0.2241055667 6.698542971e-39
0.06939825416 -0.01430400461 0.4471158683 6.698542971e-39
0.1092740446 -0.02741493843 0.2601696253 6.698542971e-39
0.08594849706 -0.02266484872 0.3427996933 6.698542971e-39
0.1391166598 -0.02651607059 0.2365442216 6.698542971e-39
0.07090608031 -0.01531146746 0.4396925867 6.698542971e-39
0.08745681494 -0.02503119037 0.3123334944 6.698542971e-39
0.08839634061 -0.02268306166 0.3375448287 6.698542971e-39
0.141183272 -0.03139078617 0.1946040839 6.698542971e-39
0.08093286306 -0.01754560508 0.4506812394 6.698542971e-39
0.1130585074 -0.02714711055 0.2595011294 6.698542971e-39
0.1100318134 -0.02500721067 0.3147807121 6.698542971e-39
0.1129498482 -0.02654884569 0.271668613 6.698542971e-39
0.1331911683 -0.05890290439 0.06097610667 7.434656265e-39
-0.05606653541 -0.06010016054 0.02597491257 7.434656265e-39
0.0741622299 -0.06286082417 0.04217140377 7.434656265e-39
0.06828079373 -0.05916275457 0.0680738017 7.434656265e-39
0.1285478473 -0.05743471533 0.07251495868 7.434656265e-39
-0.05044131353 -0.05950699374 0.03738561645 7.434656265e-39
0.09164073318 -0.05849684775 0.06582292914 7.434656265e-39
-0.04066042975 -0.06067706272 0.03246227279 7.434656265e-39
0.1789218783 -0.05511650071 0.08941698819 7.434656265e-39
-0.1217580587 -0.05852977931 0.02146362141 7.434656265e-39
0.09876747429 -0.06245516613 0.03885357454 7.434656265e-39
0.02979697101 -0.06181934103 0.04949935526 7.434656265e-39
0.1707439423 -0.05572668836 0.08472736925 7.434656265e-39
-0.07452946901 -0.05996782333 0.03049886972 7.434656265e-39
0.1261850744 -0.06024484709 0.05471717939 7.434656265e-39
-0.003391394392 -0.06134894863 0.03775947168 7.434656265e-39
0.181344375 -0.05562664196 0.08825977147 7.434656265e-39
-0.1109589711 -0.05894615874 0.02517584525 7.434656265e-39
0.1067357287 -0.06136328727 0.04567862675 7.434656265e-39
0.009531157091 -0.06119017676 0.04456679523 7.434656265e-39
0.1756949872 -0.05580837652 0.08598085493 7.434656265e-39
-0.07446029782 -0.05964064971 0.02989738993 7.434656265e-39
0.06921173632 -0.06529998779 0.03258265182 7.434656265e-39
0.03050973825 -0.05901933089 0.07862709463 7.434656265e-39
0.1344386786 -0.05826792493 0.06438784301 7.434656265e-39
-0.05203577131 -0.05964787677 0.03580494225 7.434656265e-39
0.0556146279 -0.06053648517 0.06014884263 7.434656265e-39
-0.01328478847 -0.06105900556 0.06058523804 7.434656265e-39
0.05572639033 -0.06072728708 0.05739143491 7.434656265e-39
-0.1208587363 -0.05840134621 0.019176092 7.434656265e-39
0.04083203152 -0.06764023751 0.009101079777 7.434656265e-39
0.09644347429 -0.06214356795 0.03974740207 7.434656265e-39
0.1885110885 -0.03770413995 0.0487803407 8.170410826e-39
0.1510276645 -0.04005692899 0.09252418578 8.170410826e-39
0.2770383656 -0.02127687633 0.02831445634 8.170410826e-39
0.1245222315 -0.03838128224 0.1383295804 8.170410826e-39
0.1946595311 -0.03872919828 0.04867305607 8.170410826e-39
0.2106391639 -0.04441043735 0.04841613397 8.170410826e-39
0.3309997022 -0.02607157268 0.02774321474 8.170410826e-39
0.0478139706 -0.0429684259 0.2974550128 8.170410826e-39
0.235988453 -0.03182326257 0.03757043555 8.170410826e-39
0.1469294876 -0.040785335 0.1147548109 8.170410826e-39
0.2943240404 -0.0267869588 0.03006863594 8.170410826e-39
0.08802818507 -0.03839287162 0.2055210024 8.170410826e-39
0.2098671645 -0.04082239047 0.04616280273 8.170410826e-39
0.1835274398 -0.04768479988 0.06155429035 8.170410826e-39
0.3252150714 -0.02737284824 0.02889846824 8.170410826e-39
0.06647343934 -0.03999590501 0.261487931 8.170410826e-39
0.2440489382 -0.03109720163 0.03644180298 8.170410826e-39
0.1619208604 -0.04328595474 0.09240136296 8.170410826e-39
0.3101600409 -0.02112194337 0.02610726282 8.170410826e-39
0.07328063995 -0.03814176843 0.23681885 8.170410826e-39
0.2215208113 -0.03419433907 0.04039987922 8.170410826e-39
0.1791148633 -0.04697297141 0.06864788383 8.170410826e-39
0.2570307255 -0.02870889194 0.03393691033 8.170410826e-39
0.09991908818 -0.03850753978 0.1822198331 8.170410826e-39
0.1979949772 -0.03723084927 0.04631787166 8.170410826e-39
0.2064645141 -0.04587870464 0.0512053743 8.170410826e-39
0.240754202 -0.03643976897 0.03964018449 8.170410826e-39
0.06608919799 -0.03833308071 0.2484493852 8.170410826e-39
0.2174879164 -0.04263914376 0.04636232555 8.170410826e-39
0.1543519944 -0.04118467867 0.1045873091 8.170410826e-39
0.2224163562 -0.04198661447 0.04535892233 8.170410826e-39
0.1087737381 -0.03737620637 0.1543061137 8.170410826e-39
0.1357871741 -0.03148860112 0.08771891147 8.906165387e-39
0.1646686941 -0.03252385184 0.1434884518 8.906165387e-39
0.1538559496 -0.03139488399 0.1783940643 8.906165387e-39
0.1021570712 -0.02453351393 0.2564506829 8.906165387e-39
0.1276842058 -0.03129821271 0.05088263005 8.906165387e-39
0.1245519221 -0.03081170097 0.09352969378 8.906165387e-39
0.1183852702 -0.02742310241 0.2391552776 8.906165387e-39
0.08165011555 -0.01974072121 0.3144697845 8.906165387e-39
0.1330715418 -0.03109028377 0.1324331611 8.906165387e-39
0.1166696474 -0.02869193815 0.1954188943 8.906165387e-39
0.1201918498 -0.02794745192 0.2307103574 8.906165387e-39
0.08588732034 -0.02101216279 0.3035318553 8.906165387e-39
0.1189943925 -0.03097648546 0.09104902297 8.906165387e-39
0.1205733716 -0.02976755984 0.1752472818 8.906165387e-39
0.1114049479 -0.02675259486 0.2608609498 8.906165387e-39
0.08053546399 -0.01932938583 0.317373395 8.906165387e-39
0.1283538789 -0.03055059165 0.1199059859 8.906165387e-39
0.112904802 -0.02826601826 0.1977529675 8.906165387e-39
0.1244369373 -0.02831769362 0.2269986421 8.906165387e-39
0.0856025666 -0.02088869736 0.2982340157 8.906165387e-39
0.1257860363 -0.03048806265 0.1041200534 8.906165387e-39
0.1268121749 -0.03016678244 0.1679680645 8.906165387e-39
0.1461853832 -0.03053599596 0.2047896981 8.906165387e-39
0.09783753008 -0.02330611646 0.2649842501 8.906165387e-39
0.1157459021 -0.03064013086 0.05938702449 8.906165387e-39
0.08027703315 -0.02919646353 0.114880465 8.906165387e-39
0.1312110424 -0.0290258415 0.2336409241 8.906165387e-39
0.09388776124 -0.02228455059 0.2595221996 8.906165387e-39
0.1258140504 -0.02992157079 0.1742378175 8.906165387e-39
0.08713235706 -0.02440057509 0.2231174856 8.906165387e-39
0.139746666 -0.02973753028 0.1993199736 8.906165387e-39
0.09396868944 -0.02552591264 0.2161478251 8.906165387e-39
0.04848567769 -0.04330129176 0.04861491546 9.641561216e-39
-0.01466671284 -0.06071585417 0.05742987245 9.641561216e-39
-0.03860055283 -0.04321365431 0.04637454078 9.641561216e-39
-0.1340104938 -0.04247203842 0.04575590044 9.641561216e-39
0.1415425241 -0.04067021981 0.05053043365 9.641561216e-39
0.03363960981 -0.06436318904 0.06489925086 9.641561216e-39
-0.1142479032 -0.04009511322 0.04475784302 9.641561216e-39
-0.2303730398 -0.04365749657 0.04332490638 9.641561216e-39
-0.004453331698 -0.04218981043 0.04693447426 9.641561216e-39
-0.02967169695 -0.04863952845 0.04999328032 9.641561216e-39
-0.07544369996 -0.04069786146 0.04530541226 9.641561216e-39
-0.1789349616 -0.04251592234 0.04423871636 9.641561216e-39
0.05324231088 -0.04148294032 0.04875215515 9.641561216e-39
0.04356529191 -0.05148426443 0.05145388097 9.641561216e-39
-0.1173359379 -0.04213902727 0.04586460441 9.641561216e-39
-0.2053911388 -0.04310668632 0.04381682724 9.641561216e-39
0.002567509189 -0.04160007462 0.04709405452 9.641561216e-39
-0.03843035176 -0.04852730408 0.04984488711 9.641561216e-39
-0.08366501331 -0.04191977158 0.04580446333 9.641561216e-39
-0.1779292375 -0.04315946251 0.04467050359 9.641561216e-39
0.023755759 -0.04157010466 0.04777994379 9.641561216e-39
-0.01346132811 -0.05110860243 0.05113060772 9.641561216e-39
-0.04742843285 -0.04109085724 0.04633588716 9.641561216e-39
-0.1387676448 -0.04212312773 0.04543573782 9.641561216e-39
0.09195760638 -0.0408754237 0.04957453907 9.641561216e-39
0.06961242855 -0.05797294527 0.05888768286 9.641561216e-39
-0.05366216227 -0.04409473389 0.04658517241 9.641561216e-39
-0.1663530916 -0.04280375317 0.0449154228 9.641561216e-39
-0.01796170138 -0.0389133729 0.04676307738 9.641561216e-39
0.009578232653 -0.04864307493 0.05013731867 9.641561216e-39
0.03566316515 -0.04137527198 0.0483288914 9.641561216e-39
-0.08011627197 -0.04370742291 0.0464774482 9.641561216e-39
0.06235218793 -0.01836655103 0.2335320413 1.037659831e-38
0.03628007323 -0.02508179657 0.1327115148 1.037659831e-38
0.07622749358 -0.01084160805 0.2826503813 1.037659831e-38
0.08518078923 -0.03183842823 0.05366207287 1.037659831e-38
0.04463003576 -0.02177989669 0.1868902147 1.037659831e-38
0.04106745124 -0.02261912823 0.1730797291 1.037659831e-38
0.06097660214 -0.02213617787 0.1793025583 1.037659831e-38
0.2103893608 -0.04630667716 0.01331704389 1.037659831e-38
0.06366775185 -0.01265776344 0.3310268521 1.037659831e-38
0.06462162733 -0.02944429405 0.06610950828 1.037659831e-38
0.06344761699 -0.01858290844 0.2342173904 1.037659831e-38
0.1454805285 -0.03814901039 0.03269643337 1.037659831e-38
0.05460201204 -0.01861007139 0.2409616858 1.037659831e-38
0.03340512514 -0.02550314367 0.1286703348 1.037659831e-38
0.06615889817 -0.02180697396 0.1836566776 1.037659831e-38
0.1794867069 -0.04343037307 0.01620389149 1.037659831e-38
0.06308115274 -0.01378371473 0.3065448701 1.037659831e-38
0.04220097139 -0.02741925605 0.09657508135 1.037659831e-38
0.06655874103 -0.02007901482 0.2071513832 1.037659831e-38
0.1536462456 -0.03961258009 0.02724314854 1.037659831e-38
0.05850505829 -0.01626006328 0.267802 1.037659831e-38
0.03623405844 -0.02721084096 0.1055634394 1.037659831e-38
0.06674662232 -0.01640225574 0.2561110258 1.037659831e-38
0.0884988457 -0.03275466338 0.05028782785 1.037659831e-38
0.04648536444 -0.02164839581 0.1975296289 1.037659831e-38
0.04830915481 -0.02177748643 0.1918541789 1.037659831e-38
0.06208758429 -0.01806333847 0.2354385257 1.037659831e-38
0.1697193384 -0.04239741713 0.02072040737 1.037659831e-38
0.06260940433 -0.01289727539 0.3126932383 1.037659831e-38
0.03798276559 -0.02753791027 0.09422145784 1.037659831e-38
0.06506697834 -0.01474537328 0.2811428308 1.037659831e-38
0.08107472211 -0.03156908229 0.05453239381 1.037659831e-38
0.1510935575 -0.0142860692 -0.09320263565 1.111163541e-38
0.0638371706 -0.01129468717 -0.06771399081 1.111163541e-38
0.05742944404 -0.01031856518 -0.06410690397 1.111163541e-38
0.03619217128 -0.001570612774 -0.04259865358 1.111163541e-38
0.1440563053 -0.01271382719 -0.0855980143 1.111163541e-38
0.03659631684 -0.01081041992 -0.05633083358 1.111163541e-38
-0.07077015191 -0.01188817993 -0.04160803556 1.111163541e-38
0.2142724693 0.004223742522 -0.04203030467 1.111163541e-38
0.1583506018 -0.0077756471 -0.05683862418 1.111163541e-38
0.1005552858 -0.004354663659 -0.04647595063 1.111163541e-38
-0.04009345174 -0.00908906851 -0.04185961932 1.111163541e-38
0.2082814872 0.003663162235 -0.04243191704 1.111163541e-38
0.09947554022 -0.006656181533 -0.05298761278 1.111163541e-38
0.07111644745 -0.003198269987 -0.04475829378 1.111163541e-38
-0.07146906853 -0.01222271286 -0.041830495 1.111163541e-38
0.2305086106 0.003531707684 -0.04166465625 1.111163541e-38
0.1415501684 -0.007409498561 -0.05924322829 1.111163541e-38
0.1260215193 -0.004491157364 -0.04736178368 1.111163541e-38
-0.03300854564 -0.01016314514 -0.04275065288 1.111163541e-38
0.181184426 0.004644416273 -0.0436639823 1.111163541e-38
0.1265162826 -0.007815952413 -0.06534230709 1.111163541e-38
0.09808506072 -0.004834880587 -0.04655322433 1.111163541e-38
0.0107425116 -0.006712862756 -0.04321088269 1.111163541e-38
0.1564645022 0.003321063705 -0.04435244203 1.111163541e-38
0.1043611988 -0.006054562051 -0.04721610993 1.111163541e-38
