# .PCD v0.7 - Point Cloud Data file format
VERSION 0.7
FIELDS x y z rgb
SIZE 4 4 4 4
TYPE F F F F
COUNT 1 1 1 1
WIDTH 827
HEIGHT 1
VIEWPOINT 0 0 0 1 0 0 0
POINTS 827
DATA ascii
-0.2508831322 0.1242868751 0.3274717927 1.258099074e-38
-0.2715614438 0.1194377691 -0.07144459337 1.258099074e-38
-0.2635852396 0.09469827265 0.2730261981 1.258099074e-38
-0.2704325914 0.1239454523 0.180749625 1.258099074e-38
-0.2575592697 0.1181978583 0.3094899058 1.258099074e-38
-0.2755541801 0.1106764451 -0.107761763 1.258099074e-38
-0.2539670169 0.1056383327 0.3238660097 1.258099074e-38
-0.2674937546 0.1310872585 0.03890416026 1.258099074e-38
-0.2737475038 0.0798773542 0.234644711 1.258099074e-38
-0.2771820128 0.1281164438 0.08256848156 1.258099074e-38
-0.2740407288 0.09853880107 0.2392493039 1.258099074e-38
-0.2690937817 0.1165334135 -0.2936730683 1.258099074e-38
-0.2631630003 0.07367979735 0.2947056293 1.258099074e-38
-0.1344124824 -0.1370013952 -0.2490788251 1.331530897e-38
-0.01212279685 -0.1557795703 0.3049289286 1.331530897e-38
0.01429400127 -0.1520263702 0.01847444288 1.331530897e-38
0.02346157283 -0.144919917 -0.1984619498 1.331530897e-38
-0.001952533959 -0.137629807 -0.3210754991 1.331530897e-38
-0.1277993172 -0.1489104331 0.09969392419 1.331530897e-38
-0.1642871648 -0.1300563216 -0.3223322928 1.331530897e-38
0.08742372692 -0.1457508504 0.2710045278 1.331530897e-38
-0.2197109163 -0.09857545793 -0.421829015 1.331530897e-38
0.07260867208 -0.1411510557 0.4008867741 1.331530897e-38
-0.09214865416 -0.1398855597 -0.2655422986 1.331530897e-38
0.09497721493 -0.1466430575 0.1962445825 1.331530897e-38
-0.2105638236 -0.135705173 -0.4319980443 1.331530897e-38
-0.01672502421 -0.1567228734 0.2857605517 1.331530897e-38
-0.02048670687 -0.1506135464 -0.1211147904 1.331530897e-38
0.02705316804 -0.152676791 0.1012702435 1.331530897e-38
-0.1022785679 -0.1231965199 -0.3732917905 1.331530897e-38
-0.09351342171 -0.1526135206 0.05495305359 1.331530897e-38
-0.1169568375 -0.1424695998 -0.1895519346 1.331530897e-38
0.009723193012 -0.1549875438 0.1488068253 1.331530897e-38
-0.07789471745 -0.1267544031 -0.3646481335 1.331530897e-38
-0.1045069918 -0.1509114504 -0.03210677579 1.331530897e-38
-0.1805500537 -0.1381102055 -0.1723674238 1.331530897e-38
-0.02419422753 -0.1571790129 0.2082523257 1.331530897e-38
-0.1244370863 -0.1215648353 -0.3838070631 1.331530897e-38
-0.07467113435 -0.15095824 -0.08042956889 1.331530897e-38
-0.1871257275 -0.1338058859 -0.2690948248 1.331530897e-38
-0.1579597145 -0.139970839 -0.02647307888 1.331530897e-38
-0.2170258909 -0.1371845305 -0.3480010629 1.331530897e-38
0.01071459055 -0.147794649 -0.1230522767 1.331530897e-38
-0.179702118 -0.1349173784 -0.4355772138 1.331530897e-38
0.03572612628 -0.1511660367 0.2953664958 1.331530897e-38
-0.1066703498 0.01033493597 -0.1996842325 1.404926846e-38
-0.11888735 0.04276388511 -0.1721886694 1.404926846e-38
-0.1192619503 0.05976178125 0.1124671921 1.404926846e-38
-0.06872435659 0.00157263747 -0.3379895985 1.404926846e-38
-0.1219707355 0.06765212864 -0.1817277968 1.404926846e-38
-0.1076349989 0.01109477784 0.1974873692 1.404926846e-38
-0.1141686067 0.03928106278 0.3157240748 1.404926846e-38
-0.0686115548 0.01517268829 -0.4167048335 1.404926846e-38
-0.08464632183 0.03032625839 -0.4343652427 1.404926846e-38
-0.08822929859 0.01391677838 -0.3515923321 1.404926846e-38
-0.1151948124 0.04475807399 0.2919380367 1.404926846e-38
-0.04221690446 0.003916325513 -0.4142152071 1.404926846e-38
-0.1125217304 0.05329552293 -0.3948217332 1.404926846e-38
-0.1100576594 0.02867791243 -0.2950905859 1.404926846e-38
-0.120768249 0.05770938098 0.1303972155 1.404926846e-38
-0.07707551122 0.0070774341 -0.3527798355 1.404926846e-38
-0.1310820431 0.07879428566 -0.251449734 1.404926846e-38
-0.1145429313 0.04085319117 0.08501435071 1.404926846e-38
-0.1235538721 0.06678587943 -0.02753261663 1.404926846e-38
-0.07362546772 0.002228859812 -0.3256322742 1.404926846e-38
-0.1306607723 0.07554377615 -0.2593797445 1.404926846e-38
-0.1136565879 0.04067287594 0.09203220159 1.404926846e-38
-0.1249872893 0.07076085359 -0.1132973582 1.404926846e-38
-0.1113160774 0.01898291707 -0.19358702 1.404926846e-38
-0.1186471954 0.04890347272 -0.3156801462 1.404926846e-38
-0.1150962636 0.04585590586 -0.05785496905 1.404926846e-38
-0.1149493605 0.02607810684 -0.1136641875 1.404926846e-38
-0.1159267575 0.03149377182 0.06241662055 1.404926846e-38
-0.1216663569 0.04804188386 -0.2832971513 1.404926846e-38
-0.1023688018 0.01720110513 -0.2851753533 1.404926846e-38
-0.1117994115 0.0548655428 -0.408108294 1.404926846e-38
-0.1230116412 0.04870211706 -0.2158688158 1.404926846e-38
-0.1269887388 -0.001580400974 0.01166160218 1.478322936e-38
-0.1829078346 0.06290757656 0.2409892678 1.478322936e-38
-0.145519048 0.01266989857 0.228552565 1.478322936e-38
-0.1278286725 -0.001369967242 0.036933586 1.478322936e-38
-0.1842945218 0.06777961552 0.2393631488 1.478322936e-38
-0.1315989792 0.01382515393 -0.195998922 1.478322936e-38
-0.1482212692 0.02510932088 0.3425563276 1.478322936e-38
-0.1272516847 -0.008484643884 0.1913250983 1.478322936e-38
-0.1219242886 -0.00394638814 -0.0359942615 1.478322936e-38
-0.1706620306 0.04038642719 0.3609538078 1.478322936e-38
-0.1257786304 0.01177943405 0.3443949521 1.478322936e-38
-0.1246414781 -0.01034498587 0.1588375568 1.478322936e-38
-0.1258501112 -0.0003570392437 -0.02863059379 1.478322936e-38
-0.1756449044 0.04547485709 0.286016643 1.478322936e-38
-0.1452104002 0.01363113988 0.2908613086 1.478322936e-38
-0.1408863813 0.0146867726 0.09653915465 1.478322936e-38
-0.1721313149 0.05587390438 0.1670953184 1.478322936e-38
-0.1395577639 0.02554850094 -0.1494340152 1.478322936e-38
-0.1225396469 -0.008153041825 0.2759265006 1.478322936e-38
-0.1419692039 0.0191192124 0.03489906341 1.478322936e-38
-0.1821518689 0.06636308879 0.2239233553 1.478322936e-38
-0.1435954422 0.02626141906 -0.1890241355 1.478322936e-38
-0.1692078561 0.03659009561 0.2658021152 1.478322936e-38
-0.1449249238 0.02789820358 -0.04389278218 1.478322936e-38
-0.1750124991 0.06483056396 0.1474628747 1.478322936e-38
-0.1398518533 0.02449970134 -0.08819917589 1.478322936e-38
-0.1849517822 0.06596919149 0.2508243024 1.478322936e-38
-0.1233794093 0.004073850811 -0.1695738584 1.478322936e-38
-0.1737938225 0.04693058133 0.2294148505 1.478322936e-38
-0.1527410001 0.02822939306 0.1381130666 1.478322936e-38
-0.1622871011 0.04330667853 -0.1847658455 1.478322936e-38
-0.1862582117 0.07931637019 0.152461797 1.478322936e-38
0.2367899716 0.002678423189 -0.1339899451 1.551683013e-38
0.2519910038 0.007898308337 0.2009508759 1.551683013e-38
0.06115624309 -0.009492628276 -0.05479369685 1.551683013e-38
0.09710223973 -0.009832484648 -0.1252232939 1.551683013e-38
0.2437425405 0.003389572725 -0.1024561077 1.551683013e-38
0.1803657115 -0.001699598739 0.08600591868 1.551683013e-38
0.2125225663 0.001813162002 0.02406922355 1.551683013e-38
0.1619277894 -0.005080978386 -0.01618391648 1.551683013e-38
0.1219303682 -0.009204308502 -0.243607983 1.551683013e-38
0.2417461425 0.008254338987 0.2628955543 1.551683013e-38
0.06881193072 -0.006097187288 0.04798575118 1.551683013e-38
0.1105415151 -0.007027834654 0.004905306734 1.551683013e-38
0.1638412178 -0.005148700438 -0.2292917669 1.551683013e-38
0.2235175222 0.007126065437 0.2143173218 1.551683013e-38
0.09954827279 -0.007836872712 -0.03309422731 1.551683013e-38
0.1340911239 -0.006907461211 -0.07538155466 1.551683013e-38
0.2313365787 0.002551931888 -0.1428997517 1.551683013e-38
0.2196753174 0.003630936844 0.08947730809 1.551683013e-38
0.1527989209 -0.005686027929 -0.04554417357 1.551683013e-38
0.1516276896 -0.005891988985 -0.1011005938 1.551683013e-38
0.2292893678 0.002550048754 -0.1279855818 1.551683013e-38
0.2358316332 0.006333048455 0.07994725555 1.551683013e-38
0.2334616929 0.004850259982 -0.02571298927 1.551683013e-38
0.2097950131 0.001509035705 -0.08318474144 1.551683013e-38
0.1613322645 -0.005462614354 -0.1779417545 1.551683013e-38
0.1434651017 -0.005303115118 0.055066742 1.551683013e-38
0.2425967902 0.003847008105 -0.06933607906 1.551683013e-38
0.2508358955 0.003868787782 -0.01104930136 1.551683013e-38
0.02921107598 -0.007993633859 -0.1189492866 1.551683013e-38
0.2236465812 0.002934434451 0.01889555156 1.551683013e-38
0.08338015527 -0.01137906965 -0.2021950334 1.551683013e-38
0.2205188274 0.006145869382 0.1861750335 1.551683013e-38
-0.194645077 0.01025307924 0.2318064868 1.625043089e-38
-0.2251659036 0.08609374613 0.05271909758 1.625043089e-38
-0.2068516612 -0.04044600576 0.3577162325 1.625043089e-38
-0.1897915006 0.0375238359 0.02538566105 1.625043089e-38
-0.2303255498 0.01556282397 0.4154957533 1.625043089e-38
-0.2317291647 0.09349399805 0.2129956186 1.625043089e-38
-0.1830255538 -0.06259047985 0.09982676059 1.625043089e-38
-0.2088238448 0.05506357551 -0.2535476387 1.625043089e-38
-0.1935471892 0.04012101144 0.1417555511 1.625043089e-38
-0.2173103988 0.08656442165 -0.04326248914 1.625043089e-38
-0.1728546917 -0.07184635848 0.1720930636 1.625043089e-38
-0.1946947873 0.04767626524 -0.2106175274 1.625043089e-38
-0.1977920979 0.07171114534 0.2262182683 1.625043089e-38
-0.2105522752 0.087547943 0.05296933651 1.625043089e-38
-0.1814015359 -0.07559545338 0.2924156785 1.625043089e-38
-0.201863721 0.04147795588 -0.1083097905 1.625043089e-38
-0.2258823067 0.06921664625 0.3355025053 1.625043089e-38
-0.2228032798 0.08163952082 0.1900958866 1.625043089e-38
-0.1784841567 -0.06021099538 0.2870934606 1.625043089e-38
-0.1863603592 0.01876846142 -0.08241511136 1.625043089e-38
-0.2118910402 -0.02326242626 0.3577464223 1.625043089e-38
-0.2103414237 0.06588631868 0.1744077057 1.625043089e-38
-0.1976128221 0.003041984513 0.2551102042 1.625043089e-38
-0.2021097988 0.005570765585 -0.0641662851 1.625043089e-38
-0.2222005725 0.02082791738 0.367644906 1.625043089e-38
-0.1959701926 0.02515424602 0.09232649207 1.625043089e-38
-0.2242324203 0.04309615493 0.3576117456 1.625043089e-38
-0.1904809624 -0.04452249035 0.04210997745 1.625043089e-38
-0.1865703315 -0.02949890122 0.1566520333 1.625043089e-38
-0.2060149014 0.02950911038 -0.1884589493 1.625043089e-38
-0.1994957924 0.0497716628 0.1970679909 1.625043089e-38
-0.2224028111 0.09049660712 0.02457282878 1.625043089e-38
0.06402418017 0.03187320754 -0.4617046714 1.698367293e-38
0.259021312 0.03512956202 -0.4044958651 1.698367293e-38
-0.009648902342 0.002489539329 -0.4523349106 1.698367293e-38
0.2405524701 -0.09878478199 -0.365855068 1.698367293e-38
0.2634367049 0.06231267005 -0.4469950497 1.698367293e-38
0.2376983762 0.05021387339 -0.4552782774 1.698367293e-38
0.1606292427 -0.1049096361 -0.4490678608 1.698367293e-38
0.2104451954 -0.1514163315 -0.4165642262 1.698367293e-38
-0.2023030818 0.06084814295 -0.3392571509 1.698367293e-38
0.2458797097 -0.07642888278 -0.353985697 1.698367293e-38
0.1488296688 -0.07553570718 -0.4490549862 1.698367293e-38
0.2221276015 -0.1498059332 -0.3963720798 1.698367293e-38
-0.1575660408 0.06367559731 -0.3788395226 1.698367293e-38
0.2497220933 -0.01187427435 -0.3887384236 1.698367293e-38
0.1433204412 0.00584736513 -0.4556198716 1.698367293e-38
0.2366066277 -0.1233596429 -0.3761990368 1.698367293e-38
0.1697527915 0.06410890818 -0.4534738362 1.698367293e-38
0.251368016 0.004705394153 -0.4381321669 1.698367293e-38
0.2121441066 -0.01862205565 -0.4476896524 1.698367293e-38
0.2348330915 -0.1363364607 -0.3872428536 1.698367293e-38
0.1999817789 0.06408508867 -0.4685815573 1.698367293e-38
0.2374068201 -0.06500968337 -0.4342366457 1.698367293e-38
0.2262550145 -0.09667936713 -0.4388575554 1.698367293e-38
0.1682385802 -0.1232075691 -0.4407508671 1.698367293e-38
0.1677899063 0.05662123859 -0.4729520082 1.698367293e-38
0.2321843803 -0.1114593521 -0.4351595044 1.698367293e-38
0.2481645346 -0.03463897854 -0.4102154076 1.698367293e-38
0.2026672363 -0.1114648134 -0.446128875 1.698367293e-38
0.08203753829 -0.007044526748 -0.4581572115 1.698367293e-38
0.2049082369 -0.1461124718 -0.4288247824 1.698367293e-38
-0.1546650976 0.0607868731 -0.3842470944 1.698367293e-38
0.2442531735 -0.07838410139 -0.3874665201 1.698367293e-38
0.1839445233 0.08201250434 0.3782550991 1.771655483e-38
-0.08119799942 -0.01096662693 0.381052494 1.771655483e-38
0.1392088681 0.02778682299 0.3676493168 1.771655483e-38
0.07474595308 0.09111042321 0.3829977214 1.771655483e-38
0.2542283833 0.02662273683 0.353351593 1.771655483e-38
-0.09409915656 0.05281576887 0.3897061944 1.771655483e-38
0.1737942845 0.006617565174 0.2632344365 1.771655483e-38
0.04487003013 -0.004474114627 0.372798413 1.771655483e-38
0.1424409747 0.0763964653 0.375315547 1.771655483e-38
-0.1801440418 0.03677340969 0.3871043026 1.771655483e-38
0.06375199556 0.007684108336 0.3406308889 1.771655483e-38
-0.06269846857 0.0814595744 0.3838043213 1.771655483e-38
0.1512013972 0.08051712066 0.3773620725 1.771655483e-38
-0.1776999086 0.03294141218 0.3877513111 1.771655483e-38
0.1503530592 0.02499853633 0.3681277037 1.771655483e-38
0.07936272025 0.07072563469 0.3846003413 1.771655483e-38
0.2149790972 0.04923825338 0.3669444621 1.771655483e-38
-0.09476654977 0.04286028817 0.3885399699 1.771655483e-38
0.1488583833 0.03800764307 0.3602954447 1.771655483e-38
0.1311687082 0.0705973953 0.3799889088 1.771655483e-38
0.2616342008 0.02866447158 0.3643778265 1.771655483e-38
-0.09340950102 0.04001998529 0.388115108 1.771655483e-38
0.1983730644 0.06176293641 0.3715447783 1.771655483e-38
0.172277227 -0.04010376707 0.3574311733 1.771655483e-38
0.2682427466 0.02270526625 0.3014679253 1.771655483e-38
0.02604936436 0.02263317816 0.3812411427 1.771655483e-38
0.2672231793 0.01510906965 0.224401027 1.771655483e-38
0.1588324606 0.08536182344 0.3799430728 1.771655483e-38
0.1689451337 0.006786019541 0.2655495703 1.771655483e-38
0.1286027133 -0.08040706068 0.3541030586 1.771655483e-38
0.2427451164 0.06194685027 0.3678922057 1.771655483e-38
-0.004374766722 -0.002359974431 0.3773145974 1.771655483e-38
-0.2493045032 0.06045288593 -0.3416656554 1.844943813e-38
-0.2488858551 0.07511676103 -0.06630679965 1.844943813e-38
-0.2330355346 0.02855779976 0.2140806019 1.844943813e-38
-0.2374791205 0.03240055963 -0.04747452959 1.844943813e-38
-0.2521260679 0.06459610909 -0.2463272214 1.844943813e-38
-0.2521541715 0.07327407598 -0.1761366278 1.844943813e-38
-0.229658708 -0.00238125422 0.3032050431 1.844943813e-38
-0.2286984921 0.009002468549 0.08045748621 1.844943813e-38
-0.2456161827 0.06749004126 -0.4091010094 1.844943813e-38
-0.242380634 0.07268965989 0.03210413083 1.844943813e-38
-0.230296731 0.01354983263 0.2766348124 1.844943813e-38
-0.2286246419 0.01368600316 0.1066039503 1.844943813e-38
-0.246012792 0.06449334323 -0.4027909636 1.844943813e-38
-0.2487237006 0.07557009161 -0.06301562488 1.844943813e-38
-0.2321615368 0.02034048177 0.24151811 1.844943813e-38
-0.2360721231 0.02960258909 0.05463865027 1.844943813e-38
-0.2473089695 0.03885482997 -0.2927781343 1.844943813e-38
-0.2495562732 0.04160816222 -0.1676923782 1.844943813e-38
-0.2350218892 0.04108688235 0.1631080955 1.844943813e-38
-0.2357783467 0.03045588359 0.02909461409 1.844943813e-38
-0.2473057806 0.03767047077 -0.27469486 1.844943813e-38
-0.2456374317 0.02799219079 -0.1704395115 1.844943813e-38
-0.2391454279 0.04985753819 0.1156582385 1.844943813e-38
-0.23532556 0.02590454742 -0.0647373721 1.844943813e-38
-0.244441852 0.0309446305 -0.296712935 1.844943813e-38
-0.2441410273 0.02755920589 -0.1193588376 1.844943813e-38
-0.2506723702 0.07515111566 -0.1416522861 1.844943813e-38
-0.2514231801 0.06111932546 -0.199334532 1.844943813e-38
-0.230887115 0.01397478301 0.1707908958 1.844943813e-38
-0.2271732241 0.01302799862 -0.01180002466 1.844943813e-38
-0.2502473295 0.06871688366 -0.2997087538 1.844943813e-38
-0.2413883358 0.06513079256 0.06263343245 1.844943813e-38
-0.07860607654 -0.1161864847 0.3253732324 1.91819627e-38
-0.1372067779 -0.1139792725 0.2084359676 1.91819627e-38
0.04390472546 -0.1143807173 0.3347904682 1.91819627e-38
-0.08630305529 -0.1188573018 0.09878077358 1.91819627e-38
-0.1728075892 -0.1124630049 0.1494472325 1.91819627e-38
0.03892906755 -0.1208363548 0.2472806275 1.91819627e-38
0.1639388204 -0.1184090599 0.3074807525 1.91819627e-38
-0.1178054363 -0.1173826978 -0.2103640735 1.91819627e-38
-0.129862994 -0.1151020676 0.3210510612 1.91819627e-38
-0.1695723832 -0.1177705452 -0.05157032609 1.91819627e-38
0.1762134582 -0.1155968681 0.3278397024 1.91819627e-38
-0.1154954359 -0.1179435775 -0.1806201041 1.91819627e-38
-0.1245763898 -0.1165609807 0.3081251085 1.91819627e-38
-0.1280270517 -0.1137806252 0.2098424137 1.91819627e-38
0.09014814347 -0.1163612679 0.3073279262 1.91819627e-38
-0.06956292689 -0.1210267544 0.1529211104 1.91819627e-38
-0.1610176414 -0.1134306341 0.2396208197 1.91819627e-38
-0.008005097508 -0.1207750142 0.2451621145 1.91819627e-38
0.03900582716 -0.1167498901 0.2815389037 1.91819627e-38
-0.05025220662 -0.1223804578 0.1882359535 1.91819627e-38
-0.1693492085 -0.1124196202 0.1561697125 1.91819627e-38
-0.07937663794 -0.1189530566 0.2327609211 1.91819627e-38
-0.02165756002 -0.1177744269 0.2659071088 1.91819627e-38
0.01036551688 -0.1224450096 0.218799457 1.91819627e-38
-0.1467221081 -0.1137085781 0.2370951027 1.91819627e-38
-0.1411173791 -0.1143638119 0.06359402835 1.91819627e-38
-0.1463506073 -0.1126698554 0.2607828975 1.91819627e-38
0.1225562692 -0.1244468391 0.252528578 1.91819627e-38
-0.03045903146 -0.1144843847 0.3222690523 1.91819627e-38
-0.1696569622 -0.1121695116 -0.2299617976 1.91819627e-38
-0.1737828404 -0.1100866795 0.312584281 1.91819627e-38
0.01217856351 -0.1217660457 0.2014710158 1.91819627e-38
0.1826412827 -0.08138532937 -0.2495725304 1.991448586e-38
-0.07738211006 -0.03855647519 -0.1105277836 1.991448586e-38
0.1185366586 -0.06087165698 0.004406483378 1.991448586e-38
-0.03737240285 -0.04673726857 -0.0003563910432 1.991448586e-38
0.243926689 -0.1049677581 -0.2263132483 1.991448586e-38
0.03501349688 -0.06047945842 -0.3851839304 1.991448586e-38
0.2414770424 -0.09712403268 -0.03684108704 1.991448586e-38
-0.04157978669 -0.07572698593 0.2969433367 1.991448586e-38
0.1010991484 -0.06301348656 -0.3305385113 1.991448586e-38
-0.1163027734 -0.04467456043 -0.001501752762 1.991448586e-38
0.2200209647 -0.08794184774 0.004491254222 1.991448586e-38
-0.06740885228 -0.06633410603 0.2488083541 1.991448586e-38
0.137060076 -0.05996540934 -0.4106069207 1.991448586e-38
-0.102279149 -0.03660211712 -0.1652612984 1.991448586e-38
0.1704218537 -0.07214835286 0.0505960919 1.991448586e-38
-0.01682474464 -0.0684325248 0.1905829012 1.991448586e-38
0.2338163108 -0.09020283073 -0.3599757552 1.991448586e-38
-0.001989101293 -0.05747142807 -0.3722725511 1.991448586e-38
0.2204148471 -0.08120884001 0.08490330726 1.991448586e-38
0.0249546431 -0.06795884669 0.1957957149 1.991448586e-38
0.2357022762 -0.09393842518 -0.3652646542 1.991448586e-38
0.02047437429 -0.0530074276 -0.2868160903 1.991448586e-38
0.2388329059 -0.09654218704 0.03270773217 1.991448586e-38
0.1340662241 -0.06937222928 0.2296830416 1.991448586e-38
0.2138616592 -0.07251659036 -0.3988993764 1.991448586e-38
0.008343048394 -0.04297985509 -0.1476268917 1.991448586e-38
0.2320291996 -0.1011513472 -0.1740220785 1.991448586e-38
0.1576586962 -0.06854804605 0.01371799782 1.991448586e-38
0.1208816916 -0.06546650082 -0.1418836564 1.991448586e-38
0.08130769432 -0.07910258323 0.285874486 1.991448586e-38
0.1029477715 -0.05942533538 -0.4250555933 1.991448586e-38
0.04511573538 -0.05266593397 -0.1981604248 1.991448586e-38
-0.2476165742 -0.05838014558 0.05733438209 2.06466517e-38
-0.2564586401 -0.0681912303 -0.2192367464 2.06466517e-38
-0.2556928694 -0.08856096864 0.3448305428 2.06466517e-38
-0.2516400814 -0.110363096 -0.04056674615 2.06466517e-38
-0.2563673854 -0.05876337737 -0.152200833 2.06466517e-38
-0.2563510537 -0.04787313938 -0.173521921 2.06466517e-38
-0.1429521143 -0.09668619186 0.4017050564 2.06466517e-38
-0.2507362962 -0.08119959384 0.2157021463 2.06466517e-38
-0.2482573241 -0.07855950296 0.1556236297 2.06466517e-38
-0.2578063011 -0.06404022872 -0.4006077945 2.06466517e-38
-0.1561684012 -0.08675125986 0.3769468963 2.06466517e-38
-0.2513138652 -0.08428621292 0.1670200825 2.06466517e-38
-0.2458061874 -0.03416211531 0.1101480424 2.06466517e-38
-0.2477192432 -0.1000095308 -0.3356115818 2.06466517e-38
-0.244394511 -0.09058677405 0.3569618762 2.06466517e-38
-0.2501899302 -0.0919598043 0.1037728041 2.06466517e-38
-0.2502030134 -0.02751074731 0.000461840973 2.06466517e-38
-0.2558003366 -0.09851066768 -0.1980625838 2.06466517e-38
-0.2551124096 -0.0824431777 0.3122062981 2.06466517e-38
-0.2538356185 -0.09474119544 0.1392687708 2.06466517e-38
-0.2508768737 -0.05316125602 -0.01622532122 2.06466517e-38
-0.2556784451 -0.09619238228 -0.186277017 2.06466517e-38
-0.2544803917 -0.08420410007 0.2760184109 2.06466517e-38
-0.2553434074 -0.09095219523 0.2013585269 2.06466517e-38
-0.2480932176 -0.08467404544 0.02972523496 2.06466517e-38
-0.2480806857 -0.1162541211 -0.2894444466 2.06466517e-38
-0.2545431554 -0.09614328295 -0.1928071231 2.06466517e-38
-0.2474236041 -0.08838519454 0.02414849773 2.06466517e-38
-0.2259098291 -0.1036663726 0.3786495328 2.06466517e-38
-0.2484241575 -0.09380788356 0.03980961815 2.06466517e-38
-0.2499903888 -0.09525166452 -0.04188198969 2.06466517e-38
-0.2588362396 -0.05121677369 -0.4228028655 2.06466517e-38
-0.02958592214 -0.03325799108 -0.2889647484 2.137881613e-38
0.2197318226 0.04931055009 -0.3294509947 2.137881613e-38
-0.2784314454 0.08459244668 -0.05715267733 2.137881613e-38
-0.2442536801 0.008407714777 -0.3447408676 2.137881613e-38
-0.1871649176 -0.1000326127 -0.2723943591 2.137881613e-38
0.04081184417 0.06760555506 -0.3330194354 2.137881613e-38
-0.252501756 0.08009519428 -0.3348515332 2.137881613e-38
-0.08520571887 0.04391502216 -0.342679441 2.137881613e-38
0.2077756226 -0.01236973237 -0.3011697233 2.137881613e-38
0.2795807123 0.03287781775 -0.3302586973 2.137881613e-38
-0.2436730117 0.1193767935 -0.3064848781 2.137881613e-38
-0.1124923676 0.03987001255 -0.3515620232 2.137881613e-38
0.152518943 -0.01492341049 -0.2984657884 2.137881613e-38
0.2412272543 0.05211184546 -0.3301721215 2.137881613e-38
-0.2762569189 0.1009339616 -0.1471056491 2.137881613e-38
-0.2154923379 -0.01320792641 -0.3591243923 2.137881613e-38
0.0004583596892 -0.01762304455 -0.2893001139 2.137881613e-38
0.1164269447 0.06331063062 -0.3264140785 2.137881613e-38
-0.2728758156 0.0692262575 -0.1916285157 2.137881613e-38
-0.2073068768 -0.02606462315 -0.3454416096 2.137881613e-38
-0.04850985482 -0.0233864747 -0.2963615954 2.137881613e-38
0.05723221228 0.04296166077 -0.317974925 2.137881613e-38
-0.2541855276 -0.009849363938 -0.2635106444 2.137881613e-38
-0.1651617736 -0.01506195311 -0.3324687779 2.137881613e-38
-0.2266790122 -0.06675497442 -0.2921956778 2.137881613e-38
-0.0191532746 0.01561835781 -0.3133870065 2.137881613e-38
-0.2255446464 -0.09681236744 -0.2665337026 2.137881613e-38
-0.1227676645 0.002180505777 -0.3307859898 2.137881613e-38
-0.2598512471 0.08855448663 -0.3001345992 2.137881613e-38
-0.002792410785 0.0672371015 -0.3410435319 2.137881613e-38
0.1174988225 0.01285388321 -0.3040375113 2.137881613e-38
0.1734391749 0.05116168782 -0.3243329227 2.137881613e-38
-0.2110076398 -0.03003648669 -0.002037117025 2.211062324e-38
-0.1229629144 -0.1012198254 0.159925431 2.211062324e-38
-0.2379901558 -0.002422804944 -0.3200386763 2.211062324e-38
-0.2080524415 -0.1112816036 -0.3215528429 2.211062324e-38
-0.2487652749 -0.002730876906 -0.1654238105 2.211062324e-38
-0.09401438385 -0.1243877485 -0.05336532742 2.211062324e-38
-0.2585087419 0.07371906936 -0.4175084233 2.211062324e-38
-0.1737273932 -0.1110326424 -0.1410356462 2.211062324e-38
-0.1926867068 -0.01852503419 0.1893525869 2.211062324e-38
-0.08562525362 -0.1058431417 0.2230103761 2.211062324e-38
-0.2565025091 0.02239900082 -0.3924260736 2.211062324e-38
-0.1624138951 -0.118800953 -0.2018193156 2.211062324e-38
-0.1985580921 -0.002148416359 0.1230683401 2.211062324e-38
-0.01016729325 -0.149079144 0.03892528266 2.211062324e-38
-0.2479190528 0.003739659907 -0.3495839238 2.211062324e-38
-0.2244621366 -0.08037449419 -0.3000747859 2.211062324e-38
-0.2472312748 0.01507847477 -0.03699621186 2.211062324e-38
-0.1369550079 -0.09605050087 -0.008596119471 2.211062324e-38
-0.2557860613 0.03869094327 -0.2339358777 2.211062324e-38
-0.2235035151 -0.07609777898 -0.3123386502 2.211062324e-38
-0.2523734272 0.02023482509 -0.06531849504 2.211062324e-38
-0.1962375641 -0.07777485996 -0.08485817164 2.211062324e-38
-0.2595440447 0.04373763129 -0.2169472128 2.211062324e-38
-0.2359722853 -0.01973872073 -0.2812851071 2.211062324e-38
-0.2620891035 0.04132862762 -0.1599328667 2.211062324e-38
-0.2148523182 -0.08181545138 -0.1614738256 2.211062324e-38
-0.2608905435 0.05285552517 -0.1133883297 2.211062324e-38
-0.2097122371 -0.06279893965 -0.1124851033 2.211062324e-38
-0.2581949234 0.06184412166 -0.3113729358 2.211062324e-38
-0.1256739497 -0.1178228706 -0.1293350905 2.211062324e-38
-0.1856957823 -0.04996687546 0.0317324698 2.211062324e-38
-0.08894315362 -0.1202479079 0.0751311332 2.211062324e-38
0.1662863046 0.05007701367 0.4816468954 2.284242894e-38
0.06638669968 0.03644161299 0.4790798426 2.284242894e-38
-0.09291495383 -0.01314083394 0.4733458757 2.284242894e-38
0.2429569513 0.0656811595 0.4735664427 2.284242894e-38
0.06453385949 0.06316093355 0.483548969 2.284242894e-38
-0.03774322197 0.02680092491 0.4799246192 2.284242894e-38
-0.1728383601 -0.01078342646 0.3351898491 2.284242894e-38
0.2074063867 -0.04991365224 0.4739243984 2.284242894e-38
0.2356673777 0.09417659044 0.4785212576 2.284242894e-38
0.1051664948 0.03050658479 0.4807017446 2.284242894e-38
-0.1535239816 -0.02548165992 0.3574836552 2.284242894e-38
0.2095712572 -0.04553974792 0.4725178182 2.284242894e-38
0.2179788649 0.1050669998 0.4812877476 2.284242894e-38
0.07942350209 0.04355734959 0.4788509905 2.284242894e-38
-0.1345936954 0.001532377442 0.46807307 2.284242894e-38
0.2226327658 0.03267942742 0.4765386581 2.284242894e-38
0.109367907 0.08937079459 0.4830482304 2.284242894e-38
-0.03365945444 0.04057336599 0.4889155924 2.284242894e-38
-0.09891624749 0.02483073063 0.4704051316 2.284242894e-38
0.2116951048 0.03536037356 0.4776825011 2.284242894e-38
0.1041855589 0.08766807616 0.4831331968 2.284242894e-38
0.03197695687 0.0507857427 0.4844296277 2.284242894e-38
-0.1453643441 0.04924001545 0.4613505304 2.284242894e-38
0.1484606266 0.0345373936 0.4819605947 2.284242894e-38
0.06844504178 0.08953277022 0.4861832559 2.284242894e-38
0.2054926902 0.06821835041 0.4806106985 2.284242894e-38
-0.171901688 0.01439596433 0.4332740605 2.284242894e-38
0.1081749275 0.06069856882 0.4813722968 2.284242894e-38
0.01252970845 0.07963271439 0.4891211092 2.284242894e-38
0.1888542771 0.01113563683 0.4775979817 2.284242894e-38
0.2187027037 0.07753020525 0.4800312221 2.284242894e-38
0.148353219 0.06465581059 0.482414633 2.284242894e-38
-0.07549732178 0.06790439039 -0.330586046 2.348204041e-38
-0.1828977019 0.1251108646 -0.07993709296 2.348204041e-38
-0.2456380576 0.04700436071 -0.4210653901 2.348204041e-38
-0.1385934055 0.09557774663 -0.2240273058 2.348204041e-38
0.06981122494 0.06639116257 -0.4447117448 2.348204041e-38
-0.2297639102 0.1188097522 -0.3010233045 2.348204041e-38
-0.1598361433 -0.04632298648 -0.4134649038 2.348204041e-38
-0.1706121117 0.1161647439 0.09868372977 2.348204041e-38
-0.154578343 0.1021682471 -0.1896883398 2.348204041e-38
-0.1755022705 0.1224234179 0.01108407322 2.348204041e-38
-0.1196972206 -0.03887587786 -0.4129944146 2.348204041e-38
-0.1642360538 0.1049701199 0.09136205912 2.348204041e-38
-0.09316825122 0.05844052136 -0.2579075694 2.348204041e-38
-0.1781576127 0.1279031038 0.03273035958 2.348204041e-38
-0.2257317752 0.03137727827 -0.4253621101 2.348204041e-38
-0.1343901604 0.09483322501 -0.2440552264 2.348204041e-38
0.05232622847 0.06110912561 -0.4009701014 2.348204041e-38
-0.1826102436 0.1217461079 -0.1302827001 2.348204041e-38
-0.232548967 0.03875548765 -0.4269126058 2.348204041e-38
-0.05150685459 0.06574627757 -0.406960994 2.348204041e-38
0.06146105751 0.06170076877 -0.4037210643 2.348204041e-38
-0.1552141905 0.1025911346 -0.2757158875 2.348204041e-38
-0.1361397654 0.04940506071 -0.4356299937 2.348204041e-38
-0.1406933069 0.06056708097 -0.4297623038 2.348204041e-38
-0.05453853309 0.06668557972 -0.4011474252 2.348204041e-38
-0.172794953 0.110079065 -0.2875769138 2.348204041e-38
-0.02835668251 0.04609493911 -0.4423962533 2.348204041e-38
-0.2218066305 0.05881525576 -0.4183968008 2.348204041e-38
-0.2725559473 0.07236621529 -0.3796373308 2.348204041e-38
-0.1765824854 0.1201895624 -0.04110381007 2.348204041e-38
-0.1386401206 0.09249109775 -0.2933877707 2.348204041e-38
-0.1834631413 0.07927413285 -0.3868036866 2.348204041e-38
-0.06419934332 -0.009233810008 0.2889939547 2.347880341e-38
-0.0917404741 -0.01376604848 0.02007973008 2.347880341e-38
0.02154803835 -0.007143647876 -0.2296007574 2.347880341e-38
0.01867074519 -0.007504245732 0.01771820337 2.347880341e-38
-0.03963422775 -0.0120308781 0.1970947981 2.347880341e-38
-0.07493780553 -0.01069859974 0.2006831765 2.347880341e-38
-0.04621332511 -0.008471556008 -0.1464127302 2.347880341e-38
0.006273653824 -0.008858365007 0.2315680385 2.347880341e-38
-0.06360218674 -0.008552024141 0.3383544385 2.347880341e-38
-0.1027983874 -0.01256490685 -0.1337687671 2.347880341e-38
-0.06199060753 -0.00998703111 -0.1403752714 2.347880341e-38
-0.004558589309 -0.009257877246 0.2064510137 2.347880341e-38
-0.04295313731 -0.01014477573 0.2759907842 2.347880341e-38
-0.1162173823 -0.01361336838 -0.05346796662 2.347880341e-38
-0.04409434646 -0.007606797386 -0.2308465093 2.347880341e-38
-0.02186477743 -0.009168900549 -0.007382199168 2.347880341e-38
-0.04309484363 -0.01031293441 0.25235641 2.347880341e-38
-0.06326367706 -0.01271096524 0.1659033298 2.347880341e-38
-0.03577246889 -0.007519304752 -0.1686612815 2.347880341e-38
-0.04778434709 -0.01056970935 -0.05332970247 2.347880341e-38
-0.008398575708 -0.009767834097 0.2023681104 2.347880341e-38
-0.04853147641 -0.01227281801 0.1874321848 2.347880341e-38
0.04957462475 -0.006685790606 -0.07639448345 2.347880341e-38
-0.04079381749 -0.01159754582 0.0194661729 2.347880341e-38
0.1120653003 0.0004034805752 0.2502763569 2.347880341e-38
0.012400534 -0.009253045544 0.1577163339 2.347880341e-38
0.02816357464 -0.00702278316 0.004635223653 2.347880341e-38
-0.04305106029 -0.01245720871 0.09060446918 2.347880341e-38
-0.0008507871535 -0.00629542442 -0.1686788648 2.347880341e-38
0.07323219627 -0.003117253305 0.09997566789 2.347880341e-38
0.02193137445 -0.006133794319 0.3486306667 2.347880341e-38
-0.07185807079 -0.014048554 -0.05268132687 2.347880341e-38
0.1914458871 -0.1046456769 0.173262164 2.347520768e-38
-0.2212236971 -0.08322533965 -0.008133902214 2.347520768e-38
-0.1411745399 -0.04961504787 0.3164597154 2.347520768e-38
0.1806396991 -0.0784894675 0.3149974644 2.347520768e-38
0.1780865788 -0.09799103439 0.1152070686 2.347520768e-38
-0.2199627459 -0.116775237 0.2429192066 2.347520768e-38
0.04961138219 -0.05516028032 0.3297092617 2.347520768e-38
-0.07679278404 -0.06979863346 0.3482662141 2.347520768e-38
0.1440481395 -0.09402105212 0.3073578477 2.347520768e-38
-0.22682935 -0.0946097225 -0.06200864166 2.347520768e-38
0.003211949253 -0.0437702015 0.3278473914 2.347520768e-38
0.0327003859 -0.0247997418 0.3429211974 2.347520768e-38
0.08734410256 -0.08913996071 0.3120868802 2.347520768e-38
-0.2336996943 -0.1208147481 0.08332531899 2.347520768e-38
-0.1159907654 -0.05102925375 0.3260428607 2.347520768e-38
0.1245399788 -0.049653586 0.3324724138 2.347520768e-38
0.142010361 -0.09322571754 0.2146124542 2.347520768e-38
-0.2195336074 -0.1142810285 0.1974204183 2.347520768e-38
-0.2180269063 -0.05952665955 0.2774375379 2.347520768e-38
0.1593363285 -0.06532996148 0.3257659078 2.347520768e-38
0.1879302263 -0.09897965938 0.2475037277 2.347520768e-38
-0.1775808483 -0.08837880194 0.3464119732 2.347520768e-38
-0.176868856 -0.05052193627 0.2900182605 2.347520768e-38
0.2341462225 -0.09982738644 0.2890789509 2.347520768e-38
0.2045052201 -0.103903532 0.2467624247 2.347520768e-38
0.005753088742 -0.04012690485 0.3367572725 2.347520768e-38
0.2226352543 -0.1108162105 0.2213869542 2.347520768e-38
0.2421227247 -0.07651461661 0.3076877296 2.347520768e-38
0.04539009184 -0.07453448325 0.3162717819 2.347520768e-38
-0.1907183379 -0.09580836445 0.3464039266 2.347520768e-38
0.1251208782 -0.07520634681 0.3250699937 2.347520768e-38
-0.2110988796 -0.1012800708 0.03451179713 2.347520768e-38
0.1085987687 0.08529695123 -0.4698528051 2.347161195e-38
0.04032926261 0.08819147944 -0.463503927 2.347161195e-38
-0.1672174186 -0.01736097597 -0.4574212432 2.347161195e-38
-0.1906176805 -0.002909331815 -0.4614042938 2.347161195e-38
0.1087037697 0.06504425406 -0.4726495445 2.347161195e-38
0.2590309381 0.09550928324 -0.4678556919 2.347161195e-38
0.190949738 0.02410189435 -0.4508624673 2.347161195e-38
-0.1465169191 0.08705390245 -0.4499704838 2.347161195e-38
-0.06192997098 0.07873315364 -0.4614791274 2.347161195e-38
-0.01900396496 0.09589210153 -0.4442445338 2.347161195e-38
0.1250721514 0.01965456642 -0.4571551383 2.347161195e-38
-0.1766422987 0.07953985035 -0.450949043 2.347161195e-38
-0.02338688821 0.08998994529 -0.4526312947 2.347161195e-38
0.0887157768 0.1000933647 -0.4319443703 2.347161195e-38
-0.1073597074 -0.02117569745 -0.4548612237 2.347161195e-38
-0.1764550507 0.05971242115 -0.4577167034 2.347161195e-38
0.05702073127 0.05817919225 -0.4716210067 2.347161195e-38
0.2055929601 0.1053870022 -0.4576114416 2.347161195e-38
-0.03494606912 0.02194340341 -0.4658695757 2.347161195e-38
-0.144062072 0.06440973282 -0.4587228894 2.347161195e-38
-0.00874874182 0.02228187397 -0.4661845267 2.347161195e-38
0.1911419779 0.1043046936 -0.4483686686 2.347161195e-38
0.07840369642 0.03270116821 -0.4670269489 2.347161195e-38
-0.1166997179 0.02575842291 -0.4644342065 2.347161195e-38
-0.07073310763 -0.02826613374 -0.4558622241 2.347161195e-38
0.05692440644 0.09098337591 -0.4636352658 2.347161195e-38
0.197582081 0.06756865233 -0.4672219157 2.347161195e-38
0.09183094651 0.08969970793 -0.4659486711 2.347161195e-38
0.04201334715 -0.03056488 -0.4599283338 2.347161195e-38
-0.09705403447 0.09388060868 -0.4505312741 2.347161195e-38
-0.1173862815 0.04934713244 -0.4643192887 2.347161195e-38
0.002568390453 0.07760426402 -0.4685266316 2.347161195e-38
0.08385884017 -0.004624281544 -0.1208490059 2.346801622e-38
0.08297476918 -0.003418894252 0.1796028018 2.346801622e-38
-0.06905893981 -0.02503417991 -0.3102759421 2.346801622e-38
-0.02348604612 -0.0003877207346 0.05370121449 2.346801622e-38
0.1666480005 -0.02477729134 -0.2155575156 2.346801622e-38
0.002092432929 -0.004047830123 -0.06739223748 2.346801622e-38
0.07059137523 -0.07310573757 -0.3336004913 2.346801622e-38
-0.06238725036 -0.008702553809 -0.205275476 2.346801622e-38
0.1609658599 -0.01603385061 0.006421291269 2.346801622e-38
0.09846967459 -0.005646433216 0.2344821692 2.346801622e-38
0.01091129985 -0.07067072392 -0.3394675851 2.346801622e-38
-0.06106265634 -0.006213394925 -0.1280472875 2.346801622e-38
0.1732787937 -0.01587247476 -0.02425540425 2.346801622e-38
0.09376077354 -0.00456306152 0.2265622765 2.346801622e-38
-0.05013190955 -0.02843437716 -0.3125545979 2.346801622e-38
-0.05405670032 -0.001214607968 -0.03815117106 2.346801622e-38
0.1449333131 -0.009391516447 -0.157434836 2.346801622e-38
0.05648120865 -0.004344871733 0.05651328713 2.346801622e-38
-0.0009661919321 -0.01598316617 -0.265173316 2.346801622e-38
-0.03539338708 -0.0009831261123 -0.02921014465 2.346801622e-38
0.1093272343 -0.01541499514 -0.1858531535 2.346801622e-38
0.04336184636 -0.002613218036 0.09059309959 2.346801622e-38
-0.04540146142 -0.01329963095 -0.2389999628 2.346801622e-38
-0.04536829516 -0.004324692301 -0.1150552556 2.346801622e-38
0.01552929822 -0.01052636933 -0.2186044902 2.346801622e-38
0.02236937918 8.815526962e-05 0.1436709315 2.346801622e-38
0.09344571084 -0.01815945655 -0.2546799481 2.346801622e-38
-0.03051719256 -0.004552507773 -0.1521186084 2.346801622e-38
0.02866803296 -0.01852314547 -0.2711254358 2.346801622e-38
-0.03659415245 0.004073150456 0.1972177476 2.346801622e-38
0.0591924265 -0.00343867531 -0.126564607 2.346801622e-38
-0.09224369377 0.0002729669213 0.09506091475 2.346801622e-38
-0.1099069342 0.102189675 0.4765976369 2.346406175e-38
0.1291355044 0.07988323271 0.4146043658 2.346406175e-38
0.1966349632 0.08402202278 0.4242230058 2.346406175e-38
-0.1576453894 0.09973520041 0.418893069 2.346406175e-38
0.02872671559 0.0777143538 0.4828371406 2.346406175e-38
0.04238513857 0.08904981613 0.438572228 2.346406175e-38
0.268286407 0.07175983489 0.4071004689 2.346406175e-38
-0.01433497481 0.08570911735 0.4117373824 2.346406175e-38
-0.1819554269 0.1150119752 0.4269682169 2.346406175e-38
0.1679537594 0.08151499927 0.4185818732 2.346406175e-38
0.2582870424 0.07139632106 0.3960006535 2.346406175e-38
-0.06655190885 0.09000082314 0.4176204801 2.346406175e-38
-0.1570595205 0.1007318869 0.4728510678 2.346406175e-38
0.1388470381 0.08459340036 0.4324945509 2.346406175e-38
0.208360225 0.08017074317 0.4314552844 2.346406175e-38
-0.1136788577 0.09900799394 0.4228051901 2.346406175e-38
0.02499233 0.08349690586 0.4809249341 2.346406175e-38
0.08867242187 0.09018243104 0.4507679045 2.346406175e-38
0.1776642352 0.08364262432 0.4406973124 2.346406175e-38
-0.1337519884 0.1043156236 0.4389150441 2.346406175e-38
0.06049276143 0.08801148087 0.4766331911 2.346406175e-38
0.05875343084 0.09360166639 0.4593583941 2.346406175e-38
0.1244700775 0.0886651352 0.4619355798 2.346406175e-38
-0.07454650104 0.09659101814 0.4495817721 2.346406175e-38
-0.003703212133 0.09574664384 0.4632594883 2.346406175e-38
-0.007242202759 0.09185638279 0.4463325739 2.346406175e-38
0.04034776986 0.08498551697 0.4785558581 2.346406175e-38
-0.04803209752 0.0920335874 0.4404813051 2.346406175e-38
0.1587888747 0.08354371041 0.4723289013 2.346406175e-38
-0.07087501138 0.08791289479 0.4059403539 2.346406175e-38
-0.1787692159 0.1054023728 0.45963642 2.346406175e-38
0.02560694516 0.08800387383 0.4392085075 2.346406175e-38
-0.1380521357 0.09766104817 -0.4277789295 2.346010729e-38
0.06732591242 0.1000865474 -0.3891640007 2.346010729e-38
0.2425239682 0.009626117535 -0.4308136106 2.346010729e-38
0.2516314983 0.0398478806 -0.3826563954 2.346010729e-38
0.04192685336 0.09329273552 -0.3726602793 2.346010729e-38
-0.01421126444 0.0996555835 -0.398665905 2.346010729e-38
0.2571157217 -0.008328289725 -0.2705187798 2.346010729e-38
0.1888248324 0.1088205501 -0.3823412955 2.346010729e-38
-0.1872443557 0.09384086728 -0.3999419808 2.346010729e-38
0.1238311455 0.0989722535 -0.4004738629 2.346010729e-38
0.2549400032 -0.002540709684 -0.3192110658 2.346010729e-38
0.2162745446 0.1019671038 -0.3783825338 2.346010729e-38
-0.1660023779 0.0938353464 -0.3968959451 2.346010729e-38
0.0655663386 0.1024399549 -0.3985500634 2.346010729e-38
0.255125612 0.008918689564 -0.4022329748 2.346010729e-38
0.2413491905 0.05239636451 -0.433073312 2.346010729e-38
-0.06784889102 0.1019043252 -0.4145793617 2.346010729e-38
-0.01097001787 0.1047607362 -0.4124948084 2.346010729e-38
0.2437832803 0.06498220563 -0.4226356745 2.346010729e-38
0.2146006525 0.04970526695 -0.4498386085 2.346010729e-38
-0.03313399479 0.1014345735 -0.4023854434 2.346010729e-38
0.01692230441 0.1038833186 -0.4220200181 2.346010729e-38
0.2382785976 0.07859145105 -0.4179132283 2.346010729e-38
0.2116577476 0.07691219449 -0.4517094791 2.346010729e-38
-0.05428343266 0.1041146144 -0.4188083708 2.346010729e-38
0.09571671486 0.08811439574 -0.4381169677 2.346010729e-38
0.1505910158 0.09384047985 -0.4196442366 2.346010729e-38
0.1838840842 0.08969377726 -0.4467867315 2.346010729e-38
0.2537253499 0.01175965182 -0.3200086355 2.346010729e-38
0.1972213835 0.1027743518 -0.4020005763 2.346010729e-38
-0.07272942364 0.0958802253 -0.3792592883 2.346010729e-38
0.1175500378 0.09989347309 -0.3937368095 2.346010729e-38
0.0687372908 -0.04598549008 -0.18319121 2.345615283e-38
-0.1079211012 -0.06116731837 -0.2389493436 2.345615283e-38
-0.1827971488 0.001506148605 -0.2445188314 2.345615283e-38
0.04287749156 -0.01440565474 0.2923913002 2.345615283e-38
-0.03844042495 -0.05531057715 -0.2053115666 2.345615283e-38
-0.09921835363 -0.06541904807 -0.03539298475 2.345615283e-38
-0.2062841654 -0.02594779432 0.1889903694 2.345615283e-38
-0.186880514 -0.03019357286 0.07751549035 2.345615283e-38
0.1686264724 -0.03149631247 -0.06463124603 2.345615283e-38
-0.1827764064 -0.04204121977 -0.1888979673 2.345615283e-38
-0.1939473599 -0.002741292818 0.1390625834 2.345615283e-38
-0.2027675956 -0.05185961723 0.1908171326 2.345615283e-38
0.1554724872 -0.03368996829 -0.1142757088 2.345615283e-38
-0.1673984081 -0.05756890029 -0.1557457596 2.345615283e-38
-0.1864019632 -0.007660939358 -0.04292498156 2.345615283e-38
-0.03894760087 -0.02343664318 0.2585117519 2.345615283e-38
0.05191151425 -0.04821065068 -0.1640554965 2.345615283e-38
-0.1218131185 -0.05682951957 0.03453068808 2.345615283e-38
-0.1814537048 -0.0255561769 -0.02159234323 2.345615283e-38
-0.02683206834 -0.02388986759 0.2510736585 2.345615283e-38
0.01906792633 -0.05317391455 -0.1387169212 2.345615283e-38
0.02081834711 -0.03080318682 0.1538327187 2.345615283e-38
-0.1775628179 -0.04201978445 -0.00251666666 2.345615283e-38
-0.1109146327 -0.03370801732 0.2366258651 2.345615283e-38
-0.002405176871 -0.05617010966 -0.05499752611 2.345615283e-38
0.1056931168 -0.005928745028 0.2300592661 2.345615283e-38
-0.08464710414 -0.06268004328 -0.1542992294 2.345615283e-38
-0.1181665957 -0.06018153578 0.06610499322 2.345615283e-38
-0.153079465 -0.03757037595 0.2270767987 2.345615283e-38
-0.175093025 -0.06578732282 0.0494822748 2.345615283e-38
0.05900023505 -0.04532787576 -0.0001545771956 2.345615283e-38
0.00223781541 -0.04257610068 0.1198208481 2.345615283e-38
0.01543404162 -0.1200127006 -0.22474657 2.345219836e-38
-0.08816671371 -0.1360110641 -0.4073717594 2.345219836e-38
-0.1424619853 -0.1284236014 -0.3324337602 2.345219836e-38
0.1138600037 -0.1096660495 -0.2912093997 2.345219836e-38
0.06019727141 -0.09236124903 0.036806833 2.345219836e-38
0.1626782715 -0.0934035182 -0.09937798232 2.345219836e-38
-0.1169555783 -0.1064420864 0.03551242501 2.345219836e-38
0.01355030481 -0.1118827686 -0.3964232206 2.345219836e-38
0.04151563346 -0.1192951351 -0.2539423406 2.345219836e-38
-0.1426958144 -0.1518558562 -0.4142696857 2.345219836e-38
-0.1636492312 -0.103156738 -0.1105899289 2.345219836e-38
0.07537409663 -0.1028716117 -0.3811897635 2.345219836e-38
0.08447421342 -0.112008892 -0.1896127909 2.345219836e-38
-0.09262540191 -0.1366420239 -0.4032839835 2.345219836e-38
-0.08654227108 -0.1122221798 -0.2274591774 2.345219836e-38
0.01390446536 -0.1176952198 -0.320194006 2.345219836e-38
0.08959171921 -0.1044691354 -0.1028333083 2.345219836e-38
0.05212624744 -0.1148781776 -0.2802799344 2.345219836e-38
-0.05688267946 -0.1238160059 -0.2724480927 2.345219836e-38
-0.03670709208 -0.1234780625 -0.3078226745 2.345219836e-38
0.1193754524 -0.09915643185 -0.06898471713 2.345219836e-38
0.04701475799 -0.1154978275 -0.2803960741 2.345219836e-38
-0.02713034488 -0.1165906265 -0.2095030844 2.345219836e-38
-0.064383775 -0.1249421984 -0.3325954378 2.345219836e-38
0.1120029017 -0.1037574559 -0.1120697632 2.345219836e-38
0.09082526714 -0.1143556908 -0.266174227 2.345219836e-38
-0.02533911914 -0.1063550115 -0.08704642206 2.345219836e-38
-0.1214332506 -0.1279373914 -0.3589109182 2.345219836e-38
-0.1109369323 -0.1208449826 -0.2625897527 2.345219836e-38
0.0214363914 -0.1093979552 -0.3901185989 2.345219836e-38
0.1166716442 -0.1105301827 -0.2407860011 2.345219836e-38
-0.05353801697 -0.1281492859 -0.3955990076 2.345219836e-38
0.1560347676 -0.01625731587 0.1675662398 2.344788516e-38
0.04338813201 -0.00519888429 -0.04827750474 2.344788516e-38
0.1599644423 -0.01928684674 0.1024506614 2.344788516e-38
0.1093067154 -0.01481672563 0.1488058567 2.344788516e-38
0.1609979868 -0.01785843074 0.1356652528 2.344788516e-38
-0.001890128129 -0.008949478157 0.1320783645 2.344788516e-38
0.1156751812 -0.007781343069 -0.02428082563 2.344788516e-38
0.1262759864 -0.009082363918 0.2979570031 2.344788516e-38
0.1960201412 -0.001894324669 0.29971084 2.344788516e-38
0.0290493723 -0.006290010177 -0.1215883344 2.344788516e-38
0.1162699088 -0.01077583246 0.05261013284 2.344788516e-38
0.1174347252 -0.01205298956 0.2577685416 2.344788516e-38
0.1908219755 -0.008252845146 0.251719743 2.344788516e-38
0.01641486585 -0.006374468561 -0.03744655102 2.344788516e-38
0.145337984 -0.01902870461 0.09150268883 2.344788516e-38
0.08906173706 -0.01426105201 0.1794355959 2.344788516e-38
0.166812554 -0.01681014709 0.1658237278 2.344788516e-38
0.06162234768 -0.005794706289 0.08962826431 2.344788516e-38
0.1303044111 -0.01412338577 0.06220395118 2.344788516e-38
0.09273426235 -0.01459285058 0.1667155623 2.344788516e-38
0.1632686108 -0.01755124889 0.1570352316 2.344788516e-38
0.1156957522 -0.01232034434 0.1219117492 2.344788516e-38
0.1028467044 -0.00728566153 0.01925146393 2.344788516e-38
0.0983229056 -0.009600360878 0.1298757046 2.344788516e-38
0.1513424069 -0.009272762574 0.2497807145 2.344788516e-38
0.1186872497 -0.01325329114 0.1228714511 2.344788516e-38
0.04247291014 -0.01368149463 0.2237937599 2.344788516e-38
0.04116242006 -0.008742733859 0.1465438306 2.344788516e-38
0.04371041059 -0.01485842094 0.2018142939 2.344788516e-38
0.1211221591 -0.01503361948 0.1704920083 2.344788516e-38
0.1988127083 0.005007189699 0.3670220673 2.344788516e-38
0.0474281311 -0.007512277458 0.04116276279 2.344788516e-38
0.1868552566 -0.0587297678 0.06865179539 2.344357197e-38
0.0568484813 -0.01436369587 -0.08557549864 2.344357197e-38
0.04470209777 0.006391378585 0.2906950116 2.344357197e-38
0.08135355264 -0.02032618038 -0.05888193846 2.344357197e-38
0.2122066021 -0.07893326133 0.07764907181 2.344357197e-38
0.1579250544 -0.04073385894 -0.03994069248 2.344357197e-38
0.2137470245 -0.06845022738 0.3395975828 2.344357197e-38
0.01071634889 0.005343684461 0.2079087198 2.344357197e-38
0.1521319747 -0.04169745743 0.009680793621 2.344357197e-38
0.07684902847 -0.01807930321 -0.1756969988 2.344357197e-38
0.1696324199 -0.0248517599 0.3487769663 2.344357197e-38
-0.02704004198 0.01163573191 0.2129301131 2.344357197e-38
0.1797379106 -0.05460996181 -0.01403406914 2.344357197e-38
0.08797674626 -0.02037215047 -0.1065368503 2.344357197e-38
0.1172857583 -0.002581264591 0.3100577295 2.344357197e-38
0.04191542789 -0.007746010553 0.09951785952 2.344357197e-38
0.1937741041 -0.0639789179 0.03702061996 2.344357197e-38
0.1156984419 -0.02945316397 -0.03457018733 2.344357197e-38
0.1188080385 -0.007205033675 0.2884884477 2.344357197e-38
0.008641638793 0.005639154464 0.2009304166 2.344357197e-38
0.194179073 -0.06315196306 0.06810733676 2.344357197e-38
0.04548314586 -0.01086116116 0.05982663855 2.344357197e-38
0.1880034953 -0.04034045711 0.2127286643 2.344357197e-38
0.07442444563 -0.008053357713 0.2138482481 2.344357197e-38
0.2185348421 -0.06956448406 0.2484973669 2.344357197e-38
0.04593673721 -0.00724257715 0.09574943781 2.344357197e-38
0.2111969143 -0.06795762479 0.2960956097 2.344357197e-38
0.108469218 -0.006364047062 0.286131531 2.344357197e-38
0.2004308403 -0.06519396603 0.2151142955 2.344357197e-38
0.03487765044 -0.007570019457 0.001189488336 2.344357197e-38
0.1182192415 -0.02871582843 0.073013708 2.344357197e-38
0.1928419918 -0.04307567328 -0.1377718598 2.344357197e-38
-0.002168569947 0.1052671298 0.3331611753 2.343925737e-38
-0.08300065994 0.0891912505 0.3223918974 2.343925737e-38
0.1061786711 0.08833822608 0.3365508318 2.343925737e-38
-0.1557962745 0.06680013984 0.3299942315 2.343925737e-38
-0.06060943753 0.09522916377 0.3306139112 2.343925737e-38
0.05943197384 0.06435846537 0.3091150522 2.343925737e-38
0.2302449197 0.06278686225 0.3442761898 2.343925737e-38
-0.2115238607 0.1058915481 0.2692257464 2.343925737e-38
0.04860477522 0.1028060392 0.3332018256 2.343925737e-38
-0.1147670224 0.07758117467 0.3324866295 2.343925737e-38
0.2188568264 0.06119372323 0.3414541483 2.343925737e-38
-0.2016331702 0.1143283099 0.3236151338 2.343925737e-38
0.00325834332 0.1041868255 0.333445847 2.343925737e-38
-0.07452073693 0.07410351932 0.3218298256 2.343925737e-38
