# .PCD v0.7 - Point Cloud Data file format
VERSION 0.7
FIELDS x y z rgb
SIZE 4 4 4 4
TYPE F F F F
COUNT 1 1 1 1
WIDTH 824
HEIGHT 1
VIEWPOINT 0 0 0 1 0 0 0
POINTS 824
DATA ascii
0.02267570235 -0.0314296931 0.2030027658 8.742304551e-39
-0.1118111983 -0.04421292245 0.2344925702 8.742304551e-39
0.0244425796 -0.04098798335 0.3298192918 8.742304551e-39
0.03245851398 -0.03932634369 0.2661083043 8.742304551e-39
0.02888494171 -0.03186185658 0.2090255767 8.742304551e-39
-0.06608738005 -0.04047254473 0.2639257908 8.742304551e-39
0.0617499724 -0.04061092064 0.3332017064 8.742304551e-39
0.06224753708 -0.03975763172 0.2699559927 8.742304551e-39
0.04993221909 -0.03412272036 0.2210064977 8.742304551e-39
-0.04439807311 -0.03974822164 0.2789173722 8.742304551e-39
0.01215285622 -0.03852136806 0.3226443827 8.742304551e-39
-0.009195843711 -0.04178325832 0.2851567268 8.742304551e-39
0.06657434255 -0.0348187685 0.2362433821 8.742304551e-39
-0.08939706534 -0.04323618859 0.2478519231 8.742304551e-39
0.1062369645 -0.03433407843 0.3057601452 8.742304551e-39
0.06664972007 -0.03887844458 0.2902464271 8.742304551e-39
0.118111223 -0.03431044146 0.2637399435 8.742304551e-39
-0.06235284358 -0.0399588272 0.2677641213 8.742304551e-39
0.1312931925 -0.03066551127 0.2827012837 8.742304551e-39
-0.001322760363 -0.04231007397 0.2849228084 8.742304551e-39
0.07507997751 -0.03733754531 0.2974642515 8.742304551e-39
-0.02178054675 -0.04109378159 0.2882013321 8.742304551e-39
0.1414407641 -0.03052330762 0.2736189961 8.742304551e-39
0.0558340326 -0.04075144604 0.2873335481 8.742304551e-39
-0.2444116622 -0.007815227844 0.08535066992 8.012284103e-39
-0.1887661517 0.009703589603 0.1726825982 8.012284103e-39
-0.2176985294 0.006369874813 0.09086455405 8.012284103e-39
-0.1842741072 0.0131233437 0.1696749777 8.012284103e-39
-0.2582892179 -0.005624928512 0.03109776787 8.012284103e-39
-0.1908880174 0.01174345426 0.1505575329 8.012284103e-39
-0.192846328 0.005249713082 0.1924150139 8.012284103e-39
-0.1768995225 0.01660623029 0.1810660958 8.012284103e-39
-0.2681971788 -0.0123704914 -0.01623187773 8.012284103e-39
-0.1871454269 0.01030619536 0.1747565418 8.012284103e-39
-0.2088012993 -0.004486931488 0.1671998054 8.012284103e-39
-0.15620704 0.0172430221 0.2445053756 8.012284103e-39
-0.2627896369 -0.009753242135 0.02935227007 8.012284103e-39
-0.1828754544 0.009905576706 0.2029019892 8.012284103e-39
-0.2044990361 -0.004578019492 0.1780816913 8.012284103e-39
-0.1467673033 0.0157679785 0.262008965 8.012284103e-39
-0.2523279786 -0.00894600153 0.07090139389 8.012284103e-39
-0.1610208899 0.005412248429 0.2508668602 8.012284103e-39
-0.1829085797 -0.002604525769 0.2143747509 8.012284103e-39
-0.1644446403 0.01422671322 0.2373990566 8.012284103e-39
-0.2662422955 -0.01405116078 0.03538506851 8.012284103e-39
-0.1900470406 0.006600780413 0.1943255514 8.012284103e-39
-0.2238342464 -0.01190047618 0.1407157928 8.012284103e-39
-0.1576884687 0.004961576778 0.2565732598 8.012284103e-39
-0.2402473539 -0.004816688132 0.1032864824 8.012284103e-39
-0.1875431985 0.003082637442 0.2061425447 8.012284103e-39
-0.2012906969 -0.0112022711 0.183839947 8.012284103e-39
-0.1982642412 0.002560846042 0.1802116334 8.012284103e-39
-0.2310884148 -0.0200106632 0.1315143406 8.012284103e-39
-0.1817753464 -0.02089121193 0.2020479441 8.012284103e-39
-0.2722704709 -0.02176003531 0.03834235296 8.012284103e-39
-0.2014590651 -0.02365105227 0.1696592271 8.012284103e-39
-0.3275786638 0.03818516433 0.04212472215 7.281903522e-39
-0.2496958226 0.0637743026 0.1038106084 7.281903522e-39
-0.3174870908 0.03216844797 0.05509258807 7.281903522e-39
-0.2594294846 0.04642434418 0.04360365868 7.281903522e-39
-0.3018058538 0.03590507433 -0.001675812411 7.281903522e-39
-0.2939474285 0.0408231169 0.05219985545 7.281903522e-39
-0.3059174716 0.02383819036 -0.07749778777 7.281903522e-39
-0.1853885055 0.05566034466 0.07934645563 7.281903522e-39
-0.2844274044 0.03270613402 -0.01108187158 7.281903522e-39
-0.1597544998 0.04955349118 -0.001584876096 7.281903522e-39
-0.3091965914 0.03099829517 -0.04488152638 7.281903522e-39
-0.1738742739 0.05800349638 0.09013856202 7.281903522e-39
-0.28199175 0.03209610283 -0.03355520964 7.281903522e-39
-0.1779193729 0.05364122987 0.0005538910045 7.281903522e-39
-0.3020147085 0.03673139215 0.007147970609 7.281903522e-39
-0.1784612238 0.05776685849 0.08903417736 7.281903522e-39
-0.2695316076 0.02938549407 -0.03468219936 7.281903522e-39
-0.2035342306 0.05078944191 -0.004361010157 7.281903522e-39
-0.2814026773 0.02139397524 -0.0785324499 7.281903522e-39
-0.1939056963 0.05587495118 0.05920042098 7.281903522e-39
-0.2588586211 0.03710481152 -0.02536418475 7.281903522e-39
-0.1446204931 0.04719616845 -0.003587156069 7.281903522e-39
-0.311155051 0.03708403185 0.0658999905 7.281903522e-39
-0.1970195025 0.06193895265 0.1012666672 7.281903522e-39
-0.2805891633 0.03230198473 -0.03252974898 7.281903522e-39
-0.2218221873 0.04972995445 -0.007258814294 7.281903522e-39
-0.2698072195 0.02570666932 -0.04226382822 7.281903522e-39
-0.1944304705 0.05511341244 0.08802825212 7.281903522e-39
-0.213830173 0.02800598554 -0.04713136703 7.281903522e-39
-0.1931620985 0.03111467883 -0.0342901051 7.281903522e-39
-0.2623058856 0.03747802973 -0.02345459722 7.281903522e-39
-0.2187540531 0.05423329771 0.01540720183 7.281903522e-39
0.09960430115 0.0371789448 0.09054076672 6.55152294e-39
0.02874600887 0.06303939223 0.004855698906 6.55152294e-39
0.1498026401 0.03058015555 0.1079563722 6.55152294e-39
-0.1402696818 0.04795472324 -0.09412914515 6.55152294e-39
0.1081812978 0.03485059366 0.08761911839 6.55152294e-39
0.04472883418 0.05338371918 -0.002678008052 6.55152294e-39
0.1724389493 0.03285995498 0.1529209316 6.55152294e-39
-0.07189942896 0.06782190502 -0.05699604377 6.55152294e-39
0.02935026586 0.06079469621 0.03388711065 6.55152294e-39
-0.02418367937 0.07035975903 -0.0503243655 6.55152294e-39
0.110519208 0.04180764407 0.1494720429 6.55152294e-39
-0.09084030986 0.06194620207 -0.07440345734 6.55152294e-39
0.02967522293 0.05939038098 0.04819989949 6.55152294e-39
0.01348851621 0.07137067616 -0.03120259196 6.55152294e-39
0.07986798882 0.04756715521 0.1223565787 6.55152294e-39
-0.08939308673 0.05414551124 -0.09530498087 6.55152294e-39
0.03183639422 0.05360610038 0.03961250558 6.55152294e-39
0.03362705931 0.06159546226 -0.00706406869 6.55152294e-39
0.1337542236 0.03844343498 0.1474830955 6.55152294e-39
-0.0668970868 0.06812737882 -0.04064219818 6.55152294e-39
0.0273281727 0.05933712795 0.03123934753 6.55152294e-39
-0.01062432025 0.07092211396 -0.04022711515 6.55152294e-39
0.05089587346 0.05217104778 0.1139623523 6.55152294e-39
-0.06622128189 0.06103447825 -0.08933992684 6.55152294e-39
0.04314646497 0.05589451641 0.1418583542 6.55152294e-39
0.03879132122 0.05549666286 -0.006590066012 6.55152294e-39
0.0634322688 0.05255107582 0.173092708 6.55152294e-39
0.02319358103 0.06962187588 0.09005931765 6.55152294e-39
0.01944544725 0.06618665159 0.1119824946 6.55152294e-39
0.00446876511 0.06863482296 -0.054701332 6.55152294e-39
0.02860943601 0.06041024253 -0.02761081792 6.55152294e-39
0.02252694778 0.06823989004 -0.05083175749 6.55152294e-39
-0.3125485778 -0.06195878983 -0.2011639923 5.820783626e-39
-0.332716465 -0.06450746208 -0.1720591784 5.820783626e-39
-0.3375660181 -0.07105903327 -0.2220747918 5.820783626e-39
-0.4028478265 -0.05964489654 -0.0187467467 5.820783626e-39
-0.2423874438 -0.05481550843 -0.237880677 5.820783626e-39
-0.3757337928 -0.06131466478 -0.07321179658 5.820783626e-39
-0.4254689217 -0.06631907076 -0.1005230844 5.820783626e-39
-0.3099600375 -0.0444130078 0.1396406442 5.820783626e-39
-0.3560705185 -0.0634271279 -0.0910051018 5.820783626e-39
-0.3170321286 -0.0400336124 0.1345631629 5.820783626e-39
-0.4170312583 -0.07114848495 -0.1438109875 5.820783626e-39
-0.3918685317 -0.0561401695 0.05171088874 5.820783626e-39
-0.324357748 -0.06669804454 -0.1395586431 5.820783626e-39
-0.3632259071 -0.04740066826 0.09084430337 5.820783626e-39
-0.4135817587 -0.06989771873 -0.1491981894 5.820783626e-39
-0.4005606174 -0.0621069707 -0.006601105444 5.820783626e-39
-0.3159580231 -0.06603679061 -0.1504039615 5.820783626e-39
-0.3701840937 -0.04814213514 0.07570490241 5.820783626e-39
-0.4283373654 -0.06668832898 -0.1093488038 5.820783626e-39
-0.280315727 -0.04005680606 0.1453406513 5.820783626e-39
-0.3605024517 -0.06429664791 -0.08839288354 5.820783626e-39
-0.3274080157 -0.0409369953 0.1303324252 5.820783626e-39
-0.3821713328 -0.0686609894 -0.144585669 5.820783626e-39
-0.3962907493 -0.06227651983 -0.01374404039 5.820783626e-39
-0.2956137657 -0.06597723812 -0.1604122221 5.820783626e-39
-0.3850173652 -0.05640589818 0.0181313511 5.820783626e-39
-0.3779668212 -0.06593487412 -0.1483791023 5.820783626e-39
-0.3944195807 -0.06028956547 0.0001520272344 5.820783626e-39
-0.3533505797 -0.05651702732 0.02002167143 5.820783626e-39
-0.3527589738 -0.04579316452 0.1079564244 5.820783626e-39
-0.3998363614 -0.04305134714 0.08437556028 5.820783626e-39
-0.3986242712 -0.04377574846 0.08668530732 5.820783626e-39
0.3003046811 -0.04409533367 -0.1635401398 5.090401643e-39
0.3425872922 -0.05293819308 0.1004910618 5.090401643e-39
0.3555715978 -0.05461032316 0.0700731352 5.090401643e-39
0.2262412608 -0.04495164379 0.2222800106 5.090401643e-39
0.326700747 -0.04625853524 -0.1301392317 5.090401643e-39
0.262586087 -0.04889014736 0.1807782352 5.090401643e-39
0.3602820039 -0.05154396221 -0.01478483621 5.090401643e-39
0.2299533486 -0.04426561296 0.2087097466 5.090401643e-39
0.2634235919 -0.04489678144 -0.1789561957 5.090401643e-39
0.2697480321 -0.04502395168 0.1835917681 5.090401643e-39
0.3509158492 -0.06284425408 0.06760340184 5.090401643e-39
0.1869918257 -0.05008953437 0.2398287505 5.090401643e-39
0.3070581257 -0.04976462573 -0.141956389 5.090401643e-39
0.204751417 -0.0482971333 0.2206006944 5.090401643e-39
0.3057122529 -0.0646372214 0.12252599 5.090401643e-39
0.1726572961 -0.05259625241 0.2605502307 5.090401643e-39
0.3155007958 -0.05060935393 -0.1325190216 5.090401643e-39
0.2171633989 -0.05057062581 0.2030609101 5.090401643e-39
0.356865257 -0.05955737457 0.003170805518 5.090401643e-39
0.1978830993 -0.04898443073 0.2221014202 5.090401643e-39
0.2917292416 -0.04477144778 -0.1637155861 5.090401643e-39
0.2304566056 -0.04668868333 0.19409284 5.090401643e-39
0.3053326905 -0.0681001842 0.09877317399 5.090401643e-39
0.2220755219 -0.0487325713 0.1967239827 5.090401643e-39
0.3502621055 -0.05787908286 -0.05211458355 5.090401643e-39
0.2992226481 -0.05941253901 0.1373310685 5.090401643e-39
0.3557504117 -0.06244539097 0.01169453561 5.090401643e-39
0.3242138922 -0.05286857858 0.1398229301 5.090401643e-39
0.3392925262 -0.05302983522 -0.09025184065 5.090401643e-39
0.2817144394 -0.07043583691 0.1412574947 5.090401643e-39
0.3521752656 -0.06689545512 0.007596039213 5.090401643e-39
0.246735841 -0.07004415989 0.1447816938 5.090401643e-39
0.2012748271 -0.03007587604 0.2521013319 4.359662329e-39
0.3600012362 -0.04129065201 0.01678324118 4.359662329e-39
0.3374771178 -0.04708084092 0.08590728045 4.359662329e-39
0.3085041046 -0.0282385163 -0.08263564855 4.359662329e-39
0.2998422682 -0.04797198251 0.1735955775 4.359662329e-39
0.3414402008 -0.04194959626 0.09496257454 4.359662329e-39
0.2788082957 -0.04027434438 0.2158716321 4.359662329e-39
0.3013660908 -0.03083278239 -0.1067961529 4.359662329e-39
0.1645306647 -0.02152461745 0.2736401856 4.359662329e-39
0.3522497714 -0.04481849447 0.007117382251 4.359662329e-39
0.2750302851 -0.05470844358 0.1832544506 4.359662329e-39
0.3225514293 -0.02640658058 -0.0454774946 4.359662329e-39
0.1835571378 -0.02533777058 0.2622415423 4.359662329e-39
0.3375820816 -0.06130560488 0.02994596958 4.359662329e-39
0.2630741298 -0.06334879249 0.1559286267 4.359662329e-39
0.3259035051 -0.02768849768 -0.03520320356 4.359662329e-39
0.1738974303 -0.0311971996 0.2539166212 4.359662329e-39
0.3169468343 -0.07171683013 0.05482144281 4.359662329e-39
0.239376381 -0.05400883406 0.2003999352 4.359662329e-39
0.3043839037 -0.02966012433 -0.1012632176 4.359662329e-39
0.1689067632 -0.03299251944 0.2534492612 4.359662329e-39
0.3456705511 -0.05803398415 0.01923742518 4.359662329e-39
0.2831509411 -0.07715539634 0.08865005523 4.359662329e-39
0.3481733203 -0.03920965269 -0.002352471696 4.359662329e-39
0.3045211434 -0.06077364832 0.1155843586 4.359662329e-39
0.324517101 -0.06478074938 0.06252332777 4.359662329e-39
0.2652154863 -0.07817693055 0.1153474674 4.359662329e-39
0.3498436213 -0.04581525177 0.005934965797 4.359662329e-39
0.2433811873 -0.09627513587 0.09078253806 4.359662329e-39
0.3399211168 -0.04906187952 -0.001873490983 4.359662329e-39
0.2455016077 -0.1072830856 0.07508551329 4.359662329e-39
0.3384122849 -0.04632915929 -0.008653879166 4.359662329e-39
-0.2242196202 -0.07670497149 0.04933998361 3.628921614e-39
-0.2387417853 -0.090233244 0.05327112228 3.628921614e-39
-0.2247567922 -0.07548467815 0.2187095433 3.628921614e-39
-0.2420367151 -0.09741268307 0.1535162777 3.628921614e-39
-0.1773649156 -0.08417278528 -0.067834571 3.628921614e-39
-0.2735425234 -0.08838065714 0.03303677961 3.628921614e-39
-0.2213605195 -0.09370798618 0.01968749985 3.628921614e-39
-0.2246877998 -0.0954548642 0.1416911036 3.628921614e-39
-0.2257107049 -0.09439141303 0.02637854591 3.628921614e-39
-0.2349134237 -0.09183528274 0.08287344128 3.628921614e-39
-0.2431311905 -0.09804572165 0.07253473997 3.628921614e-39
-0.2333058715 -0.1015196964 0.08960724622 3.628921614e-39
-0.2101344764 -0.09137523174 0.01172556449 3.628921614e-39
-0.2465156466 -0.08626312762 0.06162434816 3.628921614e-39
-0.2471058518 -0.09829699248 0.1322133243 3.628921614e-39
-0.2378616035 -0.09997609258 0.07628468424 3.628921614e-39
-0.2137766629 -0.08912950754 0.02860854194 3.628921614e-39
-0.2611463368 -0.08376616985 0.05501011759 3.628921614e-39
-0.2224890143 -0.09458523989 0.02818048187 3.628921614e-39
-0.2236603498 -0.09934344888 0.1042558178 3.628921614e-39
-0.2245394886 -0.09564057738 0.0695213303 3.628921614e-39
-0.2348356247 -0.09693653136 0.07630987465 3.628921614e-39
-0.247797966 -0.1007128656 0.04521766305 3.628921614e-39
-0.2391773611 -0.09842145443 -6.578862667e-05 3.628921614e-39
-0.1889063716 -0.08609960973 -0.0456694141 3.628921614e-39
-0.2533173561 -0.08154395223 0.08071151376 3.628921614e-39
-0.2228597701 -0.09366928786 -0.03630805016 3.628921614e-39
-0.2524853945 -0.1023244411 0.004432841204 3.628921614e-39
-0.2411710322 -0.1003751755 0.07310119271 3.628921614e-39
-0.23712641 -0.08835828304 0.1451141834 3.628921614e-39
-0.2353858501 -0.1003176048 0.09955124557 3.628921614e-39
-0.2398411185 -0.1027262583 0.07648923248 3.628921614e-39
0.1133450717 -0.07156015188 0.1254350841 2.898180898e-39
0.3027712405 -0.0747269243 0.01018795837 2.898180898e-39
0.02255555615 -0.08200814575 0.1582128704 2.898180898e-39
0.08821766824 -0.07514441013 0.1198666617 2.898180898e-39
0.0638102293 -0.07627046108 0.1691525131 2.898180898e-39
0.1365443468 -0.08063697815 0.01895693503 2.898180898e-39
0.1831939071 -0.08451601863 0.01300617121 2.898180898e-39
0.2198842168 -0.07810802758 0.02177488431 2.898180898e-39
0.2520009577 -0.0784547627 0.0211507082 2.898180898e-39
0.2964366376 -0.07388097048 0.009756403044 2.898180898e-39
0.01924408972 -0.08187765628 0.162442252 2.898180898e-39
0.1119123399 -0.07284570485 0.09510589391 2.898180898e-39
0.144303754 -0.07388348132 0.06357577443 2.898180898e-39
0.2465927601 -0.08232417703 0.009682310745 2.898180898e-39
-0.0246868562 -0.07988721132 0.1762266457 2.898180898e-39
0.07018137723 -0.07794588804 0.1175790951 2.898180898e-39
0.0522591956 -0.07930599153 0.1068953127 2.898180898e-39
0.2219308615 -0.08405025303 0.01054332498 2.898180898e-39
0.01810716279 -0.08215890825 0.1498057097 2.898180898e-39
0.1131000742 -0.07654068619 0.03697612882 2.898180898e-39
0.2594649494 -0.07980046421 0.01067851391 2.898180898e-39
0.2672560215 -0.0784169957 0.009293192066 2.898180898e-39
-0.06201918423 -0.08710778505 0.0464438796 2.898180898e-39
0.07186104357 -0.08093462139 0.07150314748 2.898180898e-39
0.1495377868 -0.07764013857 0.03509635106 2.898180898e-39
0.1411368102 -0.08602410555 0.01259668544 2.898180898e-39
0.1147936136 -0.08332981914 0.01357312035 2.898180898e-39
0.1068529338 -0.08307307959 0.01726256497 2.898180898e-39
0.3171260953 -0.07285688818 0.005086738151 2.898180898e-39
0.3401325345 -0.06952289492 0.0003833388619 2.898180898e-39
0.1742987931 -0.08612035215 0.009642501362 2.898180898e-39
0.09236314148 -0.09028398246 0.008052462712 2.898180898e-39
-0.064435184 -0.01897324808 -0.2786880732 2.167082852e-39
-0.1921509057 -0.0246822387 -0.2883478105 2.167082852e-39
0.1624701768 -0.009214665741 -0.1816238016 2.167082852e-39
-0.2100389153 -0.02800456434 -0.3126550615 2.167082852e-39
-0.1267168969 -0.02133332938 -0.2944346368 2.167082852e-39
-0.2361215055 -0.03049829043 -0.2971900403 2.167082852e-39
0.2092528194 -0.01100430172 -0.1714097261 2.167082852e-39
-0.1595004797 -0.02204931341 -0.2980237901 2.167082852e-39
0.0003457609564 -0.01179513428 -0.2641236782 2.167082852e-39
-0.1124894768 -0.01776171289 -0.2738753557 2.167082852e-39
0.1461816132 -0.008637641557 -0.1839092076 2.167082852e-39
-0.1784406006 -0.02312679589 -0.3029544353 2.167082852e-39
-0.01939531229 -0.01351659745 -0.2683656812 2.167082852e-39
-0.1355813593 -0.01837003231 -0.279546231 2.167082852e-39
0.1133702323 -0.008686465211 -0.1930419207 2.167082852e-39
-0.1890856475 -0.02419548854 -0.30643484 2.167082852e-39
-0.03634556755 -0.01517727692 -0.271152705 2.167082852e-39
-0.140062511 -0.01910894923 -0.2817416489 2.167082852e-39
0.1742706895 -0.009952045046 -0.1774815023 2.167082852e-39
-0.1709352881 -0.02236357331 -0.2942679822 2.167082852e-39
0.001220536768 -0.01115437131 -0.262785852 2.167082852e-39
-0.1126734689 -0.01782065816 -0.2807815671 2.167082852e-39
0.06303106248 -0.007869744673 -0.2274348289 2.167082852e-39
-0.2410148531 -0.03029998206 -0.2981399596 2.167082852e-39
-0.0670870021 -0.01656985283 -0.2706025243 2.167082852e-39
-0.1578014046 -0.0218936298 -0.2894655764 2.167082852e-39
0.05718709156 -0.007266717497 -0.223571077 2.167082852e-39
-0.2073827982 -0.02566715889 -0.2785505056 2.167082852e-39
0.03761770949 -0.01030317042 -0.249226585 2.167082852e-39
-0.05144680664 -0.01813150011 -0.2714679241 2.167082852e-39
0.08651722968 -0.009300451726 -0.2325979471 2.167082852e-39
-0.1497507542 -0.02287043072 -0.3023760319 2.167082852e-39
0.004039116669 0.02925818041 -0.1076276302 1.435982003e-39
-0.2340718508 0.02372485586 -0.09904243797 1.435982003e-39
-0.05594099313 0.02959524654 -0.0920798853 1.435982003e-39
-0.1540845484 0.02995825931 -0.108361803 1.435982003e-39
0.0003224536777 0.03026729636 -0.1305951178 1.435982003e-39
-0.326467067 -0.007284787949 -0.06898140907 1.435982003e-39
-0.0163483806 0.03086914681 -0.09151551872 1.435982003e-39
-0.1201582402 0.03401242942 -0.1115193963 1.435982003e-39
0.00518505089 0.02058513649 -0.0881735906 1.435982003e-39
-0.2324297428 0.01712617092 -0.07393561304 1.435982003e-39
-0.09011062235 0.02633948438 -0.08523092419 1.435982003e-39
-0.1633245945 0.03195243701 -0.111855872 1.435982003e-39
-0.001341289957 0.02666870877 -0.09667362273 1.435982003e-39
-0.2829576731 0.0109388819 -0.07917550951 1.435982003e-39
-0.1260994971 0.02018138953 -0.07509320974 1.435982003e-39
-0.174953416 0.02893547714 -0.1048750505 1.435982003e-39
-0.01105429605 0.03121523932 -0.1016570926 1.435982003e-39
-0.3004993498 0.002247851342 -0.07214868069 1.435982003e-39
-0.05135788769 0.02781919949 -0.08241166919 1.435982003e-39
-0.1027266458 0.03724525124 -0.113187179 1.435982003e-39
0.008901108056 0.02495237626 -0.08946590126 1.435982003e-39
-0.2059491724 0.02479124814 -0.08616100997 1.435982003e-39
-0.1305148304 0.01943666115 -0.0685653165 1.435982003e-39
-0.1807245016 0.02648561075 -0.09754090756 1.435982003e-39
-0.06844890863 0.02630831674 -0.0844874233 1.435982003e-39
-0.2891238928 -0.005805516616 -0.03782416135 1.435982003e-39
-0.09080955386 0.02236767299 -0.07617040724 1.435982003e-39
-0.1440752596 0.0241403766 -0.08111713827 1.435982003e-39
-0.06292326003 0.03008108959 -0.1130814254 1.435982003e-39
-0.1431411654 0.01882247254 -0.08218837529 1.435982003e-39
-0.1028294712 0.01097483467 -0.0368828699 1.435982003e-39
-0.1387258172 0.03112075664 -0.09294372797 1.435982003e-39
-0.06934027374 -0.005646909121 0.2254113406 7.045238224e-40
0.002218607813 -0.02859091759 0.2916941047 7.045238224e-40
-0.1849634647 -0.02920265868 0.2739695013 7.045238224e-40
-0.1207578555 -0.01762235165 0.273152411 7.045238224e-40
-0.1095248535 -0.01920104958 0.2783167958 7.045238224e-40
-0.04731389508 -0.01270959061 0.2667019665 7.045238224e-40
-0.0686993897 -0.02540930919 0.2971863747 7.045238224e-40
-0.01572552323 -0.01563475654 0.2676312327 7.045238224e-40
-0.0469074659 -0.001947936951 0.1898795068 7.045238224e-40
0.08235084265 -0.02757788636 0.2487173229 7.045238224e-40
-0.09912221879 -0.0226406306 0.2914504409 7.045238224e-40
-0.03233482316 -0.01932751946 0.2790451944 7.045238224e-40
-0.05542146415 -0.00557258632 0.2218265533 7.045238224e-40
0.06107253581 -0.02870251238 0.2589981854 7.045238224e-40
-0.1173443943 -0.02154672705 0.2901503146 7.045238224e-40
-0.03341896087 -0.02389290184 0.2900405824 7.045238224e-40
-0.0468416512 -0.01928484999 0.2806561589 7.045238224e-40
0.02797214128 -0.0268713478 0.2700092196 7.045238224e-40
-0.08174665272 -0.02382211201 0.29363662 7.045238224e-40
0.02720609121 -0.02852934785 0.273139745 7.045238224e-40
-0.03194401413 -0.009504372254 0.2536115944 7.045238224e-40
0.06082219258 -0.0232736133 0.2529939413 7.045238224e-40
-0.1486819088 -0.01950161532 0.2819480598 7.045238224e-40
0.004752391484 -0.0321037136 0.2947733104 7.045238224e-40
-0.07468657196 -0.01995844953 0.2824448347 7.045238224e-40
-0.03840932623 -0.01818588562 0.2776484787 7.045238224e-40
-0.08292787522 -0.02273481339 0.2898978591 7.045238224e-40
0.01587314904 -0.03048129193 0.2849325538 7.045238224e-40
-0.02030188218 -0.02211328223 0.2836308777 7.045238224e-40
0.09209527075 -0.02270416357 0.2401318252 7.045238224e-40
-0.09322542697 -0.02143832482 0.2844603658 7.045238224e-40
0.02690969966 -0.0303893555 0.2776712775 7.045238224e-40
-0.2766899765 0.0154694682 -0.1062221155 6.490113838e-41
-0.2701595128 0.001685902243 -0.1388534904 6.490113838e-41
-0.2834325731 0.0105245309 0.02958204038 6.490113838e-41
-0.2611191273 -0.00662876619 -0.06000578403 6.490113838e-41
-0.2695909142 0.01849479228 -0.1117703468 6.490113838e-41
-0.2775330245 -0.002756734844 -0.06946653128 6.490113838e-41
-0.2903499007 0.01527937595 -0.007613467053 6.490113838e-41
-0.2421462685 -0.0237797033 -0.1260531992 6.490113838e-41
-0.2502534389 -0.001411237754 -0.1543358713 6.490113838e-41
-0.2603894174 -0.006928632502 -0.1565000862 6.490113838e-41
-0.2851183414 0.008966840804 0.02994078025 6.490113838e-41
-0.2232135385 -0.02204250731 -0.07987724245 6.490113838e-41
-0.2700536251 0.007857367396 -0.1313278675 6.490113838e-41
-0.273398906 -0.009438967332 -0.1109667793 6.490113838e-41
-0.2564409971 -0.0002890820615 0.05390093103 6.490113838e-41
-0.2185121477 -0.01940953359 -0.05153921247 6.490113838e-41
-0.2795046568 0.01018529013 -0.1069126353 6.490113838e-41
-0.2692638636 -0.007174213883 -0.07648308575 6.490113838e-41
-0.2890115678 0.009318446741 0.01387042273 6.490113838e-41
-0.2228251249 -0.02322261035 -0.08391604573 6.490113838e-41
-0.267973721 0.007553670555 -0.1360331327 6.490113838e-41
-0.2635690272 -0.008989999071 -0.1533208638 6.490113838e-41
-0.2488142103 -0.002019733191 0.06498006731 6.490113838e-41
-0.25046435 -0.006660073064 -0.02827526815 6.490113838e-41
-0.2813898325 0.01120776869 -0.1015642136 6.490113838e-41
-0.2736328244 -0.005248868372 -0.07514959574 6.490113838e-41
-0.2905058861 0.007415860426 -0.008249416016 6.490113838e-41
-0.2903538942 0.009478243999 -0.001177563681 6.490113838e-41
-0.2809574604 0.001998756779 -0.05388883129 6.490113838e-41
-0.2300058007 -0.03017069399 -0.1588321328 6.490113838e-41
-0.270237416 0.001742989407 0.01651705988 6.490113838e-41
-0.2217084467 -0.01510750689 0.008457898162 6.490113838e-41
0.07920406014 -0.09955234081 0.07373925298 8.028094954e-40
0.1097222343 -0.08946932852 0.164665401 8.028094954e-40
0.03740667924 -0.0983947441 0.1127356663 8.028094954e-40
0.2459830344 -0.09279871732 0.0801474601 8.028094954e-40
0.116077669 -0.09915425628 0.06953234226 8.028094954e-40
0.08016654104 -0.09062743187 0.1813002378 8.028094954e-40
-0.08028780669 -0.08748794347 0.1113137305 8.028094954e-40
0.1274683625 -0.09466341138 0.1079946682 8.028094954e-40
0.1108428091 -0.1022835672 0.05050554499 8.028094954e-40
0.1373433471 -0.08713813126 0.1462535262 8.028094954e-40
-0.0556365177 -0.08995554596 0.1154070348 8.028094954e-40
0.1355487704 -0.09457986802 0.09521941841 8.028094954e-40
0.09928045422 -0.1024367064 0.04867112264 8.028094954e-40
0.08628350496 -0.09006133676 0.1893633902 8.028094954e-40
-0.02065447532 -0.09393090755 0.1092660949 8.028094954e-40
0.1666439772 -0.09399434924 0.09414402395 8.028094954e-40
0.05801235139 -0.1017982587 0.05989052355 8.028094954e-40
0.03400304168 -0.09268952161 0.1947932839 8.028094954e-40
-0.08495997638 -0.08812960982 0.1001270562 8.028094954e-40
0.08844543993 -0.09652061015 0.103387028 8.028094954e-40
0.01276663225 -0.09987203777 0.06647017598 8.028094954e-40
0.1113933027 -0.08985684812 0.1442078948 8.028094954e-40
-0.00751188444 -0.0950390473 0.107386075 8.028094954e-40
0.1569398195 -0.08900443465 0.1245961338 8.028094954e-40
0.140822649 -0.09893609583 0.07166577131 8.028094954e-40
0.05836360529 -0.09451217949 0.1509456784 8.028094954e-40
-0.04962615669 -0.09120351076 0.1081322655 8.028094954e-40
0.01310950704 -0.09285599738 0.1444312036 8.028094954e-40
-0.03922885284 -0.09184602648 0.1265123338 8.028094954e-40
0.1351042539 -0.09680905193 0.08521292359 8.028094954e-40
-0.03991591185 -0.09282338619 0.1038423553 8.028094954e-40
0.2291124016 -0.09185106307 0.09895047545 8.028094954e-40
0.0286740642 -0.07532177866 -0.3065002263 1.540360521e-39
-0.05163178965 -0.07697474211 -0.276381135 1.540360521e-39
-0.009235100821 -0.1006500125 -0.2896261513 1.540360521e-39
0.1174333915 -0.06497588754 -0.3265975118 1.540360521e-39
-0.01429158729 -0.07265848666 -0.2923909426 1.540360521e-39
0.06318709254 -0.06329025328 -0.3040507138 1.540360521e-39
0.05447840691 -0.07267422974 -0.30264166 1.540360521e-39
0.06255475432 -0.06217210367 -0.2990624905 1.540360521e-39
0.04732845724 -0.07972065359 -0.3206904531 1.540360521e-39
-0.007900394499 -0.1011845618 -0.2897707522 1.540360521e-39
-0.03114953265 -0.06852045655 -0.2899586856 1.540360521e-39
0.0802199021 -0.06237144768 -0.3118008673 1.540360521e-39
0.02609204501 -0.08018450439 -0.3188972771 1.540360521e-39
-0.03288324177 -0.07940927893 -0.2850663066 1.540360521e-39
-0.01167060714 -0.0975715965 -0.2882854044 1.540360521e-39
0.08260135353 -0.06361354142 -0.3168061376 1.540360521e-39
-0.009276848286 -0.0758934021 -0.3059925139 1.540360521e-39
0.02849939838 -0.06119348109 -0.2458691895 1.540360521e-39
-0.01282053813 -0.0648162514 -0.288741231 1.540360521e-39
0.05242263153 -0.06314250082 -0.2872489095 1.540360521e-39
0.0359723568 -0.08065107465 -0.323884964 1.540360521e-39
-0.02225001901 -0.08733553439 -0.2820048332 1.540360521e-39
-0.02011366189 -0.06563872099 -0.2853767276 1.540360521e-39
0.07590901107 -0.06657619029 -0.3159360588 1.540360521e-39
0.01200150046 -0.07954747975 -0.3115741909 1.540360521e-39
0.05289668962 -0.05531518906 -0.2749240398 1.540360521e-39
0.04217215627 -0.08115780354 -0.3178009093 1.540360521e-39
0.0101652611 -0.06495283544 -0.2810221612 1.540360521e-39
0.08486579359 -0.07210619748 -0.3304882944 1.540360521e-39
-0.0737086758 -0.05979371071 -0.1689733416 1.540360521e-39
0.06448636204 -0.08193340153 -0.3307349682 1.540360521e-39
-0.064514108 -0.0567108281 -0.157534644 1.540360521e-39
0.07161131501 -0.009317783639 0.1872364134 2.277910146e-39
-0.3212398589 -0.01848545857 0.0539708063 2.277910146e-39
0.256060034 -0.01572284102 0.1932974756 2.277910146e-39
-0.2320939451 -0.01200698689 0.1887353659 2.277910146e-39
-0.05485207587 -0.0118872216 0.1967750937 2.277910146e-39
-0.2868333161 -0.007880532183 0.1188608557 2.277910146e-39
0.3181574941 -0.01763362251 0.1997305155 2.277910146e-39
-0.1061840951 -0.01423274726 0.2036295682 2.277910146e-39
0.07864914089 -0.01465241797 0.2102078348 2.277910146e-39
-0.304284066 -0.01893869042 -0.05028837547 2.277910146e-39
0.2804798186 -0.01778610982 0.2021452487 2.277910146e-39
-0.1704484075 -0.009482971393 0.1838377565 2.277910146e-39
0.04264086112 -0.01412503328 0.2090964019 2.277910146e-39
-0.3144088686 -0.01632572897 0.06205360219 2.277910146e-39
0.220727399 -0.01665418781 0.2026060373 2.277910146e-39
-0.1988314241 -0.006324974354 0.1692712605 2.277910146e-39
0.02677698992 -0.01307929214 0.2053101659 2.277910146e-39
-0.2637512982 -0.003981450107 0.1268293411 2.277910146e-39
0.2980538011 -0.0177646596 0.1990648508 2.277910146e-39
-0.08483363688 -0.01073495764 0.1930266023 2.277910146e-39
0.07461616397 -0.01262998488 0.2027338445 2.277910146e-39
-0.2918396294 -0.00711673405 0.04541283101 2.277910146e-39
0.1569521725 -0.01625911705 0.2109100223 2.277910146e-39
-0.2185954154 -0.001637963927 0.1478933841 2.277910146e-39
-0.0793223232 -0.01194353215 0.1968220472 2.277910146e-39
-0.2281502038 0.0008273122949 0.1286834329 2.277910146e-39
0.0803925395 -0.01141060516 0.1940397322 2.277910146e-39
5.406141281e-05 -0.01055600774 0.1922479868 2.277910146e-39
0.0820768103 -0.01340012532 0.2051269859 2.277910146e-39
-0.08212307841 -0.009894487448 0.1882898211 2.277910146e-39
0.1279222071 -0.009797870182 0.1843853295 2.277910146e-39
-0.01994264871 -0.009339828044 0.1908079982 2.277910146e-39
-0.06043416262 0.03287887573 -0.06402353942 3.015101038e-39
-0.08079966903 0.02870787494 -0.07733700424 3.015101038e-39
-0.06930849701 0.02611818537 0.05921977386 3.015101038e-39
-0.09800891578 0.02074626647 0.1424538046 3.015101038e-39
-0.03522918746 0.03092458844 -0.09410185367 3.015101038e-39
-0.09290255606 0.02746661007 -0.09037396312 3.015101038e-39
-0.04478424042 0.01594130695 0.1603973508 3.015101038e-39
-0.04383091256 0.01473052613 0.2170170248 3.015101038e-39
-0.03287002444 0.02469015121 0.04073873535 3.015101038e-39
-0.03887294605 0.02201247774 0.09973372519 3.015101038e-39
-0.05154934153 0.0180998873 0.1380185336 3.015101038e-39
-0.0629285872 0.01668193378 0.1799725145 3.015101038e-39
-0.01607494988 0.02375518531 -0.01127007511 3.015101038e-39
-0.05991210788 0.02726041712 0.0471646674 3.015101038e-39
-0.05459597707 0.01913617924 0.1246557385 3.015101038e-39
-0.06708879769 0.01825192757 0.1597912014 3.015101038e-39
-0.01419444382 0.02781545371 -0.02904828452 3.015101038e-39
-0.08007231355 0.03087112866 -0.01793720387 3.015101038e-39
-0.01958917454 0.01386747602 0.1593234539 3.015101038e-39
-0.02173038572 0.01336994488 0.2134648263 3.015101038e-39
-0.004623080138 0.02103228495 0.02545630746 3.015101038e-39
-0.05815495551 0.0247148443 0.07511599362 3.015101038e-39
0.06716953963 0.01618401892 0.1116868481 3.015101038e-39
-0.0877488628 0.02197576687 0.1282525808 3.015101038e-39
-0.02300590463 0.02367347293 -0.007382628508 3.015101038e-39
-0.1020260528 0.02755698375 -0.03098449111 3.015101038e-39
0.08522165567 0.0160203632 0.08364609629 3.015101038e-39
-0.09895030409 0.02304025181 0.08775988221 3.015101038e-39
0.1665320545 0.0156593807 0.09068096429 3.015101038e-39
0.00341071398 0.01754051447 0.1154886261 3.015101038e-39
0.2673890591 0.0004604272253 0.07075725496 3.015101038e-39
-0.03276951984 0.02421419322 0.06612245739 3.015101038e-39
0.2434423864 -0.04585777968 0.2634707689 3.75229193e-39
0.250587672 -0.0426839143 0.1996835023 3.75229193e-39
0.1529248357 -0.04957685247 0.3453246653 3.75229193e-39
0.254968971 -0.03909100592 0.08870776743 3.75229193e-39
0.2628497183 -0.04305559397 0.1443179697 3.75229193e-39
0.185459435 -0.05359916389 0.2610386908 3.75229193e-39
0.2163538188 -0.0480427593 0.2820258737 3.75229193e-39
0.2506611645 -0.03827323392 0.004990715068 3.75229193e-39
0.2114108652 -0.0477492325 0.2565831244 3.75229193e-39
0.2353926003 -0.04630265385 0.1579205394 3.75229193e-39
0.1495167762 -0.05188355967 0.3164647818 3.75229193e-39
0.2495273203 -0.04379074275 0.1057833135 3.75229193e-39
0.1996434629 -0.04646797478 0.2538978755 3.75229193e-39
0.1826633513 -0.05408522114 0.1721188128 3.75229193e-39
0.1025509685 -0.05321316049 0.3311340511 3.75229193e-39
0.185884729 -0.05437713116 0.1643943787 3.75229193e-39
0.1854061782 -0.04714987427 0.242084384 3.75229193e-39
0.1122281551 -0.05283306539 0.2035879791 3.75229193e-39
0.1354983151 -0.05134689063 0.2983857989 3.75229193e-39
0.1604583412 -0.05468577519 -0.05799373984 3.75229193e-39
0.1901295334 -0.04791245982 0.2141195089 3.75229193e-39
0.1941604912 -0.0563121736 0.1002904549 3.75229193e-39
0.1320808977 -0.05039905757 0.2663774192 3.75229193e-39
0.1251951307 -0.05777938664 0.1010036319 3.75229193e-39
0.2552450895 -0.04060309753 0.05323284864 3.75229193e-39
0.1561456621 -0.05819967017 0.1381549239 3.75229193e-39
0.1747694165 -0.05139744282 0.200413391 3.75229193e-39
0.08037615567 -0.05811560899 0.05005738884 3.75229193e-39
0.06299831718 -0.05646397918 0.07607201487 3.75229193e-39
0.2232460827 -0.04722600058 -0.05698452517 3.75229193e-39
0.08147776872 -0.0600165762 0.03955271095 3.75229193e-39
0.02740608156 -0.05618259311 0.01765475981 3.75229193e-39
0.360039562 -0.009267454036 -0.0583444424 4.48912409e-39
0.3827135861 -0.01857609674 0.08411265165 4.48912409e-39
0.3806309104 -0.008851954713 -0.01811686903 4.48912409e-39
0.3534310758 -0.01659838296 0.1130723283 4.48912409e-39
0.3955267072 -0.01164768636 0.02369492687 4.48912409e-39
0.3949870169 -0.01360980794 0.052025415 4.48912409e-39
0.2290406674 -0.01729206741 -0.1109239459 4.48912409e-39
0.3720668852 -0.008115950041 0.04274629429 4.48912409e-39
0.3792597353 -0.01059288252 -0.02299373038 4.48912409e-39
0.3853433728 -0.01542331371 0.06877949834 4.48912409e-39
0.275682658 -0.01705157012 -0.0943216607 4.48912409e-39
0.372313112 -0.01544675883 0.0789103806 4.48912409e-39
0.3615323305 -0.01130666677 -0.03974380717 4.48912409e-39
0.3934063017 -0.02346246503 0.07719264925 4.48912409e-39
0.2922715843 -0.01658325829 -0.09169786423 4.48912409e-39
0.3659130037 -0.01590235345 0.08905505389 4.48912409e-39
0.3656716347 -0.01016366296 -0.03760686144 4.48912409e-39
0.3956098557 -0.01545530558 0.03479873016 4.48912409e-39
0.2181167156 -0.01752508432 -0.08765751868 4.48912409e-39
0.3887276947 -0.01953684539 0.08077577502 4.48912409e-39
0.3288310468 -0.01622392796 -0.0564994514 4.48912409e-39
0.3947875202 -0.02246523835 0.07560644299 4.48912409e-39
0.3508605361 -0.009203436784 -0.07669084519 4.48912409e-39
0.3637539744 -0.01802705973 0.1007834747 4.48912409e-39
0.3902741373 -0.0225272309 0.05741772428 4.48912409e-39
0.3980042636 -0.01497900393 0.04927806184 4.48912409e-39
0.3102609217 -0.01824209467 -0.06596086174 4.48912409e-39
0.3983832002 -0.0164204929 0.05289968103 4.48912409e-39
0.3494919837 -0.0164015945 -0.01920225658 4.48912409e-39
0.3704378903 -0.008058498614 -0.03726037592 4.48912409e-39
0.2617447376 -0.01696763001 -0.08827704191 4.48912409e-39
0.3835537732 -0.01504557487 0.068345882 4.48912409e-39
-0.01483389921 0.0123021435 -0.3028957546 5.225597518e-39
-0.2821893692 -0.01117030624 -0.1616031826 5.225597518e-39
-0.119832553 0.002445122926 -0.2717060447 5.225597518e-39
-0.2787186801 -0.06024312973 -0.03338103741 5.225597518e-39
-0.06247705221 0.009861634113 -0.2961466312 5.225597518e-39
-0.1144652739 0.004723346327 -0.283609122 5.225597518e-39
-0.1682537943 -0.01144629996 -0.202508986 5.225597518e-39
-0.2560367882 -0.06284128129 -0.04146508873 5.225597518e-39
-0.13351807 0.005899416748 -0.2824123502 5.225597518e-39
-0.2435002625 -0.01571217179 -0.1811243445 5.225597518e-39
0.05804473162 -0.01590366662 -0.2466899902 5.225597518e-39
-0.2287492603 -0.05989059433 -0.06175845116 5.225597518e-39
0.01164571475 0.005972988438 -0.2932676971 5.225597518e-39
-0.1401014626 -0.0101125557 -0.2098443657 5.225597518e-39
0.154483974 -0.02934840694 -0.2046718299 5.225597518e-39
-0.2331939489 -0.0600916259 -0.05792842805 5.225597518e-39
0.1185747832 0.005955279339 -0.299854666 5.225597518e-39
-0.05866740271 -0.01984021068 -0.193647936 5.225597518e-39
0.06815002114 -0.0304495357 -0.1990864277 5.225597518e-39
-0.2664446831 -0.06242946535 -0.0292702876 5.225597518e-39
0.02615018748 -0.006992982235 -0.2655168176 5.225597518e-39
-0.1708581448 -0.02065223642 -0.1747391969 5.225597518e-39
0.1864990443 -0.04598366097 -0.1625272781 5.225597518e-39
-0.186513707 -0.02234615572 -0.1688663661 5.225597518e-39
-0.08749428391 -0.005680529866 -0.2428524643 5.225597518e-39
-0.0285676457 -0.02013235353 -0.2014091909 5.225597518e-39
0.218639642 -0.05318386853 -0.1410730779 5.225597518e-39
-0.2953507304 -0.03846890479 -0.05833881721 5.225597518e-39
-0.02078701742 -0.01706436835 -0.2204135358 5.225597518e-39
-0.04306779802 -0.04156967625 -0.1432872415 5.225597518e-39
0.1755268276 -0.06390655786 -0.1206438988 5.225597518e-39
-0.3099762499 -0.03324783966 -0.05623268336 5.225597518e-39
-0.1539597511 0.007925452664 -0.03234171495 5.962428276e-39
0.006562153809 0.005038263276 -0.1208381057 5.962428276e-39
-0.175206691 0.01079149358 0.04368092865 5.962428276e-39
0.06419959664 0.01412893459 0.0493222326 5.962428276e-39
-0.1557872295 0.008105696179 -0.03145694733 5.962428276e-39
0.1244312152 0.004959244747 -0.1026502326 5.962428276e-39
-0.2427191585 0.008226794191 0.04468326271 5.962428276e-39
0.01032721065 0.01237204485 0.02288500592 5.962428276e-39
-0.272921145 0.007309462875 0.0321710743 5.962428276e-39
-0.04625191167 0.004792035092 -0.1164480597 5.962428276e-39
-0.1634437442 0.01149017457 0.0445067659 5.962428276e-39
0.1277305037 0.008253603242 0.03449891135 5.962428276e-39
-0.2477895617 0.00862875022 0.01119485684 5.962428276e-39
0.04588996619 0.0043026614 -0.1102293208 5.962428276e-39
-0.1025747359 0.01250840258 0.03401584923 5.962428276e-39
0.1456764489 0.007654945832 0.03723306209 5.962428276e-39
-0.2271691263 0.009132749401 -0.005942759104 5.962428276e-39
0.112205863 0.002679773606 -0.1501829177 5.962428276e-39
-0.2015133649 0.009429454803 0.04757530987 5.962428276e-39
0.09123522788 0.009094192646 0.01453006081 5.962428276e-39
-0.2633018196 0.007969158702 0.02383491397 5.962428276e-39
-0.02072184347 0.005433438811 -0.09789325297 5.962428276e-39
0.02704857849 0.01159332879 0.0001906827092 5.962428276e-39
0.2003443986 0.004546320532 -0.04497043416 5.962428276e-39
-0.1272396147 0.007277583703 -0.05131386966 5.962428276e-39
0.1223043874 0.002304192167 -0.1169431508 5.962428276e-39
0.04719226435 0.01093390957 -0.009765270166 5.962428276e-39
0.1124632135 0.002342223655 -0.1499130279 5.962428276e-39
-0.1198304519 0.008266774938 -0.04582941532 5.962428276e-39
-0.02084976807 0.00882412307 -0.04848759621 5.962428276e-39
0.006999028381 0.01072105672 -0.01193532255 5.962428276e-39
0.1037106365 0.00563660264 -0.0394112654 5.962428276e-39
-0.003905269084 -0.05136527494 0.3285214305 6.698542971e-39
0.09336571395 -0.06628464162 0.3536820412 6.698542971e-39
0.05182253197 -0.05639703944 0.3595674634 6.698542971e-39
0.1128084436 -0.06096776575 0.3479093611 6.698542971e-39
-0.01299227681 -0.05292509496 0.3191170096 6.698542971e-39
0.09145918489 -0.06973396242 0.3568105698 6.698542971e-39
0.03120972402 -0.05633682013 0.3506507576 6.698542971e-39
0.1744619012 -0.05280808359 0.3221913576 6.698542971e-39
-0.04922354221 -0.05974302813 0.2523143888 6.698542971e-39
0.1514656097 -0.05770128593 0.3360339999 6.698542971e-39
0.0881145075 -0.05491153523 0.3563736677 6.698542971e-39
0.1870961189 -0.05275451764 0.3170234561 6.698542971e-39
-0.02280106768 -0.05491484702 0.2900307178 6.698542971e-39
0.2020723969 -0.05243096501 0.326407522 6.698542971e-39
0.1205627397 -0.05407828838 0.3502846658 6.698542971e-39
0.2180513889 -0.05407763645 0.3123716116 6.698542971e-39
-0.01501533017 -0.05488624051 0.3047938347 6.698542971e-39
0.198679328 -0.05240479857 0.3303493857 6.698542971e-39
0.0925758332 -0.05483939871 0.3552801311 6.698542971e-39
0.2288711369 -0.05116827413 0.3145700991 6.698542971e-39
-0.04312264174 -0.05722546577 0.2702819109 6.698542971e-39
0.200729385 -0.05134554952 0.3279225826 6.698542971e-39
0.2013153583 -0.05105328187 0.3326201439 6.698542971e-39
0.2278054357 -0.05312710628 0.3182636797 6.698542971e-39
0.001326738973 -0.05706770346 0.3363947868 6.698542971e-39
0.1029160172 -0.05757142976 0.3542007506 6.698542971e-39
0.1257153898 -0.05540717393 0.3502939939 6.698542971e-39
0.2051004767 -0.05418126658 0.3275327682 6.698542971e-39
0.02310352772 -0.05842761695 0.3393628001 6.698542971e-39
0.1360716969 -0.04678948596 0.3451271355 6.698542971e-39
0.1472551972 -0.05205634236 0.3459774256 6.698542971e-39
0.1759621352 -0.04741246998 0.3375799954 6.698542971e-39
0.2704339325 -0.08008898795 0.2068239301 7.434656265e-39
0.08861561865 -0.08366160095 0.1546480507 7.434656265e-39
0.2322321981 -0.08837766945 0.2119338959 7.434656265e-39
0.2114664763 -0.09112483263 0.2144102007 7.434656265e-39
0.2577557266 -0.07846960425 0.2172451168 7.434656265e-39
0.1982450932 -0.09277378023 0.2078118175 7.434656265e-39
0.2395833731 -0.08749307692 0.2090881616 7.434656265e-39
0.1722598225 -0.09209514409 0.1966190934 7.434656265e-39
0.2612519264 -0.08610835671 0.2003643811 7.434656265e-39
0.0794005692 -0.08605589718 0.1397694051 7.434656265e-39
0.2205251306 -0.09510934353 0.2069310248 7.434656265e-39
0.2006703913 -0.08849688619 0.2154039294 7.434656265e-39
0.2591564655 -0.08454446495 0.2033192515 7.434656265e-39
0.127107352 -0.08941219002 0.168208465 7.434656265e-39
0.1997967213 -0.1036013514 0.1974690259 7.434656265e-39
0.2080187798 -0.08767788857 0.2170539498 7.434656265e-39
0.2536353767 -0.08554002643 0.2042273581 7.434656265e-39
0.1404574513 -0.09006089717 0.1795199066 7.434656265e-39
0.2263159007 -0.09413490444 0.2059025764 7.434656265e-39
0.181400761 -0.09465523809 0.1986445636 7.434656265e-39
0.2604559064 -0.08366239071 0.2039720863 7.434656265e-39
0.1171704009 -0.09011758119 0.1544492692 7.434656265e-39
0.1879662126 -0.1045312583 0.1925411969 7.434656265e-39
0.2151401192 -0.08021067083 0.2141665369 7.434656265e-39
0.2147915214 -0.0981362164 0.2055541128 7.434656265e-39
0.152804628 -0.09326333553 0.181832701 7.434656265e-39
0.2080779225 -0.1019037291 0.1997568607 7.434656265e-39
0.203002885 -0.07746008039 0.2051454782 7.434656265e-39
0.2038153112 -0.09246405214 0.2117222399 7.434656265e-39
0.1286543906 -0.09356380254 0.1498013735 7.434656265e-39
0.1796217263 -0.1073970944 0.1835225224 7.434656265e-39
0.2089445144 -0.1005050316 0.2016223669 7.434656265e-39
0.2542957664 -0.05015086383 0.2232447714 8.170410826e-39
0.1724959612 -0.04805943742 0.2476275712 8.170410826e-39
0.3301669359 -0.04061215371 0.1786435544 8.170410826e-39
0.1645051241 -0.0470312722 0.2440303117 8.170410826e-39
0.2732108533 -0.04692209885 0.2145427763 8.170410826e-39
0.2635603547 -0.05447409302 0.1811918914 8.170410826e-39
0.3345675468 -0.04176140577 0.1818352342 8.170410826e-39
-0.02462666109 -0.04336671531 0.180002898 8.170410826e-39
0.3015500307 -0.04533716291 0.1955654621 8.170410826e-39
0.1594841182 -0.04642057419 0.2531379461 8.170410826e-39
0.3238015175 -0.04103215039 0.1832044423 8.170410826e-39
0.05770476907 -0.05168531463 0.2557038665 8.170410826e-39
0.2877248824 -0.04565997049 0.2116454095 8.170410826e-39
0.1697989106 -0.04738933593 0.2253871411 8.170410826e-39
0.3049863279 -0.04169854149 0.2002818286 8.170410826e-39
0.09229260683 -0.05013652146 0.2681420445 8.170410826e-39
0.2656975985 -0.05028207228 0.2201368362 8.170410826e-39
0.1952743679 -0.05218935013 0.2123799771 8.170410826e-39
0.3258956373 -0.04068946838 0.1821013391 8.170410826e-39
0.02817656659 -0.05077558383 0.2275596112 8.170410826e-39
0.2889443934 -0.04637310654 0.2094182521 8.170410826e-39
0.1643501073 -0.04689600691 0.244904086 8.170410826e-39
0.2303448468 -0.04596633464 0.2643260062 8.170410826e-39
0.1570994705 -0.04677312076 0.2643431723 8.170410826e-39
0.2581846416 -0.04593630135 0.2485714406 8.170410826e-39
0.2105718702 -0.0566117838 0.1974921674 8.170410826e-39
0.2801248133 -0.04957198352 0.2020713985 8.170410826e-39
0.04640595242 -0.0511620529 0.2994171083 8.170410826e-39
0.2712775469 -0.05559131876 0.1855080724 8.170410826e-39
0.141126886 -0.04441873357 0.2450706065 8.170410826e-39
0.2647636533 -0.05628738552 0.1766201556 8.170410826e-39
0.1267538816 -0.04847601429 0.2813701034 8.170410826e-39
0.1235419959 0.03546790406 -0.00968704652 8.906165387e-39
0.1021219194 0.0212685205 0.07265225798 8.906165387e-39
0.08771681041 0.01959083602 0.1111498848 8.906165387e-39
-0.09987477213 0.001059211441 0.132837832 8.906165387e-39
0.1019251049 0.04514274001 -0.04299691319 8.906165387e-39
0.08593606204 0.03431134298 0.03419749066 8.906165387e-39
0.03862514719 0.02590396255 0.1322447211 8.906165387e-39
-0.1426789612 -0.01447219308 0.1428261697 8.906165387e-39
0.07869740576 0.03675828874 0.02453287877 8.906165387e-39
0.07373396307 0.02854341269 0.08021538705 8.906165387e-39
0.06257158518 0.02417859063 0.1264572293 8.906165387e-39
-0.08312823623 0.009433332831 0.13170138 8.906165387e-39
0.04665309936 0.04257880524 0.01593867503 8.906165387e-39
0.0743477121 0.02956669033 0.0723413974 8.906165387e-39
0.0776238814 0.02201602235 0.1132307947 8.906165387e-39
-0.06812486053 0.02162561193 0.1247551069 8.906165387e-39
0.02464936487 0.05084763095 0.004360096995 8.906165387e-39
0.03109214082 0.04430616274 0.05129879713 8.906165387e-39
0.01131882612 0.02064453252 0.1419992745 8.906165387e-39
-0.1143274382 -0.002777636284 0.1331135631 8.906165387e-39
0.05482426658 0.0384456329 0.02978287265 8.906165387e-39
0.04876798019 0.03804270551 0.07457637787 8.906165387e-39
0.04810945317 0.01959105209 0.1407143176 8.906165387e-39
-0.03382910043 0.05050098896 0.09484009445 8.906165387e-39
-0.01681579091 0.06322203577 0.02586498484 8.906165387e-39
0.03244968131 0.04492672533 0.0213112738 8.906165387e-39
0.008988481015 0.02197500318 0.1422959715 8.906165387e-39
-0.05076393858 0.05283446983 0.09434920549 8.906165387e-39
0.02115250006 0.04032455757 0.1049729139 8.906165387e-39
-0.07383992523 0.05380340666 0.09738659859 8.906165387e-39
0.01747682132 0.03912381455 0.1078025773 8.906165387e-39
-0.07243384421 0.04688581079 0.1025255099 8.906165387e-39
0.1217029318 -0.037966609 0.1222627684 9.641561216e-39
-0.1363678128 -0.04270402342 0.2128666341 9.641561216e-39
0.02165351622 -0.04292307794 0.1415027976 9.641561216e-39
-0.2217050493 -0.05851843581 0.1236250103 9.641561216e-39
0.1297069788 -0.0377317667 0.1163216084 9.641561216e-39
-0.1451994777 -0.03627032414 0.207529977 9.641561216e-39
-0.1144526079 -0.04892938212 0.1447175294 9.641561216e-39
-0.1818562001 -0.05266729742 0.1360182613 9.641561216e-39
0.08420139551 -0.03947683051 0.1301932037 9.641561216e-39
-0.08760027587 -0.04802924022 0.1798328757 9.641561216e-39
0.02863154933 -0.04635687545 0.1209947467 9.641561216e-39
0.0180815272 -0.04112108052 0.1523004919 9.641561216e-39
0.1268891543 -0.0395720154 0.1176338121 9.641561216e-39
-0.09432189167 -0.04511507601 0.190620482 9.641561216e-39
0.07689529657 -0.04521914572 0.1135461479 9.641561216e-39
0.01502692793 -0.04130157828 0.1529927999 9.641561216e-39
0.1727790684 -0.0348713547 0.1019625738 9.641561216e-39
-0.07456643879 -0.04663617164 0.1654124856 9.641561216e-39
-0.02712039836 -0.04689012095 0.120536536 9.641561216e-39
-0.1376504004 -0.04836400971 0.1365345716 9.641561216e-39
0.1321263164 -0.03823764995 0.115633592 9.641561216e-39
-0.07169143111 -0.0489227362 0.18014808 9.641561216e-39
0.1343207061 -0.04077281058 0.1140764952 9.641561216e-39
-0.01350356545 -0.04300130159 0.1490800083 9.641561216e-39
0.1118186861 -0.04271177202 0.1212624907 9.641561216e-39
-0.05224568769 -0.04624039307 0.1715027988 9.641561216e-39
0.1313160211 -0.03854804486 0.1159300357 9.641561216e-39
-0.1117567495 -0.0480325371 0.1417743266 9.641561216e-39
0.1079605296 -0.04211531579 0.09927041829 9.641561216e-39
-0.002586656949 -0.0477887094 0.1659756899 9.641561216e-39
0.1307548434 -0.04026125744 0.1154564247 9.641561216e-39
-0.0519332774 -0.04778981954 0.1233307198 9.641561216e-39
