# .PCD v0.7 - Point Cloud Data file format
VERSION 0.7
FIELDS x y z rgb
SIZE 4 4 4 4
TYPE F F F F
COUNT 1 1 1 1
WIDTH 818
HEIGHT 1
VIEWPOINT 0 0 0 1 0 0 0
POINTS 818
DATA ascii
-0.08515720814 0.1774709374 0.01994922198 1.258099074e-38
-0.09707836807 -0.01331003383 0.0469683744 1.258099074e-38
-0.08447940648 0.167357102 0.03722002357 1.258099074e-38
-0.07781620324 -0.1145644411 0.07071769983 1.258099074e-38
-0.08466397971 0.1930257082 0.02000398934 1.258099074e-38
-0.1041063741 0.01360069495 0.01600326784 1.258099074e-38
-0.04301431403 -0.3839346766 -0.008284915239 1.331530897e-38
-0.03044145741 -0.477060467 0.01772315055 1.331530897e-38
-0.03108394518 -0.4677063525 -0.02502846159 1.331530897e-38
0.005159295164 -0.4883749783 -0.01536481641 1.331530897e-38
-0.04402879626 -0.4542021155 0.008846379817 1.331530897e-38
-0.04020974413 -0.4616571367 0.009412829764 1.331530897e-38
-0.0370009616 -0.4491223097 -0.02961947583 1.331530897e-38
0.01847154647 -0.4895340502 0.008363052271 1.331530897e-38
-0.03717046604 -0.4432775676 -0.03030247614 1.331530897e-38
-0.003875266062 -0.4883105457 0.02327720448 1.331530897e-38
-0.00769486744 -0.4825898111 -0.0354317762 1.331530897e-38
0.01784541272 -0.4885063171 -0.002427096479 1.331530897e-38
-0.04088497534 -0.4550879002 -0.002699264325 1.331530897e-38
-0.01957230642 -0.4844036996 0.01088200789 1.331530897e-38
-0.03199969232 -0.469976306 -0.02704385482 1.331530897e-38
-0.001733569545 -0.4886139333 -0.002618828323 1.331530897e-38
-0.03687177226 -0.4599068463 -0.01145215146 1.331530897e-38
-0.003541745245 -0.4884440303 0.01509091444 1.331530897e-38
-0.04032086954 -0.4398531318 -0.0163924396 1.331530897e-38
-0.005946863908 -0.4887408912 -0.003647817997 1.331530897e-38
-0.04050153121 -0.4527469277 -0.006301841233 1.331530897e-38
-0.01317627449 -0.4877962172 0.01157580782 1.331530897e-38
-0.04133233055 -0.4255232513 -0.009746459313 1.331530897e-38
0.00100748206 -0.4878008068 -0.03185263649 1.331530897e-38
-0.01989369653 -0.479632467 -0.02733682655 1.331530897e-38
-0.03943190351 -0.460865587 0.004450515378 1.331530897e-38
-0.05773730204 -0.3119233251 0.005041765049 1.331530897e-38
-0.03588999063 -0.4562724531 -0.002465749858 1.331530897e-38
-0.03272833303 -0.4454131722 -0.02582764626 1.331530897e-38
-0.02250071801 -0.4073636234 -0.02405563742 1.331530897e-38
-0.02267323807 -0.3532122374 -0.02285217494 1.331530897e-38
-0.03143161535 -0.4156281948 -0.02310016192 1.331530897e-38
-0.006920953747 0.3311464787 0.03144379333 1.404926846e-38
0.003293807851 0.3568802178 0.03308665007 1.404926846e-38
-0.01881071366 0.3236988485 0.03997513279 1.404926846e-38
0.02135996521 0.3733396232 0.01783981547 1.404926846e-38
-0.0174756851 0.3668623269 0.03836172819 1.404926846e-38
0.003264616709 0.2710579336 0.03002020903 1.404926846e-38
-0.02951758541 0.3090980649 0.0380853042 1.404926846e-38
-0.00815535523 0.3179162741 0.02759527601 1.404926846e-38
-0.03512815759 0.4233130813 0.02771034278 1.404926846e-38
-8.469820023e-05 0.3065912724 0.02588154562 1.404926846e-38
-0.04420588538 0.3600615859 0.03927193582 1.404926846e-38
-0.003039618954 0.3466805816 0.02656591684 1.404926846e-38
-0.04040288553 0.4264828861 0.02823984995 1.404926846e-38
-0.008676948026 0.3347038329 0.03096870333 1.404926846e-38
-0.02379710227 0.3620429039 0.03396326676 1.404926846e-38
-0.003316300921 0.3110466301 0.0235725604 1.404926846e-38
-0.01886955462 0.3912671506 0.03210899979 1.404926846e-38
0.002184834564 0.2422027439 0.02786834165 1.404926846e-38
-0.02342077345 0.335778147 0.03320220485 1.404926846e-38
0.0101760095 0.2978748381 0.019915279 1.404926846e-38
-0.0129514318 0.2784352005 0.0269568786 1.404926846e-38
0.008455596864 0.2753449678 0.02252013423 1.404926846e-38
-0.01873243041 0.3381434977 0.03755461052 1.404926846e-38
0.01414413285 0.3140891492 0.01881394163 1.404926846e-38
-0.004751340952 0.2097401321 0.03157711774 1.404926846e-38
0.01135646179 0.3550270796 0.02017846517 1.404926846e-38
-0.01341316104 0.308739543 0.03475613147 1.404926846e-38
0.01453104429 0.3244736493 0.02661106549 1.404926846e-38
-0.01704105362 0.3083600998 0.035439834 1.404926846e-38
0.01592199132 0.4188606143 0.01479417924 1.404926846e-38
0.00351145165 0.4121527374 0.02577321231 1.404926846e-38
0.01888188533 0.4296236634 0.009912713431 1.404926846e-38
0.02554310113 0.2374199778 -0.04894389957 1.478322936e-38
-0.04485413432 0.4737381637 -0.01430611312 1.478322936e-38
-0.01402879134 0.4100521505 -0.04041266814 1.478322936e-38
0.02442712151 0.3233440518 -0.03902240843 1.478322936e-38
0.0186657384 0.2122017592 -0.04835053533 1.478322936e-38
-0.02194259502 0.4858564734 -0.009161398746 1.478322936e-38
-0.02927456051 0.4496457875 -0.04007714614 1.478322936e-38
-0.008791183122 0.3902054131 -0.03542917222 1.478322936e-38
0.01163416728 0.1805850118 -0.05222832784 1.478322936e-38
-0.02713644505 0.4831412733 0.006367129739 1.478322936e-38
-0.02858284675 0.4087284803 -0.03800587356 1.478322936e-38
-0.002411651425 0.3333257437 -0.03294978663 1.478322936e-38
-0.001722505433 0.2482644767 -0.05036021024 1.478322936e-38
-0.02897885256 0.4831867814 0.001845276682 1.478322936e-38
-0.02139970288 0.4147148132 -0.04081054777 1.478322936e-38
-0.01110576652 0.4018328786 -0.03825099021 1.478322936e-38
0.009798548184 0.2568609118 -0.04943412915 1.478322936e-38
-0.02974933013 0.4825534225 0.00350437453 1.478322936e-38
-0.01381824166 0.3998214304 -0.03621881828 1.478322936e-38
-0.01829831116 0.4269834459 -0.04128454998 1.478322936e-38
0.004679049831 0.2476243079 -0.05062482134 1.478322936e-38
-0.03979563713 0.4789827764 -0.01084089279 1.478322936e-38
-0.01144341379 0.4054909647 -0.0387092717 1.478322936e-38
-0.009694317356 0.3843841553 -0.0344488807 1.478322936e-38
0.01064953953 0.2757335007 -0.04903486744 1.478322936e-38
-0.01479416434 0.4620718658 -0.03534806892 1.478322936e-38
-0.01076629106 0.4189252555 -0.03786468506 1.478322936e-38
0.00419842219 0.3991541862 -0.03854353726 1.478322936e-38
0.008260993287 0.2879335284 -0.04083673656 1.478322936e-38
-0.01306103356 0.3996444345 -0.03460590914 1.478322936e-38
-0.009456352331 0.2532225847 -0.04247529805 1.478322936e-38
-0.01251352858 0.3468353152 -0.0274077002 1.478322936e-38
0.07548587024 -0.005485964008 -0.04710736498 1.551683013e-38
0.07313715667 0.03203870729 0.04445004091 1.551683013e-38
0.08211585134 0.179353565 0.004724597093 1.551683013e-38
0.07626325637 0.1441420317 0.0183671508 1.551683013e-38
0.07500926405 0.0355058834 -0.03141765296 1.551683013e-38
0.07228462398 0.05961542577 0.0421224013 1.551683013e-38
0.06836701185 0.1380027682 0.05181037635 1.551683013e-38
0.07004925609 0.0906394124 0.05002138764 1.551683013e-38
0.07744603604 0.05450902879 -0.03742385656 1.551683013e-38
0.07059174776 0.09265466034 0.04312966764 1.551683013e-38
0.06961168349 0.1576382667 0.0533282645 1.551683013e-38
0.07566208392 0.1134591326 0.01321582589 1.551683013e-38
0.07713799924 0.08278790116 -0.01735309325 1.551683013e-38
0.07006942481 0.0680783242 0.05454742908 1.551683013e-38
0.07178536803 0.1563943177 0.04358855635 1.551683013e-38
0.07272225618 0.1206618622 0.02668182366 1.551683013e-38
0.07664357126 0.0678486377 -0.009142204188 1.551683013e-38
0.06950332969 0.08315975219 0.05508496985 1.551683013e-38
0.0828115046 0.1694701612 -0.007959234528 1.551683013e-38
0.07363001257 0.1288758218 0.02295863256 1.551683013e-38
0.07571414858 0.04726431146 -0.01295262389 1.551683013e-38
0.07029603422 0.09058085084 0.04902197421 1.551683013e-38
0.08166311681 0.151627928 -0.01782709733 1.551683013e-38
0.07547822595 0.1749198288 0.03849135339 1.551683013e-38
0.07531511784 0.02382727526 -0.03036251292 1.551683013e-38
0.07704437524 0.1024264321 0.0005638673319 1.551683013e-38
0.07840970904 0.118622236 -0.01967393421 1.551683013e-38
0.07351383567 0.1182604805 0.02161667868 1.551683013e-38
0.0755123049 0.1268096864 0.01170681324 1.551683013e-38
0.07719021291 0.07733045518 -0.01067034621 1.551683013e-38
0.07518816739 0.1078887433 0.01250374597 1.551683013e-38
0.0750162676 0.07663870603 0.004108564928 1.551683013e-38
-0.0773832649 -0.01482973341 0.01734367944 1.625043089e-38
-0.0826664865 0.1242679507 0.01828115247 1.625043089e-38
-0.07741033286 -0.009418913163 0.03677913919 1.625043089e-38
-0.08119986951 0.01375576109 0.009452402592 1.625043089e-38
-0.08302615583 0.1537747234 0.0291961953 1.625043089e-38
-0.07976487279 0.2294326872 -0.008626664057 1.625043089e-38
-0.07459949702 -0.1115157679 0.02547953837 1.625043089e-38
-0.08247764409 0.06977205724 -0.01091797464 1.625043089e-38
-0.08291407675 0.1186750829 0.008378771134 1.625043089e-38
-0.07859580219 0.2535375357 -0.01196905412 1.625043089e-38
-0.08295306563 0.08333420753 0.03490297869 1.625043089e-38
-0.08146291971 0.1518482566 -0.008586348034 1.625043089e-38
-0.08444743603 0.1796777993 0.01387308538 1.625043089e-38
-0.07826833427 0.2567183375 -0.01327840798 1.625043089e-38
-0.07964030653 -0.01612489112 0.0265219938 1.625043089e-38
-0.08318711817 0.09793661535 0.01129775308 1.625043089e-38
-0.08373954892 0.1298674196 0.02766104974 1.625043089e-38
-0.07788852602 0.2532004714 -0.01827565022 1.625043089e-38
-0.07588143647 -0.06286834925 0.03127186373 1.625043089e-38
-0.0846709758 0.05905530974 0.009802217595 1.625043089e-38
-0.08295654505 0.07501892745 0.0327655524 1.625043089e-38
-0.07930791378 0.2412931323 -0.01349626854 1.625043089e-38
-0.07450984418 -0.1095449924 0.0363554731 1.625043089e-38
-0.07783656567 -0.05492108688 0.007419707254 1.625043089e-38
-0.08285613358 0.08966548741 0.03526137397 1.625043089e-38
-0.08356387913 0.2004862875 0.009152898565 1.625043089e-38
-0.07514728606 -0.06075235829 0.03018958494 1.625043089e-38
-0.07775780559 -0.05534563586 -0.0003527924127 1.625043089e-38
-0.07382904738 -0.06986148655 0.02933470532 1.625043089e-38
-0.08003129065 0.08740081638 -0.02535032853 1.625043089e-38
-0.08182027191 0.04053972289 0.00838161353 1.625043089e-38
-0.08220938593 0.09817811847 0.003260097932 1.625043089e-38
0.03851499781 -0.1705694348 -0.08860937506 1.698367293e-38
0.06243501604 -0.1374153793 -0.07645247877 1.698367293e-38
0.04677049071 -0.2443659902 -0.08271797001 1.698367293e-38
0.07100531459 -0.1741630286 -0.07279255986 1.698367293e-38
0.05200902373 -0.2057541311 -0.08417458087 1.698367293e-38
0.07808097452 0.06269655377 -0.0683433637 1.698367293e-38
0.02820810117 -0.2829060256 -0.09203156084 1.698367293e-38
0.06930664182 -0.1607383639 -0.07259649038 1.698367293e-38
0.05335782468 -0.2115379721 -0.0821807608 1.698367293e-38
0.07865508646 0.04669041559 -0.06120486185 1.698367293e-38
0.04666299 -0.2365830243 -0.08107624948 1.698367293e-38
0.07488438487 -0.02094256133 -0.06516112387 1.698367293e-38
0.05111116171 -0.2303681225 -0.08012071997 1.698367293e-38
0.08420720696 0.1011029035 -0.05669140071 1.698367293e-38
0.02731702849 -0.297385931 -0.09174819291 1.698367293e-38
0.07244937122 -0.1322022974 -0.06924822927 1.698367293e-38
0.03789281473 -0.2586423159 -0.09285351634 1.698367293e-38
0.08034857363 0.05300234631 -0.05835404247 1.698367293e-38
0.02969302423 -0.3016222417 -0.08973430842 1.698367293e-38
0.06807167828 -0.1831887066 -0.07251530886 1.698367293e-38
0.0270984415 -0.2639021277 -0.1018510237 1.698367293e-38
0.07756146044 0.003986568656 -0.06097918749 1.698367293e-38
0.03203209117 -0.2899973989 -0.09328076243 1.698367293e-38
0.05583545193 -0.1940123439 -0.08411464095 1.698367293e-38
0.03930170462 -0.2076473832 -0.09327676892 1.698367293e-38
0.07331394404 -0.06454607844 -0.06708892435 1.698367293e-38
0.0376814492 -0.3180995882 -0.07509291172 1.698367293e-38
0.05803186446 -0.1721876413 -0.08164287359 1.698367293e-38
0.03688227758 -0.2079295963 -0.09383957833 1.698367293e-38
0.07700285316 -0.1852080375 -0.05788518488 1.698367293e-38
0.05059179664 -0.248115167 -0.07885478437 1.698367293e-38
0.07279517502 -0.1636439264 -0.06985425204 1.698367293e-38
0.02984225377 0.2449257225 0.08851257712 1.771655483e-38
-0.0002705715597 0.1451479644 0.1082108617 1.771655483e-38
0.02297431976 0.3614172935 0.06227662414 1.771655483e-38
0.006626218557 0.3368472457 0.0755417496 1.771655483e-38
0.0214245785 0.246815294 0.09395845234 1.771655483e-38
0.01219450589 0.1877572089 0.1055946872 1.771655483e-38
0.04370545223 0.3548059464 0.04228221253 1.771655483e-38
0.02225505188 0.3211121857 0.07782758772 1.771655483e-38
0.02624826506 0.2585645914 0.09373302758 1.771655483e-38
0.01693864167 0.140389964 0.1090427339 1.771655483e-38
0.03968848661 0.3565494716 0.04694424197 1.771655483e-38
0.02183447033 0.3252170682 0.07630158216 1.771655483e-38
0.03511226177 0.290450424 0.07963365316 1.771655483e-38
0.0249996949 0.1050906554 0.1083039194 1.771655483e-38
0.0362909995 0.3589853644 0.05708502978 1.771655483e-38
0.01904049516 0.3168024421 0.07953874022 1.771655483e-38
0.02918906324 0.2734388113 0.08818416297 1.771655483e-38
0.0235181693 0.1094998494 0.1084621027 1.771655483e-38
0.03569768742 0.3498541117 0.06263557822 1.771655483e-38
0.01703251526 0.3212473094 0.07852508873 1.771655483e-38
0.03217324242 0.2985604703 0.07997430861 1.771655483e-38
0.0204044953 0.1654209346 0.1088841856 1.771655483e-38
0.02726884373 0.363807708 0.05825873092 1.771655483e-38
0.01583278179 0.3335985839 0.0743784979 1.771655483e-38
0.02738620527 0.3338124752 0.06638687104 1.771655483e-38
0.01694645174 0.2205408216 0.1043736786 1.771655483e-38
0.03544762358 0.3525627553 0.05627046153 1.771655483e-38
0.01718425006 0.2467089146 0.1016396061 1.771655483e-38
0.02320791967 0.3266583085 0.0705191195 1.771655483e-38
0.02125312388 0.25365448 0.09886783361 1.771655483e-38
0.02059699968 0.2088793069 0.1048412547 1.771655483e-38
0.02241289616 0.1823690683 0.1061099321 1.771655483e-38
-0.05771052092 0.2886920273 -0.02818708867 1.844943813e-38
-0.07546491921 0.213736251 -0.009733447805 1.844943813e-38
-0.0599999167 0.2220363021 0.07766558975 1.844943813e-38
-0.07132520527 0.07660214603 0.07409878075 1.844943813e-38
-0.05816590041 0.3025990427 -0.02348617651 1.844943813e-38
-0.07571350038 0.211312145 0.00676995609 1.844943813e-38
-0.08096382767 0.2115042061 0.04154554382 1.844943813e-38
-0.08705510199 0.1312194318 0.04067971185 1.844943813e-38
-0.05405728891 0.3210273981 -0.02824355662 1.844943813e-38
-0.07357868552 0.2134920955 0.01383333094 1.844943813e-38
-0.07897809148 0.2288089544 0.02950130217 1.844943813e-38
-0.07680223137 0.09184584767 0.06170943007 1.844943813e-38
-0.05698380247 0.3137545586 -0.0262173079 1.844943813e-38
-0.07057604939 0.2483550012 -0.02447419986 1.844943813e-38
-0.07936208695 0.2333935052 0.01291007269 1.844943813e-38
-0.07913450897 0.1428646296 0.05720525235 1.844943813e-38
-0.05769114569 0.3074406683 -0.02810681798 1.844943813e-38
-0.07627586275 0.2112111002 0.005669992417 1.844943813e-38
-0.07819056511 0.2428706288 0.01210627612 1.844943813e-38
-0.07457536459 0.1482922882 0.06292495131 1.844943813e-38
-0.06517508626 0.2751467228 -0.02594245598 1.844943813e-38
-0.08488401771 0.1811874062 0.03720292822 1.844943813e-38
-0.0712948069 0.2326243073 0.04521124437 1.844943813e-38
-0.07043347508 0.1643954962 0.06701430678 1.844943813e-38
-0.07963468879 0.1996819228 0.0220039729 1.844943813e-38
-0.08044727892 0.1917508245 0.0003667100973 1.844943813e-38
-0.06391761452 0.2134412378 0.06562538445 1.844943813e-38
-0.07697592676 0.207142204 0.02295873128 1.844943813e-38
-0.07854600251 0.2008686662 0.02879195102 1.844943813e-38
-0.07637133449 0.203986451 -0.02918110974 1.844943813e-38
-0.07176952064 0.2325251549 -0.003723419737 1.844943813e-38
-0.07557809353 0.2089605182 0.0230585821 1.844943813e-38
-0.05654361099 0.08933662623 0.0549848713 1.91819627e-38
-0.05369382352 0.08515784144 0.05905387178 1.91819627e-38
-0.04907184467 -0.1370568871 0.06790452451 1.91819627e-38
-0.04435871169 0.2336364985 0.06495440006 1.91819627e-38
-0.05776454508 0.1691023856 0.05542137101 1.91819627e-38
-0.04128272831 0.2991162539 0.07256216556 1.91819627e-38
-0.05017341673 -0.1314149499 0.06240131706 1.91819627e-38
-0.04923120141 0.3493526578 0.05850852653 1.91819627e-38
-0.04839630798 0.1862464547 0.06428252906 1.91819627e-38
-0.05149902031 0.3103011549 0.0561478287 1.91819627e-38
-0.04341349751 0.2219728678 0.06579681486 1.91819627e-38
-0.06154349446 0.359267652 0.02568369545 1.91819627e-38
-0.0494056493 0.2425614148 0.05925883725 1.91819627e-38
-0.0424285233 0.3500773907 0.07068044692 1.91819627e-38
-0.04924171045 0.09893336892 0.06452795863 1.91819627e-38
-0.05671533197 0.3501546681 0.04704414308 1.91819627e-38
-0.04938571528 0.1287692785 0.0646167025 1.91819627e-38
-0.0472795479 0.3466201425 0.06251402199 1.91819627e-38
-0.05142452568 -0.02471624874 0.05821974203 1.91819627e-38
-0.05578046665 0.3242588639 0.0481521897 1.91819627e-38
-0.05120198801 -0.04087899253 0.05842352659 1.91819627e-38
-0.05012728274 0.3440761864 0.05800032243 1.91819627e-38
-0.04709412903 -0.1995167136 0.06781671941 1.91819627e-38
-0.04613688216 0.1898292601 0.06757040322 1.91819627e-38
-0.05696488172 -0.1349195093 0.05348708853 1.91819627e-38
-0.04908991605 0.3257340789 0.05945791677 1.91819627e-38
-0.05649453774 -0.1176457033 0.05217693001 1.91819627e-38
-0.03124823794 -0.1906229854 0.08427751064 1.91819627e-38
-0.04657833278 -0.2617945671 0.07847443223 1.91819627e-38
-0.04830360413 0.3173661828 0.05828434229 1.91819627e-38
-0.05063846707 0.2050830722 0.05967229232 1.91819627e-38
-0.05147050321 0.1965560615 0.05955159292 1.91819627e-38
0.04807911813 -0.2994236052 -0.02984794043 1.991448586e-38
0.04594385996 -0.1141929179 -0.04883545637 1.991448586e-38
0.04265536368 -0.1871180832 -0.0323317349 1.991448586e-38
0.05174639821 -0.1770251393 -0.003919790033 1.991448586e-38
0.04733594134 -0.3816441894 -0.03118865937 1.991448586e-38
0.05047474802 -0.06152102351 -0.05419333652 1.991448586e-38
0.05759435147 -0.2949439883 0.01224639919 1.991448586e-38
0.04866983742 -0.1247499734 -0.04207184166 1.991448586e-38
0.04943791032 -0.3520208895 -0.01219237503 1.991448586e-38
0.04954564199 -0.05685929954 -0.0535572879 1.991448586e-38
0.0566328764 -0.2806515098 0.002765767742 1.991448586e-38
0.04655345902 -0.1409997195 -0.04935674369 1.991448586e-38
0.04631729424 -0.3844817877 -0.02484730259 1.991448586e-38
0.04862266779 -0.03272952139 -0.0546522215 1.991448586e-38
0.0552454479 -0.3173317909 0.007107987534 1.991448586e-38
0.04437885433 -0.1720828414 -0.03959555179 1.991448586e-38
0.04709276184 -0.3672012091 -0.02310351282 1.991448586e-38
0.04914621636 -0.03692980856 -0.05439557508 1.991448586e-38
0.05412821844 -0.2958736718 -0.009625763632 1.991448586e-38
0.04536091536 -0.1971821785 -0.02999495715 1.991448586e-38
0.04718675464 -0.3627549708 -0.02219160646 1.991448586e-38
0.04510662705 -0.1690069735 -0.0471262075 1.991448586e-38
0.05356156453 -0.2769258916 -0.009095053189 1.991448586e-38
0.0475528501 -0.2504092455 -0.01828135923 1.991448586e-38
0.04601522908 -0.3550427258 -0.03965232521 1.991448586e-38
0.04318366945 -0.2730341852 -0.03965695947 1.991448586e-38
0.05256703123 -0.3003599048 -0.01259993389 1.991448586e-38
0.043905586 -0.1451788545 -0.04032725841 1.991448586e-38
0.04825501889 -0.215670228 -0.02947331965 1.991448586e-38
0.04318758845 -0.2507631779 -0.04744908214 1.991448586e-38
0.04715753347 -0.2239989787 -0.04194256291 1.991448586e-38
0.04350248352 -0.1918533891 -0.05154586583 1.991448586e-38
-0.0568799302 -0.2578639984 -0.06409662217 2.06466517e-38
-0.0518867597 -0.1663804799 -0.0584231317 2.06466517e-38
-0.07735174894 -0.2909090221 -0.03738900274 2.06466517e-38
-0.03901797533 -0.2253761292 -0.07185171545 2.06466517e-38
-0.04090851545 -0.2481975853 -0.07491797209 2.06466517e-38
-0.05477232859 -0.05451956391 -0.05224911869 2.06466517e-38
-0.08351927996 -0.2808867991 -0.0151692247 2.06466517e-38
-0.05559925735 -0.1978635192 -0.05816984177 2.06466517e-38
-0.03858555481 -0.1949811578 -0.06858444959 2.06466517e-38
-0.03832970187 -0.02451926097 -0.07356425375 2.06466517e-38
-0.06353510916 -0.3052735627 -0.05809305608 2.06466517e-38
-0.04069725052 -0.1099082902 -0.06019057333 2.06466517e-38
-0.03801435977 -0.1939448714 -0.06923140585 2.06466517e-38
-0.0452379398 0.01747641899 -0.06286737323 2.06466517e-38
-0.0810315907 -0.3194641173 -0.03436316177 2.06466517e-38
-0.04040056467 -0.1544408649 -0.06156573445 2.06466517e-38
-0.04326645285 -0.2180112153 -0.06644936651 2.06466517e-38
-0.04295755923 -0.00297578657 -0.06887476146 2.06466517e-38
-0.08183998615 -0.2979861796 -0.03104677424 2.06466517e-38
-0.04199789092 -0.2047029287 -0.06510206312 2.06466517e-38
-0.06215331331 -0.2830452323 -0.05955981836 2.06466517e-38
-0.04057172686 -0.04861521348 -0.06588339806 2.06466517e-38
-0.08273608238 -0.29771626 -0.02973237261 2.06466517e-38
-0.04849407449 -0.2857279778 -0.07084500045 2.06466517e-38
-0.06366441399 -0.3016470671 -0.06806315482 2.06466517e-38
-0.03191357851 -0.1084746346 -0.07216261327 2.06466517e-38
-0.08015795052 -0.2733153999 -0.03320770711 2.06466517e-38
-0.05628203973 -0.2415261418 -0.06615934521 2.06466517e-38
-0.08527395874 -0.3000358939 -0.02250869386 2.06466517e-38
-0.06155037135 -0.2591103315 -0.05822500587 2.06466517e-38
-0.05489327013 -0.2924370766 -0.06331566721 2.06466517e-38
-0.05157684535 -0.1981242895 -0.05996912345 2.06466517e-38
-0.009776184335 0.1999164671 -0.0939868167 2.137881613e-38
0.01113639958 0.2451214194 -0.1002363712 2.137881613e-38
-0.02510395274 0.3031018078 -0.08497214317 2.137881613e-38
-0.009119463153 0.3733022809 -0.0651878044 2.137881613e-38
-0.007825169712 0.234157905 -0.09371914715 2.137881613e-38
0.005187002942 0.3127217293 -0.09432899952 2.137881613e-38
-0.02148758247 0.2666608989 -0.08783317357 2.137881613e-38
0.01410807204 0.3635933101 -0.07595396042 2.137881613e-38
-0.01543512195 0.2514562905 -0.09039061517 2.137881613e-38
0.001610665116 0.2963203192 -0.09515815973 2.137881613e-38
-0.03127907217 0.3602447212 -0.06048861891 2.137881613e-38
-0.008033489808 0.3865092099 -0.05828114972 2.137881613e-38
-0.006636194419 0.2941986024 -0.0908004269 2.137881613e-38
0.01554480847 0.3242419064 -0.0888190344 2.137881613e-38
-0.01721338741 0.3172818124 -0.08524926007 2.137881613e-38
-0.01710888743 0.3923017979 -0.05317959189 2.137881613e-38
-0.01382129174 0.2787906826 -0.08891645819 2.137881613e-38
0.006937899161 0.3218859732 -0.09171071649 2.137881613e-38
-0.03233654797 0.3148744404 -0.07959525287 2.137881613e-38
-0.01863754727 0.3960354924 -0.05142172426 2.137881613e-38
-0.007584888488 0.2900405526 -0.0907703191 2.137881613e-38
0.003658881877 0.3340661228 -0.08962421119 2.137881613e-38
-0.01325762086 0.2780669332 -0.08976147324 2.137881613e-38
-0.02188643627 0.395227164 -0.05055400729 2.137881613e-38
-0.005770045333 0.2720869482 -0.09211210161 2.137881613e-38
0.0147280395 0.3395584226 -0.08526278287 2.137881613e-38
-0.002740070922 0.2291829735 -0.0958070904 2.137881613e-38
-0.01375461835 0.3230952919 -0.08494678885 2.137881613e-38
-0.03933006153 0.2565385103 -0.0848243013 2.137881613e-38
-0.003157515777 0.2577470541 -0.09447062016 2.137881613e-38
-0.005598933436 0.2125050724 -0.09498271346 2.137881613e-38
-0.0154636912 0.3005740941 -0.08776604384 2.137881613e-38
-0.03485840186 0.09505337477 -0.05949261785 2.211062324e-38
-0.01872350462 -0.232300669 -0.06660121679 2.211062324e-38
-0.03163125366 0.1436700672 -0.06527347118 2.211062324e-38
-0.02351322956 -0.06964018941 -0.06712702662 2.211062324e-38
-0.02554427087 -0.01486523077 -0.06698761135 2.211062324e-38
-0.01402338315 -0.307461679 -0.06332900375 2.211062324e-38
-0.03291045129 0.1014843136 -0.06061779335 2.211062324e-38
-0.02510568313 -0.2331971079 -0.06718493253 2.211062324e-38
-0.02464053407 -0.002588355681 -0.06657485664 2.211062324e-38
-0.009434866719 -0.3498662114 -0.06092658639 2.211062324e-38
-0.01461607404 -0.0752883479 -0.07253370434 2.211062324e-38
-0.0204525087 -0.2304096967 -0.06685195863 2.211062324e-38
-0.02135787904 -0.1154545546 -0.07015366107 2.211062324e-38
0.003632052569 -0.3473468125 -0.06140846014 2.211062324e-38
-0.02152003348 -0.05094728246 -0.06634461135 2.211062324e-38
-0.02102363296 -0.227697134 -0.06742984802 2.211062324e-38
-0.02129596286 -0.1024421677 -0.06804276258 2.211062324e-38
-0.004373671487 -0.3448835015 -0.06132226065 2.211062324e-38
-0.02378785238 0.009413336404 -0.06319308281 2.211062324e-38
-0.01990818232 -0.1973345578 -0.07061625272 2.211062324e-38
-0.02379677445 -0.02118758298 -0.06516091526 2.211062324e-38
-0.0149781378 -0.3101581931 -0.06228838488 2.211062324e-38
-0.02587509714 0.03468575701 -0.06120157614 2.211062324e-38
-0.01978653111 -0.1619591564 -0.07130384445 2.211062324e-38
-0.02518423647 -0.05916608125 -0.06370636821 2.211062324e-38
-0.01726257615 -0.2740131915 -0.06487130374 2.211062324e-38
-0.02632129006 0.0399321951 -0.05959526449 2.211062324e-38
-0.02229292877 -0.08305989206 -0.06719679385 2.211062324e-38
-0.02672987618 0.06017874554 -0.06601388007 2.211062324e-38
-0.01844137348 -0.2513314784 -0.06608369201 2.211062324e-38
-0.02302299254 -0.0487392731 -0.06533191353 2.211062324e-38
-0.02029430866 -0.202121228 -0.06718654931 2.211062324e-38
0.007776237559 -0.07862913609 0.1028000787 2.284242894e-38
-0.001853791764 -0.07076670229 0.1021925807 2.284242894e-38
-0.03797215596 0.01561247464 0.08127059042 2.284242894e-38
0.04887135327 -0.06260555238 0.1038967147 2.284242894e-38
0.004699240439 -0.06934779882 0.1015212238 2.284242894e-38
0.02292751148 0.2040393054 0.09549851716 2.284242894e-38
-0.001589468331 0.1843979061 0.08900664747 2.284242894e-38
0.01395388227 0.008941777982 0.1009872556 2.284242894e-38
0.03053136915 0.00833809562 0.1032137796 2.284242894e-38
0.01735771447 0.18141146 0.0946695134 2.284242894e-38
-0.04355254769 0.2456232607 0.07417434454 2.284242894e-38
0.02265210263 0.1515544355 0.09768944234 2.284242894e-38
-0.001904731151 0.07630249113 0.09541259706 2.284242894e-38
0.02115209773 0.2431838214 0.09473948926 2.284242894e-38
-0.01904793642 0.2639246285 0.08540130407 2.284242894e-38
0.007695716806 0.1228389964 0.09538642317 2.284242894e-38
0.01115616318 0.035038881 0.09864020348 2.284242894e-38
0.01188450959 0.2147340178 0.09149693698 2.284242894e-38
-0.01776856184 0.2550705373 0.08668875694 2.284242894e-38
0.01575408876 0.02439217642 0.1008460224 2.284242894e-38
0.007937681861 -0.07279220968 0.1036181003 2.284242894e-38
0.005416891538 0.1969326288 0.09122610092 2.284242894e-38
-0.005350620486 0.2118715197 0.09007701278 2.284242894e-38
0.02444774657 -0.08796942234 0.1011989266 2.284242894e-38
-0.00443936931 -0.0876930356 0.1034828946 2.284242894e-38
0.01131320931 0.1304441839 0.09500588477 2.284242894e-38
-0.0282484442 0.1490951031 0.08579844236 2.284242894e-38
0.01324549317 -0.1271450818 0.09835278988 2.284242894e-38
-0.02059742808 -0.06057571247 0.1019120663 2.284242894e-38
-0.01357966661 -0.08728902787 0.1032917053 2.284242894e-38
-0.009225978516 0.1128487512 0.09659091383 2.284242894e-38
-0.009114370681 0.01275926922 0.09680838883 2.284242894e-38
0.00612234883 0.1218907535 -0.08663573861 2.348204041e-38
-0.004160976037 0.2464821935 -0.08029159904 2.348204041e-38
0.004465319216 -0.03118894249 -0.08716461062 2.348204041e-38
-0.009522098117 0.1688799113 -0.0845361352 2.348204041e-38
0.009143931791 0.09226512164 -0.0877513662 2.348204041e-38
-0.05636774004 0.3347275853 -0.05350078642 2.348204041e-38
0.009932094254 0.01202149875 -0.08768327534 2.348204041e-38
-0.0167940706 0.3071754873 -0.06559789181 2.348204041e-38
-0.01114051137 0.185058713 -0.08489644527 2.348204041e-38
-0.03612729907 0.3637763858 -0.04970164597 2.348204041e-38
0.008217238821 0.0438345857 -0.08824057877 2.348204041e-38
-0.02871191874 0.3132726848 -0.06298651546 2.348204041e-38
0.000789239828 0.1441351473 -0.08534391969 2.348204041e-38
-0.04847977683 0.3632148504 -0.04818369448 2.348204041e-38
0.009824951179 0.0399768129 -0.08860895783 2.348204041e-38
-0.02337614633 0.2704537213 -0.07440397143 2.348204041e-38
-0.004262324888 0.1631827205 -0.08455078304 2.348204041e-38
-0.04166473448 0.3624713421 -0.04957315698 2.348204041e-38
0.006967305206 0.02992164157 -0.08719006181 2.348204041e-38
-0.02918202803 0.2202765346 -0.07763751596 2.348204041e-38
-0.0006170868292 0.1491114646 -0.08498634398 2.348204041e-38
-0.03739056364 0.333566606 -0.05694900453 2.348204041e-38
0.007272361312 0.00393521972 -0.08747650683 2.348204041e-38
-0.0186386127 0.1662313342 -0.08253812045 2.348204041e-38
0.004564804956 0.1577200294 -0.08464764804 2.348204041e-38
-0.009104663506 0.2520997226 -0.08043826371 2.348204041e-38
0.009612815455 0.0339406915 -0.08823957294 2.348204041e-38
-0.0003505721688 0.1131178066 -0.08679521829 2.348204041e-38
0.01804432273 0.1131705567 -0.08628754318 2.348204041e-38
-0.0002862811089 0.2652275264 -0.07446850091 2.348204041e-38
0.01669578813 0.05089792982 -0.0884218663 2.348204041e-38
0.003069599858 0.1559862047 -0.08461365849 2.348204041e-38
0.05618022755 0.1951831579 0.02916333079 2.347880341e-38
0.05535423383 0.1034998074 0.01806669869 2.347880341e-38
0.05576894805 0.0721129775 0.0146221919 2.347880341e-38
0.06472887099 -0.1248674169 0.0245211944 2.347880341e-38
0.05811331421 0.178758353 0.02374222316 2.347880341e-38
0.05219798535 0.04159668833 0.03848168999 2.347880341e-38
0.0594611764 -0.05020372942 0.02352457866 2.347880341e-38
0.05958029628 -0.1173649058 0.02979573421 2.347880341e-38
0.05631012842 0.1400366724 0.03180168942 2.347880341e-38
0.05850207806 -0.03976140171 0.03037446737 2.347880341e-38
0.0652917847 -0.1226599663 -0.02176290192 2.347880341e-38
0.06880049407 -0.1908106953 0.00886075478 2.347880341e-38
0.05636676773 0.1228549704 0.02942520939 2.347880341e-38
0.05654024333 -0.01964613982 0.04152878001 2.347880341e-38
0.05889431015 -0.04589208961 0.01290465426 2.347880341e-38
0.06822353601 -0.1804732233 0.01688648947 2.347880341e-38
0.05694697797 0.1068802029 0.03401839361 2.347880341e-38
0.05784756318 -0.04429610074 0.03687784448 2.347880341e-38
0.055420883 0.01474348921 0.01464123558 2.347880341e-38
0.06777966022 -0.1742659509 0.0158274509 2.347880341e-38
0.05452612787 0.08248101175 0.03878908232 2.347880341e-38
0.05967143923 -0.05344275758 0.02210466191 2.347880341e-38
0.05585508794 0.06165392324 0.02561051771 2.347880341e-38
0.06590677053 -0.1330209374 -0.01213632897 2.347880341e-38
0.0517083481 0.07477007806 0.04030051455 2.347880341e-38
0.0553278178 0.02725687623 0.006433608942 2.347880341e-38
0.04960490763 0.09846946597 0.03933542967 2.347880341e-38
0.05353897437 0.117207095 0.001867566374 2.347880341e-38
0.05451735109 0.1224695072 0.02781099081 2.347880341e-38
0.05206420645 0.1550239176 0.02260697074 2.347880341e-38
0.05683327466 0.1729340702 0.02155547589 2.347880341e-38
0.05988448486 0.07844590396 0.02828090638 2.347880341e-38
-0.03634828329 0.0426158458 0.06116447598 2.347520768e-38
-0.06922079623 -0.1584555954 0.04630566388 2.347520768e-38
-0.05685767159 -0.1301637143 0.05876103044 2.347520768e-38
-0.05597452447 -0.1006338894 0.05867891759 2.347520768e-38
-0.03120338172 0.07393417507 0.06428392977 2.347520768e-38
-0.07364984602 -0.2588140368 0.0397426635 2.347520768e-38
-0.04017326236 0.008869086392 0.05796806887 2.347520768e-38
-0.07443507761 -0.2348633707 0.05405012518 2.347520768e-38
-0.04038780928 0.00639572693 0.05804586411 2.347520768e-38
-0.07700509578 -0.2614923418 0.02846289985 2.347520768e-38
-0.07447249442 -0.2594489455 0.05713768303 2.347520768e-38
-0.07522844523 -0.2583858073 0.05557701364 2.347520768e-38
-0.03944398835 0.04228517413 0.05672750622 2.347520768e-38
-0.08263911307 -0.2772252262 0.02233608253 2.347520768e-38
-0.0467613861 -0.07794174552 0.05908380449 2.347520768e-38
-0.06869803369 -0.1852988005 0.0570916608 2.347520768e-38
-0.03661338985 0.1097729728 0.06042085215 2.347520768e-38
-0.08048549294 -0.2739990652 0.02855104953 2.347520768e-38
-0.03573700786 -0.001074355561 0.06176448986 2.347520768e-38
-0.05186506733 -0.06081817299 0.05918453261 2.347520768e-38
-0.0358870253 0.1408319771 0.06297540665 2.347520768e-38
-0.07365102321 -0.2795384526 0.04521648586 2.347520768e-38
-0.03585426509 0.05215577409 0.06134128198 2.347520768e-38
-0.04286622629 0.02677930892 0.05654555187 2.347520768e-38
-0.02962942235 0.1641799062 0.07047882676 2.347520768e-38
-0.0708033964 -0.204110682 0.05586725473 2.347520768e-38
-0.03825155273 0.02026073076 0.06293053925 2.347520768e-38
-0.06429931521 -0.1062069088 0.05384279788 2.347520768e-38
-0.03765073419 0.04785681516 0.06170998141 2.347520768e-38
-0.07006867975 -0.2232731134 0.05815251917 2.347520768e-38
-0.05860467628 -0.1234665886 0.05860235915 2.347520768e-38
-0.06961211562 -0.1812853962 0.05428088456 2.347520768e-38
0.01621499285 -0.09273342043 -0.08871139586 2.347161195e-38
0.02435393445 -0.02795449831 -0.08922372013 2.347161195e-38
0.01957388781 0.1088158339 -0.08664111048 2.347161195e-38
0.01968269795 -0.03897682205 -0.09377939999 2.347161195e-38
0.01778723858 -0.1749245375 -0.09065626562 2.347161195e-38
0.02474254742 0.03715494648 -0.08890615404 2.347161195e-38
0.02188544162 0.1232909262 -0.08784483373 2.347161195e-38
0.02331885882 0.1035662144 -0.0859714523 2.347161195e-38
0.02887546644 0.04893259332 -0.08684417605 2.347161195e-38
0.02623860724 0.1461541504 -0.08694589138 2.347161195e-38
0.009638369083 0.1266750544 -0.09287858009 2.347161195e-38
0.02034570649 0.05828872696 -0.08806920797 2.347161195e-38
0.01197511423 -0.1016705632 -0.09222331643 2.347161195e-38
0.03098605201 0.08957129717 -0.08788151294 2.347161195e-38
0.02520405315 0.1194850877 -0.08768779784 2.347161195e-38
0.02044515312 -0.02673756704 -0.09375438094 2.347161195e-38
0.009660898708 -0.1506912708 -0.09302985668 2.347161195e-38
0.02538873069 0.1162428707 -0.08765280247 2.347161195e-38
0.02889625169 0.07781612128 -0.08685352653 2.347161195e-38
0.01814192347 -0.05214814097 -0.09531461447 2.347161195e-38
0.004852917511 -0.1875728518 -0.0959097296 2.347161195e-38
0.02389003523 0.02824403718 -0.08997483552 2.347161195e-38
0.03310956433 -0.02156285383 -0.08448477834 2.347161195e-38
0.01223135181 -0.0667206198 -0.09480637312 2.347161195e-38
-0.005044672173 -0.1997890621 -0.09957546741 2.347161195e-38
0.02375910617 0.005704892334 -0.09029261023 2.347161195e-38
0.01793323085 -0.09605171531 -0.08843681961 2.347161195e-38
0.01265556365 -0.02505927347 -0.08922059089 2.347161195e-38
0.02143812925 -0.09051748365 -0.08871850371 2.347161195e-38
0.01937186532 0.1011582315 -0.08520722389 2.347161195e-38
0.02163368836 0.007179881912 -0.08807935566 2.347161195e-38
0.02057128027 -0.05142419413 -0.09193252772 2.347161195e-38
-0.02147758752 -0.3012523353 -0.06585380435 2.346801622e-38
-0.01645616256 0.03792363405 -0.0621147491 2.346801622e-38
0.007849366404 0.03642402217 -0.07120161504 2.346801622e-38
-0.006612357218 0.2900423706 -0.0649549365 2.346801622e-38
-0.003478326835 -0.264497757 -0.06919050217 2.346801622e-38
-0.01621297374 0.1401921362 -0.0633308813 2.346801622e-38
-0.003548721783 -0.003376009176 -0.06873270124 2.346801622e-38
0.01041865814 0.318257004 -0.06839100271 2.346801622e-38
-0.01380982064 -0.1789992154 -0.06723239273 2.346801622e-38
-0.02185766399 0.2098797858 -0.06132553145 2.346801622e-38
0.01314072125 0.1929685175 -0.07129776478 2.346801622e-38
-0.0314148441 0.3237499297 -0.05653433874 2.346801622e-38
-0.01998040266 -0.2562613785 -0.06574715674 2.346801622e-38
-0.01094024256 0.2249827087 -0.06498447806 2.346801622e-38
-0.003762576729 0.1320323646 -0.06827466935 2.346801622e-38
-0.01934819296 0.325134635 -0.0601359047 2.346801622e-38
-0.02198340558 -0.2678723633 -0.06549353153 2.346801622e-38
-0.0117002381 0.2258013785 -0.06472945213 2.346801622e-38
-0.002123001497 0.06002746522 -0.06876009703 2.346801622e-38
-0.01477518026 0.335285753 -0.06076306105 2.346801622e-38
-0.03098322824 -0.3117161989 -0.06376260519 2.346801622e-38
-0.007264873013 0.2514441907 -0.06565347314 2.346801622e-38
-0.01396370679 -0.1112931371 -0.06558649987 2.346801622e-38
-0.005855455995 0.3214515746 -0.06430057436 2.346801622e-38
-0.02874769084 -0.3354154229 -0.06135627627 2.346801622e-38
-0.01270096563 0.2200011015 -0.06451553851 2.346801622e-38
-0.02164994366 -0.2764068842 -0.06638659537 2.346801622e-38
-0.0114563331 0.1140484661 -0.06645923853 2.346801622e-38
-0.0162891876 -0.2553505003 -0.06786431372 2.346801622e-38
-0.01732131466 0.1225761622 -0.06167641282 2.346801622e-38
-0.00889720954 -0.1780654937 -0.06803835928 2.346801622e-38
0.005867862608 0.08810807765 -0.07074458152 2.346801622e-38
0.05295592919 0.09873748571 0.08484635502 2.346406175e-38
0.04037294164 0.1598560214 0.07533153147 2.346406175e-38
0.04660362005 0.127264455 0.0842243582 2.346406175e-38
-0.02488411032 0.2619195282 0.06822731346 2.346406175e-38
0.01852656156 0.2195964456 0.07123816013 2.346406175e-38
0.008755262941 0.2255756557 0.07135498524 2.346406175e-38
0.05233683065 0.09599599987 0.08349237591 2.346406175e-38
-0.01282808185 0.2655303776 0.07153885067 2.346406175e-38
0.01650788821 0.2501958907 0.06959270686 2.346406175e-38
0.01122236438 0.2332005948 0.07115858048 2.346406175e-38
0.03471147269 0.1973964125 0.07034111768 2.346406175e-38
-0.02676078305 0.3316665888 0.05365236476 2.346406175e-38
0.02422339097 0.2852988243 0.07093428075 2.346406175e-38
-0.02020806633 0.3051500022 0.06656632572 2.346406175e-38
0.02347515896 0.1769672632 0.07342274487 2.346406175e-38
-0.02565756626 0.328707844 0.05388557538 2.346406175e-38
0.02389783226 0.2352097183 0.06900595874 2.346406175e-38
-0.01492920611 0.3009312749 0.06924109906 2.346406175e-38
0.02788657509 0.1504883021 0.07936613262 2.346406175e-38
-0.02999476716 0.3388182819 0.04764692485 2.346406175e-38
0.02299994975 0.2097527236 0.06942228973 2.346406175e-38
-0.002214021981 0.2899727523 0.07138432562 2.346406175e-38
0.04105246067 0.1042916402 0.08645159751 2.346406175e-38
-0.02305077575 0.3270091712 0.05558116734 2.346406175e-38
0.02189384215 0.1970945448 0.07155703753 2.346406175e-38
0.005055715796 0.2870859504 0.07228744775 2.346406175e-38
0.04446278885 0.09977922589 0.08834439516 2.346406175e-38
1.562014222e-05 0.2136904746 0.07175225019 2.346406175e-38
0.05828292668 0.09527023137 0.08032525331 2.346406175e-38
-0.01772582904 0.2779714167 0.07036083937 2.346406175e-38
0.01879614033 0.2282581627 0.06915901601 2.346406175e-38
0.02003324591 0.1820462048 0.07409697026 2.346406175e-38
0.0005271136179 0.3547567427 -0.07876548916 2.346010729e-38
0.05225234479 0.279315412 -0.06724444777 2.346010729e-38
0.05901112407 0.2851999402 -0.0486494191 2.346010729e-38
0.09313246608 -0.04928638786 -0.004970300943 2.346010729e-38
0.01791522466 0.3394694328 -0.07875593752 2.346010729e-38
0.04718682915 0.2632882893 -0.07531420887 2.346010729e-38
0.06496210396 0.2528125644 -0.03597012907 2.346010729e-38
0.07756964117 0.03212936595 -0.02000296675 2.346010729e-38
0.02588647231 0.3363831937 -0.07591550797 2.346010729e-38
0.05720031634 0.1422092915 -0.05984734744 2.346010729e-38
0.09536095709 0.07439307868 0.01979632489 2.346010729e-38
0.08515318483 -0.01323285978 -0.01266793907 2.346010729e-38
0.05260304362 0.294392556 -0.06843882799 2.346010729e-38
0.05749738961 0.1425673813 -0.05850636959 2.346010729e-38
0.08806111664 0.1067032441 -0.001630677376 2.346010729e-38
0.09146525711 0.003215525299 -0.004583647009 2.346010729e-38
0.02709821798 0.3393422365 -0.0750060007 2.346010729e-38
0.06176660582 0.09859605879 -0.04538084939 2.346010729e-38
0.07671342045 0.1707481593 -0.01203776896 2.346010729e-38
0.08979835361 -0.006762327161 -0.006504026707 2.346010729e-38
0.02463783883 0.3696160316 -0.07008944452 2.346010729e-38
0.06745631993 0.1147839129 -0.03044009581 2.346010729e-38
0.07093084604 0.2620100975 -0.0212224517 2.346010729e-38
0.09295994043 -0.003084701952 -0.001627473626 2.346010729e-38
0.005159183405 0.3699904084 -0.0756822899 2.346010729e-38
0.06289810687 0.1559938192 -0.03977419809 2.346010729e-38
0.0817540139 0.286416769 -0.001931739389 2.346010729e-38
0.07521648705 0.04092141613 -0.02174158394 2.346010729e-38
-0.01378664933 0.3587982655 -0.07847694308 2.346010729e-38
0.06207683682 0.09639943391 -0.04466107488 2.346010729e-38
0.06228067726 0.2767005563 -0.04547294229 2.346010729e-38
0.07982452214 0.08253763616 -0.01311298553 2.346010729e-38
0.07806555182 -0.08000973612 -0.01016349345 2.345615283e-38
0.08834432811 0.2555382252 0.007457816042 2.345615283e-38
0.09086476266 0.2647092342 0.04093221202 2.345615283e-38
0.0897975564 0.06239664555 0.04292252287 2.345615283e-38
0.08314141631 0.04367040098 -0.02297122963 2.345615283e-38
0.1003651023 0.212218821 0.0396942459 2.345615283e-38
0.09583728015 0.1267880648 0.03425588086 2.345615283e-38
0.09568434209 0.207997635 0.006301535293 2.345615283e-38
0.07168147713 -0.1170582399 -0.01618910395 2.345615283e-38
0.09551484138 0.2681750655 0.02463559806 2.345615283e-38
0.0716220662 0.2980183065 0.06954438984 2.345615283e-38
0.09341733903 0.2269682735 0.05469473824 2.345615283e-38
0.08086709678 -0.05605695024 -0.0141444942 2.345615283e-38
0.08978411555 0.2687037587 0.04344401136 2.345615283e-38
0.09655836225 0.2341206372 0.04713462293 2.345615283e-38
0.09447811544 0.2272654921 0.05204379559 2.345615283e-38
0.07769245654 -0.08950334042 -0.01961772889 2.345615283e-38
0.08773287386 0.273426652 0.04654626921 2.345615283e-38
0.09820972383 0.2205769718 0.04417932406 2.345615283e-38
0.0999218449 0.2174335867 0.04026790708 2.345615283e-38
0.07542668283 -0.1011290178 -0.0276933182 2.345615283e-38
0.08728756011 0.2732143998 0.04881079495 2.345615283e-38
0.08357270062 -0.03794324398 0.0134478705 2.345615283e-38
0.09703355283 0.1269434541 0.02913188003 2.345615283e-38
0.0846382156 -0.003401162103 -0.02128048614 2.345615283e-38
0.09568206966 0.2361316979 0.04864204302 2.345615283e-38
0.07369560003 -0.1111412421 0.01138429623 2.345615283e-38
0.08238517493 0.01480558328 0.007115594111 2.345615283e-38
0.08802651614 0.0452320911 0.02555838972 2.345615283e-38
0.09188851714 0.2231394351 -0.005161122419 2.345615283e-38
0.08904910833 0.047131598 0.0254032705 2.345615283e-38
0.09609306604 0.122843571 0.03084049188 2.345615283e-38
0.04344386607 -0.4625426233 -0.02683853172 2.345219836e-38
-0.03247064352 -0.4742928445 -0.07218775898 2.345219836e-38
-0.02092128061 -0.4871991575 -0.03012172505 2.345219836e-38
0.02238927223 -0.4822810888 -0.04192692786 2.345219836e-38
0.04059458151 -0.4386918545 0.005535143893 2.345219836e-38
0.01978765242 -0.4675472677 -0.002897477942 2.345219836e-38
-0.03891554847 -0.3911863565 0.02365558967 2.345219836e-38
0.00834922865 -0.4810957313 -0.05249183998 2.345219836e-38
0.02859454602 -0.4721840024 -0.03831103444 2.345219836e-38
0.007887668908 -0.4796706438 -0.01777655445 2.345219836e-38
-0.05524912477 -0.4050603509 0.0003991573758 2.345219836e-38
0.01773847453 -0.480779916 -0.02224596776 2.345219836e-38
0.009845031425 -0.4448821247 0.009100960568 2.345219836e-38
-0.002863775473 -0.4525729716 0.002654397162 2.345219836e-38
-0.05604334176 -0.372551322 0.01376892067 2.345219836e-38
0.001757888123 -0.481846422 -0.02095425315 2.345219836e-38
0.03235149756 -0.4655781388 -0.03312869743 2.345219836e-38
-7.602199912e-05 -0.4609175622 0.000821962778 2.345219836e-38
-0.04955523834 -0.3846204579 0.01355301309 2.345219836e-38
0.002504555974 -0.482024312 -0.02128576115 2.345219836e-38
0.03708549216 -0.4596296549 -0.03107838519 2.345219836e-38
0.002824757248 -0.4590416849 0.001571251662 2.345219836e-38
-0.04363163561 -0.4030924737 0.01067588851 2.345219836e-38
-0.002482055221 -0.4840790033 -0.02374123782 2.345219836e-38
0.03825669363 -0.444704026 -0.002180334413 2.345219836e-38
0.01330101676 -0.4546962082 0.004989537876 2.345219836e-38
-0.03340653703 -0.4570250511 -0.0003921389289 2.345219836e-38
-0.03687007353 -0.4830095768 -0.05497686937 2.345219836e-38
0.03123449162 -0.4700977206 -0.04916666448 2.345219836e-38
-0.02325820364 -0.4742638171 -0.07080314308 2.345219836e-38
0.01971058361 -0.4807217121 -0.04399130493 2.345219836e-38
-0.01302462537 -0.4852369726 -0.04820921645 2.345219836e-38
0.08246174455 0.1312966496 0.02035090141 2.344788516e-38
0.08053258806 0.270036608 -0.03951465338 2.344788516e-38
0.07960284501 0.2199106663 0.01701159589 2.344788516e-38
0.07824137062 0.2658242881 -0.005974653643 2.344788516e-38
0.08294972777 0.2003738582 0.01273755357 2.344788516e-38
0.07026785612 0.3234504759 -0.006677334663 2.344788516e-38
0.07345756143 0.2561537921 0.01019058097 2.344788516e-38
0.07327143848 0.2697922885 0.01904178411 2.344788516e-38
0.07147938013 0.2124997824 0.03441713005 2.344788516e-38
0.07564332336 0.3034664392 -0.03543210402 2.344788516e-38
0.08168555051 0.2744845748 -0.04590876028 2.344788516e-38
0.0719223246 0.2840662301 0.01323798485 2.344788516e-38
0.07558757812 0.2235859036 0.02567358688 2.344788516e-38
0.07068335265 0.3264321387 -0.01278935652 2.344788516e-38
0.07913719863 0.2603080273 -0.01039004233 2.344788516e-38
0.07140749693 0.2994349003 0.001302435296 2.344788516e-38
0.07449109852 0.227726087 0.02060021274 2.344788516e-38
0.07350195199 0.3170953691 -0.0260777045 2.344788516e-38
0.07528352737 0.2561405599 0.001811338472 2.344788516e-38
0.06881819665 0.3088747263 0.006918319967 2.344788516e-38
0.07609210908 0.1885741502 0.01864290982 2.344788516e-38
0.07498823851 0.3059506416 -0.03275119886 2.344788516e-38
0.07226797193 0.243934691 0.02251894772 2.344788516e-38
0.07071333379 0.298627466 0.00621275045 2.344788516e-38
0.07425786555 0.1880530715 0.01451953501 2.344788516e-38
0.07942362875 0.2870872915 -0.03450863063 2.344788516e-38
0.07117493451 0.2033095509 0.02357159369 2.344788516e-38
0.0745973438 0.2442948818 0.007315147668 2.344788516e-38
0.07474605739 0.2514652014 0.01101246662 2.344788516e-38
0.07186030596 0.2489326298 0.02443841659 2.344788516e-38
0.07092520595 0.2180635631 0.02484987117 2.344788516e-38
0.07946515828 0.2809943557 -0.03435787559 2.344788516e-38
0.08440454304 -0.2867302895 0.01790502109 2.344357197e-38
0.08756768703 -0.2366339117 0.01953279227 2.344357197e-38
0.07503280789 -0.3438149989 0.02533295378 2.344357197e-38
0.09113327414 -0.1778276861 0.01177961286 2.344357197e-38
0.08125443012 -0.3207919896 0.0008467098814 2.344357197e-38
0.08589249104 -0.205656305 -0.022399012 2.344357197e-38
0.07416068763 -0.3123848736 0.03767540306 2.344357197e-38
0.08673207462 -0.257994324 0.01766654477 2.344357197e-38
0.08216800541 -0.3117832839 0.02103710733 2.344357197e-38
0.08797300607 -0.1871982813 -0.02271586284 2.344357197e-38
0.06789389998 -0.3580398262 0.03672825918 2.344357197e-38
0.08798990399 -0.191470772 0.005584014114 2.344357197e-38
0.08199394494 -0.3187221587 0.01320627891 2.344357197e-38
0.08334937692 -0.2173292339 -0.0518896766 2.344357197e-38
0.06940095872 -0.3464942276 0.03566377237 2.344357197e-38
0.08302623034 -0.2289945334 -0.0106996242 2.344357197e-38
0.08460526168 -0.3008086085 0.009089560248 2.344357197e-38
0.08500258625 -0.2071264535 -0.04750165343 2.344357197e-38
0.070573695 -0.3385617137 0.03308616206 2.344357197e-38
0.08206275105 -0.2353484631 -0.01088834368 2.344357197e-38
0.08194958419 -0.2777082324 -0.0101993978 2.344357197e-38
0.08394755423 -0.2179338932 -0.04057145119 2.344357197e-38
0.07969393581 -0.3160241246 0.025124209 2.344357197e-38
0.08194886893 -0.2357607484 -0.00794506073 2.344357197e-38
0.07218515128 -0.3337702751 -0.04595755413 2.344357197e-38
0.0787492469 -0.2839770019 -0.02636273578 2.344357197e-38
0.07372191548 -0.3568260074 0.003608073341 2.344357197e-38
0.09158725291 -0.1835404336 0.02038443647 2.344357197e-38
0.07784314454 -0.3261722326 0.02283305489 2.344357197e-38
0.09408555925 -0.1293542236 0.0162645299 2.344357197e-38
0.0850699842 -0.3054133952 0.008978446014 2.344357197e-38
0.0837431252 -0.2908875942 0.01337170228 2.344357197e-38
0.06284245104 0.3201794624 0.0534584634 2.343925737e-38
0.02024497651 0.2819451988 0.07520323247 2.343925737e-38
0.0544754006 0.2516947389 0.07091946155 2.343925737e-38
0.003790352959 0.3042613268 0.06987218559 2.343925737e-38
0.0422158055 0.3549084067 0.06532650441 2.343925737e-38
-0.02502155304 0.1688548625 0.07813543081 2.343925737e-38
0.04355159402 0.2519078255 0.07000824064 2.343925737e-38
-0.02589811385 0.2881555259 0.05723032728 2.343925737e-38
0.04970859364 0.3487129509 0.06162376329 2.343925737e-38
-0.0500739105 0.1875579357 0.06274247915 2.343925737e-38
0.009477331303 0.1631961316 0.08162134886 2.343925737e-38
-0.03289947659 0.2417964041 0.06075803936 2.343925737e-38
