# .PCD v0.7 - Point Cloud Data file format
VERSION 0.7
FIELDS x y z rgb
SIZE 4 4 4 4
TYPE F F F F
COUNT 1 1 1 1
WIDTH 833
HEIGHT 1
VIEWPOINT 0 0 0 1 0 0 0
POINTS 833
DATA ascii
-0.2219337821 -0.3521947861 0.06057367474 2.462297202e-39
-0.2243103683 -0.1902859509 0.1889019012 2.462297202e-39
-0.2213100642 -0.2148244679 0.2413161099 2.646685659e-39
-0.2366321087 -0.1910750568 0.1898349673 2.646685659e-39
-0.1650886536 -0.2066885531 -0.0724235177 2.646685659e-39
-0.1363680959 -0.3451743424 0.04266296327 2.646685659e-39
-0.213555038 -0.2976331115 0.1247958392 2.646685659e-39
-0.1486900449 -0.2085967511 0.1553799212 2.646685659e-39
-0.1873451769 -0.187918663 0.186102733 2.646685659e-39
-0.1415609121 -0.2822232246 0.1057468206 2.646685659e-39
0.3314822316 -0.7004722357 -0.2681482434 2.830713982e-39
0.16524674 -0.4536265135 0.3943949342 2.830713982e-39
-0.193787545 -0.2531556487 0.1353312731 2.830713982e-39
0.08271916956 -0.1939001083 -0.06832611561 2.830713982e-39
-0.2165572941 -0.2639087439 0.2082273513 2.830713982e-39
-0.2229999155 -0.1917790771 0.2692397535 2.830713982e-39
-0.1486898363 -0.3459634483 0.04359602183 2.830713982e-39
0.1885171533 -0.4490547776 0.3697702587 2.830713982e-39
-0.006279043853 -0.1934367418 -0.1073118895 3.015101038e-39
0.3307957053 -0.6989755034 -0.279527545 3.015101038e-39
-0.237318635 -0.1895782948 0.1784556806 3.015101038e-39
-0.2238703072 -0.2041527927 0.1589068621 3.015101038e-39
-0.2009167075 -0.1795291901 0.1849643886 3.015101038e-39
-0.1616983116 -0.20788908 0.1449337006 3.015101038e-39
-0.2208699882 -0.2286912799 0.2113210261 3.015101038e-39
-0.1895980835 -0.2945581675 0.1115504503 3.015101038e-39
-0.1610115767 -0.3467525542 0.04452908039 3.199488094e-39
-0.2220572233 -0.2210131288 0.1516703963 3.199488094e-39
-0.1381811798 -0.3283139765 0.04989946634 3.199488094e-39
0.06971093267 -0.1931924522 -0.07877233624 3.199488094e-39
-0.1738966405 -0.3398598433 0.05477004498 3.199488094e-39
-0.2227534801 -0.1794089973 0.310614109 3.199488094e-39
-0.2109852433 -0.2110454738 0.1486659348 3.199488094e-39
-0.08089601994 -0.1966745704 -0.1130928174 3.199488094e-39
-0.195037365 -0.2439770997 0.1332598776 3.383517819e-39
-0.2343789637 -0.2218022346 0.1526034474 3.383517819e-39
-0.2136782706 -0.3038181365 0.1041086316 3.383517819e-39
-0.006965557113 -0.1919399798 -0.1186911687 3.383517819e-39
-0.1499396563 -0.3367848694 0.04152461886 3.383517819e-39
-0.2251200974 -0.1949742138 0.1568354666 3.383517819e-39
-0.2203066945 -0.2363730669 0.2020131499 3.383517819e-39
-0.2248734236 -0.3199708462 0.08642593026 3.383517819e-39
-0.1528795362 -0.1671942472 0.179160744 3.567904875e-39
-0.1393077523 -0.3129504025 0.0685152486 3.567904875e-39
-0.2301894724 -0.2632047236 0.1288225651 3.567904875e-39
-0.0569390431 -0.1935996115 -0.1263382137 3.567904875e-39
-0.160571754 -0.2232526839 0.1263178885 3.567904875e-39
-0.1785261631 -0.2845905125 0.1085459888 3.567904875e-39
-0.2027403861 -0.2075590789 -0.08100368083 3.567904875e-39
0.0943543911 -0.1916142404 -0.08063845336 3.567904875e-39
-0.1652012765 -0.1679833382 0.18009381 3.75229193e-39
-0.1628246903 -0.3298921883 0.05176558346 3.75229193e-39
-0.1500630826 -0.205603227 0.1326213032 3.75229193e-39
-0.2160546482 -0.2792760134 0.1206530333 3.75229193e-39
-0.06926076859 -0.1943887174 -0.1254051626 3.75229193e-39
-0.1664616913 -0.2036950141 -0.0951821357 3.75229193e-39
-0.1301829517 -0.1998309642 -0.1093605906 3.75229193e-39
0.2460067868 -0.4361287355 0.2968292236 3.75229193e-39
-0.2241265029 -0.1764154732 0.2878555655 3.936320254e-39
-0.2240032852 -0.1702304184 0.3085426986 3.936320254e-39
-0.2269332111 -0.1781138629 0.1640719324 3.936320254e-39
-0.2009164393 -0.3168958724 0.0731805414 3.936320254e-39
-0.1541293263 -0.1580156982 0.1770893484 3.936320254e-39
-0.1494997889 -0.213285014 0.123313427 3.936320254e-39
-0.2244333923 -0.3338376582 0.0564308688 3.936320254e-39
-0.2274965048 -0.170432061 0.1733798236 3.936320254e-39
0.08134613931 -0.1909065843 -0.091084674 4.120708711e-39
-0.1975369751 -0.2256199718 0.1291170716 4.120708711e-39
-0.2368785441 -0.2034451365 0.1484606415 4.120708711e-39
-0.142504707 -0.2006200552 -0.108427532 4.120708711e-39
-0.2116717696 -0.2095487118 0.1372866035 4.120708711e-39
-0.2126749158 -0.3253667951 0.06480570138 4.120708711e-39
-0.1664510965 -0.1588047892 0.1780223995 4.120708711e-39
0.1189979091 -0.1900360584 -0.08250457048 4.120708711e-39
0.3431175351 -0.6981863976 -0.2804605961 4.304737034e-39
-0.1062260196 -0.1967560053 -0.1226059869 4.304737034e-39
-0.2239328921 -0.202652365 0.2164860964 4.304737034e-39
0.1696579158 -0.1898731887 -0.06347824633 4.304737034e-39
-0.2244961858 -0.194970578 0.2257939726 4.304737034e-39
-0.227249831 -0.2954286933 0.1029702872 4.304737034e-39
0.3588718176 -0.704881072 -0.2244971991 4.304737034e-39
-0.2308759987 -0.2617079616 0.1174432933 4.304737034e-39
-0.1910945773 -0.1603829861 0.1798885167 4.48912409e-39
-0.06994728744 -0.1928919554 -0.1367844641 4.48912409e-39
-0.1630713642 -0.204895556 0.1221750826 4.48912409e-39
0.3581852913 -0.7033843398 -0.2358764708 4.48912409e-39
-0.1810257733 -0.2662333846 0.1044031829 4.48912409e-39
-0.1753931046 -0.2056846619 0.1231081486 4.48912409e-39
-0.1794699281 -0.202987358 -0.1056283563 4.48912409e-39
0.1566496044 -0.1891655177 -0.07392445952 4.48912409e-39
0.05532965809 -0.1894912571 -0.1119771749 4.673152414e-39
-0.2357519865 -0.2188087106 0.1298448294 4.673152414e-39
-0.228746295 -0.1612535119 0.1713084131 4.673152414e-39
-0.225376308 -0.1672368944 0.2857841551 4.673152414e-39
-0.1763962507 -0.3215027452 0.05062723905 4.673152414e-39
-0.200476408 -0.3307627141 0.04318544269 4.673152414e-39
-0.1898445189 -0.3069282174 0.07017607987 4.673152414e-39
-0.1887179613 -0.3222918212 0.05156029761 4.673152414e-39
-0.2333756089 -0.2433508635 0.1133004874 4.857539469e-39
-0.1069125384 -0.1952592432 -0.1339852959 4.857539469e-39
-0.230312705 -0.2693897784 0.1081354171 4.857539469e-39
0.06765139103 -0.1887021661 -0.1129102334 4.857539469e-39
-0.1643211544 -0.1957170069 0.120103687 4.857539469e-39
-0.1766428947 -0.1965061128 0.1210367382 4.857539469e-39
-0.223492831 -0.2165192068 0.1864910573 4.857539469e-39
-0.1822755635 -0.2570548356 0.1023317873 4.857539469e-39
0.2241093814 -0.4436939359 0.344212532 5.041567793e-39
-0.1192342564 -0.1960483491 -0.1330522299 5.041567793e-39
-0.2288695276 -0.1674385518 0.1506212503 5.041567793e-39
-0.1412440836 -0.3022750914 0.05506453663 5.041567793e-39
-0.2346253991 -0.2341723144 0.111229077 5.041567793e-39
-0.1647610068 -0.3192168772 0.03831487149 5.041567793e-39
0.356125772 -0.6988940239 -0.2700143456 5.041567793e-39
0.189890191 -0.4520483017 0.3925288022 5.041567793e-39
-0.1459968388 -0.2531907558 0.08815325797 5.225597518e-39
0.168284893 -0.1868796647 -0.08623680472 5.225597518e-39
-0.2267493308 -0.1642433703 0.2630255222 5.225597518e-39
0.01561835781 -0.1858715117 -0.1546951532 5.225597518e-39
-0.1655709445 -0.186538443 0.1180322766 5.225597518e-39
-0.153565824 -0.3030641675 0.05599759892 5.225597518e-39
0.092294842 -0.1871239543 -0.1147763506 5.225597518e-39
-0.1561994702 -0.198415637 -0.1302530617 5.225597518e-39
0.2357445955 -0.4414080977 0.3319001198 5.409984573e-39
-0.1685212255 -0.1992047429 -0.1293199956 5.409984573e-39
-0.1902144551 -0.1881166399 0.1198983938 5.409984573e-39
-0.2400646806 -0.1835912466 0.1329385042 5.409984573e-39
-0.1931646764 -0.2007829249 -0.1274538934 5.409984573e-39
-0.1742665172 -0.2210482657 0.1044923961 5.409984573e-39
-0.03435509652 -0.1875311434 -0.1623422354 5.409984573e-39
-0.2271894068 -0.1503765583 0.2930206358 5.409984573e-39
-0.205475837 -0.1566818058 0.1466837376 5.594012897e-39
-0.2168644071 -0.2839642763 0.08858655393 5.594012897e-39
-0.2301193178 -0.1582600027 0.1485498548 5.594012897e-39
-0.2286228538 -0.2924351692 0.08021172881 5.594012897e-39
-0.1536890566 -0.3092491925 0.03531040996 5.594012897e-39
-0.2157378197 -0.2993278503 0.06997078657 5.594012897e-39
-0.0589985922 -0.1891093254 -0.1604761183 5.594012897e-39
-0.2424410582 -0.1590490937 0.1494829059 5.594012897e-39
0.3711935282 -0.7040920258 -0.2254302502 5.77804122e-39
-0.2028527558 -0.3062205613 0.05972982943 5.77804122e-39
-0.2264324874 -0.1842952669 0.2123432904 5.77804122e-39
-0.1544989944 -0.1765708029 0.1150278151 5.77804122e-39
-0.1791425049 -0.1781489849 0.1168939322 5.77804122e-39
-0.1568859965 -0.196918875 -0.1416323483 5.77804122e-39
0.11693836 -0.1855457723 -0.1166424677 5.77804122e-39
-0.2161076963 -0.1805162877 0.1196931154 5.77804122e-39
0.09160833061 -0.1856272072 -0.1261556298 5.962428276e-39
0.001923601143 -0.1836670935 -0.1765206754 5.962428276e-39
-0.2184840739 -0.1559741497 0.136237517 5.962428276e-39
0.1799201071 -0.1845937967 -0.09854914248 5.962428276e-39
-0.2061623633 -0.1551850438 0.1353044659 5.962428276e-39
-0.2407512069 -0.1820944846 0.1215592325 5.962428276e-39
-0.2302425504 -0.1644450277 0.1278626472 5.962428276e-39
-0.2304359376 -0.2755748034 0.08744819462 5.962428276e-39
-0.09596380591 -0.1914766282 -0.1576769352 6.1464566e-39
-0.1938406229 -0.1543959528 0.1343713999 6.1464566e-39
0.07860008627 -0.1849195361 -0.1366018504 6.1464566e-39
-0.1484964341 -0.2348336577 0.08401046693 6.1464566e-39
-0.1783325374 -0.3108274043 0.03717652708 6.1464566e-39
0.3691340089 -0.6996017694 -0.259568125 6.1464566e-39
-0.2365617156 -0.2234970033 0.09777839482 6.1464566e-39
-0.2029759884 -0.3124055862 0.03904263675 6.1464566e-39
-0.2293093503 -0.2909384072 0.06883244216 6.330484923e-39
-0.2286856472 -0.1535680592 0.2495748401 6.330484923e-39
-0.2260530889 -0.2058475316 0.1040818095 6.330484923e-39
0.3684474826 -0.6981049776 -0.2709473968 6.330484923e-39
-0.2082920372 -0.2556394935 0.08143927157 6.330484923e-39
0.07791356742 -0.1834227741 -0.1479811668 6.330484923e-39
-0.167507261 -0.1758631319 0.1045815945 6.330484923e-39
-0.2191706002 -0.1544773728 0.1248581856 6.330484923e-39
-0.1995964944 -0.2211296856 0.09497922659 6.514514648e-39
-0.2314923704 -0.1552664787 0.1257912368 6.514514648e-39
0.2138471901 -0.4489733577 0.3792834282 6.514514648e-39
-0.2414377034 -0.1805977225 0.1101799458 6.514514648e-39
-0.1584418118 -0.2601649165 0.06839916855 6.514514648e-39
-0.1836485863 -0.2540613115 0.0795731619 6.514514648e-39
-0.1672605872 -0.3008597493 0.03417206556 6.514514648e-39
0.03888884559 -0.1812997907 -0.1793198586 6.514514648e-39
-0.2311224639 -0.2740780413 0.07606892288 6.698542971e-39
-0.1651308835 -0.2004052848 0.08803725243 6.698542971e-39
0.2480663061 -0.4406189919 0.3309670687 6.698542971e-39
-0.2302522957 -0.1243376285 0.2981857061 6.698542971e-39
-0.1795823574 -0.3016488552 0.03510512412 6.698542971e-39
-0.2077287734 -0.2633213103 0.07213139534 6.698542971e-39
-0.195407033 -0.2625322044 0.07119834423 6.698542971e-39
-0.06037161499 -0.1861158162 -0.1832346767 6.698542971e-39
0.1408953071 -0.1824708134 -0.129887864 6.882571295e-39
-0.1774526238 -0.2011943758 0.08897030354 6.882571295e-39
0.1915553063 -0.1823079288 -0.1108615324 6.882571295e-39
0.05121057481 -0.1805106997 -0.1802529097 6.882571295e-39
-0.2231134176 -0.2380715013 0.07822953165 6.882571295e-39
-0.1924673617 -0.2947561443 0.04534608126 6.882571295e-39
-0.1561886668 -0.2908920944 0.03116760217 6.882571295e-39
0.1025570855 -0.1818445921 -0.149847284 6.882571295e-39
-0.2294325829 -0.2971234322 0.04814525694 7.066599618e-39
-0.2047891021 -0.2955452204 0.04627913982 7.066599618e-39
-0.2283688039 -0.173619926 0.1988925934 7.066599618e-39
-0.2165475488 -0.3040161431 0.0379042998 7.066599618e-39
0.3663879633 -0.6936147213 -0.3050853014 7.066599618e-39
-0.2304987311 -0.1367077082 0.2568113208 7.066599618e-39
0.3828287721 -0.7018061876 -0.2377426028 7.066599618e-39
-0.1966568232 -0.2533536255 0.06912693381 7.066599618e-39
-0.1681937873 -0.1743663847 0.09320232272 7.250627941e-39
-0.1712672859 -0.1932176948 -0.1748371571 7.250627941e-39
-0.1959107369 -0.1947958916 -0.17297104 7.250627941e-39
-0.2289320976 -0.165938139 0.2082004845 7.250627941e-39
0.05052406341 -0.1790139377 -0.1916321963 7.250627941e-39
0.02519403026 -0.1790953577 -0.2011453807 7.250627941e-39
-0.178702414 -0.1920158267 0.08689890802 7.250627941e-39
-0.2082324922 -0.1955849826 -0.1720379889 7.250627941e-39
0.2038770318 -0.1815188378 -0.111794591 7.434656265e-39
-0.1714500785 -0.2594572604 0.05795294791 7.434656265e-39
-0.2138545513 -0.2112434506 0.08246153593 7.434656265e-39
-0.2174807191 -0.1775227785 0.09693454206 7.434656265e-39
0.2292070836 -0.181437403 -0.1022813767 7.434656265e-39
-0.17688936 -0.2088761628 0.0796623677 7.434656265e-39
-0.2015328407 -0.2104543597 0.08152848482 7.434656265e-39
-0.06105813384 -0.1846190542 -0.1946139932 7.434656265e-39
-0.1837718189 -0.2602463365 0.05888600647 7.618684588e-39
0.08886227012 -0.179640159 -0.171672821 7.618684588e-39
0.07585402578 -0.178932488 -0.1821190417 7.618684588e-39
-0.0001359404996 -0.1791768074 -0.2106585503 7.618684588e-39
-0.2317485362 -0.1275291592 0.2547399104 7.618684588e-39
-0.1596320421 -0.1909318268 -0.1871495247 7.618684588e-39
0.1272005439 -0.1802663803 -0.1517134011 7.618684588e-39
-0.2237999141 -0.2365747392 0.06685025245 7.618684588e-39
-0.20966506 -0.2526459694 0.0586807169 7.802712912e-39
0.024507517 -0.1775986105 -0.2125246674 7.802712912e-39
-0.23130849 -0.141396001 0.2247448862 7.802712912e-39
-0.203355208 -0.4282200038 0.03552027047 7.802712912e-39
-0.200969547 -0.2181361765 0.07222060859 7.802712912e-39
-0.2373714745 -0.2281852663 0.06571190059 7.802712912e-39
-0.2089190036 -0.1940882206 -0.1834172904 7.802712912e-39
-0.2446238399 -0.1607438475 0.09465785325 7.802712912e-39
-0.2301819026 -0.156759575 0.2061290741 7.986382503e-39
-0.0494229123 -0.1823332012 -0.206926316 7.986382503e-39
-0.1592515707 -0.2648531795 0.0363327004 7.986382503e-39
0.2552235425 -0.1828527302 -0.081388928 7.986382503e-39
0.07448100299 -0.1759389639 -0.204877615 7.986382503e-39
0.1984218806 -0.1463473737 0.08368998766 7.986382503e-39
-0.1949669719 -0.2763990462 0.04120328277 7.986382503e-39
-0.2337452769 -0.2619059682 0.05123892426 7.986382503e-39
-0.1944036782 -0.2840808332 0.03189537674 8.170410826e-39
-0.1967800558 -0.2595386803 0.04843975604 8.170410826e-39
0.138835758 -0.1779805422 -0.1640257388 8.170410826e-39
-0.2334384173 -0.1044837758 0.2826636136 8.170410826e-39
-0.2329983413 -0.1183505878 0.2526685297 8.170410826e-39
0.07379448414 -0.1744422168 -0.2162569016 8.170410826e-39
-0.03778766841 -0.1800473332 -0.2192386985 8.170410826e-39
0.02382100187 -0.1761018485 -0.2239039838 8.170410826e-39
-0.2313688993 -0.2864481211 0.03469454497 8.35443915e-39
0.06078624725 -0.1737345457 -0.2267031521 8.35443915e-39
0.1894957721 -0.1778176576 -0.1449993849 8.35443915e-39
-0.1972837597 -0.1918023676 -0.1957296282 8.35443915e-39
-0.2319950014 -0.139899224 0.2133655548 8.35443915e-39
-0.233561635 -0.1106687933 0.2619763911 8.35443915e-39
-0.1719431877 -0.1468307078 0.08698810637 8.35443915e-39
-0.1481795907 -0.2548855245 0.03332823887 8.35443915e-39
-0.2314317077 -0.147581026 0.2040576786 8.538467473e-39
-0.2416841686 -0.1929678023 0.06880557537 8.538467473e-39
-0.2194170356 -0.1668474376 0.0834838599 8.538467473e-39
0.1251410097 -0.1757761091 -0.1858512759 8.538467473e-39
0.1700290143 -0.1203899011 0.07934188843 8.538467473e-39
0.1582705081 -0.1288608164 0.07096707821 8.538467473e-39
-0.05010943115 -0.1808364391 -0.2183056325 8.538467473e-39
-0.2139777839 -0.2174285054 0.06177438423 8.538467473e-39
-0.207095325 -0.1660583317 0.08255080879 8.722137064e-39
-0.1962167919 -0.2672204673 0.03913187236 8.722137064e-39
-0.1857081354 -0.2495710254 0.04543529451 8.722137064e-39
0.07310797274 -0.1729454547 -0.2276362181 8.722137064e-39
-0.2453103364 -0.1592470855 0.08327857405 8.722137064e-39
0.3944639564 -0.6995202899 -0.2500549555 8.722137064e-39
0.2107436061 -0.1455582827 0.08275692165 8.722137064e-39
-0.2293624282 -0.1921786964 0.06787250936 8.722137064e-39
-0.2047282308 -0.4252264798 0.01276167855 8.906165387e-39
-0.06243115664 -0.1816255301 -0.2173725665 8.906165387e-39
-0.1722598076 -0.2641455233 0.02588645183 8.906165387e-39
0.1374627352 -0.1749870181 -0.186784327 8.906165387e-39
-0.1960234046 -0.1560906917 0.07954634726 8.906165387e-39
-0.1893343329 -0.2158503234 0.05990827084 8.906165387e-39
-0.01383069716 -0.1769723743 -0.2324840873 8.906165387e-39
-0.1610050797 -0.1879383028 -0.2099081129 8.906165387e-39
-0.2206668556 -0.1576688886 0.08141246438 9.089834978e-39
-0.2083451152 -0.1568797827 0.08047939837 9.089834978e-39
0.1588338017 -0.1365426034 0.0616591908 9.089834978e-39
0.07242146134 -0.1714486927 -0.2390154898 9.089834978e-39
-0.220296979 -0.2764804661 0.03169009089 9.089834978e-39
-0.2332447916 -0.1307206601 0.2112941444 9.089834978e-39
0.1932999194 -0.3905515671 -0.1688505709 9.089834978e-39
0.1914868206 -0.373691231 -0.1616140902 9.089834978e-39
-0.2342481464 -0.1091720387 0.2505971193 9.273863302e-39
0.06009973586 -0.1722377837 -0.2380824387 9.273863302e-39
0.2186298817 -0.3904701471 -0.1593374014 9.273863302e-39
0.258094728 -0.4064599574 -0.1579937786 9.273863302e-39
-0.1536188722 -0.2043044567 0.05503768846 9.273863302e-39
-0.2321182191 -0.1460842639 0.1926783919 9.273863302e-39
-0.1972731948 -0.1469121426 0.07747494429 9.273863302e-39
-0.148866117 -0.2533887625 0.02194893174 9.273863302e-39
-0.1611878872 -0.2541778684 0.0228819903 9.457532893e-39
0.1627927721 -0.1749055684 -0.1772711575 9.457532893e-39
0.1575839967 -0.1273640543 0.05958779529 9.457532893e-39
-0.2095949352 -0.1477012336 0.07840800285 9.457532893e-39
0.2524774969 -0.1768656969 -0.1269061118 9.457532893e-39
-0.1603079438 -0.1445448399 0.07467576861 9.457532893e-39
0.1593970805 -0.1442243755 0.05235126242 9.457532893e-39
-0.1616915911 -0.1864415556 -0.2212873995 9.457532893e-39
-0.2459968626 -0.1577503085 0.07189923525 9.641561216e-39
0.3924044371 -0.695029974 -0.2841928303 9.641561216e-39
-0.1659406424 -0.2050935477 0.05597074702 9.641561216e-39
-0.09939637035 -0.183992818 -0.2145733982 9.641561216e-39
-0.1370480955 -0.1848633587 -0.2231535017 9.641561216e-39
-0.2061012685 -0.4222329557 -0.009996909648 9.641561216e-39
-0.1740133464 -0.1872306466 -0.2203543335 9.641561216e-39
0.1490979493 -0.1727011502 -0.1990966499 9.641561216e-39
0.1751144975 -0.1741164625 -0.1782042086 9.825230807e-39
0.168092683 -0.10971459 0.06589120626 9.825230807e-39
0.1621062607 -0.1734088063 -0.1886504441 9.825230807e-39
0.08405667543 -0.1691628397 -0.2513278127 9.825230807e-39
0.1563341916 -0.1181854829 0.05751638487 9.825230807e-39
0.1717188656 -0.1434352845 0.05141819641 9.825230807e-39
0.2161302865 -0.3721130192 -0.1634802073 9.825230807e-39
0.0717349425 -0.1699519306 -0.2503947616 9.825230807e-39
0.1934226751 -0.1096331552 0.07540437579 1.000925913e-38
-0.1630009711 -0.2373175025 0.0301184915 1.000925913e-38
-0.03916069865 -0.1770538092 -0.2419972569 1.000925913e-38
-0.233931303 -0.129223913 0.1999148726 1.000925913e-38
0.2704164684 -0.4056708813 -0.1589268297 1.000925913e-38
0.1895505041 -0.3630159199 -0.1750647724 1.000925913e-38
-0.1747594178 -0.2457883954 0.02174364217 1.000925913e-38
0.2517909706 -0.1753689349 -0.1382853836 1.000925913e-38
-0.2122879028 -0.2404738963 0.03385072201 1.019292872e-38
0.2148804814 -0.3629344702 -0.1655516028 1.019292872e-38
0.1484114379 -0.1712043881 -0.2104759663 1.019292872e-38
-0.08776116371 -0.181706965 -0.226885736 1.019292872e-38
-0.2356211841 -0.1061785221 0.2278385609 1.019292872e-38
-0.2322414517 -0.1522693038 0.1719912291 1.019292872e-38
0.2284520119 -0.3713239133 -0.1644132584 1.019292872e-38
-0.1500563622 -0.1841556877 -0.2335997373 1.019292872e-38
0.2211290151 -0.1340938807 0.06837318838 1.037659831e-38
0.2432733327 -0.3888919353 -0.1612035185 1.037659831e-38
-0.2226031721 -0.1469935775 0.06796172261 1.037659831e-38
0.2272022069 -0.3621453643 -0.1664846689 1.037659831e-38
-0.2361844629 -0.09849672765 0.2371464372 1.037659831e-38
0.4074722528 -0.7002279758 -0.239608705 1.037659831e-38
-0.1789488792 -0.2043858767 0.04552452266 1.037659831e-38
-0.1513657272 -0.2350316346 0.0178061258 1.037659831e-38
-0.1888942719 -0.2297171652 0.02991320565 1.056062664e-38
0.1477249265 -0.1697076261 -0.221855253 1.056062664e-38
0.1674061716 -0.1082178354 0.05451192334 1.056062664e-38
-0.1666271389 -0.2035967857 0.0445914641 1.056062664e-38
0.1927361637 -0.1081364006 0.06402508914 1.056062664e-38
0.4067857862 -0.698731184 -0.2509880066 1.056062664e-38
0.2420235425 -0.3797133863 -0.163274914 1.056062664e-38
0.2216923088 -0.1417756677 0.05906530842 1.056062664e-38
-0.2116650641 -0.1881011873 -0.228934437 1.074429623e-38
-0.2102814615 -0.1462044716 0.06702866405 1.074429623e-38
-0.2363076955 -0.1046817601 0.2164592743 1.074429623e-38
0.1556476802 -0.1166887134 0.04613705352 1.074429623e-38
0.1883007139 -0.3538373411 -0.1771361828 1.074429623e-38
0.1080136821 -0.1660878658 -0.264573276 1.074429623e-38
-0.2346178144 -0.1277271509 0.188535586 1.074429623e-38
0.2561584115 -0.3957846463 -0.1714444458 1.074429623e-38
-0.1660638452 -0.2112785876 0.03528356552 1.092796582e-38
0.2784939706 -0.1782810092 -0.1060136035 1.092796582e-38
-0.2077911198 -0.3991875648 0.01792677119 1.092796582e-38
0.2374097109 -0.1716677547 -0.1714901924 1.092796582e-38
-0.08844767511 -0.1802102029 -0.2382650226 1.092796582e-38
-0.1630646139 -0.1834480315 -0.2440459877 1.092796582e-38
-0.2166005969 -0.2052564174 0.03694438934 1.092796582e-38
0.2691666484 -0.3964923024 -0.1609982252 1.092796582e-38
0.224401474 -0.1709600687 -0.1819364429 1.111163541e-38
-0.003568511456 -0.1716929972 -0.2675549984 1.111163541e-38
-0.2406808138 -0.2145164311 0.02950263023 1.111163541e-38
0.2504179478 -0.1723754108 -0.1610439718 1.111163541e-38
-0.1649372876 -0.2266421914 0.0166677814 1.111163541e-38
-0.01589023881 -0.1724821031 -0.2666219473 1.111163541e-38
0.09500543028 -0.1653802097 -0.2750194669 1.111163541e-38
0.1860632002 -0.1703338623 -0.201895833 1.111163541e-38
-0.2265459895 -0.2305876911 0.0213330742 1.1295305e-38
0.1543978751 -0.1075101644 0.04406565055 1.1295305e-38
0.08268364519 -0.1661693156 -0.2740864158 1.1295305e-38
0.2000591457 -0.3453664482 -0.1687613577 1.1295305e-38
0.2113931626 -0.1702524126 -0.1923826635 1.1295305e-38
0.2340141088 -0.1409865618 0.05813224241 1.1295305e-38
0.1821042895 -0.1319708824 0.03703445569 1.1295305e-38
-0.2246733159 -0.1873935163 -0.2393806875 1.1295305e-38
-0.1796354055 -0.2028891146 0.03414521739 1.147897319e-38
0.2367231995 -0.1701709777 -0.1828695089 1.147897319e-38
0.1853766888 -0.1688371003 -0.2132751346 1.147897319e-38
-0.2375575006 -0.09550321102 0.2143878788 1.147897319e-38
0.2457725406 -0.1325156689 0.06650707126 1.147897319e-38
0.2123808712 -0.3445773423 -0.1696944237 1.147897319e-38
0.2497314364 -0.1708786488 -0.1724232584 1.147897319e-38
0.2382741272 -0.3521777093 -0.1694891304 1.147897319e-38
-0.05285548419 -0.174849391 -0.263822794 1.166264278e-38
0.1672829539 -0.114402853 0.03382470831 1.166264278e-38
-0.1863244772 -0.1431295127 0.05378326774 1.166264278e-38
0.02038843185 -0.1686180383 -0.280800432 1.166264278e-38
0.2814883888 -0.3957031965 -0.1619312912 1.166264278e-38
0.1189623773 -0.1623052657 -0.2882649004 1.166264278e-38
0.1690960526 -0.1312632263 0.02658823505 1.166264278e-38
-0.2094106078 -0.4085640907 -0.04620618746 1.166264278e-38
0.2445227355 -0.1233371198 0.06443566084 1.184631237e-38
-0.1556784213 -0.1998141706 0.02089981735 1.184631237e-38
0.1988093406 -0.3361878693 -0.1708327681 1.184631237e-38
-0.02889851294 -0.1717744321 -0.2770681977 1.184631237e-38
-0.238244012 -0.09400644153 0.2030085325 1.184631237e-38
-0.2290455997 -0.2122305632 0.01719026454 1.184631237e-38
0.1814177781 -0.1304741204 0.02565517649 1.184631237e-38
-0.2326717675 -0.1785098463 0.03166324273 1.184631237e-38
-0.2376807183 -0.101688236 0.1937006563 1.202998196e-38
0.2166931033 -0.1050614417 0.05077969655 1.202998196e-38
-0.2371174246 -0.109370023 0.1843927801 1.202998196e-38
-0.2185369134 -0.1945811212 0.02349370718 1.202998196e-38
-0.1767594069 -0.1812435985 -0.2658715248 1.202998196e-38
-0.2108540237 -0.3731486499 0.02309184335 1.202998196e-38
-0.1890811324 -0.1820327044 -0.2649384737 1.202998196e-38
-0.1569282115 -0.1906356215 0.01882841811 1.202998196e-38
0.1901133209 -0.09596429765 0.03919506446 1.221365155e-38
-0.1151507124 -0.1772981137 -0.2705367804 1.221365155e-38
0.245649308 -0.1387006938 0.0458198525 1.221365155e-38
-0.2260463536 -0.1843999922 -0.2621392608 1.221365155e-38
0.2757478952 -0.172293961 -0.1515307724 1.221365155e-38
-0.2357346714 -0.1524709463 0.0368283391 1.221365155e-38
-0.01726326719 -0.169488579 -0.2893805504 1.221365155e-38
0.2290149033 -0.1042723432 0.04984663054 1.221365155e-38
0.2659805417 -0.3766384125 -0.1765203178 1.239732115e-38
0.4184209704 -0.6964453459 -0.2633003592 1.239732115e-38
0.4191074967 -0.6979421377 -0.2519210875 1.239732115e-38
0.2802385688 -0.3865246475 -0.1640026867 1.239732115e-38
0.216006577 -0.1035646796 0.03940035775 1.239732115e-38
-0.1581780314 -0.1814570725 0.01675701514 1.239732115e-38
0.03133719414 -0.1648354232 -0.3044920564 1.239732115e-38
-0.237803936 -0.107873261 0.1730134934 1.239732115e-38
-0.2133536339 -0.354791522 0.01894903742 1.258099074e-38
-0.07818545401 -0.1749308109 -0.2733359933 1.258099074e-38
-0.2372406572 -0.1155550778 0.1637056172 1.258099074e-38
0.2183829546 -0.1281068325 0.02285600826 1.258099074e-38
-0.1822582483 -0.1907170415 0.009315224364 1.258099074e-38
-0.2400571108 -0.07714606822 0.2102450579 1.258099074e-38
-0.2144111246 -0.1821141392 -0.2744516134 1.258099074e-38
-0.1963930726 -0.1746457964 0.01748478785 1.258099074e-38
-0.2112236917 -0.3917037547 -0.03896968439 1.276466033e-38
0.2437129915 -0.1280253828 0.03236917034 1.276466033e-38
-0.2396170348 -0.09101292491 0.1802499741 1.276466033e-38
0.2743748724 -0.1693004519 -0.1742893755 1.276466033e-38
-0.03027153946 -0.168780908 -0.299826771 1.276466033e-38
0.06761585921 -0.1609713733 -0.318670541 1.276466033e-38
0.05529413372 -0.1617604643 -0.3177374899 1.276466033e-38
-0.2140401453 -0.35329476 0.007569756825 1.276466033e-38
-0.1288454533 -0.1750936955 -0.2923623025 1.294832852e-38
-0.2120334506 -0.3963920176 -0.07103617489 1.294832852e-38
-0.1781324297 -0.1782500744 -0.2886300683 1.294832852e-38
-0.2384904623 -0.1063764989 0.1616342217 1.294832852e-38
-0.1904541552 -0.1790391803 -0.2876970172 1.294832852e-38
-0.1606776416 -0.1630999446 0.01261420827 1.294832852e-38
0.1169028357 -0.1578149796 -0.3224027753 1.294832852e-38
-0.2481796443 -0.1594450772 0.01707420871 1.294832852e-38
0.2736883759 -0.1678036749 -0.1856686771 1.313163938e-38
0.291310519 -0.3765569925 -0.1670071483 1.313163938e-38
0.2164466381 -0.1174315214 0.009405326098 1.313163938e-38
-0.1992716342 -0.4094697833 -0.1019643024 1.313163938e-38
0.005320647266 -0.163420096 -0.3253845274 1.313163938e-38
-0.2121566683 -0.4025770724 -0.09172334522 1.313163938e-38
-0.2352946103 -0.1663377732 0.006833249703 1.313163938e-38
0.04228589311 -0.1610527933 -0.3281837106 1.313163938e-38
-0.2106511295 -0.1647595763 0.004967134446 1.331530897e-38
-0.2403035462 -0.08951616287 0.1688707024 1.331530897e-38
-0.2183528394 -0.318077296 0.01066342555 1.331530897e-38
-0.2494294345 -0.1502665132 0.01500280667 1.331530897e-38
0.2195958793 -0.1604827642 -0.2615914941 1.331530897e-38
-0.1172102466 -0.1728078425 -0.304674685 1.331530897e-38
0.2287684381 -0.1166424155 0.008472263813 1.331530897e-38
0.1038945988 -0.1571073085 -0.3328489959 1.331530897e-38
0.2745528519 -0.3483136594 -0.1836675853 1.349897856e-38
0.3048820496 -0.3849464655 -0.1658688039 1.349897856e-38
0.2906239927 -0.3750602305 -0.1783864349 1.349897856e-38
0.1950599402 -0.3086521924 -0.1770469695 1.349897856e-38
-0.2136000842 -0.3671616018 -0.0224253349 1.349897856e-38
0.4143018723 -0.6874648333 -0.3315761089 1.349897856e-38
0.202188611 -0.1075452864 -0.003112304956 1.349897856e-38
0.3147726953 -0.1744169593 -0.1201921105 1.349897856e-38
-0.2134064734 -0.3933985233 -0.09379474074 1.368228942e-38
0.2332749218 -0.3154634833 -0.1777747422 1.368228942e-38
0.25862059 -0.1626057327 -0.2302527726 1.368228942e-38
-0.2154131681 -0.3503012359 -0.01518883184 1.368228942e-38
-0.05560154468 -0.1688623428 -0.3093399405 1.368228942e-38
-0.2142865956 -0.3656648397 -0.0338046141 1.368228942e-38
0.2073816657 -0.3078631163 -0.1779800355 1.368228942e-38
0.2319176048 -0.1596936584 -0.2625245452 1.368228942e-38
-0.2426799238 -0.06497399509 0.1854150444 1.386595901e-38
-0.1376629323 -0.4055243134 -0.1066295952 1.386595901e-38
-0.212279886 -0.4087621272 -0.112410523 1.386595901e-38
-0.1795054525 -0.1752565652 -0.3113886714 1.386595901e-38
0.3041955233 -0.3834497035 -0.1772480905 1.386595901e-38
0.2461600155 -0.3223561645 -0.1880156845 1.386595901e-38
-0.2208524495 -0.2997201979 0.006520620082 1.386595901e-38
-0.08837595582 -0.4023679197 -0.1103618219 1.386595901e-38
0.1808018833 -0.2987659872 -0.1895646006 1.404926846e-38
0.2052145302 -0.1567815691 -0.294796288 1.404926846e-38
-0.2166629583 -0.3411226869 -0.0172602348 1.404926846e-38
-0.1758779585 -0.3987130225 -0.1059018224 1.404926846e-38
0.2182228565 -0.1574892402 -0.2843500674 1.404926846e-38
-0.2393001914 -0.1110647917 0.1295677274 1.404926846e-38
-0.214973107 -0.3641680777 -0.04518389329 1.404926846e-38
0.430742681 -0.69565624 -0.2642334104 1.404926846e-38
0.272739768 -0.3314532936 -0.1764311194 1.423293806e-38
0.2312310934 -0.1581968963 -0.2739038467 1.423293806e-38
-0.2160996944 -0.3488044739 -0.02656814083 1.423293806e-38
-0.04396629333 -0.1665764749 -0.3216522932 1.423293806e-38
-0.163556233 -0.3979239464 -0.106834881 1.423293806e-38
-0.2139697522 -0.3857167363 -0.08448687196 1.423293806e-38
-0.1638637483 -0.1432460696 -0.00290790759 1.423293806e-38
0.2320251167 -0.3062849045 -0.1798461527 1.423293806e-38
0.1778250337 -0.1523727179 -0.3384473324 1.441624891e-38
-0.02676725388 -0.39842242 -0.1150271147 1.441624891e-38
0.2184535861 -0.2978954613 -0.1809844822 1.441624891e-38
-0.2162229121 -0.3549895287 -0.04725529626 1.441624891e-38
0.3127131462 -0.1699266732 -0.1543299556 1.441624891e-38
0.230544582 -0.1567001343 -0.2852831185 1.441624891e-38
-0.2422398776 -0.07884085178 0.1554200202 1.441624891e-38
-0.1888861954 -0.3980053663 -0.1163480505 1.441624891e-38
-0.1142692417 -0.3947675526 -0.1105671152 1.459991851e-38
-0.2411132902 -0.09420442581 0.1368041933 1.459991851e-38
0.2449102104 -0.3131776154 -0.19008708 1.459991851e-38
-0.07730403543 -0.3924002349 -0.1133662909 1.459991851e-38
-0.2405499965 -0.1018862128 0.127496317 1.459991851e-38
0.2714899778 -0.3222747445 -0.178502515 1.459991851e-38
-0.2146562636 -0.3842199743 -0.09586615115 1.459991851e-38
-0.2191625684 -0.322765559 -0.02140304074 1.459991851e-38
-0.06498227268 -0.3916111588 -0.1142993495 1.478322936e-38
0.217203781 -0.2887168825 -0.1830558926 1.478322936e-38
0.1956227571 -0.04160063341 0.03721293435 1.478322936e-38
-0.2174727172 -0.3458109498 -0.04932669923 1.478322936e-38
-0.2024577558 -0.3896159232 -0.1174863875 1.478322936e-38
0.2307753116 -0.2971063554 -0.1819175482 1.478322936e-38
0.08412837982 -0.3913205564 -0.1234246343 1.478322936e-38
-0.2394234091 -0.1172498167 0.1088805646 1.478322936e-38
-0.1901360005 -0.3888268173 -0.1184194461 1.496689755e-38
0.2041955441 -0.2880092263 -0.1935021132 1.496689755e-38
0.2991963029 -0.3467354476 -0.1855337024 1.496689755e-38
-0.02745376714 -0.396925658 -0.1264063865 1.496689755e-38
0.02183317393 -0.3937692642 -0.1301386207 1.496689755e-38
-0.222788766 -0.2890448868 -0.006930063944 1.496689755e-38
0.2839506269 -0.1625243127 -0.220739603 1.496689755e-38
0.2291715443 -0.1537066102 -0.3080416918 1.496689755e-38
-0.1783775538 -0.3803559244 -0.1100446284 1.515020841e-38
-0.01513204072 -0.3961365521 -0.1273394525 1.515020841e-38
-0.1026340276 -0.3924816847 -0.122879453 1.515020841e-38
0.2558745444 -0.1566186994 -0.275769949 1.515020841e-38
-0.2187225074 -0.3366324008 -0.05139810219 1.515020841e-38
0.257231921 -0.3123885393 -0.1910201311 1.515020841e-38
0.1906240135 -0.2796197832 -0.1946404576 1.515020841e-38
0.2566686273 -0.3047067225 -0.1817122698 1.515020841e-38
0.3134544194 -0.3566216826 -0.1730160713 1.533351927e-38
0.2838116884 -0.3214856386 -0.1794355661 1.533351927e-38
-0.1537340879 -0.3787777126 -0.1119107455 1.533351927e-38
-0.2222254723 -0.2967266738 -0.01623796858 1.533351927e-38
-0.05334705859 -0.3893252909 -0.1266116798 1.533351927e-38
0.3122046292 -0.3474431038 -0.1750874817 1.533351927e-38
0.2418473065 -0.2871387005 -0.1849220097 1.533351927e-38
-0.2194090188 -0.3351356387 -0.06277741492 1.533351927e-38
0.1900607198 -0.2719379961 -0.1853325814 1.551683013e-38
-0.2199723125 -0.3274538517 -0.05346950516 1.551683013e-38
-0.02926686034 -0.3800652921 -0.1191699207 1.551683013e-38
0.310954839 -0.3382645547 -0.1771588773 1.551683013e-38
-0.1038838327 -0.3833031356 -0.1249508485 1.551683013e-38
0.02058336884 -0.3845907152 -0.1322100312 1.551683013e-38
-0.2234752774 -0.2875481248 -0.01830937155 1.551683013e-38
0.00769835338 -0.3776980042 -0.1219690964 1.551683013e-38
-0.1919490844 -0.3719664514 -0.1111829802 1.570049832e-38
-0.06748187542 -0.3732540309 -0.1184421554 1.570049832e-38
0.3387296498 -0.1713420153 -0.1334375143 1.570049832e-38
-0.2195322663 -0.3413206637 -0.08346460015 1.570049832e-38
0.1647306979 -0.2720194161 -0.1948457509 1.570049832e-38
0.05698532239 -0.3745416105 -0.1257013232 1.570049832e-38
-0.2184056789 -0.3566842973 -0.1020803601 1.570049832e-38
-0.004060087726 -0.3861688972 -0.130343914 1.570049832e-38
0.2962723374 -0.1617352068 -0.2216726691 1.588380918e-38
0.06930705905 -0.3737525344 -0.1266343892 1.588380918e-38
0.2825618982 -0.3123070896 -0.1815069765 1.588380918e-38
-0.180877164 -0.3619987965 -0.1141874343 1.588380918e-38
-0.2172790915 -0.3720479012 -0.1206961423 1.588380918e-38
0.2675097287 -0.1543328464 -0.2880823016 1.588380918e-38
0.22758919 -0.2772524953 -0.1974396259 1.588380918e-38
0.2065714449 -0.03781800717 0.01352125406 1.588380918e-38
-0.2413597405 -0.1065745056 0.09542983025 1.606712004e-38
-0.08049015701 -0.3725463748 -0.1288883686 1.606712004e-38
-0.02995337546 -0.3785685301 -0.1305491924 1.606712004e-38
-0.118018657 -0.3672318757 -0.1167813241 1.606712004e-38
-0.219655484 -0.3475057483 -0.104151763 1.606712004e-38
-0.01763164625 -0.377779454 -0.1314822584 1.606712004e-38
0.2818753719 -0.3108103275 -0.1928862482 1.606712004e-38
0.03109200671 -0.3669412434 -0.1259066164 1.606712004e-38
-0.05584666878 -0.370968163 -0.1307544857 1.625043089e-38
0.3250896335 -0.3543358445 -0.1853284091 1.625043089e-38
0.2668232322 -0.1528360844 -0.2994616032 1.625043089e-38
-0.1692419499 -0.3597129583 -0.1264997721 1.625043089e-38
0.3220267594 -0.3282968998 -0.1801633388 1.625043089e-38
0.06862054765 -0.3722557724 -0.1380136609 1.625043089e-38
0.2394337356 -0.1484272331 -0.3431126475 1.625043089e-38
0.06805725396 -0.3645739555 -0.1287057847 1.625043089e-38
-0.1433486491 -0.3673132956 -0.1262944788 1.643374035e-38
-0.04352493584 -0.3701790571 -0.1316875517 1.643374035e-38
0.1752393842 -0.2543699741 -0.1885423362 1.643374035e-38
-0.195135206 -0.3521125615 -0.1267050654 1.643374035e-38
-0.2283512652 -0.244648844 -0.00590779772 1.643374035e-38
-0.2259748727 -0.2691909969 -0.02245217934 1.643374035e-38
0.04216398671 -0.3569735885 -0.128911078 1.643374035e-38
-0.1063834429 -0.3649460077 -0.1290936619 1.643374035e-38
0.3510514498 -0.1705529094 -0.1343705654 1.661705121e-38
0.1875611246 -0.2535808682 -0.1894753873 1.661705121e-38
0.3541690409 -0.3817900717 -0.1696010381 1.661705121e-38
0.2670540512 -0.2932423055 -0.1960960031 1.661705121e-38
-0.1575710773 -0.1444939375 -0.07225304842 1.661705121e-38
-0.0823032409 -0.3556860387 -0.1216518953 1.661705121e-38
-0.1846265793 -0.3344631195 -0.1204016507 1.661705121e-38
-0.1723048538 -0.3336740136 -0.1213347018 1.661705121e-38
-0.1217680722 -0.3396961987 -0.122995533 1.680036207e-38
0.3077687025 -0.3184106946 -0.1926809698 1.680036207e-38
-0.2260981053 -0.2753760517 -0.04313936457 1.680036207e-38
-0.1840632856 -0.3421449363 -0.129709512 1.680036207e-38
0.3503649235 -0.1690561473 -0.1457498521 1.680036207e-38
0.3079075515 -0.1594493389 -0.2339850068 1.680036207e-38
-0.05765975639 -0.3541078269 -0.1235180125 1.680036207e-38
0.2791450322 -0.1520469785 -0.3003946543 1.680036207e-38
-0.2466757894 -0.04980839789 0.1378264576 1.698367293e-38
-0.1081965417 -0.3480856419 -0.1218571886 1.698367293e-38
0.1622310877 -0.2536622882 -0.1989885569 1.698367293e-38
-0.03245298192 -0.360211432 -0.1346919984 1.698367293e-38
-0.1199549735 -0.3565565646 -0.1302320063 1.698367293e-38
-0.110696137 -0.3297285438 -0.1259999871 1.698367293e-38
-0.2255348265 -0.2830578387 -0.0524472408 1.698367293e-38
-0.2266613841 -0.2676942647 -0.03383145854 1.698367293e-38
0.2122045755 -0.2520026565 -0.1913415045 1.716698239e-38
-0.08355304599 -0.3465074599 -0.1237233058 1.716698239e-38
-0.1008739918 -0.3105823398 -0.1310758591 1.716698239e-38
-0.1212047786 -0.3473779857 -0.1323034018 1.716698239e-38
-0.2234048843 -0.3199700713 -0.1103659719 1.716698239e-38
-0.08855225891 -0.3097932339 -0.1320089102 1.716698239e-38
-0.0712312907 -0.345718354 -0.1246563643 1.716698239e-38
-0.09531147778 -0.3549783528 -0.1320981234 1.716698239e-38
-0.1489111483 -0.3229172826 -0.1252722144 1.735029324e-38
-0.02069454268 -0.3517405391 -0.1263171881 1.735029324e-38
-0.07373089343 -0.3273612261 -0.1287991703 1.735029324e-38
-0.05890956149 -0.3449292481 -0.1255894154 1.735029324e-38
-0.1360260993 -0.3298099637 -0.1355131567 1.735029324e-38
-0.2267846167 -0.2738792896 -0.05451864377 1.735029324e-38
0.2516694069 -0.2679924965 -0.1899978817 1.735029324e-38
-0.1095339358 -0.1321589947 -0.07805668563 1.735029324e-38
0.06487113237 -0.3447200954 -0.1442278773 1.75336041e-38
-0.06515857577 -0.299036473 -0.1359464377 1.75336041e-38
-0.2112063617 -0.3253659904 -0.1319862157 1.75336041e-38
0.2784585059 -0.1505502164 -0.3117739558 1.75336041e-38
0.3534825146 -0.3802933097 -0.1809803098 1.75336041e-38
-0.2117696553 -0.3176842034 -0.122678332 1.75336041e-38
0.224526301 -0.2512135804 -0.1922745556 1.75336041e-38
0.3491698205 -0.3450758159 -0.17788665 1.75336041e-38
-0.08548936248 -0.3358321488 -0.1371739805 1.771655483e-38
0.264554441 -0.2748851776 -0.200238809 1.771655483e-38
-0.161919415 -0.3222096264 -0.135718435 1.771655483e-38
0.1973832399 -0.2344346344 -0.1945512593 1.771655483e-38
-0.2456724346 -0.07135704905 0.09852355719 1.771655483e-38
-0.1495976597 -0.3214205205 -0.1366515011 1.771655483e-38
-0.1267672777 -0.3029819727 -0.1312811375 1.771655483e-38
0.06305803359 -0.3278597295 -0.1369913965 1.771655483e-38
-0.2246546894 -0.3107914925 -0.1124373749 1.789986569e-38
0.3346105516 -0.162361443 -0.2017132491 1.789986569e-38
0.1733030677 -0.2436946332 -0.2019930184 1.789986569e-38
0.3479200304 -0.3358972669 -0.1799580604 1.789986569e-38
-0.2451091558 -0.07903882861 0.08921562135 1.789986569e-38
-0.05959607661 -0.3434324861 -0.1369687021 1.789986569e-38
-0.1028102934 -0.2999069989 -0.1445265412 1.789986569e-38
-0.02138105407 -0.350243777 -0.1376964599 1.789986569e-38
0.1838117093 -0.2260451913 -0.1956896037 1.808317654e-38
-0.07941661775 -0.2891502678 -0.1484640539 1.808317654e-38
0.2115180641 -0.2505058944 -0.2027207911 1.808317654e-38
-0.2445458621 -0.08672062308 0.07990773767 1.808317654e-38
-0.2321006656 -0.217113167 -0.01212201081 1.808317654e-38
-0.1151320636 -0.3006961048 -0.1435934752 1.808317654e-38
-0.1637324989 -0.3053492606 -0.1284819692 1.808317654e-38
-0.06584508717 -0.297539711 -0.1473257095 1.808317654e-38
-0.1600706875 -0.1261368394 -0.07639585435 1.826612727e-38
0.3466702104 -0.3267187178 -0.1820294559 1.826612727e-38
0.2775626779 -0.2755928636 -0.1897925884 1.826612727e-38
0.07412996888 -0.3178920746 -0.1399958581 1.826612727e-38
0.1961334348 -0.2252560854 -0.1966226548 1.826612727e-38
-0.2130194604 -0.3085056543 -0.1247497424 1.826612727e-38
0.1584816724 -0.226126641 -0.2052027583 1.826612727e-38
0.02609279379 -0.3302270174 -0.1341922283 1.826612727e-38
-0.2315373868 -0.2247949839 -0.02142988518 1.844943813e-38
0.1702401787 -0.2176557183 -0.1968279481 1.844943813e-38
-0.2291609943 -0.2493371367 -0.03797426447 1.844943813e-38
0.2504196167 -0.2588139176 -0.1920692772 1.844943813e-38
-0.05408664793 -0.2890688181 -0.1389508992 1.844943813e-38
0.0703805536 -0.2903563976 -0.1462100744 1.844943813e-38
0.02665608376 -0.3379088044 -0.1435001045 1.844943813e-38
-0.1520972699 -0.3030633926 -0.140794307 1.844943813e-38
0.2084551603 -0.2244670093 -0.1975557059 1.863274899e-38
0.05805883184 -0.2911455035 -0.1452770084 1.863274899e-38
0.2777720094 -0.1490534544 -0.3231532276 1.863274899e-38
-0.09298817813 -0.2807607651 -0.1496023983 1.863274899e-38
0.3318488598 -0.3091506958 -0.1852392107 1.863274899e-38
-0.2281576395 -0.2708857656 -0.07727723569 1.863274899e-38
0.06237152591 -0.3263629675 -0.1483706832 1.863274899e-38
-0.1226654053 -0.1376363635 -0.1091901213 1.863274899e-38
-0.2474855185 -0.05449666828 0.105760023 1.881569971e-38
-0.1890624911 -0.3054306805 -0.1379951388 1.881569971e-38
0.3182773292 -0.3007612228 -0.1863775551 1.881569971e-38
0.3497330844 -0.3527576327 -0.1871945262 1.881569971e-38
-0.2304107994 -0.2401585877 -0.04004566744 1.881569971e-38
0.05680902675 -0.2819669247 -0.1473484188 1.881569971e-38
0.02359319106 -0.3118699193 -0.1383350343 1.881569971e-38
0.3620001078 -0.1667702794 -0.1580621898 1.881569971e-38
-0.09423798323 -0.271582216 -0.1516738087 1.899901057e-38
-0.1473088861 -0.1392145604 -0.1073240042 1.899901057e-38
0.1689903736 -0.2084771693 -0.1988993436 1.899901057e-38
0.1831251979 -0.2245484293 -0.2070688754 1.899901057e-38
-0.1120335311 -0.1138018817 -0.08219949156 1.899901057e-38
0.02234338596 -0.3026913702 -0.1404064298 1.899901057e-38
-0.1194447577 -0.2654786408 -0.1404998153 1.899901057e-38
0.06913074851 -0.2811778486 -0.1482814699 1.899901057e-38
-0.02513046563 -0.3227080703 -0.1439106762 1.91819627e-38
-0.2452323735 -0.08522386104 0.06852845848 1.91819627e-38
0.03341537341 -0.2927236855 -0.1434109062 1.91819627e-38
-0.06959450245 -0.270004034 -0.1535399258 1.91819627e-38
-0.09548778832 -0.262403667 -0.1537452042 1.91819627e-38
0.02540627867 -0.3287302554 -0.1455715001 1.91819627e-38
-0.2292842269 -0.2555221617 -0.0586614497 1.91819627e-38
-0.04120160267 -0.2959614992 -0.1491918266 1.91819627e-38
0.0210935846 -0.2935127914 -0.1424778402 1.936527215e-38
-0.04426449537 -0.2699225843 -0.1440267563 1.936527215e-38
-0.1428384185 -0.2762353718 -0.1365623027 1.936527215e-38
-0.002300068736 -0.3042695522 -0.1385403126 1.936527215e-38
0.03216556832 -0.2835451365 -0.1454823017 1.936527215e-38
0.03091576323 -0.2743665576 -0.1475537121 1.936527215e-38
0.2343484908 -0.2320673466 -0.1973504275 1.936527215e-38
-0.02763006836 -0.3043509722 -0.1480534822 1.936527215e-38
-0.1903122962 -0.2962521315 -0.1400665343 1.954822428e-38
0.04505058751 -0.2904378176 -0.1557232291 1.954822428e-38
0.02415647358 -0.3195517063 -0.1476429105 1.954822428e-38
0.2077686489 -0.2229702473 -0.2089349926 1.954822428e-38
0.01609437168 -0.2567985654 -0.1507634521 1.954822428e-38
-0.1564099789 -0.2678459287 -0.1377006322 1.954822428e-38
0.3175908029 -0.2992644608 -0.1977568269 1.954822428e-38
-0.09927172959 -0.1268796176 -0.1131276488 1.954822428e-38
0.05612251535 -0.2804701626 -0.1587276906 1.973153514e-38
0.1936338246 -0.2068989873 -0.2007654607 1.973153514e-38
0.1683038622 -0.2069804221 -0.2102786303 1.973153514e-38
-0.01405851077 -0.3127404451 -0.1469151378 1.973153514e-38
-0.03194276989 -0.2691335082 -0.1449598223 1.973153514e-38
-0.1206945628 -0.2563000619 -0.1425712109 1.973153514e-38
-0.1324529946 -0.2647709846 -0.150946036 1.973153514e-38
-0.2487353235 -0.04531811923 0.10368862 1.973153514e-38
-0.2334736884 -0.214119643 -0.03488060087 1.991448586e-38
0.03272885829 -0.2912269235 -0.1547901779 1.991448586e-38
0.01058494672 -0.3111622334 -0.1487812549 1.991448586e-38
-0.04495100677 -0.2684258223 -0.1554060429 1.991448586e-38
-0.1496852487 -0.114672415 -0.09077963233 1.991448586e-38
-0.1608804315 -0.1308251023 -0.1084623486 1.991448586e-38
-0.1570964903 -0.2663491666 -0.1490799189 1.991448586e-38
-0.1933752 -0.2702132165 -0.134901464 1.991448586e-38
0.0314790532 -0.2820483744 -0.1568615735 2.009743799e-38
-0.2038838267 -0.2878626585 -0.1412048787 2.009743799e-38
-0.2167688757 -0.2809699774 -0.1309639513 2.009743799e-38
-0.2289673984 -0.2755740285 -0.1093437076 2.009743799e-38
-0.04676410183 -0.2515654862 -0.1481695622 2.009743799e-38
-0.1117167026 -0.1338537484 -0.1328817457 2.009743799e-38
0.289197892 -0.2733069956 -0.2021049261 2.009743799e-38
-0.03387908265 -0.2584581971 -0.1584104896 2.009743799e-38
-0.1005215347 -0.1177010685 -0.1151990443 2.028074885e-38
-0.09939494729 -0.1330646425 -0.1338147968 2.028074885e-38
0.1929473132 -0.2054022253 -0.2121447474 2.028074885e-38
0.03022924811 -0.2728697956 -0.1589329839 2.028074885e-38
-0.2051336318 -0.2786841094 -0.1432762891 2.028074885e-38
-0.2290906161 -0.2817590535 -0.1300308853 2.028074885e-38
-0.1486819088 -0.1362210363 -0.1300825626 2.028074885e-38
-0.1823032647 -0.2602455616 -0.1379059255 2.028074885e-38
-0.05977237597 -0.2508578002 -0.1586157829 2.046369957e-38
-0.2335969359 -0.2203046978 -0.05556778237 2.046369957e-38
0.1534824669 -0.1894124001 -0.2134883702 2.046369957e-38
-0.1096226126 -0.246332407 -0.1455756724 2.046369957e-38
-0.1610036492 -0.1370101422 -0.1291495115 2.046369957e-38
0.01790746301 -0.2736589015 -0.1579999179 2.046369957e-38
0.2052690387 -0.2046131194 -0.2130777985 2.046369957e-38
-0.1583462954 -0.2571705878 -0.1511513293 2.046369957e-38
-0.04745061696 -0.2500687242 -0.1595488489 2.06466517e-38
-0.08566562831 -0.243257463 -0.1588210762 2.06466517e-38
0.2311623693 -0.2122134566 -0.2128725201 2.06466517e-38
0.191697523 -0.1962236464 -0.2142161429 2.06466517e-38
-0.1000814587 -0.1315678805 -0.1451941133 2.06466517e-38
-0.24716869 -0.0745485574 0.05507778004 2.06466517e-38
0.1775626987 -0.1801524013 -0.2060466111 2.06466517e-38
-0.238349691 -0.171220392 -0.02247902565 2.06466517e-38
0.2175907642 -0.2038240284 -0.2140108645 2.082996116e-38
-0.2354100049 -0.2034443319 -0.04833127931 2.082996116e-38
-0.1953115016 -0.2595379055 -0.1483521461 2.082996116e-38
0.03948808834 -0.2460418046 -0.1547009796 2.082996116e-38
-0.2482952774 -0.05918493122 0.07369352877 2.082996116e-38
-0.2313437611 -0.2510318756 -0.09279932082 2.082996116e-38
-0.1712313145 -0.2502779067 -0.140910387 2.082996116e-38
0.2447338998 -0.2206029296 -0.2117341757 2.082996116e-38
-0.2324703485 -0.2356683016 -0.07418353856 2.101291328e-38
-0.1616901606 -0.1355133802 -0.1405288279 2.101291328e-38
-0.162816748 -0.1201498061 -0.1219130307 2.101291328e-38
-0.2076332271 -0.2603269815 -0.147419095 2.101291328e-38
0.3599405885 -0.1622799933 -0.1922000945 2.101291328e-38
0.1763128936 -0.1709738374 -0.2081180215 2.101291328e-38
-0.1633800268 -0.1124679893 -0.1126051545 2.101291328e-38
-0.1018945575 -0.1147075519 -0.1379576027 2.101291328e-38
0.2589919269 -0.2304891646 -0.1992165446 2.119586541e-38
-0.06158546731 -0.2339974642 -0.151379317 2.119586541e-38
-0.2366598099 -0.1942657828 -0.05040268227 2.119586541e-38
-0.2319070548 -0.2433500886 -0.08349144459 2.119586541e-38
-0.1024578363 -0.1070257425 -0.1286497265 2.119586541e-38
0.01359476522 -0.2384414375 -0.154906258 2.119586541e-38
0.001273039728 -0.2392305434 -0.153973192 2.119586541e-38
0.3455593288 -0.1585788131 -0.2254049033 2.119586541e-38
-0.0487004146 -0.2408901751 -0.1616202444 2.137881613e-38
-0.1724811196 -0.2410993278 -0.1429817975 2.137881613e-38
-0.0992372036 -0.23486799 -0.1599594206 2.137881613e-38
-0.2322767228 -0.2619051933 -0.1455529779 2.137881613e-38
0.1497330517 -0.1618767381 -0.2197025865 2.137881613e-38
0.1886346191 -0.1701847315 -0.2090510726 2.137881613e-38
-0.2081965208 -0.2526451945 -0.1381112188 2.137881613e-38
0.3736353517 -0.1644844264 -0.1703745574 2.137881613e-38
0.2293492854 -0.1953531206 -0.2056360394 2.156176826e-38
0.02647984028 -0.2453341186 -0.1651472002 2.156176826e-38
-0.1025810689 -0.1132107824 -0.1493369192 2.156176826e-38
-0.07515700161 -0.2256079912 -0.1525176615 2.156176826e-38
-0.1965613067 -0.2503593266 -0.1504235566 2.156176826e-38
0.3009563982 -0.2648361027 -0.193730101 2.156176826e-38
0.03880157694 -0.2445450425 -0.1660802513 2.156176826e-38
