# .PCD v0.7 - Point Cloud Data file format
VERSION 0.7
FIELDS x y z rgb
SIZE 4 4 4 4
TYPE F F F F
COUNT 1 1 1 1
WIDTH 841
HEIGHT 1
VIEWPOINT 0 0 0 1 0 0 0
POINTS 841
DATA ascii
0.2246774584 -0.305324614 0.1769696474 5.409984573e-39
0.2001053393 -0.2800209522 0.1772839576 5.409984573e-39
0.1134072691 -0.2412559986 0.1772192121 5.594012897e-39
0.1359291524 -0.3561134636 0.286765039 5.594012897e-39
0.1136737317 -0.2285390049 0.1650772542 5.594012897e-39
0.01347241737 -0.2642684281 0.1631312817 5.594012897e-39
0.01320596226 -0.2769854367 0.1752732396 5.594012897e-39
0.07576097548 -0.2533658743 0.1889590174 5.594012897e-39
-0.01472630538 -0.4286493361 0.2958424091 5.594012897e-39
0.1626328826 -0.2796813548 0.1893149614 5.594012897e-39
0.2497824728 -0.3051943183 0.1523714364 5.77804122e-39
0.2870922983 -0.3298977613 0.1148916632 5.77804122e-39
0.1258672178 -0.2414583713 0.177353248 5.77804122e-39
0.1630732417 -0.2545149326 0.177464202 5.77804122e-39
0.1261336803 -0.2287413776 0.165211305 5.77804122e-39
0.01258049347 -0.3026868999 0.2119903564 5.77804122e-39
-0.02796313912 -0.4904266894 0.2818192244 5.77804122e-39
0.05137392879 -0.2275271565 0.1644070148 5.77804122e-39
0.1873788834 -0.2925355434 0.1892918646 5.962428276e-39
0.09617363662 -0.4937879741 0.3453255296 5.962428276e-39
0.1878192276 -0.2673691213 0.1774411052 5.962428276e-39
-0.01206177287 -0.3014796078 0.1744227409 5.962428276e-39
-0.05261661112 -0.4773049653 0.2694091797 5.962428276e-39
0.1365546137 -0.3304120004 0.2500479221 5.962428276e-39
0.1385936886 -0.2289437354 0.165345341 5.962428276e-39
0.138327226 -0.2416607291 0.1774872988 5.962428276e-39
0.1750928164 -0.2798837423 0.1894490123 6.1464566e-39
0.06232772022 -0.3037638664 0.2249597013 6.1464566e-39
-0.001396907493 -0.3666044176 0.2974324822 6.1464566e-39
0.07478772104 -0.303966254 0.2250937521 6.1464566e-39
0.0005720630288 -0.2892325222 0.1748479903 6.1464566e-39
-0.02442915738 -0.3010097146 0.1618555337 6.1464566e-39
0.0008385181427 -0.2765155435 0.1627060324 6.1464566e-39
0.2624275982 -0.304861635 0.1276391149 6.1464566e-39
0.01364630647 -0.2518189847 0.1634224802 6.330484923e-39
-0.02778925002 -0.4779772162 0.2821104527 6.330484923e-39
0.04986777157 -0.3035615087 0.2248256505 6.330484923e-39
0.05888629705 -0.4929133654 0.3324902654 6.330484923e-39
0.0872476697 -0.3041686118 0.225227803 6.330484923e-39
0.0262801405 -0.2395718992 0.1638477147 6.330484923e-39
0.2125652879 -0.2802233398 0.1774179935 6.330484923e-39
0.2620685697 -0.3178461194 0.1522142887 6.330484923e-39
0.1755331755 -0.2547173202 0.1775982529 6.514514648e-39
0.1368210763 -0.3176950514 0.2379059643 6.514514648e-39
0.03740782291 -0.3033591509 0.2246916145 6.514514648e-39
0.224851355 -0.2928751409 0.1772608459 6.514514648e-39
0.09970761836 -0.3043709695 0.2253618538 6.514514648e-39
0.112167567 -0.3045733571 0.2254958898 6.514514648e-39
0.07620131224 -0.2281994224 0.177108258 6.514514648e-39
0.0886612609 -0.228401795 0.1772423089 6.514514648e-39
0.02494787611 -0.3031567633 0.2245575637 6.698542971e-39
-0.01490019541 -0.4410987794 0.2955512404 6.698542971e-39
0.1507871747 -0.2418631017 0.1776213497 6.698542971e-39
0.2368709445 -0.3182439208 0.1892456561 6.698542971e-39
-0.01429719664 -0.3915684521 0.3091491461 6.698542971e-39
0.06107678264 -0.3551667929 0.2983939052 6.698542971e-39
0.03405896574 -0.4922411144 0.3197889924 6.698542971e-39
0.1998388916 -0.2927379012 0.1894259006 6.698542971e-39
0.2002792358 -0.2675714791 0.1775751412 6.882571295e-39
0.1246275157 -0.3047757149 0.2256299406 6.882571295e-39
0.07593486458 -0.240916416 0.1892502159 6.882571295e-39
0.1011212096 -0.2286041528 0.1773763597 6.882571295e-39
0.09845668077 -0.355773896 0.2987960577 6.882571295e-39
-0.01179531962 -0.2887625992 0.1622807831 6.882571295e-39
0.03891398013 -0.2273247987 0.164272964 6.882571295e-39
-0.02701236121 -0.4159974754 0.2959995866 6.882571295e-39
0.2371374071 -0.3055269718 0.1771036983 7.066599618e-39
0.0002130474895 -0.3022169769 0.1994231641 7.066599618e-39
0.187552765 -0.2800861001 0.1895830631 7.066599618e-39
0.1233765781 -0.3561786413 0.2990641594 7.066599618e-39
0.1109166294 -0.3559762836 0.2989301085 7.066599618e-39
0.08371368796 -0.4935855865 0.3451914787 7.066599618e-39
0.04861683398 -0.3549644351 0.2982598543 7.066599618e-39
0.1361956 -0.3433965147 0.274623096 7.066599618e-39
0.2869997323 -0.330165267 0.1273248196 7.250627941e-39
0.2747136652 -0.3175134361 0.1274819672 7.250627941e-39
0.2747136652 -0.3175134361 0.1274819672 7.250627941e-39
0.01248793118 -0.3029544055 0.2244235128 7.250627941e-39
0.1135811657 -0.2288065255 0.1775104105 7.250627941e-39
0.1632471234 -0.2420654744 0.1777554005 7.250627941e-39
0.1370875239 -0.3049780726 0.2257639915 7.250627941e-39
0.1370875239 -0.3049780726 0.2257639915 7.250627941e-39
0.2496899068 -0.3054618239 0.1648045927 7.434656265e-39
0.2496899068 -0.3054618239 0.1648045927 7.434656265e-39
-0.01507408544 -0.4535482228 0.2952600121 7.434656265e-39
0.1358365864 -0.3563809991 0.2991982102 7.434656265e-39
0.1879931241 -0.254919678 0.1777323037 7.434656265e-39
0.03615688533 -0.3547620475 0.2981258035 7.434656265e-39
0.000745953992 -0.2767830789 0.1751391888 7.434656265e-39
-0.06525044888 -0.4895520806 0.2689839602 7.434656265e-39
0.001012409106 -0.2640660703 0.1629972309 7.618684588e-39
-0.01524797548 -0.4659976661 0.2949688435 7.618684588e-39
0.1334609836 -0.4946626127 0.3581608534 7.618684588e-39
0.01382019557 -0.2393695265 0.1637136638 7.618684588e-39
0.1260411143 -0.2290088981 0.1776444465 7.618684588e-39
0.2122988403 -0.2929402888 0.1895599514 7.618684588e-39
0.0001204852015 -0.3024845123 0.2118563056 7.618684588e-39
-0.02452171966 -0.3012772501 0.1742886901 7.618684588e-39
-0.04042308778 -0.4902243316 0.2816851735 7.802712912e-39
0.1757070571 -0.2422678322 0.1778894514 7.802712912e-39
0.2000127733 -0.2802884579 0.1897170991 7.802712912e-39
0.2623350322 -0.3051291406 0.1400723308 7.802712912e-39
0.2250252366 -0.2804256976 0.1775520444 7.802712912e-39
-0.01542186551 -0.4784471095 0.2946776152 7.802712912e-39
0.1459209323 -0.4948649704 0.3582949042 7.802712912e-39
0.02369693853 -0.3545596898 0.2979917526 7.802712912e-39
-0.02718625218 -0.4284469485 0.2957083583 7.986382503e-39
-0.0118878819 -0.2890301347 0.1747139394 7.986382503e-39
-0.06507655978 -0.4771026075 0.2692751288 7.986382503e-39
0.0712537393 -0.4933832288 0.3450574279 7.986382503e-39
-0.03688910231 -0.300807327 0.1617214978 7.986382503e-39
0.2127391845 -0.2677738667 0.177709192 7.986382503e-39
0.04642634839 -0.4927109778 0.3323562145 7.986382503e-39
0.06223515421 -0.3040314019 0.2373928577 7.986382503e-39
0.1210009754 -0.4944602251 0.3580268025 8.170410826e-39
0.1385011226 -0.2292112559 0.1777784973 8.170410826e-39
0.07469515502 -0.3042337894 0.2375269085 8.170410826e-39
0.02645403333 -0.227122426 0.1641389132 8.170410826e-39
-0.01162142865 -0.2763131559 0.1625719815 8.170410826e-39
0.1364620626 -0.3306795061 0.2624810934 8.170410826e-39
0.04977520555 -0.3038290441 0.2372588068 8.170410826e-39
0.08715510368 -0.3044361472 0.2376609594 8.170410826e-39
0.2004531324 -0.2551220357 0.1778663397 8.35443915e-39
0.2373113036 -0.2930774987 0.1773948967 8.35443915e-39
-0.04024919868 -0.4777748585 0.2819764018 8.35443915e-39
0.09961505234 -0.304638505 0.2377950102 8.35443915e-39
0.03731526434 -0.3036266863 0.237124756 8.35443915e-39
0.001186298206 -0.251616627 0.1632884294 8.35443915e-39
0.112075001 -0.3048408926 0.2379290611 8.35443915e-39
0.02485531382 -0.3034242988 0.2369907051 8.35443915e-39
-0.03929841891 -0.4033456743 0.2961567044 8.538467473e-39
-0.02425526641 -0.2885602415 0.1621467322 8.538467473e-39
0.07610875368 -0.2284669429 0.1895414144 8.538467473e-39
0.1509610713 -0.2294136286 0.1779125482 8.538467473e-39
0.1367285103 -0.3179625571 0.2503390908 8.538467473e-39
-0.01412330754 -0.3791190088 0.3094403744 8.538467473e-39
0.1245349497 -0.3050432503 0.2380631119 8.538467473e-39
0.1881670058 -0.2424702048 0.1780234873 8.538467473e-39
-0.01385685429 -0.3664020598 0.2972984314 8.722137064e-39
0.2749801278 -0.3047964871 0.1153400093 8.722137064e-39
0.01123699173 -0.354357332 0.2978577018 8.722137064e-39
0.2746210992 -0.3177809417 0.1399151832 8.722137064e-39
2.792291343e-05 -0.302752018 0.224289462 8.722137064e-39
0.2247587889 -0.2931426466 0.1896940023 8.722137064e-39
0.08590417355 -0.3558390439 0.3110951781 8.722137064e-39
0.07344422489 -0.3556366563 0.3109611273 8.722137064e-39
0.2124727219 -0.2804908454 0.1898511499 8.906165387e-39
-0.01224689931 -0.3020146191 0.1992891133 8.906165387e-39
0.1085410267 -0.4942578673 0.3578927517 8.906165387e-39
0.01239536889 -0.303221941 0.2368566543 8.906165387e-39
0.1634210199 -0.2296160012 0.178046599 8.906165387e-39
0.136103034 -0.3436640203 0.2870562077 8.906165387e-39
-0.02675714344 -0.3913660645 0.3090151548 8.906165387e-39
0.1369949579 -0.3052456081 0.2381971329 8.906165387e-39
-0.01171399187 -0.2765806913 0.1750051379 9.089834978e-39
-0.03947231174 -0.4157951176 0.2958655357 9.089834978e-39
-0.02736014128 -0.4408963919 0.2954171896 9.089834978e-39
-0.0269310344 -0.4038155377 0.3087239265 9.089834978e-39
-0.01144753955 -0.2638636827 0.16286318 9.089834978e-39
0.0139940884 -0.2269200534 0.1640048623 9.089834978e-39
0.2622424662 -0.3053966761 0.1525054872 9.089834978e-39
0.05879373848 -0.493180871 0.344923377 9.089834978e-39
0.2251991332 -0.2679762244 0.1778432429 9.273863302e-39
-0.04934907705 -0.3006049693 0.1615874469 9.273863302e-39
0.212913081 -0.2553244233 0.1780003905 9.273863302e-39
0.1758809537 -0.2298183739 0.1781806499 9.273863302e-39
0.00136018917 -0.2391671538 0.1635796279 9.273863302e-39
-0.01233946253 -0.3022821546 0.2117222697 9.273863302e-39
-0.0243478287 -0.2888277769 0.1745798886 9.273863302e-39
0.03396639973 -0.49250862 0.3322221637 9.273863302e-39
0.287266165 -0.317448318 0.1151828617 9.457532893e-39
0.200627014 -0.2426725775 0.1781575382 9.457532893e-39
-0.02753403224 -0.4533458352 0.2951259613 9.457532893e-39
0.06214259565 -0.3042989075 0.2498259991 9.457532893e-39
-0.02408137545 -0.2761107981 0.1624379307 9.457532893e-39
-0.02408137545 -0.2761107981 0.1624379307 9.457532893e-39
0.0960810706 -0.4940555096 0.3577587008 9.457532893e-39
0.07460259646 -0.3045012951 0.24996005 9.457532893e-39
-0.05288306624 -0.490021944 0.2815511227 9.641561216e-39
0.04968264699 -0.3040965497 0.2496919781 9.641561216e-39
-0.03964620084 -0.4282445908 0.2955743074 9.641561216e-39
0.08706254512 -0.3047036529 0.2500941157 9.641561216e-39
0.1363694966 -0.3309470415 0.2749142647 9.641561216e-39
0.111982435 -0.3051083982 0.2503622174 9.641561216e-39
0.09952249378 -0.3049060106 0.2502281666 9.641561216e-39
0.03722269833 -0.303894192 0.2495579273 9.641561216e-39
0.06125067174 -0.3427173495 0.2986850739 9.825230807e-39
0.09863056988 -0.3433244526 0.2990872264 9.825230807e-39
-0.03671521321 -0.2883578837 0.1620126963 9.825230807e-39
-0.01154010184 -0.2641312182 0.1752963364 9.825230807e-39
0.2249326706 -0.2806932032 0.1899852008 9.825230807e-39
0.2748875618 -0.3050639927 0.1277731657 9.825230807e-39
-0.0277079232 -0.4657953084 0.2948347926 9.825230807e-39
-0.01127364859 -0.2514142692 0.1631543785 9.825230807e-39
0.02476275153 -0.3036918044 0.2494238764 1.000925913e-38
0.1110905111 -0.3435268402 0.2992212772 1.000925913e-38
0.1235504597 -0.343729198 0.2993553281 1.000925913e-38
0.1244423836 -0.305310756 0.2504962683 1.000925913e-38
0.04879072309 -0.3425149918 0.298551023 1.000925913e-38
-0.02631680109 -0.366199702 0.2971643806 1.000925913e-38
0.1883409023 -0.2300207317 0.1783146858 1.000925913e-38
-0.05270916969 -0.4775724709 0.281842351 1.000925913e-38
-6.464123726e-05 -0.3030195534 0.2367226332 1.019292872e-38
-0.01243202575 -0.3025496602 0.2241554111 1.019292872e-38
-0.0278818123 -0.4782447517 0.2945435643 1.019292872e-38
0.1366359591 -0.3182300627 0.2627723217 1.019292872e-38
-0.0247068461 -0.3018122613 0.1991550624 1.019292872e-38
-0.001223018393 -0.3541549444 0.2977236509 1.019292872e-38
0.03633077443 -0.3423126042 0.2984169722 1.019292872e-38
0.01230280474 -0.3034894466 0.2492898256 1.019292872e-38
0.136010468 -0.3439315557 0.2994893789 1.037659831e-38
-0.0618090257 -0.3004026115 0.1614533961 1.037659831e-38
-0.05158450454 -0.3906938434 0.2963138819 1.037659831e-38
0.1369023919 -0.3055131137 0.2506303191 1.037659831e-38
-0.05175839365 -0.4031433165 0.2960226536 1.037659831e-38
-0.0241739396 -0.2763783336 0.1748710871 1.037659831e-38
-0.02658325434 -0.3789166212 0.3093063235 1.037659831e-38
-0.02390748635 -0.263661325 0.1627291292 1.037659831e-38
0.04633378983 -0.4929784834 0.3447893262 1.056062664e-38
0.04633378983 -0.4929784834 0.3447893262 1.056062664e-38
0.08362112194 -0.493853122 0.35762465 1.056062664e-38
0.00153407827 -0.2267176956 0.1638708264 1.056062664e-38
0.2253730297 -0.2555267811 0.1781344414 1.056062664e-38
0.2130869627 -0.2428749502 0.178291589 1.056062664e-38
-0.01136621181 -0.2516817749 0.1755875349 1.056062664e-38
-0.0368077755 -0.2886254191 0.1744458377 1.056062664e-38
-0.02479940839 -0.3020797968 0.2115882188 1.074429623e-38
-0.03982008994 -0.4406940341 0.2952831388 1.074429623e-38
0.02387082763 -0.3421102464 0.2982829809 1.074429623e-38
-0.0392170921 -0.3911637068 0.308881104 1.074429623e-38
-0.05193228275 -0.4155927598 0.2957314849 1.074429623e-38
-0.01109975949 -0.2389647961 0.163445577 1.074429623e-38
-0.03654132038 -0.2759084404 0.1623038799 1.074429623e-38
-0.04917518795 -0.2881554961 0.1618786454 1.074429623e-38
0.2008009106 -0.2302231044 0.1784487367 1.092796582e-38
0.1333684176 -0.4949301183 0.3705940247 1.092796582e-38
0.06205002964 -0.3045664132 0.2622592449 1.092796582e-38
0.07451003045 -0.3047688007 0.2623932958 1.092796582e-38
0.04959008098 -0.3043640554 0.2621251941 1.092796582e-38
-0.02373359539 -0.2512118816 0.1630203277 1.092796582e-38
-0.02373359539 -0.2512118816 0.1630203277 1.092796582e-38
-0.05141061544 -0.3782444 0.2966050506 1.092796582e-38
0.1118898839 -0.3053759038 0.2627953887 1.111163541e-38
0.08696997911 -0.3049711585 0.2625273466 1.111163541e-38
0.1362769306 -0.3312145472 0.287347436 1.111163541e-38
-0.02400004864 -0.2639288604 0.1751622856 1.111163541e-38
0.09942992777 -0.3051735163 0.2626613975 1.111163541e-38
0.03713013232 -0.3041616976 0.2619911432 1.111163541e-38
0.1458283663 -0.4951324761 0.3707280755 1.111163541e-38
0.08607806265 -0.3433896005 0.3113863468 1.111163541e-38
0.07361811399 -0.3431872427 0.311252296 1.1295305e-38
0.07116117328 -0.4936507642 0.3574905992 1.1295305e-38
0.02467018552 -0.3039593101 0.2618570924 1.1295305e-38
0.1243498325 -0.3055782616 0.2629294395 1.1295305e-38
-0.0371667929 -0.3016098738 0.1990210116 1.1295305e-38
-0.03999397904 -0.4531434774 0.2949919105 1.1295305e-38
-0.05210617185 -0.428042233 0.2954402566 1.1295305e-38
0.1209084094 -0.4947277308 0.3704599738 1.1295305e-38
-0.07426900417 -0.3002002239 0.1613193452 1.147897319e-38
-0.0653430149 -0.4898195863 0.2814170718 1.147897319e-38
0.01141088083 -0.3419078887 0.2981489301 1.147897319e-38
0.1365433931 -0.3184975982 0.275205493 1.147897319e-38
-0.0001572035253 -0.3032870591 0.2491557747 1.147897319e-38
-0.01119232178 -0.2392323166 0.1758787334 1.147897319e-38
-0.04016786814 -0.4655929506 0.2947007418 1.147897319e-38
-0.02489197254 -0.3023473024 0.2240213752 1.147897319e-38
0.2874400616 -0.3049988747 0.1154740602 1.166264278e-38
-0.03636743128 -0.2634589672 0.1625950783 1.166264278e-38
0.1368098408 -0.3057806194 0.2630634904 1.166264278e-38
-0.06516911834 -0.4773701131 0.2817083001 1.166264278e-38
-0.01252458803 -0.3028171957 0.2365885824 1.166264278e-38
-0.0366338864 -0.2761759758 0.1747370362 1.166264278e-38
-0.0366338864 -0.2761759758 0.1747370362 1.166264278e-38
0.01221024059 -0.3037569523 0.2617230415 1.166264278e-38
-0.04926775396 -0.2884230316 0.1743118018 1.184631237e-38
-0.03877674788 -0.3659973145 0.2970303297 1.184631237e-38
-0.04034176096 -0.4780423939 0.2944095135 1.184631237e-38
0.03387384117 -0.4927761257 0.3446553349 1.184631237e-38
-0.02382615954 -0.2514794171 0.1754534841 1.184631237e-38
0.08634451032 -0.3306726217 0.2992444038 1.184631237e-38
-0.0616351366 -0.2879531384 0.1617445946 1.184631237e-38
-0.01092586759 -0.2265153229 0.1637367755 1.184631237e-38
0.07388456166 -0.330470264 0.299110353 1.202998196e-38
-0.01368296333 -0.3539525867 0.2975896001 1.202998196e-38
-0.02355970442 -0.2387624234 0.1633115262 1.202998196e-38
0.1084484607 -0.494525373 0.370325923 1.202998196e-38
0.2255469114 -0.2430773079 0.1784256399 1.202998196e-38
0.09880445898 -0.3308749795 0.2993784547 1.202998196e-38
0.05870117247 -0.4934484065 0.3573565483 1.202998196e-38
0.2132608593 -0.230425477 0.1785827875 1.202998196e-38
0.1112644076 -0.3310773671 0.2995125055 1.221365155e-38
-0.04900129884 -0.2757060528 0.1621698439 1.221365155e-38
0.06142456084 -0.3302678764 0.2989763021 1.221365155e-38
0.1237243563 -0.3312797248 0.2996465564 1.221365155e-38
-0.039043203 -0.3787142634 0.3091722727 1.221365155e-38
-0.0642183423 -0.4029409289 0.2958886027 1.221365155e-38
-0.1858532429 -0.2967738211 0.08551393449 1.221365155e-38
-0.03619354218 -0.2510095239 0.1628862768 1.221365155e-38
-0.03725935519 -0.3018774092 0.211454168 1.239732115e-38
-0.0522800684 -0.4404916763 0.2951490879 1.239732115e-38
0.04896461219 -0.3300655186 0.2988422513 1.239732115e-38
-0.0640444532 -0.3904914558 0.296179831 1.239732115e-38
-0.08672895283 -0.2999978662 0.1611852944 1.239732115e-38
0.06195747107 -0.3048339486 0.2746923566 1.239732115e-38
0.1361843646 -0.3314820826 0.2997806072 1.239732115e-38
0.04949752241 -0.3046315908 0.2745583057 1.239732115e-38
-0.0643922314 -0.4153903723 0.295597434 1.258099074e-38
0.07441747189 -0.3050363362 0.2748264074 1.258099074e-38
0.03650466353 -0.329863131 0.2987082005 1.258099074e-38
0.1117973179 -0.3056434393 0.27522856 1.258099074e-38
0.08687742054 -0.305238694 0.2749604583 1.258099074e-38
0.03703757375 -0.3044292331 0.2744243145 1.258099074e-38
-0.01101843081 -0.2267828435 0.1761699319 1.258099074e-38
0.0993373692 -0.3054410517 0.2750945091 1.258099074e-38
0.1242572665 -0.3058457971 0.2753626108 1.276466033e-38
-0.04882740974 -0.2632565796 0.1624610424 1.276466033e-38
-0.02365226857 -0.2390299439 0.1757446826 1.276466033e-38
0.09598851204 -0.4943230152 0.3701918721 1.276466033e-38
-0.04962676764 -0.301407516 0.1988869607 1.276466033e-38
0.1364508271 -0.3187651038 0.2876386046 1.276466033e-38
0.02457762323 -0.3042268455 0.2742902637 1.276466033e-38
-0.04909386486 -0.2759735882 0.1746030003 1.276466033e-38
-0.0524539575 -0.4529410899 0.2948579192 1.294832852e-38
-0.00104912743 -0.3417055011 0.2980148792 1.294832852e-38
-0.0638705641 -0.3780420125 0.2964709997 1.294832852e-38
0.04624122381 -0.4932460189 0.3572224975 1.294832852e-38
-0.06172770262 -0.2882206738 0.1741777509 1.294832852e-38
0.1367172748 -0.3060481548 0.2754966617 1.294832852e-38
-0.03601965308 -0.2385600507 0.1631774753 1.294832852e-38
-0.02338581532 -0.2263129503 0.1636027247 1.294832852e-38
-0.1859458089 -0.2970413268 0.09794709086 1.313163938e-38
-0.06456612051 -0.4278398454 0.2953062654 1.313163938e-38
-0.07409511507 -0.2877507508 0.1616105437 1.313163938e-38
-0.02498453483 -0.3026148379 0.2364545316 1.313163938e-38
0.02404471673 -0.3296607733 0.2985741496 1.313163938e-38
-0.0614612475 -0.275503695 0.1620357931 1.313163938e-38
-0.03735191748 -0.3021449149 0.2238873243 1.313163938e-38
-0.02614291012 -0.3537502289 0.2974555492 1.313163938e-38
-0.000249767676 -0.3035545647 0.2615889907 1.331530897e-38
-0.04865352064 -0.2508071661 0.1627522409 1.331530897e-38
-0.04865352064 -0.2508071661 0.1627522409 1.331530897e-38
-0.0526278466 -0.465390563 0.2945666909 1.331530897e-38
-0.05123672634 -0.3657949567 0.2968962789 1.331530897e-38
-0.01261715125 -0.3030847013 0.2490217239 1.331530897e-38
-0.0529756248 -0.4902894795 0.2939842939 1.331530897e-38
0.08352856338 -0.4941206276 0.3700578213 1.331530897e-38
-0.0528017357 -0.4778400064 0.2942755222 1.349897856e-38
-0.09918890148 -0.2997955084 0.1610512584 1.349897856e-38
0.1114383042 -0.3186279237 0.2998036742 1.349897856e-38
-0.04971933365 -0.3016750515 0.2113201171 1.349897856e-38
0.09897834808 -0.3184255362 0.2996696234 1.349897856e-38
0.0121176783 -0.3040244877 0.2741562128 1.349897856e-38
0.08651839942 -0.3182231784 0.2995355725 1.349897856e-38
0.07405845076 -0.3180208206 0.2994015217 1.349897856e-38
0.06159844995 -0.317818433 0.2992674708 1.368228942e-38
-0.06474000961 -0.4402892888 0.2950150371 1.368228942e-38
-0.06474000961 -0.4402892888 0.2950150371 1.368228942e-38
-0.06474000961 -0.4402892888 0.2950150371 1.368228942e-38
-0.02347837761 -0.2265804708 0.176035881 1.368228942e-38
-0.1860383749 -0.2973088622 0.1103802472 1.368228942e-38
0.1238982528 -0.3188302815 0.2999377251 1.368228942e-38
0.01158476993 -0.3294584155 0.2984400988 1.368228942e-38
-0.0612873584 -0.2630542219 0.1623269916 1.386595901e-38
0.04913850129 -0.3176160753 0.29913342 1.386595901e-38
0.06186490506 -0.3051014543 0.2871255279 1.386595901e-38
-0.1881812364 -0.3871302009 0.2326735109 1.386595901e-38
-0.1856793463 -0.284324348 0.08580513299 1.386595901e-38
0.07432490587 -0.3053038418 0.2872595787 1.386595901e-38
0.0494049564 -0.3048990965 0.286991477 1.386595901e-38
0.1117047518 -0.3059109449 0.2876617312 1.386595901e-38
-0.03584576398 -0.2261105925 0.1634686738 1.404926846e-38
-0.07667832077 -0.4027385712 0.2957546115 1.404926846e-38
0.08678485453 -0.3055061996 0.2873936296 1.404926846e-38
-0.04847962782 -0.238357693 0.1630434245 1.404926846e-38
0.09924480319 -0.3057085574 0.2875276804 1.404926846e-38
0.1241647005 -0.3061133027 0.2877957821 1.404926846e-38
0.1332758665 -0.4951976538 0.3830271959 1.404926846e-38
0.03694500774 -0.3046967387 0.2868574262 1.404926846e-38
-0.07685220987 -0.4151880145 0.2954633832 1.423293806e-38
-0.08655505627 -0.287548393 0.1614764929 1.423293806e-38
-0.06208671629 -0.3012051582 0.1987529248 1.423293806e-38
-0.07650442421 -0.390289098 0.2960457802 1.423293806e-38
-0.07418767363 -0.2880182862 0.1740437001 1.423293806e-38
0.1363582611 -0.3190326393 0.3000717759 1.423293806e-38
-0.06155381352 -0.2757712305 0.1744689494 1.423293806e-38
-0.1116488799 -0.2995931208 0.1609172076 1.423293806e-38
0.03667856008 -0.3174137175 0.2989993691 1.441624891e-38
0.1366247088 -0.3063156605 0.2879298329 1.441624891e-38
0.07106861472 -0.4939182699 0.3699237704 1.441624891e-38
-0.06491390616 -0.4527387321 0.2947238684 1.441624891e-38
0.03378127515 -0.4930436611 0.3570884466 1.441624891e-38
0.1208158582 -0.4949952662 0.3828931451 1.441624891e-38
-0.0611134693 -0.2506047785 0.1626181901 1.441624891e-38
-0.07392122597 -0.2753013074 0.1619017422 1.441624891e-38
0.1334497482 -0.4827481806 0.3833184242 1.459991851e-38
-0.03744447976 -0.3024124503 0.2363204807 1.459991851e-38
-0.1241088212 -0.299390763 0.1607831568 1.459991851e-38
-0.1861309409 -0.2975763679 0.1228134036 1.459991851e-38
-0.01350907423 -0.3415031433 0.2978808284 1.459991851e-38
-0.04981189221 -0.3019425571 0.2237532735 1.459991851e-38
-0.07702609897 -0.4276374876 0.2951722145 1.459991851e-38
0.02448506095 -0.3044943511 0.2867233753 1.459991851e-38
-0.1857719123 -0.2845918536 0.09823828936 1.478322936e-38
-0.03860285878 -0.3535478413 0.2973214984 1.478322936e-38
-0.07633053511 -0.3778396547 0.2963369489 1.478322936e-38
-0.02507709712 -0.3028823435 0.248887673 1.478322936e-38
0.02421860956 -0.3172113299 0.2988653779 1.478322936e-38
-0.06508779526 -0.4651882052 0.2944326401 1.478322936e-38
-0.1365687996 -0.2991884053 0.1606491059 1.478322936e-38
-0.04830573872 -0.2259082198 0.163334623 1.478322936e-38
0.1083559096 -0.4947929084 0.3827590942 1.496689755e-38
-0.063696675 -0.3655925691 0.296762228 1.496689755e-38
-0.063696675 -0.3655925691 0.296762228 1.496689755e-38
0.1209897399 -0.4825457931 0.3831843734 1.496689755e-38
-0.06217928231 -0.3014726937 0.2111860663 1.496689755e-38
-0.000342329964 -0.3038221002 0.274022162 1.496689755e-38
-0.07374732941 -0.2628518641 0.1621929407 1.496689755e-38
-0.06543557346 -0.4900871217 0.2938502431 1.496689755e-38
-0.08664762229 -0.2878159285 0.1739096493 1.515020841e-38
-0.08664762229 -0.2878159285 0.1739096493 1.515020841e-38
-0.0609395802 -0.2381553203 0.1629093885 1.515020841e-38
-0.01270971447 -0.3033522069 0.2614549398 1.515020841e-38
-0.06526168436 -0.4776376486 0.2941414714 1.515020841e-38
0.1116121858 -0.3061784804 0.3000949025 1.515020841e-38
-0.09901500493 -0.2873460352 0.1613424569 1.515020841e-38
-0.07454669476 -0.3010027707 0.198618874 1.515020841e-38
-0.1880073398 -0.3746807575 0.2329647094 1.533351927e-38
-0.0008752364665 -0.3292560279 0.2983060479 1.533351927e-38
0.05860861391 -0.4937159121 0.3697897196 1.533351927e-38
0.07423233986 -0.3055713773 0.29969275 1.533351927e-38
-0.186223492 -0.2978438735 0.1352466047 1.533351927e-38
0.06177233905 -0.3053689897 0.2995586991 1.533351927e-38
0.09915223718 -0.3059760928 0.2999608517 1.533351927e-38
0.08669228852 -0.305773735 0.2998268008 1.533351927e-38
0.08669228852 -0.305773735 0.2998268008 1.551683013e-38
0.08669228852 -0.305773735 0.2998268008 1.551683013e-38
-0.07401378453 -0.2755688429 0.1743348986 1.551683013e-38
0.1211636364 -0.4700963497 0.3834755421 1.551683013e-38
0.1240721345 -0.3063808382 0.3002289534 1.551683013e-38
-0.1490287483 -0.2989860177 0.1605150551 1.551683013e-38
0.04931239039 -0.3051666319 0.2994246483 1.551683013e-38
-0.1858644783 -0.2848593891 0.1106714457 1.551683013e-38
0.01202511601 -0.3042919934 0.2865893245 1.570049832e-38
-0.08638116717 -0.2750989497 0.1617676914 1.570049832e-38
-0.1855054647 -0.2718749046 0.08609633148 1.570049832e-38
0.1365321428 -0.3065831959 0.3003630042 1.570049832e-38
0.01175866276 -0.3170089722 0.2987313271 1.570049832e-38
-0.08931215852 -0.4149856567 0.2953293324 1.570049832e-38
-0.07357344031 -0.2504024208 0.1624841392 1.570049832e-38
0.09589594603 -0.4945905507 0.3826250434 1.570049832e-38
0.09589594603 -0.4945905507 0.3826250434 1.588380918e-38
-0.04990445822 -0.3022100925 0.2361864299 1.588380918e-38
-0.1114749834 -0.2871436477 0.1612084061 1.588380918e-38
-0.08913826942 -0.4025362134 0.2956205606 1.588380918e-38
-0.02596902102 -0.3413007855 0.2977467775 1.588380918e-38
0.03685244918 -0.3049642742 0.2992905974 1.588380918e-38
-0.1614886969 -0.2987836599 0.1603810191 1.588380918e-38
-0.08896438032 -0.3900867403 0.2959117293 1.588380918e-38
-0.06227184087 -0.3017401993 0.2236192226 1.606712004e-38
-0.05106283724 -0.3533454835 0.2971874475 1.606712004e-38
-0.186316058 -0.2981114089 0.1476797611 1.606712004e-38
-0.06076568365 -0.2257058471 0.163200587 1.606712004e-38
-0.03753704578 -0.302679956 0.2487536222 1.606712004e-38
-0.07463925332 -0.3012703061 0.2110520303 1.606712004e-38
-0.08948604763 -0.4274351299 0.2950381637 1.606712004e-38
-0.1239349246 -0.2869412899 0.1610743552 1.606712004e-38
-0.08620727807 -0.2626494765 0.1620588899 1.625043089e-38
-0.08700664341 -0.3008004129 0.1984848231 1.625043089e-38
-0.1859570444 -0.2851268947 0.1231045872 1.625043089e-38
-0.09910757095 -0.2876135707 0.1737755984 1.625043089e-38
0.04614866525 -0.4935135245 0.3696556687 1.625043089e-38
-0.1882738024 -0.3873977065 0.2451066822 1.625043089e-38
-0.1855980307 -0.2721424103 0.0985294804 1.625043089e-38
-0.07339955121 -0.2379529476 0.1627753377 1.625043089e-38
-0.1739486754 -0.2985813022 0.1602469683 1.643374035e-38
0.08343599737 -0.4943881631 0.3824909925 1.643374035e-38
-0.08647373319 -0.2753664851 0.1742008477 1.643374035e-38
0.02439249866 -0.3047618866 0.2991565466 1.643374035e-38
-0.07615664601 -0.3653902113 0.2966281772 1.643374035e-38
-0.08879048377 -0.3776372969 0.2962029576 1.643374035e-38
-0.02516966127 -0.3031498492 0.261320889 1.643374035e-38
-0.09884111583 -0.2748965919 0.1616336554 1.643374035e-38
-0.1363949031 -0.2867389321 0.1609403044 1.661705121e-38
-0.08603338897 -0.2502000332 0.1623500884 1.661705121e-38
-0.1115675494 -0.2874111831 0.1736415625 1.661705121e-38
-0.01280227769 -0.3036197424 0.2738881111 1.661705121e-38
-0.01333518326 -0.3290536702 0.2981719971 1.661705121e-38
-0.1853315681 -0.2594254315 0.08638752997 1.661705121e-38
-0.0004348922521 -0.3040896058 0.2864552736 1.661705121e-38
-0.06236440688 -0.3020077348 0.236052379 1.661705121e-38
-0.1860495955 -0.2853944004 0.1355378032 1.680036207e-38
-0.1864086241 -0.2983789146 0.1601129174 1.680036207e-38
-0.1878334582 -0.3622313142 0.2332559079 1.680036207e-38
-0.000701347366 -0.3168065846 0.2985972762 1.680036207e-38
-0.1488548517 -0.2865365446 0.1608062536 1.680036207e-38
-0.1856905967 -0.2724099457 0.1109626442 1.680036207e-38
-0.03842896968 -0.341098398 0.2976127267 1.680036207e-38
-0.03842896968 -0.341098398 0.2976127267 1.680036207e-38
-0.08709920198 -0.3010679483 0.2109179795 1.698367293e-38
-0.07473181933 -0.3015378118 0.2234851718 1.698367293e-38
-0.1240274906 -0.2872088253 0.1735075116 1.698367293e-38
0.03368870914 -0.4933111668 0.3695216179 1.698367293e-38
0.01193255186 -0.3045595288 0.2990224957 1.698367293e-38
-0.1113010943 -0.2746942043 0.1614996046 1.698367293e-38
-0.09866722673 -0.2624471188 0.161924839 1.698367293e-38
-0.1880999058 -0.3749482632 0.2453978807 1.698367293e-38
-0.07322566211 -0.2255034745 0.1630665362 1.716698239e-38
-0.1017721072 -0.4147832692 0.2951952815 1.716698239e-38
-0.09946659207 -0.3005980551 0.1983507723 1.716698239e-38
-0.04999702051 -0.3024775982 0.2486195713 1.716698239e-38
-0.06352277845 -0.3531431258 0.2970533967 1.716698239e-38
0.1207232922 -0.4952627718 0.3953263164 1.716698239e-38
0.07097604871 -0.4941858053 0.3823570013 1.716698239e-38
-0.08585949987 -0.2377505898 0.1626412868 1.716698239e-38
-0.1613148004 -0.2863341868 0.1606722176 1.735029324e-38
-0.1015982181 -0.4023338258 0.2954865098 1.735029324e-38
-0.09893368185 -0.2751641273 0.1740667969 1.735029324e-38
-0.1851576716 -0.2469759732 0.08667872101 1.735029324e-38
-0.1364874691 -0.2870064676 0.1733734608 1.735029324e-38
-0.101424329 -0.3898843527 0.2957776785 1.735029324e-38
-0.1854241341 -0.2596929371 0.09882067889 1.735029324e-38
-0.1237610355 -0.2744918466 0.1613655537 1.735029324e-38
-0.1019459963 -0.4272327423 0.2949041128 1.75336041e-38
-0.1861421615 -0.2856619358 0.1479709595 1.75336041e-38
-0.1857831627 -0.2726774514 0.1233957857 1.75336041e-38
-0.03762960806 -0.3029474616 0.2611868382 1.75336041e-38
-0.09849333763 -0.2499976605 0.1622160375 1.75336041e-38
0.1082633436 -0.4950604141 0.3951922655 1.75336041e-38
-0.1111272052 -0.2622447312 0.1617908031 1.75336041e-38
-0.08861659467 -0.3651878536 0.2964941263 1.75336041e-38
-0.1865011901 -0.29864645 0.1725460738 1.771655483e-38
-0.1489474177 -0.28680408 0.1732394099 1.771655483e-38
-0.1119265705 -0.3003956676 0.1982167214 1.771655483e-38
-0.1737747788 -0.286131829 0.1605381668 1.771655483e-38
-0.1012504324 -0.3774349093 0.2960689068 1.771655483e-38
-0.02579513006 -0.3288513124 0.2980379462 1.771655483e-38
-0.1883663535 -0.3876652122 0.2575398684 1.771655483e-38
-0.06552813947 -0.4903546274 0.3062834144 1.771655483e-38
-0.06552813947 -0.4903546274 0.3062834144 1.789986569e-38
-0.07482437789 -0.3018053472 0.2359183282 1.789986569e-38
-0.08719176799 -0.301335454 0.2233511358 1.789986569e-38
-0.02526222356 -0.3034173846 0.2737540603 1.789986569e-38
-0.1849837899 -0.2345265299 0.0869699195 1.789986569e-38
-0.1362210214 -0.2742894888 0.1612315029 1.789986569e-38
-0.1113936603 -0.2749617398 0.173932761 1.789986569e-38
-0.09955915064 -0.3008655906 0.2107839286 1.789986569e-38
-0.1855167001 -0.2599604726 0.1112538278 1.808317654e-38
-0.08568561077 -0.2253011167 0.1629324853 1.808317654e-38
-0.1235871464 -0.2620423734 0.1616567522 1.808317654e-38
-0.1852502376 -0.2472434938 0.09911187738 1.808317654e-38
-0.05088894069 -0.3408960402 0.2974786758 1.808317654e-38
-0.06245696545 -0.3022752404 0.2484855205 1.808317654e-38
-0.01289484091 -0.303887248 0.2863212228 1.808317654e-38
0.05851604789 -0.4939834476 0.3822229505 1.808317654e-38
-0.1614073664 -0.2866017222 0.1731053591 1.826612727e-38
-0.1109533161 -0.2497953027 0.1620820016 1.826612727e-38
-0.1243865117 -0.3001933098 0.1980826855 1.826612727e-38
-0.1879260242 -0.3624988198 0.2456890792 1.826612727e-38
-0.1879260242 -0.3624988198 0.2456890792 1.826612727e-38
-0.1858757138 -0.272944957 0.1358290017 1.826612727e-38
-0.09831944853 -0.2375482172 0.162507236 1.826612727e-38
0.09580338001 -0.4948580563 0.3950582147 1.826612727e-38
-0.01316129416 -0.3166042268 0.2984632254 1.844943813e-38
-0.0005274564028 -0.3043571413 0.2988884449 1.844943813e-38
-0.1876595616 -0.349781841 0.2335471064 1.844943813e-38
-0.1862347275 -0.2859294415 0.1604041159 1.844943813e-38
-0.1238536015 -0.274759382 0.1737987101 1.844943813e-38
-0.1486809701 -0.2740871012 0.161097452 1.844943813e-38
-0.07598275691 -0.3529407382 0.2969193459 1.844943813e-38
-0.1368464977 -0.299990952 0.1979486346 1.844943813e-38
-0.1848098934 -0.2220770568 0.08726111799 1.863274899e-38
-0.1856092662 -0.2602279782 0.1236869842 1.863274899e-38
-0.1234132573 -0.2495929152 0.1619479507 1.863274899e-38
-0.1360471249 -0.2618400156 0.1615227014 1.863274899e-38
-0.0500895828 -0.3027451038 0.2610527873 1.863274899e-38
-0.1853428036 -0.2475110143 0.1115450263 1.863274899e-38
-0.188192457 -0.3752157688 0.2578310966 1.863274899e-38
-0.1738673449 -0.2863993645 0.1729713231 1.863274899e-38
-0.1850763559 -0.2347940505 0.09940307587 1.881569971e-38
-0.1120191291 -0.300663203 0.2106498778 1.881569971e-38
-0.1140581965 -0.4021314681 0.295352459 1.881569971e-38
-0.1138843074 -0.3896819949 0.2956436276 1.881569971e-38
-0.087284334 -0.3016029894 0.2357842773 1.881569971e-38
-0.110779427 -0.2373458445 0.1623731852 1.881569971e-38
-0.1611409187 -0.2738847435 0.1609634012 1.881569971e-38
-0.1363135874 -0.2745570242 0.1736646593 1.881569971e-38
-0.09965171665 -0.3011330962 0.223217085 1.899901057e-38
-0.1493064314 -0.2997885644 0.1978145838 1.899901057e-38
-0.03825507686 -0.3286489248 0.2979038954 1.899901057e-38
-0.09814555943 -0.225098744 0.1627984345 1.899901057e-38
-0.1865937561 -0.2989139557 0.1849792302 1.899901057e-38
0.04605609924 -0.49378106 0.3820888996 1.899901057e-38
-0.03772217035 -0.3032149971 0.2736200094 1.899901057e-38
-0.1137104109 -0.3772325516 0.2959348559 1.899901057e-38
-0.1859682798 -0.2732124925 0.148262158 1.91819627e-38
-0.07491694391 -0.3020728528 0.2483514994 1.91819627e-38
-0.1244790703 -0.3004608452 0.2105158269 1.91819627e-38
-0.1358732432 -0.2493905574 0.1618138999 1.91819627e-38
0.08334343135 -0.4946556687 0.3949241638 1.91819627e-38
-0.1010765433 -0.364985466 0.2963600755 1.91819627e-38
-0.1485070735 -0.2616376281 0.1613886505 1.91819627e-38
-0.1485070735 -0.2616376281 0.1613886505 1.91819627e-38
-0.1854353696 -0.2477785349 0.1239781827 1.936527215e-38
-0.1863272935 -0.2861969769 0.1728372723 1.936527215e-38
-0.1863272935 -0.2861969769 0.1728372723 1.936527215e-38
-0.1232393682 -0.2371434718 0.1622391492 1.936527215e-38
-0.1851689219 -0.235061571 0.1118362248 1.936527215e-38
-0.06334888935 -0.3406936824 0.297344625 1.936527215e-38
-0.1849024594 -0.2223445773 0.09969427437 1.936527215e-38
-0.1857018173 -0.2604954839 0.1361202002 1.936527215e-38
-0.1487735361 -0.2743546367 0.1735306084 1.954822428e-38
-0.1617663801 -0.2995862067 0.1976805329 1.954822428e-38
-0.1736008972 -0.2736823857 0.1608293653 1.954822428e-38
-0.02535478771 -0.3036848903 0.2861871719 1.954822428e-38
-0.0256212391 -0.3164018691 0.2983291745 1.954822428e-38
-0.1369390488 -0.3002584875 0.210381791 1.954822428e-38
-0.1884589195 -0.3879327476 0.2699730396 1.954822428e-38
-0.1263442487 -0.3894796371 0.2955095768 1.954822428e-38
-0.08844270557 -0.3527383804 0.2967853546 1.973153514e-38
-0.1106055379 -0.2248963714 0.1626643836 1.973153514e-38
-0.06254953146 -0.3025427461 0.2609187365 1.973153514e-38
-0.1121116951 -0.3009307086 0.2230830342 1.973153514e-38
-0.148333177 -0.2491881996 0.161679849 1.973153514e-38
-0.1880185753 -0.3627663255 0.2581222653 1.973153514e-38
-0.0129874032 -0.3041547835 0.2987543941 1.973153514e-38
-0.1609670222 -0.2614352703 0.1612545997 1.973153514e-38
-0.1877521276 -0.3500493467 0.2459802777 1.991448586e-38
-0.1612334847 -0.2741522789 0.1733965576 1.991448586e-38
-0.1356993467 -0.2369411141 0.1621050984 1.991448586e-38
-0.09974428266 -0.3014006317 0.2356502265 1.991448586e-38
-0.1261703521 -0.3770301938 0.2958008051 1.991448586e-38
0.03359615058 -0.4935787022 0.3819548488 1.991448586e-38
-0.185261488 -0.2353290915 0.1242693812 1.991448586e-38
-0.1742263585 -0.2993838489 0.1975464821 1.991448586e-38
-0.18748568 -0.3373323977 0.2338383049 2.009743799e-38
-0.05071505159 -0.3284465671 0.2977698445 2.009743799e-38
-0.1849950254 -0.2226120979 0.1121274233 2.009743799e-38
-0.1493989974 -0.3000560999 0.2102477401 2.009743799e-38
-0.1860608459 -0.2734799981 0.1606953144 2.009743799e-38
-0.1855279207 -0.2480460554 0.1364113986 2.009743799e-38
-0.1230654791 -0.2246940136 0.1625303477 2.009743799e-38
0.07088348269 -0.494453311 0.394790113 2.009743799e-38
-0.08737689257 -0.3018704951 0.2482174486 2.028074885e-38
-0.1245716363 -0.3007283509 0.2229489833 2.028074885e-38
-0.05018214881 -0.3030126393 0.2734859586 2.028074885e-38
-0.1857943833 -0.2607630193 0.1485533565 2.028074885e-38
-0.188285023 -0.3754833043 0.2702642679 2.028074885e-38
-0.1872192174 -0.3246153891 0.2216963619 2.028074885e-38
-0.1607931256 -0.2489858121 0.1615457982 2.028074885e-38
-0.1736934632 -0.2739499211 0.1732625216 2.028074885e-38
-0.1734270006 -0.2612329125 0.1611205637 2.046369957e-38
-0.1135365218 -0.3647831082 0.2962260246 2.046369957e-38
-0.1481592953 -0.2367387414 0.1619710475 2.046369957e-38
-0.1370316148 -0.3005259931 0.2228149325 2.046369957e-38
-0.1143246442 -0.414848417 0.3074944019 2.046369957e-38
-0.1866863072 -0.2991814613 0.1974124461 2.046369957e-38
-0.1864198595 -0.2864644825 0.1852704287 2.046369957e-38
-0.135525465 -0.2244916409 0.1623962969 2.046369957e-38
-0.03781473264 -0.3034825027 0.2860531807 2.06466517e-38
-0.1850875914 -0.2228796184 0.1245605797 2.06466517e-38
-0.07580886781 -0.3404912949 0.2972105742 2.06466517e-38
-0.1618589461 -0.2998537421 0.2101136893 2.06466517e-38
-0.03808118775 -0.3161994815 0.2981951237 2.06466517e-38
-0.07500950992 -0.3023403585 0.2607846856 2.06466517e-38
-0.1122042611 -0.3011982441 0.2355161756 2.06466517e-38
-0.1122042611 -0.3011982441 0.2355161756 2.06466517e-38
-0.1853540391 -0.2355966121 0.1367025971 2.082996116e-38
-0.1009026542 -0.3525359929 0.2966513038 2.082996116e-38
-0.1890731603 -0.4255486429 0.2815325856 2.082996116e-38
-0.1856204867 -0.2483135611 0.148844555 2.082996116e-38
-0.1144985333 -0.4272978902 0.3072031736 2.082996116e-38
-0.1861534119 -0.2737475336 0.1731284708 2.082996116e-38
-0.1494915634 -0.3003236055 0.2226808965 2.082996116e-38
-0.02544735 -0.3039524257 0.2986203432 2.082996116e-38
-0.1732531041 -0.2487834543 0.1614117622 2.101291328e-38
0.05842348188 -0.4942509532 0.3946560621 2.101291328e-38
-0.160619244 -0.2365363687 0.1618369967 2.101291328e-38
-0.1858869493 -0.261030525 0.1609865129 2.101291328e-38
-0.09983684123 -0.3016681373 0.2480833977 2.101291328e-38
-0.1246642023 -0.3009958863 0.2353821546 2.101291328e-38
-0.06264209747 -0.3028102815 0.2733519077 2.101291328e-38
-0.06317500025 -0.3282442093 0.2976357937 2.101291328e-38
-0.1479853988 -0.2242892683 0.162262246 2.119586541e-38
-0.1873117834 -0.3248829246 0.2341295034 2.119586541e-38
-0.1743189245 -0.2996513844 0.2099796385 2.119586541e-38
-0.1878446788 -0.3503168523 0.2584134936 2.119586541e-38
-0.1885514855 -0.3882002532 0.2824062109 2.119586541e-38
-0.1881111413 -0.3630338609 0.2705554366 2.119586541e-38
-0.187578246 -0.3375999033 0.2462714761 2.119586541e-38
-0.1267845929 -0.4146460593 0.3073603511 2.119586541e-38
-0.1851801425 -0.223147139 0.1369937956 2.137881613e-38
-0.1371241808 -0.3007935286 0.2352481037 2.137881613e-38
-0.1266106963 -0.4021966159 0.3076515198 2.137881613e-38
-0.1619515121 -0.3001212478 0.2225468457 2.137881613e-38
-0.1854466051 -0.2358641326 0.1491357535 2.137881613e-38
-0.1269584745 -0.4270955026 0.3070691228 2.137881613e-38
-0.05054116249 -0.3159971237 0.2980610728 2.137881613e-38
-0.05054116249 -0.3159971237 0.2980610728 2.137881613e-38
-0.08746945858 -0.3021380007 0.2606506348 2.156176826e-38
-0.1730792224 -0.236334011 0.1617029458 2.156176826e-38
-0.1870453209 -0.3121659458 0.2219875455 2.156176826e-38
-0.05027470738 -0.3032801449 0.2859191298 2.156176826e-38
-0.05027470738 -0.3032801449 0.2859191298 2.156176826e-38
-0.1857130527 -0.2485810965 0.1612777114 2.156176826e-38
-0.1604453474 -0.2240868956 0.1621281952 2.156176826e-38
-0.188377589 -0.3757508099 0.2826973796 2.156176826e-38
-0.08826881647 -0.3402889371 0.2970765233 2.174471899e-38
0.04596353322 -0.4940485656 0.3945220113 2.174471899e-38
-0.1495841295 -0.300591141 0.2351140529 2.174471899e-38
-0.1122968197 -0.3014657497 0.2479493469 2.174471899e-38
-0.1859795153 -0.2612980604 0.1734196693 2.174471899e-38
-0.1867788732 -0.2994489968 0.2098455876 2.174471899e-38
-0.1865124106 -0.2867319882 0.1977036446 2.174471899e-38
-0.03790729493 -0.3037500381 0.2984862924 2.174471899e-38
-0.1862459779 -0.2740150392 0.1855616271 2.192767111e-38
-0.07510206848 -0.3026078939 0.2732178569 2.192767111e-38
-0.1744114906 -0.29991889 0.2224127948 2.192767111e-38
-0.1852727085 -0.2234146595 0.149426952 2.192767111e-38
-0.1729053259 -0.2238845378 0.1619941443 2.192767111e-38
-0.07563497871 -0.3280418217 0.2975017428 2.192767111e-38
-0.1247567609 -0.301263392 0.2478152961 2.192767111e-38
-0.1855391711 -0.2361316383 0.1615689099 2.192767111e-38
-0.1620440781 -0.3003887832 0.234980002 2.211062324e-38
-0.1871378869 -0.3124334812 0.2344207019 2.211062324e-38
-0.1874043494 -0.3251504302 0.2465626746 2.211062324e-38
-0.1858056188 -0.2488486022 0.1737108678 2.211062324e-38
-0.09992940724 -0.301935643 0.2605165839 2.211062324e-38
-0.06273465604 -0.3030777872 0.285785079 2.211062324e-38
-0.1879372448 -0.3505843878 0.2708466649 2.211062324e-38
0.03350358456 -0.4938462079 0.3943879604 2.211062324e-38
-0.06300111115 -0.3157947659 0.297927022 2.229357396e-38
-0.1372167468 -0.3010610342 0.2476812452 2.229357396e-38
-0.1876707971 -0.337867409 0.2587046623 2.229357396e-38
-0.1868714392 -0.2997165024 0.222278744 2.229357396e-38
-0.1889918298 -0.4133667052 0.2942569852 2.229357396e-38
-0.1007287651 -0.3400865793 0.2969424725 2.229357396e-38
-0.1882037073 -0.3633013666 0.2829886079 2.229357396e-38
-0.1891657263 -0.4258161783 0.2939657569 2.229357396e-38
-0.1860720813 -0.2615655661 0.1858528256 2.247652609e-38
-0.1260890216 -0.3648482561 0.3085251451 2.247652609e-38
-0.1886440516 -0.3884677887 0.2948393226 2.247652609e-38
-0.1888179332 -0.4009172618 0.2945481539 2.247652609e-38
-0.1853652745 -0.2236821651 0.1618601084 2.247652609e-38
-0.1745040566 -0.3001864254 0.2348459512 2.247652609e-38
-0.08756201714 -0.3024055362 0.273083806 2.247652609e-38
-0.189339608 -0.4382656217 0.2936745882 2.247652609e-38
-0.05036727339 -0.3035476804 0.2983522415 2.265947681e-38
-0.1496766955 -0.3008586466 0.2475471944 2.265947681e-38
-0.1866049767 -0.2869995236 0.2101367861 2.265947681e-38
-0.188470155 -0.3760183454 0.2951305509 2.265947681e-38
-0.1856317371 -0.2363991588 0.1740020663 2.265947681e-38
-0.1856317371 -0.2363991588 0.1740020663 2.265947681e-38
-0.1123893857 -0.3017332554 0.2603825331 2.265947681e-38
-0.186338529 -0.2742825449 0.1979948282 2.265947681e-38
-0.08809492737 -0.3278394639 0.297367692 2.284242894e-38
-0.1858981848 -0.2491161078 0.1861440092 2.284242894e-38
-0.0751946345 -0.3028753996 0.2856510282 2.284242894e-38
-0.1621366441 -0.3006562889 0.2474131435 2.284242894e-38
-0.1758363247 -0.3637712598 0.2955557704 2.284242894e-38
-0.1872304529 -0.3127009869 0.2468538731 2.284242894e-38
-0.1869640052 -0.2999840379 0.2347119004 2.284242894e-38
-0.1134551913 -0.3526011407 0.3089503646 2.284242894e-38
-0.1131887436 -0.3398841918 0.2968084216 2.302537966e-38
-0.1248493269 -0.3015308976 0.2602484822 2.302537966e-38
-0.1632024497 -0.3515241742 0.2959810495 2.302537966e-38
-0.07546108216 -0.3155923784 0.2977929711 2.302537966e-38
-0.1874969006 -0.3254179358 0.2589958906 2.302537966e-38
-0.1854578406 -0.2239496857 0.1742932647 2.302537966e-38
-0.1000219658 -0.3022031784 0.2729497552 2.302537966e-38
-0.1866975427 -0.2872670293 0.2225699425 2.302537966e-38
-0.1880298108 -0.3508518934 0.2832797766 2.320833179e-38
-0.1877633631 -0.3381349444 0.2711378336 2.320833179e-38
-0.1861646324 -0.2618330717 0.1982860267 2.320833179e-38
-0.1857243031 -0.2366666794 0.1864352077 2.320833179e-38
-0.1373093128 -0.3013285398 0.260114491 2.320833179e-38
-0.06282722205 -0.3033453226 0.2982181907 2.320833179e-38
-0.08950851858 -0.4036062658 0.3453531861 2.320833179e-38
-0.1745966226 -0.3004539311 0.2472790927 2.320833179e-38
-0.1259151399 -0.352398783 0.3088163137 2.339092378e-38
-0.186431095 -0.2745500803 0.2104279846 2.339092378e-38
-0.1882962734 -0.363568902 0.2954217196 2.339092378e-38
-0.08765458316 -0.3026730418 0.2855169773 2.339092378e-38
-0.100554876 -0.3276371062 0.2972337008 2.339092378e-38
-0.1859907359 -0.2493836433 0.1985772252 2.339092378e-38
-0.1756624281 -0.3513217866 0.2958469987 2.339092378e-38
-0.1497692466 -0.3011261523 0.2599804401 2.339092378e-38
-0.1887366176 -0.3887352943 0.3072724938 2.348204041e-38
-0.1855504066 -0.2242172062 0.1867264062 2.348204041e-38
-0.1124819443 -0.3020007908 0.2728157043 2.348204041e-38
-0.188562721 -0.376285851 0.3075637221 2.348204041e-38
-0.08985629678 -0.4285051823 0.3447707891 2.348204041e-38
-0.1890843958 -0.4136342108 0.3066900969 2.348204041e-38
-0.1889104992 -0.4011847675 0.3069813251 2.348204041e-38
-0.08792103827 -0.3153900206 0.2976589203 2.348204041e-38
-0.1862571985 -0.2621006072 0.2107191831 2.348132155e-38
-0.1892582923 -0.426083684 0.3063989282 2.348132155e-38
-0.1858168542 -0.2369341999 0.1988684237 2.348132155e-38
-0.1622291952 -0.3009237945 0.2598463893 2.348132155e-38
-0.1870565712 -0.3002515435 0.2471450716 2.348132155e-38
-0.1867901087 -0.2875345647 0.2350030988 2.348132155e-38
-0.189432174 -0.4385331273 0.3061076999 2.348132155e-38
-0.07528719306 -0.303142935 0.2980841398 2.348132155e-38
-0.1249418855 -0.3017984331 0.2726816535 2.348060128e-38
-0.1019684672 -0.4034038782 0.3452191353 2.348060128e-38
-0.187323004 -0.3129684925 0.2592870593 2.348060128e-38
-0.1130148545 -0.3274347186 0.2970996499 2.348060128e-38
-0.09003018588 -0.4409545958 0.3444796205 2.348060128e-38
-0.1881223768 -0.3511194289 0.2957129478 2.348060128e-38
-0.186523661 -0.2748175859 0.222861141 2.348060128e-38
-0.1021423563 -0.4158533216 0.3449279666 2.348060128e-38
-0.1875894666 -0.3256854713 0.2714290023 2.347952368e-38
-0.1001145318 -0.3024706841 0.2853829265 2.347952368e-38
-0.1860833019 -0.2496511489 0.2110103816 2.347952368e-38
-0.1878559291 -0.3384024501 0.2835710049 2.347952368e-38
-0.1856429577 -0.2244847268 0.1991596222 2.347952368e-38
-0.1254747957 -0.3272323608 0.2969655991 2.347952368e-38
-0.163028568 -0.3390747309 0.2962722182 2.347952368e-38
-0.1374018639 -0.3015960753 0.2725476027 2.347952368e-38
-0.1003809869 -0.3151876628 0.2975248694 2.347880341e-38
-0.1746891737 -0.3007214367 0.2597123384 2.347880341e-38
-0.1883888394 -0.3638364077 0.3078548908 2.347880341e-38
-0.1023162454 -0.4283027947 0.3446367979 2.347880341e-38
-0.1863497645 -0.2623681128 0.2231523395 2.347880341e-38
-0.1859094203 -0.2372017205 0.2113015801 2.347880341e-38
-0.1257412434 -0.3399493396 0.309107542 2.347880341e-38
-0.08774714917 -0.3029405773 0.297950089 2.347880341e-38
-0.1498618126 -0.3013936877 0.2724135518 2.347808455e-38
-0.1886552721 -0.3765533864 0.3199968934 2.347808455e-38
-0.1144284457 -0.4032015204 0.345085144 2.347808455e-38
-0.1754885465 -0.3388723433 0.2961381674 2.347808455e-38
-0.1125745103 -0.3022682965 0.2852488756 2.347808455e-38
-0.1888291687 -0.3890028298 0.3197057247 2.347808455e-38
-0.08960108459 -0.4038738012 0.3577863574 2.347808455e-38
-0.1861758679 -0.2499186844 0.223443538 2.347808455e-38
-0.08977497369 -0.4163232446 0.3574951887 2.347700555e-38
-0.1857355237 -0.2247522473 0.2115927786 2.347700555e-38
-0.1868826747 -0.2878020704 0.2474362403 2.347700555e-38
-0.1891769469 -0.4139017463 0.3191233277 2.347700555e-38
-0.1893508434 -0.4263512194 0.3188320994 2.347700555e-38
-0.08994886279 -0.4287727177 0.3572039604 2.347700555e-38
-0.186616227 -0.2750851214 0.2352942973 2.347700555e-38
