# .PCD v0.7 - Point Cloud Data file format
VERSION 0.7
FIELDS x y z rgb
SIZE 4 4 4 4
TYPE F F F F
COUNT 1 1 1 1
WIDTH 833
HEIGHT 1
VIEWPOINT 0 0 0 1 0 0 0
POINTS 833
DATA ascii
0.1168208718 -0.2194433957 -0.2576504052 1.423293806e-38
0.3853444755 -0.4909519553 0.0002799741924 1.423293806e-38
-0.09922260791 -0.264052242 0.2365238219 1.423293806e-38
0.09165699035 -0.2555844784 -0.2960916162 1.441624891e-38
0.0907875374 -0.3178317547 -0.2975475788 1.441624891e-38
0.1047311723 -0.2181709558 -0.3075171113 1.441624891e-38
-0.06110490859 -0.3581020534 -0.0513664186 1.441624891e-38
0.09192344546 -0.2428674996 -0.3082335591 1.441624891e-38
0.07876793295 -0.2924630046 -0.3095324039 1.441624891e-38
-0.01233090088 -0.4097794294 -0.002262371592 1.441624891e-38
0.03833077848 -0.396266818 -0.08846712112 1.441624891e-38
0.3728844523 -0.4907495677 0.0001459270716 1.459991851e-38
-0.1007876173 -0.3760973215 0.2339030653 1.459991851e-38
0.1046386063 -0.2184384763 -0.29508394 1.459991851e-38
-0.08615966141 -0.2147243023 0.2502558231 1.459991851e-38
0.4104495049 -0.4908216596 -0.02431823872 1.459991851e-38
0.09153071791 -0.2201087475 -0.2081858218 1.459991851e-38
0.07884926349 -0.2802810371 -0.2968080044 1.459991851e-38
0.3978969753 -0.4908867776 -0.01201913133 1.459991851e-38
-0.08624099195 -0.2269062251 0.2375314683 1.478322936e-38
0.06633307785 -0.2205065489 -0.1711544245 1.478322936e-38
0.1029922739 -0.3426655233 -0.3104290962 1.478322936e-38
0.02587082796 -0.3960644603 -0.08860117197 1.478322936e-38
0.1028997079 -0.3429330289 -0.2979959249 1.478322936e-38
0.1043609157 -0.2192410231 -0.257784456 1.478322936e-38
0.3491342366 -0.4511238337 -0.08628071845 1.478322936e-38
0.0906136483 -0.3302812278 -0.2978387475 1.478322936e-38
0.07897820324 -0.2201738805 -0.1958867162 1.496689755e-38
0.09200476855 -0.2306855917 -0.2955092192 1.496689755e-38
-0.0765632838 -0.4262998998 0.233006373 1.496689755e-38
0.07919704169 -0.2553821206 -0.2962256074 1.496689755e-38
0.07832758874 -0.3176293969 -0.2976816297 1.496689755e-38
0.02551181428 -0.4090489447 -0.06402602792 1.496689755e-38
0.06630793214 -0.292260617 -0.3096664548 1.496689755e-38
0.01341088302 -0.3958620727 -0.08873521537 1.496689755e-38
0.06648182869 -0.2798111439 -0.3093752265 1.515020841e-38
0.06665571779 -0.2673617005 -0.3090840578 1.515020841e-38
0.0794634968 -0.2426651418 -0.30836761 1.515020841e-38
0.06642564386 -0.2202390283 -0.1835875809 1.515020841e-38
0.3984411359 -0.4773672521 -0.06146058068 1.515020841e-38
-0.1118564755 -0.2762993276 0.2360985726 1.515020841e-38
0.3854370415 -0.4906844199 -0.01215317938 1.515020841e-38
-0.08884934336 -0.4136480689 0.2331635207 1.515020841e-38
0.4105420709 -0.4905541539 -0.03675139323 1.533351927e-38
-0.09887482971 -0.2391533256 0.2371062189 1.533351927e-38
-0.03689178079 -0.3963901997 -0.02710557729 1.533351927e-38
0.3492267728 -0.450856328 -0.09871386737 1.533351927e-38
0.06621536613 -0.2925281227 -0.2972332835 1.533351927e-38
0.3979895413 -0.490619272 -0.02445228584 1.533351927e-38
0.3858886361 -0.4774324 -0.04916147515 1.533351927e-38
0.03842333704 -0.3959993124 -0.1009002775 1.533351927e-38
0.07937093079 -0.2429326624 -0.2959344387 1.551683013e-38
0.09217865765 -0.2182361186 -0.2952179909 1.551683013e-38
0.0009508766234 -0.3956597149 -0.08886926621 1.551683013e-38
0.4110862315 -0.4770345986 -0.08619286865 1.551683013e-38
0.07907076925 -0.2199063748 -0.2083198726 1.551683013e-38
0.09208609909 -0.2185036391 -0.2827848196 1.551683013e-38
0.3729770184 -0.4904820323 -0.01228722744 1.551683013e-38
-0.1128998175 -0.3509960473 0.2343514115 1.551683013e-38
0.09199353307 -0.2187711596 -0.2703516483 1.570049832e-38
0.3997145593 -0.44979316 -0.1852098405 1.570049832e-38
0.02596339025 -0.3957969546 -0.1010343209 1.570049832e-38
0.3367668092 -0.4506539702 -0.09884791821 1.570049832e-38
0.06586758792 -0.3174270093 -0.2978156805 1.570049832e-38
-0.01160163246 -0.3957248628 -0.07657016069 1.570049832e-38
0.02560437657 -0.4087814093 -0.07645921409 1.570049832e-38
0.3998071253 -0.4495256245 -0.1976430267 1.570049832e-38
-0.08902323246 -0.426097542 0.2328723222 1.588380918e-38
0.3980821073 -0.4903517663 -0.03688544035 1.588380918e-38
0.06578626484 -0.3296089768 -0.3105400205 1.588380918e-38
-0.1248380914 -0.3134453297 0.2350909561 1.588380918e-38
0.05436965823 -0.2547098696 -0.3089268804 1.588380918e-38
-0.1132475957 -0.3758949637 0.2337690145 1.588380918e-38
-0.04944431782 -0.3964553475 -0.01480647177 1.588380918e-38
-0.1250119805 -0.325894773 0.2347997576 1.588380918e-38
0.3614202738 -0.4637756646 -0.08643786609 1.606712004e-38
0.07797981054 -0.3425282836 -0.2982640266 1.606712004e-38
0.06569369882 -0.3298764825 -0.2981068492 1.606712004e-38
0.3117543161 -0.4505167305 -0.08668285608 1.606712004e-38
0.0006844233721 -0.4083766639 -0.07672730833 1.606712004e-38
-0.09852705151 -0.2142544091 0.2376886159 1.606712004e-38
0.0794410184 -0.2188362926 -0.2580525279 1.606712004e-38
0.05454354733 -0.2422603965 -0.3086357117 1.606712004e-38
0.373521179 -0.4769625068 -0.06172867492 1.625043089e-38
-0.08919712156 -0.4385469556 0.2325811237 1.625043089e-38
-0.03670665249 -0.3958551586 -0.05197191611 1.625043089e-38
0.06561237574 -0.3420584202 -0.3108311892 1.625043089e-38
0.3987188041 -0.4765647054 -0.09876007587 1.625043089e-38
-0.03725079447 -0.4093746841 -0.002530466765 1.625043089e-38
0.05415081978 -0.2195016295 -0.2085879743 1.625043089e-38
0.05471743643 -0.2298109531 -0.3083444834 1.625043089e-38
0.01323699392 -0.408311516 -0.08902641386 1.643374035e-38
-0.02406157926 -0.3955224752 -0.07670420408 1.643374035e-38
-0.1135953814 -0.4007938802 0.2331866175 1.643374035e-38
0.3982672393 -0.4898167253 -0.06175177917 1.643374035e-38
0.05426585674 -0.2430629581 -0.2713361979 1.643374035e-38
0.06716614962 -0.2180988938 -0.2830529213 1.643374035e-38
0.3857147396 -0.4898818731 -0.04945266992 1.643374035e-38
-0.1238873079 -0.2390161008 0.2492712885 1.643374035e-38
-0.1239686385 -0.2511980534 0.2365469187 1.661705121e-38
0.05489132553 -0.21736148 -0.3080533147 1.661705121e-38
-0.01141650695 -0.3951898515 -0.101436466 1.661705121e-38
-0.1014831811 -0.4258951545 0.2327382714 1.661705121e-38
0.3994480968 -0.4625101388 -0.1730678827 1.661705121e-38
0.05443974584 -0.2306135148 -0.2710449696 1.661705121e-38
-0.1371241808 -0.3007935286 0.2352481037 1.661705121e-38
-0.1257075369 -0.375692606 0.2336349636 1.661705121e-38
-0.1369502842 -0.2883440554 0.2355393022 1.680036207e-38
-0.06181170791 -0.3959854543 -0.02737367339 1.680036207e-38
-0.11098703 -0.2140520364 0.2375545651 1.680036207e-38
0.3858073056 -0.4896143675 -0.06188582629 1.680036207e-38
0.05470620096 -0.2178965211 -0.2831869721 1.680036207e-38
-0.02432803251 -0.408239454 -0.0645622164 1.680036207e-38
-0.1376458555 -0.3381418586 0.2343745083 1.680036207e-38
0.0008695479482 -0.4078416526 -0.1015936136 1.680036207e-38
0.3984523714 -0.4892816842 -0.08661811799 1.698367293e-38
-0.0617191419 -0.3957179487 -0.0398068279 1.698367293e-38
-0.1235395297 -0.2141171992 0.2498536855 1.698367293e-38
-0.12605533 -0.4005915225 0.2330525666 1.698367293e-38
-0.1378197372 -0.3505913019 0.2340833098 1.698367293e-38
0.3733472824 -0.4894119799 -0.06201987341 1.698367293e-38
0.3115804195 -0.4629662037 -0.08697405457 1.698367293e-38
0.3613389134 -0.4759576023 -0.0991622135 1.698367293e-38
0.3985449076 -0.4890141785 -0.09905126691 1.716698239e-38
-0.02423547022 -0.4079719186 -0.07699540257 1.716698239e-38
0.3487864435 -0.4760227501 -0.08686310798 1.716698239e-38
-0.1379936337 -0.3630407751 0.2337921113 1.716698239e-38
0.3859924376 -0.4890793264 -0.08675216138 1.716698239e-38
-0.1495841295 -0.300591141 0.2351140529 1.716698239e-38
0.3116729558 -0.462698698 -0.09940721095 1.716698239e-38
-0.1139431596 -0.4256927967 0.2326042205 1.716698239e-38
-0.1499319077 -0.3254900277 0.2345316559 1.735029324e-38
-0.1233656332 -0.201667726 0.2501448989 1.735029324e-38
-0.1361733973 -0.2263642699 0.2494284362 1.735029324e-38
0.3986374736 -0.4887466431 -0.1114844531 1.735029324e-38
-0.04898150265 -0.3951177597 -0.07697230577 1.735029324e-38
0.3992742002 -0.4749595821 -0.1733590811 1.735029324e-38
-0.1108634248 -0.3451106548 -0.03917822987 1.735029324e-38
-0.1105969772 -0.332393676 -0.05132021755 1.735029324e-38
0.3987300396 -0.4884791374 -0.1239176095 1.75336041e-38
0.3735324144 -0.4888769388 -0.08688621223 1.75336041e-38
-0.1488072425 -0.2386113703 0.2490031868 1.75336041e-38
0.3364190161 -0.4755528569 -0.0994303152 1.75336041e-38
-0.1488885581 -0.250793308 0.2362788469 1.75336041e-38
0.2241868228 -0.4739990532 -0.08820358664 1.75336041e-38
-0.1359069496 -0.213647306 0.2372864634 1.75336041e-38
-0.1506274641 -0.3752878606 0.2333668619 1.75336041e-38
0.2366467714 -0.4742014408 -0.08806954324 1.771655483e-38
0.3736249506 -0.4886094332 -0.0993193686 1.771655483e-38
-0.1622179598 -0.3128382266 0.2346888036 1.771655483e-38
-0.1620440781 -0.3003887832 0.234980002 1.771655483e-38
-0.148633346 -0.2261618972 0.2492943853 1.771655483e-38
0.3610724807 -0.4886745811 -0.08702026308 1.771655483e-38
0.3862701058 -0.4882767797 -0.1240516528 1.771655483e-38
0.311406523 -0.475415647 -0.08726525307 1.771655483e-38
-0.03660285473 -0.4075020552 -0.08956260234 1.789986569e-38
-0.1615224034 -0.2630403936 0.2358535975 1.789986569e-38
-0.1357330531 -0.2011978328 0.2375776619 1.789986569e-38
-0.1484594643 -0.2137124538 0.2495855838 1.789986569e-38
-0.1104118526 -0.3318586349 -0.07618655264 1.789986569e-38
0.3611650169 -0.4884070754 -0.099453412 1.789986569e-38
-0.1485407799 -0.2258943766 0.2368612438 1.789986569e-38
-0.1230569184 -0.3321913183 -0.05145426467 1.789986569e-38
0.3863626719 -0.4880092442 -0.1364848316 1.808317654e-38
0.3486125469 -0.4884722233 -0.08715430647 1.808317654e-38
0.3114990592 -0.4751481414 -0.09969840944 1.808317654e-38
-0.1386891901 -0.4128385782 0.2326273173 1.808317654e-38
0.3738100827 -0.4880743921 -0.1241857037 1.808317654e-38
-0.03651029244 -0.4072345495 -0.1019957587 1.808317654e-38
-0.1630874127 -0.3750855029 0.2332328111 1.808317654e-38
-0.17433016 -0.2877369523 0.2351371497 1.808317654e-38
-0.1611746252 -0.2381414771 0.2364359945 1.826612727e-38
-0.04906283319 -0.4072996974 -0.08969665319 1.826612727e-38
0.3613501489 -0.4878720343 -0.1243197545 1.826612727e-38
0.3487976491 -0.4879371822 -0.112020649 1.826612727e-38
0.3112326264 -0.4878651202 -0.08755645156 1.826612727e-38
-0.09758161753 -0.3309909701 -0.1257851422 1.826612727e-38
-0.1610007286 -0.225692004 0.236727193 1.826612727e-38
0.2489328384 -0.4868532717 -0.08822669089 1.826612727e-38
-0.1102267206 -0.3313236237 -0.1010528654 1.844943813e-38
0.2987726927 -0.4876627326 -0.08769050241 1.844943813e-38
-0.1511491388 -0.4126362205 0.2324932665 1.844943813e-38
0.2613928318 -0.4870556295 -0.08809264004 1.844943813e-38
0.1866330355 -0.4858414233 -0.08889693022 1.844943813e-38
-0.1390369684 -0.4377374947 0.2320449203 1.844943813e-38
-0.175199613 -0.3499841988 0.2336811572 1.844943813e-38
-0.1634351909 -0.3999843895 0.2326504141 1.844943813e-38
0.3614427149 -0.4876044989 -0.1367529333 1.863274899e-38
0.2116455585 -0.485978663 -0.1010619849 1.863274899e-38
0.2365654111 -0.4863834083 -0.1007938907 1.863274899e-38
0.1741730869 -0.4856390655 -0.08903098106 1.863274899e-38
0.3113251626 -0.4875976145 -0.09998960793 1.863274899e-38
0.1991856098 -0.4857762754 -0.1011960357 1.863274899e-38
-0.110134162 -0.3310560882 -0.1134860441 1.863274899e-38
-0.1757212877 -0.3873325586 0.2328075618 1.863274899e-38
0.1617131531 -0.4854366779 -0.08916502446 1.881569971e-38
-0.1354243308 -0.3317214251 -0.06402146816 1.881569971e-38
0.1492532045 -0.4852343202 -0.08929907531 1.881569971e-38
-0.1869640052 -0.2999840379 0.2347119004 1.881569971e-38
0.2864052653 -0.4871928692 -0.1002577022 1.881569971e-38
-0.1606529504 -0.2007931024 0.23730959 1.881569971e-38
-0.1873117834 -0.3248829246 0.2341295034 1.881569971e-38
0.1243332475 -0.4848295748 -0.08956716955 1.881569971e-38
0.2739453316 -0.4869905114 -0.1003917456 1.899901057e-38
0.2241980731 -0.4859134853 -0.1133611277 1.899901057e-38
-0.1734607071 -0.2254896462 0.2365931422 1.899901057e-38
0.1742656529 -0.4853715599 -0.10146413 1.899901057e-38
-0.110041596 -0.3307885826 -0.125919193 1.899901057e-38
0.1992781758 -0.4855087399 -0.1136292219 1.899901057e-38
-0.151496917 -0.4375351369 0.2319108695 1.899901057e-38
0.1618057191 -0.4851691723 -0.1015981808 1.899901057e-38
0.3365228176 -0.4871997535 -0.137021035 1.91819627e-38
0.3870106041 -0.4861366153 -0.2235169858 1.91819627e-38
-0.1479768455 -0.3317865729 -0.05172235891 1.91819627e-38
0.2864978313 -0.4869253337 -0.1126908883 1.91819627e-38
-0.1482432932 -0.3445035517 -0.03958037496 1.91819627e-38
0.3871031702 -0.4858691096 -0.235950157 1.91819627e-38
-0.1862684339 -0.2501862049 0.2358766943 1.91819627e-38
-0.1607144922 -0.3323867619 -0.01455691457 1.91819627e-38
0.2242906243 -0.4856459796 -0.1257942766 1.936527215e-38
-0.1758951694 -0.3997820318 0.2325163633 1.936527215e-38
0.2118306756 -0.4854436219 -0.1259283274 1.936527215e-38
0.1244258136 -0.4845620692 -0.1020003259 1.936527215e-38
0.2492105067 -0.486050725 -0.1255261898 1.936527215e-38
0.3743654788 -0.4864692688 -0.1987847239 1.936527215e-38
0.1743582189 -0.4851040244 -0.1138973162 1.936527215e-38
0.361627847 -0.4870694578 -0.161619246 1.936527215e-38
0.2386606932 -0.4444872141 -0.3112841249 1.954822428e-38
-0.1860945523 -0.2377367467 0.2361678928 1.954822428e-38
0.1993707269 -0.4852412343 -0.1260623634 1.954822428e-38
-0.1878334582 -0.3622313142 0.2332559079 1.954822428e-38
-0.1608883739 -0.3448362052 -0.01484811213 1.954822428e-38
-0.1731129289 -0.2005907297 0.2371755391 1.954822428e-38
-0.1352392137 -0.331186384 -0.08888780326 1.954822428e-38
-0.1881812364 -0.3871302009 0.2326735109 1.954822428e-38
-0.1478842944 -0.3315190673 -0.06415551901 1.973153514e-38
0.1618982852 -0.4849016368 -0.114031367 1.973153514e-38
-0.1516708136 -0.4499845803 0.231619671 1.973153514e-38
0.361720413 -0.4868019521 -0.1740524322 1.973153514e-38
0.3116028607 -0.486795038 -0.1372891366 1.973153514e-38
0.3366153836 -0.4869322479 -0.1494541913 1.973153514e-38
-0.1992500871 -0.287332207 0.234869048 1.973153514e-38
0.2368431091 -0.4855808318 -0.1380934119 1.973153514e-38
-0.1994239837 -0.2997816801 0.2345778495 1.991448586e-38
-0.1990762055 -0.2748827636 0.2351602465 1.991448586e-38
-0.1859206557 -0.2252872735 0.2364590913 1.991448586e-38
0.374735713 -0.4853992164 -0.2485173643 1.991448586e-38
0.3491679132 -0.4868671 -0.1617532969 1.991448586e-38
-0.1989023089 -0.2624332905 0.235451445 1.991448586e-38
-0.148058176 -0.3439685106 -0.06444671005 1.991448586e-38
0.2617630661 -0.4859855473 -0.1378253102 1.991448586e-38
-0.1760690659 -0.4122314751 0.2322251797 2.009743799e-38
-0.1225015372 -0.3305862248 -0.1260532439 2.009743799e-38
0.3241554499 -0.4867298901 -0.1495882273 2.009743799e-38
0.2866829634 -0.4863902926 -0.1375572234 2.009743799e-38
0.2742230296 -0.4861879349 -0.1376912743 2.009743799e-38
-0.1987284124 -0.2499838322 0.2357426435 2.009743799e-38
0.3367079496 -0.4866647124 -0.1618873328 2.009743799e-38
-0.188355118 -0.399579674 0.2323823124 2.009743799e-38
-0.1609697044 -0.3570181727 -0.0275724642 2.028074885e-38
-0.2004673183 -0.3744783998 0.2328306586 2.028074885e-38
-0.1731744707 -0.3321843743 -0.01469096262 2.028074885e-38
0.361998111 -0.4859994054 -0.2113519162 2.028074885e-38
0.3623683453 -0.4849293232 -0.2610846162 2.028074885e-38
0.1246109307 -0.4840270281 -0.1268666685 2.028074885e-38
-0.1762429625 -0.4246809483 0.2319339812 2.028074885e-38
0.174543336 -0.4845689833 -0.1387636513 2.028074885e-38
-0.1855728775 -0.200388357 0.2370414883 2.046369957e-38
0.2369356751 -0.4853133261 -0.1505265683 2.046369957e-38
0.2493956387 -0.4855156839 -0.1503925174 2.046369957e-38
-0.2122317106 -0.3244781792 0.2338614017 2.046369957e-38
-0.212057814 -0.3120287359 0.2341526002 2.046369957e-38
-0.1350540817 -0.3306513429 -0.1137541458 2.046369957e-38
0.1620834023 -0.4843665957 -0.1388977021 2.046369957e-38
0.3242480159 -0.4864623547 -0.1620213836 2.046369957e-38
-0.2117100358 -0.2871298492 0.2347349972 2.06466517e-38
0.2618556321 -0.4857180417 -0.1502584666 2.06466517e-38
-0.1983806342 -0.2250849009 0.2363250405 2.06466517e-38
-0.1729893386 -0.331649363 -0.03955727071 2.06466517e-38
-0.1764168441 -0.4371303916 0.2316427827 2.06466517e-38
-0.2125794888 -0.3493770957 0.2332790047 2.06466517e-38
-0.1885290146 -0.4120291173 0.2320911288 2.06466517e-38
0.1870958507 -0.4845038354 -0.1510627568 2.06466517e-38
0.3117879927 -0.4862599969 -0.1621554345 2.082996116e-38
0.1247034967 -0.4837594926 -0.1392998397 2.082996116e-38
-0.2131011635 -0.3867254555 0.232405439 2.082996116e-38
-0.16105102 -0.3692001104 -0.04029681534 2.082996116e-38
0.3499084115 -0.4847269654 -0.2612186372 2.082996116e-38
-0.160251677 -0.3310491741 -0.07672274113 2.082996116e-38
-0.212927267 -0.3742760122 0.2326966077 2.082996116e-38
-0.2371628433 -0.3121590316 0.2587508559 2.082996116e-38
-0.1476065964 -0.3307165205 -0.101455003 2.101291328e-38
-0.2373367399 -0.324608475 0.2584596872 2.101291328e-38
-0.1982067525 -0.2126354575 0.236616239 2.101291328e-38
-0.2368150651 -0.2872601151 0.2593332529 2.101291328e-38
0.174635902 -0.4843014777 -0.1511968076 2.101291328e-38
0.3497232795 -0.4852620065 -0.2363523096 2.101291328e-38
-0.211188361 -0.2497814447 0.2356085926 2.101291328e-38
-0.2375106364 -0.3370579481 0.2581684589 2.101291328e-38
0.2245683223 -0.4848434031 -0.1630937755 2.119586541e-38
-0.2246916443 -0.3242758214 0.2337273508 2.119586541e-38
-0.2245177478 -0.3118263781 0.2340185493 2.119586541e-38
0.1499824673 -0.4711797237 -0.1636068523 2.119586541e-38
-0.1887029111 -0.4244785905 0.2317999303 2.119586541e-38
0.3118805587 -0.4859924912 -0.1745886207 2.119586541e-38
-0.1765907407 -0.4495798349 0.2313515842 2.119586541e-38
-0.2248655409 -0.3367252946 0.2334361523 2.119586541e-38
-0.2241699696 -0.2869274616 0.2346009463 2.137881613e-38
-0.1604255587 -0.3434986174 -0.07701393962 2.137881613e-38
0.2619481981 -0.4854505062 -0.162691623 2.137881613e-38
-0.2376845181 -0.3495073915 0.2578772902 2.137881613e-38
0.1621759683 -0.4840990901 -0.1513308585 2.137881613e-38
-0.198032856 -0.2001859844 0.2369074374 2.137881613e-38
-0.2364672869 -0.2623611987 0.2599156499 2.137881613e-38
0.2868680954 -0.4858552516 -0.1624235362 2.137881613e-38
0.2744081616 -0.4856528938 -0.1625575721 2.156176826e-38
-0.2372441888 -0.3243409693 0.2460264713 2.156176826e-38
-0.2250394225 -0.3491747379 0.2331449836 2.156176826e-38
-0.2380322963 -0.3744062781 0.2572948933 2.156176826e-38
-0.1728042215 -0.3311143219 -0.0644236058 2.156176826e-38
-0.2382061929 -0.3868557215 0.2570037246 2.156176826e-38
-0.2378584146 -0.3619568348 0.257586062 2.156176826e-38
-0.236722514 -0.2869926095 0.2469000667 2.156176826e-38
0.1497160196 -0.4838967323 -0.1514649093 2.174471899e-38
-0.2238221914 -0.2620285451 0.2351833433 2.174471899e-38
-0.1888767928 -0.4369280338 0.2315087318 2.174471899e-38
0.2371208072 -0.484778285 -0.1753929108 2.174471899e-38
-0.1612249166 -0.3816495538 -0.04058801383 2.174471899e-38
-0.2492750138 -0.2870577276 0.2591992021 2.174471899e-38
0.2869606614 -0.4855877459 -0.1748567224 2.174471899e-38
-0.2499705851 -0.3368555605 0.2580344677 2.174471899e-38
0.3373558819 -0.4847921133 -0.2489195019 2.192767111e-38
-0.1603329927 -0.3432311118 -0.08944709599 2.192767111e-38
-0.185715735 -0.3441639543 -0.02754936181 2.192767111e-38
0.3371707499 -0.4853271246 -0.2240531743 2.192767111e-38
-0.2011628896 -0.4242762029 0.2316658795 2.192767111e-38
-0.1729781032 -0.3435637653 -0.06471480429 2.192767111e-38
-0.2236482948 -0.2495790869 0.2354745418 2.192767111e-38
0.299513191 -0.485522598 -0.1871558279 2.192767111e-38
0.2135668993 -0.4565319419 -0.3118433952 2.211062324e-38
-0.2501444817 -0.3493050039 0.2577432394 2.211062324e-38
-0.2489272356 -0.2621588409 0.259781599 2.211062324e-38
-0.160066545 -0.3305141628 -0.1015890539 2.211062324e-38
-0.2106667012 -0.2124330997 0.2364821881 2.211062324e-38
-0.2383800745 -0.3993051946 0.2567124963 2.211062324e-38
-0.1853567213 -0.3311794698 -0.052124504 2.211062324e-38
0.2372133732 -0.4845107794 -0.1878260672 2.211062324e-38
-0.1856231689 -0.3438964486 -0.03998251632 2.229357396e-38
-0.1981869638 -0.3320471942 -0.002525905147 2.229357396e-38
0.2870532274 -0.4853202403 -0.1872898638 2.229357396e-38
0.2745932937 -0.4851178825 -0.1874239147 2.229357396e-38
0.1872809827 -0.4839687943 -0.1759290993 2.229357396e-38
-0.249878034 -0.3365880549 0.2456012219 2.229357396e-38
-0.2370590568 -0.3238059282 0.2211601585 2.229357396e-38
-0.2234744132 -0.2371296436 0.2357657403 2.229357396e-38
-0.2368851602 -0.3113564849 0.221451357 2.247652609e-38
-0.2013367712 -0.4367256463 0.231374681 2.247652609e-38
0.2122934908 -0.484106034 -0.188094154 2.247652609e-38
-0.1983608454 -0.3444966376 -0.002817101777 2.247652609e-38
-0.2367112786 -0.2989070415 0.2217425555 2.247652609e-38
0.1498085856 -0.4836291969 -0.1638980508 2.247652609e-38
0.3249885142 -0.4843222201 -0.2614867389 2.247652609e-38
-0.2359456122 -0.2250128388 0.2607892752 2.247652609e-38
-0.2500519156 -0.3490374982 0.2453100234 2.265947681e-38
-0.1728855371 -0.3432962298 -0.07714799047 2.265947681e-38
-0.1980943978 -0.3317796588 -0.01495905872 2.265947681e-38
-0.236537382 -0.2864575684 0.222033754 2.265947681e-38
-0.2488346845 -0.2618913352 0.2473484129 2.265947681e-38
-0.237406835 -0.3487048447 0.2205777615 2.265947681e-38
0.1748210341 -0.4837664366 -0.1760631502 2.265947681e-38
0.3247108161 -0.4851247668 -0.2241872251 2.265947681e-38
-0.2494376749 -0.3114216328 0.2337504774 2.284242894e-38
-0.2496115714 -0.3238710761 0.2334592789 2.284242894e-38
0.2383129001 -0.4693861306 -0.3118665218 2.284242894e-38
-0.159973979 -0.3302466273 -0.11402224 2.284242894e-38
0.1998335421 -0.4839036465 -0.1882282048 2.284242894e-38
-0.1855306029 -0.3436289132 -0.05241569877 2.284242894e-38
-0.2502258122 -0.3614869714 0.2450188249 2.284242894e-38
-0.2369664907 -0.3235384226 0.2087270021 2.284242894e-38
0.2497659028 -0.4844456017 -0.2001252025 2.302537966e-38
-0.2375807315 -0.3611542881 0.220286563 2.302537966e-38
0.3248033822 -0.4848572612 -0.2366203964 2.302537966e-38
0.2622258961 -0.4846479595 -0.1999911517 2.302537966e-38
-0.2503997087 -0.3739364147 0.2447276264 2.302537966e-38
0.312621057 -0.4838523567 -0.2740539312 2.302537966e-38
-0.2490898967 -0.2865227163 0.2343328744 2.302537966e-38
-0.1980018318 -0.3315121531 -0.0273922123 2.302537966e-38
-0.2379285097 -0.3860531747 0.219704181 2.320833179e-38
0.1248886287 -0.4832244515 -0.1641661525 2.320833179e-38
0.1502601504 -0.470377177 -0.200906381 2.320833179e-38
0.2373059392 -0.4842432439 -0.2002592385 2.320833179e-38
-0.2377546132 -0.3736037314 0.2199953645 2.320833179e-38
0.1623611003 -0.483564049 -0.176197201 2.320833179e-38
-0.2361896038 -0.2615586519 0.222616151 2.320833179e-38
0.1873735338 -0.4837012887 -0.1883622557 2.320833179e-38
-0.2015106678 -0.4491750896 0.2310834825 2.339092378e-38
-0.2366187125 -0.2986395359 0.2093093991 2.339092378e-38
-0.2499593496 -0.3487699926 0.232876882 2.339092378e-38
-0.1981757134 -0.3439615965 -0.02768341079 2.339092378e-38
0.2123860568 -0.4838384986 -0.2005273402 2.339092378e-38
-0.2368739247 -0.3232708871 0.1962938607 2.339092378e-38
-0.1727929711 -0.3430287242 -0.08958114684 2.339092378e-38
-0.1979092658 -0.3312446475 -0.03982536495 2.339092378e-38
-0.2487421185 -0.2616238296 0.2349152416 2.348204041e-38
-0.2367000282 -0.3108214438 0.1965850443 2.348204041e-38
-0.2495190054 -0.3236035407 0.2210261077 2.348204041e-38
0.1886469424 -0.4561271966 -0.3121114969 2.348204041e-38
0.312250793 -0.4849224091 -0.224321261 2.348204041e-38
0.1749135852 -0.4834989309 -0.1884963065 2.348204041e-38
-0.2365261465 -0.2983720005 0.1968762428 2.348204041e-38
-0.2360157073 -0.2491091937 0.2229073495 2.348204041e-38
-0.2484055609 -0.2248104662 0.2606552243 2.348132155e-38
-0.2378359437 -0.3857856691 0.2072710246 2.348132155e-38
-0.1598814279 -0.3299791217 -0.1264553964 2.348132155e-38
-0.2489973307 -0.2862551808 0.2218997031 2.348132155e-38
-0.2387278676 -0.4242041111 0.2561300993 2.348132155e-38
-0.1851716042 -0.3306444287 -0.07699084282 2.348132155e-38
-0.2484869063 -0.2369924188 0.2479308099 2.348132155e-38
-0.2498667836 -0.3485024571 0.2204437256 2.348132155e-38
-0.23635225 -0.2859225273 0.1971674412 2.348060128e-38
0.2872383595 -0.4847851992 -0.2121562064 2.348060128e-38
-0.1980831474 -0.3436940908 -0.04011656344 2.348060128e-38
-0.2360970378 -0.2612911463 0.2101829946 2.348060128e-38
-0.2366074771 -0.3105539382 0.1841518432 2.348060128e-38
-0.226082772 -0.4238714874 0.2313977778 2.348060128e-38
-0.1978166997 -0.3309771121 -0.05225855112 2.348060128e-38
0.1624536514 -0.4832965434 -0.1886303425 2.348060128e-38
0.2747784257 -0.4845828414 -0.2122902572 2.347952368e-38
-0.2494264394 -0.323336035 0.2085929662 2.347952368e-38
-0.2229527384 -0.1997812539 0.2366393358 2.347952368e-38
0.312343359 -0.4846549034 -0.2367544472 2.347952368e-38
-0.2361783683 -0.273473084 0.1974586397 2.347952368e-38
-0.2500406802 -0.3609519303 0.2201525271 2.347952368e-38
0.312435925 -0.4843873978 -0.2491876036 2.347952368e-38
-0.1600553095 -0.342428565 -0.1267465949 2.347952368e-38
-0.249600336 -0.3357855082 0.2083017677 2.347880341e-38
-0.2368627042 -0.335185349 0.1711362898 2.347880341e-38
-0.2486495525 -0.2613562942 0.2224821001 2.347880341e-38
-0.2502145767 -0.3734013736 0.2198613286 2.347880341e-38
-0.2375694811 -0.3730686903 0.1951290667 2.347880341e-38
0.2124786228 -0.4835709929 -0.2129604965 2.347880341e-38
-0.2373030484 -0.3603517413 0.1829870492 2.347880341e-38
-0.2377433777 -0.3855181336 0.1948378682 2.347880341e-38
-0.2362596989 -0.2856550217 0.1847342402 2.347808455e-38
0.1750061512 -0.4832313955 -0.2009294778 2.347808455e-38
-0.1853454858 -0.3430938721 -0.07728204131 2.347808455e-38
-0.2483130097 -0.2245429456 0.2482220083 2.347808455e-38
-0.2386353165 -0.4239366055 0.2436968833 2.347808455e-38
-0.2359231412 -0.248841688 0.2104741931 2.347808455e-38
-0.2363410294 -0.2978369892 0.1720098853 2.347808455e-38
0.1375337541 -0.4828918278 -0.1888984442 2.347808455e-38
-0.2389017493 -0.4366535544 0.2558389306 2.347700555e-38
-0.2483943403 -0.2367248982 0.2354976386 2.347700555e-38
-0.1739513427 -0.394164145 -0.02858010493 2.347700555e-38
-0.2499481142 -0.3606844246 0.2077193707 2.347700555e-38
-0.250654906 -0.3985678256 0.231712088 2.347700555e-38
0.2000186741 -0.4833686054 -0.2130945474 2.347700555e-38
-0.2495077699 -0.3355179727 0.1958686113 2.347700555e-38
0.2873308957 -0.4845176637 -0.2245893627 2.347700555e-38
0.1250737458 -0.4826894403 -0.189032495 2.347628668e-38
0.1625462174 -0.4830290079 -0.2010635287 2.347628668e-38
0.2629663944 -0.4825078249 -0.2994564772 2.347628668e-38
-0.2376508266 -0.385250628 0.1824046522 2.347628668e-38
-0.2489860952 -0.2981696129 0.1967422068 2.347628668e-38
-0.2492413223 -0.3228009939 0.1837265939 2.347628668e-38
-0.2501220107 -0.373133868 0.2074281722 2.347628668e-38
-0.2104617804 -0.3313097656 -0.02752625942 2.347628668e-38
-0.2359932512 -0.2729380727 0.1725922823 2.347520768e-38
0.2748709619 -0.4843153059 -0.2247234136 2.347520768e-38
0.1504452825 -0.4698421359 -0.2257726938 2.347520768e-38
-0.2360745668 -0.2851199806 0.1598679274 2.347520768e-38
-0.2511878312 -0.4240017533 0.2559960485 2.347520768e-38
-0.2382762879 -0.4109520912 0.219121784 2.347520768e-38
-0.2490674257 -0.3103515506 0.1840177923 2.347520768e-38
0.1500862688 -0.4828266501 -0.2011975795 2.347520768e-38
-0.1738587767 -0.3938966393 -0.04101325944 2.347448882e-38
-0.2359006852 -0.2726705372 0.1601591259 2.347448882e-38
-0.1726078391 -0.3424936831 -0.1144474819 2.347448882e-38
-0.2358193547 -0.2604885995 0.1728834808 2.347448882e-38
-0.2482204437 -0.2242754251 0.2357888371 2.347448882e-38
-0.2359820008 -0.2848524749 0.1474347711 2.347448882e-38
-0.2390756458 -0.4491029978 0.2555477023 2.347448882e-38
-0.2375582606 -0.3849831223 0.1699714959 2.347448882e-38
-0.248638317 -0.2732706964 0.1973245889 2.347340982e-38
0.1376263201 -0.4826242924 -0.2013316303 2.347340982e-38
0.2125711888 -0.4833034575 -0.2253936529 2.347340982e-38
-0.249762997 -0.3601493835 0.1828529984 2.347340982e-38
-0.2357267886 -0.2602210641 0.1604503244 2.347340982e-38
-0.2358081192 -0.2724030316 0.1477259696 2.347340982e-38
0.2876085937 -0.483715117 -0.2618888617 2.347340982e-38
0.275241226 -0.4832452536 -0.2744560838 2.347340982e-38
0.2628738284 -0.4827753305 -0.2870233059 2.347269095e-38
-0.2508288026 -0.4110172689 0.2314208895 2.347269095e-38
0.2625035644 -0.4838454127 -0.2372906357 2.347269095e-38
-0.2484644204 -0.2608212531 0.1976157874 2.347269095e-38
0.2381390035 -0.4818356037 -0.3121577501 2.347269095e-38
0.1251663119 -0.4824219048 -0.2014656812 2.347269095e-38
-0.2479652315 -0.199644044 0.2488044053 2.347269095e-38
-0.2357155532 -0.2721354961 0.1352928132 2.347269095e-38
0.2001112401 -0.4831010699 -0.2255276889 2.347161195e-38
-0.2384501845 -0.4234015644 0.2188305855 2.347161195e-38
-0.2485457659 -0.2730031908 0.1848913878 2.347161195e-38
0.2375836074 -0.4834406972 -0.2375587374 2.347161195e-38
-0.2480465621 -0.2118259817 0.2360800356 2.347161195e-38
0.2750560939 -0.4837802947 -0.2495897412 2.347161195e-38
-0.2231068462 -0.3316424489 -0.00279400032 2.347161195e-38
0.1501788348 -0.4825591445 -0.2136307359 2.347161195e-38
-0.250469774 -0.3980327845 0.2068457752 2.347089308e-38
-0.2389830947 -0.4488354921 0.2431144863 2.347089308e-38
-0.2356230021 -0.2718679905 0.1228595972 2.347089308e-38
-0.2353201509 -0.1993113607 0.2240721434 2.347089308e-38
-0.2483718693 -0.2605537474 0.1851825863 2.347089308e-38
-0.2484531999 -0.2727356851 0.1724582314 2.347089308e-38
0.1876512319 -0.4828987122 -0.2256617397 2.347089308e-38
-0.235482797 -0.223675251 0.1986234337 2.347089308e-38
-0.2354014814 -0.2114933282 0.2113477886 2.346981408e-38
-0.2482092083 -0.236189872 0.2106313407 2.346981408e-38
-0.2354715765 -0.2355896831 0.1734658629 2.346981408e-38
0.2256790698 -0.4816332161 -0.3122917414 2.346981408e-38
0.2380464375 -0.4821031094 -0.2997245789 2.346981408e-38
-0.2510026991 -0.423466742 0.231129691 2.346981408e-38
-0.2380911559 -0.4104170501 0.1942554712 2.346981408e-38
0.1506303996 -0.4693071246 -0.2506390214 2.346981408e-38
-0.2230142802 -0.3313749135 -0.0152271539 2.346909522e-38
-0.2512691617 -0.436183691 0.243271634 2.346909522e-38
0.1760130972 -0.4683742821 -0.3125367761 2.346909522e-38
-0.2478726655 -0.1993765235 0.2363712341 2.346909522e-38
0.1751912832 -0.4826963544 -0.2257957906 2.346909522e-38
-0.2484419495 -0.2846500874 0.1473007202 2.346909522e-38
-0.250377208 -0.397765249 0.1944126189 2.346909522e-38
-0.2515355945 -0.44890064 0.2554136515 2.346909522e-38
0.2252162546 -0.482970804 -0.2501259446 2.346801622e-38
0.250321269 -0.4828405082 -0.2747241855 2.346801622e-38
-0.2479539961 -0.2115584612 0.2236468941 2.346801622e-38
-0.2356930822 -0.2959643602 0.08497773856 2.346801622e-38
-0.2352864444 -0.2350546569 0.148599565 2.346801622e-38
-0.2352976799 -0.2231402099 0.1737570614 2.346801622e-38
-0.23543787 -0.2713329494 0.09799329191 2.346801622e-38
0.1627313495 -0.4824939668 -0.2259298414 2.346801622e-38
0.1632754803 -0.4689744413 -0.2753713131 2.346693862e-38
-0.2355191857 -0.2835148871 0.08526893705 2.346693862e-38
-0.2483493835 -0.2843825519 0.1348675638 2.346693862e-38
0.2255865186 -0.4819007218 -0.2998586297 2.346693862e-38
-0.2356818467 -0.3078787625 0.05982017517 2.346693862e-38
0.2127563059 -0.4827684462 -0.2502599955 2.346693862e-38
-0.2481054068 -0.2478367537 0.1730406284 2.346693862e-38
0.2378613055 -0.4826381505 -0.2748582363 2.346693862e-38
0.1877437979 -0.4826312065 -0.2380949259 2.346621835e-38
-0.2509101331 -0.4231992066 0.2186965346 2.346621835e-38
-0.2351938784 -0.2347871363 0.1361664087 2.346621835e-38
0.1502714008 -0.482291609 -0.2260638922 2.346621835e-38
-0.2477800995 -0.1991090029 0.2239380926 2.346621835e-38
-0.2480240911 -0.2356548309 0.1857649684 2.346621835e-38
-0.2385315001 -0.4355835021 0.2061062306 2.346621835e-38
-0.2351350188 -0.1987763345 0.1992058307 2.346621835e-38
-0.2482568324 -0.2841150463 0.1224343479 2.346514075e-38
-0.2100915313 -0.3302396834 -0.07725893706 2.346514075e-38
0.2002963573 -0.4825660586 -0.2503940463 2.346514075e-38
-0.2351125479 -0.2226051837 0.1488907635 2.346514075e-38
0.2128488719 -0.4825009108 -0.2626931667 2.346514075e-38
0.1378114522 -0.4820892513 -0.2261979282 2.346514075e-38
-0.2351013273 -0.2345196158 0.1237331927 2.346514075e-38
-0.2353340685 -0.282979846 0.06040257215 2.346514075e-38
-0.2485008091 -0.3206608593 0.08426129818 2.346406175e-38
-0.235252738 -0.2707979083 0.07312697917 2.346406175e-38
-0.239423424 -0.4740019143 0.2549653053 2.346406175e-38
-0.2505511045 -0.4102146924 0.1941214204 2.346406175e-38
-0.2351714075 -0.2586159706 0.08585133404 2.346406175e-38
-0.184801355 -0.3295743763 -0.1267234981 2.346406175e-38
0.21312657 -0.481698364 -0.2999926805 2.346406175e-38
-0.2353929281 -0.318990618 -0.002636850812 2.346406175e-38
0.1628239155 -0.4822264612 -0.2383630276 2.346334289e-38
-0.2350312322 -0.210423246 0.1616151035 2.346334289e-38
-0.2350424677 -0.198508814 0.1867726147 2.346334289e-38
-0.2381725013 -0.4225990176 0.1815310568 2.346334289e-38
-0.2365512997 -0.370126009 0.05836419016 2.346334289e-38
-0.2481642663 -0.2838475406 0.1100012064 2.346334289e-38
-0.2351601869 -0.2705304027 0.06069377065 2.346334289e-38
0.187836349 -0.4823637009 -0.2505280972 2.346334289e-38
0.1253514439 -0.4818868637 -0.226331979 2.346226389e-38
-0.2485821396 -0.332842797 0.07153695077 2.346226389e-38
0.2007591724 -0.4812284708 -0.3125598431 2.346226389e-38
-0.2478501946 -0.2232053578 0.1860561669 2.346226389e-38
-0.2484082431 -0.3203933239 0.07182814926 2.346226389e-38
-0.2350676209 -0.2702628672 0.04826061428 2.346226389e-38
-0.2384389341 -0.4353159666 0.1936730742 2.346226389e-38
-0.1976203322 -0.342356503 -0.1022823974 2.346226389e-38
-0.2350087613 -0.2342520952 0.1113000363 2.346118629e-38
-0.2348824888 -0.2697278559 0.02339430526 2.346118629e-38
0.1503639668 -0.4820241034 -0.2384970784 2.346118629e-38
0.213034004 -0.4819658697 -0.2875594497 2.346118629e-38
-0.247768864 -0.211023435 0.1987805814 2.346118629e-38
-0.2349386662 -0.2101557404 0.1491819471 2.346118629e-38
-0.2350451499 -0.2940917313 -0.002054456621 2.346118629e-38
-0.2479903847 -0.2713980973 0.1102924049 2.346118629e-38
-0.1849752367 -0.3420238197 -0.1270146817 2.346010729e-38
-0.2504585683 -0.4099471867 0.1816882044 2.346010729e-38
-0.2267783284 -0.4736692607 0.2302329987 2.346010729e-38
-0.2489299178 -0.3577417135 0.07095455378 2.346010729e-38
-0.2349274307 -0.2220701426 0.1240243912 2.346010729e-38
-0.2354742587 -0.3311725557 -0.01536120195 2.346010729e-38
-0.2348712534 -0.2816422582 -0.001763258129 2.346010729e-38
0.187928915 -0.4820961654 -0.2629612684 2.346010729e-38
-0.2387053967 -0.4480329454 0.2058150321 2.345938842e-38
-0.2477463931 -0.2348522842 0.1484655142 2.345938842e-38
-0.2347085923 -0.2572783828 0.02368550375 2.345938842e-38
-0.2346160263 -0.2570108473 0.01125235111 2.345938842e-38
-0.2348573357 -0.1979737729 0.161906302 2.345938842e-38
-0.2486634701 -0.3450247347 0.0588125363 2.345938842e-38
-0.2352077961 -0.3184555769 -0.0275031589 2.345938842e-38
-0.2476763129 -0.2107559144 0.1863473654 2.345938842e-38
-0.2507250011 -0.4226641655 0.1938302219 2.345830942e-38
-0.2503660023 -0.4096796811 0.1692550629 2.345830942e-38
-0.2491037995 -0.3701911569 0.07066335529 2.345830942e-38
-0.251616925 -0.4610826075 0.242689237 2.345830942e-38
-0.2477351576 -0.2467666864 0.1233079433 2.345830942e-38
-0.238346383 -0.435048461 0.1812398583 2.345830942e-38
0.188021481 -0.4818286598 -0.2753944397 2.345830942e-38
-0.2509914637 -0.4353811443 0.2059721798 2.345830942e-38
-0.2350338995 -0.3060061336 -0.02721196041 2.345723183e-38
-0.2353816926 -0.33090505 -0.02779435739 2.345723183e-38
-0.2481417954 -0.3076763749 0.05968613178 2.345723183e-38
0.1504565179 -0.4817565978 -0.2509302199 2.345723183e-38
-0.2347198278 -0.2453639507 0.04884301126 2.345723183e-38
-0.2351152301 -0.3181880713 -0.03993631154 2.345723183e-38
-0.2347786874 -0.2813747227 -0.01419641171 2.345723183e-38
-0.2348600179 -0.2935566902 -0.02692076564 2.345723183e-38
-0.2347647697 -0.1977062672 0.1494731456 2.345615283e-38
-0.2099063993 -0.3297046721 -0.1021252424 2.345615283e-38
-0.2389718443 -0.4607499242 0.21795699 2.345615283e-38
-0.2349413335 -0.3057386279 -0.03964511305 2.345615283e-38
-0.1975277662 -0.3420889676 -0.1147155762 2.345615283e-38
0.1755615324 -0.481626302 -0.2755284905 2.345615283e-38
-0.2350226641 -0.3179205358 -0.05236949772 2.345615283e-38
-0.2347535491 -0.2096206993 0.1243155897 2.345615283e-38
-0.2348236293 -0.2337170541 0.08643373102 2.345507523e-38
-0.2506324649 -0.4223966599 0.1813970059 2.345507523e-38
0.1379965693 -0.48155424 -0.2510642707 2.345507523e-38
-0.2479679137 -0.2952269316 0.05997733027 2.345507523e-38
-0.2478865683 -0.2830449641 0.07270173728 2.345507523e-38
-0.2347674519 -0.2932891846 -0.03935391828 2.345507523e-38
-0.2346861213 -0.2811072171 -0.02662956715 2.345507523e-38
-0.2358220369 -0.3560714424 -0.015943598 2.345507523e-38
-0.2475024164 -0.1983064562 0.1866385639 2.345399623e-38
-0.238253817 -0.4347809553 0.1688067019 2.345399623e-38
-0.2474911809 -0.2102208734 0.1614810675 2.345399623e-38
-0.2346722037 -0.1974387467 0.1370400041 2.345399623e-38
-0.247561276 -0.2343172431 0.1235991418 2.345399623e-38
-0.2344533801 -0.2326469868 0.03670105338 2.345399623e-38
-0.2345122397 -0.2686577737 -0.02633836865 2.345399623e-38
-0.2477126867 -0.2705955207 0.07299293578 2.345399623e-38
-0.2480267733 -0.3312377036 -0.003062096424 2.345291723e-38
-0.2343608141 -0.2323794663 0.02426790074 2.345291723e-38
-0.234930113 -0.3176530302 -0.06480264664 2.345291723e-38
-0.2367251962 -0.3825754523 0.05807299167 2.345291723e-38
0.15064165 -0.4812215567 -0.2757965922 2.345291723e-38
-0.2343495786 -0.2442938834 -0.0008896663785 2.345291723e-38
0.1757466644 -0.4810912609 -0.3003948331 2.345291723e-38
-0.2474098504 -0.1980389357 0.1742054075 2.345291723e-38
-0.2347562164 -0.3052035868 -0.06451144814 2.345219836e-38
0.1631941646 -0.481156379 -0.2880956531 2.345219836e-38
-0.2475500256 -0.2462316453 0.09844163805 2.345219836e-38
-0.2342682481 -0.2321119606 0.01183474436 2.345219836e-38
-0.2344196737 -0.2683902681 -0.03877152503 2.345219836e-38
-0.2343383431 -0.2562083006 -0.02604717016 2.345219836e-38
-0.2345571667 -0.2210000753 0.07429177314 2.345219836e-38
-0.2345796525 -0.1971712261 0.1246067882 2.345219836e-38
-0.2344646156 -0.2207325548 0.06185855716 2.345111936e-38
-0.2351040095 -0.3301025033 -0.06509384513 2.345111936e-38
-0.2473986149 -0.2099533677 0.1490479112 2.345111936e-38
-0.2479342073 -0.3309701681 -0.01549525 2.345111936e-38
-0.2476677448 -0.3182531893 -0.02763720602 2.345111936e-38
-0.2474125326 -0.2936218083 -0.01462165732 2.345111936e-38
-0.222458899 -0.32976982 -0.08982613683 2.345111936e-38
-0.1974352151 -0.3418214619 -0.1271487325 2.345111936e-38
-0.2475275695 -0.2700604796 0.04812657088 2.345004176e-38
-0.2343720496 -0.2204650342 0.04942540824 2.345004176e-38
-0.2475387901 -0.2581460774 0.07328413427 2.345004176e-38
-0.2385202795 -0.4474979043 0.1809486598 2.345004176e-38
-0.2345684171 -0.2090856582 0.09944927692 2.345004176e-38
-0.2470759749 -0.2568084896 0.01111830212 2.345004176e-38
-0.2343271077 -0.2681227326 -0.05120470747 2.345004176e-38
-0.2473873794 -0.22186777 0.1238903403 2.345004176e-38
-0.2341869175 -0.2199299932 0.0245590955 2.344896276e-38
-0.2517908216 -0.4735320508 0.2423980683 2.344896276e-38
-0.2348375469 -0.3173854947 -0.07723583281 2.344896276e-38
-0.247238636 -0.2811723351 -0.01433045976 2.344896276e-38
-0.2341644466 -0.2437588423 -0.0257559754 2.344896276e-38
-0.247261107 -0.2573435307 0.035984613 2.344896276e-38
-0.234383285 -0.208550632 0.07458297163 2.344896276e-38
-0.2473761439 -0.233782202 0.09873283654 2.344896276e-38
-0.2474826127 -0.3177181482 -0.05250354484 2.344788516e-38
-0.249277696 -0.3826406002 0.0703721568 2.344788516e-38
-0.2340943515 -0.2196624875 0.01212594286 2.344788516e-38
-0.2470647544 -0.2687228918 -0.0140392622 2.344788516e-38
-0.2099877149 -0.34188658 -0.114849627 2.344788516e-38
-0.2473087162 -0.3052687049 -0.05221234635 2.344788516e-38
-0.2341981679 -0.2080155909 0.04971659929 2.344788516e-38
-0.2510727942 -0.4475630522 0.1932478249 2.344788516e-38
-0.236991629 -0.3952924311 0.07021500915 2.344680616e-38
-0.2340718806 -0.2434913218 -0.03818912804 2.344680616e-38
0.1258142591 -0.4805492759 -0.2884978056 2.344680616e-38
-0.222366333 -0.3295023143 -0.1022592932 2.344680616e-38
0.1383668333 -0.4804841578 -0.300796926 2.344680616e-38
-0.2350114435 -0.3298349679 -0.0775270313 2.344680616e-38
-0.2469020784 -0.2443590313 0.01140949875 2.344680616e-38
-0.2472723424 -0.2454290986 0.06114211679 2.344680616e-38
-0.2344897687 -0.292486608 -0.07665343583 2.344572857e-38
-0.2355443388 -0.3552688956 -0.05324308947 2.344572857e-38
-0.2343945205 -0.1966361851 0.09974047542 2.344572857e-38
-0.2097212821 -0.329169631 -0.1269915849 2.344572857e-38
-0.2471797764 -0.2451615781 0.04870896041 2.344572857e-38
-0.2387867123 -0.4602148831 0.1930906773 2.344572857e-38
-0.2471348345 -0.2928192616 -0.05192115158 2.344572857e-38
-0.2469946444 -0.244626537 0.02384265512 2.344572857e-38
-0.2470872104 -0.2448940575 0.03627580777 2.344464957e-38
-0.1973426491 -0.3415539265 -0.1395819187 2.344464957e-38
-0.2347449809 -0.3171179891 -0.08966898918 2.344464957e-38
-0.2468095273 -0.2440915108 -0.001023713499 2.344464957e-38
-0.2343019545 -0.1963686645 0.08730731905 2.344464957e-38
-0.2516982555 -0.4732645452 0.229964897 2.344464957e-38
-0.2485484332 -0.3685860634 -0.003935688175 2.344464957e-38
-0.23406066 -0.2554057539 -0.06334666163 2.344464957e-38
-0.2472161651 -0.3050011992 -0.06464549899 2.344357197e-38
-0.2343158722 -0.2800371349 -0.07636223733 2.344357197e-38
-0.2340018004 -0.219394967 -0.000307271257 2.344357197e-38
-0.2467982918 -0.2560059428 -0.02618121915 2.344357197e-38
-0.2471321523 -0.1972363889 0.1369059533 2.344357197e-38
-0.2472022474 -0.2213327289 0.09902403504 2.344357197e-38
-0.2471910119 -0.2332471758 0.0738665238 2.344357197e-38
-0.2468796223 -0.2681878805 -0.03890556842 2.344357197e-38
-0.2475639582 -0.3299001157 -0.06522789598 2.344249297e-38
-0.2338979989 -0.2310418785 -0.03789792955 2.344249297e-38
-0.246960938 -0.2803697884 -0.05162995309 2.344249297e-38
-0.2467169613 -0.2438239902 -0.01345686801 2.344249297e-38
-0.2340242714 -0.1955661178 0.05000779778 2.344249297e-38
-0.2470984608 -0.2329796553 0.06143331528 2.344249297e-38
-0.2509802282 -0.4472955465 0.1808146238 2.344249297e-38
-0.2225402147 -0.3419517577 -0.1025504917 2.344249297e-38
-0.2358107865 -0.3679858744 -0.04110110551 2.344141397e-38
-0.222273767 -0.3292347789 -0.1146924794 2.344141397e-38
-0.2343972027 -0.2922191024 -0.0890865922 2.344141397e-38
-0.2339092344 -0.2191274464 -0.01274042577 2.344141397e-38
-0.2470422834 -0.2925517559 -0.0643543005 2.344141397e-38
-0.2338391393 -0.1950310767 0.02514149249 2.344141397e-38
-0.2467057258 -0.2557384372 -0.03861437365 2.344141397e-38
-0.2467870563 -0.2679203451 -0.05133875459 2.344141397e-38
-0.2466243953 -0.2435564697 -0.02589002252 2.344033637e-38
-0.2470396012 -0.1969688684 0.1244727373 2.344033637e-38
-0.2338166684 -0.2188599259 -0.02517357841 2.344033637e-38
-0.233968094 -0.2551382184 -0.0757798478 2.344033637e-38
-0.2344785184 -0.3044010401 -0.1018109471 2.344033637e-38
-0.2470171154 -0.2207977027 0.07415772229 2.344033637e-38
-0.2096287161 -0.3289020956 -0.1394247711 2.344033637e-38
-0.2357182205 -0.367718339 -0.05353428796 2.344033637e-38
-0.2386941612 -0.4599473774 0.1806574613 2.343925737e-38
-0.2468683869 -0.2801022828 -0.06406310201 2.343925737e-38
-0.2471235991 -0.3047336638 -0.07707868516 2.343925737e-38
-0.2469245642 -0.2205301821 0.06172451377 2.343925737e-38
-0.2337128818 -0.2305068523 -0.06276427209 2.343925737e-38
-0.2470283657 -0.2088832855 0.09931523353 2.343925737e-38
-0.2338279188 -0.2069455236 -1.607462764e-05 2.343925737e-38
-0.2516056895 -0.4729970098 0.2175317407 2.343925737e-38
-0.2467394322 -0.219995141 0.03685820475 2.343817977e-38
-0.2340494245 -0.2673201859 -0.08850420266 2.343817977e-38
-0.2465318292 -0.2432889491 -0.03832317889 2.343817977e-38
-0.2224476486 -0.3416842222 -0.1149836779 2.343817977e-38
-0.2465543002 -0.2194601148 0.01199189574 2.343817977e-38
-0.2483633012 -0.3680510223 -0.02880199626 2.343817977e-38
-0.2469470352 -0.1967013478 0.1120395809 2.343817977e-38
-0.2512466609 -0.4600125253 0.1929566264 2.343817977e-38
-0.2469357997 -0.208615765 0.08688207716 2.343710077e-38
-0.2469497174 -0.2922842205 -0.07678748667 2.343710077e-38
-0.233875528 -0.2548707128 -0.08821300417 2.343710077e-38
-0.2348263115 -0.3292999566 -0.102393344 2.343710077e-38
-0.2472049296 -0.3169156015 -0.08980304003 2.343710077e-38
-0.2221812159 -0.3289672732 -0.1271256208 2.343710077e-38
-0.2467506826 -0.2080807388 0.06201571226 2.343710077e-38
-0.2465206087 -0.2552033961 -0.06348071247 2.343710077e-38
-0.2468544692 -0.1964338273 0.09960643202 2.343566444e-38
-0.2339568585 -0.2670526803 -0.1009373516 2.343566444e-38
-0.2463579476 -0.2308395058 -0.0380319804 2.343566444e-38
-0.2337016314 -0.2424212545 -0.08792180568 2.343566444e-38
-0.2335502207 -0.206142962 -0.03731553629 2.343566444e-38
-0.2493590266 -0.3948225677 0.05764774978 2.343566444e-38
-0.2462653816 -0.2305719852 -0.05046516284 2.343566444e-38
-0.2515131235 -0.4727295041 0.2050985843 2.343566444e-38
-0.2466019392 -0.267385304 -0.07620508969 2.343458544e-38
-0.2223550975 -0.3414167166 -0.1274168193 2.343458544e-38
-0.246576786 -0.1956312805 0.0623069033 2.343458544e-38
-0.2352666557 -0.3544663489 -0.09054258466 2.343458544e-38
-0.2334464192 -0.2177898586 -0.07490625978 2.343458544e-38
-0.2347337455 -0.3290324211 -0.1148265228 2.343458544e-38
-0.2370729744 -0.4074743688 0.05749059469 2.343458544e-38
-0.2335614562 -0.1942285299 -0.01215803064 2.343458544e-38
-0.2471123636 -0.3166480958 -0.1022361889 2.343350644e-38
-0.246184051 -0.2183900326 -0.0377407819 2.343350644e-38
-0.235984683 -0.3804353178 -0.04139230028 2.343350644e-38
-0.2333651036 -0.2056079358 -0.06218187511 2.343350644e-38
-0.2336090654 -0.242153734 -0.1003549621 2.343350644e-38
-0.2355331033 -0.3671832979 -0.07840062678 2.343350644e-38
-0.2511541247 -0.4597450197 0.1805234253 2.343350644e-38
-0.2338642925 -0.2667851448 -0.1133705378 2.343350644e-38
-0.2334688902 -0.1939610094 -0.02459118515 2.343242884e-38
-0.2220886499 -0.3286997378 -0.1395588219 2.343242884e-38
-0.2461953014 -0.2064756304 -0.01258327626 2.343242884e-38
-0.235892117 -0.3801677823 -0.05382548273 2.343242884e-38
-0.246206522 -0.1945612133 0.01257429086 2.343242884e-38
-0.248085618 -0.3672484756 -0.06610149145 2.343242884e-38
-0.2333538532 -0.217522338 -0.0873394087 2.343242884e-38
-0.2463354766 -0.254668355 -0.08834704757 2.343242884e-38
-0.2459989339 -0.2178550065 -0.06260712445 2.343134984e-38
-0.2496254742 -0.4075395167 0.06978975981 2.343134984e-38
-0.2332725376 -0.2053404152 -0.07461506128 2.343134984e-38
-0.2354405373 -0.3669157922 -0.09083378315 2.343134984e-38
-0.2364362627 -0.3936873376 -0.004384035245 2.343134984e-38
-0.2461139709 -0.1942936927 0.0001410767436 2.343134984e-38
-0.2514205575 -0.4724619687 0.1926654428 2.343134984e-38
-0.2346411943 -0.3287649155 -0.1272596717 2.343134984e-38
-0.2331912071 -0.1931584626 -0.06189067662 2.343027224e-38
-0.2335164994 -0.2418862134 -0.1127881408 2.343027224e-38
-0.2337717414 -0.2665176392 -0.1258036941 2.343027224e-38
-0.2461615801 -0.2422188818 -0.08805584908 2.343027224e-38
-0.2466720194 -0.2914816737 -0.1140869781 2.343027224e-38
-0.2343747318 -0.3160479069 -0.1394016743 2.343027224e-38
-0.2471936941 -0.3288300335 -0.1149605736 2.343027224e-38
-0.2459063679 -0.2175874859 -0.07504030317 2.343027224e-38
-0.2464981228 -0.2790322006 -0.1137957796 2.342919324e-38
-0.2332612872 -0.2172548175 -0.09977256507 2.342919324e-38
-0.2459288388 -0.1937586516 -0.02472523227 2.342919324e-38
-0.2331799716 -0.2050728947 -0.0870482102 2.342919324e-38
-0.2363436967 -0.3934198022 -0.01681718975 2.342919324e-38
-0.2335978448 -0.254068166 -0.1255124956 2.342919324e-38
