# .PCD v0.7 - Point Cloud Data file format
VERSION 0.7
FIELDS x y z rgb
SIZE 4 4 4 4
TYPE F F F F
COUNT 1 1 1 1
WIDTH 831
HEIGHT 1
VIEWPOINT 0 0 0 1 0 0 0
POINTS 831
DATA ascii
-0.2138602585 -0.211325869 -0.05761533231 5.041567793e-39
-0.2000298947 -0.20734936 0.1247073486 5.041567793e-39
0.2077617943 -0.4004691243 -0.1567592919 5.041567793e-39
-0.13988778 -0.3021126091 -0.1411965936 5.041567793e-39
-0.2156274766 -0.2899931669 -0.1283387989 5.041567793e-39
0.01116580516 -0.3124872446 -0.1368992776 5.225597518e-39
-0.2136904448 -0.3702788651 0.1967714727 5.225597518e-39
-0.1698642671 -0.08178919554 -0.1907722056 5.225597518e-39
0.01746476069 -0.08829404414 -0.2006601244 5.225597518e-39
-0.2389358878 -0.1990416348 0.114064157 5.225597518e-39
-0.186040476 -0.1632415354 0.002827210352 5.225597518e-39
-0.2448877394 -0.1731880158 0.05302587897 5.225597518e-39
-0.01947027817 -0.1926854104 -0.1180947646 5.225597518e-39
-0.1508015394 -0.1117028445 -0.1137059331 5.409984573e-39
-0.09593188763 -0.07704702765 -0.1963799 5.409984573e-39
-0.2221583724 -0.2904072404 0.005041263998 5.409984573e-39
0.2749252617 -0.3326102197 -0.1482635736 5.409984573e-39
0.3008184433 -0.3402096331 -0.1480671614 5.409984573e-39
-0.2242556959 -0.1564324796 0.003565398976 5.409984573e-39
0.3174640238 -0.005772668868 -0.2271036655 5.409984573e-39
-0.2019266635 -0.3618070185 0.2051525861 5.409984573e-39
-0.1631235927 -0.1124932095 -0.1127713174 5.594012897e-39
-0.1022040248 -0.1070427299 -0.1288257837 5.594012897e-39
-0.06806775928 -0.197345525 -0.1029749215 5.594012897e-39
-0.1215870678 -0.1329784095 -0.07729965448 5.594012897e-39
0.3531630337 -0.3630899489 -0.1569900513 5.594012897e-39
-0.2228491455 -0.2889086008 -0.006340120919 5.594012897e-39
-0.1556024253 -0.09167763591 -0.1782597899 5.594012897e-39
0.0209497381 -0.1978076547 -0.06399162859 5.594012897e-39
-0.204460308 -0.2446721196 0.2001272738 5.77804122e-39
0.07369183749 -0.2021395266 -0.01082310826 5.77804122e-39
-0.239626646 -0.1975429654 0.1026827767 5.77804122e-39
-0.1145261079 -0.1078331023 -0.127891168 5.77804122e-39
-0.1303597689 -0.3325217664 0.2161107212 5.77804122e-39
0.03172660619 -0.09818249941 -0.1881477088 5.77804122e-39
-0.143280372 -0.09088727832 -0.1791944057 5.77804122e-39
0.005864623934 -0.1926033497 -0.1085826084 5.77804122e-39
-0.2157627344 -0.3657828569 0.1626272649 5.962428276e-39
-0.1899068952 -0.2082464695 -0.07086594403 5.962428276e-39
-0.2179675549 -0.3674696684 0.1077859402 5.962428276e-39
-0.2026174217 -0.3603083491 0.1937712133 5.962428276e-39
-0.1153877974 -0.1300300509 0.3624006808 5.962428276e-39
0.05976331234 -0.3078271151 -0.1520191133 5.962428276e-39
-0.2469780594 -0.1330342889 -0.1076789349 5.962428276e-39
-0.1268481612 -0.1086234599 -0.1269565523 5.962428276e-39
-0.1289873272 -0.2027959973 -0.08692046255 6.1464566e-39
-0.1503158808 -0.2180522084 0.09095603973 6.1464566e-39
-0.2163182348 -0.2884944975 -0.1397202015 6.1464566e-39
-0.01983001083 -0.4841868877 0.3460560441 6.1464566e-39
-0.1063141525 -0.08851619065 -0.1819982529 6.1464566e-39
-0.2235399038 -0.2874099314 -0.01772153378 6.1464566e-39
0.01940454915 -0.098972857 -0.187213093 6.1464566e-39
-0.2429479659 -0.1838668138 0.06647291034 6.1464566e-39
-0.2310442328 -0.2355740368 0.1885494739 6.330484923e-39
-0.2383956462 -0.1710653603 -0.02181220427 6.330484923e-39
0.04628467187 -0.197725594 -0.05447947606 6.330484923e-39
-0.2403174192 -0.1960443109 0.09130138904 6.330484923e-39
-0.09569391608 -0.1405778229 -0.07710322738 6.330484923e-39
-0.2339472175 -0.1694003344 0.02932846732 6.330484923e-39
-0.2039989531 -0.3573110104 0.1710083783 6.330484923e-39
-0.2369960845 -0.2097204328 0.1275112033 6.330484923e-39
-0.1514922976 -0.1102041826 -0.1250873208 6.514514648e-39
0.007082495838 -0.09976322204 -0.1862784773 6.514514648e-39
-0.2194129527 -0.2332850397 0.1762334853 6.514514648e-39
-0.1953957081 -0.3613929451 0.07177252322 6.514514648e-39
-0.2186583132 -0.365970999 0.09640455246 6.514514648e-39
0.3408591151 0.004988186061 -0.2310385406 6.514514648e-39
-0.1483761072 -0.2287310064 0.1044030711 6.514514648e-39
-0.04539458826 -0.08306571841 -0.1980527043 6.514514648e-39
-0.1645777524 -0.2081637383 0.07844355702 6.698542971e-39
-0.139793694 -0.2667620778 0.1902697682 6.698542971e-39
-0.2242306769 -0.285911262 -0.02910291776 6.698542971e-39
-0.05771667138 -0.083856076 -0.1971180886 6.698542971e-39
0.08601389825 -0.201349169 -0.01175772399 6.698542971e-39
-0.01472732611 -0.3048878312 -0.1370956898 6.698542971e-39
0.2953178883 -0.02571366355 -0.2211031467 6.698542971e-39
0.05860672891 -0.1969352365 -0.05541408807 6.698542971e-39
-0.2376868576 -0.2082217634 0.1161298156 6.882571295e-39
-0.1762090474 -0.2104527652 0.09075961262 6.882571295e-39
-0.05873598903 -0.4758791327 0.3354128301 6.882571295e-39
-0.1339461058 -0.3312112689 0.1385066211 6.882571295e-39
-0.06875852495 -0.1958468556 -0.1143563092 6.882571295e-39
0.2193930894 -0.3981800675 -0.1690752953 6.882571295e-39
-0.09475573897 -0.1132745296 0.3129402101 6.882571295e-39
0.04559390619 -0.1962269247 -0.06586086005 6.882571295e-39
-0.03248309717 -0.1919771135 -0.1285415292 7.066599618e-39
-0.1964227706 -0.1747107208 0.01720888726 7.066599618e-39
-0.005239618942 -0.1005535871 -0.1853438616 7.066599618e-39
-0.1275389344 -0.1071247905 -0.13833794 7.066599618e-39
0.3526047766 -0.3554084599 -0.1476743072 7.066599618e-39
-0.1716386974 -0.2333090603 0.1290350705 7.066599618e-39
0.04335789382 -0.09589347243 -0.2004637122 7.066599618e-39
-0.2193490714 -0.3644723296 0.08502316475 7.066599618e-39
-0.04345480353 -0.09374451637 -0.184605673 7.250627941e-39
-0.2053804845 -0.3543136716 0.1482456177 7.250627941e-39
-0.2136324048 -0.2636128962 0.2751166224 7.250627941e-39
-0.1009549946 -0.1162228882 -0.1267601252 7.250627941e-39
-0.1912884265 -0.2052491456 -0.0936287716 7.250627941e-39
-0.1637470573 -0.2698414624 0.2035203874 7.250627941e-39
-0.1203380525 -0.142158553 -0.07523400337 7.250627941e-39
-0.2201037109 -0.2317863703 0.1648520976 7.250627941e-39
-0.1322995573 -0.3218429387 0.2026636899 7.434656265e-39
-0.1316490471 -0.08859825134 -0.1915104091 7.434656265e-39
-0.1193270013 -0.0878078863 -0.1924450099 7.434656265e-39
-0.2154977322 -0.3534172475 0.2040215582 7.434656265e-39
-0.1173275709 -0.1193512529 0.3489536345 7.434656265e-39
0.01749591343 -0.1903143227 -0.1208986044 7.434656265e-39
-0.2062037438 -0.3589978516 0.1161670536 7.434656265e-39
-0.1444965303 -0.2500886023 0.1312971413 7.434656265e-39
-0.1936166435 -0.3458418548 0.1566267312 7.618684588e-39
0.3075873256 -0.4033263922 -0.1621705592 7.618684588e-39
0.3187130392 -0.01495280117 -0.2250380218 7.618684588e-39
-0.15435341 -0.1008577794 -0.1761941314 7.618684588e-39
0.2865566015 -0.3303211927 -0.1605795771 7.618684588e-39
-0.05712723732 -0.1935578287 -0.1266722977 7.618684588e-39
-0.1828516722 -0.1831005067 0.01833992638 7.618684588e-39
-0.099015221 -0.1269016862 -0.1133130938 7.618684588e-39
-0.2030431628 -0.3464440703 0.2237840593 7.802712912e-39
-0.2177025378 -0.3551040292 0.1491802186 7.802712912e-39
-0.2353287488 -0.1664029956 0.006565670483 7.802712912e-39
0.2497767508 -0.05641555786 -0.2111677229 7.802712912e-39
-0.0960047543 -0.104094401 0.3108745515 7.802712912e-39
-0.2163954675 -0.2576182187 0.229591012 7.802712912e-39
-0.1418659836 -0.2622660995 0.15612562 7.802712912e-39
0.04421237856 -0.1932296008 -0.08862362802 7.802712912e-39
-0.1329903305 -0.3203442693 0.1912823021 7.986382503e-39
-0.09669551998 -0.1025957316 0.2994931638 7.986382503e-39
-0.171220392 -0.1808114648 0.006023898721 7.986382503e-39
-0.2516809106 -0.1163608283 -0.1666515619 7.986382503e-39
0.3390336037 -0.3470186889 -0.1488053501 7.986382503e-39
-0.1569585204 -0.1906999052 0.01853634417 7.986382503e-39
-0.1710448414 -0.3397651315 0.120613344 7.986382503e-39
-0.2390683889 -0.2052244395 0.09336704016 7.986382503e-39
-0.2326982021 -0.1785804629 0.03139411658 8.170410826e-39
-0.2200398445 -0.3629736602 0.07364175469 8.170410826e-39
0.2736762464 -0.3234300613 -0.1503292322 8.170410826e-39
-0.162498042 -0.2790216208 0.205586046 8.170410826e-39
0.3290953338 -0.003483641893 -0.2394196689 8.170410826e-39
0.2367638946 -0.05570725724 -0.2216144949 8.170410826e-39
0.3531811833 0.005778551102 -0.2319731563 8.170410826e-39
0.3076400161 -0.02492329851 -0.2220377624 8.170410826e-39
-0.01541808993 -0.3033891618 -0.1484770775 8.35443915e-39
-0.1336810887 -0.3188456297 0.1799009144 8.35443915e-39
0.09764518589 -0.199060142 -0.02407371998 8.35443915e-39
-0.1288147271 -0.292142123 -0.144196853 8.35443915e-39
-0.09462322295 -0.1070917398 0.3336373866 8.35443915e-39
-0.1366048753 -0.2866210341 0.2057824582 8.35443915e-39
-0.216224134 -0.253143996 0.1917461753 8.35443915e-39
-0.09409342706 -0.1959289163 -0.1238684654 8.35443915e-39
-0.1723294705 -0.2318103909 0.1176536828 8.538467473e-39
-0.2094355971 -0.174002409 0.006762088276 8.538467473e-39
0.3920689523 -0.3713976741 -0.1463468522 8.538467473e-39
-0.2397771776 -0.1680680364 -0.04457500204 8.538467473e-39
-0.197531864 -0.2257096469 0.1288386583 8.538467473e-39
-0.09707544744 -0.1375804842 -0.0998660326 8.538467473e-39
-0.152873829 -0.1072068512 -0.1478501111 8.538467473e-39
-0.2177769989 -0.2546208799 0.2068282366 8.538467473e-39
-0.1282296926 -0.1056261212 -0.1497193426 8.722137064e-39
-0.178281337 -0.2059567571 0.05661540478 8.722137064e-39
-0.1062545329 -0.1093807667 0.3459533751 8.722137064e-39
-0.1666500419 -0.203667745 0.04429940134 8.722137064e-39
-0.08230116963 -0.1063013822 0.3327027559 8.722137064e-39
-0.08631324768 -0.09112654626 0.2851115167 8.722137064e-39
-0.1951737553 -0.1838908792 0.01927454025 8.722137064e-39
-0.1523881853 -0.2135562003 0.05681182817 8.722137064e-39
-0.2053150088 -0.3140096068 0.3195890784 8.906165387e-39
0.07083635032 -0.2978566289 -0.1550193876 8.906165387e-39
-0.1064155102 -0.1967192888 -0.1229338422 8.906165387e-39
-0.1458706558 -0.3134531677 0.201532647 8.906165387e-39
-0.2115601152 -0.2681088746 0.3092608154 8.906165387e-39
0.3784978986 -0.3630078733 -0.147477895 8.906165387e-39
-0.2142843604 -0.263822794 0.2051932067 8.906165387e-39
0.01611438394 -0.1873169988 -0.1436614096 8.906165387e-39
-0.1899126619 -0.208245784 0.06893140078 9.089834978e-39
-0.09725378454 -0.09491425753 0.3088089228 9.089834978e-39
-0.1670299619 -0.2853330672 -0.1434586644 9.089834978e-39
0.262098819 -0.05562519282 -0.2121023387 9.089834978e-39
-0.2075852752 -0.3560005128 0.09340428561 9.089834978e-39
-0.1416950524 -0.2852510214 -0.1339465082 9.089834978e-39
-0.1093975306 -0.1383708566 -0.09893141687 9.089834978e-39
-0.2131752372 -0.2128238529 0.09356345981 9.089834978e-39
-0.1569436938 -0.3234236836 0.2045329213 9.273863302e-39
-0.09656301886 -0.09641291201 0.3201902807 9.273863302e-39
-0.134930104 -0.3096654713 0.1778352559 9.273863302e-39
-0.161060065 -0.3468444347 0.04414023459 9.273863302e-39
-0.2044246942 -0.3434467614 0.2010212988 9.273863302e-39
-0.1550441831 -0.09935911 -0.1875755191 9.273863302e-39
0.3524904251 0.007277213037 -0.243354544 9.273863302e-39
-0.1958645284 -0.1823922098 0.007893127389 9.273863302e-39
-0.207452774 -0.3498176932 0.1141014025 9.457532893e-39
-0.1803478897 -0.2014614493 -0.1173261553 9.457532893e-39
0.09557288885 -0.1945641488 -0.05821793154 9.457532893e-39
-0.01597634889 -0.2957076728 -0.1391613483 9.457532893e-39
0.2558010519 -0.3881275654 -0.1625633985 9.457532893e-39
0.0558436662 -0.1909405589 -0.1009396836 9.457532893e-39
-0.1478178501 -0.2364124954 0.09508734196 9.457532893e-39
-0.207320258 -0.3436349034 0.1347985864 9.457532893e-39
-0.2276844978 -0.2784179449 -0.08600990474 9.641561216e-39
0.01644541882 -0.4803171158 0.3318707943 9.641561216e-39
0.02154807374 -0.3010180891 -0.1512809247 9.641561216e-39
-0.1699713618 -0.1899916083 0.008089547046 9.641561216e-39
-0.205245167 -0.2785240114 -0.1427204609 9.641561216e-39
-0.2108693421 -0.2696075439 0.3206422031 9.641561216e-39
-0.1825436056 -0.3358713686 0.1536264718 9.641561216e-39
-0.1304000318 -0.09777837992 -0.1894447505 9.641561216e-39
0.00481412746 -0.4826061726 0.3441868126 9.825230807e-39
-0.2138659954 -0.2113251835 0.08218201995 9.825230807e-39
-0.1535646021 -0.1057081893 -0.1592314988 9.825230807e-39
-0.2082760334 -0.3545018435 0.08202290535 9.825230807e-39
0.05795603991 -0.2909654975 -0.1447690278 9.825230807e-39
-0.2056827992 -0.20154351 -0.1268383414 9.825230807e-39
-0.1041705981 -0.2905614078 -0.1460660845 9.825230807e-39
-0.2197748274 -0.3506080508 0.1150360107 9.825230807e-39
-0.17814143 -0.2661358416 0.1703108549 1.000925913e-38
0.003101564944 -0.186608687 -0.1541081816 1.000925913e-38
-0.1810386628 -0.1999627948 -0.1287075728 1.000925913e-38
-0.2198178619 -0.1854715943 0.02114376798 1.000925913e-38
0.3192186952 -0.4010373354 -0.1744865626 1.000925913e-38
-0.07917200029 -0.1052957624 -0.1797361672 1.000925913e-38
-0.2127809078 -0.2913414538 0.2150908411 1.000925913e-38
0.2681231201 -0.3873372078 -0.1634980142 1.000925913e-38
-0.1832343787 -0.3343726993 0.142245084 1.019292872e-38
-0.2277275324 -0.1132814363 -0.179902181 1.019292872e-38
-0.1770323217 -0.2151369154 0.05868105963 1.019292872e-38
-0.09061115235 -0.1222665161 0.3812285662 1.019292872e-38
-0.1284602582 -0.1084572077 -0.1759977192 1.019292872e-38
-0.1962828338 -0.2348897755 0.130904302 1.019292872e-38
0.34455356 -0.4009553194 -0.1649744064 1.019292872e-38
0.3303443491 -0.01266377792 -0.2373540252 1.019292872e-38
-0.138223201 -0.3284020722 0.04952111095 1.037659831e-38
-0.1485086083 -0.234913826 0.0837059021 1.037659831e-38
0.1215985864 -0.1959807575 -0.03732433915 1.037659831e-38
-0.05419158936 -0.288898617 -0.1384231448 1.037659831e-38
-0.08410844952 -0.08943974972 0.3399528563 1.037659831e-38
-0.2295093834 -0.1984394193 0.04690682888 1.037659831e-38
-0.2358976007 -0.1894256473 -0.01768090203 1.037659831e-38
-0.1613163054 -0.1293548346 -0.1200214028 1.037659831e-38
0.2724272311 -0.3142499328 -0.1523948759 1.056062664e-38
-0.2064969838 -0.3389507532 0.166877076 1.056062664e-38
0.3377845883 -0.3378385603 -0.1508709937 1.056062664e-38
0.2848031521 -0.04336564988 -0.2274186164 1.056062664e-38
-0.1827117652 -0.2432795763 0.1320353448 1.056062664e-38
-0.1940514743 -0.199254483 -0.1391543448 1.056062664e-38
-0.2072547823 -0.3033307791 0.3061419725 1.056062664e-38
-0.1555695832 -0.2600591183 0.1342974007 1.056062664e-38
-0.1639468521 -0.1171773672 -0.1448498517 1.074429623e-38
0.0342246443 -0.1165427864 -0.1840164065 1.074429623e-38
-0.195556432 -0.3351630569 0.1431796998 1.074429623e-38
0.04144931957 -0.1872349381 -0.1341492236 1.074429623e-38
-0.2299277186 -0.2509370148 0.1699180156 1.074429623e-38
-0.2254797071 -0.2767311037 -0.03116856888 1.074429623e-38
-0.1347323954 -0.1384529173 -0.1084436029 1.074429623e-38
0.2804451585 -0.3865467906 -0.1644326299 1.074429623e-38
-0.1777230799 -0.213638261 0.04729967564 1.092796582e-38
0.2978159487 -0.04407395422 -0.2169718444 1.092796582e-38
-0.1591484994 -0.3251104951 0.1496915817 1.092796582e-38
-0.1893544048 -0.2159272879 0.05961567536 1.092796582e-38
-0.2166142464 -0.3380542994 0.2226530313 1.092796582e-38
-0.09504897147 -0.09322743118 0.3636502326 1.092796582e-38
0.02876750194 -0.4795267582 0.3309361935 1.092796582e-38
-0.04697219282 -0.4674072862 0.3437939584 1.092796582e-38
-0.2181255072 -0.2716329098 -0.132470116 1.111163541e-38
-0.1661172062 -0.109329626 -0.1845752597 1.111163541e-38
-0.1201190948 -0.1945123076 -0.1447620243 1.111163541e-38
-0.0675406903 -0.103006728 -0.1920521706 1.111163541e-38
-0.08992037922 -0.1237651855 0.3926100135 1.111163541e-38
-0.004345059395 -0.2934186459 -0.1514773518 1.111163541e-38
-0.2095250636 -0.3453216851 0.07995724678 1.111163541e-38
-0.2339397967 -0.2357622087 0.1223267615 1.111163541e-38
-0.1537951529 -0.1085392609 -0.1855098754 1.1295305e-38
-0.07986277342 -0.103797093 -0.1911175549 1.1295305e-38
-0.2279879451 -0.2616158128 0.183365047 1.1295305e-38
-0.1382514238 -0.2959893346 0.1416254044 1.1295305e-38
0.05726527423 -0.2894668281 -0.1561504155 1.1295305e-38
-0.1608306915 -0.2357041836 0.08464051783 1.1295305e-38
0.2674323618 -0.3858385086 -0.1748794019 1.1295305e-38
-0.09240680933 -0.2820895612 -0.1376849562 1.1295305e-38
-0.09218482673 -0.1045874581 -0.1901829392 1.147897319e-38
-0.103027299 -0.111726895 -0.1609043032 1.147897319e-38
-0.1950338185 -0.2440699339 0.1329699606 1.147897319e-38
-0.2388006002 -0.1232519299 -0.1769019216 1.147897319e-38
-0.0961657241 -0.1914329231 -0.1580126733 1.147897319e-38
-0.10450688 -0.1053778157 -0.1892483234 1.147897319e-38
-0.2103483379 -0.3500058651 0.04787869006 1.147897319e-38
-0.2099864185 -0.2326827943 0.1090761423 1.147897319e-38
-0.05488235503 -0.2873999476 -0.1498045325 1.166264278e-38
-0.1969661862 -0.2997530103 0.2125211954 1.166264278e-38
-0.1372674108 -0.3175351024 0.1022967622 1.166264278e-38
-0.2077550888 -0.1970475167 -0.1609825194 1.166264278e-38
-0.21635665 -0.2593267858 0.1710490435 1.166264278e-38
-0.1493244916 -0.3059598207 0.1446256638 1.166264278e-38
-0.2286787033 -0.2601171434 0.1719836593 1.166264278e-38
-0.2105372995 -0.2913632095 0.2113901526 1.166264278e-38
-0.06560090184 -0.1136855334 -0.1786051393 1.184631237e-38
-0.09560722858 -0.08554594219 0.3729659617 1.184631237e-38
0.1627970636 -0.0699839741 -0.2311227322 1.184631237e-38
-0.1831109524 -0.1954667866 -0.1628517509 1.184631237e-38
0.2756698728 -0.06401497126 -0.2109713107 1.184631237e-38
0.09280983359 -0.1885694861 -0.1037435234 1.184631237e-38
-0.2268612236 -0.2737337649 -0.05393136665 1.184631237e-38
-0.2100833207 -0.3376402259 0.08927298337 1.184631237e-38
-0.004903314635 -0.2857371867 -0.1421616077 1.202998196e-38
-0.2346485853 -0.1986058056 -0.01561524719 1.202998196e-38
-0.1584668159 -0.1938860714 -0.1647209823 1.202998196e-38
-0.1829693615 -0.3220070899 0.1836393774 1.202998196e-38
-0.2105761021 -0.2896546423 0.2699321806 1.202998196e-38
-0.2147206962 -0.2806626558 0.2016438097 1.202998196e-38
-0.07355611026 -0.4583092332 0.3322161436 1.202998196e-38
0.02121182531 -0.1158344895 -0.1944631785 1.202998196e-38
0.3315933645 -0.02184391394 -0.2352883667 1.221365155e-38
-0.08328518271 -0.0847555846 0.3720313609 1.221365155e-38
-0.06123402715 -0.4575188756 0.3312815428 1.221365155e-38
0.2292171121 -0.3790294528 -0.1741412133 1.221365155e-38
-0.1731527448 -0.2364945412 0.08557513356 1.221365155e-38
-0.237279132 -0.1864283383 -0.04044369981 1.221365155e-38
-0.0813453868 -0.09543441236 0.3854784369 1.221365155e-38
0.05670701712 -0.2817853689 -0.1468346864 1.221365155e-38
-0.09024503827 -0.1152662486 -0.1767359078 1.239732115e-38
0.146242708 -0.1944000423 -0.03919357061 1.239732115e-38
-0.2432309985 -0.1605747044 -0.1014819741 1.239732115e-38
-0.03658989444 -0.4559381604 0.3294123113 1.239732115e-38
0.1374621391 -0.07006604224 -0.2406348884 1.239732115e-38
-0.1237918735 -0.134665221 -0.1321409792 1.239732115e-38
-0.03395934403 -0.4681156278 0.3542407155 1.239732115e-38
-0.04891197756 -0.456728518 0.3303469121 1.239732115e-38
-0.1453198045 -0.2547727525 0.09921863675 1.258099074e-38
-0.2132066488 -0.277477175 0.245103687 1.258099074e-38
-0.2091945857 -0.2926519513 0.2926949561 1.258099074e-38
-0.04756823927 -0.1867728084 -0.173132509 1.258099074e-38
-0.1961237788 -0.1947584897 -0.1732985228 1.258099074e-38
0.336535573 -0.328658402 -0.1529366523 1.258099074e-38
-0.1937848032 -0.2532500625 0.1350356042 1.258099074e-38
-0.1401912123 -0.2853105366 0.128178373 1.258099074e-38
0.02557869442 -0.4596678019 0.3154234886 1.276466033e-38
-0.2465523183 -0.1468985677 -0.1376918107 1.276466033e-38
0.402451247 -0.3599284887 -0.1607285142 1.276466033e-38
-0.1436348408 -0.2745721936 -0.1473935395 1.276466033e-38
-0.1961146891 -0.3274815679 0.1524954289 1.276466033e-38
0.2515840232 -0.07327716053 -0.2184178084 1.276466033e-38
-0.1037180573 -0.1102282256 -0.1722857207 1.276466033e-38
-0.09685648233 -0.1899342537 -0.169394061 1.276466033e-38
-0.2300602347 -0.2571198046 0.1492208391 1.294832852e-38
-0.02932547219 -0.1098157763 -0.1927903742 1.294832852e-38
-0.2177381814 -0.256329447 0.1482862234 1.294832852e-38
-0.210443601 -0.2834718227 0.2906292975 1.294832852e-38
-0.2498736382 -0.1332224607 -0.1739016473 1.294832852e-38
-0.1758801937 -0.3292744756 0.04094354063 1.294832852e-38
-0.2146892697 -0.2160093486 0.05010351539 1.294832852e-38
-0.1688372344 -0.2684714496 -0.136208564 1.294832852e-38
-0.1714796722 -0.1931777596 -0.1751677543 1.313163938e-38
-0.138648957 -0.3145377636 0.0795339942 1.313163938e-38
-0.09297667444 -0.09772342443 0.3977944553 1.313163938e-38
-0.2439217716 -0.159076035 -0.1128633618 1.313163938e-38
-0.1802137196 -0.2616398335 0.1361666322 1.313163938e-38
-0.1895123273 -0.1200904846 -0.1806403697 1.313163938e-38
-0.2216103226 -0.3013337255 0.2143904269 1.313163938e-38
0.2409809083 -0.3705576062 -0.165760085 1.313163938e-38
-0.2353393584 -0.1971071661 -0.02699663304 1.331530897e-38
-0.2099508047 -0.3314574361 0.1099701002 1.331530897e-38
-0.2192447931 -0.325876832 0.1978246123 1.331530897e-38
-0.2115973681 -0.3408257067 0.04581303895 1.331530897e-38
-0.2210594863 -0.2426533401 0.1120764166 1.331530897e-38
-0.2254898995 -0.2799760997 0.1874963492 1.331530897e-38
0.3094473183 -0.04178492725 -0.2292878479 1.331530897e-38
-0.2078130543 -0.2956492901 0.3154577911 1.331530897e-38
-0.09983849525 -0.1315858215 -0.1453916281 1.349897856e-38
-0.08992780745 -0.05740332603 0.2996116877 1.349897856e-38
-0.0106020188 -0.1844017208 -0.1759363711 1.349897856e-38
-0.1843508929 -0.3190097511 0.1608765572 1.349897856e-38
-0.2230961323 -0.3369319141 0.07882621884 1.349897856e-38
-0.1732778549 -0.3090392351 0.1578762829 1.349897856e-38
0.3753090799 -0.343148917 -0.162990585 1.349897856e-38
-0.1965404302 -0.3136172891 0.1825083345 1.349897856e-38
-0.1036313921 -0.05519634485 0.2777835131 1.368228942e-38
-0.2180105895 -0.2023331821 0.01389365364 1.368228942e-38
-0.2153800428 -0.2145106792 0.03872210532 1.368228942e-38
-0.09093580395 -0.1137675866 -0.1881172955 1.368228942e-38
-0.09422568977 -0.08854326606 0.3957287967 1.368228942e-38
-0.188202247 -0.3300648332 0.04187815636 1.368228942e-38
0.3624287546 -0.3362578154 -0.1527402252 1.368228942e-38
-0.06845343113 -0.2790101767 -0.1509355754 1.368228942e-38
-0.2207588255 -0.329062283 0.1543646604 1.386595901e-38
-0.1221913993 -0.1900163144 -0.1789062023 1.386595901e-38
-0.02738568559 -0.1204946041 -0.1793433279 1.386595901e-38
-0.2199355513 -0.3243781626 0.1864432245 1.386595901e-38
-0.1032578573 -0.1145579517 -0.1871826798 1.386595901e-38
0.1304668188 -0.1876970679 -0.09516593069 1.386595901e-38
0.1578739882 -0.1921110004 -0.05150961876 1.386595901e-38
-0.07290311158 -0.1868548691 -0.1826446652 1.386595901e-38
-0.04822121561 -0.4582271576 0.3417282999 1.404926846e-38
-0.2261806577 -0.2784774601 0.1761149615 1.404926846e-38
0.05169907957 -0.1819485724 -0.1692280471 1.404926846e-38
-0.03970773891 -0.1212849617 -0.1784087121 1.404926846e-38
0.178679809 -0.3730107546 -0.1724684089 1.404926846e-38
-0.2094207853 -0.3067261577 0.1927586943 1.404926846e-38
-0.1063486189 -0.09805074334 -0.1971141398 1.404926846e-38
-0.2223010808 -0.2998350561 0.2030090392 1.404926846e-38
-0.02914318815 -0.7435023785 -0.0920015946 1.423293806e-38
-0.1398979723 -0.305357635 0.07746833563 1.423293806e-38
-0.0799638629 -0.09843173623 0.4082412124 1.423293806e-38
0.03478290141 -0.1242242604 -0.1933321357 1.423293806e-38
0.03137214482 -0.2818674147 -0.1563468426 1.423293806e-38
0.03790075332 -0.4588774443 0.3144888878 1.423293806e-38
0.0190500319 -0.2826578021 -0.1554122269 1.423293806e-38
-0.2211845666 -0.3151980042 0.184377566 1.423293806e-38
-0.1598483473 -0.1908887327 -0.1874837875 1.441624891e-38
0.2656250894 -0.368976891 -0.1676293164 1.441624891e-38
0.3038402498 -0.3757859468 -0.16836752 1.441624891e-38
-0.003808284178 -0.7434203625 -0.0824893862 1.441624891e-38
-0.001492558047 -0.1280940175 -0.1791469008 1.441624891e-38
0.2405109406 -0.08324768394 -0.2154175341 1.441624891e-38
-0.0298339501 -0.7420036793 -0.1033829749 1.441624891e-38
-0.006152337417 -0.2765570283 -0.1442272663 1.441624891e-38
-0.2145493627 -0.2761884034 0.1637989581 1.459991851e-38
0.09073753655 -0.1840734929 -0.1378876865 1.459991851e-38
-0.2106698006 -0.2975460291 0.1906930357 1.459991851e-38
0.009204536676 -0.7441285849 -0.07204261422 1.459991851e-38
0.1297760457 -0.1861983985 -0.1065473706 1.459991851e-38
-0.08133374155 -0.2721190751 -0.1406852305 1.459991851e-38
-0.08899601549 -0.124446407 -0.1746702492 1.459991851e-38
0.0184917748 -0.2749763131 -0.1460964978 1.459991851e-38
-0.09353493154 -0.09004193544 0.4071101844 1.478322936e-38
0.1167632341 -0.1854901016 -0.1169941425 1.478322936e-38
-0.2101115435 -0.3052275181 0.1813773066 1.478322936e-38
-0.1979219615 -0.3106199503 0.1597455144 1.478322936e-38
-0.08121288568 -0.08925157785 0.4061755538 1.478322936e-38
-0.1024690419 -0.1194083616 -0.170220077 1.478322936e-38
-0.222991854 -0.2983363867 0.1916276515 1.478322936e-38
-0.01125501841 -0.4558560848 0.3389244676 1.478322936e-38
-0.2321325243 -0.2526238263 0.1150766835 1.496689755e-38
0.3883218765 -0.3438572288 -0.152543813 1.496689755e-38
-0.1912867576 -0.2716103494 0.1391669214 1.496689755e-38
-0.1400304735 -0.3115404546 0.0567711927 1.496689755e-38
0.1510332674 -0.07845580578 -0.2395038605 1.496689755e-38
-0.02361486852 -0.1836934239 -0.1863831282 1.496689755e-38
-0.08703225106 -0.05721515417 0.3658343852 1.496689755e-38
-0.1872464716 -0.3191978931 0.09465383738 1.496689755e-38
-0.08647397906 -0.06489664316 0.356518656 1.515020841e-38
0.2779471278 -0.3681865335 -0.1685639322 1.515020841e-38
-0.03148723766 -0.2766390741 -0.1537394226 1.515020841e-38
-0.1447615474 -0.2624542415 0.08990285546 1.515020841e-38
0.02083582617 -0.7418395877 -0.08435861021 1.515020841e-38
-0.1572059393 -0.2661824226 -0.1485245675 1.515020841e-38
-0.1066686437 -0.2722011209 -0.1501973867 1.515020841e-38
-0.2232897133 -0.1423205137 -0.1623238474 1.515020841e-38
-0.1871139556 -0.3130150735 0.1153510138 1.533351927e-38
0.03315790743 -0.7410492301 -0.08529322594 1.533351927e-38
-0.09547472 -0.07936313748 0.3936631382 1.533351927e-38
-0.1875396967 -0.2991507649 0.1453638673 1.533351927e-38
-0.2167615741 -0.2115133405 0.01595930755 1.533351927e-38
-0.208179161 -0.2495444417 0.1018260643 1.533351927e-38
0.001029270701 -0.1821126938 -0.1882523596 1.533351927e-38
-0.005880579352 -0.7389243245 -0.116633594 1.533351927e-38
-0.08634147793 -0.05871382356 0.3772158325 1.551683013e-38
-0.1645421088 -0.3069383502 0.07933756709 1.551683013e-38
-0.2301927358 -0.2633026242 0.1285237074 1.551683013e-38
0.1420981139 -0.1854080409 -0.1074819863 1.551683013e-38
-0.2328232974 -0.2511251569 0.1036952958 1.551683013e-38
-0.222698614 -0.3183835149 0.140917629 1.551683013e-38
-0.21096766 -0.1415301561 -0.1632584631 1.551683013e-38
-0.03121548146 -0.7390064001 -0.1261457503 1.551683013e-38
0.2244073898 -0.06603217125 -0.2357958108 1.570049832e-38
0.2274098247 -0.3621678352 -0.1668911278 1.570049832e-38
-0.01916515455 -0.2758487165 -0.1546740383 1.570049832e-38
0.1160724685 -0.1839914322 -0.1283755302 1.570049832e-38
-0.2282529473 -0.273981452 0.1419707537 1.570049832e-38
-0.08565071225 -0.06021247804 0.3885972202 1.570049832e-38
-0.06504264474 -0.1213670224 -0.1879208684 1.570049832e-38
0.02890000679 -0.4733439088 0.3516333103 1.570049832e-38
-0.1480828673 -0.2487781048 0.05369304493 1.588380918e-38
-0.188788712 -0.2899706364 0.1432982087 1.588380918e-38
0.2892409563 -0.07240474224 -0.2098402679 1.588380918e-38
-0.1570836306 -0.2632445991 0.09083747119 1.588380918e-38
-0.2290836573 -0.212303713 0.01689392328 1.588380918e-38
-0.07736472785 -0.1221573874 -0.1869862527 1.588380918e-38
-0.1412795037 -0.3023602962 0.05470554158 1.588380918e-38
0.03177637607 -0.7380518913 -0.1080560461 1.588380918e-38
0.2822512686 -0.2950992882 -0.1574607939 1.606712004e-38
0.3031494915 -0.3742872477 -0.1797489077 1.606712004e-38
0.0571112819 -0.7379698753 -0.09854389727 1.606712004e-38
-0.04894977063 -0.1837754846 -0.1958953142 1.606712004e-38
-0.2088699192 -0.2480457723 0.09044462442 1.606712004e-38
-0.2250641435 -0.2938404083 0.1574834436 1.606712004e-38
-0.2110673189 -0.3160944581 0.1286016256 1.606712004e-38
-0.1713454723 -0.2533561587 0.07832504809 1.606712004e-38
0.2996232212 -0.06093557924 -0.224221915 1.625043089e-38
-0.223822549 -0.2366586626 0.06655082107 1.625043089e-38
-0.1381862164 -0.1309595853 -0.1653505862 1.625043089e-38
-0.08495995402 -0.06171114743 0.3999786079 1.625043089e-38
0.0763431862 -0.1803678572 -0.1710972786 1.625043089e-38
0.1818273962 -0.1890316159 -0.06476023793 1.625043089e-38
-0.2235218883 -0.3230676353 0.1088390648 1.625043089e-38
-0.2361446023 -0.2374490201 0.0674854368 1.625043089e-38
-0.1858740151 -0.1894721389 -0.2083773464 1.643374035e-38
-0.2011107653 -0.290760994 0.1442328244 1.643374035e-38
-0.03845871985 -0.1304650903 -0.1763430685 1.643374035e-38
0.1544201672 -0.1846176684 -0.108416602 1.643374035e-38
0.04409843311 -0.7372615337 -0.1089906618 1.643374035e-38
-0.2193745375 -0.2624527514 -0.1345357597 1.643374035e-38
0.1399601698 -0.0884263292 -0.2365035862 1.643374035e-38
-0.1889286488 -0.2297915816 0.02960279584 1.643374035e-38
0.01807276532 -0.7358449101 -0.1298842132 1.661705121e-38
0.181136623 -0.1875329465 -0.07614162564 1.661705121e-38
0.2736956775 -0.06287071854 -0.2395342737 1.661705121e-38
0.3154716194 -0.3734968901 -0.1806835234 1.661705121e-38
0.379632622 -0.009502328932 -0.2410924882 1.661705121e-38
0.02956487238 -0.2650057971 -0.1490967572 1.661705121e-38
-0.0105642546 -0.4573547244 0.3503058553 1.661705121e-38
-0.01198354829 -0.181404382 -0.1986991465 1.661705121e-38
-0.06970244646 -0.2698300183 -0.153001219 1.680036207e-38
0.01207857952 -0.1364837885 -0.1780158728 1.680036207e-38
-0.1370352805 -0.1367879808 -0.1688661426 1.680036207e-38
0.0003385050222 -0.1806140244 -0.1996337771 1.680036207e-38
0.3126361072 -0.06164387986 -0.2137751579 1.680036207e-38
-0.234362781 -0.1522910297 -0.1593235731 1.680036207e-38
-0.2123163342 -0.3069142997 0.126535967 1.680036207e-38
-0.2245133072 -0.2351599932 0.05516944081 1.680036207e-38
-0.1894512624 -0.3208847046 0.03981250525 1.698367293e-38
-0.1000690535 -0.134416908 -0.1716699898 1.698367293e-38
-0.02219553851 -0.4596437812 0.3626219034 1.698367293e-38
0.05642051995 -0.7364711761 -0.1099252775 1.698367293e-38
-0.1365857422 -0.1863106787 -0.2121158093 1.698367293e-38
-0.2116584182 -0.1400315017 -0.1746398509 1.698367293e-38
0.3870728612 -0.3346771002 -0.1546094567 1.698367293e-38
-0.2276947051 -0.2816629112 0.1326550245 1.698367293e-38
-0.189619422 -0.2282929122 0.01822138391 1.716698239e-38
-0.1494643986 -0.245780766 0.03093024716 1.716698239e-38
-0.1893187612 -0.314701885 0.0605096519 1.716698239e-38
-0.2173124254 -0.2701937556 0.11827337 1.716698239e-38
-0.2259054333 -0.2628667951 -0.001155693084 1.716698239e-38
-0.07428464293 -0.1838575304 -0.2054074705 1.716698239e-38
0.1146909371 -0.1809940934 -0.1511383206 1.716698239e-38
-0.1511990726 -0.1302512884 -0.1757973433 1.716698239e-38
-0.2012507021 -0.2305819392 0.03053741157 1.735029324e-38
-0.2200652957 -0.260954082 -0.1459171474 1.735029324e-38
-0.05724115297 -0.7375897169 -0.1470393091 1.735029324e-38
0.3926454186 -0.01021063328 -0.2306457013 1.735029324e-38
0.01338911988 -0.4542753696 0.3370552361 1.735029324e-38
0.06254485995 -0.4572967291 0.3126196563 1.735029324e-38
-0.2015082985 -0.3093094528 0.08214141428 1.735029324e-38
0.06653103232 -0.2626347244 -0.1519006044 1.735029324e-38
-0.1727269888 -0.25035882 0.05556227639 1.75336041e-38
0.3574864864 -0.02944334596 -0.2350919396 1.75336041e-38
-0.08258275688 -0.2629389167 -0.1427508742 1.75336041e-38
-0.1388769895 -0.1294609159 -0.176731959 1.75336041e-38
0.02370986342 -0.1341947615 -0.1903318763 1.75336041e-38
0.2774771452 -0.08087659627 -0.2182213813 1.75336041e-38
0.01738199964 -0.7343462706 -0.1412656158 1.75336041e-38
0.06194883585 -0.1766622216 -0.2043068409 1.75336041e-38
0.311945349 -0.0601452142 -0.2251565307 1.771655483e-38
0.1769263893 -0.08605524153 -0.2393074334 1.771655483e-38
-0.2322650254 -0.2588066161 0.09437950701 1.771655483e-38
-0.1265549362 -0.1286705583 -0.1776665747 1.771655483e-38
0.3204664886 -0.3019083142 -0.1581989974 1.771655483e-38
0.2670948803 -0.09234575182 -0.2038397342 1.771655483e-38
0.2379784584 -0.07442194223 -0.234664768 1.771655483e-38
-0.1019107997 -0.1270898283 -0.1795358062 1.771655483e-38
-0.04560985789 -0.7353007793 -0.1593553424 1.789986569e-38
-0.2019414753 -0.2290832698 0.01915599965 1.789986569e-38
-0.06379362941 -0.1305471659 -0.1858552247 1.789986569e-38
0.218102783 -0.1851618588 -0.07894546539 1.789986569e-38
-0.2077432126 -0.2601637244 -0.1468517631 1.789986569e-38
-0.07026070356 -0.2621485591 -0.1436854899 1.789986569e-38
-0.2118996829 -0.1880555153 -0.2292708755 1.789986569e-38
-0.2021990567 -0.3078107834 0.07076002657 1.789986569e-38
-0.228801012 -0.2630549669 -0.06737840176 1.808317654e-38
0.1400258243 -0.1809120476 -0.1416261494 1.808317654e-38
0.01138781384 -0.1349851191 -0.1893972605 1.808317654e-38
0.1140001714 -0.1794954389 -0.1625197083 1.808317654e-38
0.3704993427 -0.03015164658 -0.2246451825 1.808317654e-38
0.2810022533 -0.2859191597 -0.1595264524 1.808317654e-38
0.127012983 -0.1802037358 -0.1520729363 1.808317654e-38
-0.245435819 -0.1622615457 -0.1563233137 1.808317654e-38
-0.2232642919 -0.2443401217 0.0572350882 1.826612727e-38
0.340115726 -0.3719161749 -0.1825527549 1.826612727e-38
0.1913863868 -0.1822465956 -0.1112204418 1.826612727e-38
-0.1130819023 -0.1337085962 -0.1821167618 1.826612727e-38
-0.05793865025 -0.2613582015 -0.1446201056 1.826612727e-38
0.1788661778 -0.09673403949 -0.225860402 1.826612727e-38
-0.1714779735 -0.2595389783 0.05762793124 1.826612727e-38
0.04271690547 -0.734264195 -0.1317534447 1.826612727e-38
-0.2329557985 -0.2573079765 0.08299811929 1.844943813e-38
-0.008643640205 -0.7329297066 -0.1621591896 1.844943813e-38
-0.1850745082 -0.1491295695 -0.163062036 1.844943813e-38
0.07680676132 -0.4671851397 0.325132072 1.844943813e-38
0.3353404403 -0.04938435927 -0.2290914208 1.844943813e-38
-0.2294917703 -0.2615562975 -0.07875981927 1.844943813e-38
-0.2227314562 -0.1500020027 -0.1716395766 1.844943813e-38
0.06517541409 -0.4694741964 0.3374480605 1.844943813e-38
-0.02488764748 -0.1388548613 -0.1752120256 1.863274899e-38
-0.1749334931 -0.1856844425 -0.2320747375 1.863274899e-38
0.1535313129 -0.09681610018 -0.2353725582 1.863274899e-38
0.004229933023 -0.2650878727 -0.1586089134 1.863274899e-38
-0.2272689492 -0.29552719 0.1026421115 1.863274899e-38
0.1653607488 -0.180829972 -0.1321139932 1.863274899e-38
0.2037084401 -0.181456238 -0.1121550575 1.863274899e-38
-0.0626533553 -0.1815685034 -0.2177234888 1.863274899e-38
-0.1562321484 -0.2909731865 0.0308117047 1.881569971e-38
0.2297341377 -0.1828728318 -0.09126146883 1.881569971e-38
0.2015705109 -0.0844745189 -0.2411766648 1.881569971e-38
0.05351821333 -0.2619264126 -0.1623473763 1.881569971e-38
0.3138851225 -0.07082401216 -0.2117094994 1.881569971e-38
-0.05033130199 -0.1807781458 -0.2186581045 1.881569971e-38
0.1761817634 -0.3546504378 -0.1765997112 1.881569971e-38
-0.07417592406 -0.1420163214 -0.1714735776 1.881569971e-38
0.1911882311 -0.0959436819 -0.2267950028 1.899901057e-38
0.04893602058 -0.1759539247 -0.2147536129 1.899901057e-38
-0.1272456944 -0.1271719038 -0.1890479624 1.899901057e-38
0.1002965942 -0.1772884727 -0.1843478978 1.899901057e-38
0.04960300028 -0.1417941898 -0.1901354492 1.899901057e-38
-0.2317067832 -0.2664881349 0.08506377786 1.899901057e-38
0.2883293927 -0.3567173481 -0.1829455793 1.899901057e-38
0.0612580739 -0.1751635522 -0.2156882286 1.899901057e-38
-0.02165648714 -0.732221365 -0.1726059616 1.91819627e-38
0.1885038763 -0.3538600802 -0.1775343269 1.91819627e-38
0.2269054353 -0.0843924582 -0.2316645086 1.91819627e-38
-0.1801854968 -0.2940525711 0.04406234995 1.91819627e-38
0.306204617 -0.2920198739 -0.170711413 1.91819627e-38
-0.1685541868 -0.2917635441 0.03174632043 1.91819627e-38
0.06584026664 -0.261136055 -0.1632819921 1.91819627e-38
-0.2279597223 -0.2940285504 0.09126073122 1.91819627e-38
0.1677931398 -0.1067045406 -0.2228601277 1.936527215e-38
0.3587355316 -0.03862348199 -0.2330262959 1.936527215e-38
0.2377921045 -0.3506986499 -0.1812727749 1.936527215e-38
-0.2304577678 -0.2756682634 0.08712942153 1.936527215e-38
-0.2084696293 -0.1598904431 -0.159127146 1.936527215e-38
0.2496097535 -0.07213291526 -0.2469807714 1.936527215e-38
0.2877711356 -0.3490358591 -0.1736298501 1.936527215e-38
-0.1919493079 -0.3025244176 0.03568120673 1.936527215e-38
0.001005483791 -0.1464543045 -0.1750155985 1.954822428e-38
0.3099710643 -0.05900096893 -0.2537194788 1.954822428e-38
-0.1633021683 -0.1833954155 -0.2443907559 1.954822428e-38
0.3131943643 -0.06932535022 -0.2230908871 1.954822428e-38
0.242056191 -0.1820824742 -0.09219608456 1.954822428e-38
-0.1925075501 -0.2948429286 0.04499696568 1.954822428e-38
-0.04699138924 -0.732303381 -0.1821181178 1.954822428e-38
-0.1857652664 -0.1476309001 -0.1744434237 1.954822428e-38
-0.2157701552 -0.2994209826 0.06962899119 1.973153514e-38
-0.05022254959 -0.1389369369 -0.1847241819 1.973153514e-38
0.2449487746 -0.1122867763 -0.1978392005 1.973153514e-38
-0.1580394059 -0.2741115689 0.0380618237 1.973153514e-38
-0.1325550675 -0.7393345833 -0.16419442 1.973153514e-38
0.3476624787 -0.04859399796 -0.2300260216 1.973153514e-38
-0.146408096 -0.271822542 0.02574579418 1.973153514e-38
0.2742539346 -0.07055219263 -0.2488500029 1.973153514e-38
-0.009182722308 -0.4603520632 0.3730686605 1.991448586e-38
0.0673610419 -0.7326834798 -0.1336226761 1.991448586e-38
-0.1386580318 -0.1818146855 -0.2462599874 1.991448586e-38
0.2153397202 -0.1791671962 -0.1244710609 1.991448586e-38
-0.06254460663 -0.1397272944 -0.1837895662 1.991448586e-38
0.2624362707 -0.3491179347 -0.1831420064 1.991448586e-38
0.286575973 -0.06976182759 -0.2497846186 1.991448586e-38
0.1424582154 -0.1067866012 -0.2323722839 1.991448586e-38
-0.06334412098 -0.1800698489 -0.2291048765 2.009743799e-38
0.08718902618 -0.4557159543 0.3107504249 2.009743799e-38
-0.03466930613 -0.7315130234 -0.1830527335 2.009743799e-38
-0.2009591311 -0.1842678338 -0.2529683113 2.009743799e-38
-0.2214824408 -0.1591821611 -0.1695739329 2.009743799e-38
-0.2318647355 -0.1706513166 -0.1551922709 2.009743799e-38
0.06528201699 -0.2534545958 -0.153966248 2.009743799e-38
-0.1279364675 -0.1256732345 -0.2004293799 2.009743799e-38
0.3388667107 -0.3627360463 -0.1846183985 2.028074885e-38
-0.07232627273 -0.7323854566 -0.191630289 2.028074885e-38
0.3000932038 -0.3482455015 -0.1745644659 2.028074885e-38
-0.1209237874 -0.7370455861 -0.1765104234 2.028074885e-38
0.3821306527 -0.02786261961 -0.236961171 2.028074885e-38
-0.2253365964 -0.2398441434 0.0230908785 2.028074885e-38
-0.1156144142 -0.124882862 -0.2013639957 2.028074885e-38
-0.2336645871 -0.2201515734 -0.05494388938 2.028074885e-38
-0.1703614593 -0.2749019265 0.0389964357 2.046369957e-38
-0.08867902309 -0.1801519096 -0.2386170328 2.046369957e-38
-0.1032923311 -0.1240925044 -0.2022986114 2.046369957e-38
0.3606753051 -0.0493023023 -0.2195792496 2.046369957e-38
-0.2165934443 -0.3041051328 0.03755043447 2.046369957e-38
-0.2293412387 -0.2910312116 0.0684979558 2.046369957e-38
0.3185266852 -0.2912295163 -0.1716460288 2.046369957e-38
-0.2422470003 -0.182120502 -0.140810594 2.046369957e-38
-0.1532713622 -0.1257552803 -0.2099415362 2.06466517e-38
0.214648962 -0.1776685417 -0.1358524412 2.06466517e-38
-0.0236386247 -0.1480350196 -0.173146382 2.06466517e-38
-0.04828276485 -0.1496157497 -0.1712771505 2.06466517e-38
0.3845748305 -0.3163168132 -0.1587407589 2.06466517e-38
0.2618780136 -0.3414364457 -0.1738262773 2.06466517e-38
-0.2289154977 -0.3048955202 0.0384850502 2.06466517e-38
0.08521141857 -0.1720841676 -0.2289388776 2.06466517e-38
-0.07635693997 -0.179361552 -0.2395516634 2.082996116e-38
0.187254861 -0.3446799517 -0.1795999706 2.082996116e-38
0.3315394819 -0.2919378281 -0.1611992568 2.082996116e-38
0.3951434493 -0.02857092395 -0.2265143991 2.082996116e-38
-0.2300500274 -0.2538748085 -0.06944406033 2.082996116e-38
0.174374491 -0.3377888203 -0.1693496257 2.082996116e-38
0.05279180408 -0.1616531461 -0.1746227592 2.082996116e-38
0.03872402012 -0.454193294 0.3465673923 2.082996116e-38
-0.146258682 -0.7371276617 -0.1860226095 2.101291328e-38
-0.06403488666 -0.1785711795 -0.2404862642 2.101291328e-38
0.03523243219 -0.1737469435 -0.2365818024 2.101291328e-38
0.2242210358 -0.3423088789 -0.1824038178 2.101291328e-38
0.1917464882 -0.1036251485 -0.2361107469 2.101291328e-38
-0.2206235528 -0.2532726228 -0.1366014183 2.101291328e-38
0.07818828523 -0.4701824784 0.3478948474 2.101291328e-38
-0.1223053187 -0.7340482473 -0.1992732286 2.101291328e-38
0.09200514853 -0.7311027646 -0.1354918927 2.119586541e-38
-0.1338108182 -0.2554215491 -0.1524594575 2.119586541e-38
-0.02706868947 -0.1762000918 -0.2432900965 2.119586541e-38
0.02814769745 -0.1632338613 -0.1727535278 2.119586541e-38
-0.2364096195 -0.2498146296 0.02609113976 2.119586541e-38
-0.23310633 -0.2278330624 -0.06425962597 2.119586541e-38
0.02709273435 -0.4564823508 0.3588834405 2.119586541e-38
0.1502755731 -0.1756256819 -0.176704973 2.119586541e-38
0.27550295 -0.07973234355 -0.2467843443 2.137881613e-38
0.09753353149 -0.1712937951 -0.2298734784 2.137881613e-38
-0.1039830893 -0.122593835 -0.2136799991 2.137881613e-38
-0.2083014697 -0.2524822652 -0.137536034 2.137881613e-38
0.07899232954 -0.7303944826 -0.1459386945 2.137881613e-38
-0.1846233457 -0.2650134861 0.0264839828 2.137881613e-38
0.3944526911 -0.02707225829 -0.2378957868 2.137881613e-38
0.04755448923 -0.1729565859 -0.2375164032 2.137881613e-38
0.2774427235 -0.09041114151 -0.2333373129 2.156176826e-38
0.3308487236 -0.2904391587 -0.1725806445 2.156176826e-38
0.2461977899 -0.1214669049 -0.1957735568 2.156176826e-38
-0.207327649 -0.2772730291 0.04180027917 2.156176826e-38
-0.09615387022 -0.2545491457 -0.143881917 2.156176826e-38
0.06459125131 -0.2519559264 -0.1653476357 2.156176826e-38
0.1936862767 -0.1143039688 -0.2226637006 2.156176826e-38
0.1370355636 -0.4602360129 0.2976962328 2.156176826e-38
0.3833796978 -0.03704275563 -0.2348955274 2.174471899e-38
0.07219859958 -0.1713758707 -0.2393856347 2.174471899e-38
-0.1598721147 -0.1552303433 -0.1742469966 2.174471899e-38
0.2913845479 -0.2744499743 -0.1739080995 2.174471899e-38
-0.221314311 -0.2517739534 -0.147982806 2.174471899e-38
0.06267736852 -0.4511139393 0.3333167732 2.174471899e-38
-0.2079113573 -0.1675719321 -0.16844289 2.174471899e-38
0.229403466 -0.1027527303 -0.2275332063 2.174471899e-38
0.3619243205 -0.05848243833 -0.217513606 2.192767111e-38
0.3001470566 -0.07815162838 -0.2486535758 2.192767111e-38
-0.2190914899 -0.2857448459 0.03341913223 2.192767111e-38
-0.0860298872 -0.7301784754 -0.2134584785 2.192767111e-38
0.3378384709 -0.06774462759 -0.2249601185 2.192767111e-38
0.2988441885 -0.3390653729 -0.1766301095 2.192767111e-38
-0.1277175099 -0.178027004 -0.2699573934 2.192767111e-38
0.05104608089 -0.4534029365 0.3456327617 2.192767111e-38
-0.2153535038 -0.1805621982 -0.2861778736 2.211062324e-38
0.03454167023 -0.1722482741 -0.2479631901 2.211062324e-38
-0.03471165895 -0.1580055207 -0.1701461077 2.211062324e-38
-0.232122317 -0.2493788302 -0.1035882682 2.211062324e-38
0.20600833 -0.1135136113 -0.2235983163 2.211062324e-38
-0.09006055444 -0.1771545708 -0.261379838 2.211062324e-38
-0.2089922279 -0.2509835958 -0.1489174217 2.211062324e-38
-0.08399993181 -0.161166966 -0.1664076596 2.211062324e-38
-0.05935579911 -0.1595862508 -0.1682768762 2.229357396e-38
0.00350352563 -0.1648145914 -0.1708842963 2.229357396e-38
-0.0716778785 -0.1603766084 -0.1673422605 2.229357396e-38
-0.04008151218 -0.1754917949 -0.2537369132 2.229357396e-38
-0.2325480729 -0.2355145514 -0.07357536256 2.229357396e-38
0.3163831532 -0.08918430656 -0.2075781971 2.229357396e-38
0.1731254756 -0.3286087215 -0.1714152694 2.229357396e-38
-0.1086440757 -0.162747696 -0.1645384282 2.229357396e-38
0.1098555848 -0.1705034375 -0.230808109 2.247652609e-38
0.3267654181 -0.07771514356 -0.2219598442 2.247652609e-38
0.3612335622 -0.05698377267 -0.2288949937 2.247652609e-38
-0.1113647819 -0.730260551 -0.2229706347 2.247652609e-38
0.2644298673 -0.08970284462 -0.2437840849 2.247652609e-38
0.2509244084 -0.1737987846 -0.1500376761 2.247652609e-38
-0.01543737296 -0.1739110649 -0.2556061447 2.247652609e-38
0.1493576169 -0.4594456553 0.2967616022 2.247652609e-38
0.3240466118 -0.3451661468 -0.1878150851 2.265947681e-38
0.2729510367 -0.3314659595 -0.1768265367 2.265947681e-38
-0.2283663303 -0.1798538864 -0.2966246605 2.265947681e-38
0.3431708515 -0.2896488011 -0.1735152602 2.265947681e-38
-0.216044277 -0.1790635288 -0.2975592911 2.265947681e-38
-0.02308036946 -0.1557164937 -0.1824621111 2.265947681e-38
-0.232680589 -0.2416973412 -0.09427250922 2.265947681e-38
0.1449562609 -0.1251468956 -0.2282409817 2.265947681e-38
0.1742289811 -0.1725462973 -0.1899555922 2.284242894e-38
0.01513487846 -0.1625255644 -0.1832002997 2.284242894e-38
-0.03540242463 -0.1565068662 -0.1815274954 2.284242894e-38
-0.0345435366 -0.2505973279 -0.1485549808 2.284242894e-38
-0.2037221938 -0.1782731712 -0.298493892 2.284242894e-38
0.2981534302 -0.3375667334 -0.1880114973 2.284242894e-38
-0.1490217447 -0.7311329842 -0.2315481752 2.284242894e-38
0.03938888013 -0.2458551526 -0.1541626751 2.284242894e-38
0.3234883547 -0.3374846578 -0.178499341 2.302537966e-38
0.2906537056 -0.1774223596 -0.1073159277 2.302537966e-38
-0.1366996616 -0.7303426266 -0.2324827909 2.302537966e-38
0.2476161718 -0.3315480053 -0.1863387078 2.302537966e-38
0.2502336502 -0.1723001152 -0.1614190936 2.302537966e-38
0.1296621412 -0.7302303314 -0.1269143522 2.302537966e-38
0.2410347611 -0.1004637033 -0.2398492098 2.302537966e-38
-0.08469069749 -0.1596682966 -0.1777890474 2.302537966e-38
-0.2290570885 -0.178355217 -0.3080060482 2.320833179e-38
-0.1914001405 -0.1774828136 -0.2994285226 2.320833179e-38
0.2901355326 -0.2652698159 -0.1759737581 2.320833179e-38
0.002812761813 -0.163315922 -0.182265684 2.320833179e-38
-0.08672064543 -0.7286798358 -0.2248398662 2.320833179e-38
-0.1924005151 -0.1866405159 -0.1538648158 2.320833179e-38
0.3013960719 -0.08733175695 -0.2465879321 2.320833179e-38
0.2599382401 -0.3307576478 -0.1872733086 2.320833179e-38
0.2899629176 -0.1759236902 -0.1186973676 2.339092378e-38
-0.04906368628 -0.7278074026 -0.2162623256 2.339092378e-38
0.09895282984 -0.4472441673 0.3191315532 2.339092378e-38
0.03041404672 -0.4701584578 0.3950932622 2.339092378e-38
-0.04077227414 -0.1739931256 -0.2651183009 2.339092378e-38
-0.08275090903 -0.1703471243 -0.1643420011 2.339092378e-38
0.2772552073 -0.2583787143 -0.1657233983 2.339092378e-38
-0.2177353799 -0.1867225766 -0.1633769721 2.339092378e-38
-0.01612813771 -0.1724123955 -0.2669875324 2.348204041e-38
0.3046193123 -0.09765616059 -0.2159593105 2.348204041e-38
0.1838622689 -0.1334546208 -0.2175977826 2.348204041e-38
0.1084740534 -0.1675061136 -0.2535708845 2.348204041e-38
0.2625556886 -0.1715097576 -0.1623536944 2.348204041e-38
0.05849501118 -0.1691688895 -0.2612138093 2.348204041e-38
0.0873215422 -0.4495331645 0.3314475417 2.348204041e-38
0.2593799829 -0.3230761886 -0.1779575795 2.348204041e-38
0.1481085867 -0.4502655268 0.2946959734 2.348132155e-38
0.3486907184 -0.343585372 -0.1896843165 2.348132155e-38
0.3865684867 -0.05690170825 -0.2193828374 2.348132155e-38
0.2094009221 -0.3247389793 -0.1856005043 2.348132155e-38
0.229961738 -0.1104342192 -0.2368489355 2.348132155e-38
-0.0095092915 -0.1641062796 -0.1813310683 2.348132155e-38
-0.2348853797 -0.2433841527 -0.1491138339 2.348132155e-38
0.3280144334 -0.08689527959 -0.2198942006 2.348132155e-38
-0.1290990412 -0.1750296652 -0.2927201688 2.348060128e-38
0.2717020214 -0.322285831 -0.1788921952 2.348060128e-38
0.09120111167 -0.47089082 0.3583416641 2.348060128e-38
-0.02291221544 -0.248308301 -0.1608709842 2.348060128e-38
-0.03415340185 -0.1656870246 -0.1794618517 2.348060128e-38
0.2676186562 -0.109561801 -0.228271395 2.348060128e-38
-0.1431122124 -0.1834790707 -0.1576032788 2.348060128e-38
0.2701511979 -0.1183875203 -0.209024176 2.348060128e-38
0.3137181401 -0.08654139936 -0.2475225478 2.347952368e-38
0.1462052763 -0.134327054 -0.2261753231 2.347952368e-38
