# .PCD v0.7 - Point Cloud Data file format
VERSION 0.7
FIELDS x y z rgb
SIZE 4 4 4 4
TYPE F F F F
COUNT 1 1 1 1
WIDTH 850
HEIGHT 1
VIEWPOINT 0 0 0 1 0 0 0
POINTS 850
DATA ascii
0.1941686869 -0.2945946753 0.1177233309 1.459991851e-38
0.149351716 -0.3170950711 0.142611742 1.459991851e-38
0.1443479359 -0.2804147601 0.1343174428 1.478322936e-38
0.08805014193 -0.3087307513 0.1887047291 1.478322936e-38
0.09110103548 -0.3347271085 0.1835570782 1.478322936e-38
0.2420299053 -0.1801432222 0.09363316 1.478322936e-38
0.2193398476 -0.1923953295 0.1089817733 1.478322936e-38
0.3546261191 -0.1994068325 -0.03552888334 1.478322936e-38
0.378018111 -0.1886685491 -0.03950916976 1.478322936e-38
0.1504146904 -0.2337802649 0.1229962111 1.478322936e-38
0.1184540689 -0.2728129029 0.1341505796 1.496689755e-38
0.1506026536 -0.3262651265 0.1446853131 1.496689755e-38
0.2075673342 -0.2008357048 0.1006403789 1.496689755e-38
0.1789984852 -0.352207154 0.1489993036 1.496689755e-38
0.1731048077 -0.2215281725 0.1076476052 1.496689755e-38
0.1714509577 -0.248537302 0.296303153 1.496689755e-38
0.1828549355 -0.2846077383 0.1713712066 1.496689755e-38
0.08256001025 -0.2321682274 0.2816523612 1.496689755e-38
0.1622221917 -0.3239671886 0.1323636323 1.515020841e-38
0.1579203606 -0.2888007462 0.1354376674 1.515020841e-38
0.2173175067 -0.2639152706 0.1643639952 1.515020841e-38
0.1591712981 -0.2979708016 0.1375112385 1.515020841e-38
0.1906180084 -0.3499092162 0.1366776228 1.515020841e-38
0.128273651 -0.2536886334 0.129050076 1.515020841e-38
0.0975086689 -0.374435097 0.2145880759 1.515020841e-38
0.5131509304 -0.1403270215 0.1611204892 1.515020841e-38
0.08304636925 -0.2720504105 0.1804104447 1.533351927e-38
0.1848772764 -0.2130877972 0.1159889922 1.533351927e-38
0.1398931742 -0.2513907254 0.1167284027 1.533351927e-38
0.2309593856 -0.1900974214 0.09666009247 1.533351927e-38
0.192570895 -0.3605931401 0.1501195282 1.533351927e-38
0.08240708709 -0.2383106351 0.260989219 1.533351927e-38
0.5015313625 -0.1426249444 0.17344217 1.533351927e-38
0.08429731429 -0.2812205255 0.1824840158 1.533351927e-38
0.1695399582 -0.2865028083 0.1231159717 1.551683013e-38
0.2171645761 -0.270057708 0.1437009126 1.551683013e-38
0.1604222357 -0.3071408868 0.1395848095 1.551683013e-38
0.4371236265 -0.1664078832 -0.04842311144 1.551683013e-38
0.1014144272 -0.3958029151 0.2414718717 1.551683013e-38
0.183160767 -0.2723228931 0.2126974165 1.551683013e-38
0.087501131 -0.3010745049 0.1979994923 1.551683013e-38
0.08225417882 -0.2444530725 0.2403261513 1.551683013e-38
0.3787200451 -0.1901823878 -0.02814085037 1.570049832e-38
0.194870621 -0.2961084843 0.1290916502 1.570049832e-38
0.09946154058 -0.3851189911 0.2280299664 1.570049832e-38
0.204190433 -0.3582951725 0.1377978474 1.570049832e-38
0.09430485964 -0.3545811176 0.1990725994 1.570049832e-38
0.171999976 -0.2561935484 0.2870084047 1.570049832e-38
0.1830078512 -0.2784653306 0.1920342892 1.570049832e-38
0.171756804 -0.236252442 0.337629348 1.570049832e-38
0.2061433047 -0.3689790964 0.1512397379 1.588380918e-38
0.1738067418 -0.2230419815 0.1190159246 1.588380918e-38
0.1964968145 -0.2107898593 0.1036673114 1.588380918e-38
0.1716038734 -0.2423948646 0.3169662654 1.588380918e-38
0.1720418334 -0.3048429489 0.1272631139 1.588380918e-38
0.4137316048 -0.1771461517 -0.04444282502 1.588380918e-38
0.2177136093 -0.2777139544 0.1344061047 1.588380918e-38
0.3435555696 -0.2093610018 -0.03250195831 1.588380918e-38
0.1307755411 -0.2720288038 0.1331972331 1.606712004e-38
0.1757946759 -0.3323531747 0.133483842 1.606712004e-38
0.08265027404 -0.2582517564 0.2103682756 1.606712004e-38
0.5138528347 -0.1418408453 0.1724888235 1.606712004e-38
0.219888851 -0.2000515759 0.0996870175 1.606712004e-38
0.390339613 -0.18788445 -0.0404625386 1.606712004e-38
0.1732927859 -0.3140130341 0.1293366998 1.606712004e-38
0.1516656429 -0.24295035 0.125069797 1.606712004e-38
0.08319929242 -0.2659080029 0.2010735124 1.625043089e-38
0.206490159 -0.2938105464 0.1167699695 1.625043089e-38
0.1295245886 -0.2628587186 0.1311236471 1.625043089e-38
0.1682890058 -0.2773327231 0.1210424006 1.625043089e-38
0.1913199425 -0.3514230549 0.1480459571 1.625043089e-38
0.1411441267 -0.2605607808 0.1188019738 1.625043089e-38
0.1743557453 -0.2306982279 0.1097211763 1.625043089e-38
0.2188742906 -0.2608004808 0.2077637613 1.625043089e-38
0.1725489795 -0.2638497949 0.2777136266 1.643374035e-38
0.09305391461 -0.3454110324 0.1969990283 1.643374035e-38
0.1745437235 -0.3231830895 0.1314102709 1.643374035e-38
0.21872136 -0.2669429183 0.187100634 1.643374035e-38
0.1522146463 -0.2506065965 0.1157750413 1.643374035e-38
0.2432808578 -0.1893133074 0.09570673108 1.643374035e-38
0.08695212007 -0.2934182286 0.2072942406 1.643374035e-38
0.3910415471 -0.1893982738 -0.02909421176 1.643374035e-38
0.1838627011 -0.2738367021 0.2240657359 1.661705121e-38
0.3442575037 -0.2108748257 -0.02113363147 1.661705121e-38
0.3676495254 -0.2001365423 -0.02511391789 1.661705121e-38
0.2205907851 -0.2015654147 0.1110553443 1.661705121e-38
0.33248505 -0.219315201 -0.02947502583 1.661705121e-38
0.1846548915 -0.3014340699 0.1641500294 1.661705121e-38
0.1723058075 -0.2439086884 0.3283345997 1.661705121e-38
0.2048923671 -0.3598090112 0.1491661668 1.661705121e-38
0.2182626128 -0.2853702009 0.1251113564 1.680036207e-38
0.2088182867 -0.2100057602 0.10271395 1.680036207e-38
0.098210603 -0.3759489059 0.2259563953 1.680036207e-38
0.3558770418 -0.2085768878 -0.03345531225 1.680036207e-38
0.2184155285 -0.2792277932 0.1457744837 1.680036207e-38
0.4267550111 -0.1778758764 -0.03402785957 1.680036207e-38
0.09000301361 -0.3194146156 0.2021466345 1.680036207e-38
0.3792690635 -0.1978386194 -0.03743559867 1.680036207e-38
0.186128214 -0.2222578824 0.1180625707 1.698367293e-38
0.1430969983 -0.2712447047 0.1322438717 1.698367293e-38
0.1837097853 -0.2799791396 0.2034026682 1.698367293e-38
0.2071920931 -0.2953243852 0.1281382889 1.698367293e-38
0.4026610851 -0.1871003509 -0.04141589254 1.698367293e-38
0.1727019101 -0.2577073574 0.2983767092 1.698367293e-38
0.1843632907 -0.3040588498 0.1263097674 1.698367293e-38
0.1689909399 -0.2788465619 0.13241072 1.698367293e-38
0.2165119052 -0.3575110734 0.136844486 1.716698239e-38
0.17399472 -0.3155268431 0.1407050192 1.716698239e-38
0.1750576794 -0.2322120667 0.1210895032 1.716698239e-38
0.1001634747 -0.3866328299 0.2393983006 1.716698239e-38
0.3097949326 -0.2315672934 -0.01412640512 1.716698239e-38
0.1962744743 -0.2991361618 0.1518283486 1.716698239e-38
0.1547165364 -0.2689467669 0.1199221909 1.716698239e-38
0.1639871746 -0.2421662509 0.1241164356 1.716698239e-38
0.2322103381 -0.1992674768 0.09873366356 1.735029324e-38
0.4033630192 -0.1886141598 -0.0300475657 1.735029324e-38
0.1418460608 -0.2620745897 0.1301703006 1.735029324e-38
0.08335220069 -0.2597655952 0.221736595 1.735029324e-38
0.1856142431 -0.313228935 0.1283833385 1.735029324e-38
0.1977477521 -0.2199599743 0.1057408899 1.735029324e-38
0.2195762098 -0.2623143196 0.2191320807 1.735029324e-38
0.1534655988 -0.2597766817 0.1178486124 1.735029324e-38
0.3331869841 -0.22082901 -0.01810669899 1.75336041e-38
0.08381094784 -0.2413382828 0.2837259173 1.75336041e-38
0.08390121907 -0.2674218416 0.2124418467 1.75336041e-38
0.180610463 -0.276548624 0.1200890392 1.75336041e-38
0.1825633496 -0.2872325182 0.1335309446 1.75336041e-38
0.2095202208 -0.211519599 0.1140822768 1.75336041e-38
0.1868651807 -0.3223989904 0.1304569095 1.75336041e-38
0.1756066978 -0.2398683131 0.1117947474 1.75336041e-38
0.2036414146 -0.350638926 0.1470925957 1.771655483e-38
0.1961842179 -0.273052603 0.2231123894 1.771655483e-38
0.08365803212 -0.2474807203 0.2630628049 1.771655483e-38
0.1838142872 -0.2964026034 0.1356045157 1.771655483e-38
0.1732509136 -0.2653636038 0.2890819609 1.771655483e-38
0.1645361781 -0.2498224974 0.1148216799 1.771655483e-38
0.1730077416 -0.2454225123 0.339702934 1.771655483e-38
0.08445023 -0.2750780582 0.2031470835 1.771655483e-38
0.1728548259 -0.2515649498 0.3190398514 1.789986569e-38
0.2191174626 -0.2807416022 0.157142818 1.789986569e-38
0.1853568256 -0.3029478788 0.1755183637 1.789986569e-38
0.1842587888 -0.287635386 0.1941078603 1.789986569e-38
0.2078940272 -0.2968382239 0.1395066082 1.789986569e-38
0.368198514 -0.2077927887 -0.03440867364 1.789986569e-38
0.08350512385 -0.2536231577 0.2423997223 1.789986569e-38
0.1954338253 -0.2941046655 0.1232828349 1.789986569e-38
0.08570117503 -0.2842481732 0.2052206695 1.808317654e-38
0.4156844914 -0.1878300607 -0.03100092709 1.808317654e-38
0.2211398035 -0.2092216611 0.1017605886 1.808317654e-38
0.2192703784 -0.2745991945 0.1778058857 1.808317654e-38
0.09250489622 -0.337754786 0.2062937766 1.808317654e-38
0.1850652248 -0.3055726588 0.1376780868 1.808317654e-38
0.1554184705 -0.2704605758 0.1312905103 1.808317654e-38
0.1984496862 -0.2214737833 0.1171092093 1.808317654e-38
0.1969764084 -0.3006499708 0.163196668 1.826612727e-38
0.09695965797 -0.3667788208 0.2238828242 1.826612727e-38
0.1888180673 -0.3330829144 0.1438988149 1.826612727e-38
0.2172138393 -0.3590249121 0.1482128203 1.826612727e-38
0.08890499175 -0.3041021526 0.2207361311 1.826612727e-38
0.3221164048 -0.2307831943 -0.01507976651 1.826612727e-38
0.09070494771 -0.3209284544 0.2135149539 1.826612727e-38
0.2201252282 -0.269970566 0.2098373324 1.826612727e-38
0.2196664661 -0.2883978486 0.1478480548 1.844943813e-38
0.1966847628 -0.3032747507 0.125356406 1.844943813e-38
0.1863161772 -0.314742744 0.1397516578 1.844943813e-38
0.2195135653 -0.2945402861 0.1271849275 1.844943813e-38
0.2445318103 -0.1984833777 0.09778030217 1.844943813e-38
0.2288333774 -0.3567269742 0.1358911395 1.844943813e-38
0.1670380682 -0.2681626678 0.1189688295 1.844943813e-38
0.173799932 -0.2730198801 0.2797872126 1.844943813e-38
0.08451288193 -0.2428521216 0.2950942516 1.863274899e-38
0.2004376054 -0.3307849765 0.1315771341 1.863274899e-38
0.3922924995 -0.1985683441 -0.02702064067 1.863274899e-38
0.3689004481 -0.2093066275 -0.0230403468 1.863274899e-38
0.1028182805 -0.3988305628 0.264208585 1.863274899e-38
0.1875671148 -0.3239127994 0.1418252289 1.863274899e-38
0.310343951 -0.2392235696 -0.02342115343 1.863274899e-38
0.08435996622 -0.248994559 0.2744311094 1.863274899e-38
0.2198193967 -0.2822554111 0.1685111374 1.881569971e-38
0.1989986897 -0.2291300297 0.107814461 1.881569971e-38
0.2424058318 -0.3651129305 0.1370113492 1.881569971e-38
0.3571279943 -0.2177469879 -0.03138174117 1.881569971e-38
0.4280059636 -0.1870459616 -0.03195428103 1.881569971e-38
0.1929319352 -0.2757645249 0.1191356853 1.881569971e-38
0.1991866529 -0.3216148913 0.1295035481 1.881569971e-38
0.3805199862 -0.2070086896 -0.03536202759 1.881569971e-38
0.09195589274 -0.3300985396 0.2155885398 1.899901057e-38
0.08515215665 -0.276591897 0.2145154178 1.899901057e-38
0.1739528477 -0.2668774128 0.3004502952 1.899901057e-38
0.09570872039 -0.3576087654 0.2218092531 1.899901057e-38
0.2159628868 -0.3498548269 0.1461392343 1.899901057e-38
0.2334612608 -0.208437562 0.1008072346 1.899901057e-38
0.1860587448 -0.3044617176 0.1868866831 1.899901057e-38
0.1855097264 -0.2968054414 0.1961814314 1.899901057e-38
0.1973866969 -0.3047885597 0.1367247254 1.91819627e-38
0.1677400023 -0.2696764767 0.1303371489 1.91819627e-38
0.08640310168 -0.2857619822 0.2165889889 1.91819627e-38
0.4046139717 -0.1977842301 -0.02797399461 1.91819627e-38
0.2202154994 -0.2960541248 0.1385532618 1.91819627e-38
0.2275824249 -0.3475568891 0.1338175535 1.91819627e-38
0.3344379365 -0.2299990952 -0.0160331279 1.91819627e-38
0.2011395395 -0.3322988153 0.1429454535 1.91819627e-38
0.3110458851 -0.2407373786 -0.01205283403 1.936527215e-38
0.2092978805 -0.2998658419 0.1622433215 1.936527215e-38
0.1664890647 -0.2605063915 0.1282635778 1.936527215e-38
0.1745018512 -0.274533689 0.2911555469 1.936527215e-38
0.2206742316 -0.2776268125 0.2005425841 1.936527215e-38
0.209006235 -0.3024906218 0.1244030446 1.936527215e-38
0.2205213308 -0.2837692499 0.1798794568 1.936527215e-38
0.1742586792 -0.2545925975 0.3417764902 1.936527215e-38
0.1793595254 -0.2673785388 0.1180154681 1.954822428e-38
0.4162335098 -0.1954863071 -0.04029568285 1.954822428e-38
0.08506189287 -0.2505083978 0.2857995033 1.954822428e-38
0.2341631949 -0.209951371 0.112175554 1.954822428e-38
0.3460574746 -0.2277011573 -0.02835480869 1.954822428e-38
0.1775595695 -0.2505522072 0.1252366453 1.954822428e-38
0.199888587 -0.3231287003 0.1408718675 1.954822428e-38
0.2127590775 -0.3300008476 0.1306237727 1.954822428e-38
0.2147119492 -0.3406847715 0.1440656632 1.973153514e-38
0.0996144563 -0.3789765537 0.248693049 1.973153514e-38
0.2102571875 -0.3116607368 0.1264766306 1.973153514e-38
0.2210703343 -0.2914254963 0.1705847085 1.973153514e-38
0.4169354439 -0.197000131 -0.028927356 1.973153514e-38
0.08490897715 -0.2566508055 0.2651363611 1.973153514e-38
0.2072062939 -0.28566432 0.1316242218 1.973153514e-38
0.08475606889 -0.2627932429 0.2444732934 1.973153514e-38
0.2084572315 -0.2948344052 0.1336977929 1.991448586e-38
0.2209174186 -0.2975679338 0.1499216408 1.991448586e-38
0.2263314724 -0.3383868337 0.1317439824 1.991448586e-38
0.2099998146 -0.3013796806 0.1736116409 1.991448586e-38
0.0858540833 -0.278105706 0.2258837372 1.991448586e-38
0.1974351555 -0.2822226882 0.2251859456 1.991448586e-38
0.2052534074 -0.274980396 0.1181823239 1.991448586e-38
0.2230926752 -0.2199055851 0.115202494 1.991448586e-38
0.245782733 -0.2076534629 0.09985387325 2.009743799e-38
0.08710502833 -0.287275821 0.2279573083 2.009743799e-38
0.3467594087 -0.2292149812 -0.01698648185 2.009743799e-38
0.228284359 -0.3490707278 0.1451858729 2.009743799e-38
0.3701514006 -0.2184767127 -0.02096676826 2.009743799e-38
0.09641064703 -0.3591226041 0.2331775725 2.009743799e-38
0.1867606789 -0.3059755564 0.1982550025 2.009743799e-38
0.4285549819 -0.194702208 -0.04124903679 2.009743799e-38
0.1862116605 -0.2983192801 0.2075498104 2.028074885e-38
0.1750508696 -0.2821899652 0.2818607986 2.028074885e-38
0.2399039567 -0.34677279 0.1328641921 2.028074885e-38
0.2200767696 -0.2925364673 0.1213761121 2.028074885e-38
0.22122325 -0.2852830887 0.1912477911 2.028074885e-38
0.2120220959 -0.2298597395 0.1182294264 2.028074885e-38
0.2134610116 -0.3315146863 0.1419920921 2.028074885e-38
0.429256916 -0.196216017 -0.02988070995 2.028074885e-38
0.09030885249 -0.3071298003 0.2434728444 2.046369957e-38
0.2009515762 -0.2398139536 0.1212563664 2.046369957e-38
0.3817709386 -0.2161787748 -0.0332884565 2.046369957e-38
0.2217722684 -0.2929393053 0.1819530278 2.046369957e-38
0.1752037853 -0.2760475278 0.3025238514 2.046369957e-38
0.2216193527 -0.2990817428 0.1612899601 2.046369957e-38
0.2109591216 -0.3131745458 0.13784495 2.046369957e-38
0.3349869549 -0.2376553416 -0.02532787621 2.046369957e-38
0.09390875697 -0.3407824337 0.2290304303 2.06466517e-38
0.08561091125 -0.2581646144 0.2765046954 2.06466517e-38
0.095159702 -0.3499525189 0.2311040014 2.06466517e-38
0.2097566128 -0.2814385891 0.2242325991 2.06466517e-38
0.09836351126 -0.3698064685 0.246619463 2.06466517e-38
0.2107017487 -0.3028935194 0.1849799603 2.06466517e-38
0.4058648944 -0.2069543004 -0.02590042353 2.06466517e-38
0.2236416787 -0.2275618017 0.1059077382 2.06466517e-38
0.2270334065 -0.3399006724 0.1431123018 2.082996116e-38
0.2225786597 -0.3108766079 0.1255232692 2.082996116e-38
0.4408764541 -0.193918094 -0.04220239073 2.082996116e-38
0.09155979007 -0.3162998557 0.2455464005 2.082996116e-38
0.3824728727 -0.2176925987 -0.02192012966 2.082996116e-38
0.1003163904 -0.3804903924 0.260061413 2.082996116e-38
0.2386530042 -0.3376027048 0.130790621 2.082996116e-38
0.3590808809 -0.2284308821 -0.01793984324 2.082996116e-38
0.08975984156 -0.2994735241 0.2527675927 2.101291328e-38
0.2238295972 -0.3200466633 0.1275968403 2.101291328e-38
0.1863645762 -0.2921768427 0.2282128781 2.101291328e-38
0.175356701 -0.2699050903 0.3231869936 2.101291328e-38
0.08600701392 -0.2719632983 0.2465468645 2.101291328e-38
0.2125711143 -0.2375160158 0.1089346781 2.101291328e-38
0.3122968078 -0.2499074638 -0.009979262948 2.101291328e-38
0.4415783882 -0.1954319179 -0.03083407134 2.101291328e-38
0.1923829317 -0.2681082785 0.128430441 2.119586541e-38
0.09335974604 -0.3331261873 0.2383251786 2.119586541e-38
0.0865560174 -0.2796195447 0.2372521162 2.119586541e-38
0.4174844325 -0.2046563625 -0.03822210431 2.119586541e-38
0.2175748795 -0.2741962969 0.1172289699 2.119586541e-38
0.1022692621 -0.3911742866 0.2735033333 2.119586541e-38
0.1757528037 -0.2837037742 0.2932291031 2.119586541e-38
0.3940924406 -0.2153946757 -0.03424181789 2.119586541e-38
0.09711257368 -0.3606364131 0.2445458919 2.137881613e-38
0.2406058908 -0.3482866287 0.1442325115 2.137881613e-38
0.2220296413 -0.3032203615 0.1348180175 2.137881613e-38
0.2243435979 -0.2290756404 0.1172760651 2.137881613e-38
0.4181863666 -0.2061702013 -0.02685378492 2.137881613e-38
0.2224741876 -0.2944531441 0.1933213621 2.137881613e-38
0.1869135946 -0.2998331189 0.2189181298 2.137881613e-38
0.3239163458 -0.2476095259 -0.02230094373 2.137881613e-38
0.2470336854 -0.2168235481 0.1019274518 2.156176826e-38
0.1911319941 -0.2589381933 0.126356855 2.156176826e-38
0.2311473489 -0.282582283 0.1183491871 2.156176826e-38
0.2257824838 -0.3307305872 0.1410387307 2.156176826e-38
0.2323983014 -0.2917523682 0.1204227507 2.156176826e-38
0.3473084271 -0.2368712425 -0.02628123015 2.156176826e-38
0.2522254288 -0.3459886909 0.1319108307 2.156176826e-38
0.09281073511 -0.3254699111 0.2476199865 2.156176826e-38
0.2114036679 -0.3044073284 0.1963482946 2.174471899e-38
0.2022025138 -0.248984009 0.1233299375 2.174471899e-38
0.2230232209 -0.3021094203 0.1840266138 2.174471899e-38
0.2232805938 -0.3123904467 0.1368915886 2.174471899e-38
0.2374020517 -0.3284326494 0.12871705 2.174471899e-38
0.09461068362 -0.3422962427 0.2403987497 2.174471899e-38
0.08615992218 -0.2658208907 0.2672099471 2.174471899e-38
0.233649224 -0.3009224236 0.1224963218 2.174471899e-38
0.09906545281 -0.3713203073 0.2579878569 2.192767111e-38
0.1760586351 -0.2714188993 0.3345553279 2.192767111e-38
0.2359631658 -0.2267777026 0.1049543843 2.192767111e-38
0.3128458261 -0.2575637102 -0.01927401125 2.192767111e-38
0.2657978237 -0.3543746471 0.1330310553 2.192767111e-38
0.371402353 -0.2276467681 -0.01889319718 2.192767111e-38
0.2477356195 -0.218337357 0.1132957786 2.192767111e-38
0.4064139128 -0.2146105617 -0.03519517183 2.192767111e-38
0.09226172417 -0.3178136945 0.2569147348 2.211062324e-38
0.3246182799 -0.2491233647 -0.01093261689 2.211062324e-38
0.231849283 -0.2840961218 0.1297175139 2.211062324e-38
0.1997841299 -0.3067052662 0.2086700201 2.211062324e-38
0.2331002355 -0.2932661772 0.131791085 2.211062324e-38
0.236151129 -0.3192625642 0.1266434789 2.211062324e-38
0.2248926163 -0.2367319167 0.1079813167 2.211062324e-38
0.2138220519 -0.2466860712 0.1110082492 2.211062324e-38
0.1764547378 -0.2852175832 0.3045974374 2.229357396e-38
0.2509744763 -0.3368186057 0.1298372597 2.229357396e-38
0.09406168014 -0.3346400261 0.2496935725 2.229357396e-38
0.2226271182 -0.2883107066 0.2139844894 2.229357396e-38
0.08850889653 -0.2903034687 0.2506940067 2.229357396e-38
0.3830218911 -0.2253488451 -0.03121487796 2.229357396e-38
0.0872579515 -0.2811333537 0.2486204505 2.229357396e-38
0.2298963964 -0.2734121978 0.1162756085 2.229357396e-38
0.1876155138 -0.3013469279 0.2302864641 2.247652609e-38
0.3596298993 -0.2360871434 -0.02723459154 2.247652609e-38
0.1029711962 -0.3926881254 0.2848716378 2.247652609e-38
0.09781450778 -0.3621502519 0.2559142709 2.247652609e-38
0.2110075653 -0.2906086445 0.2263061851 2.247652609e-38
0.2381039858 -0.3299464881 0.1400853693 2.247652609e-38
0.1766076535 -0.2790751755 0.3252605796 2.247652609e-38
0.1767605692 -0.2729327083 0.3459236324 2.247652609e-38
0.09351266921 -0.3269837499 0.258988291 2.265947681e-38
0.243468821 -0.2817981839 0.1173958257 2.265947681e-38
0.2447197735 -0.2909682393 0.1194693968 2.265947681e-38
0.264546901 -0.3452045619 0.1309574842 2.265947681e-38
0.08686185628 -0.2673346996 0.2785782814 2.265947681e-38
0.214523986 -0.2481999099 0.1223765761 2.265947681e-38
0.4187353849 -0.2138264626 -0.03614853323 2.265947681e-38
0.2163239419 -0.2650262415 0.1151553988 2.265947681e-38
0.3837238252 -0.226862669 -0.01984655857 2.284242894e-38
0.2497235239 -0.3276485503 0.1277636886 2.284242894e-38
0.09531261772 -0.3438100815 0.2517671287 2.284242894e-38
0.09656356275 -0.3529801667 0.2538407147 2.284242894e-38
0.2482846379 -0.2259936035 0.1040010229 2.284242894e-38
0.3603318334 -0.2376009673 -0.0158662647 2.284242894e-38
0.2368530631 -0.3207763731 0.1380117983 2.284242894e-38
0.09976737201 -0.3728341162 0.2693561614 2.284242894e-38
0.2150730044 -0.2558561563 0.1130818203 2.302537966e-38
0.2516764104 -0.3383324444 0.1412055939 2.302537966e-38
0.1999370456 -0.300562799 0.2293330878 2.302537966e-38
0.09296365082 -0.3193275034 0.2682830691 2.302537966e-38
0.2472216487 -0.3093084097 0.1236165464 2.302537966e-38
0.3140967786 -0.2667337954 -0.01720043272 2.302537966e-38
0.217025876 -0.2665400505 0.1265237182 2.302537966e-38
0.200486064 -0.3082190752 0.2200383395 2.302537966e-38
0.2441707551 -0.2833119929 0.1287641525 2.320833179e-38
0.2007016242 -0.2698506713 0.3326486051 2.320833179e-38
0.1770037413 -0.2928738594 0.2953026891 2.320833179e-38
0.09476361424 -0.3361538351 0.261061877 2.320833179e-38
0.1889291108 -0.2782910466 0.3243072033 2.320833179e-38
0.09116369486 -0.3025011718 0.2755042315 2.320833179e-38
0.2454217076 -0.2924820781 0.1308377236 2.320833179e-38
0.248986572 -0.2275074422 0.1153693497 2.320833179e-38
0.1017202437 -0.3835180402 0.2827980816 2.339092378e-38
0.2244270742 -0.3051370382 0.2067633122 2.339092378e-38
0.08795987815 -0.2826471925 0.259988755 2.339092378e-38
0.2238780558 -0.2974807918 0.2160580605 2.339092378e-38
0.3960453272 -0.2260785699 -0.02079991996 2.339092378e-38
0.2652488351 -0.3467184007 0.1423258036 2.339092378e-38
0.250425458 -0.329162389 0.1391320229 2.339092378e-38
0.2157749385 -0.2573699653 0.1244501472 2.339092378e-38
0.2466726303 -0.3016521335 0.1329112947 2.348204041e-38
0.1036731303 -0.3942019343 0.2962399721 2.348204041e-38
0.4317587912 -0.2145561874 -0.02573356032 2.348204041e-38
0.09241463989 -0.311671257 0.2775778174 2.348204041e-38
0.2557902932 -0.2810140848 0.1164424643 2.348204041e-38
0.2122585028 -0.2997786999 0.2283797413 2.348204041e-38
0.3726533055 -0.2368168533 -0.01681962609 2.348204041e-38
0.3147987127 -0.2682476342 -0.005832113326 2.348204041e-38
0.2268455029 -0.2474158108 0.1214232147 2.348132155e-38
0.09726549685 -0.3544939756 0.2652090192 2.348132155e-38
0.2379160225 -0.2374616265 0.1183962822 2.348132155e-38
0.2479235828 -0.3108222187 0.1349848658 2.348132155e-38
0.2128075361 -0.3074349761 0.219084993 2.348132155e-38
0.2286454439 -0.2642421424 0.1142020375 2.348132155e-38
0.2429198027 -0.2741419077 0.1266905665 2.348132155e-38
0.1780115068 -0.2821028233 0.3479972184 2.348132155e-38
0.2582921684 -0.2993542254 0.1205896139 2.348060128e-38
0.4083667994 -0.2252944559 -0.02175328135 2.348060128e-38
0.2384650409 -0.245117873 0.1091015264 2.348060128e-38
0.3264182508 -0.2659496963 -0.01815379411 2.348060128e-38
0.08811280131 -0.2765047848 0.2806518376 2.348060128e-38
0.4440802634 -0.2137720734 -0.02668692172 2.348060128e-38
0.2607940733 -0.317694366 0.1247367561 2.348060128e-38
0.08826571703 -0.2703623772 0.3013149798 2.348060128e-38
0.09921836853 -0.3651778996 0.2786509395 2.347952368e-38
0.229347378 -0.2657559514 0.1255703568 2.347952368e-38
0.224579975 -0.2989946008 0.2274263948 2.347952368e-38
0.2577431798 -0.291697979 0.1298843622 2.347952368e-38
0.2756173909 -0.3352504075 0.1279305518 2.347952368e-38
0.1891722977 -0.298232168 0.27368626 2.347952368e-38
0.2545393407 -0.2718439996 0.1143688932 2.347952368e-38
0.4199863374 -0.2229965329 -0.03407496214 2.347952368e-38
0.3849747777 -0.2360327542 -0.01777298003 2.347880341e-38
0.3498103023 -0.2552113831 -0.02213408798 2.347880341e-38
0.361582756 -0.2467710376 -0.01379269361 2.347880341e-38
0.2775702775 -0.3459343016 0.1413724422 2.347880341e-38
0.0979674235 -0.3560078144 0.2765773535 2.347880341e-38
0.0949165225 -0.3300113976 0.2817249596 2.347880341e-38
0.09311657399 -0.3131850958 0.2889461219 2.347880341e-38
0.2589941025 -0.3008680344 0.1319579333 2.347880341e-38
0.2019525766 -0.2790207863 0.3347221613 2.347808455e-38
0.1787134409 -0.283616662 0.3593655527 2.347808455e-38
0.4206882715 -0.2245103419 -0.0227066353 2.347808455e-38
0.239166975 -0.2466316819 0.1204698533 2.347808455e-38
0.2502374947 -0.2366775274 0.1174429283 2.347808455e-38
0.3160496354 -0.2774176896 -0.00375854224 2.347808455e-38
0.3965943456 -0.2337348163 -0.03009466827 2.347808455e-38
0.2409669459 -0.2634580135 0.1132486761 2.347808455e-38
0.1901800632 -0.2874611318 0.3263807893 2.347700555e-38
0.260245055 -0.3100381196 0.1340315044 2.347700555e-38
0.2891898155 -0.3436363637 0.1290507615 2.347700555e-38
0.1897213161 -0.3058884144 0.2643915117 2.347700555e-38
0.2706136405 -0.2985700965 0.1196362525 2.347700555e-38
0.178101778 -0.3081863523 0.2767131925 2.347700555e-38
0.2507865131 -0.2443337739 0.1081481725 2.347700555e-38
0.276319325 -0.3367642462 0.1392988712 2.347700555e-38
0.09992030263 -0.3666917086 0.290019244 2.347628668e-38
0.08881472796 -0.2780186236 0.2920202315 2.347628668e-38
0.4323078096 -0.2222124338 -0.03502831608 2.347628668e-38
0.2718645632 -0.3077402115 0.1217098236 2.347628668e-38
0.1782546937 -0.3020439148 0.2973762751 2.347628668e-38
0.09061468393 -0.2948449254 0.2847989798 2.347628668e-38
0.4330097437 -0.2237262428 -0.02365998924 2.347628668e-38
0.2731155157 -0.3169102371 0.1237833947 2.347628668e-38
0.1786507815 -0.3158426285 0.2674184442 2.347520768e-38
0.1861564368 -0.3708630204 0.2798598707 2.347520768e-38
0.3621317744 -0.254427284 -0.02308744937 2.347520768e-38
0.3228533566 -0.3309243321 -0.002685420215 2.347520768e-38
0.1849054992 -0.361692965 0.2777863145 2.347520768e-38
0.4089158177 -0.2329507172 -0.03104802221 2.347520768e-38
0.2258309275 -0.3081647158 0.229499951 2.347520768e-38
0.1836545616 -0.3525229096 0.2757127285 2.347520768e-38
0.2750684023 -0.327594161 0.1372253001 2.347448882e-38
0.3394417167 -0.2666794062 -0.007738828659 2.347448882e-38
0.09741840512 -0.3483515382 0.2858721018 2.347448882e-38
0.3855237663 -0.2436890006 -0.02706773579 2.347448882e-38
0.2898917496 -0.3451502025 0.1404190809 2.347448882e-38
0.202042833 -0.3051043153 0.2634381354 2.347448882e-38
0.3173005879 -0.2865877748 -0.001684963703 2.347448882e-38
0.2514884472 -0.2458475828 0.1195164993 2.347448882e-38
0.3248062432 -0.3416082263 0.01075647026 2.347340982e-38
0.1791095436 -0.2974153161 0.3294077218 2.347340982e-38
0.4446292818 -0.2214283198 -0.03598167002 2.347340982e-38
0.2725664973 -0.3092540205 0.1330781579 2.347340982e-38
0.3015113473 -0.3428522646 0.1280974001 2.347340982e-38
0.3510612547 -0.2643814683 -0.02006050944 2.347340982e-38
0.3628337085 -0.2559411228 -0.01171912253 2.347340982e-38
0.3235552907 -0.3324381709 0.008682899177 2.347340982e-38
0.2829351127 -0.2977859974 0.1186828986 2.347269095e-38
0.2021957487 -0.2989618778 0.284101218 2.347269095e-38
0.2866879404 -0.3252962232 0.1249036193 2.347269095e-38
0.2264425904 -0.2835949957 0.3121523857 2.347269095e-38
0.4453312159 -0.2229421437 -0.02461335063 2.347269095e-38
0.103826046 -0.3880594969 0.3169031143 2.347269095e-38
0.1972269714 -0.3609088659 0.2768329382 2.347269095e-38
0.2520374656 -0.2535038292 0.1102217436 2.347269095e-38
0.1909722537 -0.3150584996 0.2664650679 2.347161195e-38
0.1793527156 -0.3173564374 0.2787867486 2.347161195e-38
0.2148230523 -0.2858929038 0.3244740665 2.347161195e-38
0.3744532466 -0.2536431849 -0.02404080331 2.347161195e-38
0.2841860354 -0.3069560826 0.1207564771 2.347161195e-38
0.3862257004 -0.2452028394 -0.01569940895 2.347161195e-38
0.3364257812 -0.3393102884 -0.001565203071 2.347161195e-38
0.1959760338 -0.3517388105 0.274759382 2.347161195e-38
0.2886407971 -0.3359801471 0.1383455098 2.347089308e-38
0.3255081773 -0.3431220353 0.02212480456 2.347089308e-38
0.09937128425 -0.3590354621 0.2993139923 2.347089308e-38
0.2032035142 -0.2881908417 0.3367957473 2.347089308e-38
0.1799643785 -0.2927867174 0.3614391088 2.347089308e-38
0.1915839165 -0.2904887795 0.3491174281 2.347089308e-38
0.4212372899 -0.2321666181 -0.0320013836 2.347089308e-38
0.1843564957 -0.3540366888 0.2870810628 2.347089308e-38
0.1831055433 -0.3448666334 0.2850074768 2.346981408e-38
0.1868583709 -0.3723768592 0.291228205 2.346981408e-38
0.2854369879 -0.316126138 0.1228300482 2.346981408e-38
0.1856074333 -0.3632068038 0.289154619 2.346981408e-38
0.2143643051 -0.3043202162 0.2624847889 2.346981408e-38
0.3978452682 -0.2429049015 -0.02802109718 2.346981408e-38
0.1025750935 -0.3788894117 0.3148295283 2.346981408e-38
0.2107994407 -0.3692948222 0.2779531479 2.346981408e-38
0.1798114628 -0.2989291549 0.3407760262 2.346909522e-38
0.421939224 -0.233680442 -0.02063305676 2.346909522e-38
0.1914310008 -0.296631217 0.3284543455 2.346909522e-38
0.2836370468 -0.2992998362 0.1300512254 2.346909522e-38
0.2387640476 -0.2828108668 0.3111990094 2.346909522e-38
0.2527393997 -0.255017668 0.121590063 2.346909522e-38
0.2873898745 -0.3268100619 0.1362719387 2.346909522e-38
0.3185515404 -0.2957578599 0.0003886073828 2.346909522e-38
0.3371277153 -0.3408241272 0.009803123772 2.346801622e-38
0.3633827269 -0.2635973692 -0.02101387084 2.346801622e-38
0.3406926394 -0.2758494616 -0.005665257573 2.346801622e-38
0.322304368 -0.3232680559 0.006609328091 2.346801622e-38
0.1796585619 -0.3050715923 0.3201129735 2.346801622e-38
0.2032937855 -0.3142744005 0.2655117214 2.346801622e-38
0.3985472023 -0.2444187105 -0.01665277034 2.346801622e-38
0.3358767629 -0.331654042 0.007729552686 2.346801622e-38
0.2952566445 -0.2970018983 0.1177295372 2.346693862e-38
0.2155249864 -0.2874067426 0.335842371 2.346693862e-38
0.2082975507 -0.3509546518 0.2738060057 2.346693862e-38
0.2057956755 -0.3326145411 0.2696588635 2.346693862e-38
0.1825565398 -0.3372104168 0.2943022251 2.346693862e-38
0.4335587621 -0.231382519 -0.03295473754 2.346693862e-38
0.1991798431 -0.3715927601 0.2902748287 2.346693862e-38
0.286138922 -0.3176399767 0.1341983676 2.346693862e-38
0.319100529 -0.3034140766 -0.008906148374 2.346621835e-38
0.1838074774 -0.3463804722 0.2963758111 2.346621835e-38
0.3412416577 -0.2835057378 -0.01496000588 2.346621835e-38
0.2153720558 -0.29354918 0.3151793182 2.346621835e-38
0.4101667404 -0.2421208024 -0.02897445112 2.346621835e-38
0.2070466131 -0.3417845964 0.2717324495 2.346621835e-38
0.2965075672 -0.3061719835 0.1198031157 2.346621835e-38
0.1000732183 -0.3605492711 0.3106823862 2.346621835e-38
0.2037525326 -0.2958471179 0.327500999 2.346514075e-38
0.348747313 -0.3385261893 -0.002518564463 2.346514075e-38
0.2218699604 -0.3593406677 0.2749262154 2.346514075e-38
0.3378296494 -0.3423379362 0.02117144316 2.346514075e-38
0.1805133969 -0.3004429936 0.3521443605 2.346514075e-38
0.3339239061 -0.3209701478 -0.005712352693 2.346514075e-38
0.3474963605 -0.3293561339 -0.004592142999 2.346514075e-38
0.2977585196 -0.3153420389 0.1218766868 2.346514075e-38
0.204544723 -0.3234444857 0.2675852776 2.346406175e-38
0.2394659817 -0.2843247056 0.3225673437 2.346406175e-38
0.1918271035 -0.3104298711 0.2984964848 2.346406175e-38
0.2354423851 -0.367726624 0.2760464549 2.346406175e-38
0.10202609 -0.3712331951 0.3241242766 2.346406175e-38
0.1802075654 -0.312727809 0.3108181655 2.346406175e-38
0.4108686745 -0.2436346114 -0.01760613173 2.346406175e-38
0.2181171328 -0.331830442 0.2687055171 2.346406175e-38
0.183258459 -0.3387242556 0.3056705594 2.346334289e-38
0.3308730125 -0.294973731 -0.0005647465587 2.346334289e-38
0.3198024631 -0.3049279153 0.002462185919 2.346334289e-38
0.185760349 -0.3570643663 0.3098177016 2.346334289e-38
0.3494492471 -0.3400400281 0.00884976238 2.346334289e-38
0.1807565689 -0.3203840852 0.3015234172 2.346334289e-38
0.1803604811 -0.3065854013 0.3314812779 2.346334289e-38
0.2276935279 -0.2927650809 0.3142259419 2.346334289e-38
0.2972095013 -0.3076858222 0.1311714351 2.346226389e-38
0.1039789617 -0.3819170594 0.3375661671 2.346226389e-38
0.3075781167 -0.2962177992 0.1167761758 2.346226389e-38
0.4465821683 -0.2321122289 -0.02253977209 2.346226389e-38
0.2044544667 -0.2973609567 0.3388693333 2.346226389e-38
0.181215331 -0.3019568026 0.3635126948 2.346226389e-38
0.1998817772 -0.3731065989 0.301643163 2.346226389e-38
0.3113309443 -0.323728025 0.1229968965 2.346226389e-38
0.192834869 -0.2996588647 0.3511910141 2.346118629e-38
0.2273876965 -0.305049926 0.2728997469 2.346118629e-38
0.2238228321 -0.3700245619 0.2883681357 2.346118629e-38
0.3314220011 -0.3026299775 -0.009859502316 2.346118629e-38
0.232940495 -0.3493864536 0.2718992829 2.346118629e-38
0.3088290393 -0.3053878844 0.1188497543 2.346118629e-38
0.2465129048 -0.3577724695 0.2730195224 2.346118629e-38
0.3764061332 -0.2643271089 -0.01059890538 2.346118629e-38
0.3501511812 -0.3415538371 0.02021808177 2.346010729e-38
0.2041486204 -0.309645772 0.2975431085 2.346010729e-38
0.230438605 -0.3310463428 0.2677521408 2.346010729e-38
0.3462454379 -0.3201860189 -0.006665714085 2.346010729e-38
0.3100799918 -0.3145579398 0.1209233254 2.346010729e-38
0.1027280241 -0.372747004 0.3354926109 2.346010729e-38
0.2279367298 -0.3127061725 0.2636049986 2.346010729e-38
0.3997981548 -0.2535887957 -0.01457919925 2.346010729e-38
0.3132838011 -0.3344119191 0.1364388019 2.345938842e-38
0.1926819533 -0.3058012724 0.3305279315 2.345938842e-38
0.1839603931 -0.3402380347 0.3170388937 2.345938842e-38
0.2316895574 -0.3402163982 0.2698257267 2.345938842e-38
0.1810624152 -0.3080992103 0.3428496122 2.345938842e-38
0.3249033391 -0.3321139812 0.1241171211 2.345938842e-38
0.2513287365 -0.3019678891 0.2596247196 2.345938842e-38
0.216775924 -0.2965768278 0.337915957 2.345938842e-38
0.1889641583 -0.3769183159 0.325333178 2.345830942e-38
0.3082800508 -0.2977316082 0.1281445026 2.345830942e-38
0.4114176929 -0.2512908578 -0.02690088004 2.345830942e-38
0.181458503 -0.3218979239 0.3128917217 2.345830942e-38
0.2361443043 -0.3692404628 0.2874147594 2.345830942e-38
0.228395462 -0.2942789197 0.3255942762 2.345830942e-38
0.3880256712 -0.262029171 -0.02292058617 2.345830942e-38
0.212203294 -0.3723224998 0.3006898165 2.345830942e-38
0.4348096848 -0.2405525744 -0.03088116646 2.345723183e-38
0.1014770716 -0.3635769188 0.3334190249 2.345723183e-38
0.1046808809 -0.3834308982 0.3489345014 2.345723183e-38
0.2005836964 -0.3746204376 0.3130114973 2.345723183e-38
0.3617707193 -0.3392558992 0.007896400988 2.345723183e-38
0.3321239352 -0.3041438162 0.001508824527 2.345723183e-38
0.2588343918 -0.3569883704 0.2720661461 2.345723183e-38
0.354265064 -0.2842354476 -0.004545040429 2.345723183e-38
0.3120328784 -0.3252418339 0.1343652308 2.345615283e-38
0.2397091687 -0.3042657971 0.2719464004 2.345615283e-38
0.3653355837 -0.2742812634 -0.007571972907 2.345615283e-38
0.346947372 -0.3216998577 0.004702605307 2.345615283e-38
0.1884151548 -0.3692620993 0.334627986 2.345615283e-38
0.3095309734 -0.3069016933 0.1302180737 2.345615283e-38
0.3605197668 -0.3300858438 0.005822829902 2.345615283e-38
0.2440110147 -0.3394322991 0.2688723505 2.345615283e-38
0.2280896306 -0.306563735 0.2842680812 2.345507523e-38
0.4355116189 -0.2420664132 -0.01951284707 2.345507523e-38
0.3236524165 -0.3229439259 0.12204355 2.345507523e-38
0.2531913221 -0.2865682542 0.344350636 2.345507523e-38
0.3887276053 -0.26354298 -0.01155225933 2.345507523e-38
0.412119627 -0.2528046966 -0.01553256065 2.345507523e-38
0.3333748877 -0.3133139014 0.003582395613 2.345507523e-38
0.2245247662 -0.3715384007 0.2997364402 2.345507523e-38
0.3437435329 -0.3018458784 -0.01081286371 2.345399623e-38
0.2050034702 -0.3050171733 0.3295745552 2.345399623e-38
0.1846623272 -0.3417518735 0.3284072578 2.345399623e-38
0.2048505545 -0.3111596107 0.3089114428 2.345399623e-38
0.1896660924 -0.3784321547 0.3367015421 2.345399623e-38
0.3658846021 -0.2819375396 -0.01686672121 2.345399623e-38
0.3624726534 -0.340769738 0.01926472038 2.345399623e-38
0.2174778432 -0.2980906367 0.3492842913 2.345399623e-38
0.3721393049 -0.3277879059 -0.006498858333 2.345291723e-38
0.35856691 -0.3194019198 -0.007619075477 2.345291723e-38
0.322401464 -0.3137738407 0.119969964 2.345291723e-38
0.3256052732 -0.33362782 0.1354854405 2.345291723e-38
0.189117074 -0.370775938 0.3459962904 2.345291723e-38
0.4471311569 -0.2397684753 -0.03183452785 2.345291723e-38
0.3372248113 -0.3313298821 0.1231637597 2.345291723e-38
0.2012856305 -0.3761342168 0.3243798018 2.345291723e-38
0.2563324869 -0.3386482 0.267919004 2.345219836e-38
0.1859132648 -0.3509219885 0.3304808438 2.345219836e-38
0.2724068463 -0.3653743267 0.2731863558 2.345219836e-38
0.1021790057 -0.3650907576 0.3447873592 2.345219836e-38
0.4003471732 -0.2612450719 -0.02387394756 2.345219836e-38
0.1834113896 -0.3325818181 0.3263336718 2.345219836e-38
0.2129052281 -0.3738363385 0.312058121 2.345219836e-38
0.2520306408 -0.303481698 0.2709930241 2.345219836e-38
0.2415091246 -0.3210921288 0.2647252083 2.345111936e-38
0.3449944854 -0.3110159636 -0.008739285171 2.345111936e-38
0.2550815642 -0.3294781446 0.2658454478 2.345111936e-38
0.2368462384 -0.3707543015 0.2987830937 2.345111936e-38
0.2699049711 -0.3470341563 0.2690392137 2.345111936e-38
0.1903680116 -0.3799459934 0.3480698764 2.345111936e-38
0.3740921915 -0.3384718001 0.006943039596 2.345111936e-38
0.3776570559 -0.2734971642 -0.008525334299 2.345111936e-38
0.2525796592 -0.3111379743 0.2616982758 2.345004176e-38
0.1898190081 -0.3722897768 0.3573646247 2.345004176e-38
0.344445467 -0.3033596873 0.0005554631352 2.345004176e-38
0.2414188683 -0.2950086296 0.3360092342 2.345004176e-38
0.3555160165 -0.2934055328 -0.002471469343 2.345004176e-38
0.3243543506 -0.3244577348 0.1334118694 2.345004176e-38
0.372841239 -0.3293017447 0.00486946851 2.345004176e-38
0.4010491073 -0.2627588809 -0.01250562817 2.345004176e-38
0.3218524456 -0.3061175942 0.1292647123 2.344896276e-38
0.1853642613 -0.3432657123 0.3397755921 2.344896276e-38
0.2173249424 -0.3042330742 0.3286212087 2.344896276e-38
0.332221061 -0.2946495712 0.1148694605 2.344896276e-38
0.2171720117 -0.3103755116 0.3079580665 2.344896276e-38
0.1041318774 -0.3757746518 0.3582292497 2.344896276e-38
0.3892765939 -0.2711992264 -0.02084701508 2.344896276e-38
0.1866151839 -0.3524357677 0.3418491483 2.344896276e-38
0.2252267003 -0.3730521798 0.3111047745 2.344788516e-38
0.2055524886 -0.3126734197 0.3202798069 2.344788516e-38
0.1910699457 -0.3814598322 0.3594382107 2.344788516e-38
0.2643521726 -0.3026975989 0.2700396776 2.344788516e-38
0.1841133088 -0.3340956569 0.3377020061 2.344788516e-38
0.4360606372 -0.2497226596 -0.02880759537 2.344788516e-38
0.1828623712 -0.3249255419 0.3356284201 2.344788516e-38
0.3334719837 -0.3038196862 0.116943039 2.344788516e-38
0.267403096 -0.3286940455 0.2648920715 2.344680616e-38
0.3231033981 -0.3152876496 0.1313382834 2.344680616e-38
0.3782060742 -0.2811534405 -0.0178200826 2.344680616e-38
0.2136071473 -0.3753501177 0.3234264553 2.344680616e-38
0.3671355546 -0.291107595 -0.01479315013 2.344680616e-38
0.3747941256 -0.3399856389 0.01831137389 2.344680616e-38
0.3347229362 -0.3129897416 0.1190166101 2.344680616e-38
0.3708883822 -0.3186178207 -0.008572429419 2.344680616e-38
0.2731087804 -0.3668881655 0.2845546901 2.344572857e-38
0.2064073235 -0.3080448508 0.3523112237 2.344572857e-38
0.2026894838 -0.3791618943 0.3471165299 2.344572857e-38
0.2718578279 -0.3577180505 0.2824811041 2.344572857e-38
0.389978528 -0.2727130651 -0.00947868824 2.344572857e-38
0.2411130369 -0.3072934747 0.2946830392 2.344572857e-38
0.2375481725 -0.3722680807 0.310151428 2.344572857e-38
0.2296464145 -0.3034489751 0.3276678622 2.344572857e-38
0.1892699897 -0.3646335006 0.366659373 2.344464957e-38
0.3864136636 -0.337687701 0.005989678204 2.344464957e-38
0.2294934839 -0.3095914125 0.30700472 2.344464957e-38
0.3366758227 -0.3236736357 0.132458508 2.344464957e-38
0.4015980959 -0.2704151273 -0.02180037647 2.344464957e-38
0.2706068754 -0.3485479951 0.280407548 2.344464957e-38
0.2661521435 -0.3195239305 0.2628184855 2.344464957e-38
0.3445425332 -0.2938654721 0.1139161065 2.344464957e-38
0.3341739178 -0.3053334951 0.1283113658 2.344357197e-38
0.2259286195 -0.3745660186 0.3224731088 2.344357197e-38
0.1880190521 -0.3554634452 0.3645858169 2.344357197e-38
0.3851627111 -0.3285176456 0.003916107118 2.344357197e-38
0.2178739458 -0.3118893206 0.3193264604 2.344357197e-38
0.3715903163 -0.3201316595 0.002795897424 2.344357197e-38
0.103582859 -0.3681184053 0.3675240576 2.344357197e-38
0.4249901175 -0.2596768439 -0.02578066289 2.344357197e-38
0.1912228763 -0.3753173947 0.3801012635 2.344249297e-38
0.4483821094 -0.2489385605 -0.02976095676 2.344249297e-38
0.2681050003 -0.3302078545 0.2762604058 2.344249297e-38
0.2693559527 -0.3393779397 0.278333962 2.344249297e-38
0.1924738139 -0.3844874501 0.3821748495 2.344249297e-38
0.204093352 -0.3821895719 0.3698531687 2.344249297e-38
0.3354248703 -0.3145035505 0.1303849369 2.344249297e-38
0.2498696297 -0.3714839816 0.3091980517 2.344249297e-38
0.4490840435 -0.2504523695 -0.01839262992 2.344141397e-38
0.2656031251 -0.3118677139 0.2721132338 2.344141397e-38
0.3683864772 -0.3002776802 -0.01271957904 2.344141397e-38
0.2150110155 -0.3783777952 0.3461631536 2.344141397e-38
0.3794570267 -0.2903234959 -0.01574651152 2.344141397e-38
0.1899719238 -0.3661473393 0.3780277073 2.344141397e-38
0.2551442087 -0.2972521782 0.3577925265 2.344141397e-38
0.3832098544 -0.3178337216 -0.009525790811 2.344141397e-38
0.253434509 -0.3065093756 0.2937296927 2.344033637e-38
0.1874700487 -0.347807169 0.3738805652 2.344033637e-38
0.2382500917 -0.3737819195 0.3215197325 2.344033637e-38
0.3452444673 -0.2953793108 0.1252844334 2.344033637e-38
0.4256920516 -0.2611906826 -0.01441233605 2.344033637e-38
0.2047952861 -0.383703351 0.381221503 2.344033637e-38
0.4139195681 -0.2696310282 -0.02275373787 2.344033637e-38
0.2418149561 -0.3088072836 0.3060513735 2.344033637e-38
0.1837172061 -0.3202969432 0.367659837 2.343925737e-38
0.2310502678 -0.3064766228 0.350404501 2.343925737e-38
0.3606168628 -0.3205915987 0.1191834658 2.343925737e-38
0.3568640351 -0.293081373 0.1129627377 2.343925737e-38
0.2157129496 -0.379891634 0.3575314879 2.343925737e-38
0.202293396 -0.3653632402 0.377074331 2.343925737e-38
0.2194307297 -0.3087745309 0.3627261817 2.343925737e-38
0.1862190962 -0.3386371136 0.3718069792 2.343925737e-38
0.2668540478 -0.3210377693 0.2741868198 2.343817977e-38
0.4373115897 -0.2588927448 -0.02673401684 2.343817977e-38
0.3912294805 -0.2818831503 -0.007405109704 2.343817977e-38
0.1849681586 -0.3294670284 0.3697333932 2.343817977e-38
0.2621911168 -0.3706998825 0.3082447052 2.343817977e-38
0.4103547037 -0.334605664 -0.007285363972 2.343817977e-38
0.2688069344 -0.3317216635 0.2876287103 2.343817977e-38
0.2164148688 -0.3814054728 0.3688997924 2.343817977e-38
0.2010424584 -0.3561931252 0.3750007749 2.343710077e-38
0.3690884113 -0.3017914891 -0.001351252198 2.343710077e-38
0.4028490484 -0.2795852125 -0.01972679794 2.343710077e-38
0.2700578868 -0.3408917189 0.2897022963 2.343710077e-38
0.3801589608 -0.2918373346 -0.004378184676 2.343710077e-38
0.3593659103 -0.3114215136 0.1171098873 2.343710077e-38
0.2171168029 -0.3829192519 0.3802681267 2.343710077e-38
0.4146215022 -0.2711448371 -0.01138541102 2.343710077e-38
0.2657560408 -0.3057252467 0.2927763164 2.343566444e-38
0.1049867272 -0.3711460531 0.3902606964 2.343566444e-38
0.3703393638 -0.3109615743 0.0007223188877 2.343566444e-38
0.3575659692 -0.2945951819 0.124331072 2.343566444e-38
0.3917784989 -0.2895393968 -0.01669986546 2.343566444e-38
0.4110566378 -0.3361195028 0.00408295542 2.343566444e-38
0.3807079494 -0.2994935513 -0.01367294043 2.343566444e-38
0.3613187969 -0.3221054375 0.1305517852 2.343566444e-38
0.254991293 -0.3033945858 0.3371294737 2.343458544e-38
0.2745126486 -0.3699157834 0.3072913289 2.343458544e-38
0.2425168902 -0.3103210926 0.3174197376 2.343458544e-38
0.4496330619 -0.2581086457 -0.02768737823 2.343458544e-38
0.2121130377 -0.3462389708 0.3719738424 2.343458544e-38
0.228736341 -0.380621314 0.3679464459 2.343458544e-38
0.2396539599 -0.376809597 0.3442564309 2.343458544e-38
0.2628930211 -0.3722137213 0.3196130097 2.343458544e-38
0.3588168919 -0.3037652969 0.1264046431 2.343350644e-38
0.1972896308 -0.3286828995 0.3687800467 2.343350644e-38
0.2732616961 -0.360745728 0.3052177727 2.343350644e-38
0.3819589019 -0.3086636662 -0.0115993619 2.343350644e-38
0.251273483 -0.3745116591 0.3319347501 2.343350644e-38
0.37043643 -0.3014673591 0.1140829623 2.343350644e-38
0.4214252234 -0.3246514797 -0.010312289 2.343350644e-38
0.1056886464 -0.3726598918 0.4016290307 2.343350644e-38
0.3962332606 -0.3185634315 0.0008891746402 2.343242884e-38
0.3716873825 -0.3106374145 0.1161565334 2.343242884e-38
0.4269429743 -0.270360738 -0.01233876497 2.343242884e-38
0.232454136 -0.3095042706 0.3731411994 2.343242884e-38
0.2707598209 -0.3424055576 0.3010706306 2.343242884e-38
0.450334996 -0.2596224546 -0.01631905138 2.343242884e-38
0.4385625124 -0.2680628002 -0.02466044575 2.343242884e-38
0.2083602101 -0.3187287152 0.3657531142 2.343242884e-38
0.3698874414 -0.2938110828 0.1233777106 2.343134984e-38
0.2752145529 -0.3714296222 0.3186596632 2.343134984e-38
0.4233781099 -0.3353353739 0.003129608929 2.343134984e-38
0.3815069795 -0.2915131748 0.1110560223 2.343134984e-38
0.2635949552 -0.37372756 0.3309814036 2.343134984e-38
0.2563951313 -0.3064222336 0.3598661125 2.343134984e-38
0.382660836 -0.3101774752 -0.0002310350537 2.343134984e-38
0.2739636302 -0.3622595668 0.3165860772 2.343134984e-38
0.4221271574 -0.3261653185 0.001056030393 2.343027224e-38
0.2447755933 -0.3087201715 0.3721878529 2.343027224e-38
0.3930294216 -0.2987094522 -0.01462629437 2.343027224e-38
0.2727126777 -0.3530894518 0.314512521 2.343027224e-38
0.4274919927 -0.2780170143 -0.02163351327 2.343027224e-38
0.4337466955 -0.3238673806 -0.01126565039 2.343027224e-38
0.3827579021 -0.30068326 0.1131296009 2.343027224e-38
0.4392644465 -0.2695766389 -0.01329212636 2.343027224e-38
0.3942803741 -0.3078795373 -0.01255271584 2.342919324e-38
0.4085547626 -0.3177793324 -6.418675184e-05 2.342919324e-38
0.4626565278 -0.2588383555 -0.01727241278 2.342919324e-38
0.2630459666 -0.3660712838 0.3402761519 2.342919324e-38
0.268257916 -0.3240654171 0.2969234586 2.342919324e-38
0.2521283329 -0.3698830605 0.363966167 2.342919324e-38
0.4508839846 -0.2672787011 -0.02561380714 2.342919324e-38
0.3723893166 -0.3121512532 0.1275248528 2.342919324e-38
0.2399597913 -0.3645247221 0.3855826557 2.342811565e-38
0.424080044 -0.3368492126 0.01449792832 2.342811565e-38
0.2570970654 -0.3079360723 0.3712344766 2.342811565e-38
0.4201743007 -0.3154813945 -0.01238586754 2.342811565e-38
0.2746655643 -0.3637734056 0.3279544711 2.342811565e-38
0.2231835574 -0.3362847567 0.3689469099 2.342811565e-38
0.2219326198 -0.3271147013 0.3668733239 2.342811565e-38
0.2387088537 -0.3553546667 0.3835090697 2.342811565e-38
0.3822089136 -0.2930269837 0.1224243492 2.342703665e-38
0.4281939268 -0.2795308232 -0.01026519388 2.342703665e-38
0.4473191202 -0.3322533369 -0.01014543325 2.342703665e-38
0.2677088976 -0.3164091706 0.3062182069 2.342703665e-38
0.4398134649 -0.2772329152 -0.02258687466 2.342703665e-38
0.2753674984 -0.3652871847 0.3393227756 2.342703665e-38
0.4515859187 -0.2687925398 -0.0142454803 2.342703665e-38
0.2515793145 -0.3622267842 0.3732609153 2.342703665e-38
0.4053509235 -0.2979253531 -0.01557965577 2.342559891e-38
0.406601876 -0.3070954382 -0.01350608468 2.342559891e-38
0.4208762348 -0.3169952333 -0.001017540693 2.342559891e-38
0.2709127367 -0.3362631798 0.321733743 2.342559891e-38
0.2689598501 -0.325579226 0.3082917929 2.342559891e-38
0.4324957728 -0.3146972954 -0.01333922893 2.342559891e-38
0.2337050736 -0.3186743259 0.3752147853 2.342559891e-38
0.2678618431 -0.3102667332 0.3268813491 2.342559891e-38
0.2741165459 -0.3561171293 0.3372492194 2.342452132e-38
0.4364015162 -0.3360651135 0.01354456693 2.342452132e-38
0.2510303259 -0.3545705676 0.3825557232 2.342452132e-38
0.4287429452 -0.2871870697 -0.01955994219 2.342452132e-38
0.440515399 -0.2787467241 -0.01121854782 2.342452132e-38
0.4480210543 -0.3337671757 0.001222893596 2.342452132e-38
0.4596405923 -0.3314692378 -0.01109878719 2.342452132e-38
0.4061499238 -0.2899449468 0.1091493145 2.342452132e-38
