# .PCD v0.7 - Point Cloud Data file format
VERSION 0.7
FIELDS x y z rgb
SIZE 4 4 4 4
TYPE F F F F
COUNT 1 1 1 1
WIDTH 843
HEIGHT 1
VIEWPOINT 0 0 0 1 0 0 0
POINTS 843
DATA ascii
0.4016578496 -0.04992941767 0.3341594934 9.290090338e-39
0.4002105296 -0.08995295316 0.4576175809 9.290090338e-39
0.4033716023 0.002811077284 0.1985594183 9.290090338e-39
0.4017504156 -0.04966190085 0.3217262626 9.290090338e-39
0.4024684131 -0.02369291522 0.2725760341 9.290090338e-39
0.4021093845 -0.03667742014 0.2971511483 9.290090338e-39
0.401298821 -0.06291392446 0.3587346077 9.107495543e-39
0.4007546604 -0.07643344253 0.4081760645 9.107495543e-39
0.4031051397 -0.009905884042 0.2107014209 9.107495543e-39
0.4018429816 -0.04939438403 0.3092931509 9.107495543e-39
0.4115458429 -0.1770339757 0.4432800412 9.107495543e-39
0.4009397924 -0.07589840889 0.3833097219 9.107495543e-39
0.4035567045 0.003346112557 0.1736931056 9.107495543e-39
0.4031977057 -0.009638364427 0.1982682198 9.107495543e-39
0.4028386772 -0.02262284234 0.2228433788 8.924899347e-39
0.4010323584 -0.07563088834 0.3708765507 8.924899347e-39
0.4012174904 -0.0750958547 0.3460102677 8.924899347e-39
0.4020280838 -0.04885934666 0.2844268084 8.924899347e-39
0.4025722146 -0.03533983231 0.2349853367 8.924899347e-39
0.4112906158 -0.2016653717 0.430264473 8.924899347e-39
0.4005807638 -0.08888287842 0.4078848958 8.924899347e-39
0.4006733298 -0.08861535788 0.3954517245 8.924899347e-39
0.4114645123 -0.1892159432 0.4305556417 8.742304551e-39
0.403382808 -0.009103329852 0.1734019071 8.742304551e-39
0.4009510279 -0.08781280369 0.3581522107 8.742304551e-39
0.4007658958 -0.08834784478 0.3830184937 8.742304551e-39
0.4021206498 -0.04859182984 0.2719936371 8.742304551e-39
0.4026647806 -0.03507231548 0.2225521803 8.742304551e-39
0.4014026225 -0.07456081361 0.3211438656 8.742304551e-39
0.4017616212 -0.06157633662 0.2965687513 8.742304551e-39
0.4027573466 -0.03480479494 0.2101190388 8.560068489e-39
0.3983314335 -0.262640208 0.3789417744 8.560068489e-39
0.4031163752 -0.02182028815 0.185543865 8.560068489e-39
0.4011361599 -0.08727777004 0.3332859278 8.560068489e-39
0.4014951885 -0.07429330051 0.3087107539 8.560068489e-39
0.4007771313 -0.1002622768 0.357861042 8.560068489e-39
0.4006845653 -0.1005297974 0.3702941537 8.560068489e-39
0.4024909139 -0.04752175882 0.2222609967 8.560068489e-39
0.4008696973 -0.09999476373 0.3454278708 8.377473694e-39
0.4004994333 -0.101064831 0.3951605558 8.377473694e-39
0.3983201981 -0.2507258058 0.4040993452 8.377473694e-39
0.40356794 -0.008568294346 0.1485355943 8.377473694e-39
0.4009622633 -0.09972724319 0.3329946995 8.377473694e-39
0.3893717825 -0.03727760538 0.3343166709 8.377473694e-39
0.3399048746 0.06018478796 0.4728748202 8.377473694e-39
0.4025834799 -0.04725423828 0.2098278403 8.377473694e-39
0.4029424787 -0.03426976129 0.1852526665 8.194878899e-39
0.4000478983 -0.1143168285 0.4321687818 8.194878899e-39
0.3984127641 -0.2504583001 0.3916661739 8.194878899e-39
0.4033014774 -0.02128525265 0.1606775522 8.194878899e-39
0.3987016976 -0.2615701556 0.3292091489 8.194878899e-39
0.4017728567 -0.07349074632 0.2714112997 8.194878899e-39
0.4006032646 -0.1127117202 0.3575698137 8.194878899e-39
0.4021318853 -0.06050626189 0.2468361109 8.194878899e-39
0.403753072 -0.008033257909 0.1236692369 8.012284103e-39
0.4001404345 -0.1140493155 0.4197356701 8.012284103e-39
0.3997814357 -0.1270338148 0.4443107843 8.012284103e-39
0.4002330005 -0.1137817949 0.4073024988 8.012284103e-39
0.4003255665 -0.1135142744 0.3948693275 8.012284103e-39
0.3984828889 -0.2263619304 0.4295480251 8.012284103e-39
0.4011473954 -0.09919220954 0.3081283569 8.012284103e-39
0.4033940434 -0.02101773582 0.1482443959 8.012284103e-39
0.4024095833 -0.0597037077 0.2095366418 7.829687907e-39
0.4027686119 -0.04671920463 0.184961468 7.829687907e-39
0.3998740017 -0.1267662942 0.4318776131 7.829687907e-39
0.3996075392 -0.1394832432 0.444019556 7.829687907e-39
0.4009735286 -0.1116416529 0.3078371286 7.829687907e-39
0.399966538 -0.1264987737 0.4194444418 7.829687907e-39
0.3985866606 -0.2380087972 0.3919573426 7.829687907e-39
0.3401825726 0.06098734215 0.4355753064 7.829687907e-39
0.3985754251 -0.2260944098 0.4171148539 7.647093112e-39
0.4020505548 -0.07268819213 0.2341117412 7.647093112e-39
0.4028611481 -0.04645168409 0.1725283116 7.647093112e-39
0.4032201469 -0.0334672071 0.1479531974 7.647093112e-39
0.4010660648 -0.1113741323 0.2954039574 7.647093112e-39
0.4021431208 -0.07242067158 0.2216785997 7.647093112e-39
0.3986567557 -0.2139124572 0.4298391938 7.647093112e-39
0.4036717415 -0.02021518163 0.110944882 7.647093112e-39
0.3989681602 -0.2488531619 0.3170671463 7.464498317e-39
0.3997001052 -0.1392157376 0.4315863848 7.464498317e-39
0.4025947154 -0.05916867405 0.1846702695 7.464498317e-39
0.3989793658 -0.2607675791 0.2919096351 7.464498317e-39
0.4011586308 -0.1111066192 0.2829708457 7.464498317e-39
0.4037643075 -0.01994766295 0.09851172566 7.464498317e-39
0.3986679912 -0.2258268893 0.4046817422 7.464498317e-39
0.4004406035 -0.1370755881 0.3321211338 7.464498317e-39
0.4033127129 -0.03319968656 0.1355199814 7.281903522e-39
0.3999777734 -0.1384131759 0.3942869306 7.281903522e-39
0.4015176296 -0.0981221348 0.2583956718 7.281903522e-39
0.3990607262 -0.2485856563 0.304633975 7.281903522e-39
0.3997926414 -0.138948217 0.4191532731 7.281903522e-39
0.3995262086 -0.1516651809 0.4312952161 7.281903522e-39
0.4018766582 -0.08513762802 0.2338205427 7.281903522e-39
0.4034052789 -0.03293216974 0.1230868399 7.281903522e-39
0.3990045488 -0.1890135705 0.4304215908 7.099307325e-39
0.3991308212 -0.2244893014 0.3425158858 7.099307325e-39
0.3990719318 -0.2605000734 0.2794764638 7.099307325e-39
0.4006257355 -0.136540547 0.3072547317 7.099307325e-39
0.3991784453 -0.1765640974 0.4307128191 7.099307325e-39
0.4024208188 -0.07161811739 0.184379071 7.099307325e-39
0.3999890089 -0.1503275931 0.3691293597 7.099307325e-39
0.4034978449 -0.03266465291 0.1106536835 7.099307325e-39
0.3989456892 -0.2250243425 0.3673821688 6.91671253e-39
0.4027798176 -0.05863363668 0.1598039567 6.91671253e-39
0.4020617902 -0.08460259438 0.2089542449 6.91671253e-39
0.4016101956 -0.09785462171 0.2459625155 6.91671253e-39
0.4031388462 -0.0456491299 0.1352287978 6.91671253e-39
0.400359273 -0.1492575109 0.3193966746 6.91671253e-39
0.4013437629 -0.1105715781 0.2581044436 6.91671253e-39
0.403682977 -0.03212961555 0.0857873708 6.91671253e-39
0.3903899789 -0.03433490917 0.197551772 6.734117735e-39
0.3997113109 -0.1511301398 0.4064288735 6.734117735e-39
0.399097085 -0.18874605 0.4179884791 6.734117735e-39
0.4000928402 -0.1619745046 0.3315387368 6.734117735e-39
0.3992346227 -0.2361361682 0.3049251437 6.734117735e-39
0.403775543 -0.03186209872 0.07335415483 6.734117735e-39
0.3992709816 -0.1762965769 0.4182796478 6.734117735e-39
0.3994448781 -0.1638471335 0.4185708761 6.734117735e-39
0.4017953277 -0.09731958061 0.2210962027 6.55152294e-39
0.4001854062 -0.161706984 0.3191055059 6.55152294e-39
0.402605921 -0.07108308375 0.1595127583 6.55152294e-39
0.3996524811 -0.1871409416 0.3433894515 6.55152294e-39
0.4008108377 -0.1360055208 0.2823884487 6.55152294e-39
0.3997338116 -0.174958989 0.3561138511 6.55152294e-39
0.3993860185 -0.1998579055 0.3555314541 6.55152294e-39
0.3990157545 -0.2009279728 0.4052641392 6.55152294e-39
0.4005443752 -0.1487224847 0.2945303917 6.368926744e-39
0.3994673491 -0.1876759827 0.368255794 6.368926744e-39
0.3995711505 -0.1993228644 0.3306651115 6.368926744e-39
0.3902161121 -0.04678435251 0.1972605735 6.368926744e-39
0.4011698663 -0.1230210513 0.2578132749 6.368926744e-39
0.4002779722 -0.1614394635 0.3066723347 6.368926744e-39
0.3905750811 -0.0337998718 0.1726854593 6.368926744e-39
0.4000115097 -0.1741564274 0.3188143373 6.368926744e-39
0.3992570639 -0.2599650323 0.2546101213 6.186331949e-39
0.402698487 -0.0708155632 0.1470796168 6.186331949e-39
0.3277226388 0.06118971482 0.4354412556 6.186331949e-39
0.3898570836 -0.05976886302 0.2218357474 6.186331949e-39
0.3994561136 -0.1757615358 0.3934133649 6.186331949e-39
0.4035091102 -0.04457905889 0.08549617231 6.186331949e-39
0.4036942422 -0.04404402524 0.06062980741 6.186331949e-39
0.4015288949 -0.1100365445 0.2332381457 6.186331949e-39
0.4038793445 -0.04350898787 0.0357634984 6.003737154e-39
0.3993383944 -0.2477830946 0.2673345208 6.003737154e-39
0.4003705084 -0.1611719579 0.294239223 6.003737154e-39
0.3995010555 -0.2234192342 0.2927832007 6.003737154e-39
0.4042496085 -0.04243891686 -0.01396917738 6.003737154e-39
0.4032426476 -0.05729604885 0.09763813019 6.003737154e-39
0.4037054479 -0.05595845729 0.0354722999 6.003737154e-39
0.4007295072 -0.1481874436 0.2696641088 6.003737154e-39
0.4013549984 -0.1224860176 0.2329469472 5.820783626e-39
0.4033352137 -0.0570285283 0.08520497382 5.820783626e-39
0.4022581279 -0.09598199278 0.1589303762 5.820783626e-39
0.401899159 -0.1089664698 0.1835054755 5.820783626e-39
0.389775753 -0.07195078582 0.2091113925 5.820783626e-39
0.403983146 -0.0551559031 -0.001827221364 5.820783626e-39
0.4014475644 -0.1222184971 0.2205138057 5.820783626e-39
0.4026171565 -0.082997486 0.1343552023 5.820783626e-39
0.3995936215 -0.2231517136 0.2803500295 5.63818743e-39
0.4000227153 -0.1860708743 0.293656826 5.63818743e-39
0.389868319 -0.07168326527 0.1966781765 5.63818743e-39
0.3994421959 -0.2594299912 0.2297437936 5.63818743e-39
0.4008220732 -0.1479199231 0.2572308779 5.63818743e-39
0.3902273178 -0.05869878829 0.1721030623 5.63818743e-39
0.404075712 -0.05488838628 -0.01426037494 5.63818743e-39
0.3998488188 -0.1985203177 0.2933655977 5.63818743e-39
0.4023506939 -0.09571447223 0.1464972198 5.455592635e-39
0.4035315514 -0.06840790808 0.03518110514 5.455592635e-39
0.4036241174 -0.06814038754 0.02274794877 5.455592635e-39
0.3150774837 0.0608570464 0.4601736069 5.455592635e-39
0.4030687511 -0.06974549592 0.0973469317 5.455592635e-39
0.4027097225 -0.08272996545 0.1219220459 5.455592635e-39
0.4011811018 -0.1349354386 0.2326557487 5.455592635e-39
0.4016326964 -0.1216834635 0.1956474334 5.455592635e-39
0.4020842612 -0.1084314361 0.1586391777 5.272997839e-39
0.3997674882 -0.2107022405 0.2806412578 5.272997839e-39
0.3903198838 -0.05843127146 0.1596699208 5.272997839e-39
0.4017252624 -0.1214159429 0.183214277 5.272997839e-39
0.3896018565 -0.08440022916 0.208820194 5.272997839e-39
0.3911304772 -0.03219476715 0.09808647633 5.272997839e-39
0.4006482065 -0.1603693962 0.2569396496 5.272997839e-39
0.4003817439 -0.1730863601 0.2690817118 5.272997839e-39
0.3900534213 -0.07114823163 0.1718118638 5.090401643e-39
0.3996160924 -0.246980533 0.2300349772 5.090401643e-39
0.4034502208 -0.08058982342 0.022456754 5.090401643e-39
0.3904124498 -0.05816375464 0.1472367644 5.090401643e-39
0.3998600543 -0.2104347199 0.2682080865 5.090401643e-39
0.4035427868 -0.08032230288 0.01002353802 5.090401643e-39
0.402535826 -0.09517943859 0.1216308475 5.090401643e-39
0.4028948545 -0.08219493181 0.0970557332 5.090401643e-39
0.3907714784 -0.04517924413 0.1226615906 4.907806848e-39
0.4010072052 -0.147384882 0.2323645502 4.907806848e-39
0.399697423 -0.2347985804 0.2427593321 4.907806848e-39
0.3913156092 -0.03165972978 0.07322011143 4.907806848e-39
0.4019103646 -0.1208809093 0.1583479792 4.907806848e-39
0.4029874206 -0.08192741126 0.08462258428 4.907806848e-39
0.3914081752 -0.03139221296 0.06078695506 4.907806848e-39
0.4000339508 -0.1979852766 0.2684993148 4.907806848e-39
0.4014587998 -0.1341328919 0.1953562349 4.725212053e-39
0.4022693932 -0.1078964025 0.1337728053 4.725212053e-39
0.4015513659 -0.1338653713 0.1829230785 4.725212053e-39
0.4003004134 -0.1852683127 0.2563572526 4.725212053e-39
0.3898795247 -0.08359767497 0.1715206802 4.725212053e-39
0.3025249839 0.06079189852 0.4724727273 4.725212053e-39
0.4020029306 -0.1206133887 0.1459148228 4.725212053e-39
0.3909566104 -0.04464421049 0.09779527783 4.725212053e-39
0.399789989 -0.2345310599 0.2303261757 4.542257124e-39
0.404260844 -0.05435334891 -0.03912671283 4.542257124e-39
0.3902385533 -0.07061319053 0.1469455659 4.542257124e-39
-0.2618329227 -0.4782886505 -0.1061558053 4.542257124e-39
0.4030911922 -0.09357433021 0.04703186452 4.542257124e-39
0.3910491765 -0.04437668994 0.08536212891 4.542257124e-39
0.4023619592 -0.1076288819 0.121339649 4.542257124e-39
0.3912343085 -0.0438416563 0.06049575657 4.542257124e-39
0.3913268447 -0.04357413575 0.04806260765 4.359662329e-39
0.4017364681 -0.1333303452 0.1580567807 4.359662329e-39
-0.2742928863 -0.4780862927 -0.1062898561 4.359662329e-39
-0.2620180547 -0.4788236618 -0.0812895 4.359662329e-39
-0.2743854225 -0.4783537984 -0.09385669976 4.359662329e-39
0.3998012245 -0.2464455068 0.2051686794 4.359662329e-39
0.4020954967 -0.1203458756 0.1334816068 4.359662329e-39
0.4012849033 -0.1465823352 0.1950650364 4.359662329e-39
-0.2621106207 -0.4790911973 -0.06885631382 4.177066133e-39
0.3906901479 -0.05736120045 0.1099372357 4.177066133e-39
0.3999638855 -0.2220816314 0.2306173742 4.177066133e-39
0.399882555 -0.2342635542 0.2178930342 4.177066133e-39
0.4002190828 -0.1974502355 0.2436329275 4.177066133e-39
0.3026175499 0.06105941907 0.460039556 4.177066133e-39
0.4006594419 -0.1722837985 0.2317821681 4.177066133e-39
0.3892540932 -0.1092991382 0.208237797 4.177066133e-39
0.4031950235 -0.1052212194 0.009441144764 3.994471337e-39
-0.2746631205 -0.4791563451 -0.0565572083 3.994471337e-39
0.3911529481 -0.05602360889 0.04777140915 3.994471337e-39
0.4028247893 -0.1062912941 0.0591738224 3.994471337e-39
0.4021880627 -0.1200783551 0.1210484505 3.994471337e-39
0.4030098915 -0.1057562605 0.03430751339 3.994471337e-39
0.4014700055 -0.1460472941 0.1701987386 3.994471337e-39
-0.2741077542 -0.4775512516 -0.1311561912 3.994471337e-39
0.3998937905 -0.2461779863 0.1927354634 3.81151781e-39
0.4004855454 -0.1847332716 0.2314909697 3.81151781e-39
0.4010184705 -0.1592993289 0.2072070539 3.81151781e-39
0.4003790617 -0.2686692178 0.0802546218 3.81151781e-39
0.40435341 -0.05408583209 -0.0515598692 3.81151781e-39
-0.2871230543 -0.4789539874 -0.05669125542 3.81151781e-39
0.4019216001 -0.1327953041 0.1331904083 3.81151781e-39
0.4004716277 -0.2684017122 0.06782140583 3.81151781e-39
-0.286660254 -0.4776163995 -0.1188570857 3.628921614e-39
0.4000564516 -0.2218141258 0.2181842178 3.628921614e-39
0.4005641937 -0.2681341767 0.05538825691 3.628921614e-39
0.3889876306 -0.1220161244 0.2203797549 3.628921614e-39
0.4023731947 -0.1195433214 0.09618214518 3.628921614e-39
-0.2993979156 -0.4782165587 -0.08169163764 3.628921614e-39
0.403113693 -0.1174031794 -0.003283208236 3.628921614e-39
0.4016551375 -0.1455122679 0.1453324258 3.628921614e-39
0.4025583267 -0.1190082803 0.07131577283 3.446326818e-39
0.4026508927 -0.1187407672 0.05888262391 3.446326818e-39
0.3908865154 -0.06874056906 0.05991336703 3.446326818e-39
0.3898907602 -0.09551210701 0.146363169 3.446326818e-39
0.4005781114 -0.184465766 0.2190578133 3.446326818e-39
-0.2615552247 -0.477486074 -0.1434553266 3.446326818e-39
0.4012961388 -0.1584967673 0.1699075401 3.446326818e-39
0.3907939494 -0.06900808215 0.07234651595 3.446326818e-39
0.402928561 -0.1179382131 0.02158315852 3.26337189e-39
0.4041795135 -0.06653527915 -0.05185106397 3.26337189e-39
-0.2992128134 -0.4776815474 -0.1065579504 3.26337189e-39
0.403206259 -0.1171356589 -0.01571636274 3.26337189e-39
0.402835995 -0.1182057336 0.03401631489 3.26337189e-39
0.4034727216 -0.1044186652 -0.02785831876 3.26337189e-39
0.3907013834 -0.0692756027 0.08477973193 3.26337189e-39
0.4005529583 -0.2562197745 0.0805458203 3.26337189e-39
0.4037391543 -0.09170170873 -0.04000030458 3.080777095e-39
0.388721168 -0.1347330809 0.2325217277 3.080777095e-39
0.4004603922 -0.2564873099 0.09297896922 3.080777095e-39
0.4017477036 -0.1452447474 0.1328992099 3.080777095e-39
0.3028026819 0.06159445271 0.4351731539 3.080777095e-39
0.4022918642 -0.1317252368 0.08345779032 3.080777095e-39
0.4023844302 -0.1314577162 0.07102458179 3.080777095e-39
0.4014812708 -0.1579617411 0.1450412273 3.080777095e-39
0.4024769962 -0.1311901957 0.05859142542 2.898180898e-39
0.4006706774 -0.1841982454 0.2066246569 2.898180898e-39
0.390805155 -0.08092249185 0.04718901217 2.898180898e-39
0.4003228843 -0.2090971321 0.2060422748 2.898180898e-39
0.4025695324 -0.1309226751 0.04615826905 2.898180898e-39
0.4001714587 -0.2453754395 0.1554359943 2.898180898e-39
0.4018402696 -0.1449772269 0.1204660535 2.898180898e-39
-0.3118578494 -0.4780142009 -0.08182568848 2.898180898e-39
-0.286475122 -0.4770813584 -0.1437234282 2.715227371e-39
-0.3117652833 -0.4777466953 -0.09425884485 2.715227371e-39
0.4040056169 -0.07898471504 -0.05214226246 2.715227371e-39
-0.2996756136 -0.4790191352 -0.04439211637 2.715227371e-39
-0.2748482525 -0.4796913862 -0.03169086948 2.715227371e-39
0.4008306265 -0.2554172277 0.0432462953 2.715227371e-39
0.400160253 -0.2334609926 0.1805935055 2.715227371e-39
0.4026620984 -0.1306551546 0.0337251164 2.715227371e-39
0.4015738368 -0.1576942205 0.1326080114 2.532632576e-39
0.4019328356 -0.1447097063 0.1080328971 2.532632576e-39
0.3900758922 -0.09497707337 0.1214967966 2.532632576e-39
0.4020254016 -0.1444421858 0.09559974819 2.532632576e-39
0.4002640247 -0.245107919 0.1430028528 2.532632576e-39
0.4007268548 -0.2437703311 0.08083701879 2.532632576e-39
0.4005417228 -0.2443053573 0.1057033241 2.532632576e-39
0.4002527893 -0.233193472 0.1681603491 2.532632576e-39
0.4027658999 -0.1423020512 -0.003865602426 2.349677647e-39
0.4009119868 -0.2432352901 0.05597064644 2.349677647e-39
-0.3115801811 -0.4772116542 -0.1191251799 2.349677647e-39
0.4009483457 -0.1833956838 0.1693251431 2.349677647e-39
0.3889988661 -0.1339305341 0.195222199 2.349677647e-39
-0.3121355474 -0.4788167775 -0.04452616721 2.349677647e-39
0.2901575863 0.06126178429 0.4599055052 2.349677647e-39
0.4042720795 -0.06626775861 -0.06428425014 2.349677647e-39
0.4017589688 -0.1571591794 0.1077416986 2.167082852e-39
0.3871561587 -0.2467781752 0.2299009413 2.167082852e-39
0.4028584659 -0.1420345306 -0.016298756 2.167082852e-39
-0.2989351153 -0.4768789709 -0.1438574642 2.167082852e-39
0.4013999403 -0.1701436639 0.1323168129 2.167082852e-39
0.4024882019 -0.1431045979 0.03343391791 2.167082852e-39
0.4021292329 -0.1560891122 0.05800902843 2.167082852e-39
0.4010409117 -0.1831281781 0.1568919867 2.167082852e-39
-0.2997681797 -0.4792866409 -0.03195896372 1.984127923e-39
0.3906312585 -0.09337196499 0.04689781368 1.984127923e-39
-0.3114876151 -0.4769441485 -0.1315583289 1.984127923e-39
0.4014925063 -0.1698761433 0.1198836565 1.984127923e-39
0.4008895159 -0.2194064558 0.1062857211 1.984127923e-39
0.4007744491 -0.1958451271 0.1690339446 1.984127923e-39
-0.3242252767 -0.4775443077 -0.09439288825 1.984127923e-39
0.4009933174 -0.2310533375 0.0686950013 1.984127923e-39
0.4006005526 -0.2082945704 0.1687427461 1.801533128e-39
-0.2614626586 -0.4772185683 -0.1558884829 1.801533128e-39
0.4010858834 -0.2307858169 0.05626184493 1.801533128e-39
0.4006230533 -0.2321234047 0.1184276789 1.801533128e-39
0.4016776383 -0.1693411022 0.09501735121 1.801533128e-39
0.4010633826 -0.2069569826 0.1065769196 1.801533128e-39
0.4011672139 -0.218603909 0.0689861998 1.801533128e-39
0.4012260437 -0.182593137 0.1320256144 1.801533128e-39
0.4040981829 -0.0787171945 -0.06457544863 1.618578199e-39
0.4018627703 -0.168806076 0.07015098631 1.618578199e-39
0.4023143351 -0.1555540711 0.03314272314 1.618578199e-39
0.4013186097 -0.1823256165 0.119592458 1.618578199e-39
0.4008782506 -0.2074920237 0.1314432323 1.618578199e-39
-0.2874007523 -0.4797565341 -0.01939176396 1.618578199e-39
0.3887324035 -0.1466474831 0.2073642015 1.618578199e-39
0.4012485147 -0.2064219564 0.08171060681 1.618578199e-39
0.4011784196 -0.2305182964 0.04382869229 1.435982003e-39
-0.3122281134 -0.4790842831 -0.03209301084 1.435982003e-39
0.4007856846 -0.2077595443 0.1438764334 1.435982003e-39
-0.2739226222 -0.4770162106 -0.1560225338 1.435982003e-39
0.4009595811 -0.1953101009 0.1441676319 1.435982003e-39
0.4010521472 -0.1950425804 0.1317344159 1.435982003e-39
0.4013410807 -0.2061544359 0.06927739829 1.435982003e-39
0.4020478725 -0.168271035 0.04528468102 1.435982003e-39
0.4014336467 -0.2058869153 0.05684424192 1.253028475e-39
0.4026845992 -0.1544840038 -0.0165899545 1.253028475e-39
0.3872487247 -0.2465106696 0.2174677849 1.253028475e-39
0.4012008905 -0.2543471456 -0.006486379541 1.253028475e-39
0.4013298452 -0.1942400187 0.09443496168 1.253028475e-39
0.4015037417 -0.1817905754 0.09472616017 1.253028475e-39
0.4034839571 -0.1163331047 -0.05301585421 1.253028475e-39
0.4014224112 -0.1939725131 0.08200180531 1.253028475e-39
-0.3239476085 -0.476741761 -0.1316923797 1.070432279e-39
0.4016075432 -0.193437472 0.05713544041 1.070432279e-39
0.4030435979 -0.1414994895 -0.04116509482 1.070432279e-39
0.4027771652 -0.1542164832 -0.029023109 1.070432279e-39
0.3902722895 -0.1063564345 0.07147292793 1.070432279e-39
0.4017000794 -0.1931699514 0.04470228404 1.070432279e-39
0.4024181366 -0.1672009677 -0.004447997548 1.070432279e-39
0.4013635516 -0.2299832702 0.01896238327 1.070432279e-39
0.4023255706 -0.1674684882 0.007985156029 8.874787512e-40
0.4013747871 -0.2418977022 -0.006195182912 8.874787512e-40
0.3897281289 -0.1198759824 0.1209143996 8.874787512e-40
0.4012934566 -0.2540796399 -0.01891953498 8.874787512e-40
0.2776050866 0.06119663641 0.4722046256 8.874787512e-40
0.3874226213 -0.2340611964 0.2177589834 8.874787512e-40
-0.3368703425 -0.477876991 -0.069660604 8.874787512e-40
-0.3365001082 -0.4768069088 -0.1193932742 8.874787512e-40
0.4015374482 -0.2175338417 0.01925358176 7.045238224e-40
-0.2988425493 -0.4766114652 -0.1562906206 7.045238224e-40
-0.3238550425 -0.4764742255 -0.1441255659 7.045238224e-40
-0.3123206794 -0.4793517888 -0.0196598582 7.045238224e-40
0.4019777775 -0.1923674047 0.007402760908 7.045238224e-40
0.390005827 -0.1190734282 0.08361494541 7.045238224e-40
0.4031361639 -0.1412319839 -0.05359824747 7.045238224e-40
0.3886511028 -0.1588294357 0.194639802 7.045238224e-40
0.390190959 -0.1185383946 0.05874857306 5.219290273e-40
0.4035765231 -0.1160655841 -0.06544903666 5.219290273e-40
0.3875965178 -0.2216117531 0.2180501819 5.219290273e-40
0.3891952038 -0.1453098953 0.145198375 5.219290273e-40
0.4023368061 -0.1793829203 -0.01717234962 5.219290273e-40
0.4013860226 -0.2538121343 -0.03135268763 5.219290273e-40
0.4021629095 -0.1918323636 -0.01746354625 5.219290273e-40
0.3874338567 -0.2459756285 0.1926014125 5.219290273e-40
0.3896467984 -0.1320579052 0.1081900597 3.389740985e-40
0.401989013 -0.2042818069 -0.01775474474 3.389740985e-40
0.3898319304 -0.131522879 0.08332374692 3.389740985e-40
-0.3363149762 -0.4762718678 -0.1442596167 3.389740985e-40
0.388011694 -0.2681993544 0.06768736243 3.389740985e-40
-0.34923774 -0.4774070978 -0.08222783357 3.389740985e-40
0.3879191279 -0.2684668601 0.08012057096 3.389740985e-40
0.388928771 -0.158026889 0.1573403329 3.389740985e-40
0.3876890838 -0.2213442326 0.2056170255 1.56020571e-40
0.4022554755 -0.1915648431 -0.02989670075 1.56020571e-40
0.3874450624 -0.2578900456 0.1674439162 1.56020571e-40
0.3876077533 -0.2335261554 0.192892611 1.56020571e-40
0.3881967962 -0.2676643133 0.04282104969 1.56020571e-40
-0.3488675058 -0.4763370454 -0.1319604814 1.56020571e-40
0.389021337 -0.1577593684 0.1449071765 1.56020571e-40
-0.3124132454 -0.4796193242 -0.00722670462 1.56020571e-40
0.4038429856 -0.1033485979 -0.07759099454 6.490113838e-41
-0.3495154381 -0.4782096744 -0.0449283123 6.490113838e-41
0.4014898241 -0.2654590011 -0.06894341111 6.490113838e-41
0.4030548632 -0.1534139365 -0.06632263213 6.490113838e-41
0.3897505999 -0.1437047869 0.07059933245 6.490113838e-41
0.3886623085 -0.170743838 0.1694822907 6.490113838e-41
0.3882107437 -0.1839958727 0.206490621 6.490113838e-41
0.3898431659 -0.1434372663 0.05816618353 6.490113838e-41
0.3878629506 -0.2088947594 0.205908224 2.496469266e-40
0.3876301944 -0.2573550045 0.1425776035 2.496469266e-40
0.3881855905 -0.2557499111 0.06797855347 2.496469266e-40
0.3892064691 -0.1572243273 0.120040819 2.496469266e-40
0.3887548745 -0.1704763323 0.1570491344 2.496469266e-40
-0.2612775266 -0.4766835272 -0.1807548255 2.496469266e-40
0.265145123 0.06139900163 0.4720705748 2.496469266e-40
0.4026145041 -0.1785803735 -0.05447184294 2.496469266e-40
-0.3487749398 -0.47606951 -0.1443936676 4.340353837e-40
0.4016637206 -0.2530095577 -0.06865221262 4.340353837e-40
-0.3617902696 -0.4774722457 -0.06992869079 4.340353837e-40
-0.3496080041 -0.47847718 -0.03249515593 4.340353837e-40
0.3883958757 -0.1834608316 0.1816242486 4.340353837e-40
0.3892990351 -0.1569568068 0.1076076627 4.340353837e-40
0.4044571817 -0.06573272496 -0.08915055543 4.340353837e-40
-0.3248732388 -0.4794169366 -0.007360752672 4.340353837e-40
-0.3616977036 -0.4772047102 -0.08236187696 6.184224396e-40
-0.262665987 -0.4806962907 0.00574270077 6.184224396e-40
-0.2737374902 -0.4764811695 -0.1808888614 6.184224396e-40
0.3884884119 -0.1831933111 0.1691910923 6.184224396e-40
0.3896692991 -0.1558867395 0.05787498504 6.184224396e-40
0.4024406075 -0.1910298169 -0.05476303771 6.184224396e-40
0.4019189477 -0.2283781618 -0.05563662946 6.184224396e-40
0.3881294131 -0.1961777955 0.1937662065 6.184224396e-40
0.3885809779 -0.1829258054 0.1567579359 8.028094954e-40
0.3878854215 -0.2327236086 0.1555931568 8.028094954e-40
-0.3613274693 -0.4761346579 -0.1320945323 8.028094954e-40
0.4042832851 -0.07818216085 -0.08944175392 8.028094954e-40
0.3894028366 -0.1686037034 0.07001694292 8.028094954e-40
0.3895879388 -0.1680686623 0.04515063018 8.028094954e-40
0.3879779875 -0.2324560881 0.1431600004 8.028094954e-40
0.3881406188 -0.2080921978 0.1686086953 8.028094954e-40
0.3884408176 -0.2311185002 0.08099416643 9.871979525e-40
0.3880593181 -0.2202741653 0.1558843404 9.871979525e-40
0.388951242 -0.1818557233 0.1070252657 9.871979525e-40
0.4031474292 -0.1531464159 -0.07875578105 9.871979525e-40
-0.3236699104 -0.4759391844 -0.1689918786 9.871979525e-40
-0.2986574173 -0.4760764241 -0.1811569631 9.871979525e-40
0.3886259496 -0.2305834591 0.05612780154 9.871979525e-40
0.3884295821 -0.2192040831 0.1061516702 9.871979525e-40
0.3886034489 -0.2067546099 0.1064428687 1.171585008e-39
0.3883370161 -0.2194716036 0.1185848266 1.171585008e-39
-0.3612349033 -0.4758671224 -0.1445277035 1.171585008e-39
0.3881518841 -0.2200066447 0.1434511989 1.171585008e-39
0.38922894 -0.1810531765 0.06972574443 1.171585008e-39
0.3886147141 -0.2186690569 0.08128536493 1.171585008e-39
0.389321506 -0.180785656 0.05729258806 1.171585008e-39
-0.3743427992 -0.4775373936 -0.05762958899 1.171585008e-39
-0.3001384437 -0.4803567231 0.01777371019 1.355972064e-39
0.4039355218 -0.1030810773 -0.09002415091 1.355972064e-39
0.3888811469 -0.2059520632 0.06914334744 1.355972064e-39
-0.2752185166 -0.4807614684 0.01804180816 1.355972064e-39
-0.3249658048 -0.4796844423 0.005072461441 1.355972064e-39
0.3889624774 -0.1937701404 0.08186775446 1.355972064e-39
0.3889737129 -0.2056845427 0.05671019107 1.355972064e-39
0.4029735327 -0.1655958593 -0.07904697955 1.355972064e-39
-0.3739725649 -0.4764673412 -0.1073622331 1.540360521e-39
0.3890550435 -0.1935026199 0.06943454593 1.540360521e-39
0.4016749263 -0.2649239898 -0.0938097164 1.540360521e-39
0.4021040797 -0.2278431207 -0.08050297201 1.540360521e-39
0.3892401457 -0.1929675788 0.04456823692 1.540360521e-39
-0.3497931361 -0.4790122211 -0.007628847845 1.540360521e-39
0.4037616253 -0.1155305505 -0.0903153494 1.540360521e-39
-0.2611849904 -0.4764160216 -0.1931879669 1.540360521e-39
0.4022779763 -0.2153936923 -0.08021177351 1.724747577e-39
0.265330255 0.061934039 0.4472041726 1.724747577e-39
-0.3235773444 -0.4756716788 -0.1814250648 1.724747577e-39
-0.3737874329 -0.4759323001 -0.1322285831 1.724747577e-39
-0.3374257386 -0.4794820845 0.004938412458 1.724747577e-39
0.4034138322 -0.1404294223 -0.09089773893 1.724747577e-39
-0.2877710164 -0.4808266163 0.03034091368 1.724747577e-39
-0.3611423373 -0.4755996168 -0.1569608599 1.724747577e-39
-0.3868027627 -0.4773350358 -0.05776363984 1.909134633e-39
-0.3746204972 -0.4783399403 -0.02033009753 1.909134633e-39
-0.3360372782 -0.475469321 -0.1815591007 1.909134633e-39
-0.2985648513 -0.4758089185 -0.1935901195 1.909134633e-39
-0.3485898077 -0.4755344689 -0.1692599654 1.909134633e-39
-0.3864325285 -0.4762649834 -0.1074962839 1.909134633e-39
-0.262851119 -0.4812313318 0.03060900792 1.909134633e-39
-0.3375183046 -0.47974962 0.01737156883 1.909134633e-39
0.4027182758 -0.1902272552 -0.0920625329 2.09352309e-39
0.2527776957 0.06186888739 0.4595033526 2.09352309e-39
0.4028921723 -0.1777778119 -0.09177133441 2.09352309e-39
-0.3623456657 -0.4790773392 0.004670318216 2.09352309e-39
0.4038541913 -0.1152630299 -0.1027485281 2.09352309e-39
-0.3359447122 -0.4752018154 -0.1939922571 2.09352309e-39
-0.3992627263 -0.4771326482 -0.05789768696 2.09352309e-39
-0.3736023009 -0.475397259 -0.1570949107 2.09352309e-39
-0.2610924244 -0.4761484861 -0.2056211531 2.277910146e-39
-0.3610497713 -0.4753320813 -0.1693940163 2.277910146e-39
-0.3003235459 -0.4808917344 0.04264001921 2.277910146e-39
-0.3991701603 -0.4768651426 -0.07033084333 2.277910146e-39
-0.3990775943 -0.4765976071 -0.08276402205 2.277910146e-39
-0.3994478583 -0.4776676893 -0.03303134814 2.277910146e-39
-0.3624382317 -0.4793448746 0.01710347086 2.277910146e-39
-0.3127834797 -0.4806893766 0.04250597209 2.277910146e-39
-0.2613000274 -0.4528546929 -0.1304397583 2.462297202e-39
-0.2984722853 -0.475541383 -0.2060233057 2.462297202e-39
0.4033325315 -0.1526113749 -0.1036221236 2.462297202e-39
-0.3609572053 -0.4750645757 -0.1818272024 2.462297202e-39
0.4041206539 -0.1025460437 -0.114890486 2.462297202e-39
0.4029847383 -0.1775102913 -0.1042045206 2.462297202e-39
-0.2879561186 -0.4813616574 0.0552072227 2.462297202e-39
-0.3004161119 -0.4811592698 0.05507317185 2.462297202e-39
-0.3872655928 -0.4786726236 0.004402222112 2.646685659e-39
-0.2612074614 -0.4525871575 -0.1428729296 2.646685659e-39
-0.3608646393 -0.47479707 -0.1942603588 2.646685659e-39
-0.4120003581 -0.4777328372 -0.02073224075 2.646685659e-39
-0.3483121097 -0.4747319221 -0.2065594941 2.646685659e-39
-0.3734171689 -0.4748622179 -0.1819612533 2.646685659e-39
-0.3626233339 -0.4798798859 0.04196977988 2.646685659e-39
-0.3873581588 -0.4789401591 0.01683537662 2.646685659e-39
0.4034250975 -0.1523438543 -0.11605528 2.830713982e-39
-0.2859197259 -0.475476265 -0.2183224112 2.830713982e-39
-0.3997255564 -0.4784702361 0.004268174991 2.830713982e-39
-0.3502559364 -0.4803498089 0.05453698337 2.830713982e-39
-0.2983797193 -0.4752738774 -0.218456462 2.830713982e-39
0.2875160277 -0.4839826524 -0.2494557053 2.830713982e-39
-0.3607720733 -0.4745295346 -0.206693545 2.830713982e-39
0.4032512009 -0.1647932976 -0.116346471 2.830713982e-39
-0.3733246028 -0.4745947123 -0.1943944097 3.015101038e-39
0.4029034078 -0.1896922141 -0.116928868 3.015101038e-39
-0.3874507248 -0.4792076647 0.02926852927 3.015101038e-39
0.4030773044 -0.1772427708 -0.1166376695 3.015101038e-39
-0.3998181224 -0.4787377715 0.0167013295 3.015101038e-39
-0.2611148953 -0.4523196518 -0.1553060859 3.015101038e-39
-0.3357595801 -0.4746667743 -0.2188585997 3.015101038e-39
-0.4121854901 -0.4782678783 0.004134126008 3.015101038e-39
-0.3503485024 -0.4806173146 0.06697019935 3.199488094e-39
-0.3875432611 -0.4794751704 0.04170168564 3.199488094e-39
-0.3732320368 -0.4743271768 -0.2068275958 3.199488094e-39
-0.2632213533 -0.482301414 0.08034168184 3.199488094e-39
-0.4122780561 -0.4785354137 0.01656728238 3.199488094e-39
0.4028220773 -0.2018741518 -0.1296532452 3.199488094e-39
-0.3876358271 -0.4797427058 0.05413483828 3.199488094e-39
0.2750560939 -0.4837802947 -0.2495897412 3.199488094e-39
-0.2733672559 -0.4754110873 -0.2306215167 3.383517819e-39
0.4029959738 -0.1894247085 -0.1293620467 3.383517819e-39
-0.3504410684 -0.48088485 0.07940334827 3.383517819e-39
-0.3131537437 -0.4817594588 0.09223864973 3.383517819e-39
-0.2858271897 -0.4752087295 -0.2307555676 3.383517819e-39
-0.4000032246 -0.4792727828 0.04156763852 3.383517819e-39
-0.30069381 -0.4819618165 0.09237269312 3.383517819e-39
-0.3256137371 -0.4815570712 0.09210459888 3.383517819e-39
-0.2610223293 -0.4520521164 -0.1677392423 3.567904875e-39
-0.362901032 -0.4806824625 0.07926930487 3.567904875e-39
-0.4123706222 -0.4788029194 0.02900043502 3.567904875e-39
-0.3356670439 -0.4743992388 -0.231291756 3.567904875e-39
-0.300786376 -0.482229352 0.1048058495 3.567904875e-39
-0.2883263826 -0.4824317396 0.1049399003 3.567904875e-39
-0.4124631584 -0.479070425 0.04143358767 3.567904875e-39
-0.3481270075 -0.4741968811 -0.2314258069 3.567904875e-39
-0.2659982443 -0.490326941 0.4533366561 3.75229193e-39
-0.362993598 -0.4809499681 0.09170245379 3.75229193e-39
-0.4248305857 -0.4786005616 0.0288663879 3.75229193e-39
-0.3381662369 -0.4816222489 0.1044037044 3.75229193e-39
0.2028453201 0.06241084263 0.4714003205 3.75229193e-39
-0.248354733 -0.475548327 -0.2427866012 3.75229193e-39
-0.360586971 -0.4739944935 -0.2315598428 3.75229193e-39
-0.2784582078 -0.4901245832 0.4532026052 3.75229193e-39
-0.3754535615 -0.4807476103 0.0915684104 3.936320254e-39
-0.3257988691 -0.4820921123 0.1169709116 3.936320254e-39
-0.2884189487 -0.4826992452 0.1173730493 3.936320254e-39
-0.2658131421 -0.4897918999 0.4284703135 3.936320254e-39
-0.4249231219 -0.4788680673 0.04129954055 3.936320254e-39
-0.2783656418 -0.4898570776 0.4407694936 3.936320254e-39
-0.2358947843 -0.4757506847 -0.2426525503 3.936320254e-39
-0.4002809227 -0.4800753593 0.07886715978 3.936320254e-39
-0.298194617 -0.4747388363 -0.2433227897 4.120708711e-39
-0.3231145442 -0.4743340909 -0.2435908914 4.120708711e-39
-0.265535444 -0.4889893532 0.3911708593 4.120708711e-39
-0.2760515809 -0.4831691086 0.1299403161 4.120708711e-39
-0.3355744779 -0.4741317332 -0.2437249422 4.120708711e-39
-0.2635916173 -0.4833714664 0.1300743669 4.120708711e-39
-0.265442878 -0.4887218475 0.3787376881 4.120708711e-39
-0.2608371973 -0.4515171051 -0.1926055849 4.120708711e-39
-0.303285569 -0.4894523323 0.4405013919 4.304737034e-39
-0.4127408564 -0.4798730016 0.07873310894 4.304737034e-39
-0.301064074 -0.4830318987 0.1421053708 4.304737034e-39
-0.2906404436 -0.4891196787 0.4157690406 4.304737034e-39
-0.2761441469 -0.4834366441 0.1423734725 4.304737034e-39
-0.265257746 -0.4881868064 0.3538712859 4.304737034e-39
-0.360494405 -0.4737269878 -0.243993029 4.304737034e-39
-0.2779028416 -0.4885194898 0.3786036372 4.304737034e-39
-0.425108254 -0.4794031084 0.06616590917 4.48912409e-39
-0.2905479074 -0.4888521433 0.4033358693 4.48912409e-39
-0.265072614 -0.4876517653 0.329005003 4.48912409e-39
-0.2482621819 -0.4752808213 -0.2552197576 4.48912409e-39
-0.2731821239 -0.474876076 -0.2554878592 4.48912409e-39
-0.3282980621 -0.4893150926 0.4526664019 4.48912409e-39
-0.3011566401 -0.4832994044 0.1545385271 4.48912409e-39
-0.4128334224 -0.4801405072 0.09116626531 4.48912409e-39
-0.2762367129 -0.4837041497 0.1548066288 4.673152414e-39
-0.3030079007 -0.4886497557 0.4032018185 4.673152414e-39
-0.2901776433 -0.4877820909 0.3536032438 4.673152414e-39
-0.3029153347 -0.4883822501 0.3907687068 4.673152414e-39
-0.3260765672 -0.482894659 0.1542704254 4.673152414e-39
0.2252162546 -0.482970804 -0.2501259446 4.673152414e-39
-0.2647949457 -0.4868492186 0.2917054892 4.673152414e-39
-0.2900850773 -0.4875145555 0.3411700726 4.673152414e-39
-0.2899925113 -0.4872470498 0.3287369013 4.857539469e-39
-0.3154678345 -0.4884473979 0.4030678272 4.857539469e-39
-0.2887891829 -0.4837693274 0.1671057343 4.857539469e-39
-0.3407579958 -0.4891127348 0.452532351 4.857539469e-39
-0.3880986571 -0.4810802937 0.1163006723 4.857539469e-39
-0.2772548795 -0.4866468608 0.2915714383 4.857539469e-39
-0.2898999453 -0.4869795442 0.31630373 4.857539469e-39
-0.31370911 -0.4833645821 0.1668376327 4.857539469e-39
-0.3385365009 -0.4826923013 0.1541363746 5.041567793e-39
-0.3406654298 -0.4888452291 0.4400992393 5.041567793e-39
-0.3024525046 -0.4870446622 0.3286028504 5.041567793e-39
-0.3261691034 -0.4831621945 0.1667035818 5.041567793e-39
-0.2764218152 -0.4842391908 0.1796729267 5.041567793e-39
-0.3013417423 -0.4838344455 0.1794048399 5.041567793e-39
-0.2645172477 -0.4860466421 0.2544060349 5.041567793e-39
-0.3354819119 -0.4738642275 -0.2561581135 5.041567793e-39
-0.363363862 -0.4820200503 0.1414351314 5.225597518e-39
-0.3404802978 -0.4883101881 0.4152328372 5.225597518e-39
-0.3149124384 -0.4868423045 0.3284687996 5.225597518e-39
-0.2233422548 -0.4756855369 -0.2549516559 5.225597518e-39
-0.2889743149 -0.4843043387 0.1919720918 5.225597518e-39
-0.3509964645 -0.4824899435 0.1540023386 5.225597518e-39
-0.2641469836 -0.4849765897 0.2046733499 5.225597518e-39
-0.186054945 -0.4765601456 -0.2421163619 5.225597518e-39
-0.3479418755 -0.4736618698 -0.2562921345 5.409984573e-39
-0.3021748066 -0.4862421155 0.2913033366 5.409984573e-39
-0.3386290371 -0.4829598367 0.166569531 5.409984573e-39
-0.3275575638 -0.487174958 0.3532010913 5.409984573e-39
-0.289529711 -0.485909462 0.2665711045 5.409984573e-39
-0.3148198724 -0.4865747988 0.3160356879 5.409984573e-39
-0.3014343083 -0.4841019511 0.1918380409 5.409984573e-39
-0.3274649978 -0.4869074225 0.34076792 5.409984573e-39
-0.3402026296 -0.4875076413 0.377933383 5.594012897e-39
-0.360401839 -0.4734594822 -0.2564261854 5.594012897e-39
-0.2643321157 -0.4855116308 0.2295396477 5.594012897e-39
-0.2768846452 -0.4855767787 0.2418387681 5.594012897e-39
-0.3881912231 -0.4813477993 0.1287338883 5.594012897e-39
-0.289437145 -0.4856419265 0.2541379333 5.594012897e-39
-0.3387216032 -0.4832273424 0.1790026873 5.594012897e-39
-0.3781378865 -0.4885056317 0.4521302581 5.594012897e-39
-0.2767920792 -0.485309273 0.2294056118 5.77804122e-39
-0.3146347404 -0.4860397577 0.2911692858 5.77804122e-39
-0.3016194403 -0.4846369922 0.2167043537 5.77804122e-39
-0.289252013 -0.4851069152 0.2292715609 5.77804122e-39
0.2002963573 -0.4825660586 -0.2503940463 5.77804122e-39
-0.3400174975 -0.4869726002 0.3530670404 5.77804122e-39
-0.3527551591 -0.4875727892 0.3902325034 5.77804122e-39
-0.3266319335 -0.4844997823 0.2288694084 5.77804122e-39
-0.3140793741 -0.4844346344 0.2165703028 5.962428276e-39
-0.3139868081 -0.4841671288 0.2041371614 5.962428276e-39
-0.3144496381 -0.4855047166 0.2663030028 5.962428276e-39
-0.3265393674 -0.4842322469 0.2164362669 5.962428276e-39
-0.3654002249 -0.4879054427 0.4149647355 5.962428276e-39
-0.3264468014 -0.4839647412 0.2040031105 5.962428276e-39
-0.3271872997 -0.4861048758 0.3034684062 5.962428276e-39
-0.3526625931 -0.4873052835 0.3777993321 5.962428276e-39
-0.3389993012 -0.4840298891 0.2163022161 6.1464566e-39
-0.4130185544 -0.4806755483 0.1160325706 6.1464566e-39
-0.425385952 -0.4802056849 0.1034653708 6.1464566e-39
-0.3270021975 -0.4855698347 0.2786020637 6.1464566e-39
-0.3269096315 -0.4853023291 0.266168952 6.1464566e-39
-0.3510890007 -0.482757479 0.166435495 6.1464566e-39
-0.3270947337 -0.4858373702 0.2910352349 6.1464566e-39
-0.3652151227 -0.4873704016 0.3900984526 6.1464566e-39
-0.3515518308 -0.4840950668 0.2286013216 6.330484923e-39
-0.4377533495 -0.4797357619 0.09089817107 6.330484923e-39
-0.4030578136 -0.4881008863 0.4518621564 6.330484923e-39
-0.3519220948 -0.4851651192 0.2783340216 6.330484923e-39
-0.3518295288 -0.4848976135 0.2659008503 6.330484923e-39
-0.3517369628 -0.4846300781 0.253467679 6.330484923e-39
-0.352014631 -0.4854326546 0.2907671332 6.330484923e-39
-0.390320152 -0.4875007272 0.4146966934 6.330484923e-39
-0.4029652476 -0.4878333807 0.4394289851 6.514514648e-39
-0.352107197 -0.4857001603 0.3032003045 6.514514648e-39
-0.3521997631 -0.4859676957 0.3156335354 6.514514648e-39
-0.4006511867 -0.4811454117 0.1285998374 6.514514648e-39
-0.3776750863 -0.4871680439 0.3899644017 6.514514648e-39
-0.4028726816 -0.4875658453 0.4269957542 6.514514648e-39
0.187836349 -0.4823637009 -0.2505280972 6.514514648e-39
-0.3644745946 -0.485230267 0.2906330824 6.514514648e-39
-0.3643820584 -0.4849627316 0.2781999707 6.698542971e-39
-0.2606295943 -0.4748108983 -0.2677869797 6.698542971e-39
-0.3902276158 -0.4872331917 0.4022635221 6.698542971e-39
-0.3513666987 -0.4835600257 0.2037350088 6.698542971e-39
-0.3774899542 -0.4866330028 0.3650980592 6.698542971e-39
-0.2481696159 -0.4750132859 -0.2676529288 6.698542971e-39
-0.4027801156 -0.4872983396 0.4145626426 6.698542971e-39
-0.3512741327 -0.4832924902 0.1913018525 6.698542971e-39
-0.3773973882 -0.4863654971 0.3526648879 6.882571295e-39
-0.3771196902 -0.4855629504 0.3153654337 6.882571295e-39
-0.3641969264 -0.4844276905 0.2533336282 6.882571295e-39
-0.3900424838 -0.4866981804 0.3773971796 6.882571295e-39
-0.4153326154 -0.4873634875 0.4268617034 6.882571295e-39
-0.3769345582 -0.4850279093 0.2904990315 6.882571295e-39
-0.3899499178 -0.486430645 0.3649640083 6.882571295e-39
-0.2855494916 -0.4744061828 -0.2680550814 6.882571295e-39
-0.3898573518 -0.4861631393 0.3525308371 7.066599618e-39
-0.3636415303 -0.482822597 0.1787346005 7.066599618e-39
-0.3768420219 -0.4847603738 0.2780659199 7.066599618e-39
-0.3637340963 -0.4830901027 0.1911678016 7.066599618e-39
-0.4025024474 -0.4864957929 0.3772631288 7.066599618e-39
-0.298009485 -0.4742037952 -0.2681891322 7.066599618e-39
-0.3883763552 -0.4818828404 0.1536001861 7.066599618e-39
-0.3767494559 -0.4844928682 0.2656327486 7.066599618e-39
0.1753764004 -0.4821613431 -0.250662148 7.250627941e-39
-0.4277000129 -0.4868936241 0.4142945409 7.250627941e-39
-0.3766568899 -0.4842253327 0.2531995773 7.250627941e-39
-0.3765643239 -0.4839578271 0.2407663912 7.250627941e-39
-0.3353893459 -0.4735966921 -0.2685912848 7.250627941e-39
-0.3764717579 -0.4836903214 0.2283332199 7.250627941e-39
-0.4403451085 -0.4872262776 0.4390268326 7.250627941e-39
-0.3763791919 -0.483422786 0.2159000635 7.250627941e-39
-0.3893019855 -0.4845580161 0.277931869 7.434656265e-39
-0.425571084 -0.4807406962 0.1283317357 7.434656265e-39
0.250321269 -0.4828405082 -0.2747241855 7.434656265e-39
-0.4379384816 -0.480270803 0.1157644838 7.434656265e-39
-0.4132036865 -0.4812105894 0.1408989429 7.434656265e-39
-0.3884688914 -0.4821503758 0.1660333425 7.434656265e-39
-0.4019470513 -0.4848906696 0.3026641011 7.434656265e-39
-0.3891168535 -0.484022975 0.2530655265 7.434656265e-39
-0.3889317214 -0.4834879637 0.228199169 7.618684588e-39
-0.4401599765 -0.4866912365 0.41416049 7.618684588e-39
0.1629164666 -0.4819589555 -0.2507961988 7.618684588e-39
-0.3887465894 -0.4829529226 0.2033328712 7.618684588e-39
-0.4144995511 -0.4849558473 0.3149632812 7.618684588e-39
-0.4400674403 -0.486423701 0.4017273188 7.618684588e-39
-0.401484251 -0.4835530818 0.2404982895 7.618684588e-39
-0.401391685 -0.4832855761 0.2280651331 7.618684588e-39
-0.4009288549 -0.4819479883 0.1658992916 7.802712912e-39
0.2003889233 -0.4822985232 -0.2628272176 7.802712912e-39
-0.4273297787 -0.4858235419 0.3645618558 7.802712912e-39
-0.4142218828 -0.4841532707 0.2776637673 7.802712912e-39
-0.401113987 -0.4824829996 0.190765664 7.802712912e-39
-0.4270520806 -0.4850209951 0.3272624016 7.802712912e-39
-0.4133887887 -0.4817456305 0.1657652557 7.802712912e-39
-0.4268669486 -0.484485954 0.3023959994 7.802712912e-39
-0.2605594993 -0.4507145286 -0.2299050689 7.986382503e-39
-0.2480770499 -0.4747457802 -0.2800861001 7.986382503e-39
-0.2729969919 -0.4743410349 -0.2803542018 7.986382503e-39
-0.4137590528 -0.4828156829 0.2154979259 7.986382503e-39
-0.4136664867 -0.4825481772 0.2030647695 7.986382503e-39
-0.4381236136 -0.4808058441 0.1406308413 7.986382503e-39
-0.4134813547 -0.4820131361 0.1781983972 7.986382503e-39
-0.3103768528 -0.4737339318 -0.2807563543 7.986382503e-39
-0.4395120442 -0.4848186076 0.3271283507 8.170410826e-39
-0.4394194782 -0.4845511019 0.3146951795 8.170410826e-39
-0.1983298063 -0.4758227468 -0.2671167552 8.170410826e-39
-0.4264041483 -0.4831483662 0.2402301878 8.170410826e-39
0.2254013866 -0.4824357629 -0.2749922872 8.170410826e-39
-0.4392343462 -0.4840160608 0.2898288369 8.170410826e-39
-0.4262190163 -0.4826133251 0.215363875 8.170410826e-39
-0.4259413183 -0.4818107784 0.1780643612 8.170410826e-39
-0.4260338843 -0.482078284 0.1904975623 8.35443915e-39
-0.4391418099 -0.4837485254 0.2773956656 8.35443915e-39
0.250413835 -0.4825729728 -0.2871573567 8.35443915e-39
-0.4389566779 -0.4832134843 0.2525293231 8.35443915e-39
-0.123755157 -0.4775719941 -0.2414461225 8.35443915e-39
-0.4384012818 -0.4816083908 0.1779303104 8.35443915e-39
-0.4385864139 -0.4821434319 0.2027966827 8.35443915e-39
-0.4514166415 -0.4830111265 0.2523953319 8.35443915e-39
-0.4512315094 -0.4824761152 0.2275289297 8.538467473e-39
-0.4508612454 -0.481406033 0.1777962595 8.538467473e-39
-0.2729044259 -0.4740734994 -0.2927873731 8.538467473e-39
-0.4510463774 -0.4819410741 0.2026626319 8.538467473e-39
-0.440263778 -0.4750443101 0.4517511725 8.538467473e-39
-0.3102842867 -0.4734663963 -0.293189466 8.538467473e-39
-0.2479844838 -0.4744782448 -0.2925192714 8.538467473e-39
-0.1734098792 -0.4762274921 -0.2668486536 8.538467473e-39
0.1130766124 -0.4811494946 -0.2513323724 8.722137064e-39
-0.1361225694 -0.4771021307 -0.2540133297 8.722137064e-39
-0.4399860799 -0.4742417634 0.4144516587 8.722137064e-39
0.188021481 -0.4818286598 -0.2753944397 8.722137064e-39
-0.2230870277 -0.451054126 -0.2419361174 8.722137064e-39
-0.1609499007 -0.4764298499 -0.2667146027 8.722137064e-39
-0.3351116478 -0.4727941453 -0.305890739 8.722137064e-39
-0.297731787 -0.4734012485 -0.305488646 8.722137064e-39
-0.2852717936 -0.473603636 -0.3053545952 8.906165387e-39
0.1380891353 -0.4812867045 -0.2634974718 8.906165387e-39
0.1755615324 -0.481626302 -0.2755284905 8.906165387e-39
-0.2230645567 -0.4748829603 -0.2922511697 8.906165387e-39
-0.4397084117 -0.4734392166 0.3771522045 8.906165387e-39
-0.437949717 -0.4683563709 0.1409220397 8.906165387e-39
0.213034004 -0.4819658697 -0.2875594497 8.906165387e-39
-0.235454455 -0.4505842626 -0.2545033097 8.906165387e-39
-0.4394307137 -0.4726366401 0.3398526907 9.089834978e-39
0.06323676556 -0.4803400338 -0.251868546 9.089834978e-39
-0.4393381476 -0.4723691344 0.3274195194 9.089834978e-39
-0.3225591481 -0.4727289975 -0.3181898594 9.089834978e-39
-0.4392455816 -0.4721016288 0.3149864078 9.089834978e-39
-0.3100991547 -0.472931385 -0.3180558085 9.089834978e-39
-0.210604623 -0.4750853479 -0.2921171188 9.089834978e-39
-0.3474790454 -0.4723242819 -0.3184579611 9.089834978e-39
-0.4382273853 -0.4691589177 0.1782215089 9.273863302e-39
-0.4505022466 -0.4684215188 0.1532211453 9.273863302e-39
-0.2354319692 -0.4744130969 -0.3048183918 9.273863302e-39
-0.4385050833 -0.4699614644 0.2155210227 9.273863302e-39
0.2255865186 -0.4819007218 -0.2998586297 9.273863302e-39
0.1131691784 -0.4808819592 -0.2637655735 9.273863302e-39
-0.4506873488 -0.4689565599 0.178087458 9.273863302e-39
-0.4514278769 -0.4710966945 0.2775527835 9.273863302e-39
-0.4513353109 -0.4708291888 0.2651196718 9.457532893e-39
-0.4512427449 -0.4705616534 0.2526865005 9.457532893e-39
-0.4510576129 -0.4700266421 0.2278201282 9.457532893e-39
-0.4509650469 -0.4697591066 0.2153869718 9.457532893e-39
0.1007092223 -0.4806796014 -0.2638995945 9.457532893e-39
0.02585691772 -0.4797329009 -0.2522706985 9.457532893e-39
-0.2975466549 -0.4728662074 -0.3303549886 9.457532893e-39
-0.1732472181 -0.4518636167 -0.241399914 9.457532893e-39
-0.4399973154 -0.4623273611 0.4396092296 9.641561216e-39
-0.1235700324 -0.477036953 -0.26631248 9.641561216e-39
0.1756540984 -0.4813587666 -0.2879616022 9.641561216e-39
-0.2850866616 -0.4730685949 -0.3302209377 9.641561216e-39
-0.1856846958 -0.4754900634 -0.2918490171 9.641561216e-39
-0.2478218377 -0.4501143694 -0.2670705318 9.641561216e-39
-0.2726267278 -0.4732709527 -0.3300868869 9.641561216e-39
0.07578932494 -0.4802748561 -0.2641676962 9.641561216e-39
-0.235361889 -0.4503167272 -0.266936481 9.825230807e-39
-0.2353394181 -0.4741455913 -0.3172515631 9.825230807e-39
0.2006666213 -0.4814959764 -0.3001267314 9.825230807e-39
-0.1483973861 -0.476364702 -0.2790136933 9.825230807e-39
-0.2601667941 -0.4734733105 -0.329952836 9.825230807e-39
0.125721693 -0.4808168113 -0.2760646343 9.825230807e-39
-0.1111100912 -0.4772393405 -0.2661784291 9.825230807e-39
0.0009369645268 -0.4793281853 -0.2525388002 9.825230807e-39
0.1757241786 -0.4572624266 -0.250079751 1.000925913e-38
-0.2974540889 -0.4725987017 -0.3427881002 1.000925913e-38
-0.06136280298 -0.4783163369 -0.2532090545 1.000925913e-38
-0.1607872397 -0.4520659745 -0.2412658781 1.000925913e-38
-0.2229019105 -0.4505190849 -0.2668024302 1.000925913e-38
