# .PCD v0.7 - Point Cloud Data file format
VERSION 0.7
FIELDS x y z rgb
SIZE 4 4 4 4
TYPE F F F F
COUNT 1 1 1 1
WIDTH 836
HEIGHT 1
VIEWPOINT 0 0 0 1 0 0 0
POINTS 836
DATA ascii
0.07299395651 -0.3132569194 -0.2284362316 3.628921614e-39
0.2027864158 -0.1194664091 -0.2705937922 3.628921614e-39
0.200328052 -0.4434038699 -0.257025063 3.446326818e-39
0.2072874606 -0.4181827903 -0.1326307058 3.446326818e-39
0.1422457695 -0.1791546196 -0.2196870148 3.446326818e-39
0.2048644572 -0.2805934548 -0.05804354697 3.446326818e-39
0.1218088046 -0.1661472619 -0.3539236784 3.26337189e-39
0.2166610211 -0.318395108 -0.03353662416 3.26337189e-39
0.2113618553 -0.3931331038 -0.07049936801 3.26337189e-39
0.06734469533 -0.2634503543 -0.3510136306 3.26337189e-39
0.1950996369 -0.4685221612 -0.3440616131 3.080777095e-39
0.07324739546 -0.3884291947 -0.3634036481 3.080777095e-39
0.2020590603 -0.4433010817 -0.2196672559 3.080777095e-39
0.02992635593 -0.3243466318 -0.3386563659 3.080777095e-39
0.1509450972 -0.365986824 -0.107221745 2.898180898e-39
0.1286651343 -0.1786705256 -0.2439964116 2.898180898e-39
0.03108036146 -0.3242780864 -0.3137511611 2.898180898e-39
0.1303784549 -0.190972656 -0.1941201389 2.898180898e-39
0.05241852999 -0.3628037572 -0.3521030843 2.715227371e-39
0.2055387646 -0.4306905568 -0.1574700773 2.715227371e-39
0.1272811592 -0.3400031626 -0.1061617807 2.715227371e-39
0.1462847888 -0.1789147556 -0.1325187832 2.715227371e-39
0.2215777636 -0.1072371528 -0.1467294097 2.532632576e-39
0.2010730952 -0.1071642563 -0.3204700351 2.532632576e-39
0.2028041035 -0.1070614532 -0.2831122279 2.532632576e-39
0.02933166549 -0.3367858231 -0.3385905325 2.532632576e-39
0.04819916561 -0.354257375 -0.2760370076 2.349677647e-39
0.05432337523 -0.2753369212 -0.3503519595 2.349677647e-39
0.2227317691 -0.1071686223 -0.1218241975 2.349677647e-39
0.2072432339 -0.2308366299 -0.05830691755 2.349677647e-39
0.2032130659 -0.4432325363 -0.1947620362 2.167082852e-39
0.1348478198 -0.1418557763 -0.3671038151 2.167082852e-39
0.2061157674 -0.4306562841 -0.1450174898 2.167082852e-39
0.2108467668 -0.1313915998 -0.08373887837 2.167082852e-39
0.2146714181 -0.09524343908 -0.3086791039 1.984127923e-39
0.1151021942 -0.1657815129 -0.280824244 1.984127923e-39
0.201278612 -0.3676335514 -0.04513002187 1.984127923e-39
0.216048643 -0.3432392478 -0.02095234394 1.984127923e-39
0.04011261091 -0.3121018708 -0.3495586216 1.801533128e-39
0.03951791674 -0.3245410919 -0.3494927585 1.801533128e-39
0.1474387944 -0.1788462102 -0.107613571 1.801533128e-39
0.1614674479 -0.1180483773 -0.3559745252 1.801533128e-39
0.2204414457 -0.09490077198 -0.1841530651 1.618578199e-39
0.1162561998 -0.1657129675 -0.2559190392 1.618578199e-39
0.1151198894 -0.1533765495 -0.2933426797 1.618578199e-39
0.2066927701 -0.4306220114 -0.1325648725 1.618578199e-39
0.06972346455 -0.2136935294 -0.3512770236 1.435982003e-39
0.06082076579 -0.3878765702 -0.3628078401 1.435982003e-39
0.1330018193 -0.4409491122 -0.3661193848 1.435982003e-39
0.2051298022 -0.09451947361 -0.245820269 1.435982003e-39
0.2066308558 -0.2556807697 -0.04572261125 1.253028475e-39
0.05182383209 -0.3752429485 -0.3520372212 1.253028475e-39
0.03338836879 -0.3241410255 -0.2639407516 1.253028475e-39
0.04189668968 -0.2747842669 -0.3497561514 1.253028475e-39
0.2006839216 -0.3800727427 -0.04506417364 1.070432279e-39
0.1281411946 -0.1414899975 -0.2940043509 1.070432279e-39
0.04956583679 -0.3748504817 -0.3498252332 1.070432279e-39
0.2107671648 -0.4055722952 -0.07043352723 1.070432279e-39
0.2196344882 -0.2561991215 -0.03386583924 8.874787512e-40
0.1287181973 -0.1414557397 -0.2815517485 8.874787512e-40
0.2232026309 -0.1815639734 -0.03426089883 8.874787512e-40
0.2062838078 -0.09445093572 -0.2209150493 8.874787512e-40
0.1168508977 -0.1532737464 -0.2559848726 7.045238224e-40
0.1993597746 -0.09486213326 -0.3703463078 7.045238224e-40
0.04191437736 -0.2623793483 -0.362274617 7.045238224e-40
0.2005137801 -0.09479360282 -0.345441103 7.045238224e-40
0.2030273229 -0.3551257849 -0.0202906765 5.219290273e-40
0.2054060847 -0.3053690195 -0.0205540508 5.219290273e-40
0.1350475401 -0.1534837335 -0.1320546567 5.219290273e-40
0.1258508861 -0.1292221248 -0.356333226 5.219290273e-40
0.08393416554 -0.1769285798 -0.3520703614 3.389740985e-40
0.1360372007 -0.1169773862 -0.3672355115 3.389740985e-40
0.04170522094 -0.3745532334 -0.3016310036 3.389740985e-40
0.1174455881 -0.1408345699 -0.2560507059 3.389740985e-40
0.02947006002 -0.2742316425 -0.3491603136 1.56020571e-40
0.04987170547 -0.3120488524 -0.1898867488 1.56020571e-40
0.1214492247 -0.1654045731 -0.1438456029 1.56020571e-40
0.1293129027 -0.1290165335 -0.2816176116 1.56020571e-40
0.1496355236 -0.1050565317 -0.3554445505 6.490113838e-41
0.2201937884 -0.2685698271 -0.008894812316 6.490113838e-41
0.02948774956 -0.2618267238 -0.3616787791 6.490113838e-41
0.2255814075 -0.1318071485 -0.03452427685 6.490113838e-41
0.05731452629 -0.200736016 -0.3631996512 2.496469266e-40
0.2125777751 -0.1312887967 -0.04638104141 2.496469266e-40
0.114578262 -0.128600955 -0.3308322132 2.496469266e-40
0.07205800712 -0.4133075774 -0.3632719517 2.496469266e-40
0.2078467757 -0.4305534959 -0.1076596454 4.340353837e-40
0.09631656855 -0.4268520474 -0.3643977642 4.340353837e-40
0.1965918392 -0.4175273776 -0.09467707574 4.340353837e-40
0.08395186067 -0.1645236313 -0.3645888269 4.340353837e-40
0.1105891913 -0.1283113062 -0.3659780025 6.184224396e-40
0.09059598297 -0.3259060979 -0.1044401526 6.184224396e-40
0.2101724744 -0.4180114567 -0.07036768645 6.184224396e-40
0.06343464553 -0.3249379098 -0.1530589461 6.184224396e-40
0.1927562505 -0.4934690595 -0.3688351512 8.028094954e-40
0.04053352773 -0.3870266974 -0.3140177429 8.028094954e-40
0.02413551882 -0.3737794757 -0.3610861897 8.028094954e-40
0.2131901532 -0.1064446568 -0.05896535516 8.028094954e-40
0.07292319834 -0.3628766239 -0.1783624291 9.871979525e-40
0.2043493688 -0.4555689692 -0.1573383957 9.871979525e-40
0.0393795222 -0.3870952427 -0.3389229774 9.871979525e-40
0.1156172827 -0.4275230169 -0.2675847709 9.871979525e-40
0.1018332168 -0.3513371348 -0.104904294 1.171585008e-39
0.1203482896 -0.1282582879 -0.2063061595 1.171585008e-39
0.04837644845 -0.3997288942 -0.3496935368 1.171585008e-39
0.09000129253 -0.3383452892 -0.1043743119 1.171585008e-39
0.1505538374 -0.4541278481 -0.2941457331 1.355972064e-39
0.1973899603 -0.4807899892 -0.281732738 1.355972064e-39
0.1496532112 -0.09265161306 -0.367963016 1.355972064e-39
0.1140189469 -0.116230309 -0.3558032513 1.355972064e-39
0.01704343222 -0.273679018 -0.3485645056 1.540360521e-39
0.1580902487 -0.4288725257 -0.1572987735 1.540360521e-39
0.2059477121 -0.3301446438 0.01693547331 1.540360521e-39
0.2113353163 -0.193381995 -0.008694048971 1.540360521e-39
0.2195460349 -0.3182237744 0.02872639708 1.724747577e-39
0.124387309 -0.1280184239 -0.1191379204 1.724747577e-39
0.0781692937 -0.3253534734 -0.1038443297 1.724747577e-39
0.2090007812 -0.4304849505 -0.08275446296 1.724747577e-39
0.03800439462 -0.3238669038 -0.1643198729 1.909134633e-39
0.02354082465 -0.386218667 -0.3610203564 1.909134633e-39
0.1012385264 -0.3637763262 -0.1048384458 1.909134633e-39
0.2119034827 -0.4179086685 -0.03300987557 1.909134633e-39
0.01823281869 -0.2488006055 -0.3486961722 2.09352309e-39
0.0585039109 -0.1758576035 -0.3633313477 2.09352309e-39
0.2137317806 -0.1312202662 -0.02147585899 2.09352309e-39
0.2072520852 -0.4429926872 -0.1075938046 2.09352309e-39
0.2095335573 -0.2431045175 0.004021978006 2.277910146e-39
0.04399554431 -0.3868210912 -0.2393021286 2.277910146e-39
0.02983790822 -0.3863712847 -0.2760641277 2.277910146e-39
0.07757460326 -0.3377926648 -0.1037784815 2.277910146e-39
0.04749293625 -0.3618056476 -0.1896233857 2.462297202e-39
0.2195283473 -0.3306287229 0.04124483466 2.462297202e-39
0.0004716478288 -0.3477958143 -0.3600262403 2.462297202e-39
0.1603982598 -0.4287354648 -0.1074883491 2.462297202e-39
0.2213124186 -0.2933110893 0.04104730487 2.646685659e-39
0.2279424816 -0.09445530921 -0.02226921171 2.646685659e-39
0.060270302 -0.1509449184 -0.351010412 2.646685659e-39
0.2267000377 -0.1565485001 0.01541784219 2.646685659e-39
0.0004539564252 -0.3602007627 -0.3475077748 2.830713982e-39
0.199476853 -0.4173560441 -0.03241405264 2.830713982e-39
0.2107317895 -0.4303821623 -0.045396626 2.830713982e-39
0.07388631254 -0.1266191602 -0.3517379165 2.830713982e-39
0.1096703559 -0.1151979417 -0.1808709502 3.015101038e-39
0.02352313697 -0.3986236155 -0.3485018909 3.015101038e-39
0.08066310734 -0.413323164 -0.2285052836 3.015101038e-39
0.22668235 -0.1689534187 0.02793627791 3.015101038e-39
0.04282384366 -0.3992945552 -0.2516888678 3.199488094e-39
0.07330930978 -0.1266534328 -0.3641905487 3.199488094e-39
0.1971511543 -0.4298980534 -0.06970601529 3.199488094e-39
0.2248982638 -0.2062710226 0.0281338077 3.199488094e-39
0.2084060907 -0.4429241419 -0.08268862218 3.383517819e-39
0.00580618903 -0.2482479811 -0.3481003642 3.383517819e-39
0.08750232309 -0.1022933871 -0.352465421 3.383517819e-39
0.03992114216 -0.4118708372 -0.3014334738 3.383517819e-39
0.2230965048 -0.2559935451 0.04084977508 3.567904875e-39
0.2278894186 -0.1316700876 0.01528615691 3.567904875e-39
0.1954024583 -0.4424057901 -0.09454538673 3.567904875e-39
0.02120628022 -0.186604619 -0.3490253985 3.567904875e-39
0.1545928568 -0.4538879693 -0.2069775164 3.75229193e-39
0.2236911952 -0.2435543537 0.0407839343 3.75229193e-39
0.03535507247 -0.4116154313 -0.3490318656 3.75229193e-39
0.04922394454 -0.3617028594 -0.1522655785 3.75229193e-39
0.1000491381 -0.3886547089 -0.1047067568 3.936320254e-39
0.2278717309 -0.144075036 0.02780459262 3.936320254e-39
-0.04618529975 -0.2539465427 -0.3130377233 3.936320254e-39
0.1950465739 -0.5057369471 -0.3065062761 3.936320254e-39
0.2112645656 -0.2430017292 0.04137975723 4.120708711e-39
0.03329992294 -0.3861656785 -0.2013485134 4.120708711e-39
0.03504861891 -0.3736579418 -0.1765091419 4.120708711e-39
0.1996802837 -0.4930578768 -0.2194038779 4.120708711e-39
0.2236381173 -0.2807691395 0.07833930105 4.304737034e-39
0.1499414593 -0.478971988 -0.2815614641 4.304737034e-39
0.2229726762 -0.3428280652 0.1284789443 4.304737034e-39
0.2088150382 -0.3423782289 0.09171693772 4.304737034e-39
0.2060626894 -0.4678710997 -0.1074621156 4.48912409e-39
0.06264907122 -0.1011881307 -0.3512737751 4.48912409e-39
0.02299035713 -0.149287045 -0.3492229283 4.48912409e-39
0.02922552451 -0.4112154245 -0.2634798288 4.48912409e-39
0.2112911046 -0.4427528083 -0.02042559721 4.673152414e-39
0.008797340095 -0.1736470759 -0.360948056 4.673152414e-39
0.04029471427 -0.3361347616 -0.1019910127 4.673152414e-39
0.03543467447 -0.1374347508 -0.3623372316 4.673152414e-39
0.20353356 -0.4047112763 0.04223572463 4.857539469e-39
-0.07163328677 -0.2652804852 -0.3117802143 4.857539469e-39
0.009969037026 -0.1611735821 -0.3485612571 4.857539469e-39
-0.07221028954 -0.265314728 -0.3242328465 4.857539469e-39
0.2182858884 -0.3927219212 0.07893189043 5.041567793e-39
0.2247390598 -0.31791538 0.1407998502 5.041567793e-39
0.2253160626 -0.3178811073 0.1532524526 5.041567793e-39
0.1473769397 -0.4406220019 -0.1068266854 5.041567793e-39
0.2118681073 -0.4427185357 -0.007973004133 5.225597518e-39
0.2112114877 -0.2802165151 0.07893512398 5.225597518e-39
0.04628586024 -0.399088949 -0.1769732535 5.225597518e-39
0.2272062749 -0.2061339617 0.07794424146 5.225597518e-39
0.1188318953 -0.4628700614 -0.2962400913 5.409984573e-39
0.2171141952 -0.4051953852 0.06654514372 5.409984573e-39
0.009924814105 -0.4105444252 -0.3602928519 5.409984573e-39
0.1194088981 -0.4628357887 -0.2837874889 5.409984573e-39
0.2301620543 -0.1563428938 0.09013345838 5.594012897e-39
0.2295673639 -0.1687820852 0.09019930661 5.594012897e-39
0.01050181687 -0.4105101824 -0.3478402197 5.594012897e-39
0.2171761096 -0.1434196234 0.0657582581 5.594012897e-39
0.138759613 -0.4629772305 -0.1349520534 5.77804122e-39
0.2253691256 -0.2806663513 0.1156970859 5.77804122e-39
0.02459181473 -0.4238944948 -0.3505822122 5.77804122e-39
0.0223337505 -0.423502028 -0.3483701944 5.77804122e-39
0.2271001339 -0.2805635333 0.1530549228 5.962428276e-39
0.2165637314 -0.1682637334 0.0783425346 5.962428276e-39
0.2076079547 -0.3796615303 0.1043670624 5.962428276e-39
0.2301443666 -0.1687478125 0.1026518941 5.962428276e-39
0.2117531151 -0.3049921095 0.1164245903 6.1464566e-39
0.05784730613 -0.4500725567 -0.3624786139 6.1464566e-39
0.225963816 -0.26822716 0.1156312376 6.1464566e-39
0.03873176128 -0.4367492199 -0.3013017774 6.1464566e-39
0.1551521719 -0.4662586153 -0.1820064783 6.330484923e-39
0.2319638133 -0.1066203639 0.07741749287 6.330484923e-39
0.2283602804 -0.2060654461 0.1028494239 6.330484923e-39
0.1985085905 -0.5055313706 -0.231790632 6.330484923e-39
0.2064362615 -0.3921350241 0.09198030829 6.514514648e-39
0.2182682008 -0.4051268399 0.09145032614 6.514514648e-39
0.213501811 -0.2924843431 0.1412639916 6.514514648e-39
0.125755921 -0.462458849 -0.146808818 6.514514648e-39
0.2147619575 -0.2179862559 0.09105850011 6.698542971e-39
0.1528264731 -0.4788006544 -0.2192984223 6.698542971e-39
0.1057697982 -0.4896006584 -0.3646643758 6.698542971e-39
0.0398857668 -0.4366807044 -0.2763965726 6.698542971e-39
0.1961828917 -0.51807338 -0.2690826356 6.882571295e-39
0.2141495794 -0.2428303957 0.1036427766 6.882571295e-39
0.2301089764 -0.1935576797 0.1276888251 6.882571295e-39
0.03721875325 -0.1001171321 -0.3625347614 6.882571295e-39
-0.05504377186 -0.1787587106 -0.3128369451 7.066599618e-39
0.2312806696 -0.1810842454 0.1400755793 7.066599618e-39
-0.002501815557 -0.4099918008 -0.3596970141 7.066599618e-39
0.2165283412 -0.1930736005 0.1033794135 7.066599618e-39
0.219999209 -0.4050240517 0.1288081706 7.250627941e-39
0.09513264149 -0.4616962671 -0.2701432109 7.250627941e-39
-0.05502608418 -0.1663537771 -0.3253554106 7.250627941e-39
-0.01375677809 -0.3969657421 -0.3467144072 7.250627941e-39
0.2171053439 -0.1930393279 0.115832001 7.434656265e-39
0.03036184236 -0.4235518277 -0.2260561585 7.434656265e-39
0.2098982781 -0.3919294178 0.1666959226 7.434656265e-39
0.2093212754 -0.3919636905 0.1542433351 7.434656265e-39
0.209524706 -0.4676654935 -0.03274650127 7.618684588e-39
-0.0538367033 -0.1414753944 -0.325487107 7.618684588e-39
0.1292179376 -0.4622532725 -0.07209320366 7.618684588e-39
0.2147531211 -0.4425472021 0.05429001898 7.618684588e-39
0.0416167751 -0.4365778863 -0.2390387654 7.802712912e-39
0.1994237751 -0.4545708895 0.005141315982 7.802712912e-39
0.04974787682 -0.3988833725 -0.1022576168 7.802712912e-39
0.09686364979 -0.4615934789 -0.2327854186 7.802712912e-39
0.2101017088 -0.4676312208 -0.02029391006 7.986382503e-39
0.02803614177 -0.4360938072 -0.2633481622 7.986382503e-39
0.2330293804 -0.168576479 0.1649149209 7.986382503e-39
0.2176469713 -0.2178149223 0.1533215195 7.986382503e-39
0.2182593495 -0.1929707825 0.1407372504 8.170410826e-39
0.2176558226 -0.4299709499 0.1040346026 8.170410826e-39
0.120197922 -0.4520587623 -0.1429270208 8.170410826e-39
0.2182416618 -0.205375731 0.1532556862 8.170410826e-39
0.03441854939 -0.4109070301 -0.1514063776 8.35443915e-39
0.06970238686 -0.4606252909 -0.2814041972 8.35443915e-39
-0.0628509298 -0.3699110448 -0.3569154441 8.35443915e-39
0.2336594462 -0.1313274205 0.1398122013 8.35443915e-39
0.2040751874 -0.4294868708 0.07972524315 8.538467473e-39
0.219413355 -0.192902267 0.1656424254 8.538467473e-39
0.1976750791 -0.4670785964 -0.01969808713 8.538467473e-39
0.2206735015 -0.11840415 0.1154369414 8.538467473e-39
0.04915318638 -0.4113225937 -0.102191776 8.722137064e-39
0.08091647923 -0.4884954095 -0.3634727299 8.722137064e-39
-0.07408820838 -0.3444800377 -0.3564513028 8.722137064e-39
0.09767036885 -0.4384114742 -0.1044433862 8.722137064e-39
-0.06568636 -0.1408884972 -0.3124386668 8.906165387e-39
0.0369653739 -0.4616618752 -0.3136226833 8.906165387e-39
0.05842969939 -0.4600040913 -0.2559031248 8.906165387e-39
-0.06344562769 -0.382350266 -0.356849581 8.906165387e-39
0.2193691432 -0.4422730803 0.1539108753 9.089834978e-39
0.1959263831 -0.4795863032 -0.04453742877 9.089834978e-39
-0.09410776198 -0.2144184113 -0.3108519614 9.089834978e-39
0.09193805605 -0.4605953991 -0.07030573487 9.089834978e-39
0.2224221975 -0.1058963984 0.1402763426 9.273863302e-39
0.2137423307 -0.3586229384 0.3400391638 9.273863302e-39
-0.07751829177 -0.1278966516 -0.3119086623 9.273863302e-39
0.1594374031 -0.3442816436 0.230283156 9.273863302e-39
0.1600144058 -0.3442474008 0.2427357435 9.457532893e-39
-0.07809529454 -0.1279309243 -0.3243612945 9.457532893e-39
0.03579367697 -0.4741353691 -0.3260094821 9.457532893e-39
0.0369476825 -0.4740668237 -0.3011042476 9.457532893e-39
0.2011370957 -0.4668729901 0.05501753092 9.641561216e-39
0.1455928683 -0.4779396355 -0.1066291556 9.641561216e-39
-0.121357508 -0.275474906 -0.2968784869 9.641561216e-39
0.2155440897 -0.3089004457 0.3273231983 9.641561216e-39
0.2017140985 -0.4668387473 0.06747018546 9.825230807e-39
0.007546041161 -0.4603012204 -0.360029459 9.825230807e-39
0.201315701 -0.3580703139 0.3406349719 9.825230807e-39
0.1469931006 -0.3561339676 0.2433974147 9.825230807e-39
-0.08712720871 -0.368771553 -0.3432711661 1.000925913e-38
-0.1065344214 -0.2138657719 -0.3102561235 1.000925913e-38
0.04738680273 -0.436235249 -0.1145127118 1.000925913e-38
0.06708474457 -0.4594901204 -0.06911408156 1.000925913e-38
0.04421360046 -0.4868032634 -0.3492326438 1.019292872e-38
-0.1065167338 -0.2014608681 -0.3227745891 1.019292872e-38
0.1331661791 -0.4773869812 -0.1060333252 1.019292872e-38
0.1481824815 -0.331255585 0.2432657182 1.019292872e-38
-0.06269520521 -0.06628756225 -0.3252863288 1.037659831e-38
0.1072496995 -0.4609766901 -0.008638532832 1.037659831e-38
0.215277046 -0.4797277153 0.1042979807 1.037659831e-38
0.2167157829 -0.2964269519 0.3397099376 1.037659831e-38
0.05408111215 -0.4589717388 -0.08097085357 1.056062664e-38
0.008146191016 -0.4578278661 -0.2659724355 1.056062664e-38
-0.02796748281 -0.4337306917 -0.3459210694 1.056062664e-38
0.2123743445 -0.4923039973 0.054553397 1.056062664e-38
0.05465811491 -0.4589374959 -0.06851825863 1.074429623e-38
-0.004880584776 -0.459748596 -0.359433651 1.074429623e-38
-0.08935022354 -0.1149048358 -0.3113786876 1.074429623e-38
0.1078267023 -0.4609424174 0.003814090043 1.074429623e-38
0.05604553968 -0.4997950792 -0.3497626185 1.092796582e-38
0.006951350719 -0.4727404118 -0.3599636257 1.092796582e-38
0.1493541896 -0.3187820911 0.2556525469 1.092796582e-38
0.1570409536 -0.4064433873 0.2430649549 1.092796582e-38
0.04388940334 -0.4612506926 -0.1641914248 1.111163541e-38
0.0332114771 -0.4481903315 -0.1387562603 1.111163541e-38
0.1906731427 -0.3202001154 0.3410332799 1.111163541e-38
0.1906908303 -0.3077951968 0.3285148442 1.111163541e-38
0.209471643 -0.5048803091 0.004808863625 1.1295305e-38
0.1219843328 -0.4613922238 0.04057604447 1.1295305e-38
0.04446640611 -0.4612164199 -0.1517388225 1.1295305e-38
0.03378847986 -0.4481560588 -0.126303643 1.1295305e-38
0.2101918608 -0.4208531976 0.3279157877 1.147897319e-38
-0.1325770766 -0.2376389354 -0.3089327812 1.147897319e-38
0.01218521036 -0.457588017 -0.1788042188 1.147897319e-38
0.2022557259 -0.4916143119 0.1049596518 1.147897319e-38
0.2185175568 -0.2467044741 0.3269939721 1.166264278e-38
0.2034097314 -0.4915457964 0.1298648864 1.166264278e-38
0.01276221313 -0.4575537443 -0.1663516164 1.166264278e-38
0.1918802112 -0.2829167843 0.3283831477 1.166264278e-38
0.1976220161 -0.5042933822 0.01785728149 1.184631237e-38
-0.08891129494 -0.4060891271 -0.3430736363 1.184631237e-38
-0.0008184788749 -0.4570696354 -0.1906610131 1.184631237e-38
0.1381169409 -0.2933510542 0.2561166883 1.184631237e-38
0.167150721 -0.1949770153 0.2419456244 1.202998196e-38
0.2158186734 -0.5045033693 0.1417874992 1.202998196e-38
0.2060732394 -0.2585567534 0.3401082158 1.202998196e-38
0.1677454114 -0.1825378239 0.2418797761 1.202998196e-38
0.0331937857 -0.4605952501 -0.1262377948 1.221365155e-38
-0.01266810205 -0.4564827383 -0.177612558 1.221365155e-38
0.09713108093 -0.4602869749 0.04176769033 1.221365155e-38
0.01622422785 -0.4573481381 -0.09163600206 1.221365155e-38
0.1689524949 -0.1452545077 0.2292296588 1.239732115e-38
0.08412745595 -0.4597686231 0.02991092205 1.239732115e-38
-0.01151409838 -0.4564141929 -0.152707383 1.239732115e-38
-0.04098337889 -0.4555830657 -0.2511365414 1.239732115e-38
0.03095886856 -0.4577637017 -0.04242139682 1.258099074e-38
0.07112376392 -0.4592502415 0.01805415563 1.258099074e-38
0.1800482124 -0.2699249983 0.3289131224 1.258099074e-38
0.1936466098 -0.2580041289 0.3407040536 1.258099074e-38
0.003797542537 -0.4567955136 -0.09104017913 1.276466033e-38
0.03434779122 -0.4605267346 -0.1013325825 1.276466033e-38
0.1374161094 -0.380219847 0.3312931955 1.276466033e-38
-0.1443913281 -0.2122421563 -0.320921272 1.276466033e-38
-0.1237947345 -0.34226951 -0.354068011 1.294832852e-38
0.2090643793 -0.1839558482 0.3272605836 1.294832852e-38
0.1384499818 -0.4617049992 0.1271484792 1.294832852e-38
0.1695471853 -0.1328152865 0.2291638106 1.294832852e-38
0.1774286181 -0.5207393765 -0.007181983441 1.313163938e-38
0.2134929746 -0.5170453787 0.1044955105 1.313163938e-38
0.1112887189 -0.4607368112 0.07852970064 1.313163938e-38
-0.1586020291 -0.2490070909 -0.3201279342 1.313163938e-38
0.0185322389 -0.4572110772 -0.04182557389 1.331530897e-38
0.2232574075 -0.1595958024 0.3389856517 1.331530897e-38
0.2152239829 -0.5169425607 0.1418533474 1.331530897e-38
-0.1130141318 -0.08892117441 -0.3103187382 1.331530897e-38
0.1723172218 -0.4316345453 0.3297691047 1.349897856e-38
0.07170076668 -0.4592159688 0.03050674871 1.349897856e-38
0.1701418757 -0.1203761101 0.2290979773 1.349897856e-38
0.157102868 -0.1446676105 0.2422780693 1.349897856e-38
-0.1249841303 -0.3671478927 -0.3539363146 1.368228942e-38
-0.06699065864 -0.4545463622 -0.2748501301 1.368228942e-38
-0.06583665311 -0.4544778168 -0.2499449104 1.368228942e-38
-0.06525965035 -0.454443574 -0.2374922782 1.368228942e-38
0.1519982964 -0.5196684003 -0.01844295859 1.386595901e-38
0.1824093014 -0.232573092 0.341168195 1.386595901e-38
0.149230361 -0.4056166112 0.3432816565 1.386595901e-38
-0.03521335125 -0.4552403986 -0.1266105175 1.386595901e-38
0.1598905772 -0.4310819209 0.3303649127 1.404926846e-38
0.169405669 -0.2320547402 0.3293114305 1.404926846e-38
-0.1118247434 -0.06404277682 -0.3104504347 1.404926846e-38
0.1978094578 -0.1709297299 0.3402431607 1.404926846e-38
0.1835986823 -0.2076947242 0.3410364985 1.423293806e-38
0.08833961189 -0.3407602906 0.3085737228 1.423293806e-38
0.1019202396 -0.3412443697 0.3328831196 1.423293806e-38
0.03326687962 -0.4576266408 0.007389033213 1.423293806e-38
0.1582922488 -0.1197892129 0.2421463877 1.441624891e-38
0.1131398007 -0.3790803254 0.3449374437 1.441624891e-38
0.1013078541 -0.3660885096 0.3454674184 1.441624891e-38
-0.1254407763 -0.08836854994 -0.3097229004 1.441624891e-38
-0.1414178759 -0.1500461698 -0.3212504983 1.459991851e-38
-0.1261735111 -0.3920263052 -0.3538046181 1.459991851e-38
0.1283313632 -0.4610153139 0.1775547415 1.459991851e-38
-0.006898075342 -0.4561400712 -0.05308651924 1.459991851e-38
0.1291523278 -0.2925928235 0.3314281106 1.478322936e-38
-0.1255965084 -0.3919920623 -0.3413520157 1.478322936e-38
0.1592958868 -0.4435210824 0.3304307461 1.478322936e-38
0.1119681001 -0.3915537894 0.3325506747 1.478322936e-38
-0.04706300423 -0.4546535313 -0.1135620624 1.496689755e-38
-0.1692623049 -0.2235418409 -0.3072111607 1.496689755e-38
0.1297470331 -0.2801536322 0.3313622773 1.496689755e-38
0.0881664753 -0.459528774 0.1170791909 1.496689755e-38
0.1300623715 -0.4609124959 0.2149125189 1.515020841e-38
0.1023241058 -0.4599785805 0.1538411379 1.515020841e-38
-0.08895893395 -0.4532697499 -0.2113954574 1.515020841e-38
0.1717048287 -0.4564786553 0.3423533738 1.515020841e-38
0.07516278327 -0.4590103626 0.1052223668 1.533351927e-38
-0.09068994224 -0.4533725381 -0.2487532645 1.533351927e-38
-0.1149539649 -0.4298622906 -0.341750294 1.533351927e-38
0.08874347806 -0.4594945014 0.1295317858 1.533351927e-38
-0.0600666292 -0.4541351497 -0.1254188716 1.551683013e-38
-0.1480710208 -0.3411299884 -0.340423733 1.551683013e-38
0.1829598248 -0.4695047438 0.3293707967 1.551683013e-38
0.1587011963 -0.4559603035 0.3304966092 1.551683013e-38
0.1599348187 -0.1817110628 0.3420964777 1.570049832e-38
-0.1840500087 -0.260341078 -0.3188704252 1.570049832e-38
0.1042813212 -0.3038925231 0.3451381922 1.570049832e-38
0.05475204438 -0.3471534848 0.2738649547 1.570049832e-38
-0.05948962644 -0.4541009068 -0.1129662395 1.588380918e-38
-0.1532498002 -0.137054354 -0.3207205236 1.588380918e-38
0.1605295092 -0.1692718416 0.3420306146 1.588380918e-38
0.1356143355 -0.4299423695 0.344009161 1.588380918e-38
0.1321257949 -0.2303968519 0.3310988843 1.606712004e-38
-0.01968601346 -0.5089527965 -0.35857445 1.606712004e-38
0.2132095397 -0.1092863828 0.3393180966 1.606712004e-38
0.1338921785 -0.2054841965 0.3434197903 1.606712004e-38
0.1523011029 -0.4935520291 0.2310732752 1.625043089e-38
0.1191044077 -0.2422834337 0.3317605555 1.625043089e-38
-0.08665092289 -0.453132689 -0.1615850329 1.625043089e-38
0.06331315637 -0.4584234953 0.1182708368 1.625043089e-38
0.0529679656 -0.3844710886 0.2740624845 1.643374035e-38
0.07804779708 -0.4588390589 0.1674853861 1.643374035e-38
-0.1155432314 -0.4522672892 -0.2475616187 1.643374035e-38
0.02314826474 -0.4569369555 0.05779528618 1.643374035e-38
-0.1161202341 -0.4523015618 -0.260014236 1.661705121e-38
-0.01586268842 -0.4553818405 0.02222492173 1.661705121e-38
0.06521736085 -0.3395522237 0.3471232057 1.661705121e-38
0.0924493894 -0.2909006774 0.3456681669 1.661705121e-38
0.07920180261 -0.4587705135 0.1923906356 1.680036207e-38
0.05413965881 -0.3719976246 0.2864492536 1.680036207e-38
0.09892908484 -0.4158452749 0.3457307816 1.680036207e-38
0.05161898583 -0.3514730334 0.3353322744 1.680036207e-38
0.0367288962 -0.4574210346 0.08210465312 1.698367293e-38
-0.002282055095 -0.4558659196 0.04653428495 1.698367293e-38
0.05772550404 -0.2849574983 0.2735357583 1.698367293e-38
0.1941970736 -0.4949357808 0.3289066553 1.698367293e-38
0.1699384451 -0.4813913107 0.3300324678 1.716698239e-38
0.1586835086 -0.4683652222 0.3430150449 1.716698239e-38
0.1226725653 -0.167648226 0.3313654959 1.716698239e-38
-0.1793101579 -0.1732324213 -0.3068787158 1.716698239e-38
0.1096335575 -0.1919397265 0.3445456028 1.735029324e-38
-0.07133928686 -0.4535139799 -0.09991782904 1.735029324e-38
0.1102282479 -0.1795005351 0.3444797695 1.735029324e-38
0.1753349006 -0.1200677156 0.3411714137 1.735029324e-38
0.123249568 -0.1676139534 0.3438180983 1.75336041e-38
-0.1628587693 -0.3779292405 -0.3520829976 1.75336041e-38
0.04171303287 -0.3714449704 0.2870450616 1.75336041e-38
0.1102459356 -0.1670956016 0.3319613338 1.75336041e-38
0.07407584041 -0.414740026 0.3469224274 1.771655483e-38
-0.139242515 -0.4510935247 -0.2214647532 1.771655483e-38
0.01476059482 -0.4561444521 0.1455593258 1.771655483e-38
-0.208326295 -0.2592015862 -0.3052261472 1.771655483e-38
0.05550255254 -0.4575967193 0.2184874713 1.789986569e-38
0.09716270119 -0.4407579303 0.3334098756 1.789986569e-38
0.004064976703 -0.4554890096 0.1835129857 1.789986569e-38
0.04924021289 -0.4012298286 0.3355956376 1.789986569e-38
-0.2044488043 -0.3137438595 -0.2899779081 1.808317654e-38
0.09780161828 -0.1789479107 0.3450755775 1.808317654e-38
-0.0395619683 -0.4542080462 0.04832175747 1.808317654e-38
-0.01240067091 -0.4551762342 0.09694053978 1.808317654e-38
-0.1746907085 -0.3649373949 -0.3515530229 1.826612727e-38
-0.01124666538 -0.4551077187 0.1218457818 1.826612727e-38
0.09781930596 -0.1665429622 0.3325571418 1.826612727e-38
0.1108406261 -0.1546564102 0.3318954706 1.826612727e-38
-0.09307414293 -0.4931635261 -0.3426127136 1.844943813e-38
0.06819082797 -0.2773562372 0.3467939794 1.844943813e-38
0.03227755427 -0.2962914407 0.2747932374 1.844943813e-38
0.03992895409 -0.4087625742 0.2872425914 1.844943813e-38
-0.02136528492 -0.4544180334 0.1722519845 1.863274899e-38
0.04647057131 -0.2719314098 0.2865183353 1.863274899e-38
0.09839630872 -0.1665086895 0.3450097442 1.863274899e-38
-0.2056381851 -0.338622272 -0.2898462117 1.863274899e-38
0.01628274471 -0.3703739941 0.2757841349 1.881569971e-38
-0.1421683282 -0.4661088586 -0.3528137505 1.881569971e-38
-0.1055008024 -0.4926109016 -0.3420169055 1.881569971e-38
-0.2186064422 -0.3132940531 -0.3267398775 1.881569971e-38
-0.05314259976 -0.4537239671 0.02401239425 1.899901057e-38
-0.2009867877 -0.3135382831 -0.2152622342 1.899901057e-38
0.08539268374 -0.1659903377 0.3331529796 1.899901057e-38
0.05005641654 -0.1848913133 0.27360484 1.899901057e-38
0.121403642 -0.466707319 0.3448024988 1.91819627e-38
0.1510763466 -0.1065232456 0.3422972262 1.91819627e-38
0.01923851483 -0.3205829561 0.2879733443 1.91819627e-38
0.06424943358 -0.1605312526 0.2853299081 1.91819627e-38
0.06105451286 -0.4266265929 0.3475840986 1.936527215e-38
0.1250336468 -0.1302963793 0.3436205685 1.936527215e-38
-0.1179274321 -0.4920582771 -0.3414210677 1.936527215e-38
0.10839995 -0.4661889672 0.3329457343 1.936527215e-38
-0.2079815716 -0.3635691702 -0.3146197498 1.954822428e-38
-0.09561553597 -0.4523744583 -0.08627358824 1.954822428e-38
0.180581063 -0.5192615986 0.3296341598 1.954822428e-38
0.09900869429 -0.1416645944 0.3324254751 1.954822428e-38
-0.1421860158 -0.4785138071 -0.340295285 1.973153514e-38
0.03523332998 -0.2465003729 0.2869824469 1.973153514e-38
-0.04679556936 -0.4533470273 0.160991028 1.973153514e-38
0.1320638806 -0.4921726286 0.3318857849 1.973153514e-38
-0.2091532648 -0.3760426641 -0.327006489 1.991448586e-38
-0.1066724956 -0.5050843954 -0.3544036746 1.991448586e-38
-0.06268424541 -0.4529999793 0.08687124401 1.991448586e-38
0.09960338473 -0.1292253882 0.332359612 1.991448586e-38
-0.204519555 -0.363363564 -0.2399040759 2.009743799e-38
0.03873956949 -0.4336409569 0.2873742878 2.009743799e-38
-0.2039425522 -0.3633292913 -0.2274515033 2.009743799e-38
-0.2316277772 -0.3251805902 -0.3260782063 2.009743799e-38
0.08715907484 -0.1410777122 0.3454738855 2.028074885e-38
0.08717676252 -0.1286727637 0.3329554498 2.028074885e-38
0.07357843965 -0.1405936033 0.3211645186 2.028074885e-38
-0.1877297163 -0.3892289102 -0.3383728862 2.028074885e-38
0.05243518576 -0.135134533 0.2733414471 2.046369957e-38
0.02340136282 -0.2335085571 0.2875124514 2.046369957e-38
0.08062630147 -0.4900648892 0.2969112396 2.046369957e-38
0.01448097639 -0.4200965166 0.2885001004 2.046369957e-38
0.05302987993 -0.1226953194 0.2732756138 2.06466517e-38
0.03880148381 -0.1718652248 0.2865873873 2.06466517e-38
-0.177087158 -0.4270991385 -0.3387711644 2.06466517e-38
0.06111637503 -0.1648508012 0.3467972279 2.06466517e-38
-0.1063111871 -0.4517190456 -0.04831992835 2.082996116e-38
0.1308744848 -0.5170510411 0.3320174515 2.082996116e-38
-0.08638349175 -0.451826185 0.1129680723 2.082996116e-38
-0.01861839741 -0.3189593256 0.2773082256 2.082996116e-38
-0.0551832132 -0.4525545239 0.2487551272 2.101291328e-38
-0.08580648899 -0.4517919421 0.1254207194 2.101291328e-38
-0.1557843387 -0.4904346168 -0.3520862162 2.101291328e-38
-0.1439523995 -0.5034264922 -0.3526162207 2.101291328e-38
-0.05460621044 -0.4525202513 0.2612076998 2.119586541e-38
-0.1676163077 -0.477442801 -0.3515562415 2.119586541e-38
-0.09881015122 -0.4512735605 0.1135639027 2.119586541e-38
-0.2434773892 -0.324593693 -0.3130297959 2.119586541e-38
-0.1040031761 -0.4515819848 0.00149047561 2.137881613e-38
0.02696951665 -0.1588733792 0.2871173918 2.137881613e-38
-0.03106271476 -0.3308116198 0.2904224992 2.137881613e-38
-0.1034261733 -0.4515477121 0.01394309849 2.137881613e-38
-0.173637405 -0.4492642879 -0.1574142575 2.156176826e-38
-0.0959251374 -0.4511022568 0.1758269221 2.156176826e-38
-0.1170068085 -0.4510636032 -0.01036629267 2.156176826e-38
-0.2092240304 -0.4256623685 -0.2769326866 2.156176826e-38
-0.02278124541 -0.4060336947 0.2777691185 2.174471899e-38
-0.2163868695 -0.3751816452 -0.2143371999 2.174471899e-38
0.001459658146 -0.4319830835 0.2891617715 2.174471899e-38
-0.2019527107 -0.4483646452 -0.2309382111 2.174471899e-38
-0.2276241332 -0.3497506082 -0.2138730586 2.192767111e-38
-0.2233639807 -0.4128076136 -0.3262131214 2.192767111e-38
-0.09419412911 -0.4509994388 0.213184759 2.192767111e-38
-0.01685200632 -0.2940466702 0.2896291316 2.192767111e-38
-0.1866410375 -0.4487459362 -0.1692710221 2.211062324e-38
-0.1311644763 -0.4506137967 -0.04712827504 2.211062324e-38
-0.002046614885 -0.2448424995 0.2887699306 2.211062324e-38
-0.2282188237 -0.3621897995 -0.2138072252 2.211062324e-38
0.0008649677038 -0.4444223046 0.2892276049 2.229357396e-38
0.0487874262 -0.4839504063 0.2870418429 2.229357396e-38
-0.1907031834 -0.4514248967 -0.3380436599 2.229357396e-38
-0.2092417181 -0.438067317 -0.2644142509 2.229357396e-38
-0.2002217025 -0.4482618272 -0.1935804188 2.247652609e-38
-0.1282794625 -0.4504424632 0.01513474807 2.247652609e-38
-0.02927863598 -0.2934940457 0.2902249396 2.247652609e-38
-0.07888245583 -0.4513807297 0.2748519778 2.247652609e-38
-0.1071977615 -0.450481087 0.2013279945 2.265947681e-38
-0.2104134113 -0.450540781 -0.2768009901 2.265947681e-38
0.01152520627 -0.4698875546 0.2763108611 2.265947681e-38
-0.1230864301 -0.4501340687 0.1272082031 2.265947681e-38
-0.1441681087 -0.4500954151 -0.05898507684 2.284242894e-38
-0.1066207588 -0.4504468143 0.213780582 2.284242894e-38
-0.1424371004 -0.4499925971 -0.02162726596 2.284242894e-38
-0.133782059 -0.4494785964 0.1651618034 2.284242894e-38
-0.01156169176 -0.4438696504 0.2898234427 2.302537966e-38
-0.2025351375 -0.4384330809 -0.3375136852 2.302537966e-38
0.002133924514 -0.1453631967 0.275790602 2.302537966e-38
-0.02569279075 -0.2064539194 0.2773114443 2.302537966e-38
-0.04049821943 -0.2556580901 0.2781706452 2.320833179e-38
0.04565437138 -0.4882699549 0.3485091329 2.320833179e-38
0.03518910334 -0.4958712161 0.2752509117 2.320833179e-38
-0.2406454533 -0.3616371751 -0.2132113874 2.320833179e-38
-0.1843330264 -0.4486088455 -0.1194606274 2.339092378e-38
-0.03639725596 -0.430359453 0.2784966528 2.339092378e-38
0.01692165993 -0.1085639745 0.2874498367 2.339092378e-38
-0.08134628832 -0.3286353648 0.2803531885 2.339092378e-38
-0.1372440755 -0.4496842027 0.09044618905 2.348204041e-38
-0.1462086737 -0.448925972 0.1657576263 2.348204041e-38
-0.02511578798 -0.2064196467 0.2897640467 2.348204041e-38
-0.2642562985 -0.2984386981 -0.2497068048 2.348204041e-38
-0.03811945021 -0.2059012949 0.2779072821 2.348132155e-38
0.0357661061 -0.4958369434 0.2877035141 2.348132155e-38
-0.1690213829 -0.4489901662 -0.05779342353 2.348132155e-38
0.0227624774 -0.4953185916 0.2758467495 2.348132155e-38
0.00330561772 -0.1328897476 0.2881773412 2.348060128e-38
-0.001496113837 -0.4817741513 0.2769725323 2.348060128e-38
0.03459441289 -0.5083104372 0.275316745 2.348060128e-38
-0.2228577286 -0.4623930752 -0.2636867464 2.348060128e-38
-0.05114077032 -0.2177878618 0.2785689533 2.347952368e-38
-0.1167393997 -0.449757129 0.2641868591 2.347952368e-38
-0.05175315589 -0.2426319718 0.2911532223 2.347952368e-38
-0.08314804733 -0.3783578873 0.293069154 2.347952368e-38
-0.06594619155 -0.2669920325 0.2794281542 2.347880341e-38
-0.2375746965 -0.4495725632 -0.3254197836 2.347880341e-38
-0.04941860586 -0.4422460496 0.2791582942 2.347880341e-38
-0.03641494364 -0.4427644014 0.2910150886 2.347880341e-38
-0.2530721426 -0.3610845208 -0.2126155794 2.347808455e-38
-0.2199550271 -0.449816823 -0.2139421403 2.347808455e-38
-0.1894644201 -0.3252578676 0.04630828649 2.347808455e-38
-0.09497998655 -0.3653660417 0.2935991287 2.347808455e-38
-0.2772599459 -0.2979203463 -0.2615635693 2.347700555e-38
-0.1882927269 -0.3127844036 0.05869503319 2.347700555e-38
-0.2766829431 -0.2978860736 -0.2491109967 2.347700555e-38
-0.02212463319 -0.1318187565 0.2769163847 2.347700555e-38
-0.106794253 -0.3399693072 0.2816106677 2.347628668e-38
-0.190653801 -0.3501362503 0.04643996805 2.347628668e-38
-0.04996907711 -0.2053143978 0.2909556925 2.347628668e-38
-0.04935669154 -0.180470258 0.2783714235 2.347628668e-38
-0.161520347 -0.4485446811 0.1040904298 2.347520768e-38
-0.2536668181 -0.373523742 -0.212549746 2.347520768e-38
-0.06184523553 -0.4416934252 0.279754132 2.347520768e-38
-0.01334577054 -0.4811872542 0.2900209725 2.347520768e-38
-0.04937438667 -0.1928752065 0.2908898592 2.347448882e-38
-0.1797170043 -0.4483347237 -0.01983979344 2.347448882e-38
-0.2707094848 -0.3732452393 -0.3115747869 2.347448882e-38
-0.07718344033 -0.2415609956 0.2798922956 2.347448882e-38
-0.1894997954 -0.3500677049 0.07134515792 2.347340982e-38
-0.1727929711 -0.4479235411 0.1295914948 2.347340982e-38
-0.2204589397 -0.4468824267 -0.09276793897 2.347340982e-38
-0.1733699739 -0.4479577839 0.1171388477 2.347340982e-38
-0.2612386048 -0.4235889018 -0.3243598342 2.347269095e-38
-0.03456898779 -0.1436710358 0.2900306582 2.347269095e-38
-0.175677985 -0.4480948746 0.06732846797 2.347269095e-38
-0.03877602518 -0.4801162779 0.278760016 2.347269095e-38
-0.187156409 -0.3251208067 0.09611871094 2.347161195e-38
-0.168176949 -0.4476493895 0.229212299 2.347161195e-38
-0.1050278693 -0.3150566518 0.2939315736 2.347161195e-38
-0.1921436638 -0.4477820992 -0.01924397051 2.347161195e-38
-0.1415926516 -0.4486518502 0.2653784752 2.347089308e-38
-0.09079945087 -0.2658867538 0.2806198001 2.347089308e-38
-0.04759030789 -0.1555576026 0.2906923294 2.347089308e-38
-0.07601174712 -0.2290875316 0.2922790349 2.347089308e-38
-0.1989706457 -0.2997240424 0.08413025737 2.346981408e-38
-0.2618333101 -0.4360281229 -0.3242939711 2.346981408e-38
-0.1675999463 -0.4476151466 0.2416648865 2.346981408e-38
-0.1854077131 -0.31261307 0.1209580526 2.346981408e-38
-0.07541705668 -0.2166483104 0.2922132015 2.346909522e-38
-0.2187279314 -0.4467796385 -0.05541013181 2.346909522e-38
-0.07486657798 -0.4535799623 0.2804158032 2.346909522e-38
-0.2448083013 -0.4487115443 -0.2127504945 2.346909522e-38
-0.1310528517 -0.3264248371 0.2827364802 2.346801622e-38
-0.07361528277 -0.1669258177 0.279497236 2.346801622e-38
-0.2624456882 -0.4608722627 -0.311709702 2.346801622e-38
-0.2606238723 -0.4453958869 -0.153243497 2.346801622e-38
-0.2028392851 -0.4471266866 0.01870969124 2.346693862e-38
-0.263022691 -0.4609065354 -0.3241623044 2.346693862e-38
-0.05999927223 -0.1426000446 0.2787697017 2.346693862e-38
-0.04640091956 -0.13067922 0.2905606329 2.346693862e-38
-0.245312199 -0.4457771778 -0.09157629311 2.346621835e-38
-0.05062568188 -0.479529351 0.2918084264 2.346621835e-38
-0.1895528585 -0.3872825205 0.1089005247 2.346621835e-38
-0.2190575451 -0.4112612605 0.0355082415 2.346621835e-38
-0.1215996593 -0.3891734779 0.2824698687 2.346514075e-38
-0.2742599249 -0.4354754984 -0.323698163 2.346514075e-38
-0.3015362322 -0.2967808247 -0.2479193211 2.346514075e-38
-0.193124488 -0.3290821612 0.1473454237 2.346514075e-38
-0.1664459407 -0.4475466013 0.2665701509 2.346406175e-38
-0.2152659148 -0.4465740323 0.01930551417 2.346406175e-38
-0.1960856318 -0.2995527089 0.1463932693 2.346406175e-38
-0.1298811585 -0.3139514029 0.2951232493 2.346406175e-38
-0.1434794813 -0.3258722126 0.2833323181 2.346334289e-38
-0.1919139475 -0.4246343672 0.09664545953 2.346334289e-38
-0.1901475638 -0.3997217417 0.1089663729 2.346334289e-38
-0.1936803311 -0.4495470524 0.08432455361 2.346334289e-38
-0.2678775191 -0.4102886915 -0.2117563784 2.346226389e-38
-0.1948520243 -0.4620205164 0.0719377473 2.346226389e-38
-0.242126748 -0.3728384078 0.0365023613 2.346226389e-38
-0.2060338706 -0.446025759 0.2185471803 2.346226389e-38
-0.2276925594 -0.4460214078 0.01990133896 2.346118629e-38
-0.1942750216 -0.4619862735 0.08439039439 2.346118629e-38
-0.1429024786 -0.32583794 0.2957848907 2.346118629e-38
-0.1440918744 -0.3507163525 0.2959165871 2.346118629e-38
-0.145858258 -0.3756290376 0.2835956812 2.346010729e-38
-0.14169541 -0.2885546386 0.2831347883 2.346010729e-38
-0.2634118795 -0.2970979512 0.03729894757 2.346010729e-38
-0.1901652515 -0.4121266305 0.1214848086 2.346010729e-38
-0.2049741149 -0.3284952641 0.1603938341 2.345938842e-38
-0.270165503 -0.4446719289 -0.0903846398 2.345938842e-38
-0.240119189 -0.4454687834 0.0204971619 2.345938842e-38
-0.313385874 -0.2961938977 -0.2348708808 2.345938842e-38
-0.3128088713 -0.2961596251 -0.2224183083 2.345830942e-38
-0.09971983731 -0.4524747133 0.2816074491 2.345830942e-38
-0.1907599419 -0.4245658219 0.121550642 2.345830942e-38
-0.113291651 -0.2274296582 0.2940665185 2.345830942e-38
-0.208529979 -0.3114050329 0.1595075428 2.345723183e-38
-0.1913546324 -0.437005043 0.1216164902 2.345723183e-38
-0.2803041637 -0.4097360671 -0.2111605406 2.345723183e-38
-0.2831691206 -0.4441535473 -0.1022414118 2.345723183e-38
-0.1901829392 -0.424531579 0.1340032518 2.345615283e-38
-0.1878395528 -0.3995846808 0.1587767899 2.345615283e-38
-0.2531228364 -0.4449504316 0.008640364744 2.345615283e-38
-0.2967698276 -0.4094232917 -0.2977329791 2.345615283e-38
-0.07607366145 -0.4908632934 0.2930659354 2.345507523e-38
-0.1582848877 -0.3750763834 0.284191519 2.345507523e-38
-0.2702563107 -0.4600455165 -0.2114930153 2.345507523e-38
-0.2611038685 -0.2969608903 0.08710937947 2.345507523e-38
-0.2332859337 -0.4604311585 0.04882003367 2.345399623e-38
-0.3074300885 -0.3839579821 -0.2848162353 2.345399623e-38
-0.218551293 -0.4608467221 0.09803464264 2.345399623e-38
-0.2955957651 -0.4436009228 -0.1016455889 2.345399623e-38
-0.3169186413 -0.346019268 -0.2595127225 2.345291723e-38
-0.2209566087 -0.3108523786 0.1601033509 2.345291723e-38
-0.1771415919 -0.4468911886 0.304523766 2.345291723e-38
-0.07666835189 -0.5033025146 0.2931317687 2.345291723e-38
-0.2457125932 -0.4598785341 0.0494158566 2.345219836e-38
-0.3235221803 -0.3079091609 -0.1719461977 2.345219836e-38
-0.2991309166 -0.4467751384 -0.3099880815 2.345219836e-38
-0.318685025 -0.3709319234 -0.2718336284 2.345219836e-38
-0.3074454069 -0.4430140257 -0.08859717101 2.345111936e-38
-0.1594742686 -0.399954766 0.2843231857 2.345111936e-38
-0.3062914014 -0.4429454803 -0.06369195879 2.345111936e-38
-0.3189238608 -0.3200399578 -0.05980693176 2.345111936e-38
-0.1020985991 -0.5022315383 0.2818708122 2.345004176e-38
-0.2564082444 -0.4592231214 0.08736951649 2.345004176e-38
-0.324152261 -0.3451582193 -0.1468434483 2.345004176e-38
-0.3299399912 -0.3579058051 -0.2588510513 2.345004176e-38
-0.3212672472 -0.3449868858 -0.0845804289 2.344896276e-38
-0.3028293848 -0.4427399039 0.01102366019 2.344896276e-38
-0.1139305681 -0.4892396629 0.2824007869 2.344896276e-38
-0.228002131 -0.4447491765 0.282001853 2.344896276e-38
-0.2540682852 -0.3014405966 0.1501928568 2.344788516e-38
-0.2452151924 -0.2973079085 0.1612291634 2.344788516e-38
-0.3189946115 -0.369659692 -0.009733125567 2.344788516e-38
-0.2481886595 -0.359503895 0.1615583897 2.344788516e-38
-0.3164100349 -0.442255795 -0.01328573003 2.344680616e-38
-0.147660017 -0.4253515303 0.2963116467 2.344680616e-38
-0.3278530836 -0.2944718599 -0.009532362223 2.344680616e-38
-0.3495117724 -0.2944675088 -0.2081781924 2.344680616e-38
-0.3104212284 -0.4585589468 -0.2719685435 2.344572857e-38
-0.1488317251 -0.4378250241 0.2839249074 2.344572857e-38
-0.3489347696 -0.2944332361 -0.1957256198 2.344572857e-38
-0.2014178485 -0.4457516372 0.3181680441 2.344572857e-38
-0.3253416419 -0.3700366318 -0.1467117667 2.344464957e-38
-0.3259186447 -0.3700708747 -0.1591643989 2.344464957e-38
-0.3086902201 -0.4584561288 -0.2346107364 2.344464957e-38
-0.312541455 -0.2948531508 0.05213483423 2.344464957e-38
-0.226903528 -0.4352443516 0.1607618034 2.344357197e-38
-0.3311446905 -0.4418402314 -0.06250030547 2.344357197e-38
-0.3472214341 -0.3067353964 -0.1458493322 2.344357197e-38
-0.271222502 -0.2962712049 0.1375155747 2.344357197e-38
-0.2948067784 -0.4328238666 0.03921487182 2.344249297e-38
-0.213844493 -0.4451990128 0.3187638521 2.344249297e-38
-0.3420284092 -0.306427002 -0.03377591074 2.344249297e-38
-0.3213557005 -0.4070115685 -0.02198818885 2.344249297e-38
-0.3184353113 -0.382030338 0.01523790136 2.344141397e-38
-0.2393301874 -0.4346917272 0.1613576114 2.344141397e-38
-0.322847873 -0.4580063224 -0.2713727355 2.344141397e-38
-0.3190299869 -0.3944695592 0.01530374587 2.344141397e-38
-0.3225273788 -0.4194850028 -0.03437496722 2.344033637e-38
-0.3216938674 -0.457937777 -0.2464675605 2.344033637e-38
-0.2795339525 -0.3251794875 0.1639687866 2.344033637e-38
-0.3207963705 -0.4193821847 0.002982839942 2.344033637e-38
-0.3236990869 -0.4319584668 -0.04676171392 2.343925737e-38
-0.2517568171 -0.4341391027 0.1619534492 2.343925737e-38
-0.2966527939 -0.2952001691 0.1262546182 2.343925737e-38
-0.3242760897 -0.4319927394 -0.05921433866 2.343925737e-38
-0.2629940808 -0.4087080657 0.1624175906 2.343817977e-38
-0.1612760425 -0.4496772885 0.2970391512 2.343817977e-38
-0.3096564412 -0.2946818173 0.1143978611 2.343817977e-38
-0.3737880588 -0.2933279872 -0.1945339739 2.343817977e-38
-0.2931111455 -0.4575309455 0.1016095802 2.343710077e-38
-0.2647050321 -0.4430570006 0.2962419391 2.343710077e-38
-0.1849399209 -0.4236936271 0.2980991304 2.343710077e-38
-0.2830898166 -0.3080892265 0.1630824804 2.343710077e-38
-0.3072687984 -0.4570811093 0.06484756619 2.343566444e-38
-0.3703260422 -0.293122381 -0.1198183447 2.343566444e-38
-0.1630424261 -0.4745899737 0.2847182453 2.343566444e-38
-0.3674587011 -0.3053559661 -0.04503685236 2.343566444e-38
-0.1748743802 -0.4615981281 0.2852482498 2.343458544e-38
-0.3697667122 -0.3054930568 -0.09484728426 2.343458544e-38
-0.1518051773 -0.5000210404 0.2842541039 2.343458544e-38
-0.1867063195 -0.4486063123 0.2857782245 2.343458544e-38
-0.2913801372 -0.4574281573 0.138967365 2.343350644e-38
-0.333853066 -0.4560786784 0.02868143842 2.343350644e-38
-0.1873010099 -0.4610455036 0.2858440578 2.343350644e-38
-0.345970124 -0.4567982554 -0.2328232825 2.343350644e-38
-0.3079254329 -0.2945790291 0.1517556906 2.343242884e-38
-0.3628250062 -0.2926769257 0.04206553847 2.343242884e-38
-0.2902261317 -0.457359612 0.1638725996 2.343242884e-38
-0.290135324 -0.4419860244 0.2849809527 2.343242884e-38
-0.3339326978 -0.2935422957 0.1280421019 2.343134984e-38
-0.3514727354 -0.4558344185 -0.08279618621 2.343134984e-38
-0.3604196906 -0.4426712394 -0.02000318654 2.343134984e-38
-0.3946199715 -0.3043878078 -0.0936556384 2.343134984e-38
-0.3621506989 -0.4427740276 -0.05736102164 2.343027224e-38
-0.2003223598 -0.4729320705 0.286505729 2.343027224e-38
-0.3575169742 -0.430095017 0.02974140272 2.343027224e-38
-0.3150794208 -0.4562543631 0.1650642455 2.343027224e-38
-0.3569399714 -0.4300607443 0.04219399393 2.342919324e-38
-0.4087422788 -0.2791280746 -0.1554545164 2.342919324e-38
-0.3909545541 -0.3798840046 -0.2059298158 2.342919324e-38
-0.2115772963 -0.4599059522 0.299488306 2.342919324e-38
-0.4058749676 -0.2913616896 -0.08067303896 2.342811565e-38
-0.3871012628 -0.2915373743 0.05570977926 2.342811565e-38
-0.3729436398 -0.2919872105 0.09247179329 2.342811565e-38
-0.3687719107 -0.4170688987 0.04272397608 2.342811565e-38
-0.3832500577 -0.4551403522 -0.2310357988 2.342703665e-38
-0.344628334 -0.292886883 0.1659957767 2.342703665e-38
-0.3826730549 -0.4551060796 -0.2185831964 2.342703665e-38
-0.3863915801 -0.4168246388 -0.06875365973 2.342703665e-38
-0.4134644568 -0.3538317978 -0.1799646914 2.342559891e-38
-0.2127666771 -0.4847843647 0.2996199727 2.342559891e-38
-0.4241246581 -0.328366518 -0.1670479178 2.342559891e-38
-0.4131085575 -0.2905006707 0.0319962427 2.342559891e-38
-0.3670409024 -0.4169660807 0.08008175343 2.342452132e-38
-0.3892942965 -0.4294009209 -0.1184982434 2.342452132e-38
-0.3953385055 -0.4036614895 -0.005960652605 2.342452132e-38
-0.3916023076 -0.4295379817 -0.1683086455 2.342452132e-38
-0.3381485939 -0.4178314805 0.1660583615 2.342344232e-38
-0.4146361351 -0.3663052917 -0.1923514307 2.342344232e-38
-0.4125315547 -0.290466398 0.04444883764 2.342344232e-38
-0.3387432992 -0.4302707016 0.1661242247 2.342344232e-38
-0.3970695138 -0.4037642777 -0.0433184579 2.342236472e-38
-0.3800268769 -0.4040428102 0.05570654571 2.342236472e-38
-0.4301512241 -0.290222168 -0.06702879071 2.342236472e-38
-0.425535202 -0.2899480462 0.03259206936 2.342236472e-38
-0.403434217 -0.4165461361 -0.1677786708 2.342128572e-38
-0.415825516 -0.3911836743 -0.1922197342 2.342128572e-38
-0.3505752385 -0.417278856 0.1666541994 2.342128572e-38
-0.4195794165 -0.3777121007 -0.01735328324 2.342128572e-38
-0.2376199663 -0.483679086 0.3008116484 2.342020812e-38
-0.3966429234 -0.2908134162 0.1185686216 2.342020812e-38
