# .PCD v0.7 - Point Cloud Data file format
VERSION 0.7
FIELDS x y z rgb
SIZE 4 4 4 4
TYPE F F F F
COUNT 1 1 1 1
WIDTH 830
HEIGHT 1
VIEWPOINT 0 0 0 1 0 0 0
POINTS 830
DATA ascii
-0.1909508556 -0.1883769035 -0.0767300427 2.898180898e-39
-0.04279059917 -0.05862274393 -0.2464880645 2.898180898e-39
-0.1481506675 -0.1785936654 -0.2410630286 2.898180898e-39
-0.03922244161 0.01601245999 -0.2468831241 2.715227371e-39
-0.1956022531 -0.2134608626 -0.1513139755 2.715227371e-39
-0.1221256852 -0.1672254801 -0.2298679352 2.715227371e-39
-0.1938712448 -0.2133580744 -0.1139561608 2.715227371e-39
-0.2086593509 -0.08063650131 -0.1771433651 2.532632576e-39
-0.1973332614 -0.2135636806 -0.1886718124 2.532632576e-39
-0.1866199523 -0.2018141747 -0.2391438782 2.532632576e-39
-0.1927172393 -0.2132895291 -0.08905094862 2.532632576e-39
-0.1807526201 -0.3516029119 -0.2264969945 2.349677647e-39
-0.05819071829 -0.1202661023 -0.2455630153 2.349677647e-39
-0.04457467794 -0.09594032913 -0.2462905347 2.349677647e-39
-0.173616305 -0.2023325562 -0.2272871137 2.349677647e-39
0.08732203394 -0.4608695209 -0.1699265689 2.167082852e-39
-0.1968977749 -0.3127688766 -0.07607161254 2.167082852e-39
-0.1984872669 -0.2136321962 -0.2135769874 2.167082852e-39
-0.1974747777 -0.3128031492 -0.08852420002 2.167082852e-39
-0.1924024969 -0.3626439869 0.02160062641 1.984127923e-39
-0.1962327212 -0.08118914068 -0.1777391881 1.984127923e-39
-0.1979279518 -0.2260029018 -0.1886059642 1.984127923e-39
-0.1073821634 -0.3797970712 -0.2299402505 1.984127923e-39
-0.1079591662 -0.3798313439 -0.242392838 1.801533128e-39
-0.2069460303 -0.09293861687 -0.1272671223 1.801533128e-39
-0.18663764 -0.2142190933 -0.2266254425 1.801533128e-39
-0.2057566494 -0.06806025654 -0.1273988038 1.801533128e-39
-0.1316407621 -0.3662526011 -0.228814438 1.618578199e-39
-0.1591615975 -0.3645417392 -0.06735511124 1.618578199e-39
-0.2051796466 -0.06802599132 -0.1149461865 1.618578199e-39
-0.1774498224 -0.02632465586 0.04694004357 1.618578199e-39
0.08549712598 -0.5130311251 -0.2388149947 1.435982003e-39
-0.2057920247 -0.09287008643 -0.1023619026 1.435982003e-39
-0.05827029049 -0.3944467902 -0.232257694 1.435982003e-39
-0.1938893199 -0.05624220148 -0.15296565 1.435982003e-39
-0.203262493 -0.325550735 -0.2005318105 1.253028475e-39
-0.08542276919 -0.1689176261 -0.2441079915 1.253028475e-39
-0.2267796993 -0.3484098315 0.07313262671 1.253028475e-39
-0.01033014059 -0.4215699732 -0.2469619066 1.253028475e-39
0.08492012322 -0.5130653977 -0.2512675822 1.070432279e-39
-0.205215022 -0.09283582866 -0.08990927041 1.070432279e-39
-0.1844007671 -0.09418095648 -0.1782691628 1.070432279e-39
-0.1838060766 -0.08174176514 -0.178335011 1.070432279e-39
-0.07182442397 -0.1569967866 -0.2323170751 8.874787512e-40
-0.1192141026 -0.3668052256 -0.2294102609 8.874787512e-40
-0.03157104552 -0.09645869583 -0.2344337702 8.874787512e-40
-0.1872323304 -0.2266583145 -0.2265595943 8.874787512e-40
-0.1239097565 -0.2045430839 -0.2296704054 7.045238224e-40
-0.1493577361 -0.2158769965 -0.2284129113 7.045238224e-40
-0.1919898689 -0.326171875 -0.2260328531 7.045238224e-40
-0.01317980513 0.0397855714 -0.2482064515 7.045238224e-40
0.1185223162 -0.4615978301 -0.03413956985 5.219290273e-40
-0.1748056859 -0.2272109687 -0.2271554172 5.219290273e-40
0.03759232163 -0.4610980749 -0.2491476685 5.219290273e-40
-0.1832467616 -0.09411242604 -0.1533639431 5.219290273e-40
-0.1901298612 -0.3873167932 0.09644792974 3.389740985e-40
-0.1921583116 -0.05613940209 -0.1156078428 3.389740985e-40
-0.1438676119 -0.3773279786 0.006830520928 3.389740985e-40
-0.09493784606 -0.367944777 -0.2430545092 3.389740985e-40
-0.2023123205 -0.08025957644 -0.04016472399 1.56020571e-40
-0.02031611651 -0.1094847992 -0.2474163324 1.56020571e-40
-0.2003421038 -0.3005695045 -0.1633056849 1.56020571e-40
-0.1595475078 -0.09528620541 -0.1794608086 1.56020571e-40
-0.002537224442 0.001915324479 -0.2486047447 6.490113838e-41
-0.1980164051 -0.2880275249 -0.126013726 6.490113838e-41
-0.1552869678 -0.3278640211 -0.2402729094 6.490113838e-41
-0.1120777875 -0.2175348997 -0.2302003801 6.490113838e-41
-0.005528375506 -0.07268558443 -0.2357570976 2.496469266e-40
-0.0825111866 -0.3684974015 -0.2436503321 2.496469266e-40
-0.158566907 -0.3521025479 -0.06742095947 2.496469266e-40
-0.2267620116 -0.3360049129 0.060614191 2.496469266e-40
-0.001942530274 0.01435456797 -0.2486705929 4.340353837e-40
-0.01973911375 -0.109450534 -0.2349637449 4.340353837e-40
-0.03454450518 -0.1586546898 -0.2341045439 4.340353837e-40
-0.1727276593 0.04837904871 0.0714501664 4.340353837e-40
-0.1432906091 -0.3772937357 0.01928317547 6.184224396e-40
-0.1665419042 -0.3148379624 -0.2272903472 6.184224396e-40
0.1309489459 -0.4621504545 -0.0347353965 6.184224396e-40
-0.1912308037 -0.3501705229 0.03398737684 6.184224396e-40
-0.188998729 -0.2515709698 -0.2388805002 8.028094954e-40
-0.150547117 -0.240755409 -0.2282812297 8.028094954e-40
-0.1997474134 -0.2881303132 -0.1633715332 8.028094954e-40
-0.07478019595 -0.2067878544 -0.2445062995 8.028094954e-40
-0.1541152745 -0.3153905869 -0.2278861701 9.871979525e-40
-0.1386974603 -0.2413422763 -0.2413296402 9.871979525e-40
-0.1774851978 -0.051134523 0.071976915 9.871979525e-40
0.01510014571 -0.4226409793 -0.23570095 9.871979525e-40
0.06242794916 -0.4746082723 -0.2378208786 1.171585008e-39
-0.08722452819 -0.2186401486 -0.2313920259 1.171585008e-39
-0.1447597593 -0.05848698691 -0.1678015739 1.171585008e-39
-0.2206381857 -0.08756362647 -0.06522872299 1.171585008e-39
0.009294711053 -0.01107649039 -0.2491347343 1.355972064e-39
-0.1551225781 -0.3643018901 0.01981315389 1.355972064e-39
-0.100822866 -0.2305609882 -0.2431829572 1.355972064e-39
-0.2284576446 -0.3112978339 -0.001780519262 1.355972064e-39
-0.2026324272 -0.2883016467 -0.22563456 1.540360521e-39
-0.1810944974 -0.3384553194 -0.02893731371 1.540360521e-39
-0.04523128271 -0.3701553047 -0.2454378009 1.540360521e-39
-0.1517365128 -0.2656337917 -0.2281495333 1.540360521e-39
-0.1647578329 -0.2775203288 -0.227487877 1.724747577e-39
-0.1900798827 -0.3867872655 0.1484703571 1.724747577e-39
-0.2242063433 -0.1621987969 -0.0648336634 1.724747577e-39
-0.225048691 -0.3483070433 0.1104904637 1.724747577e-39
-0.2218452692 -0.1248469502 -0.05257856846 1.909134633e-39
0.03935871273 -0.4361854196 -0.2368267626 1.909134633e-39
0.05061370134 -0.4492115378 -0.2498093396 1.909134633e-39
-0.189555943 -0.4239677787 0.1984782666 1.909134633e-39
-0.1935034394 -0.3254977465 -0.04085995629 2.09352309e-39
0.01167348027 0.03868030757 -0.2493981123 2.09352309e-39
-0.1292442977 -0.3040908873 -0.2415962517 2.09352309e-39
-0.008563753217 -0.3966573179 -0.2346410006 2.09352309e-39
-0.2194664925 -0.0750901401 -0.05284194648 2.277910146e-39
-0.1579722166 -0.3396633565 -0.06748680025 2.277910146e-39
-0.209400937 -0.1129946113 -0.06569285691 2.277910146e-39
0.02051429264 -0.0489124395 -0.2370804399 2.277910146e-39
-0.2088062465 -0.1005554423 -0.06575870514 2.462297202e-39
-0.04405958951 -0.3576818407 -0.2330510467 2.462297202e-39
-0.191213116 -0.3377656341 0.02146894112 2.462297202e-39
0.004519481212 -0.1229949817 -0.2360895425 2.462297202e-39
-0.1782271713 -0.3506888747 0.04584414512 2.646685659e-39
-0.2236293405 -0.1621645391 -0.05238103867 2.646685659e-39
-0.141076237 -0.2910990715 -0.2410662621 2.646685659e-39
-0.06296595186 -0.2321846187 -0.2325178385 2.646685659e-39
-0.2064274848 -0.05079864338 -0.06602207571 2.830713982e-39
0.01511783898 -0.4102360308 -0.2482193857 2.830713982e-39
-0.06830049306 -0.3317324519 -0.2444436848 2.830713982e-39
-0.1551048905 -0.3518969417 0.007294658571 2.830713982e-39
-0.2160310149 -0.3118504882 -0.002376342192 3.015101038e-39
-0.2278629392 -0.2988586426 -0.001846361905 3.015101038e-39
-0.0677234903 -0.3316981792 -0.2319910973 3.015101038e-39
-0.2259904146 -0.1995163709 -0.06463613361 3.015101038e-39
-0.08958561718 -0.2559920251 -0.2436470985 3.199488094e-39
-0.1889966428 -0.4363384545 0.2234493494 3.199488094e-39
-0.08013243228 -0.3187406361 -0.2439137101 3.199488094e-39
-0.1776501685 -0.3506546021 0.05829674006 3.199488094e-39
-0.05529683083 -0.3322508037 -0.2325869203 3.383517819e-39
-0.1418747455 -0.05831565708 -0.105538547 3.383517819e-39
-0.228386879 -0.2616780996 -0.05185429379 3.383517819e-39
-0.1522729397 -0.3889403939 0.1071130559 3.383517819e-39
-0.2053176761 -0.3001009524 -0.05284840986 3.567904875e-39
-0.2131813765 -0.3364890218 0.08492361009 3.567904875e-39
-0.1810768098 -0.3260503709 -0.04145577922 3.567904875e-39
-0.02566834539 -0.2214375436 -0.246823743 3.567904875e-39
-0.2177001089 -0.05017747357 -0.04052103683 3.75229193e-39
-0.2171054184 -0.03773829341 -0.04058688134 3.75229193e-39
-0.2160133123 -0.2994455397 -0.01489477791 3.75229193e-39
0.05120839551 -0.4367723167 -0.249875173 3.75229193e-39
-0.216510728 -0.02529910952 -0.04065272585 3.936320254e-39
-0.196379602 -0.1011080742 -0.06635452807 3.936320254e-39
-0.2277921885 -0.2492388934 -0.0519201383 3.936320254e-39
-0.2271798104 -0.2243947834 -0.0645044446 3.936320254e-39
-0.2212859541 -0.1372175962 -0.02760751173 4.120708711e-39
-0.0517109856 -0.2452107072 -0.2455004156 4.120708711e-39
0.1393366158 -0.4629429877 -0.1224994361 4.120708711e-39
-0.007969062775 -0.3842181265 -0.234706834 4.120708711e-39
-0.1562412083 -0.3395605683 -0.03012896143 4.304737034e-39
0.001546017826 -0.1851909757 -0.2357603312 4.304737034e-39
-0.05470214039 -0.3198116124 -0.2326527536 4.304737034e-39
-0.01978330314 -0.3588213623 -0.246695295 4.304737034e-39
-0.03102058172 -0.3333903253 -0.2462311536 4.48912409e-39
0.06361733377 -0.4497298896 -0.2379525602 4.48912409e-39
-0.1556642056 -0.3395262957 -0.01767636836 4.48912409e-39
0.1534942538 -0.4633927941 -0.08573744446 4.48912409e-39
-0.2254311144 -0.2118870616 -0.03966507316 4.673152414e-39
-0.2106257081 -0.1626828909 -0.04052427039 4.673152414e-39
-0.06653410196 -0.3068197668 -0.2321227789 4.673152414e-39
-0.1419101357 -0.08312551677 -0.0805016458 4.673152414e-39
-0.1884196401 -0.4363041818 0.2359019518 4.857539469e-39
-0.1532004774 -0.09490928054 -0.04248217493 4.857539469e-39
-0.2171231061 -0.05014320835 -0.02806841582 4.857539469e-39
-0.1652235091 -0.3512072563 0.05770091712 4.857539469e-39
-0.226691246 -0.2863851786 0.01054038852 5.041567793e-39
-0.2218983322 -0.162061736 -0.01502323244 5.041567793e-39
-0.01266468316 -0.2219559252 -0.2349669784 5.041567793e-39
-0.1889435649 -0.3991236389 0.1858939826 5.041567793e-39
-0.1958025992 -0.1010738015 -0.05390190333 5.225597518e-39
0.01339567453 -0.185777843 -0.2488087416 5.225597518e-39
0.1688058972 -0.463774085 -0.02407024428 5.225597518e-39
-0.2088593245 -0.1377702355 -0.02820333466 5.225597518e-39
-0.1946132183 -0.07619539648 -0.05403359234 5.409984573e-39
0.05180308595 -0.4243331254 -0.2499410212 5.409984573e-39
-0.1526234746 -0.09487500787 -0.03002955019 5.409984573e-39
-0.02984888852 -0.3209168613 -0.2338443995 5.409984573e-39
-0.01859391481 -0.3339429498 -0.2468269765 5.594012897e-39
-0.1680731475 -0.3265687227 -0.02959898114 5.594012897e-39
-0.1514340937 -0.06999664009 -0.03016123921 5.594012897e-39
-0.1857547462 -0.1513832361 -0.05423435569 5.594012897e-39
-0.2255726308 -0.3111265004 0.06048250198 5.77804122e-39
-0.1733931154 -0.01367987227 0.1215898097 5.77804122e-39
-0.2017318457 -0.2130608559 -0.06576193869 5.77804122e-39
0.04479054734 -0.05005196482 -0.2507246733 5.77804122e-39
-0.006779678166 -0.3593397141 -0.2348385304 5.962428276e-39
-0.2118327767 -0.199966222 -0.02787411772 5.962428276e-39
-0.2255549282 -0.2987215817 0.04796406627 5.962428276e-39
-0.2195372581 -0.1247098744 -0.002768170089 5.962428276e-39
-0.201154843 -0.2130265981 -0.05330931395 6.1464566e-39
0.04122239351 -0.1246871352 -0.2503296137 6.1464566e-39
-0.1608837694 -0.1400835365 -0.06794446707 6.1464566e-39
-0.224889487 -0.2366626412 -0.002175578848 6.1464566e-39
-0.224995628 -0.3110922277 0.07293509692 6.330484923e-39
-0.1798078269 -0.02699126303 -0.05489278957 6.330484923e-39
-0.1685528904 -0.04001734406 -0.06787539274 6.330484923e-39
-0.1384127289 -0.05811005831 -0.03082290292 6.330484923e-39
-0.1833936572 -0.1140313447 -0.04197929054 6.514514648e-39
-0.2147797197 -0.02519631013 -0.003294916824 6.514514648e-39
0.04716931656 -0.0002951938659 -0.2509880662 6.514514648e-39
-0.1728161126 -0.01364560518 0.134042412 6.514514648e-39
0.06422971189 -0.4248857498 -0.250536859 6.698542971e-39
-0.1403702199 -0.3523125052 0.05650926381 6.698542971e-39
-0.2243124843 -0.2366283685 0.01027701423 6.698542971e-39
-0.1472677439 -0.1157577634 -0.06867197901 6.698542971e-39
-0.1415065378 -0.3399761319 0.01908564568 6.882571295e-39
-0.1691652685 -0.06486146897 -0.05529108271 6.882571295e-39
0.0477463156 -0.0002609267831 -0.2385354489 6.882571295e-39
-0.1679758877 -0.03998307884 -0.055422768 6.882571295e-39
-0.2231231034 -0.2117500007 0.01014532521 7.066599618e-39
-0.1561881304 -0.3023457527 -0.06768433005 7.066599618e-39
-0.01563814655 -0.2841518819 -0.2346377671 7.066599618e-39
0.1771935076 -0.4645665884 -0.1118343025 7.066599618e-39
-0.2147974074 -0.03760122508 0.009223520756 7.250627941e-39
-0.1567209214 -0.05300916359 -0.06840537488 7.250627941e-39
-0.1828166544 -0.1139970869 -0.02952666953 7.250627941e-39
-0.2106787711 -0.1998976767 -0.002968933433 7.250627941e-39
0.02873384953 -0.3859102726 -0.2489469051 7.434656265e-39
-0.1632625312 -0.1898403466 -0.06768109649 7.434656265e-39
-0.2177885473 -0.1122021228 0.02207123116 7.434656265e-39
0.0174966082 -0.3604792655 -0.2484827638 7.434656265e-39
-0.216004476 -0.07488454133 0.02187370136 7.618684588e-39
-0.2007193565 -0.3122317791 0.05929085612 7.618684588e-39
-0.152202189 -0.3393206894 0.05703924596 7.618684588e-39
0.03823123872 -0.1992880702 -0.2374819666 7.618684588e-39
0.05541540682 -0.1003271043 -0.2386045307 7.802712912e-39
-0.1348587871 -0.1287153512 -0.05674933642 7.802712912e-39
-0.1454836726 -0.07844018936 -0.0688695088 7.802712912e-39
-0.1894290298 -0.3004480004 0.02127141133 7.802712912e-39
0.05898356065 -0.02569192648 -0.2389995903 7.986382503e-39
-0.2023707777 -0.03815385699 0.008627697825 7.986382503e-39
-0.174188152 -0.3504490256 0.1330123544 7.986382503e-39
0.0654014051 -0.4124122858 -0.23815009 7.986382503e-39
-0.1947016716 -0.1382200569 0.008558619767 8.170410826e-39
-0.2166168541 -0.0997286737 0.03445798159 8.170410826e-39
-0.1958910525 -0.1630984545 0.008690305054 8.170410826e-39
0.1890431195 -0.4651534855 -0.1248827279 8.170410826e-39
0.03646485135 -0.2242006958 -0.2498028725 8.35443915e-39
0.2043548226 -0.4655347764 -0.06321552396 8.35443915e-39
-0.2238239199 -0.2986187935 0.08532190323 8.35443915e-39
-0.1780768186 -0.02688846365 -0.01753498241 8.35443915e-39
-0.143717289 -0.05352752283 -0.05654857308 8.538467473e-39
-0.1425279081 -0.02864915133 -0.05668026209 8.538467473e-39
-0.133687079 -0.1162418723 -0.04436258972 8.538467473e-39
0.03704185411 -0.2241664529 -0.2373502702 8.538467473e-39
-0.2189956307 -0.1494854838 0.03472135589 8.722137064e-39
0.06138002127 0.03646979108 -0.251781404 8.722137064e-39
-0.1872125566 -0.3990208507 0.2232518196 8.722137064e-39
0.07023855299 -0.03871801123 -0.2519821823 8.722137064e-39
0.0530366376 -0.1500838995 -0.2383411527 8.906165387e-39
-0.1544217467 -0.2774330974 -0.05536339432 8.906165387e-39
-0.1947193593 -0.1506250054 0.02107711509 8.906165387e-39
-0.1372375488 -0.1784721315 -0.05648596585 8.906165387e-39
-0.1834644228 -0.1636510938 0.008094482124 9.089834978e-39
0.009809829295 -0.2728179991 -0.2358952463 9.089834978e-39
0.008638136089 -0.2852914333 -0.2482820004 9.089834978e-39
-0.1733811796 -0.1891506463 -0.01727484167 9.089834978e-39
-0.2041902244 -0.1002813056 0.03386215866 9.273863302e-39
0.07081555575 -0.03868374228 -0.2395295799 9.273863302e-39
-0.1769316494 -0.2513809204 -0.0293982178 9.273863302e-39
-0.2071636915 -0.1624772996 0.03419137374 9.273863302e-39
0.04175516963 -0.3740237057 -0.2496085614 9.457532893e-39
-0.1538093686 -0.2525889575 -0.06794770062 9.457532893e-39
-0.2130663991 -0.03749842569 0.04658135772 9.457532893e-39
0.04233217239 -0.3739894331 -0.2371559739 9.457532893e-39
-0.1378322393 -0.1909113377 -0.05642012134 9.641561216e-39
-0.1740408838 -0.06333386898 0.1592110246 9.641561216e-39
0.2008928061 -0.4657403529 -0.1379311681 9.641561216e-39
0.0672473982 -0.1133189499 -0.2391345203 9.641561216e-39
0.05358716473 -0.3870155513 -0.250138551 9.825230807e-39
-0.1828874201 -0.1636168212 0.02054713294 9.825230807e-39
-0.1769228131 -0.02681992948 0.007370203733 9.825230807e-39
-0.1752302647 -0.08821224421 0.1593427062 9.825230807e-39
-0.1865471005 -0.336961925 0.1731121689 1.000925913e-38
-0.1650731862 -0.02740682662 -0.00567821227 1.000925913e-38
-0.1609545201 -0.1897032857 -0.0178706646 1.000925913e-38
-0.1865648031 -0.3493668437 0.1856306046 1.000925913e-38
0.06488632411 -0.1506707966 -0.2513895929 1.019292872e-38
-0.1834821105 -0.1760559976 0.02061297745 1.019292872e-38
-0.1574217528 -0.1398779452 0.006771147251 1.019292872e-38
0.2138964385 -0.4662587643 -0.1260743737 1.019292872e-38
-0.1407880187 -0.2407023758 -0.06860937178 1.037659831e-38
-0.1899795085 -0.0635163486 0.03306880221 1.037659831e-38
-0.1710851043 -0.0135428058 0.171400249 1.037659831e-38
0.03228431195 -0.3236800134 -0.236823529 1.037659831e-38
-0.1526553631 -0.252520442 -0.0430424884 1.056062664e-38
-0.1876449585 -0.2631304264 0.02107388154 1.056062664e-38
0.03525777534 -0.2614840567 -0.2371527404 1.056062664e-38
-0.1603775173 -0.189669013 -0.005418073386 1.056062664e-38
-0.1526465267 -0.02795945853 -0.006274037063 1.074429623e-38
-0.2221106142 -0.3109209239 0.1351981163 1.074429623e-38
0.08325987309 -0.02683145553 -0.2526438534 1.074429623e-38
-0.1870502681 -0.2506912351 0.02100803703 1.074429623e-38
0.04353924841 -0.3367061019 -0.2498061061 1.092796582e-38
0.0477020964 -0.2496317327 -0.250266999 1.092796582e-38
0.08264748752 -0.05167558789 -0.2400595546 1.092796582e-38
-0.1811210364 -0.1387041509 0.03286803886 1.092796582e-38
0.212742433 -0.4663272798 -0.1509795934 1.111163541e-38
0.1208333895 -0.4941301644 -0.1792668551 1.111163541e-38
-0.2136964649 -0.07474748045 0.07168406993 1.111163541e-38
-0.1799701154 -0.1753208935 0.1473510265 1.111163541e-38
-0.1651085615 -0.05221666023 0.01935872063 1.1295305e-38
-0.2142911553 -0.08718669415 0.07174991816 1.1295305e-38
0.2115884274 -0.4663958251 -0.1758847982 1.1295305e-38
0.0844315663 -0.01435800269 -0.2402570844 1.1295305e-38
0.2257460654 -0.4668456316 -0.1391228139 1.147897319e-38
0.047684405 -0.2620366812 -0.2377485633 1.147897319e-38
0.1445149481 -0.5077089071 -0.1928452402 1.147897319e-38
-0.2220575362 -0.2737061381 0.09764280915 1.147897319e-38
-0.1633686721 -0.2642699182 0.007429581136 1.166264278e-38
-0.1764373332 -0.1254955977 0.1719928384 1.166264278e-38
-0.1841329634 -0.2623952925 0.1478119195 1.166264278e-38
-0.1787984222 -0.1628474593 0.1597377658 1.166264278e-38
0.06718549132 -0.375094682 -0.2383476198 1.184631237e-38
-0.1882308125 -0.05100860819 0.05790814757 1.184631237e-38
-0.1894201934 -0.07588700205 0.05803982913 1.184631237e-38
-0.1622854322 -0.313821137 0.08240862936 1.184631237e-38
-0.1627739817 -0.2518307269 0.007363736629 1.202998196e-38
-0.1473738849 -0.1901873797 0.006438694894 1.202998196e-38
-0.2000804543 -0.05042171106 0.07095656544 1.202998196e-38
-0.185393095 -0.3368934095 0.1980173588 1.202998196e-38
0.0921183452 -0.1020192578 -0.2528446019 1.221365155e-38
0.07610587776 -0.1885067523 -0.2393352836 1.221365155e-38
0.2245920599 -0.4669141769 -0.1640280336 1.221365155e-38
-0.134352535 -0.1783007979 0.005777027458 1.221365155e-38
-0.1854107976 -0.3492983282 0.2105358541 1.239732115e-38
-0.2066220641 -0.187252894 0.07168084383 1.239732115e-38
0.07901741564 -0.3880865276 -0.2388776094 1.239732115e-38
0.06070578098 -0.2501501143 -0.2384102345 1.239732115e-38
-0.1769935638 -0.07643963397 0.0574440062 1.258099074e-38
-0.2154982388 -0.1244700104 0.08440009505 1.258099074e-38
0.07374479622 -0.2258585989 -0.2515903413 1.258099074e-38
-0.2042433023 -0.1374960989 0.07141746581 1.258099074e-38
-0.1805617213 -0.1510748416 0.05783906579 1.276466033e-38
-0.1752094924 -0.03912204877 0.05724647641 1.276466033e-38
-0.1693364084 -0.001035088673 0.1962395906 1.276466033e-38
-0.1699310988 -0.0134742735 0.196305424 1.276466033e-38
-0.1675523221 0.03628252819 0.1960420609 1.294832852e-38
-0.1799670309 -0.1386356205 0.05777322501 1.294832852e-38
-0.2190663815 -0.1991051733 0.08479515463 1.294832852e-38
-0.1396605819 -0.04088274017 0.01810122654 1.294832852e-38
-0.1848307103 -0.3125788271 0.1334106624 1.313163938e-38
-0.2006928325 -0.0752658397 0.08354090154 1.313163938e-38
-0.1847245693 -0.238149181 0.05829997361 1.313163938e-38
0.09923696518 0.03484616801 -0.2411162853 1.313163938e-38
-0.1716855615 -0.2138577104 0.04511986673 1.331530897e-38
-0.2090362161 -0.2618195415 0.09698114544 1.331530897e-38
-0.1797392964 -0.3757494986 0.2355570644 1.331530897e-38
0.1057343557 -0.07769351453 -0.2535721064 1.331530897e-38
-0.1651616246 -0.08943147957 0.05691402406 1.349897856e-38
0.106906049 -0.06522003561 -0.2411853522 1.349897856e-38
0.0897218883 -0.1641809642 -0.2400627881 1.349897856e-38
-0.1848337948 -0.3492640555 0.2229884416 1.349897856e-38
-0.1633775532 -0.05211386457 0.05671649426 1.368228942e-38
-0.1724040806 -0.3131314516 0.1328148246 1.368228942e-38
-0.1705138534 -0.2013842463 0.05750662088 1.368228942e-38
-0.1563031226 -0.1646192819 0.05671326071 1.368228942e-38
0.07962980121 -0.3632423878 -0.2514618933 1.386595901e-38
-0.148704797 -0.3143052161 0.1067179963 1.386595901e-38
-0.1681647152 0.01143836603 0.2086263895 1.386595901e-38
0.08734311163 -0.2139377892 -0.2397994101 1.386595901e-38
-0.2101813853 -0.03732709587 0.1088443771 1.404926846e-38
-0.1355596185 -0.2155841291 0.01842721179 1.404926846e-38
-0.1693540961 -0.01344000641 0.208758086 1.404926846e-38
0.1104742065 0.009415168315 -0.2415804118 1.404926846e-38
-0.1800231785 -0.2125356793 0.1849063337 1.423293806e-38
0.09778190404 -0.443302393 -0.1907911748 1.423293806e-38
-0.1723156273 -0.2511067688 0.07022258639 1.423293806e-38
0.2488683015 -0.4680536985 -0.1776722819 1.423293806e-38
-0.2179123759 -0.1990366429 0.1097003445 1.441624891e-38
0.0725377202 -0.2631419599 -0.2389402092 1.441624891e-38
-0.2185070813 -0.2114758641 0.1097661927 1.441624891e-38
-0.1468322724 -0.2149629742 0.04392822087 1.441624891e-38
-0.1368020624 -0.2776773274 0.05611420423 1.459991851e-38
-0.1357188225 -0.3272285163 0.131093204 1.459991851e-38
-0.1842567921 -0.3492297828 0.2354410291 1.459991851e-38
-0.1409030259 -0.1029759198 0.05578822643 1.459991851e-38
0.1223061383 -0.003576705232 -0.2421104014 1.478322936e-38
-0.1782567948 -0.1876230538 0.1972272396 1.478322936e-38
-0.2054857463 -0.1995892823 0.1091045216 1.478322936e-38
-0.2019176036 -0.1249541044 0.108709462 1.478322936e-38
0.08199088275 -0.3258905411 -0.2392068207 1.496689755e-38
-0.1296657622 -0.1284069568 0.05532408506 1.496689755e-38
-0.1770851016 -0.17514956 0.2096140385 1.496689755e-38
-0.1646023095 -0.101802133 0.08188511431 1.496689755e-38
-0.1670107096 0.01150690019 0.2335315645 1.515020841e-38
0.1226174682 -0.4568125904 -0.1794643849 1.515020841e-38
-0.1918697208 -0.1752635092 0.1083770171 1.515020841e-38
0.08496434987 -0.2636945844 -0.239536047 1.515020841e-38
-0.2096220702 -0.04969774559 0.1338154078 1.533351927e-38
-0.2084326893 -0.02481937781 0.1336837113 1.533351927e-38
-0.1332339048 -0.2030421346 0.05571914464 1.533351927e-38
0.2766066492 -0.4689876437 -0.1166009009 1.533351927e-38
0.1823718995 -0.5093325377 -0.1821801215 1.551683013e-38
-0.1830320209 -0.299541533 0.2102724761 1.551683013e-38
0.09858035296 -0.2393687963 -0.2402635515 1.551683013e-38
-0.2013406008 -0.1249198467 0.1211620495 1.551683013e-38
-0.1785675883 -0.3632760346 0.2479438037 1.570049832e-38
-0.1705669314 -0.2385990173 0.09506198764 1.570049832e-38
0.09740865976 -0.2518422604 -0.2526503205 1.570049832e-38
-0.1832856536 0.04960742593 -0.1510757208 1.570049832e-38
-0.170584619 -0.2510039806 0.1075804159 1.588380918e-38
-0.1815546453 0.04971022159 -0.1137178838 1.588380918e-38
-0.1804006398 0.04977875948 -0.08881269395 1.588380918e-38
-0.1706199944 -0.2758138776 0.1326172948 1.588380918e-38
-0.1786696315 0.04988155514 -0.05145485699 1.606712004e-38
-0.1344409883 -0.240325436 0.06836926937 1.606712004e-38
-0.1652620137 0.02401467413 0.2583709061 1.606712004e-38
-0.1741470098 -0.1377634406 0.2343217134 1.606712004e-38
-0.1463613957 -0.2893583179 0.1314914823 1.625043089e-38
-0.1752979308 -0.101146698 0.1198387221 1.625043089e-38
-0.201952979 -0.1497639716 0.133746326 1.625043089e-38
-0.1664513946 -0.0008637569845 0.2585026026 1.625043089e-38
0.1453930736 -0.02959460393 -0.2556229532 1.643374035e-38
-0.1679740101 0.04922612756 -0.08940851688 1.643374035e-38
-0.1824903935 -0.3243171275 0.247761935 1.643374035e-38
-0.167046085 -0.01330294088 0.2585684657 1.643374035e-38
-0.193094492 -0.2249517739 0.1335455775 1.661705121e-38
-0.1924998015 -0.2125125974 0.1334797144 1.661705121e-38
-0.1578553766 0.04853643477 -0.1398147345 1.661705121e-38
-0.1237542182 -0.02882485092 0.07970258594 1.661705121e-38
-0.1729753166 -0.1252900064 0.2467084527 1.680036207e-38
-0.1901210248 -0.1627557874 0.1332163513 1.680036207e-38
-0.1457667053 -0.2769191265 0.1314256489 1.680036207e-38
-0.1356038749 -0.02823795378 0.09275099635 1.680036207e-38
0.2867252827 -0.4696773291 -0.1670071483 1.698367293e-38
-0.1765257865 -0.1875202358 0.2345850766 1.698367293e-38
-0.2027908266 -0.3249217272 0.2240327448 1.698367293e-38
-0.1741262376 -0.08867324889 0.1322254539 1.698367293e-38
-0.1818780154 -0.2994729877 0.2351776659 1.716698239e-38
-0.1741646975 -0.1501683593 0.2468401492 1.716698239e-38
-0.1664690822 -0.01326867472 0.2710210979 1.716698239e-38
-0.1338816732 -0.2526961565 0.09334035963 1.716698239e-38
-0.1694306135 -0.2509354651 0.1324855983 1.735029324e-38
-0.171208933 -0.1003773287 0.2590293586 1.735029324e-38
0.1711346507 -0.4839014709 -0.1817159951 1.735029324e-38
-0.1806678623 -0.2255044132 0.1329497397 1.735029324e-38
0.1350617856 -0.4449602664 -0.1925786436 1.75336041e-38
-0.1765050143 -0.1384300143 0.1324888468 1.75336041e-38
-0.1353101283 0.04729410261 -0.1908168197 1.75336041e-38
0.1572250128 -0.04258641973 -0.2561529279 1.75336041e-38
0.3014599085 -0.4700928926 -0.1177925467 1.771655483e-38
-0.1676584631 -0.03814707696 0.2711527944 1.771655483e-38
-0.1297365129 -0.1780266613 0.1053978875 1.771655483e-38
-0.1205754578 0.04687854648 -0.1416022182 1.771655483e-38
-0.1408127248 0.04825793207 -0.04078973457 1.789986569e-38
-0.1789045483 -0.2372770011 0.2348484397 1.789986569e-38
-0.1194214523 0.04694707692 -0.1166969985 1.789986569e-38
-0.1794992536 -0.2497162223 0.2349143028 1.789986569e-38
0.1589913964 -0.01767378114 -0.243832022 1.808317654e-38
-0.1640783846 -0.1389826536 0.1318930089 1.808317654e-38
0.1601807773 0.00720464997 -0.2439637184 1.808317654e-38
-0.1081488281 0.04632591456 -0.1421980411 1.808317654e-38
-0.181336388 -0.3242486119 0.2726671994 1.826612727e-38
-0.1289630979 0.04767103493 -0.05383814871 1.826612727e-38
-0.1558145732 -0.2266096622 0.1317580938 1.826612727e-38
-0.1593189687 0.04974012077 0.09738055617 1.826612727e-38
-0.1552198827 -0.2141704857 0.1316922605 1.844943813e-38
-0.1427932531 -0.2147231102 0.1310964227 1.844943813e-38
0.1593203992 -0.4585047662 -0.1937044412 1.844943813e-38
-0.09514516592 0.04580754787 -0.1303412616 1.844943813e-38
0.1598974019 -0.4584704936 -0.1812518537 1.863274899e-38
0.3127325177 -0.4707140625 -0.1432935894 1.863274899e-38
0.2439104021 -0.5245348811 -0.1850934029 1.863274899e-38
-0.09456816316 0.04584181309 -0.1178886443 1.863274899e-38
-0.1356197 0.04856633395 0.07128372043 1.881569971e-38
-0.1220232099 -0.02872205153 0.1170603558 1.881569971e-38
-0.1273931265 -0.1530797482 0.1301713884 1.881569971e-38
0.312155515 -0.4707483351 -0.1557461768 1.881569971e-38
0.2433333993 -0.5245691538 -0.1975459903 1.899901057e-38
-0.1773605347 -0.3259927034 0.2352936864 1.899901057e-38
-0.09399116039 0.04587607831 -0.1054360569 1.899901057e-38
0.3115785122 -0.4707826078 -0.168198809 1.899901057e-38
-0.103532806 0.04660004377 -0.04257720709 1.91819627e-38
-0.1747947782 -0.1874174476 0.2719429135 1.91819627e-38
0.09663668275 -0.2188099474 -0.1789279282 1.91819627e-38
0.1002048403 -0.1441747844 -0.1793229878 1.91819627e-38
0.3263132274 -0.4711981714 -0.1189841926 1.936527215e-38
0.1723240316 -0.459023118 -0.1818476766 1.936527215e-38
0.183578968 -0.4720492065 -0.1948302537 1.936527215e-38
0.1604921073 -0.4460312724 -0.1813177019 1.936527215e-38
-0.2010598183 -0.3248189092 0.261390537 1.954822428e-38
0.09011275321 -0.3432361782 -0.190722093 1.954822428e-38
-0.0595962666 0.04404686391 -0.1694865525 1.954822428e-38
0.101944752 -0.356227994 -0.1912520677 1.954822428e-38
0.3245822191 -0.4713009894 -0.1563419998 1.973153514e-38
-0.1777682453 -0.2496134341 0.2722721398 1.973153514e-38
-0.1333116889 0.04870339483 0.1210941523 1.973153514e-38
-0.1408500969 -0.287230581 0.1941390485 1.973153514e-38
0.1084863693 -0.2193968445 -0.1919763535 1.991448586e-38
-0.09891678393 0.04687418044 0.05704365671 1.991448586e-38
0.1026012972 -0.08201306313 -0.1921048015 1.991448586e-38
0.1120545268 -0.1447616816 -0.1923714131 1.991448586e-38
-0.17717354 -0.2371742129 0.2722062767 2.009743799e-38
-0.1526820362 -0.2742387354 0.1946690381 2.009743799e-38
-0.05555724725 0.04428672791 -0.08231830597 2.009743799e-38
-0.07694850862 0.04559758306 -0.006411044858 2.009743799e-38
0.09308622032 -0.2810401917 -0.1910513043 2.028074885e-38
0.1847506613 -0.4595757425 -0.1824434996 2.028074885e-38
-0.035896983 0.04287306219 -0.195583418 2.028074885e-38
-0.04486162588 0.04363129288 -0.1202719361 2.028074885e-38
-0.1519302428 -0.3270637095 0.246554628 2.046369957e-38
-0.1403084695 -0.3120061755 0.2316285819 2.046369957e-38
0.1498494893 -0.4081610441 -0.1809194088 2.046369957e-38
0.3393168449 -0.4717164934 -0.1071274281 2.046369957e-38
0.1492724866 -0.4081953168 -0.1933719963 2.06466517e-38
-0.0532492362 0.04442378879 -0.0325079076 2.06466517e-38
-0.02289335802 0.04235470295 -0.1837266088 2.06466517e-38
0.1611044854 -0.4211871326 -0.193901971 2.06466517e-38
0.1267803162 -0.3697381914 -0.1799252778 2.082996116e-38
-0.1084583998 0.04759813845 0.119902499 2.082996116e-38
0.1238687634 -0.170158416 -0.1803829521 2.082996116e-38
-0.05151822791 0.0445265919 0.004849929363 2.082996116e-38
-0.1756295264 -0.3258899152 0.2726514935 2.101291328e-38
-0.07348649204 0.04580318183 0.06830459833 2.101291328e-38
-0.151510343 -0.2617652714 0.2070557773 2.101291328e-38
-0.04024560377 0.04390542954 -0.02065110952 2.101291328e-38
0.2843233347 -0.5218732357 -0.2483481765 2.119586541e-38
-0.07290948927 0.04583744705 0.08075719327 2.119586541e-38
0.149867177 -0.3957561255 -0.1934378445 2.119586541e-38
-0.009889729321 0.04183634371 -0.1718698442 2.119586541e-38
0.2104997337 0.02983823419 -0.258931309 2.137881613e-38
-0.008735723794 0.04190487415 -0.1469646245 2.137881613e-38
-0.03736058995 0.04407675564 0.04161188379 2.137881613e-38
0.001382924616 0.0412151739 -0.1973708868 2.137881613e-38
-0.07175548375 0.04590597749 0.1056623757 2.156176826e-38
0.185940057 -0.43469733 -0.1825751811 2.156176826e-38
-0.1391367763 -0.2995327115 0.2440153211 2.156176826e-38
-0.04747920856 0.04476645589 0.09201813489 2.156176826e-38
0.1362953931 -0.1707110405 -0.180978775 2.174471899e-38
-0.02493393049 0.04352412373 0.04101606086 2.174471899e-38
-0.1869021356 -0.3252687454 0.298152566 2.174471899e-38
0.1179395318 -0.2821454704 -0.1922429651 2.174471899e-38
-0.005273707211 0.04211047292 -0.07224901021 2.192767111e-38
0.2096039057 -0.4606809914 -0.1836351454 2.192767111e-38
0.2229263633 0.02928560227 -0.259527117 2.192767111e-38
0.01496355608 0.04073108733 -0.1730614901 2.192767111e-38
0.01611756161 0.04079961777 -0.1481562704 2.211062324e-38
-0.1385597736 -0.2994984388 0.2564679086 2.211062324e-38
-0.000657685101 0.04238460213 0.02737182006 2.211062324e-38
-0.1628006846 -0.2735490501 0.2450752854 2.211062324e-38
0.1977896839 -0.4352842271 -0.1956236064 2.229357396e-38
-0.08187410235 0.04659567773 0.156068638 2.229357396e-38
-0.1863251328 -0.3252344728 0.3106051385 2.229357396e-38
-0.03389857337 0.04428235441 0.1163275614 2.229357396e-38
0.02131058648 0.0411080122 -0.03608285263 2.247652609e-38
0.02912122197 0.04028125107 -0.1362995058 2.247652609e-38
0.2451174706 -0.4872515202 -0.1977435201 2.247652609e-38
0.1505237818 -0.1215411723 -0.1942905635 2.247652609e-38
0.03604525328 0.04069244862 0.01313175354 2.265947681e-38
0.02534960769 0.04134788364 0.05108541623 2.265947681e-38
0.1989613771 -0.4228107631 -0.1832368523 2.265947681e-38
0.01407698542 0.04196903855 0.0765864253 2.265947681e-38
0.03085223027 0.04038405418 -0.09894169867 2.284242894e-38
-0.1327222288 -0.3302067518 0.372553587 2.284242894e-38
0.03662225604 0.04072671384 0.02558434755 2.284242894e-38
0.04039384425 0.03966008872 -0.1618005484 2.284242894e-38
-0.1485899538 -0.2367841005 0.2442819327 2.302537966e-38
0.1758921891 -0.3843879104 -0.1822427362 2.302537966e-38
0.1575981826 -0.2340465486 -0.194293797 2.302537966e-38
-0.0795660913 0.04673273861 0.2058790624 2.302537966e-38
0.1522459537 -0.3459993303 -0.1937012076 2.320833179e-38
-0.1349739283 -0.2124583274 0.2435544282 2.320833179e-38
0.2344572246 -0.4617862701 -0.1848267913 2.320833179e-38
0.1646549553 -0.3589568734 -0.1817785949 2.320833179e-38
0.05916750431 0.03948439658 -0.02541770414 2.339092378e-38
0.04962588847 0.04020834714 0.03744111583 2.339092378e-38
0.1534972489 -0.05934518203 -0.1946197897 2.339092378e-38
0.1883188188 -0.3849405348 -0.1828385592 2.339092378e-38
0.1569858044 -0.2588906884 -0.181709528 2.348204041e-38
-0.1368110776 -0.286990732 0.2813072503 2.348204041e-38
0.1283167452 -0.06937262416 0.08119083941 2.348204041e-38
0.1641221046 -0.1096203178 -0.1824996471 2.348204041e-38
0.2584045231 -0.02209482156 -0.2485986203 2.348132155e-38
0.2602062821 0.02762771398 -0.2613146007 2.348132155e-38
0.004535339773 0.04269300401 0.1394452751 2.348132155e-38
0.2587158084 -0.4753307104 -0.1859526038 2.348132155e-38
0.1700248718 -0.2345991731 -0.1948896348 2.348060128e-38
0.1658620238 -0.3216735721 -0.194428727 2.348060128e-38
0.06697811186 0.038657628 -0.1256343573 2.348060128e-38
0.08459781855 0.03841339797 -0.01415675785 2.348060128e-38
0.1665008813 -0.05986354873 -0.1827630103 2.347952368e-38
0.2702541351 -0.02268171683 -0.2616470456 2.347952368e-38
0.1676284075 -0.2967608869 -0.1821078211 2.347952368e-38
0.2720382214 0.01463589817 -0.2618445754 2.347952368e-38
0.1848125756 -0.1977999657 -0.1832303852 2.347880341e-38
0.1770992726 -0.347104609 -0.1948928535 2.347880341e-38
0.1164139807 -0.1060005128 0.1317946315 2.347880341e-38
0.2350696176 -0.4369421303 -0.1974110752 2.347880341e-38
0.1282636672 -0.10658741 0.1187461466 2.347808455e-38
0.07505615056 0.03913736343 0.04870212078 2.347808455e-38
0.07825078815 0.03803646564 -0.1511353999 2.347808455e-38
0.1871913522 -0.1480432004 -0.1834937632 2.347808455e-38
0.05366490781 0.04044821113 0.124609381 2.347700555e-38
0.1777558774 -0.07288962603 -0.1957455873 2.347700555e-38
0.01869300753 0.04224316776 0.1762072891 2.347700555e-38
0.1872090399 -0.1356382519 -0.1960121989 2.347700555e-38
0.1878037304 -0.1231990606 -0.1960780472 2.347628668e-38
0.087792404 0.03731250018 -0.2139942497 2.347628668e-38
-0.07002971321 -0.3453405797 0.3945454955 2.347628668e-38
0.08894640952 0.03738103062 -0.18908903 2.347628668e-38
0.06551453471 0.03986132145 0.1115609631 2.347520768e-38
-0.009627526626 -0.3482065499 0.3542086184 2.347520768e-38
-0.07057134062 -0.3205649853 0.3570560515 2.347520768e-38
0.1644249111 -0.08350399137 0.06701661646 2.347520768e-38
0.181244418 -0.2724351585 -0.1828353256 2.347448882e-38
0.1800727248 -0.2849086225 -0.1952220798 2.347448882e-38
0.1187750623 -0.06864865124 0.1440496743 2.347448882e-38
0.2878914773 -0.4472379982 -0.2487432361 2.347448882e-38
-0.06945271045 -0.3453063369 0.4069980979 2.347340982e-38
0.2137667537 -0.3736066222 -0.1840960532 2.347340982e-38
0.08979084343 0.0387217924 0.09791666269 2.347340982e-38
-0.009050524794 -0.3481722772 0.366661191 2.347340982e-38
-0.1326836199 -0.224726215 0.3058832884 2.347269095e-38
0.1201466918 0.03665270656 -0.05330203474 2.347269095e-38
0.1936887503 -0.2605828345 -0.1959495842 2.347269095e-38
0.297486186 0.02596982569 -0.2631020546 2.347269095e-38
0.1531169266 -0.1076926589 0.1175544932 2.347161195e-38
0.1768338531 -0.0964615345 0.07893922925 2.347161195e-38
0.1213006973 0.03672124445 -0.02839682251 2.347161195e-38
-0.02090015076 -0.3475853503 0.3797096312 2.347161195e-38
0.1022174731 0.03816916049 0.09732083976 2.347089308e-38
0.1218777001 0.03675550967 -0.01594422758 2.347089308e-38
0.2997411788 -0.4478249252 -0.2617916763 2.347089308e-38
0.2143791467 -0.3487624824 -0.1966803372 2.347089308e-38
0.1331503242 0.03613433987 -0.04144526646 2.346981408e-38
0.2149561495 -0.3487282097 -0.1842277348 2.346981408e-38
0.3093004227 0.0005730930716 -0.2511136234 2.346981408e-38
0.2055029869 -0.2859795988 -0.1839611381 2.346981408e-38
0.136035338 0.03630567342 0.02081775665 2.346909522e-38
0.1291113049 0.03589447588 -0.128613472 2.346909522e-38
0.127070725 0.03706390411 0.0961291939 2.346909522e-38
0.2885038555 -0.4223938882 -0.2613275349 2.346909522e-38
0.1791949421 -0.05910968408 0.09119428694 2.346801622e-38
0.2055206746 -0.2735746801 -0.1964795738 2.346801622e-38
0.1279572994 0.03582594544 -0.1535186917 2.346801622e-38
0.2374483794 -0.3871853352 -0.1976744533 2.346801622e-38
-0.08124926686 -0.3075046241 0.3824912012 2.346693862e-38
0.1377663463 0.03640847653 0.05817559361 2.346693862e-38
0.3057322502 -0.07406210899 -0.2507185638 2.346693862e-38
0.167922318 -0.05848852172 0.1166952997 2.346693862e-38
0.144423008 0.03551317751 -0.06694628298 2.346621835e-38
0.1389203519 0.03647700697 0.08308077604 2.346621835e-38
0.1421149969 0.03537610918 -0.1167567074 2.346621835e-38
0.146731019 0.03565024585 -0.01713587716 2.346621835e-38
0.2262552977 -0.1123834699 -0.1854787618 2.346514075e-38
0.1666975468 -0.1081767678 0.1418639123 2.346514075e-38
0.3358139992 -0.4867660999 -0.2509290278 2.346514075e-38
0.1374989748 0.03510197997 -0.2163775414 2.346514075e-38
0.2173349112 -0.2989714146 -0.1844911128 2.346406175e-38
0.3199430406 -0.03729715571 -0.2515119016 2.346406175e-38
0.2274446785 -0.08750510216 -0.1856104434 2.346406175e-38
0.1501930356 0.03585584462 0.05757976696 2.346406175e-38
0.2179472893 -0.2741273046 -0.1970753968 2.346334289e-38
0.2022641748 -0.09753252566 0.09020017087 2.346334289e-38
0.3027587831 -0.1362580955 -0.2503893375 2.346334289e-38
0.1702833921 -0.02113666944 0.128950417 2.346334289e-38
-0.05585438758 -0.3333854675 0.4187890887 2.346226389e-38
0.2339421362 -0.2000447363 -0.1980662793 2.346226389e-38
0.1708780825 -0.008697485551 0.1288845837 2.346226389e-38
0.1539646238 0.0347892195 -0.1298051327 2.346226389e-38
0.2327527553 -0.2249231488 -0.1979345977 2.346118629e-38
0.1566143185 -0.08267723024 0.1672332436 2.346118629e-38
-0.03211973235 -0.3097494245 0.3676553071 2.346118629e-38
0.3127624989 -0.4359383583 -0.2624533474 2.346118629e-38
0.2028411776 -0.09749826789 0.1026527658 2.346010729e-38
0.2386996746 -0.1005311757 -0.1985930204 2.346010729e-38
0.2327350676 -0.2373280674 -0.185416162 2.346010729e-38
0.1715842634 0.03454498947 -0.01832752675 2.346010729e-38
0.1678515524 -0.1081082225 0.1667691022 2.345938842e-38
0.239294365 -0.08809199929 -0.1986588687 2.345938842e-38
0.290882647 -0.3726371229 -0.261590898 2.345938842e-38
0.1643506736 0.03540601581 0.09434171766 2.345938842e-38
0.2404660732 -0.07561851293 -0.1862721145 2.345830942e-38
0.1815029532 -0.05897261947 0.1410047114 2.345830942e-38
0.05308267474 -0.3509353995 0.3636820912 2.345830942e-38
0.2404837608 -0.06321359426 -0.1987905502 2.345830942e-38
0.1646602303 0.03413379192 -0.1677587926 2.345723183e-38
0.2046075761 -0.07258559763 0.1149736717 2.345723183e-38
0.2920720279 -0.3477587104 -0.2617225945 2.345723183e-38
0.1845878959 0.03402662277 -0.006470725872 2.345723183e-38
0.2986136377 -0.210927546 -0.2624468505 2.345615283e-38
0.2985959351 -0.2233324945 -0.2499284148 2.345615283e-38
0.162929222 0.03403098881 -0.2051165998 2.345615283e-38
0.170230329 -0.05835145712 0.1665057242 2.345615283e-38
0.3460033834 -0.00111906603 -0.2653536797 2.345507523e-38
0.3026969731 -0.3980338573 -0.249602437 2.345507523e-38
0.3134191036 -0.1617233753 -0.2633060515 2.345507523e-38
0.05310036242 -0.3385304809 0.3511636555 2.345507523e-38
0.3027146459 -0.3856289387 -0.2621208727 2.345399623e-38
0.3293961883 -0.1000457704 -0.2517785132 2.345399623e-38
0.1964375228 0.03343973309 -0.01951917261 2.345399623e-38
0.005701803602 -0.3361828923 0.403357327 2.345399623e-38
0.2433953136 -0.2627933621 -0.1983328909 2.345291723e-38
0.359619379 0.02320667729 -0.2660811841 2.345291723e-38
0.189203918 0.03430075198 0.0931500718 2.345291723e-38
0.383754164 -0.5138893127 -0.2656332254 2.345291723e-38
0.2427829206 -0.2876374722 -0.1857486069 2.345219836e-38
0.3600903153 -0.4879056513 -0.2645732462 2.345219836e-38
0.2528308034 -0.3379469216 -0.1860810518 2.345219836e-38
0.3719222248 -0.5008975267 -0.2651032507 2.345219836e-38
0.2629582584 -0.1140756309 -0.199718833 2.345111936e-38
-0.01799744368 -0.3350090981 0.4294542074 2.345111936e-38
0.2057438791 -0.08492201567 0.1523973495 2.345111936e-38
0.2599670887 -0.188676551 -0.186871171 2.345111936e-38
0.2534254789 -0.3255077004 -0.1861469001 2.345004176e-38
0.1872054785 0.03289146721 -0.2187608331 2.345004176e-38
0.2570113242 -0.238467589 -0.1990603954 2.345004176e-38
0.3418228328 -0.1005984023 -0.2523743212 2.345004176e-38
0.3566282094 -0.05139422789 -0.2532335222 2.344896276e-38
0.3092562556 -0.2487977743 -0.2628451586 2.344896276e-38
0.2019401789 0.03247590363 -0.1695462614 2.344896276e-38
0.3406511545 -0.1130718514 -0.2647610903 2.344896276e-38
0.3708566129 -0.002224324271 -0.2665453255 2.344788516e-38
0.04240474105 -0.3378750384 0.3891172409 2.344788516e-38
0.2007861733 0.03240736574 -0.1944514513 2.344788516e-38
0.324061662 -0.1995936036 -0.2637043595 2.344788516e-38
0.3702619076 -0.0146635687 -0.2664794922 2.344680616e-38
0.2195598334 0.03223166615 -0.05806863308 2.344680616e-38
0.2189828306 0.03219740093 -0.07052122056 2.344680616e-38
0.01870543696 -0.3367012441 0.4152141511 2.344680616e-38
0.369667232 -0.02710275352 -0.2664136291 2.344572857e-38
0.2247528583 0.03254006803 0.05400482193 2.344572857e-38
0.3548441529 -0.08871184289 -0.2530359924 2.344572857e-38
0.2771689594 -0.07731066644 -0.2005121857 2.344572857e-38
0.3690548241 -0.05194685608 -0.25382936 2.344464957e-38
0.2155208141 0.03199180216 -0.1452368647 2.344464957e-38
0.3844549954 0.009696494788 -0.2547543943 2.344464957e-38
0.3612796962 -0.4630272686 -0.2647049427 2.344464957e-38
0.3275502324 -0.3991391361 -0.2507940829 2.344357197e-38
0.328144908 -0.3866999149 -0.250859946 2.344357197e-38
0.2676538825 -0.2763378322 -0.1994586885 2.344357197e-38
0.2279474437 0.03143917024 -0.1458326876 2.344357197e-38
0.3187094331 -0.3115463853 -0.2631117702 2.344249297e-38
0.2262164354 0.03133637458 -0.1831904948 2.344249297e-38
0.2490291148 0.03140054643 0.04036058113 2.344249297e-38
0.0435587503 -0.3378065228 0.4140225053 2.344249297e-38
0.3660990596 -0.1017379239 -0.2660185695 2.344141397e-38
0.03116749972 -0.3124440312 0.3895813823 2.344141397e-38
0.4093082547 0.008591238409 -0.2559460402 2.344141397e-38
0.2545317113 0.03043671697 -0.1096665338 2.344141397e-38
0.3637202978 -0.1514947116 -0.2657552063 2.344033637e-38
0.3518087566 -0.4126835763 -0.2519198954 2.344033637e-38
0.3512317538 -0.412717849 -0.2643724978 2.344033637e-38
0.3411839008 -0.3624083996 -0.2640400529 2.344033637e-38
0.4081188738 -0.0162871927 -0.2558143735 2.343925737e-38
0.3631079197 -0.1763388216 -0.2531709373 2.343925737e-38
0.2721514106 0.03019247949 0.001811095513 2.343925737e-38
0.3625132143 -0.1887780428 -0.2531050742 2.343925737e-38
0.268689394 0.02998688072 -0.07290451974 2.343817977e-38
0.2499156743 0.03016258031 -0.2092873603 2.343817977e-38
0.06787037849 -0.3141361773 0.375341326 2.343817977e-38
0.3607291281 -0.2260956466 -0.2529075444 2.343817977e-38
-0.003227428067 -0.3106148243 0.4536318779 2.343710077e-38
0.3909347057 -0.1152481064 -0.2546917796 2.343710077e-38
0.3536105156 -0.3629610538 -0.2646358609 2.343710077e-38
0.3547822237 -0.3504875898 -0.2522491217 2.343710077e-38
0.277654022 0.02922865003 -0.1482159942 2.343566444e-38
0.09214669466 -0.3152757287 0.3616970778 2.343566444e-38
0.4039737284 -0.09095662832 -0.2678718865 2.343566444e-38
0.2770770192 0.02919438481 -0.1606685817 2.343566444e-38
0.05715706944 -0.3258856833 0.4258134067 2.343458544e-38
0.2759230137 0.02912585437 -0.1855738014 2.343458544e-38
0.3885736167 -0.1525999904 -0.2669468522 2.343458544e-38
0.4175897241 -0.0666308552 -0.268599391 2.343458544e-38
0.2912346423 0.02874455601 -0.1239065975 2.343350644e-38
0.2741920054 0.02902305126 -0.2229316086 2.343350644e-38
0.4021719396 -0.1406791359 -0.255155921 2.343350644e-38
0.303661257 0.0281919241 -0.1245024204 2.343350644e-38
0.4300163686 -0.06718348712 -0.2691952288 2.343242884e-38
0.3696053922 -0.2888785005 -0.2656267583 2.343242884e-38
0.4157879651 -0.1163533628 -0.2558834255 2.343242884e-38
0.444804132 -0.03038426861 -0.2575359941 2.343242884e-38
0.4590325058 0.01878563687 -0.2708477676 2.343134984e-38
0.08258733153 -0.3269566596 0.4370743632 2.343134984e-38
0.3843930662 -0.252079308 -0.2539675236 2.343134984e-38
0.4584378004 0.006346451119 -0.2707819343 2.343134984e-38
0.3166648746 0.02767356485 -0.1126456559 2.343027224e-38
0.3991985023 -0.2028751373 -0.2548266947 2.343027224e-38
0.3802479208 -0.3267487288 -0.2660250366 2.343027224e-38
0.02335683629 -0.311617285 0.489798069 2.343027224e-38
0.4134091735 -0.166110158 -0.2556200624 2.342919324e-38
0.456653744 -0.03097116388 -0.2705844045 2.342919324e-38
0.4121755958 -0.4403593838 -0.2672199309 2.342919324e-38
0.4127525985 -0.4403251112 -0.2547673285 2.342919324e-38
0.4720361531 0.0182672739 -0.258991003 2.342811565e-38
0.3279375732 0.02705239877 -0.1381466687 2.342811565e-38
0.4264481962 -0.1418186575 -0.2688001692 2.342811565e-38
0.4009383321 -0.4149283767 -0.2667557895 2.342811565e-38
0.3926745653 -0.3273013532 -0.2666208744 2.342703665e-38
0.4548519552 -0.08069366962 -0.257868439 2.342703665e-38
0.04821015149 -0.3127225339 0.4886064231 2.342703665e-38
0.3432492018 0.02667110413 -0.07647946477 2.342703665e-38
0.4400465786 -0.1298978329 -0.257009238 2.342559891e-38
0.3420951962 0.02660256997 -0.101384677 2.342559891e-38
0.469062686 -0.04392871261 -0.2586618066 2.342559891e-38
0.3472882211 0.02691096812 0.01068874542 2.342559891e-38
0.4530855715 -0.1056063324 -0.2701893449 2.342452132e-38
0.4092463255 -0.253184557 -0.2551591694 2.342452132e-38
0.4032994211 -0.3775765002 -0.2545007169 2.342452132e-38
0.404488802 -0.3526981175 -0.2546324134 2.342452132e-38
0.4133649766 -0.4154810011 -0.2673515975 2.342344232e-38
0.4382624924 -0.1672154367 -0.2568117082 2.342344232e-38
0.3585608602 0.02628980577 -0.01481226366 2.342344232e-38
0.4524731934 -0.1304504722 -0.2576050758 2.342344232e-38
0.08491303027 -0.31441468 0.4743663669 2.342236472e-38
0.4228623509 -0.2288587689 -0.2558866739 2.342236472e-38
0.4370731115 -0.1920938194 -0.2566800117 2.342236472e-38
0.4359014332 -0.2045672834 -0.2690667808 2.342236472e-38
0.363486439 0.02529171109 -0.1772919744 2.342128572e-38
0.4163207412 -0.3656899035 -0.2551623881 2.342128572e-38
0.3727184832 0.02583997697 0.02194968984 2.342128572e-38
0.2039687037 -0.3326542974 0.3688530922 2.342128572e-38
0.1915597767 -0.3196967542 0.3569304943 2.342020812e-38
0.3828370869 0.02515028045 -0.02845653519 2.342020812e-38
0.2045457065 -0.3326200247 0.3813056946 2.342020812e-38
0.1921367794 -0.3196624815 0.3693830669 2.342020812e-38
0.4287474155 -0.3662425578 -0.2557582259 2.341912912e-38
0.4076904058 0.02404501662 -0.02964818478 2.341912912e-38
0.1820181608 -0.3189727962 0.4197893441 2.341912912e-38
0.1831721663 -0.3189042807 0.444694519 2.341912912e-38
0.4342746735 0.02304255962 0.006517978851 2.341805152e-38
0.4261966348 0.02256283164 -0.1678184718 2.341805152e-38
0.4397772849 0.02207873389 -0.143509075 2.341805152e-38
