# .PCD v0.7 - Point Cloud Data file format
VERSION 0.7
FIELDS x y z rgb
SIZE 4 4 4 4
TYPE F F F F
COUNT 1 1 1 1
WIDTH 830
HEIGHT 1
VIEWPOINT 0 0 0 1 0 0 0
POINTS 830
DATA ascii
-0.4307103455 -0.2082919925 -0.1666222513 6.698542971e-39
-0.3400348425 -0.7573435307 -0.1144164279 6.698542971e-39
-0.117896758 -0.1713110805 -0.3160539567 6.698542971e-39
0.008214076981 -0.4329681993 -0.2872907519 6.698542971e-39
0.00739948824 -0.3143480122 0.33927387 6.698542971e-39
-0.2770531178 -0.7563915253 -0.09632313251 6.698542971e-39
-0.1295319647 -0.1735969335 -0.3037416339 6.698542971e-39
-0.1737300456 -0.3923271 0.2467401624 6.698542971e-39
0.1103774458 -0.7161728144 -0.2399739027 6.882571295e-39
-0.03130481392 -0.739112854 -0.1263635755 6.882571295e-39
0.00634329766 -0.3314063251 0.26583305 6.882571295e-39
-0.2000298202 -0.1858153194 -0.2412468046 6.882571295e-39
-0.1644376516 -0.1804545075 -0.2668045759 6.882571295e-39
0.09585663676 -0.3641002178 -0.3640801013 6.882571295e-39
0.1131375432 -0.1456889063 -0.154841885 6.882571295e-39
-0.1843746156 -0.4684411287 -0.2340811491 6.882571295e-39
0.02063634247 -0.1053198054 -0.1586674899 7.066599618e-39
-0.190800935 -0.7508678436 -0.1028545424 7.066599618e-39
-0.2914035916 -0.07581217587 0.1798394024 7.066599618e-39
-0.08059178293 -0.742269218 -0.1226313412 7.066599618e-39
-0.4793108106 -0.2129451483 -0.1515107006 7.066599618e-39
0.08793073893 -0.1395853013 -0.1436678618 7.066599618e-39
0.006220072508 -0.3375913799 0.2451458275 7.066599618e-39
0.00910666585 -0.2710556388 0.2183336765 7.066599618e-39
-0.381423384 -0.2051355988 -0.1703544855 7.250627941e-39
0.009793180972 -0.2725524008 0.2297129631 7.250627941e-39
0.00773363933 -0.2680621147 0.1955751181 7.250627941e-39
-0.1661574692 -0.7492896318 -0.1047206521 7.250627941e-39
-0.2403035462 -0.08951616287 0.1688707024 7.250627941e-39
-0.07675850391 -0.1916864216 0.1939101219 7.250627941e-39
0.0198492948 -0.4306823015 -0.2996030748 7.250627941e-39
-0.2655103207 -0.08341257274 0.1800446957 7.250627941e-39
-0.4656160176 -0.2151495665 -0.1296852082 7.434656265e-39
-0.4909459949 -0.2152310014 -0.1391983628 7.434656265e-39
-0.2719007432 -0.1950401962 -0.2015105784 7.434656265e-39
0.1138240546 -0.1471856833 -0.1434625834 7.434656265e-39
-0.3696281016 -0.4141312242 0.2637404799 7.434656265e-39
0.1370944828 -0.1426139474 -0.1680872738 7.434656265e-39
-0.2797683775 -0.07352631539 0.1675270498 7.434656265e-39
-0.363991797 -0.7604184747 -0.1011710018 7.434656265e-39
-0.381949842 -0.41492033 0.2646735609 7.618684588e-39
-0.4053803682 -0.2082105577 -0.1571090519 7.618684588e-39
-0.2840624452 -0.4071108103 0.2458298206 7.618684588e-39
0.0178552866 -0.335305512 0.2328335047 7.618684588e-39
-0.4065933228 -0.416498512 0.2665396631 7.618684588e-39
-0.1168704927 -0.7461332679 -0.1084528863 7.618684588e-39
0.00683619827 -0.3066662252 0.3485817313 7.618684588e-39
0.1343343854 -0.7130978107 -0.2532193065 7.618684588e-39
-0.1654709578 -0.7507864237 -0.09334137291 7.802712912e-39
0.03079799376 -0.4268996716 -0.323294729 7.802712912e-39
-0.1531492025 -0.7499973178 -0.09427443147 7.802712912e-39
-0.04655254632 -0.2345042527 0.1910217404 7.802712912e-39
-0.2956976593 -0.4093966484 0.2581421435 7.802712912e-39
0.006783362478 -0.3452731669 0.2358379662 7.802712912e-39
0.1377809942 -0.1441107094 -0.1567080021 7.802712912e-39
0.1235229522 -0.1342244744 -0.1692256182 7.802712912e-39
-0.4635564983 -0.2196398526 -0.09554730356 7.986382503e-39
0.01854180172 -0.336802274 0.2442127764 7.986382503e-39
-0.2470972091 -0.4047435224 0.2430306375 7.986382503e-39
-0.4758782387 -0.2204289436 -0.094614245 7.986382503e-39
0.1028753519 -0.1509682834 -0.119770959 7.986382503e-39
-0.03173118085 -0.2520722747 0.1942314804 7.986382503e-39
-0.2380283326 -0.7585145235 -0.064984411 7.986382503e-39
-0.2279818058 -0.08872706443 0.1679376364 7.986382503e-39
-0.4262869954 -0.7628672123 -0.1078850254 8.170410826e-39
0.008526064456 -0.3297115862 0.3206581175 8.170410826e-39
-0.0530122444 -0.3660790026 0.2332667708 8.170410826e-39
-0.4751917124 -0.2219257057 -0.0832349658 8.170410826e-39
-0.439599514 -0.2165648937 -0.1087927297 8.170410826e-39
-0.2257066071 -0.7577254772 -0.06591746211 8.170410826e-39
-0.04780234769 -0.2253257036 0.18895033 8.170410826e-39
-0.2674466074 -0.07273721695 0.1665939987 8.170410826e-39
-0.4745051861 -0.2234224677 -0.0718556866 8.35443915e-39
-0.261985302 -0.7615895271 -0.05173900723 8.35443915e-39
-0.2926534116 -0.06663362682 0.177767992 8.35443915e-39
-0.3560934067 -0.2050541639 -0.1608412862 8.35443915e-39
0.1268322915 -0.1478933394 -0.1330163479 8.35443915e-39
-0.416329056 -0.2119931728 -0.1334174275 8.35443915e-39
-0.2373418361 -0.7600113153 -0.05360512435 8.35443915e-39
0.1358446777 -0.1334353983 -0.1701586843 8.35443915e-39
0.01841857657 -0.342987299 0.2235256135 8.538467473e-39
0.1099514216 -0.1258350313 -0.1703639627 8.538467473e-39
-0.3749405146 -0.764201045 -0.07747939229 8.538467473e-39
-0.1391076297 -0.1803730726 -0.2572913766 8.538467473e-39
0.05885135755 -0.1121310592 -0.1593952626 8.538467473e-39
-0.01761005819 -0.7413172722 -0.1045380682 8.538467473e-39
-0.2217672169 -0.4046620429 0.252543807 8.538467473e-39
0.04449281096 -0.4291040897 -0.3014692068 8.538467473e-39
-0.103175737 -0.7483376861 -0.08662738651 8.722137064e-39
-0.00528829731 -0.7405281067 -0.1054711267 8.722137064e-39
-0.3619322777 -0.7649087906 -0.06703315675 8.722137064e-39
0.1124369875 -0.7206630707 -0.2058360428 8.722137064e-39
-0.1880548745 -0.7568548918 -0.05733735859 8.722137064e-39
-0.2094454914 -0.4038729668 0.2516107261 8.722137064e-39
-0.06443677843 -0.1908973157 0.1929770559 8.722137064e-39
-0.4847673774 -0.2287018597 -0.03678473085 8.722137064e-39
-0.3062249422 -0.05824417248 0.1766296476 8.906165387e-39
-0.2408668399 -0.08183437586 0.1781785786 8.906165387e-39
-0.3314499259 -0.203475967 -0.1627074033 8.906165387e-39
-0.1897667944 -0.09553831816 0.1672098637 8.906165387e-39
-0.3742539883 -0.7656978369 -0.06610010564 8.906165387e-39
0.047238864 -0.4350911379 -0.2559520602 8.906165387e-39
-0.3366022706 -0.764827311 -0.05751994252 8.906165387e-39
-0.4601239264 -0.2271236628 -0.03865084797 8.906165387e-39
0.09900271893 -0.1296176463 -0.1466723233 9.089834978e-39
-0.003778349608 -0.2641629279 0.2285746187 9.089834978e-39
-0.3916855752 -0.2104149759 -0.1352835447 9.089834978e-39
-0.1024892256 -0.7498344183 -0.07524804771 9.089834978e-39
-0.1854885072 -0.4007980227 0.2383653373 9.089834978e-39
-0.03354427218 -0.2352119088 0.2014679611 9.089834978e-39
-0.4840808511 -0.2301986068 -0.02540545166 9.089834978e-39
-0.1971237361 -0.4030838609 0.250677675 9.089834978e-39
-0.3865757585 -0.7664869428 -0.06516703963 9.273863302e-39
-0.091880247 -0.1727263927 -0.2951614857 9.273863302e-39
-0.1035154536 -0.1750122607 -0.282849133 9.273863302e-39
0.01935515739 -0.7389499545 -0.1073372439 9.273863302e-39
-0.4594374001 -0.22862041 -0.02727156878 9.273863302e-39
0.00365007855 -0.2868123353 0.3330596685 9.273863302e-39
0.008772518486 -0.3173415363 0.3620324731 9.273863302e-39
-0.3612457514 -0.7664055228 -0.0556538254 9.273863302e-39
-0.3909990788 -0.2119117379 -0.1239042431 9.457532893e-39
-0.2113253325 -0.7614266276 -0.03271268308 9.457532893e-39
0.009089354426 -0.3373933733 0.3113502264 9.457532893e-39
-0.1627248973 -0.7567734718 -0.04782418907 9.457532893e-39
-0.34308514 -0.2057618201 -0.1503950655 9.457532893e-39
0.1514757574 -0.1463151425 -0.134882465 9.457532893e-39
0.1488529295 -0.1341430545 -0.1597124636 9.457532893e-39
0.1631110311 -0.1440292746 -0.1471948028 9.457532893e-39
-0.1141244322 -0.752120316 -0.06293570995 9.641561216e-39
-0.0199727416 -0.2436013818 0.2026063055 9.641561216e-39
-0.4112192392 -0.7680651546 -0.06330093741 9.641561216e-39
-0.03845006227 -0.4482966661 -0.2587285042 9.641561216e-39
0.1282053292 -0.1508868635 -0.1102577597 9.641561216e-39
-0.4703861177 -0.2324030399 -0.003579944372 9.641561216e-39
-0.4827078283 -0.2331921309 -0.002646885812 9.641561216e-39
-0.150403142 -0.7559843659 -0.04875725508 9.641561216e-39
-0.00460178405 -0.7420248985 -0.09409184754 9.825230807e-39
0.007856864482 -0.2618770897 0.2162622809 9.825230807e-39
0.009335804731 -0.3250233233 0.3527245522 9.825230807e-39
-0.4231587052 -0.2247563601 -0.0414500162 9.825230807e-39
-0.3105857372 -0.7662426233 -0.03662750125 9.825230807e-39
-0.4696995914 -0.233899802 0.007799394429 9.825230807e-39
-0.1731667519 -0.4000089169 0.2374322861 9.825230807e-39
0.00991640985 -0.2663673759 0.2504001856 9.825230807e-39
-0.2599257827 -0.7660797834 -0.0176011771 1.000925913e-38
-0.007087694481 -0.2504940927 0.1923653632 1.000925913e-38
-0.389626056 -0.214905262 -0.1011456549 1.000925913e-38
-0.3605592251 -0.7679022551 -0.04427453876 1.000925913e-38
-0.1983170807 -0.7621343136 -0.02226646245 1.000925913e-38
-0.0408805199 -0.7458889484 -0.07991333306 1.000925913e-38
-0.2428031564 -0.07115902007 0.1647278816 1.000925913e-38
-0.209605515 -0.1925914586 -0.1947965622 1.000925913e-38
0.1521622688 -0.1478119045 -0.1235031933 1.019292872e-38
-0.09119372815 -0.1742231548 -0.2837821841 1.019292872e-38
0.0003407374024 -0.2731435001 0.2968504131 1.019292872e-38
0.1405270547 -0.1500977576 -0.1111908257 1.019292872e-38
0.1093881279 -0.1181532145 -0.1610561013 1.019292872e-38
-0.4669535458 -0.2398868352 0.05331651866 1.019292872e-38
-0.06483745575 -0.7489639521 -0.06666794419 1.019292872e-38
-0.3728809953 -0.768691361 -0.04334148765 1.019292872e-38
0.04665285721 -0.1067351401 -0.1377750188 1.037659831e-38
-0.1134379208 -0.7536170483 -0.05155642331 1.037659831e-38
-0.1736736 -0.7605561018 -0.02413257957 1.037659831e-38
-0.3889395297 -0.216402024 -0.08976636827 1.037659831e-38
-0.004341637716 -0.2564811409 0.2378825396 1.037659831e-38
-0.1616915911 -0.1864415556 -0.2212873995 1.037659831e-38
-0.4553183317 -0.2376009822 0.04100418091 1.037659831e-38
0.00433659181 -0.2883090973 0.3444389403 1.037659831e-38
-0.4450561106 -0.2323216051 0.005933277309 1.056062664e-38
-0.3773043156 -0.214116171 -0.1020787135 1.056062664e-38
-0.3475509882 -0.768609941 -0.03382831812 1.056062664e-38
-0.4101504385 -0.2254640311 -0.03100379556 1.056062664e-38
-0.4443696141 -0.2338183671 0.01731255651 1.056062664e-38
-0.1767585278 -0.09624598175 0.1776560843 1.056062664e-38
-0.01623703167 -0.7443107367 -0.08177945018 1.056062664e-38
0.1138100177 -0.7236565948 -0.1830774546 1.056062664e-38
-0.1724802405 -0.4015056491 0.2488115728 1.074429623e-38
0.0841813311 -0.1120496318 -0.1498820782 1.074429623e-38
-0.4539452791 -0.2405945063 0.06376279891 1.074429623e-38
-0.3345426917 -0.769317627 -0.02338209748 1.074429623e-38
-0.003915267065 -0.7435216904 -0.08271250874 1.074429623e-38
0.008209228516 -0.3096597493 0.3713403642 1.074429623e-38
0.199389711 -0.1401652247 -0.1613732874 1.074429623e-38
0.005920547992 -0.2512017488 0.2028115988 1.074429623e-38
-0.1137776747 -0.1802916378 -0.2477782071 1.092796582e-38
0.1261317432 -0.7228674889 -0.1840105057 1.092796582e-38
-0.1021424308 -0.1780057847 -0.2600905299 1.092796582e-38
-0.375931263 -0.2171096802 -0.07932014763 1.092796582e-38
-0.2215875238 -0.7667059898 0.002358272672 1.092796582e-38
-0.06723675877 -0.1711482108 -0.2970275879 1.092796582e-38
-0.281476438 -0.2018163353 -0.1550603509 1.092796582e-38
-0.3215344548 -0.7700252533 -0.01293587685 1.092796582e-38
-0.1723005623 -0.7635496259 -0.001373961568 1.111163541e-38
0.2000762224 -0.1416619867 -0.1499939859 1.111163541e-38
0.07959082723 -0.7320109606 -0.134761095 1.111163541e-38
-0.005591439083 -0.2473025918 0.2358111441 1.111163541e-38
0.008666604757 -0.257188797 0.2483287752 1.111163541e-38
0.1340315938 -0.116575025 -0.1629222035 1.111163541e-38
-0.2962044477 -0.7699438334 -0.003422662616 1.111163541e-38
0.001713763922 -0.2761370242 0.3196089566 1.111163541e-38
0.05897458643 -0.1059460342 -0.1387080848 1.1295305e-38
-0.4091596603 -0.7725554705 -0.02916303277 1.1295305e-38
0.09583926946 -0.4304379821 -0.2710635662 1.1295305e-38
-0.1786948442 -0.08557067066 0.1642054021 1.1295305e-38
0.08224501461 -0.1013743207 -0.1633327752 1.1295305e-38
-0.2568329573 -0.2002381384 -0.156926468 1.1295305e-38
0.01046238095 -0.3403868973 0.3341087997 1.1295305e-38
-0.3738717437 -0.2215999663 -0.04518225044 1.1295305e-38
0.1081383303 -0.1089746654 -0.1631274968 1.147897319e-38
-0.01083710231 -0.2229584157 0.1861511618 1.147897319e-38
-0.3838296533 -0.7724739909 -0.01964986324 1.147897319e-38
0.003984231502 -0.2405264378 0.1893609017 1.147897319e-38
-0.05336485058 -0.1809296906 0.1899725944 1.147897319e-38
-0.1955710202 -0.7681213617 0.02325072885 1.147897319e-38
-0.2445112169 -0.1994490325 -0.157859534 1.147897319e-38
-0.2831962109 -0.7706514597 0.007023558021 1.147897319e-38
-0.3961514235 -0.7732630968 -0.01871681213 1.166264278e-38
-0.006841244176 -0.2381240129 0.2337397337 1.166264278e-38
0.2473036498 -0.1340153068 -0.1878641099 1.166264278e-38
-0.1948845088 -0.7696180344 0.03463000059 1.166264278e-38
-0.2321894765 -0.1986599416 -0.1587925851 1.166264278e-38
-0.2571797371 -0.7720668316 0.02791601419 1.166264278e-38
0.003420939669 -0.2328446209 0.1986687779 1.166264278e-38
-0.4053448439 -0.2359413505 0.04865121841 1.166264278e-38
-0.4162935615 -0.2397239804 0.07234290242 1.184631237e-38
-0.3950826526 -0.2306619734 0.01358032227 1.184631237e-38
-0.1579193026 -0.7672507763 0.03183083236 1.184631237e-38
-0.02622175589 -0.1977086067 0.1922492832 1.184631237e-38
-0.3943961263 -0.2321587354 0.02495960891 1.184631237e-38
-0.09880895913 -0.4614207149 -0.2519918084 1.184631237e-38
-0.2188414782 -0.772693038 0.04787546396 1.184631237e-38
-0.2924251556 -0.2055989504 -0.1313686967 1.184631237e-38
-0.2558066845 -0.7750603557 0.05067461729 1.202998196e-38
-0.4039718211 -0.2389348745 0.07140983641 1.202998196e-38
-0.004781704396 -0.2426142693 0.2678775787 1.202998196e-38
0.002171138301 -0.2236660719 0.1965973824 1.202998196e-38
-0.4077866673 -0.7755489349 -0.006404474378 1.202998196e-38
-0.05176244676 -0.3752575517 0.2353381813 1.202998196e-38
-0.2200900614 -0.4799870253 -0.2292105556 1.202998196e-38
-0.3448049426 -0.7745969892 0.01168885827 1.202998196e-38
0.1095113605 -0.1119681895 -0.1403689086 1.221365155e-38
-0.3923365772 -0.2366490215 0.05909749866 1.221365155e-38
-0.3492282629 -0.2200217694 -0.04704836383 1.221365155e-38
0.006166998297 -0.2388316691 0.2441859543 1.221365155e-38
-0.3382795453 -0.2162391543 -0.07074004412 1.221365155e-38
-0.07888099551 0.0389848128 0.254080832 1.221365155e-38
-0.3190913498 -0.4201534092 0.2620796561 1.221365155e-38
0.2493631989 -0.1385055929 -0.1537262201 1.221365155e-38
-0.1223270744 -0.7618899941 0.006273090839 1.239732115e-38
-0.2581691444 -0.4147111773 0.246035099 1.239732115e-38
-0.1719537973 -0.1917209327 -0.1862164587 1.239732115e-38
-0.3694484234 -0.7761751413 0.01355496049 1.239732115e-38
-0.006031505764 -0.2334357202 0.2658061683 1.239732115e-38
0.01083691046 -0.4451402426 -0.2624607682 1.239732115e-38
-0.245847404 -0.4139221013 0.2451020479 1.239732115e-38
0.009779484943 -0.7457261086 -0.06088700891 1.239732115e-38
-0.3311101794 -0.7768014073 0.03351436555 1.258099074e-38
-0.3181018829 -0.7775090337 0.04396058619 1.258099074e-38
0.1754187196 -0.7197110653 -0.1877427399 1.258099074e-38
0.000921336934 -0.2144875228 0.1945259869 1.258099074e-38
0.08096386492 -0.735004425 -0.1120025367 1.258099074e-38
0.2384144962 -0.142288208 -0.1300345957 1.258099074e-38
0.226779297 -0.1445740759 -0.1177222282 1.258099074e-38
-0.34343189 -0.7775905132 0.03444741666 1.258099074e-38
-0.3150090873 -0.2116674334 -0.09536471963 1.276466033e-38
-0.3687618971 -0.7776719332 0.02493424714 1.276466033e-38
-0.3259578049 -0.2154500484 -0.07167309523 1.276466033e-38
0.1521482319 -0.7242828608 -0.1631180346 1.276466033e-38
-0.2212039232 -0.4123438895 0.2432359308 1.276466033e-38
-0.3810836077 -0.7784610391 0.02586731315 1.276466033e-38
-0.1325892955 -0.7671693563 0.04134404659 1.276466033e-38
0.2507362068 -0.141499117 -0.1309676468 1.276466033e-38
0.02210121416 -0.7449370027 -0.06182006001 1.294832852e-38
-0.07515612245 -0.3860143423 0.2392756939 1.294832852e-38
-0.07681242377 -0.177924335 -0.2505773902 1.294832852e-38
0.002980880439 -0.218977809 0.2286638767 1.294832852e-38
-0.314322561 -0.2131641954 -0.08398544043 1.294832852e-38
0.0217279233 -0.3566561639 0.2597349286 1.294832852e-38
-0.2187229395 -0.06189903617 0.1721696407 1.294832852e-38
0.003667393699 -0.220474571 0.2400431633 1.294832852e-38
-0.1952242255 -0.1962926537 -0.1615917683 1.313163938e-38
-0.3673888445 -0.7806653976 0.04769280553 1.313163938e-38
0.0003580451012 -0.206805706 0.2038338482 1.313163938e-38
-0.3047443628 -0.4532329142 0.2303324044 1.313163938e-38
-0.03944071755 -0.3744684756 0.2344051152 1.313163938e-38
-0.09370231628 0.05655283481 0.2508710623 1.313163938e-38
-0.01252697036 -0.1999130249 0.2140747905 1.313163938e-38
-0.3670065999 -0.2365675867 0.06861066818 1.313163938e-38
-0.3797106147 -0.7814545631 0.04862588644 1.331530897e-38
-0.09699711204 -0.7618085146 0.01578626037 1.331530897e-38
-0.004658475518 -0.2364292741 0.2885648012 1.331530897e-38
-0.07416547835 -0.4598425031 -0.2538579404 1.331530897e-38
-0.1961330771 -0.4769120216 -0.2424559593 1.331530897e-38
-0.1117181331 -0.1847819239 -0.2136403322 1.331530897e-38
-0.06655927002 0.03977390379 0.2531477809 1.331530897e-38
-0.1231932938 -0.3983492851 0.2450793386 1.331530897e-38
-0.2910521328 -0.2085924745 -0.1086101159 1.349897856e-38
-0.1473103017 -0.1901427358 -0.1880825758 1.349897856e-38
-0.4173623323 -0.782325089 0.04004576802 1.349897856e-38
-0.1676229089 -0.07560302317 0.1612009406 1.349897856e-38
0.2105848491 -0.1240125299 -0.1436905712 1.349897856e-38
0.1411995292 -0.7280654907 -0.1394263804 1.349897856e-38
-0.3341604471 -0.2252197266 -0.00246424973 1.349897856e-38
0.01139534637 -0.3295136094 0.3868624568 1.349897856e-38
-0.002264782786 -0.1946336627 0.1790038943 1.368228942e-38
-0.1233533397 -0.1870677769 -0.2013279796 1.368228942e-38
-0.3013143241 -0.2138718665 -0.07353921235 1.368228942e-38
-0.001578269526 -0.1961303949 0.1903831661 1.368228942e-38
0.03548037261 -0.4435620904 -0.2643268704 1.368228942e-38
-9.932927787e-05 -0.2592766583 0.3268454373 1.368228942e-38
-0.1344169825 0.08172120899 0.2474560291 1.368228942e-38
0.003773307428 -0.2806273103 0.3537468612 1.368228942e-38
-0.03676143289 -0.7548695803 -0.01163759828 1.386595901e-38
-0.3533447981 -0.4578860402 0.2454439104 1.386595901e-38
-0.06115720421 -0.460550189 -0.2434117198 1.386595901e-38
0.006396137178 -0.2927993834 0.3785768449 1.386595901e-38
0.03510948643 -0.7456446886 -0.05137383938 1.386595901e-38
0.02347424068 -0.7479305267 -0.03906150162 1.386595901e-38
-0.05836405978 -0.1442154348 0.1816869825 1.386595901e-38
0.1891134679 -0.7219155431 -0.1659172028 1.386595901e-38
-0.01211794466 -0.7532913685 -0.0135037154 1.404926846e-38
0.1062938869 -0.7349230051 -0.1024893746 1.404926846e-38
-0.2883060575 -0.2145795226 -0.06309293211 1.404926846e-38
-0.06780906022 0.04895247519 0.2510763407 1.404926846e-38
-0.1940794885 -0.06032083929 0.1703035384 1.404926846e-38
0.1827552766 -0.1057368442 -0.1573465317 1.404926846e-38
0.03115522861 -0.3914813101 0.3200913966 1.404926846e-38
-0.229443416 -0.2046469897 -0.1132754013 1.404926846e-38
0.2618081272 -0.1315314472 -0.1339721084 1.423293806e-38
0.2727568448 -0.1277488321 -0.1576637328 1.423293806e-38
-0.001349134371 -0.2500980794 0.3247740269 1.423293806e-38
-0.001455046237 -0.18994537 0.211070329 1.423293806e-38
-0.04702362418 -0.7601488829 0.02343329787 1.423293806e-38
-0.1584813595 -0.4760414958 -0.2338758558 1.423293806e-38
-0.009094400331 -0.2073968351 0.2709712386 1.423293806e-38
-0.01548374351 -0.3713935316 0.2211597264 1.423293806e-38
-0.0007685311139 -0.191442132 0.2224496603 1.441624891e-38
-0.2978817523 -0.2213556617 -0.01664275676 1.441624891e-38
-0.04066597298 0.03217355162 0.2533530593 1.441624891e-38
-0.1591678709 -0.4745447636 -0.2452551275 1.441624891e-38
0.01264514774 -0.3386921585 0.3889338374 1.441624891e-38
-0.264349103 -0.2115045637 -0.07633838803 1.441624891e-38
0.03579600155 -0.7471414208 -0.03999456763 1.441624891e-38
-0.3067709208 -0.2296285629 0.04118676484 1.441624891e-38
-0.1356667727 0.09089977294 0.2453846335 1.459991851e-38
-0.1410431117 -0.08470013738 0.1727855206 1.459991851e-38
-0.1459372789 -0.1931362599 -0.1653239876 1.459991851e-38
-0.2958222032 -0.2258459479 0.01749514043 1.459991851e-38
0.1432904303 -0.08974701911 -0.1586901695 1.459991851e-38
0.2482366115 -0.1231419966 -0.1351104528 1.459991851e-38
0.02145633474 -0.4044424891 0.3458544612 1.459991851e-38
-0.04604230076 -0.1434263438 0.1807539314 1.459991851e-38
-0.1589087099 -0.4098951221 0.2499499023 1.478322936e-38
-0.1492383033 0.09928922355 0.2442462891 1.478322936e-38
0.2021217197 -0.722623229 -0.1554709822 1.478322936e-38
-0.2629760802 -0.2144980878 -0.05357977003 1.478322936e-38
0.1698702574 -0.09884415567 -0.1471056044 1.478322936e-38
-0.05961386114 -0.1350368857 0.179615587 1.478322936e-38
0.2598718107 -0.1208561361 -0.1474227905 1.478322936e-38
0.02484727092 -0.7509240508 -0.01630288363 1.478322936e-38
0.2190340161 -0.1018727869 -0.1715250164 1.496689755e-38
0.03648251668 -0.7486381531 -0.02861522138 1.496689755e-38
0.04597655684 -0.4090493321 0.3233011365 1.496689755e-38
0.003210015595 -0.2729454935 0.3630547523 1.496689755e-38
0.04222715646 -0.3815136552 0.317086935 1.496689755e-38
-0.2616030276 -0.2174916118 -0.03082121164 1.496689755e-38
0.02865562588 -0.373124212 0.3159485757 1.496689755e-38
-0.2814409137 -0.229547143 0.05069997907 1.496689755e-38
-0.02419198677 -0.4581828713 -0.246210888 1.515020841e-38
-0.01752618328 -0.163198784 0.2057891786 1.515020841e-38
-0.001912422478 -0.2424162924 0.334081918 1.515020841e-38
0.1679339409 -0.08816882223 -0.1605562866 1.515020841e-38
0.07207469642 -0.7432773709 -0.05417302251 1.515020841e-38
0.00514633581 -0.2836208344 0.3765054345 1.515020841e-38
-0.01421683468 -0.1768676341 0.2419984788 1.515020841e-38
-0.01683966629 -0.1646955609 0.21716851 1.515020841e-38
-0.2698056996 -0.2272612751 0.03838758171 1.533351927e-38
0.1945137084 -0.09726595879 -0.1489717215 1.533351927e-38
0.01389856823 -0.7547066808 0.007388740778 1.533351927e-38
0.09603164345 -0.7402024269 -0.06741841137 1.533351927e-38
0.1802556813 -0.08737972379 -0.1614893377 1.533351927e-38
-0.01255677361 -0.4558970332 -0.2585232258 1.533351927e-38
-0.003162223846 -0.2332377434 0.3320105076 1.533351927e-38
-0.1561994702 -0.198415637 -0.1302530617 1.533351927e-38
0.002949872985 -0.7584892511 0.03108040988 1.551683013e-38
0.1323103756 -0.736338377 -0.08159686625 1.551683013e-38
-0.05673710629 0.05892013013 0.248071894 1.551683013e-38
0.01458508242 -0.756203413 0.01876801252 1.551683013e-38
-0.01090748981 -0.1905364692 0.2782077789 1.551683013e-38
-0.08388020098 0.07569904625 0.2457952052 1.551683013e-38
-0.09733682871 -0.1884831041 -0.1804355085 1.551683013e-38
0.2436774671 -0.10029459 -0.1733911335 1.551683013e-38
-0.004517938942 -0.163906455 0.2162354589 1.570049832e-38
-0.1794699281 -0.202987358 -0.1056283563 1.570049832e-38
-0.09745173156 0.08408850431 0.2446568608 1.570049832e-38
-0.2567974329 -0.2279689312 0.04883386195 1.570049832e-38
0.0007104091346 -0.2545883656 0.3589119315 1.570049832e-38
-0.2439110875 -0.4245973825 0.2585527301 1.570049832e-38
0.06937026978 -0.3982925713 0.3193636239 1.570049832e-38
-0.2136890888 -0.211341694 -0.05731200427 1.570049832e-38
-0.1911051422 -0.205273211 -0.09331601858 1.588380918e-38
0.003896528855 -0.2744422555 0.3744340241 1.588380918e-38
-0.002450954169 0.02536229789 0.2526252866 1.588380918e-38
0.09671815485 -0.7416992188 -0.05603912473 1.588380918e-38
-0.1555129588 -0.1999123991 -0.1188737527 1.588380918e-38
-0.2542076111 -0.4592550993 0.2286715806 1.588380918e-38
-0.1442292333 -0.06484623998 0.1572634131 1.588380918e-38
-0.1953106374 -0.4199442565 0.2434412092 1.588380918e-38
-0.0258691851 -0.3828579485 0.2355434746 1.606712004e-38
-0.008284661919 -0.2027085423 0.3030377328 1.606712004e-38
0.2191572338 -0.0956877619 -0.1508378386 1.606712004e-38
-0.2665293515 -0.4600441754 0.2296046317 1.606712004e-38
0.2559991777 -0.09950549901 -0.1743241847 1.606712004e-38
-0.007140770555 -0.1517343819 0.1914054304 1.606712004e-38
0.08508294076 -0.7439850569 -0.04372680187 1.606712004e-38
-0.003144912422 -0.1668999791 0.2389940172 1.606712004e-38
-0.1787834167 -0.20448412 -0.09424907714 1.625043089e-38
-0.2232647836 -0.218117848 -0.01086176932 1.625043089e-38
-0.09687264264 -0.4720960259 -0.2385411412 1.625043089e-38
0.0618125163 -0.7485567331 -0.01910206676 1.625043089e-38
0.09740466624 -0.743195951 -0.04465985298 1.625043089e-38
0.2573722005 -0.1024990231 -0.1515655965 1.625043089e-38
-0.4657024145 -0.4388011396 0.2753477693 1.625043089e-38
0.02383271232 -0.428984642 0.3293100595 1.625043089e-38
-0.1096217334 -0.4067387581 0.2462176681 1.643374035e-38
0.007585275918 -0.3096633852 0.3023818135 1.643374035e-38
0.2172209322 -0.08501242846 -0.1642885208 1.643374035e-38
0.05204933137 -0.3623674512 0.3120110631 1.643374035e-38
0.02759332769 -0.756911099 0.02921429276 1.643374035e-38
-0.01796624623 -0.1493319571 0.2357842624 1.643374035e-38
0.0142117925 -0.3679226041 0.3403230011 1.643374035e-38
-0.3527815342 -0.465567857 0.236136049 1.643374035e-38
0.07919239998 -0.3791463673 0.3142877519 1.661705121e-38
0.02476567402 -0.4181113243 0.3820637167 1.661705121e-38
0.2696939409 -0.1017099172 -0.1524986625 1.661705121e-38
0.1460051239 -0.7385427952 -0.05977135897 1.661705121e-38
0.05079953372 -0.3531888723 0.3099396527 1.661705121e-38
-0.1993078142 -0.2150428742 -0.02410721779 1.661705121e-38
0.0123283118 -0.3186402917 0.4396161139 1.661705121e-38
-0.142504707 -0.2006200552 -0.108427532 1.661705121e-38
0.05086378381 -0.7523393631 0.004589557648 1.680036207e-38
0.01077139378 -0.3295172453 0.3179039061 1.680036207e-38
-0.1774103791 -0.2074776441 -0.07149045914 1.680036207e-38
0.2547493875 -0.09032694995 -0.1763955951 1.680036207e-38
0.07186987996 -0.4166496992 0.3235064149 1.680036207e-38
-0.1447925121 -0.05716444924 0.1665713042 1.680036207e-38
-0.001912211999 -0.3797830045 0.2222980708 1.680036207e-38
-0.1876725703 -0.2127570212 -0.036419563 1.680036207e-38
-0.1986212879 -0.2165396512 -0.01272788644 1.698367293e-38
0.1939190775 -0.7323929071 -0.08626215905 1.698367293e-38
-0.09119284153 -0.08922553807 0.1597453952 1.698367293e-38
0.086455971 -0.7469785213 -0.02096818388 1.698367293e-38
0.1343699098 -0.7408286333 -0.04745902121 1.698367293e-38
-0.005644517019 -0.1485428512 0.2348512113 1.698367293e-38
0.01107850671 -0.3094617426 0.4375447035 1.698367293e-38
0.01658034697 -0.3615432382 0.3582560122 1.698367293e-38
-0.1583454162 -0.4175769687 0.240642041 1.716698239e-38
-0.07222916186 -0.4705178142 -0.2404072583 1.716698239e-38
-0.06037161499 -0.1861158162 -0.1832346767 1.716698239e-38
0.06437106431 -0.3615783453 0.3110779822 1.716698239e-38
0.0153305456 -0.3523646891 0.3561846018 1.716698239e-38
0.1466916353 -0.740039587 -0.04839208722 1.716698239e-38
-0.1650886536 -0.2066885531 -0.0724235177 1.716698239e-38
0.002083437517 -0.2575818896 0.3816705048 1.716698239e-38
-0.1069125384 -0.1952592432 -0.1339852959 1.735029324e-38
-0.06336326897 -0.1075012237 0.1734013706 1.735029324e-38
-0.008953861892 -0.134874016 0.1986419111 1.735029324e-38
0.0161575973 -0.2813386023 0.295234561 1.735029324e-38
-0.09527728707 -0.1929733902 -0.1462976336 1.735029324e-38
0.03097892553 -0.2989066243 0.2984443009 1.735029324e-38
0.08419160545 -0.4158605933 0.3225733638 1.735029324e-38
0.01040954515 -0.3789938986 0.2213650197 1.735029324e-38
0.006458699703 -0.2942998111 0.3209976256 1.75336041e-38
0.1590133756 -0.7392504215 -0.04932513833 1.75336041e-38
0.02094273083 0.03611904383 0.248687759 1.75336041e-38
0.05223681405 -0.7553328872 0.02734817564 1.75336041e-38
0.02422752604 -0.375013262 0.2638777196 1.75336041e-38
0.1829703748 -0.7361754775 -0.0625705421 1.75336041e-38
0.01408856735 -0.3741076291 0.3196358383 1.75336041e-38
-0.00758083351 -0.1378675401 0.2214005291 1.75336041e-38
0.02238929644 -0.3935691714 0.3986081183 1.771655483e-38
0.01408074051 -0.3431861103 0.3541131914 1.771655483e-38
-0.03694111109 -0.3928255737 0.2385479212 1.771655483e-38
-0.04804988205 -0.1853267252 -0.1841677427 1.771655483e-38
-0.025305897 -0.3905397654 0.2262355983 1.771655483e-38
-0.1178612337 -0.1990418732 -0.1102936491 1.771655483e-38
0.01482791826 -0.3369974196 0.4437589049 1.771655483e-38
0.016017057 -0.3538614511 0.3675638735 1.771655483e-38
-0.01784302108 -0.1431469321 0.2564714253 1.789986569e-38
-0.04827218503 -0.4674428701 -0.2536526322 1.789986569e-38
-0.1835534871 -0.2217375934 0.03185617924 1.789986569e-38
0.003959093243 -0.2759426832 0.3168548048 1.789986569e-38
0.007145211101 -0.2957965434 0.3323768973 1.789986569e-38
0.1117860004 -0.7468971014 -0.01145501435 1.789986569e-38
0.02613870427 -0.4211048484 0.4048223197 1.789986569e-38
0.1186572537 -0.3951361775 0.3156313896 1.789986569e-38
-0.1630291194 -0.2111788243 -0.03828567266 1.808317654e-38
0.0007729716599 -0.2560887933 0.3013326824 1.808317654e-38
-0.09175613523 -0.08154374361 0.1690532863 1.808317654e-38
-0.1453371793 -0.418284595 0.2510882616 1.808317654e-38
-0.07818460464 -0.08993320167 0.1701916307 1.808317654e-38
0.002769950777 -0.2590786517 0.3930497766 1.808317654e-38
-0.08762961626 0.1032347232 0.2395809889 1.808317654e-38
-0.1938156933 -0.2270169705 0.06692713499 1.808317654e-38
0.1596999019 -0.7407472134 -0.03794580698 1.826612727e-38
-0.07265651971 -0.4043714404 0.2434184998 1.826612727e-38
0.01639455929 -0.3662278354 0.3951480687 1.826612727e-38
0.009081531316 -0.3064718843 0.3458275795 1.826612727e-38
0.1199070588 -0.4043147266 0.3177027702 1.826612727e-38
-0.1404451579 -0.2051103413 -0.07428963482 1.826612727e-38
-0.1055395082 -0.1982527673 -0.1112267002 1.826612727e-38
-0.1171747223 -0.2005386353 -0.09891436249 1.826612727e-38
-0.1712317616 -0.2209484875 0.03092312813 1.844943813e-38
-0.317278266 -0.4370137751 0.2548431754 1.844943813e-38
-0.3049565256 -0.4362246692 0.2539101243 1.844943813e-38
0.06062165648 -0.3340426683 0.3048637807 1.844943813e-38
-0.002413146198 -0.2362349331 0.2858105898 1.844943813e-38
0.2076138258 -0.7345973253 -0.06443665922 1.844943813e-38
0.1959786117 -0.7368831635 -0.05212432146 1.844943813e-38
-0.004852091894 -0.2101923525 0.3599342108 1.844943813e-38
-0.3042699993 -0.4377214015 0.2652894258 1.863274899e-38
-0.06102130935 -0.4020856321 0.231106177 1.863274899e-38
-0.01177115552 -0.1814626604 -0.1983462274 1.863274899e-38
-0.1072640121 -0.06247894466 0.1544642448 1.863274899e-38
-0.2426612824 -0.4337759316 0.2606241107 1.863274899e-38
0.01551442966 -0.3384941816 0.4551381767 1.863274899e-38
0.0234801136 -0.2438352704 0.2860158682 1.863274899e-38
0.02560055256 -0.3780067861 0.2866362929 1.863274899e-38
0.0124690868 -0.3834841549 0.2555028498 1.881569971e-38
0.1025860533 -0.3683896065 0.3103502393 1.881569971e-38
-0.1048529968 -0.1997495294 -0.09984742105 1.881569971e-38
-0.0128264958 -0.113523379 0.1717405468 1.881569971e-38
-0.1065775007 -0.0639757067 0.1658435315 1.881569971e-38
-0.1164882109 -0.2020353973 -0.08753508329 1.881569971e-38
0.01844312437 0.05447616428 0.2445449531 1.881569971e-38
-0.09300594032 -0.07236519456 0.1669818759 1.881569971e-38
-0.1390721351 -0.2081038654 -0.05153107271 1.899901057e-38
-0.08887940645 0.1124132872 0.2375095934 1.899901057e-38
-0.06994728744 -0.1928919554 -0.1367844641 1.899901057e-38
-0.05831207335 -0.1906060874 -0.1490968019 1.899901057e-38
0.2438925654 -0.7307332754 -0.07861511409 1.899901057e-38
-0.001040117815 -0.2392284572 0.3085691929 1.899901057e-38
-0.02571151219 -0.1066306829 0.1819814742 1.899901057e-38
0.06919397414 -0.3057178855 0.2977165282 1.899901057e-38
-0.01191084459 -0.1689878404 0.3175106943 1.91819627e-38
0.004082318395 -0.2697576284 0.3375419676 1.91819627e-38
0.1254807562 -0.7491015196 0.01037049294 1.91819627e-38
-0.09253123403 -0.1989604235 -0.1007804796 1.91819627e-38
0.1028967798 -0.7551699877 0.0463745147 1.91819627e-38
0.1145320535 -0.7528841496 0.03406216204 1.91819627e-38
-0.2769147456 -0.4715085924 0.2439883947 1.91819627e-38
0.001014787704 -0.4642865062 -0.2573848963 1.91819627e-38
-0.009393924847 -0.1210071817 0.228636995 1.936527215e-38
-0.156850487 -0.2246496677 0.06412796676 1.936527215e-38
0.2445790768 -0.7322300076 -0.06723582745 1.936527215e-38
0.01614810526 -0.3785979152 0.3537736833 1.936527215e-38
0.2329438627 -0.7345158458 -0.05492348969 1.936527215e-38
-0.3015582263 -0.4730867743 0.245854497 1.936527215e-38
0.0205762051 -0.3767088354 0.405844599 1.936527215e-38
0.09776314348 -0.4242500365 0.3237116933 1.936527215e-38
0.004142981023 -0.2620721757 0.4158084095 1.954822428e-38
-0.1694173366 -0.4275445938 0.2436464876 1.954822428e-38
0.1268537939 -0.7520951033 0.03312911093 1.954822428e-38
-0.1151151732 -0.2050289214 -0.0647764653 1.954822428e-38
0.01384211704 -0.386477679 0.2782614827 1.954822428e-38
0.01402303018 -0.4649941325 -0.2469386607 1.954822428e-38
0.04308661073 0.05605436116 0.242678836 1.954822428e-38
0.06419476122 -0.2690036595 0.2894309163 1.954822428e-38
0.2569007874 -0.7314409018 -0.06816889346 1.973153514e-38
0.1501242071 -0.7475233078 0.008504375815 1.973153514e-38
-0.1034799665 -0.2027430534 -0.07708880305 1.973153514e-38
0.01239087433 -0.3201407194 0.3820368946 1.973153514e-38
-0.1363260746 -0.2140909135 -0.006013892591 1.973153514e-38
0.002893177792 -0.2528936267 0.413736999 1.973153514e-38
0.06294496357 -0.2598251104 0.2873595059 1.973153514e-38
-0.003539724275 -0.2208713293 0.3044264019 1.973153514e-38
0.1458003223 -0.4119150937 0.3179080784 1.991448586e-38
-0.006665181369 -0.1933320165 0.3671706915 1.991448586e-38
0.1049563289 -0.7596603036 0.08051240444 1.991448586e-38
-0.1445287317 -0.2238605767 0.06319490075 1.991448586e-38
-0.04121939093 -0.08756590635 0.1673924476 1.991448586e-38
0.1272295713 -0.3668114245 0.3084841073 1.991448586e-38
0.02819824591 -0.4255951345 0.4389601648 1.991448586e-38
0.2692225575 -0.7306517959 -0.06910194457 1.991448586e-38
0.1980381608 -0.7413734198 -0.01798641682 2.009743799e-38
0.01507436857 -0.3246273398 0.4851332903 2.009743799e-38
-0.1570956111 -0.4267555177 0.2427134365 2.009743799e-38
0.02001291513 -0.3690270185 0.4151524603 2.009743799e-38
-0.01532610226 -0.09516625851 0.1675977409 2.009743799e-38
0.2575873137 -0.7329376936 -0.05678960681 2.009743799e-38
-0.005476040766 -0.2101960182 0.2909756601 2.009743799e-38
0.1398620307 -0.7528027296 0.04357533157 2.009743799e-38
0.2459521145 -0.7352235317 -0.04447720945 2.028074885e-38
0.0212627165 -0.3782055676 0.4172238708 2.028074885e-38
-0.05625253171 -0.1950963736 -0.1149589345 2.028074885e-38
-0.009711613879 -0.1859529465 -0.1642083526 2.028074885e-38
0.01557699591 -0.3399945796 0.3975589871 2.028074885e-38
-0.002853209153 -0.2223680913 0.3158056736 2.028074885e-38
0.117278114 -0.7588711977 0.07957935333 2.028074885e-38
0.02588054538 -0.1805921346 -0.1897660792 2.028074885e-38
-0.1137421504 -0.2080224305 -0.0420179069 2.046369957e-38
-0.009851301089 -0.1734781265 0.3516485989 2.046369957e-38
-0.05479092151 -0.07917645574 0.1662541032 2.046369957e-38
0.2103598863 -0.7405843735 -0.01891946793 2.046369957e-38
-0.08372847736 -0.4143390954 0.2464229763 2.046369957e-38
-0.02958414517 -0.08528004587 0.1550801098 2.046369957e-38
-0.1328935027 -0.2215747237 0.05088256299 2.046369957e-38
-0.004789525643 -0.2116927803 0.3023549914 2.046369957e-38
-0.1564090997 -0.42825225 0.2540927231 2.06466517e-38
0.02763495594 -0.4179133475 0.4482680559 2.06466517e-38
0.2466386259 -0.7367203236 -0.0330979377 2.06466517e-38
0.1870894581 -0.7451560497 0.005705207586 2.06466517e-38
-0.1123691127 -0.2110159695 -0.01925928891 2.06466517e-38
-0.02336957864 -0.4012150466 0.2396862805 2.06466517e-38
-0.09047168493 -0.2034507096 -0.06664258242 2.06466517e-38
-0.0424691923 -0.07838735729 0.1653210521 2.06466517e-38
-0.01759657077 -0.1307768524 0.2978458107 2.082996116e-38
0.1531228423 -0.3744117618 0.3086893857 2.082996116e-38
-0.02615157515 -0.09276385605 0.2119765729 2.082996116e-38
0.2350034118 -0.7390061617 -0.02078559995 2.082996116e-38
-0.1440873742 -0.4274631441 0.253159672 2.082996116e-38
-0.07029880583 -0.06011165306 0.1516650766 2.082996116e-38
0.02194923162 -0.3797023296 0.4286031425 2.082996116e-38
0.1704437733 -0.4103369117 0.3160419464 2.082996116e-38
0.0004561319947 -0.2360369265 0.3520149291 2.101291328e-38
0.165192008 -0.7527213097 0.05308848619 2.101291328e-38
-0.07140672207 -0.4135499895 0.2454898953 2.101291328e-38
0.01440540701 -0.394159466 0.2689535916 2.101291328e-38
-0.01691005751 -0.1322736144 0.3092250824 2.101291328e-38
-0.0001697167754 -0.2268547416 0.4189020693 2.101291328e-38
-0.01041459106 -0.1657963246 0.3609564602 2.101291328e-38
0.001122187823 0.0904012844 0.2371923923 2.101291328e-38
0.08633861691 -0.2490683496 0.2834219933 2.119586541e-38
-0.08909866214 -0.2064442337 -0.04388402402 2.119586541e-38
0.003659565002 -0.1895530373 0.2745205164 2.119586541e-38
-0.3406719267 -0.4477705359 0.2587807178 2.119586541e-38
0.007452324033 -0.2757410407 0.4520176351 2.119586541e-38
-0.2906984389 -0.4461108744 0.2664277554 2.119586541e-38
0.1549298018 -0.7580006719 0.08815944195 2.119586541e-38
-0.006541956216 -0.1871469617 0.3878578842 2.119586541e-38
-0.3529936671 -0.4485596418 0.259713769 2.137881613e-38
-0.254419744 -0.4422468543 0.2522493005 2.137881613e-38
0.03957536072 -0.1827965379 -0.1679405868 2.137881613e-38
0.0295528844 -0.1971533895 0.2747257948 2.137881613e-38
-0.02477854863 -0.09575737268 0.2347351313 2.137881613e-38
-0.2660549581 -0.4445326924 0.2645616531 2.137881613e-38
0.09901294857 -0.4334286153 0.3257831037 2.137881613e-38
-0.2297762632 -0.4406686723 0.2503831983 2.137881613e-38
0.005578573793 -0.2665661275 0.3809877634 2.156176826e-38
0.02138594165 -0.3720205426 0.4379110336 2.156176826e-38
-0.3776371479 -0.4501378238 0.261579901 2.156176826e-38
-0.01166439336 -0.1566177756 0.3588850796 2.156176826e-38
-0.08512012661 -0.04254364967 0.1484553218 2.156176826e-38
0.01882377639 -0.3521630168 0.4913474917 2.156176826e-38
0.00620251894 -0.2665624619 0.4499462247 2.156176826e-38
0.03001133725 -0.4424555004 0.4317236841 2.156176826e-38
-0.07086208463 -0.05242986232 0.1609729528 2.174471899e-38
0.008764687926 -0.2864199877 0.3965098262 2.174471899e-38
-0.2167680115 -0.4413762987 0.2608294189 2.174471899e-38
0.2014707327 -0.7488572598 0.03891004622 2.174471899e-38
0.0005167964846 -0.2283514738 0.4302813411 2.174471899e-38
0.02900798619 -0.4209068716 0.471026659 2.174471899e-38
0.1925876737 -0.3904016018 0.3100330234 2.174471899e-38
-0.01553702727 -0.1352671385 0.3319836855 2.174471899e-38
0.1113346741 -0.4326395094 0.3248500526 2.192767111e-38
-0.0302360151 -0.1965117007 -0.09406649321 2.192767111e-38
-0.2510214746 -0.4791089296 0.2441936731 2.192767111e-38
0.01982712746 -0.3737116456 0.4520445168 2.192767111e-38
0.05258360505 -0.1835042238 -0.1574943364 2.192767111e-38
0.1493734121 -0.3468761146 0.3024751842 2.192767111e-38
-0.008538935333 -0.1841570884 0.29614079 2.192767111e-38
-0.01976202056 -0.06613384932 0.1500042528 2.192767111e-38
0.09616079181 -0.2299221456 0.2783461213 2.211062324e-38
0.005015280098 -0.2588843107 0.3902956247 2.211062324e-38
0.129552871 -0.2925938368 0.2909798324 2.211062324e-38
0.2726550698 -0.7381355762 -0.01220548153 2.211062324e-38
0.0172746852 -0.3939614892 0.3351579309 2.211062324e-38
0.009451203048 -0.2879167497 0.4078891277 2.211062324e-38
0.002453112975 -0.2390267849 0.4437320232 2.211062324e-38
-0.007852422073 -0.1856538504 0.3075200617 2.211062324e-38
0.02988811582 -0.4486405253 0.4110365212 2.229357396e-38
-0.02865117975 -0.0744067505 0.2078337669 2.229357396e-38
-0.05281995982 -0.2025801837 -0.0580624789 2.229357396e-38
0.1283030808 -0.2834152877 0.288908422 2.229357396e-38
0.1913378835 -0.3812230527 0.3079616427 2.229357396e-38
0.06776786596 -0.2039646655 0.2739980221 2.229357396e-38
-0.001982809976 -0.2099943757 0.42613855 2.229357396e-38
-0.006965557113 -0.1919399798 -0.1186911687 2.229357396e-38
0.05419634283 -0.1955751926 0.2728596926 2.247652609e-38
0.08133940399 -0.2123541236 0.2751363814 2.247652609e-38
0.2966121435 -0.7350606918 -0.0254508853 2.247652609e-38
0.06329755485 -0.4449744523 0.3306536973 2.247652609e-38
0.02063686773 -0.3690233827 0.484111011 2.247652609e-38
-0.001377418637 0.1087584049 0.2330495864 2.247652609e-38
0.2261141837 -0.747279048 0.0370439291 2.247652609e-38
-0.01940966398 -0.1139164865 0.3050822616 2.247652609e-38
-0.0122276824 -0.1489359736 0.368192941 2.265947681e-38
-0.01701596379 -0.07212089747 0.1955214292 2.265947681e-38
0.28497684 -0.73734653 -0.01313853264 2.265947681e-38
0.2493846714 -0.7427073717 0.01241925359 2.265947681e-38
0.2377494723 -0.7449932098 0.02473159134 2.265947681e-38
-0.01370662171 -0.08578972518 0.2317306697 2.265947681e-38
-0.003232611343 -0.2008158267 0.4240671396 2.265947681e-38
-0.03127401695 -0.0622346364 0.1830037385 2.265947681e-38
-0.007774448022 -0.111630626 0.2927699387 2.284242894e-38
0.2733415961 -0.7396323681 -0.0008261948824 2.284242894e-38
-4.649348557e-05 -0.2206696868 0.4395892322 2.284242894e-38
-0.07403087616 -0.2116421759 0.0007001012564 2.284242894e-38
0.1418746114 -0.2918047607 0.2900467813 2.284242894e-38
0.01013771445 -0.2894135118 0.4192683995 2.284242894e-38
-0.006418731064 -0.1809619367 0.408545047 2.284242894e-38
0.1100144908 -0.3910390139 0.4148352742 2.284242894e-38
-0.02727815136 -0.07740027457 0.2305923253 2.302537966e-38
0.03138436377 -0.4454490244 0.4544822574 2.302537966e-38
0.1406247914 -0.2826261818 0.2879753709 2.302537966e-38
0.2068457305 -0.400287807 0.3225506544 2.302537966e-38
0.2036596239 -0.3804339468 0.3070285618 2.302537966e-38
0.01332383975 -0.3092674017 0.4347905517 2.302537966e-38
-0.03458335623 -0.04856580496 0.146794498 2.302537966e-38
0.2158519924 -0.7525584102 0.07211488485 2.302537966e-38
-0.06239563227 -0.2093563229 -0.01161224395 2.320833179e-38
0.03937500715 -0.1780071706 0.2696499228 2.320833179e-38
1.607090235e-05 -0.2221701145 0.3820100129 2.320833179e-38
0.01207403839 -0.3000888526 0.4327191412 2.320833179e-38
-0.01241157018 -0.1628064662 0.2692393661 2.320833179e-38
-0.02817646973 -0.2010019869 -0.05992859229 2.320833179e-38
-0.008415710181 -0.1779720634 0.3168279529 2.320833179e-38
0.006325747818 -0.2603774369 0.4706334472 2.320833179e-38
0.1963371038 -0.4179372489 0.3162472248 2.339092378e-38
-0.002546098083 -0.2023125887 0.4354464114 2.339092378e-38
0.08794102073 -0.4433962703 0.3287875652 2.339092378e-38
0.1727671325 -0.3361193538 0.2985376716 2.339092378e-38
-0.07084342837 -0.4212318063 0.236182034 2.339092378e-38
0.02788140625 -0.4055432677 0.4896424115 2.339092378e-38
0.02026718855 -0.3875784874 0.422049433 2.339092378e-38
0.02326606773 0.1103366017 0.2311834693 2.339092378e-38
0.2623929381 -0.7434149981 0.02286547422 2.348204041e-38
0.01565520838 -0.4033380449 0.271025002 2.348204041e-38
0.09241138399 -0.2023864686 0.2721319199 2.348204041e-38
0.07883980125 -0.1939969957 0.2709935606 2.348204041e-38
0.2024098039 -0.3712553978 0.3049571514 2.348204041e-38
0.3096203208 -0.7357683182 -0.01500466466 2.348204041e-38
-0.01085465215 -0.1519295126 0.3909515738 2.348204041e-38
-0.01735012047 -0.1184067726 0.3392201662 2.348204041e-38
-0.01103853993 -0.1657999903 0.2919979692 2.348132155e-38
-0.02852795832 -0.06822168082 0.2285209149 2.348132155e-38
0.2398090065 -0.7494834661 0.05886942148 2.348132155e-38
-0.003092072904 -0.1282930076 0.3517377973 2.348132155e-38
0.2979851365 -0.7380541563 -0.002692326903 2.348132155e-38
0.1606216431 -0.4294831157 0.3211178184 2.348132155e-38
0.008324630558 -0.2725531757 0.4265049398 2.348132155e-38
-0.01048453152 -0.4081077874 0.2294453382 2.348132155e-38
0.03558779508 0.1111256927 0.2302504182 2.348060128e-38
0.2630794346 -0.7449117303 0.03424474597 2.348060128e-38
0.1260856688 -0.4177855849 0.4201164246 2.348060128e-38
0.02826863155 -0.458017081 0.3469035327 2.348060128e-38
-0.01096056588 -0.09177677333 0.2772478461 2.348060128e-38
0.1331259906 -0.2275548577 0.2755469382 2.348060128e-38
0.02663160488 -0.3963647187 0.4875710011 2.348060128e-38
-0.0202020891 -0.05226698518 0.179999277 2.348060128e-38
-0.0005472190678 -0.2144882977 0.391317904 2.347952368e-38
-0.02680344321 -0.203995496 -0.03717003018 2.347952368e-38
-0.002483533695 -0.2038129866 0.3778672218 2.347952368e-38
-0.005028391257 -0.1176176742 0.3382871151 2.347952368e-38
0.1863386631 -0.3445087969 0.2996760011 2.347952368e-38
0.1183046475 -0.2099868357 0.2723371983 2.347952368e-38
0.06401845813 -0.1764289737 0.2677838206 2.347952368e-38
-0.04870087653 -0.211560756 0.01021326333 2.347952368e-38
-0.004419852048 -0.1931376457 0.3644165099 2.347880341e-38
0.2288602293 -0.7532660961 0.08256110549 2.347880341e-38
0.00132653676 -0.2236632109 0.4623478353 2.347880341e-38
0.0209537074 -0.3890752494 0.4334287643 2.347880341e-38
0.0185244903 -0.4031400383 0.3372293413 2.347880341e-38
0.1094511971 -0.3833572268 0.4241431355 2.347880341e-38
0.001389097422 -0.2251636386 0.4047685862 2.347880341e-38
-0.01027405076 -0.09327352792 0.2886271179 2.347880341e-38
-0.3271003962 -0.4561600089 0.2599190474 2.347808455e-38
-0.008979000151 -0.1702902615 0.3261358142 2.347808455e-38
-0.03377361968 -0.04387753457 0.1788609326 2.347808455e-38
0.1479473114 -0.2451228797 0.2787567079 2.347808455e-38
-0.01859992184 -0.1092282236 0.3371487558 2.347808455e-38
-0.04732784629 -0.21455428 0.03297187388 2.347808455e-38
-0.01516823284 -0.2017096579 -0.04948237166 2.347808455e-38
0.1475430131 -0.3963535428 0.4027282298 2.347808455e-38
7.673352957e-05 -0.2144846618 0.4602764249 2.347700555e-38
0.1466975212 -0.2359443009 0.2766852975 2.347700555e-38
0.1138871238 -0.4123896658 0.4417366385 2.347700555e-38
-0.253169924 -0.4514254034 0.2543207109 2.347700555e-38
0.1075148806 -0.372681886 0.4106924534 2.347700555e-38
-0.004359187558 -0.1854522228 0.4426829517 2.347700555e-38
0.002523709089 -0.4088154137 0.2398915589 2.347700555e-38
0.03113792092 -0.4578191042 0.4131079316 2.347700555e-38
0.03687540442 -0.1596500725 0.2655071318 2.347628668e-38
0.2018465102 -0.363573581 0.3142650425 2.347628668e-38
0.1974105835 -0.334541142 0.2966715693 2.347628668e-38
0.009697657079 -0.2755466998 0.4492634833 2.347628668e-38
0.01166859642 -0.1535464525 0.2766811252 2.347628668e-38
0.03263416886 -0.4546275735 0.4565536678 2.347628668e-38
0.008447851986 -0.2663681209 0.4471920729 2.347628668e-38
0.1763402522 -0.2710803449 0.2831047773 2.347628668e-38
-0.01152385306 -0.08409497887 0.2865557373 2.347520768e-38
0.01663318276 -0.3229362369 0.4709997773 2.347520768e-38
0.5086830258 -0.1296163201 -0.1826283336 2.347520768e-38
0.02330387011 -0.1512605995 0.2643687725 2.347520768e-38
-0.2757881582 -0.4868721962 0.2253726423 2.347520768e-38
0.1145736352 -0.4138864279 0.4531159699 2.347520768e-38
0.2025330365 -0.365070343 0.3256443739 2.347520768e-38
-0.02007886022 -0.04608196393 0.2006864995 2.347520768e-38
0.1022335216 -0.1832402498 0.2670560479 2.347448882e-38
0.04575398564 -0.1962673962 -0.06552694738 2.347448882e-38
-0.01676951908 -0.05975079164 0.23689574 2.347448882e-38
-0.3127533793 -0.4892395139 0.2281717956 2.347448882e-38
0.2418685555 -0.7539737225 0.09300732613 2.347448882e-38
0.02257318422 -0.3796986938 0.497561723 2.347448882e-38
0.002092923969 -0.1603226066 0.3231313527 2.347448882e-38
0.02356871217 -0.3703258038 0.4927360713 2.347448882e-38
-0.02771821618 -0.06353341788 0.260587424 2.347340982e-38
-0.00042399019 -0.2083032727 0.4120050967 2.347340982e-38
0.03411871195 -0.1985532641 -0.05321460217 2.347340982e-38
0.02467690036 -0.1542541236 0.2871274054 2.347340982e-38
0.09366787225 -0.1901174933 -0.09201773256 2.347340982e-38
0.115400739 -0.3428603709 0.3921658993 2.347340982e-38
-0.01654037833 -0.1137185097 0.3712866604 2.347340982e-38
-0.2744151354 -0.4898656905 0.2481311858 2.347340982e-38
0.3116798997 -0.7402585745 0.01913323998 2.347269095e-38
-0.2867368758 -0.4906547964 0.2490642369 2.347269095e-38
0.0155319795 -0.4095230699 0.2503377795 2.347269095e-38
-0.004922477528 -0.177770406 0.451990813 2.347269095e-38
-0.2990586162 -0.4914439023 0.2499973178 2.347269095e-38
-0.02440887503 -0.07720224559 0.2967966497 2.347269095e-38
