# .PCD v0.7 - Point Cloud Data file format
VERSION 0.7
FIELDS x y z rgb
SIZE 4 4 4 4
TYPE F F F F
COUNT 1 1 1 1
WIDTH 830
HEIGHT 1
VIEWPOINT 0 0 0 1 0 0 0
POINTS 830
DATA ascii
-0.3129309118 -0.3395556808 0.06571647525 5.409984573e-39
-0.2718652487 -0.2227709889 0.004249744117 5.409984573e-39
-0.2838332951 -0.4610784948 0.3802206814 5.409984573e-39
-0.2864561379 -0.4489064217 0.3553907275 5.409984573e-39
-0.2675514519 -0.310357511 0.3328997791 5.409984573e-39
-0.1184180602 -0.4092946351 0.2994207442 5.409984573e-39
-0.3130890131 -0.3410496116 0.3428462148 5.409984573e-39
-0.1548957676 -0.2213563025 0.316305846 5.594012897e-39
-0.1313914359 -0.4132781029 -0.008842430077 5.594012897e-39
-0.299254775 -0.2183621377 -0.03940131515 5.594012897e-39
-0.1366892904 -0.4505805671 0.3323310614 5.594012897e-39
-0.3041467667 -0.4315363765 0.2859765589 5.594012897e-39
-0.3131949008 -0.2808968723 0.229142502 5.594012897e-39
-0.3314488232 -0.2558450401 0.169036299 5.594012897e-39
-0.3415001035 -0.2210235596 0.03972129524 5.594012897e-39
-0.3042699993 -0.4377214015 0.2652894258 5.77804122e-39
-0.3347581625 -0.2421761751 0.1328269839 5.77804122e-39
-0.2256710827 -0.7854561806 0.1398428082 5.77804122e-39
-0.1819864362 -0.2802974284 -0.1885881722 5.77804122e-39
-0.3227357268 -0.2923641503 -0.02222418413 5.77804122e-39
-0.3136347532 -0.4043967128 0.1473536938 5.77804122e-39
-0.312648952 -0.3549163938 0.312851131 5.77804122e-39
-0.2116290927 -0.2451613843 -0.1950076669 5.77804122e-39
-0.2996406853 -0.3556240797 0.3232973516 5.962428276e-39
-0.2871426642 -0.4474096596 0.3440113664 5.962428276e-39
-0.1867173612 -0.7321176529 -0.2403391004 5.962428276e-39
-0.3408135772 -0.2225203216 0.05110057443 5.962428276e-39
0.294285208 -0.1617783457 0.2364686728 5.962428276e-39
-0.2126628458 -0.7861639261 0.1502890289 5.962428276e-39
-0.305185616 -0.3822569847 0.1195192635 5.962428276e-39
-0.1746998578 -0.1857338846 -0.2317336202 5.962428276e-39
-0.103227675 -0.3852678835 -0.1388852149 6.1464566e-39
-0.3181765676 -0.3152115345 0.01605648361 6.1464566e-39
-0.1171682552 -0.4184731841 0.3014921248 6.1464566e-39
-0.303302139 -0.4315392673 0.02022613958 6.1464566e-39
-0.2465352416 -0.2226895541 0.01376290619 6.1464566e-39
-0.1846623123 -0.1693656445 -0.2143780738 6.1464566e-39
-0.2263575941 -0.7839594483 0.1284635365 6.1464566e-39
-0.3056430221 -0.4347279072 0.2425308526 6.1464566e-39
-0.1664261669 -0.2314258218 0.1105781943 6.330484923e-39
-0.1070348769 -0.1164466515 0.2888551056 6.330484923e-39
-0.1809129119 -0.1969013214 -0.2081638575 6.330484923e-39
-0.1629048139 -0.2573628426 0.3141452372 6.330484923e-39
-0.3191270828 -0.2550559342 0.168103233 6.330484923e-39
-0.1004816219 -0.3912549019 -0.09336805344 6.330484923e-39
0.2677054405 -0.1526812315 0.2248841226 6.330484923e-39
-0.2915785909 -0.4183772206 0.3264178932 6.330484923e-39
-0.145286262 -0.1669022143 -0.3597050309 6.514514648e-39
-0.1396873891 -0.1540314257 0.2885606289 6.514514648e-39
-0.1191929504 -0.4186740518 -0.0304626748 6.514514648e-39
-0.3075793386 -0.4240525663 0.2290801108 6.514514648e-39
-0.3101493418 -0.3732735217 0.316993922 6.514514648e-39
-0.283446312 -0.3761856258 0.3492657244 6.514514648e-39
-0.3009606302 -0.4513902664 0.3014987111 6.514514648e-39
-0.2904520035 -0.4337408245 0.3078021407 6.514514648e-39
-0.1081209853 -0.4087063968 -0.03346713632 6.698542971e-39
-0.1661929637 -0.7215588689 -0.3104809523 6.698542971e-39
-0.3052733541 -0.4161728024 0.304592371 6.698542971e-39
-0.3133354485 -0.3534196317 0.3014718294 6.698542971e-39
-0.1984101385 -0.06840149313 -0.2371635139 6.698542971e-39
0.2573200464 -0.1641456485 0.2392678559 6.698542971e-39
-0.3081426322 -0.4163708091 0.2383880466 6.698542971e-39
-0.1959105432 -0.08675861359 -0.233020708 6.698542971e-39
-0.3168208599 -0.3845428526 0.1318316013 6.882571295e-39
-0.1888455451 -0.4539349675 0.2698588967 6.882571295e-39
-0.1634469181 -0.7275458574 -0.2649638057 6.882571295e-39
-0.1302648634 -0.4286417067 -0.02745821327 6.882571295e-39
-0.3299880624 -0.2249227166 0.006721735466 6.882571295e-39
-0.3150252998 -0.3303742707 0.3293955326 6.882571295e-39
-0.3039533794 -0.3204066157 0.3263910711 6.882571295e-39
-0.3324346244 -0.3053253293 0.003538866062 6.882571295e-39
-0.09340552241 -0.3661217093 -0.143961072 7.066599618e-39
-0.2928283811 -0.4091986716 0.3243464828 7.066599618e-39
-0.1112187654 -0.3779763281 0.2695148885 7.066599618e-39
-0.3030201793 -0.4468999803 0.2673608065 7.066599618e-39
-0.1382037401 -0.359703511 -0.009891547263 7.066599618e-39
-0.1278183311 -0.348239094 -0.02427531034 7.066599618e-39
-0.264875561 -0.421289295 0.3586896658 7.066599618e-39
-0.2611261606 -0.4488249719 0.3649038672 7.066599618e-39
-0.3129482269 -0.4058934748 0.1587329656 7.250627941e-39
-0.3026156425 -0.4330360293 0.0316054523 7.250627941e-39
-0.3070864379 -0.3993124366 0.3118288517 7.250627941e-39
-0.3142508566 -0.4353218973 0.04391779006 7.250627941e-39
-0.09914906323 -0.08662514389 0.2703285813 7.250627941e-39
-0.309885323 -0.4319323897 0.1535678953 7.250627941e-39
-0.1470099241 -0.1915347576 0.2977792919 7.250627941e-39
-0.1438238174 -0.2113886178 0.3133013844 7.250627941e-39
-0.320112884 -0.3045362234 0.002605807502 7.434656265e-39
-0.3157118261 -0.3288775086 0.3180162013 7.434656265e-39
-0.3231229186 -0.2398903072 0.1205146462 7.434656265e-39
-0.313881427 -0.2794001102 0.2177632302 7.434656265e-39
-0.1842755228 -0.1925100386 -0.1852834076 7.434656265e-39
-0.3015770018 -0.3449487686 0.3098466694 7.434656265e-39
-0.31650424 -0.2672280073 0.1929332018 7.434656265e-39
-0.3140219748 -0.3519228697 0.2900925577 7.434656265e-39
-0.2218917608 -0.2211113572 0.01189679652 7.618684588e-39
-0.126568526 -0.3574176431 -0.02220390737 7.618684588e-39
-0.3134586811 -0.3596046865 0.2807846963 7.618684588e-39
-0.3113815784 -0.4351238906 0.1101221219 7.618684588e-39
-0.3097621202 -0.425747335 0.1742550582 7.618684588e-39
-0.3077729642 -0.3978156745 0.30044958 7.618684588e-39
0.09657411277 -0.1667221189 0.260705471 7.618684588e-39
-0.3077025712 -0.4302376211 0.2083929479 7.618684588e-39
-0.3293015659 -0.2264194787 0.018101044 7.802712912e-39
-0.2711245716 -0.3753965199 0.3483326435 7.802712912e-39
-0.3115223646 -0.3702799976 0.2942353785 7.802712912e-39
0.08162955195 -0.1553391516 0.2368085682 7.802712912e-39
-0.3216440082 -0.3030366004 0.2569769323 7.802712912e-39
0.09463779628 -0.1560468078 0.2472547889 7.802712912e-39
-0.3103253841 -0.4180655479 0.183562994 7.802712912e-39
-0.3402502835 -0.2302021086 0.04179269448 7.802712912e-39
-0.2886388898 -0.4506011605 0.30056566 7.986382503e-39
-0.2959441245 -0.421766758 0.216767773 7.986382503e-39
-0.3085826933 -0.4025039673 0.2683830857 7.986382503e-39
-0.3286150396 -0.2279162407 0.02948032506 7.986382503e-39
-0.2947646976 -0.3985233307 0.3108958006 7.986382503e-39
-0.2616030276 -0.2174916118 -0.03082121164 7.986382503e-39
-0.3099557161 -0.399510473 0.2456245124 7.986382503e-39
-0.2481178939 -0.4495326281 0.3753500879 7.986382503e-39
-0.1784133017 -0.2152584195 -0.2040210515 8.170410826e-39
-0.2581163049 -0.376104176 0.3587788641 8.170410826e-39
-0.2650355995 -0.2100078017 -0.08771766722 8.170410826e-39
-0.2311987132 -0.7457513809 -0.1569518298 8.170410826e-39
-0.1518328488 -0.2473951876 0.3111407757 8.170410826e-39
-0.169664681 -0.2795083225 -0.1895212382 8.170410826e-39
-0.1545577347 -0.7192729712 -0.3227933347 8.170410826e-39
-0.3122617304 -0.4073902369 0.1701122522 8.170410826e-39
-0.2054864317 -0.2015720308 -0.1265208274 8.35443915e-39
-0.2543669045 -0.403639853 0.3649930954 8.35443915e-39
-0.2965074182 -0.4140849411 0.2260756493 8.35443915e-39
-0.3097092509 -0.3871403635 0.2869988978 8.35443915e-39
-0.264349103 -0.2115045637 -0.07633838803 8.35443915e-39
-0.2556166947 -0.3944613039 0.362921685 8.35443915e-39
-0.1329645365 -0.1661131233 -0.360638082 8.35443915e-39
-0.1498965323 -0.2580704987 0.3245914578 8.35443915e-39
-0.3106422126 -0.398013711 0.2342452407 8.538467473e-39
-0.241078645 -0.2069328427 -0.1009630635 8.538467473e-39
-0.09923181683 -0.4004334807 -0.09129665047 8.538467473e-39
-0.2629760802 -0.2144980878 -0.05357977003 8.538467473e-39
-0.2588028312 -0.374607414 0.3473995924 8.538467473e-39
-0.1685911715 -0.1961122155 -0.2090969235 8.538467473e-39
-0.3017002344 -0.3511337936 0.2891595066 8.538467473e-39
-0.3033900857 -0.3280884027 0.3170831203 8.538467473e-39
-0.1798393875 -0.1135051847 -0.2277395427 8.722137064e-39
-0.3194263577 -0.3060329854 0.0139850881 8.722137064e-39
-0.297950834 -0.3786694705 0.295373708 8.722137064e-39
-0.1504386514 -0.7282535434 -0.2545175552 8.722137064e-39
-0.2400878817 -0.7540242672 -0.09912230819 8.722137064e-39
-0.1064715832 -0.1241284609 0.2795472443 8.722137064e-39
-0.3119451106 -0.2900754213 0.2312138975 8.722137064e-39
-0.1760899872 -0.1410408616 -0.2215253413 8.722137064e-39
-0.2973171473 -0.4187732339 0.1940092146 8.906165387e-39
-0.1748401821 -0.1502194256 -0.2194539309 8.906165387e-39
-0.1485943198 -0.3429691494 -0.175954476 8.906165387e-39
-0.2969647944 -0.4665558636 0.3490872383 8.906165387e-39
-0.1505073011 -0.4545611739 0.2898183465 8.906165387e-39
-0.3251824677 -0.2354000509 0.08637680858 8.906165387e-39
-0.09840473533 -0.3294074535 -0.1522466838 8.906165387e-39
-0.3066994548 -0.3144195676 0.2808738947 8.906165387e-39
-0.3069987297 -0.3653966188 0.1267557442 9.089834978e-39
-0.325868994 -0.2339032888 0.07499746978 9.089834978e-39
-0.2470443845 -0.3661365211 0.3557744026 9.089834978e-39
0.1088958383 -0.1659330279 0.2597724199 9.089834978e-39
-0.1225371435 -0.4003140628 0.2311449796 9.089834978e-39
-0.1938512027 -0.1992861778 -0.1388331652 9.089834978e-39
-0.1521159112 -0.1796654165 -0.267737627 9.089834978e-39
-0.2305122167 -0.7472481132 -0.1455725431 9.089834978e-39
-0.2389822751 -0.4288896918 0.358894974 9.273863302e-39
-0.3145679235 -0.2779033482 0.2063839436 9.273863302e-39
-0.3035133183 -0.3342734575 0.2963959873 9.273863302e-39
-0.2499678135 -0.2152057439 -0.04313354939 9.273863302e-39
0.09395127743 -0.1545500457 0.2358755171 9.273863302e-39
-0.2977572083 -0.4049063623 0.2240042537 9.273863302e-39
-0.3093220592 -0.4396141768 0.1442600191 9.273863302e-39
-0.2160954177 -0.7786800861 0.09339258075 9.273863302e-39
-0.196150735 -0.4251005352 0.1860610694 9.457532893e-39
-0.3404967189 -0.2425721586 0.0004183226265 9.457532893e-39
-0.09539966285 -0.114160791 0.2765427828 9.457532893e-39
-0.3003973663 -0.4590720534 0.2921907902 9.457532893e-39
-0.2506543398 -0.2137089968 -0.05451283231 9.457532893e-39
-0.1430504471 -0.01856323704 -0.2521857917 9.457532893e-39
-0.2896953225 -0.3302928209 0.3389087021 9.457532893e-39
-0.3232989907 -0.2846823335 -0.01291631348 9.457532893e-39
-0.3388068676 -0.2656175792 -0.02750534192 9.641561216e-39
-0.2232647836 -0.218117848 -0.01086176932 9.641561216e-39
-0.14127177 -0.3054658175 -0.185173139 9.641561216e-39
-0.1712317616 -0.2209484875 0.03092312813 9.641561216e-39
-0.1541224122 -0.02853088453 -0.2491813451 9.641561216e-39
-0.2432949692 -0.3936721981 0.3619886339 9.641561216e-39
-0.1418536901 -0.1743860245 -0.302808553 9.641561216e-39
-0.2369595617 -0.215913415 -0.03268732876 9.641561216e-39
-0.2625522316 -0.3470717669 0.3411853909 9.825230807e-39
-0.2936554253 -0.4802247286 0.3852965534 9.825230807e-39
-0.1822159886 -0.1970003098 -0.1511455327 9.825230807e-39
-0.1681805849 -0.3708533943 0.1273877025 9.825230807e-39
-0.2182645053 -0.3072011173 0.3291675448 9.825230807e-39
-0.1400219649 -0.3146443665 -0.1831017435 9.825230807e-39
-0.2277661562 -0.7532351613 -0.1000553668 9.825230807e-39
-0.1709144861 -0.2703297734 -0.1915926337 9.825230807e-39
-0.0843277052 -0.104193151 0.2735383213 1.000925913e-38
-0.2990069985 -0.3957278132 0.2219328433 1.000925913e-38
-0.1429225057 -0.716987133 -0.3351056576 1.000925913e-38
-0.1085848361 0.002161204815 -0.2591277957 1.000925913e-38
-0.1422359794 -0.7184839249 -0.3237263858 1.000925913e-38
-0.253293395 -0.320243746 0.3454174101 1.000925913e-38
-0.3276117146 -0.2494648993 -0.009822610766 1.000925913e-38
-0.3329979181 -0.2976435423 0.01284674369 1.000925913e-38
-0.1401764452 -0.7229741812 -0.2895884812 1.019292872e-38
-0.2853295803 -0.4642699957 0.3367749155 1.019292872e-38
-0.1321885735 -0.2091027498 0.3009890318 1.019292872e-38
-0.2638020515 -0.3378932178 0.3391139805 1.019292872e-38
-0.1600143462 -0.7350296974 -0.2080673426 1.019292872e-38
-0.1404806674 -0.1773795485 -0.2800499797 1.019292872e-38
-0.192478165 -0.2022797018 -0.116074577 1.019292872e-38
-0.313388288 -0.3920266628 0.1887280643 1.019292872e-38
-0.331572026 -0.2620300651 0.1483491361 1.037659831e-38
-0.1388034225 -0.7259677052 -0.2668299079 1.037659831e-38
-0.2116295546 -0.2158319801 -0.02317415923 1.037659831e-38
-0.1633758843 -0.7830075026 0.1465567946 1.037659831e-38
-0.3368705511 -0.2762928903 -0.01405465044 1.037659831e-38
-0.2502304912 -0.346282661 0.3402523398 1.037659831e-38
-0.1374303848 -0.7289612293 -0.2440713346 1.037659831e-38
0.2073465586 -0.1658052802 0.2316207886 1.037659831e-38
-0.2272238284 -0.4204187691 0.3672697842 1.056062664e-38
-0.1486833394 -0.1871492118 -0.2108411789 1.056062664e-38
-0.1675176322 -0.1127160862 -0.2286726087 1.056062664e-38
0.1347891539 -0.17353338 0.2599776983 1.056062664e-38
-0.3206761777 -0.2968544364 0.01191368513 1.056062664e-38
-0.1550195962 -0.2045016587 -0.2079585791 1.056062664e-38
-0.3225596547 -0.2475721538 0.1112067774 1.056062664e-38
-0.1309387684 -0.2182813287 0.3030604422 1.056062664e-38
-0.23040995 -0.4005648792 0.3517476916 1.074429623e-38
-0.3179474175 -0.3691792488 0.1504473537 1.074429623e-38
-0.1506131887 -0.3944084644 0.1761146337 1.074429623e-38
-0.3269251883 -0.2509616315 0.001556670759 1.074429623e-38
-0.1639445275 -0.04767708108 -0.2441054881 1.074429623e-38
-0.1417826861 -0.2298476249 0.1087120771 1.074429623e-38
-0.3048863411 -0.3312799335 0.273637414 1.074429623e-38
-0.1236162484 -0.1807779968 0.2938417792 1.074429623e-38
-0.1612686217 -0.1586088836 -0.2183156013 1.092796582e-38
-0.1375223696 -0.3330014944 -0.1789589375 1.092796582e-38
-0.3173313141 -0.3382540345 0.2538832724 1.092796582e-38
-0.3009433448 -0.3850525022 0.2084821612 1.092796582e-38
-0.1102154255 -0.3995249569 0.2302119285 1.092796582e-38
-0.1479968131 -0.1886459738 -0.1994618624 1.092796582e-38
-0.2266973555 -0.2106340379 -0.0677582249 1.092796582e-38
-0.07200597972 -0.1034040451 0.2726052701 1.092796582e-38
-0.1589455307 -0.1924285889 -0.1757702231 1.111163541e-38
-0.3121211827 -0.3348674178 0.09778290987 1.111163541e-38
-0.3263619244 -0.2586434484 -0.007751214784 1.111163541e-38
-0.1626947224 -0.05685564876 -0.2420340776 1.111163541e-38
-0.1721642911 -0.2611512244 -0.1936640441 1.111163541e-38
-0.06881985813 -0.123257935 0.2881273627 1.111163541e-38
-0.3016298413 -0.3835557401 0.1971028745 1.111163541e-38
-0.1438422203 -0.2253573388 0.0745741874 1.111163541e-38
-0.3164511919 -0.3659877479 0.1938931346 1.1295305e-38
-0.08971393108 -0.152371794 0.2962076664 1.1295305e-38
-0.2964015007 -0.4742376804 0.339779377 1.1295305e-38
-0.2051822245 -0.7471666336 -0.1360593438 1.1295305e-38
-0.1251772791 -0.454479754 0.299331516 1.1295305e-38
-0.2366553098 -0.7615080476 -0.04222585261 1.1295305e-38
-0.1595965475 -0.2186626345 0.01861079037 1.1295305e-38
-0.08896960318 -0.3951541185 -0.1263675839 1.1295305e-38
-0.153769806 -0.2136802375 -0.2058871686 1.147897319e-38
-0.2038091868 -0.7501602173 -0.1133007556 1.147897319e-38
-0.337064147 -0.2500559688 0.05731478333 1.147897319e-38
-0.1106080115 -0.1814856678 0.3042879999 1.147897319e-38
-0.3173668087 -0.3105232716 0.04812296107 1.147897319e-38
-0.1223664582 -0.1899565756 0.2959131896 1.147897319e-38
-0.1445287317 -0.2238605767 0.06319490075 1.147897319e-38
-0.1312872916 -0.7147012949 -0.3474180102 1.147897319e-38
-0.129914254 -0.717694819 -0.3246594369 1.166264278e-38
-0.04667597637 -0.1033226103 0.2821184397 1.166264278e-38
-0.3106952906 -0.2992539704 0.2332853079 1.166264278e-38
-0.2136890888 -0.211341694 -0.05731200427 1.166264278e-38
-0.3263792098 -0.3249811828 0.08526527882 1.166264278e-38
-0.3080724776 -0.3114260733 0.2581152618 1.166264278e-38
-0.318510741 -0.3614974618 0.1597552299 1.166264278e-38
-0.214902088 -0.4196296632 0.3663367033 1.166264278e-38
-0.2143756002 -0.2098449469 -0.06869128346 1.184631237e-38
0.01463256404 0.01005218178 -0.2684583664 1.184631237e-38
-0.1551959068 -0.1119269878 -0.2296056598 1.184631237e-38
-0.1876725703 -0.2127570212 -0.036419563 1.184631237e-38
-0.1935469955 -0.7448807955 -0.1483717263 1.184631237e-38
-0.1584689021 -0.2863953114 0.3317387402 1.184631237e-38
-0.1109019369 -0.3980282247 0.2188326418 1.184631237e-38
-0.08057829738 -0.1317288131 0.2797525227 1.184631237e-38
-0.1350227594 -0.3513586223 -0.1748161316 1.202998196e-38
-0.3247424066 -0.2492668927 0.05638172477 1.202998196e-38
-0.2186514884 -0.3920940161 0.3601225019 1.202998196e-38
-0.1734140813 -0.2519726455 -0.1957354397 1.202998196e-38
-0.214071393 -0.7554395795 -0.07822985947 1.202998196e-38
-0.2391585708 -0.336315006 0.3372478783 1.202998196e-38
-0.04861228913 -0.09264730662 0.2686677575 1.202998196e-38
-0.2180882096 -0.3997758031 0.3508146405 1.202998196e-38
-0.3263263702 -0.2863742411 0.1980090737 1.221365155e-38
0.1198446006 -0.1621504128 0.2360807955 1.221365155e-38
-0.06757006049 -0.1324364841 0.2901987433 1.221365155e-38
-0.2250200957 -0.7592222095 -0.05453819036 1.221365155e-38
-0.1382914335 -0.3936193585 0.1751815826 1.221365155e-38
-0.1112945229 -0.1799889058 0.2929087281 1.221365155e-38
-0.3140574694 -0.3241921067 0.08433222026 1.221365155e-38
-0.1448449045 -0.3705047965 -0.1697402596 1.221365155e-38
-0.1459017694 -0.2208670527 0.04043634236 1.239732115e-38
-0.3055024743 -0.3622051179 0.1702015102 1.239732115e-38
-0.3303222358 -0.2712086439 0.1504205465 1.239732115e-38
-0.1517406702 -0.7807216644 0.1342444718 1.239732115e-38
-0.09040044248 -0.1508750319 0.2848283947 1.239732115e-38
-0.2255870253 -0.3447044492 0.3383862078 1.239732115e-38
-0.240408361 -0.3271364272 0.3351764679 1.239732115e-38
-0.3226828575 -0.2537571788 0.09051962197 1.239732115e-38
-0.2345957607 -0.7659983635 -0.008087947965 1.258099074e-38
0.2667551637 -0.2298923135 0.2651469409 1.258099074e-38
0.1028231233 -0.2126149237 0.2710624933 1.258099074e-38
-0.1450211853 -0.2779301107 -0.1913873553 1.258099074e-38
-0.3073857129 -0.4502895176 0.1577107012 1.258099074e-38
-0.3354975283 -0.2792864144 0.008703937754 1.258099074e-38
-0.1165237352 -0.1743046045 -0.2932953835 1.258099074e-38
-0.3197605312 -0.3523188829 0.1576838344 1.258099074e-38
-0.1702765524 -0.7403091192 -0.1729963869 1.276466033e-38
-0.1100447327 -0.1891674697 0.2949801385 1.276466033e-38
0.01588236541 0.0008736327291 -0.2663869858 1.276466033e-38
-0.3358143568 -0.2592345476 0.05938619003 1.276466033e-38
-0.2339092642 -0.7674950957 0.003291323781 1.276466033e-38
-0.01272906922 -0.1197149307 -0.1836556345 1.276466033e-38
-0.3087590039 -0.3099293113 0.24673599 1.276466033e-38
-0.207579568 -0.3821263611 0.3571180403 1.276466033e-38
-0.3181410432 -0.3429423273 0.2218168229 1.294832852e-38
-0.1459372789 -0.1931362599 -0.1653239876 1.294832852e-38
-0.03629056364 -0.09185820818 0.2677346766 1.294832852e-38
-0.1780969054 -0.205980882 -0.08286979795 1.294832852e-38
-0.2082660794 -0.3806295991 0.3457387686 1.294832852e-38
-0.1695408225 -0.2963629365 0.3347431719 1.294832852e-38
-0.04572633654 -0.003071859479 -0.2617216706 1.294832852e-38
0.1274666339 -0.2110367119 0.2691963911 1.294832852e-38
-0.3081252873 -0.350033015 0.1453714967 1.313163938e-38
-0.3018935919 -0.4622636139 0.248745054 1.313163938e-38
-0.1328935027 -0.2215747237 0.05088256299 1.313163938e-38
-0.3234926164 -0.2584454417 0.05845313147 1.313163938e-38
-0.3075091839 -0.3191078305 0.2488074005 1.313163938e-38
-0.2065197378 -0.7719039917 0.04694238305 1.313163938e-38
-0.02203249186 -0.1017444134 0.2802523077 1.313163938e-38
-0.116628319 -0.3038876355 -0.1870392561 1.313163938e-38
-0.1169060171 -0.7184025049 -0.3142131865 1.331530897e-38
-0.1355516315 -0.07363457233 -0.2397573888 1.331530897e-38
-0.1644021422 -0.2081853002 -0.06104423478 1.331530897e-38
-0.1805387437 -0.7455884814 -0.1379254609 1.331530897e-38
-0.1500208527 -0.2118864805 -0.02783945203 1.331530897e-38
-0.0461126864 -0.1110043973 0.2728105485 1.331530897e-38
-0.1890088022 -0.4272300601 0.3665420115 1.331530897e-38
-0.3059425652 -0.3483382761 0.2001965493 1.331530897e-38
-0.1936511397 -0.4434576631 0.1902038753 1.349897856e-38
-0.1305524111 -0.1103487909 -0.231471777 1.349897856e-38
-0.09251369536 -0.02458539233 -0.2538466454 1.349897856e-38
0.2907121181 -0.2268173397 0.251901567 1.349897856e-38
-0.2209748179 -0.466311574 0.3776267767 1.349897856e-38
-0.01228900626 -0.1335817575 -0.2136507034 1.349897856e-38
-0.125969708 -0.3928302824 0.1742485166 1.349897856e-38
-0.3058193028 -0.3421532512 0.2208837569 1.349897856e-38
-0.1144641861 -0.1787948757 -0.2591574788 1.368228942e-38
-0.1153785139 -0.3130661845 -0.1849678606 1.368228942e-38
0.1288912594 -0.118314147 0.2638905346 1.368228942e-38
-0.2895718515 -0.461474508 0.2478120029 1.368228942e-38
-0.1935114712 -0.772611618 0.05738863349 1.368228942e-38
-0.00966617465 -0.1457538605 -0.1888207048 1.368228942e-38
-0.2215875238 -0.7667059898 0.002358272672 1.368228942e-38
-0.0823045373 -0.1659502536 -0.3416117132 1.368228942e-38
0.09136278927 -0.1129996553 0.2759976089 1.386595901e-38
-0.1148464829 -0.7228927612 -0.2800753117 1.386595901e-38
-0.154139936 -0.2029059231 -0.09611519426 1.386595901e-38
-0.3032666445 -0.4592700899 0.2259864509 1.386595901e-38
-0.2943774462 -0.4509971738 0.1681569219 1.386595901e-38
-0.05399852246 -0.1408259571 0.2913371027 1.386595901e-38
-0.179165706 -0.7485820055 -0.1151668727 1.386595901e-38
-0.3196373284 -0.346133858 0.178371042 1.386595901e-38
-0.02267441526 -0.1450462043 -0.1992669255 1.404926846e-38
-0.0207826905 -0.1109229624 0.2823237181 1.404926846e-38
-0.3100616336 -0.3393577039 0.1319208145 1.404926846e-38
-0.07494003326 -0.3741122782 0.2553364336 1.404926846e-38
-0.1438777298 -0.1976265311 -0.1311861277 1.404926846e-38
-0.2150783837 -0.3270550072 0.3446896374 1.404926846e-38
-0.1144812852 -0.1370953619 -0.2261906266 1.404926846e-38
-0.1230535954 -0.1654201597 -0.2190433592 1.404926846e-38
-0.03379096091 -0.1102153063 0.2718774974 1.423293806e-38
-0.08596453071 -0.1799074709 0.3024218976 1.423293806e-38
0.1053227261 -0.2309720218 0.2752053142 1.423293806e-38
-0.009789399803 -0.1519388855 -0.2095078975 1.423293806e-38
-0.3065058291 -0.3406564593 0.2095044255 1.423293806e-38
0.1029980034 -0.1107137948 0.2636852562 1.423293806e-38
-0.1676346511 -0.4448729455 0.2110963315 1.423293806e-38
-0.0816180259 -0.1674470156 -0.3302324414 1.423293806e-38
-0.09126389027 -0.0337639451 -0.2517752349 1.441624891e-38
0.1299662441 -0.2293938398 0.2733391821 1.441624891e-38
-0.2320467532 -0.4762792289 0.380631268 1.441624891e-38
0.07904100418 -0.1137887537 0.27693066 1.441624891e-38
0.1014501005 -0.2096213996 0.2483039498 1.441624891e-38
-0.2909449041 -0.458480984 0.2250533849 1.441624891e-38
-0.1418181956 -0.2021168172 -0.09704825282 1.441624891e-38
-0.01858326793 -0.0198508054 -0.2594449818 1.441624891e-38
-0.307315588 -0.3453447521 0.1774379909 1.459991851e-38
-0.1546263844 -0.4455806315 0.2215426117 1.459991851e-38
0.01838197559 -0.01748351008 -0.2622441649 1.459991851e-38
-0.3198664188 -0.2921661437 0.04398014769 1.459991851e-38
-0.03249654174 -0.1641923934 -0.1941910684 1.459991851e-38
0.1280299276 -0.2187184989 0.2598885 1.459991851e-38
-0.02017481253 -0.1634033024 -0.1951241195 1.459991851e-38
-0.1206072941 -0.1930548251 -0.155810833 1.459991851e-38
-0.2923179269 -0.4554874599 0.2022948265 1.478322936e-38
-0.119304195 -0.1929558218 -0.2128291577 1.478322936e-38
-0.008460961282 -0.1101338714 0.281390667 1.478322936e-38
-0.2093395889 -0.4640257061 0.3653144538 1.478322936e-38
-0.157219097 -0.2955738604 0.3338101208 1.478322936e-38
-0.1043065488 -0.3030985296 -0.1879723221 1.478322936e-38
-0.1308694631 -0.1983342022 -0.1207398698 1.478322936e-38
0.07710468769 -0.1031134278 0.2634799778 1.478322936e-38
-0.1199207827 -0.1945515871 -0.1444315165 1.496689755e-38
0.1042478085 -0.1198923439 0.2657566667 1.496689755e-38
-0.1820159107 -0.4411717951 0.1778915375 1.496689755e-38
-0.1948845088 -0.7696180344 0.03463000059 1.496689755e-38
-0.1407919526 -0.7769390345 0.1105528474 1.496689755e-38
-0.1301829517 -0.1998309642 -0.1093605906 1.496689755e-38
-0.1852594018 -0.4547657073 0.3727562129 1.496689755e-38
-0.06929630041 -0.1666579247 -0.3311654925 1.496689755e-38
-0.1804364771 -0.3989052773 0.3593947291 1.515020841e-38
-0.1859459132 -0.4532689452 0.3613769412 1.515020841e-38
-0.1055563539 -0.2939199507 -0.1900437176 1.515020841e-38
-0.101455912 -0.1795025468 -0.2487112731 1.515020841e-38
-0.02138235234 -0.1605080068 -0.3576563001 1.515020841e-38
-0.005011681467 -0.02824025601 -0.2583066523 1.515020841e-38
-0.05766108632 -0.1643720567 -0.3434778452 1.515020841e-38
-0.3201832771 -0.2721142769 0.09466242045 1.515020841e-38
-0.3191799223 -0.2936629057 0.05535945669 1.533351927e-38
-0.1741874516 -0.4447980523 0.3697517514 1.533351927e-38
0.1065725312 -0.2401505709 0.2772767246 1.533351927e-38
-0.3078788519 -0.3376629651 0.1867458522 1.533351927e-38
0.1435377747 -0.237783283 0.2744775414 1.533351927e-38
0.1026998982 -0.2187999487 0.2503753304 1.533351927e-38
-0.1579056084 -0.2940770984 0.3224308491 1.533351927e-38
0.04082601145 -0.1069774777 0.2776584327 1.533351927e-38
-0.0286239069 -0.1855430305 -0.1672897041 1.551683013e-38
-0.00398044847 -0.1839648336 -0.1691558212 1.551683013e-38
-0.08983778954 -0.13551718 -0.2280567437 1.551683013e-38
-0.3281923234 -0.3081208766 0.09250175953 1.551683013e-38
-0.1075990498 -0.1937624812 -0.1453645676 1.551683013e-38
0.01618249342 -0.1085556746 0.2795245349 1.551683013e-38
-0.1234399527 -0.2733526826 0.3154888749 1.551683013e-38
-0.3333147466 -0.2775916457 0.06352898479 1.551683013e-38
-0.142304644 -0.4447915554 0.2206095457 1.570049832e-38
-0.06662040949 -0.03218574822 -0.2536413372 1.570049832e-38
0.1150216311 -0.2180108428 0.2494422793 1.570049832e-38
-0.05149891973 -0.1591830552 0.2954798937 1.570049832e-38
-0.01828308403 -0.1292800903 0.2864665091 1.570049832e-38
0.1046341211 -0.01195982844 -0.2687755525 1.570049832e-38
-0.1976305544 -0.7636310458 -0.01088711619 1.570049832e-38
-0.1069125384 -0.1952592432 -0.1339852959 1.570049832e-38
-0.1638020128 -0.4333336353 0.3553680182 1.588380918e-38
-0.3204297423 -0.2844843566 0.05328806117 1.588380918e-38
-0.1551732421 -0.7732378244 0.07734799385 1.588380918e-38
-0.1292963624 -0.4454992115 0.2310557812 1.588380918e-38
-0.09050721675 -0.1757199168 -0.2724029124 1.588380918e-38
-0.3214503825 -0.3292734921 0.1856075227 1.588380918e-38
-0.09596380591 -0.1914766282 -0.1576769352 1.588380918e-38
-0.1144286618 -0.2065256834 -0.0533971861 1.588380918e-38
-0.3108185232 -0.3054390252 0.2125981599 1.606712004e-38
-0.3132477403 -0.319503814 0.1163987219 1.606712004e-38
-0.3301286101 -0.2974455357 0.07905106992 1.606712004e-38
-0.07699958235 -0.3696219921 0.221198529 1.606712004e-38
0.141599372 -0.009592533112 -0.2715747356 1.606712004e-38
-0.1682910174 -0.3055414855 0.3368145823 1.606712004e-38
-0.1631155014 -0.4348303974 0.3667472899 1.606712004e-38
-0.3084421456 -0.3299811482 0.1960537434 1.606712004e-38
-0.3095687032 -0.3146175742 0.2146695554 1.625043089e-38
-0.08608838916 -0.1630528569 -0.2218425423 1.625043089e-38
-0.3275057971 -0.3096176386 0.1038810983 1.625043089e-38
-0.1037957072 -0.2350602448 0.305337131 1.625043089e-38
0.1039496958 -0.2279785275 0.2524467409 1.625043089e-38
-0.07626625896 -0.1439066529 -0.2269183993 1.625043089e-38
-0.1654709578 -0.7507864237 -0.09334137291 1.625043089e-38
0.04013950005 -0.1054807156 0.2662791312 1.625043089e-38
-0.1116815209 -0.2648817897 0.3238636851 1.643374035e-38
0.02088158205 -0.03584060818 -0.2581013739 1.643374035e-38
-0.1729376614 -0.4539766312 0.3718231618 1.643374035e-38
-0.1103095785 -0.2155062407 0.01487855613 1.643374035e-38
-0.1116826087 -0.2125127167 -0.007880009711 1.643374035e-38
0.02781776711 -0.1062698141 0.2672122121 1.643374035e-38
-0.08501510322 -0.1876940131 -0.1813685596 1.643374035e-38
-0.06330482662 -0.3718264103 0.2430240363 1.643374035e-38
-0.09432206303 -0.7123340368 -0.3502171636 1.661705121e-38
-0.04396629333 -0.1665764749 -0.3216522932 1.661705121e-38
-0.007897671312 -0.1178156808 0.2720827758 1.661705121e-38
-0.0850148797 -0.07965673506 -0.2414182276 1.661705121e-38
0.05371103063 -0.1138701886 0.2674174905 1.661705121e-38
-0.1695545167 -0.769536674 0.04414322972 1.661705121e-38
-0.08226905018 -0.1936810464 -0.135851413 1.661705121e-38
-0.07449997216 -0.3879790902 0.2253413349 1.661705121e-38
-0.1448973268 -0.2947847545 0.3328770697 1.680036207e-38
-0.07376665622 -0.1622637659 -0.2227755934 1.680036207e-38
-0.07393668592 -0.3956609368 0.2160334587 1.680036207e-38
-0.08290163428 -0.2059463859 0.2972567976 1.680036207e-38
-0.3148143888 -0.2902733982 0.1650095582 1.680036207e-38
-0.07818545401 -0.1749308109 -0.2733359933 1.680036207e-38
-0.1898716092 -0.3331586123 0.3335156441 1.680036207e-38
-0.3189334571 -0.2812928259 0.09673382342 1.680036207e-38
-0.3171203732 -0.2981531918 0.08949729055 1.698367293e-38
0.4527078569 -0.2334194481 0.2325353324 1.698367293e-38
-0.3102552295 -0.3131208122 0.2032902092 1.698367293e-38
-0.1326247901 -0.7394385338 -0.1644162834 1.698367293e-38
-0.3182469606 -0.282789588 0.1081131026 1.698367293e-38
-0.1538357139 -0.7485005856 -0.1056537107 1.698367293e-38
-0.09184471518 -0.2004571855 -0.08940120041 1.698367293e-38
-0.1007339135 -0.2087301016 -0.03157167882 1.698367293e-38
-0.06269469857 -0.1522960961 -0.2257800549 1.716698239e-38
-0.09115820378 -0.2019539624 -0.07802186906 1.716698239e-38
-0.07269334048 -0.1869049072 -0.1823016107 1.716698239e-38
-0.02715558931 -0.04817557335 -0.2522976995 1.716698239e-38
0.09481200576 -0.03110602126 -0.2636997104 1.716698239e-38
0.1213938594 -0.2577185929 0.2804864645 1.716698239e-38
-0.09805753827 -0.3489913046 -0.1776152998 1.716698239e-38
-0.07462319732 -0.3941641748 0.204654187 1.716698239e-38
-0.07475288212 -0.1824146211 -0.2164395154 1.735029324e-38
-0.006647868082 -0.1269942224 0.2741541862 1.735029324e-38
-0.05093562603 -0.166864872 0.2861720324 1.735029324e-38
-0.09020297974 -0.7213145494 -0.2819414437 1.735029324e-38
-0.3239499927 -0.3109163642 0.1814647019 1.735029324e-38
-0.09047168493 -0.2034507096 -0.06664258242 1.735029324e-38
-0.08020950854 -0.1981713325 -0.1017135382 1.735029324e-38
-0.07182967663 -0.1959787309 0.2942523658 1.735029324e-38
-0.09448443353 -0.2839522958 -0.1930481791 1.75336041e-38
0.1921361536 -0.0156146884 -0.2732355595 1.75336041e-38
-0.3121915758 -0.3024455011 0.1898395419 1.75336041e-38
-0.06857425719 -0.1958854795 -0.1140258759 1.75336041e-38
-0.3286323845 -0.2942540348 0.1224968582 1.75336041e-38
-0.1221901476 -0.2825312316 0.3175602555 1.75336041e-38
-0.05787178874 -0.09643565863 -0.2391415238 1.75336041e-38
-0.03027153946 -0.168780908 -0.299826771 1.75336041e-38
-0.07883647829 -0.2011648566 -0.07895492017 1.771655483e-38
-0.06517721713 -0.175638482 -0.2628897429 1.771655483e-38
-0.08875894547 -0.779769659 0.1523377895 1.771655483e-38
-0.1577292979 -0.3866517544 0.3440779448 1.771655483e-38
-0.140408352 -0.4225769043 0.3514305055 1.771655483e-38
-0.3279458582 -0.295750767 0.13387613 1.771655483e-38
-0.1620420069 -0.3514342904 0.3471716046 1.771655483e-38
-0.05037297308 -0.1515069902 -0.2267131209 1.771655483e-38
-0.0881434381 -0.7258048058 -0.2478035688 1.789986569e-38
-1.246854663e-05 -0.06495449692 -0.2500210106 1.789986569e-38
-0.06449069828 -0.177135244 -0.2515104413 1.789986569e-38
-0.1313559115 -0.4410089254 0.1969178766 1.789986569e-38
-0.01646999083 -0.1461404562 0.2792300582 1.789986569e-38
-0.04804963619 -0.07728943974 -0.2442173958 1.789986569e-38
0.1083835363 -0.03949549794 -0.2625613511 1.789986569e-38
-0.01794978045 -0.167991817 -0.3007598221 1.789986569e-38
-0.3128780723 -0.3009487391 0.1784602553 1.808317654e-38
-0.07212358713 -0.4125213027 0.2087969929 1.808317654e-38
-0.03667755425 -0.1767510772 0.2986896634 1.808317654e-38
-0.1566558033 -0.3032556474 0.3245022595 1.808317654e-38
-0.0687674433 -0.198977977 -0.2144899815 1.808317654e-38
-0.04122024029 -0.1725635231 -0.2761351466 1.808317654e-38
-0.1300235391 -0.3880728185 -0.1665305197 1.808317654e-38
-0.09091129899 -0.2189132869 -0.2084810585 1.808317654e-38
-0.09573423862 -0.2747737169 -0.1951195896 1.826612727e-38
-0.1053394377 -0.4424242675 0.2178103775 1.826612727e-38
0.1699922383 -0.03555000573 -0.2672266364 1.826612727e-38
-0.1613518745 -0.7597669959 -0.02506563067 1.826612727e-38
-0.02889851294 -0.1717744321 -0.2770681977 1.826612727e-38
0.1458428651 -0.06949717551 -0.04180357978 1.826612727e-38
-0.1325755864 -0.2939956486 0.3319440186 1.826612727e-38
-0.04736337066 -0.1868234724 -0.1727884561 1.826612727e-38
0.1704863906 -0.06791897118 -0.04366970062 1.844943813e-38
-0.06734134257 -0.3007312417 -0.1907714903 1.844943813e-38
-0.06036515534 -0.40405038 0.2171718031 1.844943813e-38
-0.0799407661 -0.7160351872 -0.3170123696 1.844943813e-38
-0.07794988155 -0.4468330741 0.2614613771 1.844943813e-38
0.2747460008 -0.09981717169 -0.03146927059 1.844943813e-38
0.1581646502 -0.06870806962 -0.04273664206 1.844943813e-38
-0.05911535025 -0.4132289588 0.2192432135 1.844943813e-38
-0.06859114766 -0.2915526628 -0.1928429008 1.863274899e-38
-0.03542774916 -0.185929656 0.300761044 1.863274899e-38
-0.06609153748 -0.3099097908 -0.1887000948 1.863274899e-38
0.01605866849 -0.09170106798 -0.2447398752 1.863274899e-38
-0.0785895735 -0.218124181 -0.2094141245 1.863274899e-38
0.1243855357 -0.09092922509 -0.02441538125 1.863274899e-38
-0.1455975473 -0.7664616704 0.03089776635 1.863274899e-38
-0.1466573626 -0.3766840994 0.3410734832 1.863274899e-38
0.0615962334 -0.06100900471 -0.2546863258 1.881569971e-38
-0.1677277237 -0.3132233024 0.327506721 1.881569971e-38
-0.1327289343 -0.4380154014 0.1741593033 1.881569971e-38
-0.05632182956 -0.215043515 0.3088413775 1.881569971e-38
0.1465985924 -0.04630675167 -0.2632891238 1.881569971e-38
-0.1091819108 -0.2832389176 0.328006506 1.881569971e-38
0.1360207498 -0.08864337206 -0.03672771901 1.881569971e-38
0.1717361957 -0.07709752023 -0.04159829766 1.881569971e-38
-0.07087378204 -0.4216998518 0.2108683884 1.899901057e-38
-0.02447968349 -0.1591073722 -0.2265078276 1.899901057e-38
-0.1079813391 -0.737860322 -0.1662824005 1.899901057e-38
-0.1497166306 -0.7574810982 -0.03737796843 1.899901057e-38
-0.1436475217 -0.3039633036 0.3349484801 1.899901057e-38
-0.08341248333 -0.2739846408 -0.1960526407 1.899901057e-38
0.2222729772 -0.08311968297 -0.04325912893 1.899901057e-38
0.02713059261 -0.08173340559 -0.2477443367 1.899901057e-38
0.03820251301 -0.07176575065 -0.2507487833 1.91819627e-38
-0.07582168281 -0.7250157595 -0.2487366199 1.91819627e-38
-0.05110632628 -0.3772223592 0.2214038223 1.91819627e-38
0.01123575494 -0.1475615054 -0.2313784063 1.91819627e-38
-0.0441239588 -0.1973997653 -0.2163560987 1.91819627e-38
0.2365310192 -0.09300591052 -0.03074149974 1.91819627e-38
-0.03611426428 -0.184432894 0.2893817723 1.91819627e-38
-0.1443340331 -0.3024665415 0.3235691786 1.91819627e-38
0.1261986196 -0.1077895835 -0.03165185452 1.936527215e-38
0.06284603477 -0.07018755376 -0.2526149154 1.936527215e-38
-0.05626941845 -0.290763557 -0.1937759519 1.936527215e-38
-0.06359193474 -0.3282668889 -0.184557274 1.936527215e-38
0.2494160384 -0.09989860654 -0.04098243639 1.936527215e-38
0.2242092937 -0.09379500896 -0.02980844304 1.936527215e-38
0.07516776025 -0.06939845532 -0.2535479665 1.936527215e-38
0.126885131 -0.1092863455 -0.02027257532 1.936527215e-38
-0.1438008845 -0.4479830563 0.1771637648 1.954822428e-38
-0.08263225853 -0.4301706851 0.2024935186 1.954822428e-38
0.1385203451 -0.1070004851 -0.03258491307 1.954822428e-38
0.2118874937 -0.09458411485 -0.02887538075 1.954822428e-38
-0.0218562223 -0.1943190992 0.3018994033 1.954822428e-38
-0.1287737489 -0.3972513974 -0.1644591093 1.954822428e-38
0.04070212319 -0.09012287855 -0.2466059923 1.954822428e-38
-0.1373948902 -0.7566920519 -0.03831103444 1.954822428e-38
-0.11632815 -0.4133169055 0.3588722646 1.973153514e-38
-0.03292814642 -0.2042867541 0.3049038649 1.973153514e-38
0.1392068565 -0.1084972471 -0.02120563202 1.973153514e-38
0.03337961063 -0.1276261806 -0.2373873293 1.973153514e-38
0.03462940827 -0.1368047595 -0.2353159189 1.973153514e-38
-0.06489414722 -0.243368268 0.3159886599 1.973153514e-38
0.04320172593 -0.1084799916 -0.2424631864 1.973153514e-38
-0.09356454015 -0.7692923546 0.0726827085 1.973153514e-38
-0.1168704927 -0.7461332679 -0.1084528863 1.991448586e-38
0.1101987213 -0.2738713026 0.2628037632 1.991448586e-38
-0.0696239844 -0.4308784008 0.2129397988 1.991448586e-38
-0.1072592884 -0.7670879364 0.05085721612 1.991448586e-38
-0.04394765943 -0.2899744511 -0.194709003 1.991448586e-38
-0.04275029898 -0.2234329581 0.3099797368 1.991448586e-38
0.05552345887 -0.1076909006 -0.2433962375 1.991448586e-38
-0.04162435234 -0.2157568932 -0.2122132927 1.991448586e-38
-0.07234055549 -0.2640169859 -0.1990571022 2.009743799e-38
-0.1161839813 -0.7476300001 -0.09707360715 2.009743799e-38
-0.06349995732 -0.724226594 -0.249669686 2.009743799e-38
-0.0832362175 -0.3665593266 -0.1744055599 2.009743799e-38
-0.008284661919 -0.2027085423 0.3030377328 2.009743799e-38
-0.06548848003 -0.7751979828 0.1277130544 2.009743799e-38
-0.1320122927 -0.3016774356 0.3226361275 2.009743799e-38
-0.1439241171 -0.4541680813 0.1564765573 2.009743799e-38
-0.05257242173 -0.2425791621 0.3150555789 2.028074885e-38
-0.121640563 -0.7633867264 0.01765237749 2.028074885e-38
-0.01022097655 -0.1920332313 0.2895870507 2.028074885e-38
0.09912678599 -0.2838389575 0.2658082247 2.028074885e-38
-0.1541561931 -0.3216127455 0.3286450505 2.028074885e-38
0.07034485042 -0.1252588928 -0.2401864976 2.028074885e-38
0.1367785484 -0.2829684019 0.2743883133 2.028074885e-38
-0.1425510794 -0.4571616054 0.1792351753 2.028074885e-38
-0.1220138818 -0.3751059175 0.3392073512 2.046369957e-38
0.4577070773 -0.2701336741 0.2408209443 2.046369957e-38
-0.06433086097 -0.251050055 0.3066807687 2.046369957e-38
-0.04019825161 -0.317510128 -0.1884948015 2.046369957e-38
0.08266659081 -0.1244697943 -0.2411195636 2.046369957e-38
0.09248870611 -0.1053236052 -0.2461954206 2.046369957e-38
-0.09493757039 -0.7662988305 0.04992416501 2.046369957e-38
0.0937384963 -0.1145021543 -0.2441240251 2.046369957e-38
0.02855669335 -0.1834866554 -0.2240258455 2.06466517e-38
-0.03111505508 -0.2211470902 0.2976673841 2.06466517e-38
0.1515977979 -0.08302099258 -0.2550035119 2.06466517e-38
0.1762412488 -0.08144279569 -0.2568696439 2.06466517e-38
-0.1250767708 -0.3490670025 0.3443724215 2.06466517e-38
-0.07415301353 -0.2701962888 0.3117566407 2.06466517e-38
-0.0787596181 -0.4515213668 0.2293949425 2.06466517e-38
-0.01810681447 -0.2218547761 0.3081136048 2.06466517e-38
-0.1071925163 -0.3926739097 0.3424171209 2.082996116e-38
-0.04644726217 -0.2716173232 -0.1988518238 2.082996116e-38
-0.01698086783 -0.2141787112 -0.2140794098 2.082996116e-38
-0.08522494137 -0.2801639438 0.3147611022 2.082996116e-38
-0.1405846328 -0.3300022185 0.3297834098 2.082996116e-38
-0.05984252691 -0.3558025658 -0.1783430725 2.082996116e-38
0.2008847743 -0.07986459881 -0.2587357461 2.082996116e-38
-0.0683741793 -0.4400569499 0.2150111943 2.082996116e-38
-0.103175737 -0.7483376861 -0.08662738651 2.101291328e-38
-0.05200913548 -0.2502609491 0.3057477176 2.101291328e-38
0.1540974081 -0.101378113 -0.2508606911 2.101291328e-38
-0.1009435058 -0.4385667145 0.3527741134 2.101291328e-38
-0.06251843274 -0.2448707521 -0.2041329592 2.101291328e-38
-0.01685700938 -0.2310333252 0.3101850152 2.101291328e-38
-0.1096921265 -0.3743168116 0.3382743001 2.101291328e-38
-0.05007281527 -0.26093629 0.3191983998 2.101291328e-38
-0.1334728301 -0.4699664414 0.3731667995 2.119586541e-38
-0.09237118065 -0.4102419317 0.3456268609 2.119586541e-38
-0.0279289335 -0.2410009801 0.3131894767 2.119586541e-38
-0.04894686863 -0.2532602251 -0.2029946148 2.119586541e-38
0.007662590593 -0.2126004994 -0.215945527 2.119586541e-38
-0.09418427944 -0.3933815658 0.3528633416 2.119586541e-38
0.09998752177 -0.1603949368 -0.2337670028 2.119586541e-38
0.3061483502 -0.01042668521 -0.07883730531 2.119586541e-38
0.1344531626 -0.139670521 -0.2407089919 2.137881613e-38
-0.0475207977 -0.3550134599 -0.1792761236 2.137881613e-38
-0.02805279382 -0.2241463363 -0.2110749483 2.137881613e-38
0.3179068565 -0.001955747604 -0.07046249509 2.137881613e-38
-0.0488230139 -0.2701148391 0.3212698102 2.137881613e-38
-0.05859272555 -0.3649811149 -0.176271677 2.137881613e-38
0.3413005173 0.008800983429 -0.07440000772 2.137881613e-38
-0.1307625026 -0.3108560145 0.3247075379 2.137881613e-38
0.1123092473 -0.1596058458 -0.2347000539 2.156176826e-38
-0.03947196528 -0.7766132355 0.1486055553 2.156176826e-38
-0.09900718927 -0.4492420256 0.3662247956 2.156176826e-38
-0.07290321589 -0.2793748379 0.3138280511 2.156176826e-38
-0.04911869019 -0.727927804 -0.2164648622 2.156176826e-38
-0.05453974754 -0.7714153528 0.10402143 2.156176826e-38
0.1578468084 -0.12891379 -0.2446465045 2.156176826e-38
0.3075214028 -0.01342019439 -0.05607874691 2.156176826e-38
0.3529357612 0.01108683646 -0.08671234548 2.174471899e-38
0.3197199702 -0.01881612837 -0.0776989758 2.174471899e-38
-0.09085398167 -0.7475485802 -0.08756044507 2.174471899e-38
-0.04015848413 -0.7751165032 0.1372262239 2.174471899e-38
-0.0495095253 -0.268618077 0.3098905087 2.174471899e-38
0.3320416808 -0.01802703738 -0.07863202691 2.174471899e-38
0.3093344569 -0.03028056026 -0.06331522763 2.174471899e-38
-0.003971962258 -0.2379260063 0.299944073 2.174471899e-38
0.1701685339 -0.1281246841 -0.2455795556 2.192767111e-38
0.007838889956 -0.3051751852 -0.1942984313 2.192767111e-38
0.2997587919 -0.03705668449 -0.01686498523 2.192767111e-38
-0.002035647631 -0.2486013174 0.3133947551 2.192767111e-38
-0.09862019122 -0.3643491566 0.3352698386 2.192767111e-38
-0.08467535675 -0.7610194683 0.01485319436 2.192767111e-38
0.04462783411 -0.2102332115 -0.2187446952 2.192767111e-38
0.4725284278 -0.2877016962 0.2440306842 2.192767111e-38
-0.05342962593 -0.4514399171 0.2389080971 2.211062324e-38
0.06802149117 -0.1994764805 -0.2226822078 2.211062324e-38
0.3443634212 -0.01723793149 -0.07956509292 2.211062324e-38
-0.08793526888 -0.4392743707 0.3632203341 2.211062324e-38
0.1024871171 -0.1787520647 -0.2296241969 2.211062324e-38
0.3108307123 -0.02708902955 -0.01986944675 2.211062324e-38
0.3451731205 -0.01254965365 -0.0474986136 2.211062324e-38
-0.05591277778 -0.7684217691 0.08126282692 2.211062324e-38
-0.02542932704 -0.259358108 0.3173322976 2.229357396e-38
0.0569495596 -0.2094441056 -0.2196777612 2.229357396e-38
0.002839677036 -0.2684609592 -0.2025840431 2.229357396e-38
-0.08397513628 -0.2893424928 0.3168325126 2.229357396e-38
-0.006010336801 -0.7113006115 -0.3226107061 2.229357396e-38
0.3231525421 -0.02629992366 -0.02080251276 2.229357396e-38
-0.07990527153 -0.7437659502 -0.111252062 2.229357396e-38
-0.08379887044 -0.3819171786 0.3384795785 2.229357396e-38
-0.0007858425379 -0.2577798963 0.3154661655 2.247652609e-38
0.3122037649 -0.03008255363 0.002889111638 2.247652609e-38
-0.05411613733 -0.4499431849 0.2275288254 2.247652609e-38
0.2071337849 -0.1257573962 -0.2483787388 2.247652609e-38
0.01516140625 -0.2676718533 -0.2035171092 2.247652609e-38
0.02748319134 -0.2668827474 -0.2044501603 2.247652609e-38
-0.08561195433 -0.3650568128 0.3457160592 2.247652609e-38
0.09266500175 -0.1978982687 -0.2245483249 2.247652609e-38
0.3234693408 -0.04635180533 -0.07148475945 2.265947681e-38
-0.04757320881 -0.2792934179 0.3233412206 2.265947681e-38
0.3175198138 -0.0868486613 -0.03950752318 2.265947681e-38
-0.08504867554 -0.3727386296 0.3364081979 2.265947681e-38
0.06927129626 -0.2086550295 -0.2206108123 2.265947681e-38
0.3828248978 -0.01167912781 -0.03891851008 2.265947681e-38
-0.06841484457 -0.3841273487 -0.1711958051 2.265947681e-38
0.3140168488 -0.04694291949 -0.004347369075 2.265947681e-38
-0.06895654649 -0.7399833202 -0.1349437088 2.284242894e-38
0.3138936162 -0.05312794447 -0.02503454685 2.284242894e-38
0.03355590627 -0.2202008665 -0.2157402337 2.284242894e-38
-0.04290453717 -0.7691294551 0.09170910716 2.284242894e-38
0.3382907212 -0.06391982734 -0.06827501953 2.284242894e-38
-0.07647269964 -0.7512497902 -0.05435560644 2.284242894e-38
0.06569817662 -0.2736940384 -0.205177933 2.284242894e-38
0.3820151687 -0.01636739075 -0.0709849894 2.284242894e-38
0.3145801425 -0.05462470651 -0.0136552453 2.302537966e-38
0.3137704134 -0.05931298435 -0.04572173953 2.302537966e-38
0.08159308136 -0.2078659236 -0.2215438783 2.302537966e-38
-0.07784572989 -0.7482562661 -0.07711416483 2.302537966e-38
0.3591847718 -0.0348059684 -0.0763553381 2.302537966e-38
0.3407903016 -0.08227695525 -0.06413221359 2.302537966e-38
0.02889533713 -0.7044429779 -0.3595477641 2.302537966e-38
-0.1029329002 -0.3291316926 0.3383634984 2.302537966e-38
-0.07165341079 -0.2885533869 0.3158994317 2.320833179e-38
0.3765056729 -0.07073108852 -0.06900277734 2.320833179e-38
0.4074683487 -0.01010093093 -0.0407846272 2.320833179e-38
0.395709902 -0.01857180893 -0.04915945232 2.320833179e-38
0.3963964283 -0.02006857097 -0.03778016567 2.320833179e-38
0.3743757308 -0.03381887078 -0.01108404994 2.320833179e-38
0.01016219333 -0.2309576273 -0.211802721 2.320833179e-38
-0.01254431251 -0.2662507892 0.3070913553 2.320833179e-38
0.02958184853 -0.7059397697 -0.3481684923 2.339092378e-38
-0.003264281899 -0.7172876596 -0.2770935595 2.339092378e-38
0.01141199842 -0.2401361763 -0.2097313106 2.339092378e-38
0.141214475 -0.3120008409 0.2919818163 2.339092378e-38
0.0915914923 -0.2812943757 -0.2049726546 2.339092378e-38
0.3866975307 -0.03302976489 -0.01201711595 2.339092378e-38
0.04730373994 -0.3211650252 -0.1929548085 2.339092378e-38
0.1764175445 -0.1740174741 -0.2352225482 2.339092378e-38
0.1185582578 -0.2054986358 -0.2243430465 2.348204041e-38
0.4652059078 -0.3252050281 0.2532493472 2.348204041e-38
-0.01352646574 -0.7225669622 -0.2420226038 2.348204041e-38
0.2232049108 -0.1525039673 -0.2430975884 2.348204041e-38
-0.08612217009 -0.4561347365 0.3559838831 2.348204041e-38
0.3983327448 -0.03074391186 -0.02432945371 2.348204041e-38
-0.02378868684 -0.727846384 -0.2069516778 2.348204041e-38
-0.05286633968 -0.4591217339 0.2296002209 2.348204041e-38
-0.04499960691 -0.7369084358 -0.1481890976 2.348132155e-38
0.03095487878 -0.7089332938 -0.3254098892 2.348132155e-38
0.3216388822 -0.09582920372 0.02876824141 2.348132155e-38
-0.06716503948 -0.3933058977 -0.1691243947 2.348132155e-38
0.09284129739 -0.2904729545 -0.2029012442 2.348132155e-38
-0.06483745575 -0.7489639521 -0.06666794419 2.348132155e-38
-0.09004788101 -0.3360243738 0.328122586 2.348132155e-38
-0.0216275081 -0.362613827 -0.1790708452 2.348132155e-38
0.3982095122 -0.03692892194 -0.04501664639 2.348060128e-38
0.3740060925 -0.05237399042 -0.07314558327 2.348060128e-38
-0.07578980923 -0.3459106088 0.3406401873 2.348060128e-38
0.3882641792 -0.06226019561 -0.06062796712 2.348060128e-38
0.08909189701 -0.2629372478 -0.2091154605 2.348060128e-38
0.3178894818 -0.06829352677 0.0225540325 2.348060128e-38
0.06194877252 -0.2461583614 -0.2113921344 2.348060128e-38
0.1026634276 -0.2713267207 -0.2079771012 2.348060128e-38
0.387014389 -0.05308163166 -0.06269936264 2.347952368e-38
0.3543618321 -0.09066639841 -0.06299386919 2.347952368e-38
0.06654706597 -0.7035725117 -0.3509676456 2.347952368e-38
0.4155304432 -0.07285408676 -0.03766408563 2.347952368e-38
0.4010787904 -0.03673096001 0.02118769288 2.347952368e-38
0.001713763922 -0.2761370242 0.3196089566 2.347952368e-38
0.3224486113 -0.09114094079 0.06083470955 2.347952368e-38
0.05559836328 -0.7073551416 -0.3272759914 2.347952368e-38
0.07818228006 -0.7012866735 -0.3632799983 2.347880341e-38
0.320019424 -0.1052057892 -0.03536471725 2.347880341e-38
-0.04771013558 -0.7586521506 0.01205402613 2.347880341e-38
0.02137920633 -0.7157094479 -0.2789596915 2.347880341e-38
-0.009305752814 -0.3618247211 -0.1800039113 2.347880341e-38
0.08659228683 -0.2445801497 -0.2132582664 2.347880341e-38
0.1424642652 -0.3211794198 0.2940532267 2.347880341e-38
