# .PCD v0.7 - Point Cloud Data file format
VERSION 0.7
FIELDS x y z rgb
SIZE 4 4 4 4
TYPE F F F F
COUNT 1 1 1 1
WIDTH 829
HEIGHT 1
VIEWPOINT 0 0 0 1 0 0 0
POINTS 829
DATA ascii
0.206565693 -0.4781301022 0.1328363121 1.331530897e-38
0.2571958899 -0.7061391473 -0.2623087764 1.331530897e-38
-0.05154781789 -0.4960513115 0.1636480987 1.331530897e-38
0.3331195712 -0.2740845084 -0.1004630104 1.331530897e-38
-0.162774995 -0.4403996468 -0.2303209603 1.331530897e-38
-0.005477640778 -0.1045924574 -0.23078233 1.331530897e-38
0.3276991844 -0.2622076273 -0.1915166974 1.331530897e-38
-0.06113926321 -0.481466651 -0.01637328416 1.331530897e-38
0.3098695874 -0.1737454236 -0.05627908185 1.349897856e-38
-0.3363591135 -0.7392545342 -0.2520422935 1.349897856e-38
0.006845785305 -0.103809759 -0.2317075729 1.349897856e-38
0.1531010866 -0.4785531163 0.04756956547 1.349897856e-38
0.3234005868 -0.2870055139 -0.0746884048 1.349897856e-38
0.2428398728 -0.7024680376 -0.2955286801 1.349897856e-38
0.1564888358 -0.4859762192 0.1044781134 1.349897856e-38
0.3288209736 -0.2988824248 0.01636528037 1.349897856e-38
0.003759615123 -0.4911761284 0.01523158699 1.368228942e-38
-0.1422841698 -0.1040329635 -0.222690627 1.368228942e-38
0.3412501514 -0.2918998003 0.03611747175 1.368228942e-38
0.08060322702 -0.7081891894 -0.3176456392 1.368228942e-38
0.3310869336 -0.2696306705 -0.1346081495 1.368228942e-38
0.3405725956 -0.2904152274 0.02473577484 1.368228942e-38
0.3078369498 -0.1692916006 -0.09042419493 1.368228942e-38
0.2563662827 -0.1851179153 -0.06907588989 1.368228942e-38
0.1285416782 -0.7020891905 -0.3441100419 1.386595901e-38
0.0689574033 -0.7104564905 -0.3053386807 1.386595901e-38
0.1531884819 -0.7005237937 -0.3459605277 1.386595901e-38
-0.09607676417 -0.4882685542 0.0205475688 1.386595901e-38
0.09726534039 -0.4331322312 -0.2476650774 1.386595901e-38
-0.3322938383 -0.74816221 -0.1837520152 1.386595901e-38
0.3186994493 -0.1717395782 -0.1347903311 1.386595901e-38
-0.3446172178 -0.7489448786 -0.1828267723 1.386595901e-38
0.08494196832 -0.4339149594 -0.2467398345 1.404926846e-38
0.2182115316 -0.4758628607 0.1205293313 1.404926846e-38
0.2953936756 -0.7342659235 -0.03652508557 1.404926846e-38
0.02296427451 -0.49903965 0.1488009095 1.404926846e-38
0.2619141638 -0.1694891155 -0.1838182211 1.404926846e-38
0.261236608 -0.1680045128 -0.1951999068 1.404926846e-38
0.06029523164 -0.4354802966 -0.2448893785 1.404926846e-38
-0.3199704289 -0.7473795414 -0.1846772581 1.404926846e-38
0.2695192695 -0.7053564787 -0.2632340193 1.423293806e-38
0.3213679492 -0.2825517058 -0.1088335291 1.423293806e-38
0.3050068617 -0.7275448442 -0.08297717571 1.423293806e-38
0.311224699 -0.1767146587 -0.03351565823 1.423293806e-38
0.4172237813 -0.3170145154 0.04477896914 1.423293806e-38
0.0208258573 -0.5007857084 0.09397833794 1.423293806e-38
0.04761101305 -0.4974742532 0.1469504535 1.423293806e-38
0.05613926798 -0.1006789953 -0.2354085445 1.423293806e-38
0.306481868 -0.1663223803 -0.1131876186 1.441624891e-38
0.2795492411 -0.2807074189 -0.2064072043 1.441624891e-38
0.3273600936 -0.302113086 -0.02707559988 1.441624891e-38
0.243828401 -0.292224586 -0.2015455067 1.441624891e-38
0.1243890598 -0.471210897 -0.01887019351 1.441624891e-38
-0.1097552329 -0.4860820174 -0.001290589571 1.441624891e-38
0.3280376494 -0.3035976887 -0.01569390111 1.441624891e-38
-0.2031763941 -0.4779362679 0.1684931219 1.441624891e-38
0.3044492006 -0.1618685424 -0.1473327428 1.459991851e-38
0.3275075853 -0.1910395026 0.01317188144 1.459991851e-38
0.3051267564 -0.16335316 -0.1359510422 1.459991851e-38
-0.1166984141 -0.7482179403 -0.09704577178 1.459991851e-38
0.3260050118 -0.2991438508 -0.0498390235 1.459991851e-38
-0.3062361181 -0.08670061827 -0.2169203609 1.459991851e-38
0.2825202644 -0.706058383 -0.2527775764 1.459991851e-38
0.05870684981 -0.4662166834 -0.08253424615 1.459991851e-38
0.2701722682 -0.1597987711 -0.2530336976 1.478322936e-38
0.0682798624 -0.708971858 -0.3167203963 1.478322936e-38
0.008502453566 -0.501568377 0.09490358084 1.478322936e-38
0.3017390072 -0.1559301019 -0.1928595901 1.478322936e-38
0.3364015222 -0.287707448 -0.06423192471 1.478322936e-38
0.3404668272 -0.2966150939 0.004058314022 1.478322936e-38
-0.3520702422 -0.7326141596 -0.3080255985 1.478322936e-38
-0.3383917809 -0.7348006964 -0.2861874104 1.478322936e-38
0.265979439 -0.1783967912 -0.11552798 1.496689755e-38
0.2818427086 -0.7045737505 -0.2641592622 1.496689755e-38
0.3010614812 -0.1544454992 -0.2042412907 1.496689755e-38
0.07103022188 -0.4654339552 -0.08345948905 1.496689755e-38
0.1338747293 -0.4919953942 0.1404737532 1.496689755e-38
0.3132790625 -0.1598626971 -0.2258439958 1.496689755e-38
0.3126015365 -0.1583780944 -0.2372256815 1.496689755e-38
-0.1077225879 -0.4905358553 0.03285450488 1.496689755e-38
0.2673345506 -0.1813659966 -0.09276452661 1.515020841e-38
-0.2960012555 -0.7443295717 -0.1979094744 1.515020841e-38
-0.2356992364 -0.487970531 -0.03756501153 1.515020841e-38
-0.3303733468 -0.3656876385 -0.1497152746 1.515020841e-38
-0.352747798 -0.7311295867 -0.3194072843 1.515020841e-38
0.330070287 -0.3080515265 0.0184512455 1.515020841e-38
-0.3192928731 -0.7488641143 -0.1732955575 1.515020841e-38
0.0676023066 -0.7074872255 -0.3281021118 1.515020841e-38
0.1578439325 -0.4889454246 0.1272414923 1.533351927e-38
0.1086778864 -0.4645705223 -0.07485349476 1.533351927e-38
0.0110016875 -0.4386110902 -0.2411884069 1.533351927e-38
0.2948436439 -0.7052756548 -0.2537028193 1.533351927e-38
0.03338250518 -0.4662974477 -0.09206546098 1.533351927e-38
0.3431769907 -0.3025535345 0.04958513379 1.533351927e-38
-0.1390608251 -0.4923610091 0.1680388451 1.533351927e-38
-0.231046468 -0.09117356688 -0.2203858644 1.533351927e-38
0.2668090761 -0.6994180083 -0.3087608516 1.551683013e-38
-0.5368022919 -0.03660522401 -0.2148677409 1.551683013e-38
-0.1097954065 -0.7355583906 -0.1890246868 1.551683013e-38
0.05802930146 -0.4647320509 -0.09391594678 1.551683013e-38
-0.06117941812 -0.7309429646 -0.2041073591 1.551683013e-38
0.1367124468 -0.4704281688 -0.01979543641 1.551683013e-38
0.280487597 -0.7016045451 -0.2869226933 1.551683013e-38
0.1216788664 -0.4652724266 -0.06439703703 1.551683013e-38
0.3146124184 -0.184137702 0.02339285985 1.570049832e-38
-0.03137370571 -0.09698873013 -0.2310178131 1.570049832e-38
-0.2220207751 -0.4901570082 -0.01572683081 1.570049832e-38
-0.4030643106 -0.3795529008 -0.1420778483 1.570049832e-38
0.3232948184 -0.29320544 -0.09536583722 1.570049832e-38
-0.146088019 -0.7393910885 -0.1748672277 1.570049832e-38
-0.09268902242 -0.4956915975 0.07745610923 1.570049832e-38
-0.3123899102 -0.7362045646 -0.2652744651 1.570049832e-38
0.3173302114 -0.7267621756 -0.08390240371 1.588380918e-38
0.279810071 -0.7001199126 -0.2983044088 1.588380918e-38
-0.122118786 -0.7363410592 -0.1880994439 1.588380918e-38
0.2531306148 -0.6972315311 -0.3305990398 1.588380918e-38
0.3390059471 -0.2998457849 -0.03938253969 1.588380918e-38
0.3226172626 -0.2917208076 -0.1067475602 1.588380918e-38
0.2012728304 -0.4387475848 -0.1640133709 1.588380918e-38
0.4288696051 -0.3147472143 0.0324720256 1.588380918e-38
0.1992401779 -0.4342937469 -0.1981584877 1.606712004e-38
0.1941951811 -0.1104076132 -0.2414142787 1.606712004e-38
-0.1200459823 -0.4913185239 0.03377974778 1.606712004e-38
0.2728824615 -0.1657372117 -0.2075068653 1.606712004e-38
0.2026279271 -0.4417167902 -0.1412499547 1.606712004e-38
0.3002640307 -0.7171525955 -0.1626491398 1.606712004e-38
-0.1427002698 -0.7468141317 -0.1179586872 1.606712004e-38
0.2401296794 -0.6965295672 -0.3410555124 1.606712004e-38
-0.2187231034 -0.09039087594 -0.2213110924 1.625043089e-38
0.4164821506 -0.216856122 0.03228982911 1.625043089e-38
-0.2803986669 -0.469009459 0.1378134787 1.625043089e-38
0.01791983657 -0.09385795891 -0.2347187847 1.625043089e-38
0.06967512518 -0.4624647498 -0.1062229127 1.625043089e-38
-0.1435334831 -0.094863832 -0.2247765958 1.625043089e-38
0.2914313078 -0.1508103311 -0.3117927313 1.625043089e-38
-0.2090198696 -0.4908589721 -0.005270376801 1.625043089e-38
-0.1966964602 -0.4900762439 -0.006195619702 1.643374035e-38
-0.246667549 -0.491722405 -0.01387634873 1.643374035e-38
0.2039830238 -0.4446860552 -0.1184865534 1.643374035e-38
0.03024321236 -0.09307526797 -0.2356440127 1.643374035e-38
-0.111787878 -0.4816281796 -0.03543573618 1.643374035e-38
0.1196462139 -0.4608185887 -0.09854216129 1.643374035e-38
-0.1241112724 -0.4824109077 -0.03451049328 1.643374035e-38
0.3417161405 -0.3057842255 0.006144279148 1.643374035e-38
-0.02325826325 -0.4468976259 -0.1928858459 1.661705121e-38
-0.08582618833 -0.7325083613 -0.2022568733 1.661705121e-38
0.3091996312 -0.7089468241 -0.2204829156 1.661705121e-38
-0.3309387267 -0.7511314154 -0.1609885991 1.661705121e-38
0.3174501359 -0.1625704765 -0.1368762851 1.661705121e-38
0.2769477367 -0.1746448725 -0.1392166167 1.661705121e-38
-0.173404783 -0.4855416417 -0.03080952913 1.661705121e-38
-0.1056899428 -0.4949896932 0.06699965149 1.661705121e-38
-0.07430785894 -0.7577466965 -0.008767813444 1.680036207e-38
-0.2601127625 -0.4558303356 -0.2208330631 1.680036207e-38
-0.3274234533 -0.7310488224 -0.3098760843 1.680036207e-38
-0.119368434 -0.4928031564 0.04516150057 1.680036207e-38
0.309877187 -0.7104314566 -0.2091012001 1.680036207e-38
0.4022319019 -0.2069850862 0.01974741369 1.680036207e-38
0.2073707581 -0.4521090984 -0.06157800555 1.680036207e-38
-0.1700572371 -0.7424410582 -0.1616350412 1.680036207e-38
-0.2713544965 -0.7427641153 -0.1997599602 1.698367293e-38
0.3132649064 -0.7178544998 -0.1521926522 1.698367293e-38
0.05488994718 -0.09150988609 -0.2374944985 1.698367293e-38
-0.08851797134 -0.4983993769 0.1664238274 1.698367293e-38
0.1326471567 -0.461520493 -0.08808570355 1.698367293e-38
0.2094034106 -0.4565629363 -0.02743285522 1.698367293e-38
0.09228923172 -0.4564455748 -0.1422185302 1.698367293e-38
0.2204309702 -0.3029590845 -0.197609067 1.698367293e-38
-0.2939685881 -0.74878335 -0.1637643278 1.716698239e-38
0.3031998873 -0.1526994407 -0.1494186968 1.716698239e-38
0.13129206 -0.4585512877 -0.1108491272 1.716698239e-38
-0.1247888207 -0.4809262753 -0.04589219019 1.716698239e-38
0.3279319108 -0.309797585 -0.03637133911 1.716698239e-38
0.3119098246 -0.7148852348 -0.1749560684 1.716698239e-38
-0.1124654263 -0.4801436067 -0.04681743309 1.716698239e-38
0.1972075403 -0.4298399091 -0.2323036492 1.716698239e-38
0.2914558947 -0.6978526115 -0.3106113672 1.735029324e-38
-0.1371122003 -0.4817090034 -0.04496694729 1.735029324e-38
0.3120297492 -0.1506935954 -0.2279299498 1.735029324e-38
0.1162584797 -0.4533955455 -0.1554507017 1.735029324e-38
0.2777774036 -0.6956660748 -0.3324495256 1.735029324e-38
0.01005068328 -0.720308423 -0.2551856637 1.735029324e-38
-0.1494355798 -0.482491672 -0.04404170439 1.735029324e-38
-0.07119671255 -0.4529975653 -0.1664214432 1.735029324e-38
0.1299369633 -0.4555820823 -0.1336125284 1.75336041e-38
0.3045549989 -0.155668661 -0.1266552806 1.75336041e-38
-0.08191657811 -0.09095036983 -0.2294028103 1.75336041e-38
-0.2477893382 -0.4550476074 -0.221758306 1.75336041e-38
0.2984570563 -0.1423071623 -0.2290906757 1.75336041e-38
0.0792883113 -0.4557436109 -0.152674973 1.75336041e-38
-0.2076647729 -0.4938281775 0.01749304682 1.75336041e-38
-0.2514103949 -0.4813301563 -0.09354831278 1.75336041e-38
-0.2199881375 -0.494610846 0.01841828972 1.771655483e-38
-0.2569425702 -0.0835698396 -0.2206213325 1.771655483e-38
0.3349406421 -0.290938139 -0.1076728031 1.771655483e-38
0.1965299994 -0.4283553362 -0.2436853349 1.771655483e-38
-0.1747598797 -0.4825724363 -0.05357292295 1.771655483e-38
0.3208454549 -0.706679523 -0.2327898592 1.771655483e-38
-0.2733871341 -0.7383103371 -0.233905077 1.771655483e-38
0.3194903731 -0.7037103176 -0.2555532753 1.771655483e-38
-0.3302612007 -0.7526160479 -0.1496068984 1.789986569e-38
0.05464156717 -0.4573090076 -0.1508244872 1.789986569e-38
-0.1727674305 -0.7365026474 -0.2071618885 1.789986569e-38
-0.08650372922 -0.7310237885 -0.2136385888 1.789986569e-38
-0.2597086132 -0.7404968143 -0.2120668888 1.789986569e-38
-0.4357165396 -0.04868194833 -0.2180977464 1.789986569e-38
0.2810130119 -0.1835525334 -0.07092637569 1.789986569e-38
0.3181352615 -0.7007410526 -0.2783167064 1.789986569e-38
-0.182340458 -0.4937474132 0.02702426165 1.808317654e-38
-0.1008196026 -0.4778763056 -0.0591243729 1.808317654e-38
0.1415827721 -0.4533147812 -0.1459195018 1.808317654e-38
-0.1269891262 -0.7534544468 -0.06197538972 1.808317654e-38
0.3037792444 -0.697069943 -0.3115365803 1.808317654e-38
0.2901007831 -0.6948834658 -0.3333747685 1.808317654e-38
-0.007976286113 -0.08625421673 -0.2349542528 1.808317654e-38
0.04164058715 -0.4566071033 -0.1612809747 1.808317654e-38
-0.0745844543 -0.445574522 -0.2233299911 1.826612727e-38
-0.4616126716 -0.04107822478 -0.2183332294 1.826612727e-38
-0.2951620221 -0.07674878836 -0.2199315727 1.826612727e-38
0.1606816351 -0.4673781991 -0.03302764148 1.826612727e-38
-0.07526200265 -0.4440899491 -0.2347117066 1.826612727e-38
-0.1974141598 -0.7380679846 -0.2053114176 1.826612727e-38
-0.2460301518 -0.7426834106 -0.1902287155 1.826612727e-38
0.3422879279 -0.3134687543 -0.003151457757 1.826612727e-38
-0.2083824724 -0.7418198586 -0.1816227436 1.844943813e-38
-0.01591100544 -0.4694282413 -0.08836449683 1.844943813e-38
-0.157106176 -0.08647741377 -0.2259373069 1.844943813e-38
-0.02624190971 -0.7241410613 -0.2410281897 1.844943813e-38
0.1545837075 -0.4540166855 -0.1354629993 1.844943813e-38
0.43147403 -0.3268855512 0.05732138082 1.844943813e-38
-0.06050822884 -0.3392992616 -0.1721565723 1.844943813e-38
-0.07485789061 -0.7287564278 -0.2259455323 1.844943813e-38
-0.2097375691 -0.7388507128 -0.2043861598 1.863274899e-38
-0.2137627006 -0.4804667234 -0.08494234085 1.863274899e-38
-0.2931233943 -0.4732859731 -0.1704445481 1.863274899e-38
-0.09990877658 -0.4456553459 -0.2328612208 1.863274899e-38
0.2894232571 -0.6933988333 -0.344756484 1.863274899e-38
0.01834894158 -0.4611417055 -0.1366670728 1.863274899e-38
0.1395501345 -0.4488609433 -0.1800646186 1.863274899e-38
-0.07283159345 -0.34008196 -0.1712313294 1.863274899e-38
-0.08718128502 -0.729539156 -0.2250202894 1.881569971e-38
0.3134906292 -0.1474629194 -0.1844890714 1.881569971e-38
0.294819057 -0.1582333744 -0.2548841834 1.881569971e-38
-0.3295836449 -0.7541006804 -0.1382251978 1.881569971e-38
0.3436430097 -0.3164379597 0.019611964 1.881569971e-38
-0.2760973275 -0.7323718667 -0.2794318795 1.881569971e-38
-0.3419070244 -0.7548833489 -0.1372999549 1.881569971e-38
0.0286396686 -0.4559051991 -0.1717374325 1.881569971e-38
-0.2186330408 -0.4975800514 0.04118168354 1.899901057e-38
-0.1131647378 -0.4999647737 0.1682743132 1.899901057e-38
0.3024241328 -0.6941007376 -0.3343000114 1.899901057e-38
-0.112633124 -0.7571256161 -0.02875553071 1.899901057e-38
-0.09895463288 -0.7593121529 -0.006917327642 1.899901057e-38
0.101224862 -0.4482398033 -0.2000523061 1.899901057e-38
0.3207179308 -0.7341852188 -0.02699385583 1.899901057e-38
0.3161026239 -0.6962872744 -0.3124618232 1.899901057e-38
0.3318137527 -0.7029275894 -0.2564785182 1.91819627e-38
0.08890148997 -0.4490225315 -0.1991270632 1.91819627e-38
0.3304586411 -0.699958384 -0.2792419493 1.91819627e-38
-0.2487403452 -0.7367449403 -0.2357555628 1.91819627e-38
0.3168783784 -0.1548859775 -0.1275805235 1.91819627e-38
-0.1933488697 -0.7469756603 -0.1370211542 1.91819627e-38
-0.2664841115 -0.7256507277 -0.3258839846 1.91819627e-38
-0.2063498348 -0.746273756 -0.1474776268 1.91819627e-38
-0.294478476 -0.4703167081 -0.1932079792 1.936527215e-38
-0.1994468123 -0.7336141467 -0.2394565344 1.936527215e-38
-0.174800083 -0.7320487499 -0.2413070202 1.936527215e-38
0.1165068671 -0.08759641647 -0.242120713 1.936527215e-38
-0.1289816201 -0.4995242953 0.09161353856 1.936527215e-38
0.1970334947 -0.313693583 -0.1936726123 1.936527215e-38
0.01966389455 -0.7135872841 -0.3016377091 1.936527215e-38
-0.06882557273 -0.4988415241 0.04354649037 1.936527215e-38
-0.06321205199 -0.7264891863 -0.2382524759 1.954822428e-38
-0.02691945806 -0.7226564884 -0.252409935 1.954822428e-38
0.0003718752414 -0.4837530851 -0.04167696089 1.954822428e-38
0.2999179065 -0.1390764713 -0.1856497824 1.954822428e-38
-0.2637739182 -0.7315891981 -0.2803571224 1.954822428e-38
-0.1556610316 -0.4966358542 0.05931892246 1.954822428e-38
-0.1637916118 -0.4788205028 -0.07726158947 1.954822428e-38
-0.4492892623 -0.04029552639 -0.2192584723 1.954822428e-38
0.02004253305 -0.5055010319 0.06191916019 1.973153514e-38
-0.1078126431 -0.08334664255 -0.2296382785 1.973153514e-38
0.3057873249 -0.1544814706 -0.2785728574 1.973153514e-38
0.2570614517 -0.1156632602 -0.2439545393 1.973153514e-38
0.05125382543 -0.4498859644 -0.2077330351 1.973153514e-38
0.3080484867 -0.156891793 -0.04906930774 1.973153514e-38
-0.0755354315 -0.7272718549 -0.237327233 1.973153514e-38
0.03893039376 -0.450668633 -0.2068077922 1.973153514e-38
-0.1615256816 -0.4495688081 -0.2282350063 1.991448586e-38
0.008018040098 -0.7158545256 -0.2893307805 1.991448586e-38
-0.205672279 -0.7477583289 -0.1360958964 1.991448586e-38
-0.2534831762 -0.7263526917 -0.3154275417 1.991448586e-38
-0.1501533091 -0.7304834127 -0.243157506 1.991448586e-38
0.3147475123 -0.6933180094 -0.3352252543 1.991448586e-38
0.2880681455 -0.6904295683 -0.3675199151 1.991448586e-38
-0.2124477625 -0.7329122424 -0.2499129772 1.991448586e-38
-0.2274411619 -0.478280127 -0.1067804992 2.009743799e-38
-0.1514682323 -0.4780378342 -0.07818682492 2.009743799e-38
-0.06747047603 -0.5018107295 0.06630989164 2.009743799e-38
-0.2432798147 -0.4991454482 0.04303216934 2.009743799e-38
0.2933364511 -0.182769835 -0.07185162604 2.009743799e-38
-0.00362778455 -0.7181218863 -0.2770238221 2.009743799e-38
-0.1386349946 -0.7557217479 -0.04966844618 2.009743799e-38
0.3284260035 -0.6955045462 -0.3133870661 2.009743799e-38
-0.3087347448 -0.06836237013 -0.2210922837 2.028074885e-38
0.05057627708 -0.4484013319 -0.2191147506 2.028074885e-38
-0.1283040643 -0.5010089278 0.1029952839 2.028074885e-38
0.0189863462 -0.7121026516 -0.3130194247 2.028074885e-38
-0.08318161964 -0.4951703548 0.01032658666 2.028074885e-38
-0.1679843962 -0.4974185228 0.06024416536 2.028074885e-38
0.4327233434 -0.3360546827 0.05940734968 2.028074885e-38
-0.2514505386 -0.7308064699 -0.2812823653 2.028074885e-38
0.005686488003 -0.5018298626 0.02869924903 2.046369957e-38
-0.1926311702 -0.4989839196 0.06209465116 2.046369957e-38
0.3211564124 -0.2949514985 -0.1501884311 2.046369957e-38
0.2975292504 -0.1641718149 -0.2093573511 2.046369957e-38
-0.1021746993 -0.4749070406 -0.08188779652 2.046369957e-38
-0.05851912498 -0.08021587133 -0.2333392501 2.046369957e-38
0.214718014 -0.4746396542 0.04294335097 2.046369957e-38
0.3227505982 -0.7386389971 0.007151290774 2.046369957e-38
-0.1543059349 -0.4996050596 0.08208232373 2.06466517e-38
0.2940140069 -0.1842544377 -0.06046992168 2.06466517e-38
-0.2786833346 -0.4920629859 0.109926261 2.06466517e-38
-0.2014794499 -0.7291603088 -0.2736016512 2.06466517e-38
-0.2138028592 -0.729943037 -0.2726764083 2.06466517e-38
-0.08862373978 -0.5045992732 0.1457463503 2.06466517e-38
-0.2458685189 -0.07361801714 -0.2236325443 2.06466517e-38
-0.1016246602 -0.5038973689 0.1352899075 2.06466517e-38
-0.2411196232 -0.4760936499 -0.1286186725 2.082996116e-38
0.02592947893 -0.4499667287 -0.2172642648 2.082996116e-38
-0.15083085 -0.7289987803 -0.2545391917 2.082996116e-38
-0.2281187177 -0.4767955542 -0.1181622222 2.082996116e-38
0.3318914175 -0.3249051273 0.01124143973 2.082996116e-38
0.01830879785 -0.7106180191 -0.3244011402 2.082996116e-38
0.09061079472 -0.07999267429 -0.242356196 2.082996116e-38
0.3270708919 -0.6925353408 -0.3361504972 2.082996116e-38
0.1916965395 -0.09206937253 -0.2455862164 2.101291328e-38
0.08583050966 -0.5042952895 0.1462606788 2.101291328e-38
0.3421045244 -0.697691083 -0.2915489078 2.101291328e-38
0.01134018414 -0.4800012112 -0.06536559761 2.101291328e-38
0.147808224 -0.439170599 -0.2492800951 2.101291328e-38
-0.1919536293 -0.5004685521 0.0734763518 2.101291328e-38
0.3448147178 -0.7036294937 -0.2460220754 2.101291328e-38
0.01665479504 -0.4980779886 0.005010612309 2.101291328e-38
0.3330413103 -0.7334024906 -0.02791909873 2.119586541e-38
0.2133629322 -0.4716704488 0.02017995715 2.119586541e-38
-0.241797179 -0.4746090174 -0.1400004029 2.119586541e-38
-0.1151756197 -0.4742051363 -0.09234427661 2.119586541e-38
-0.06543783098 -0.5062645674 0.1004550382 2.119586541e-38
0.3054453135 -0.2883111238 -0.2061717212 2.119586541e-38
-0.01862119883 -0.4634897709 -0.1338913441 2.119586541e-38
-0.1515084058 -0.7275141478 -0.2659209371 2.119586541e-38
-0.2151579559 -0.726973772 -0.2954398394 2.137881613e-38
0.0277445633 -0.07473702729 -0.2398159504 2.137881613e-38
0.3095310926 -0.1323553473 -0.2321018726 2.137881613e-38
0.01225101016 -0.4477801919 -0.2391024232 2.137881613e-38
-0.1378115118 -0.5015301704 0.170124799 2.137881613e-38
0.2038772553 -0.4508858919 -0.1391639709 2.137881613e-38
0.3407494426 -0.694721818 -0.314312309 2.137881613e-38
-0.2711867988 -0.4657821655 -0.2178218663 2.137881613e-38
0.205232352 -0.4538551569 -0.1164005846 2.156176826e-38
-0.278789103 -0.4982628822 0.08924878389 2.156176826e-38
-0.0009832177311 -0.4807838798 -0.0644403547 2.156176826e-38
-0.1269489676 -0.5039781332 0.1257586777 2.156176826e-38
0.04006792605 -0.07395433635 -0.2407411933 2.156176826e-38
-0.2659341097 -0.7546410561 -0.1087062657 2.156176826e-38
0.3334797919 -0.2941688001 -0.1511136591 2.156176826e-38
-0.5393009186 -0.01826700568 -0.2190396637 2.156176826e-38
0.348202467 -0.711052537 -0.1891135275 2.174471899e-38
-0.02895210311 -0.7182025909 -0.2865550518 2.174471899e-38
0.2072649896 -0.4583089948 -0.08225543052 2.174471899e-38
-0.315227598 -0.75777179 -0.1050052941 2.174471899e-38
-0.1899611354 -0.7543987036 -0.08011262864 2.174471899e-38
-0.1652742028 -0.5033569932 0.1057710126 2.174471899e-38
0.1823848933 -0.4935799241 0.1047135815 2.174471899e-38
-0.128176555 -0.473503232 -0.1028007343 2.174471899e-38
0.1810297966 -0.4906107187 0.08195019513 2.192767111e-38
0.3277238905 -0.1469776481 -0.3259501457 2.192767111e-38
0.3187882602 -0.1551833898 -0.2681163847 2.192767111e-38
0.3328022361 -0.2926841974 -0.1624953896 2.192767111e-38
-0.06723719835 -0.4681051373 -0.118808642 2.192767111e-38
0.3000237048 -0.1328765899 -0.16497235 2.192767111e-38
0.1474474221 -0.5003818274 0.1416344643 2.192767111e-38
-0.01239575911 -0.4493455887 -0.2372519374 2.192767111e-38
0.1781238019 -0.08368295431 -0.2467469275 2.211062324e-38
0.1796746999 -0.4876414537 0.05918674916 2.211062324e-38
0.06471472979 -0.07238894701 -0.2425916791 2.211062324e-38
-0.1501348764 -0.502312839 0.1710500419 2.211062324e-38
-0.1132705063 -0.50616467 0.1475968361 2.211062324e-38
0.3063373566 -0.1834717542 -0.06139516085 2.211062324e-38
-0.1262714267 -0.5054627657 0.1371403933 2.211062324e-38
-0.1398625374 -0.7252469063 -0.2782278657 2.211062324e-38
0.3284014463 -0.1484622657 -0.31456846 2.229357396e-38
-0.5269775391 -0.01748431474 -0.2199649066 2.229357396e-38
0.30408898 -0.1417842507 -0.09668208659 2.229357396e-38
-0.02962964773 -0.7167180181 -0.2979367375 2.229357396e-38
-0.1145382524 -0.7251660824 -0.2686966658 2.229357396e-38
-0.1535008699 -0.4735839963 -0.1123319417 2.229357396e-38
-0.2720976472 -0.4980031252 -0.04408501834 2.229357396e-38
-0.2575083375 -0.4679686427 -0.1959837079 2.229357396e-38
0.3394719362 -0.3137301803 -0.06935576349 2.247652609e-38
0.3564605415 -0.7013621926 -0.258329004 2.247652609e-38
-0.0775680691 -0.722818017 -0.2714723945 2.247652609e-38
-0.2775799036 -0.7569082975 -0.09639932215 2.247652609e-38
-0.2899033129 -0.7576910257 -0.09547407925 2.247652609e-38
-0.02336403355 -0.4530975223 -0.213563323 2.247652609e-38
0.308154285 -0.1506919116 -0.02839184739 2.247652609e-38
-0.1275391728 -0.7244641781 -0.2791531086 2.247652609e-38
-0.1411774755 -0.4728013277 -0.1132571846 2.265947681e-38
-0.1288540959 -0.4720185995 -0.1141824275 2.265947681e-38
0.003653846681 -0.4973760247 -0.005445845425 2.265947681e-38
0.2681354582 -0.1057114601 -0.2469657362 2.265947681e-38
-0.2714201212 -0.4994876981 -0.03270332143 2.265947681e-38
0.3453646898 -0.732619822 -0.02884434164 2.265947681e-38
0.3297565281 -0.1514314711 -0.2918050289 2.265947681e-38
-0.01047493238 -0.0679159984 -0.2391261756 2.265947681e-38
-0.2451849133 -0.4671859741 -0.1969089508 2.284242894e-38
-0.1405400932 -0.7237622738 -0.2896095514 2.284242894e-38
-0.1719281971 -0.06892186403 -0.2291840017 2.284242894e-38
-0.03030719608 -0.7152334452 -0.3093184531 2.284242894e-38
-0.2185055465 -0.4700744152 -0.16461429 2.284242894e-38
-0.1535410434 -0.7230603695 -0.3000660539 2.284242894e-38
0.001848500222 -0.06713330001 -0.2400514185 2.284242894e-38
0.3563330472 -0.7288678885 -0.05253298581 2.284242894e-38
-0.09959201515 -0.5083512068 0.1694350541 2.302537966e-38
-0.3358801603 -0.05158951879 -0.2234137356 2.302537966e-38
0.01110687293 -0.5137067437 0.1197529361 2.302537966e-38
-0.1879284978 -0.7588524818 -0.04596747458 2.302537966e-38
-0.179542914 -0.7216565013 -0.3209789693 2.302537966e-38
-0.2328615487 -0.4664032459 -0.1978341937 2.302537966e-38
0.3639135659 -0.7176929116 -0.1331302226 2.302537966e-38
0.101684846 -0.07004087418 -0.2453673929 2.302537966e-38
0.3659462035 -0.7221467495 -0.09898507595 2.320833179e-38
0.3373616934 -0.6872987747 -0.3712208569 2.320833179e-38
-0.2624844611 -0.4912819266 -0.09053710848 2.320833179e-38
-0.1795027107 -0.4721801877 -0.133244887 2.320833179e-38
0.2940315604 -0.1133151874 -0.2467302531 2.320833179e-38
-0.2347944379 -0.06366621703 -0.2266437411 2.320833179e-38
0.3297529817 -0.3266512156 -0.0435811393 2.320833179e-38
-0.2342166454 -0.4634340405 -0.220597595 2.320833179e-38
-0.2769023478 -0.75839293 -0.08501762152 2.339092378e-38
-0.1555335224 -0.4691301584 -0.1464771032 2.339092378e-38
-0.071302481 -0.4591975212 -0.1870989203 2.339092378e-38
0.3191225529 -0.1469399929 -0.05208051205 2.339092378e-38
-0.1349580586 -0.06657378376 -0.2319597155 2.339092378e-38
-0.1735724807 -0.7625236511 -0.01274757087 2.339092378e-38
-0.3138724864 -0.7607409954 -0.08224189281 2.339092378e-38
0.2980968356 -0.1222228482 -0.1784400195 2.339092378e-38
-0.2224710733 -0.06288352609 -0.227568984 2.348204041e-38
0.3290754259 -0.3251666129 -0.05496283621 2.348204041e-38
0.3262412846 -0.1715140939 -0.1429175884 2.348204041e-38
0.3143797219 -0.1365477294 -0.1317524463 2.348204041e-38
0.2063541412 -0.4905299544 0.09148139507 2.348204041e-38
-0.1808578074 -0.4692109227 -0.1560083032 2.348204041e-38
-0.1762425154 -0.5071089268 0.1294596493 2.348204041e-38
-0.1438876688 -0.4668628573 -0.1587840319 2.348204041e-38
0.207031697 -0.4920145869 0.1028630957 2.348132155e-38
-0.1425727308 -0.7193084359 -0.323754698 2.348132155e-38
-0.2392546833 -0.7575294971 -0.07641164958 2.348132155e-38
-0.09192411602 -0.7191468477 -0.3046922684 2.348132155e-38
-0.108272627 -0.4615455866 -0.1843231916 2.348132155e-38
0.1749318689 -0.4772492051 -0.02048519626 2.348132155e-38
0.3674288094 -0.6976103187 -0.282017678 2.348132155e-38
-0.0796007216 -0.7183642387 -0.3056175113 2.348132155e-38
-0.1445652246 -0.4653782845 -0.1701657325 2.348060128e-38
0.3211551905 -0.1513938308 -0.01793536171 2.348060128e-38
0.05114197731 -0.06400253624 -0.2437523901 2.348060128e-38
-0.1205959991 -0.4623282552 -0.1833979487 2.348060128e-38
-0.1233061925 -0.4563898444 -0.2289247513 2.348060128e-38
-0.1212735474 -0.4608436227 -0.1947796345 2.348060128e-38
-0.03166229278 -0.7122641802 -0.3320818841 2.348060128e-38
-0.1705670953 -0.4639744163 -0.1910786778 2.348060128e-38
0.300807029 -0.1281612813 -0.1329131722 2.347952368e-38
0.343431443 -0.3288377523 -0.02174295485 2.347952368e-38
0.1728992164 -0.4727953672 -0.0546303466 2.347952368e-38
0.4127341807 -0.1893487722 0.0260319449 2.347952368e-38
-0.2095698714 -0.4618687034 -0.2224480808 2.347952368e-38
0.002298749983 -0.4944068193 -0.02820926532 2.347952368e-38
-0.07334113866 -0.06266032159 -0.23658593 2.347952368e-38
-0.1502406448 -0.5085127354 0.1503725648 2.347952368e-38
-0.1958914101 -0.4640551805 -0.2006099224 2.347880341e-38
-0.1835680008 -0.463272512 -0.2015351653 2.347880341e-38
0.3978063762 -0.1779931337 0.002107828856 2.347880341e-38
0.01394460164 -0.4921395183 -0.04051623493 2.347880341e-38
-0.2015668452 -0.5071896911 0.1199284419 2.347880341e-38
-0.1972465068 -0.4610859752 -0.2233733237 2.347880341e-38
0.3270427883 -0.320712775 -0.08910795301 2.347880341e-38
0.3640410602 -0.6901872754 -0.3389262259 2.347880341e-38
-0.1056025922 -0.7169603109 -0.3265304267 2.347808455e-38
0.3728491962 -0.7094871998 -0.1909640133 2.347808455e-38
-0.1855009198 -0.06053544953 -0.2303447127 2.347808455e-38
-0.2606905401 -0.05606247112 -0.2268792242 2.347808455e-38
0.3461416364 -0.3347761929 0.02378389053 2.347808455e-38
0.3303065598 -0.1804217696 -0.07462734729 2.347808455e-38
-0.451787889 -0.02195726708 -0.22343041 2.347808455e-38
0.3331442773 -0.1588545293 -0.234896481 2.347808455e-38
-0.01172425691 -0.05874686316 -0.2412121445 2.347700555e-38
0.4247197211 -0.3720292151 0.05729473755 2.347700555e-38
0.0124619659 -0.5166759491 0.1425163448 2.347700555e-38
0.08811215311 -0.06165445596 -0.2465281188 2.347700555e-38
-0.2939067185 -0.4780012369 -0.202503711 2.347700555e-38
-0.34019804 -0.3848085403 -0.1446181089 2.347700555e-38
-0.1852183044 -0.7647909522 -0.0004406273365 2.347700555e-38
-0.1988968104 -0.762604475 -0.02227883041 2.347700555e-38
0.3117752969 -0.1244093776 -0.1566018313 2.347628668e-38
0.1244107857 -0.4499050975 -0.2453436553 2.347628668e-38
-0.06893134117 -0.5050414205 0.0228690058 2.347628668e-38
0.3372095823 -0.1677621901 -0.1666062474 2.347628668e-38
0.2533134818 -0.08815591037 -0.250212431 2.347628668e-38
-0.250900507 -0.7597967386 -0.06410466135 2.347628668e-38
0.3124528527 -0.1258939803 -0.1452201456 2.347628668e-38
-0.4776839912 -0.01435354352 -0.2236658782 2.347628668e-38
0.01326705702 -0.4906549454 -0.05189793184 2.347520768e-38
0.4363655448 -0.369761914 0.04498780146 2.347520768e-38
0.1955133826 -0.4667761922 -0.09062595665 2.347520768e-38
0.2475763708 -0.3197319508 -0.19528763 2.347520768e-38
0.2968474925 -0.1130537391 -0.1805259734 2.347520768e-38
0.1961909235 -0.4682608247 -0.07924423367 2.347520768e-38
0.1914480925 -0.4578685164 -0.1589162052 2.347520768e-38
0.3597207963 -0.7362909317 0.004375547171 2.347520768e-38
0.1907705367 -0.456383884 -0.1702979207 2.347448882e-38
0.1968684793 -0.4697453976 -0.06786254048 2.347448882e-38
0.1982235759 -0.4727146029 -0.04509911314 2.347448882e-38
0.2792095244 -0.09575966001 -0.249976933 2.347448882e-38
0.3326964676 -0.298884064 -0.1831728518 2.347448882e-38
0.1900929958 -0.4548993111 -0.1816796362 2.347448882e-38
0.02650125138 -0.4576512575 -0.2265599966 2.347448882e-38
0.1989011168 -0.4741992354 -0.03371741623 2.347448882e-38
-0.07695614547 -0.4810261726 -0.09303404391 2.347340982e-38
0.2988801301 -0.1175075695 -0.1463808566 2.347340982e-38
0.1490575373 -0.4483397007 -0.2471941411 2.347340982e-38
0.1995786726 -0.4756838679 -0.02233568951 2.347340982e-38
-0.08125474304 -0.5058240891 0.02379425615 2.347340982e-38
-0.08260983974 -0.5028548837 0.001030854881 2.347340982e-38
0.3330349624 -0.3402741551 -0.007350055967 2.347340982e-38
0.3002352417 -0.1204767898 -0.123617433 2.347340982e-38
-0.4394645095 -0.02117457613 -0.224355638 2.347269095e-38
0.3419524133 -0.1781544685 -0.08693428338 2.347269095e-38
-0.07096398622 -0.5005875826 -0.01127611846 2.347269095e-38
0.2397407144 -0.07976949215 -0.251373142 2.347269095e-38
0.01258950867 -0.4891703129 -0.06327962875 2.347269095e-38
-0.1975417137 -0.7655736208 0.0004846155643 2.347269095e-38
0.09940320998 -0.5126817226 0.1474213898 2.347269095e-38
0.0008161496371 -0.5189432502 0.154823333 2.347269095e-38
0.06243303418 -0.515029788 0.1501971185 2.347161195e-38
0.3049780726 -0.1308690608 -0.04394547269 2.347161195e-38
-0.08328738809 -0.5013702512 -0.01035086811 2.347161195e-38
-0.07786700875 -0.5132471323 0.08070280403 2.347161195e-38
-0.2665497661 -0.4823743105 -0.1588273495 2.347161195e-38
0.2138446271 -0.07216574997 -0.25160864 2.347161195e-38
0.1240499392 -0.5111163259 0.145570904 2.347161195e-38
0.3229774833 -0.3118051291 -0.1573982239 2.347161195e-38
-0.2543538809 -0.5090972781 0.04604337364 2.347089308e-38
-0.3882422745 -0.3971084356 -0.1388311684 2.347089308e-38
0.309170872 -0.1122710481 -0.1814512163 2.347089308e-38
-0.3630255759 -0.03481668234 -0.2257351726 2.347089308e-38
0.3098484278 -0.1137556583 -0.1700695157 2.347089308e-38
-0.0771894604 -0.5147317648 0.09208448976 2.347089308e-38
0.0002661067992 -0.4899529815 -0.06235438585 2.347089308e-38
0.4114848673 -0.1801796556 0.0239459835 2.347089308e-38
0.3063331544 -0.133838281 -0.0211820472 2.346981408e-38
0.3105259538 -0.1152402684 -0.1586878002 2.346981408e-38
0.3222999573 -0.3103204966 -0.1687799245 2.346981408e-38
-0.2679048479 -0.4794050455 -0.1815907657 2.346981408e-38
0.3816573322 -0.7287871242 -0.04300177097 2.346981408e-38
0.272223115 -0.318166554 -0.1971381158 2.346981408e-38
-0.1867502332 -0.05136631802 -0.2324306816 2.346981408e-38
0.01191196032 -0.4876856804 -0.07466135174 2.346981408e-38
-0.4271411002 -0.02039188147 -0.2252808958 2.346909522e-38
-0.01297357772 -0.04957775399 -0.2432980984 2.346909522e-38
-0.08601932228 -0.5167376399 0.1705957651 2.346909522e-38
-0.1744268388 -0.05058362335 -0.2333559245 2.346909522e-38
0.1486967504 -0.5095509887 0.1437204182 2.346909522e-38
0.3433257043 -0.3350376189 -0.04242041707 2.346909522e-38
0.1990286261 -0.4466935396 -0.2395133972 2.346909522e-38
-0.2255360186 -0.5102396607 0.1331606209 2.346909522e-38
-0.0006501488388 -0.04879505932 -0.2442233562 2.346801622e-38
-0.09131219238 -0.477355063 -0.1262539327 2.346801622e-38
-0.1621034741 -0.04980093241 -0.2342811674 2.346801622e-38
0.3276145756 -0.328397274 -0.0984037146 2.346801622e-38
-0.02346980758 -0.4592974186 -0.2342407405 2.346801622e-38
0.02399659343 -0.04722967744 -0.2460738271 2.346801622e-38
0.1959576607 -0.5019663572 0.1058743075 2.346801622e-38
0.1952801049 -0.5004817247 0.09449260682 2.346801622e-38
0.3010185659 -0.115761511 -0.09155827761 2.346693862e-38
-0.3635955155 -0.3955430388 -0.1406816542 2.346693862e-38
0.1795689315 -0.4938414097 0.03850930929 2.346693862e-38
0.3836899698 -0.733240962 -0.008856683969 2.346693862e-38
0.2845465541 -0.3173838854 -0.1980633587 2.346693862e-38
-0.4486098886 -0.4101909995 -0.132119 2.346693862e-38
-0.09834269434 -0.5175203085 0.171521008 2.346693862e-38
0.1939250082 -0.4975125194 0.07172916085 2.346693862e-38
0.3412930667 -0.330583781 -0.07656553388 2.346621835e-38
-0.07299663126 -0.4961337447 -0.04542123899 2.346621835e-38
-0.4148177505 -0.01960919052 -0.2262061238 2.346621835e-38
0.1788913906 -0.4923567772 0.02712760866 2.346621835e-38
-0.2446131557 -0.4748705029 -0.2062046826 2.346621835e-38
-0.2378594279 -0.5110223889 0.1340858638 2.346621835e-38
-0.08532003313 -0.4969164729 -0.04449598864 2.346621835e-38
-0.2118575573 -0.5124261975 0.1549987793 2.346621835e-38
-0.2248584777 -0.5117242932 0.1445423067 2.346514075e-38
0.4088804424 -0.1680413187 -0.0009033791721 2.346514075e-38
-0.2708483338 -0.5071722269 -0.04199905694 2.346514075e-38
0.2125953138 -0.0629966408 -0.2536945939 2.346514075e-38
0.3085991144 -0.1045865417 -0.1721554846 2.346514075e-38
0.3200116456 -0.1360248029 0.0006561069749 2.346514075e-38
-0.2988389432 -0.7658967972 -0.03764028847 2.346514075e-38
-0.08169898391 -0.470633924 -0.1727059782 2.346514075e-38
0.2909611166 -0.08729244769 -0.2416064441 2.346406175e-38
0.177536279 -0.4893875718 0.004364162683 2.346406175e-38
-0.06351641566 -0.04353939369 -0.2416830957 2.346406175e-38
0.3099541962 -0.1075557619 -0.1493920535 2.346406175e-38
0.2082810253 -0.5011836886 0.1049490646 2.346406175e-38
0.2923162282 -0.09026166797 -0.2188430279 2.346406175e-38
0.4095579982 -0.1695259213 0.01047832146 2.346406175e-38
-0.03886964545 -0.04197400808 -0.2435335815 2.346406175e-38
0.1721159071 -0.4775106907 -0.086689502 2.346334289e-38
0.009879315272 -0.4832318425 -0.108806476 2.346334289e-38
-0.09469993412 -0.4699320197 -0.1831624657 2.346334289e-38
0.3392603993 -0.3261299729 -0.1107106581 2.346334289e-38
-0.07367417961 -0.4946491718 -0.0568029359 2.346334289e-38
-0.09741012752 -0.4639935493 -0.2286892831 2.346334289e-38
0.3126643896 -0.1134942025 -0.1038652137 2.346334289e-38
-0.09537748247 -0.4684473872 -0.1945441663 2.346334289e-38
0.1734710038 -0.4804798961 -0.06392608583 2.346226389e-38
-0.2206439674 -0.4718204737 -0.2194368541 2.346226389e-38
0.3140195012 -0.1164634228 -0.08110179007 2.346226389e-38
0.4045818746 -0.1928392351 0.1159249246 2.346226389e-38
-0.074479267 -0.5206702352 0.1376113296 2.346226389e-38
-0.1097334996 -0.4647762775 -0.2277640402 2.346226389e-38
0.1707608104 -0.4745414853 -0.1094529331 2.346226389e-38
0.3146970272 -0.1179480404 -0.06972008944 2.346226389e-38
-0.2694932222 -0.5101414323 -0.01923566312 2.346118629e-38
-0.2631891966 -0.03772425279 -0.231051147 2.346118629e-38
-0.2746180594 -0.5009706616 0.178216517 2.346118629e-38
0.3302190006 -0.3405356109 -0.07355432957 2.346118629e-38
-0.2363985628 -0.507791698 0.1775267422 2.346118629e-38
-0.001899473369 -0.03962592781 -0.2463093102 2.346118629e-38
-0.1633527875 -0.04063182324 -0.2363671213 2.346118629e-38
-0.135990411 -0.5183837414 0.162915051 2.346118629e-38
0.1851168871 -0.478212595 -0.07623302191 2.346010729e-38
-0.1836737841 -0.4694724083 -0.2222125828 2.346010729e-38
0.1990226358 -0.05461022258 -0.254855305 2.346010729e-38
0.2103136629 -0.5056375265 0.1390942037 2.346010729e-38
0.1837617904 -0.4752433896 -0.09899644554 2.346010729e-38
-0.2241809219 -0.5132088661 0.1559240222 2.346010729e-38
0.263138175 -0.06903497875 -0.2553096116 2.346010729e-38
0.3379053175 -0.3231607378 -0.1334740818 2.346010729e-38
0.02274727263 -0.03806054592 -0.248159796 2.345938842e-38
0.3452525735 -0.3456913829 -0.02895272709 2.345938842e-38
-0.2688156664 -0.5116260648 -0.007853940129 2.345938842e-38
-0.274913609 -0.4982645512 -0.1102893278 2.345938842e-38
0.3004468083 -0.1080769897 -0.08226251602 2.345938842e-38
-0.07380171865 -0.522154808 0.1489930451 2.345938842e-38
0.1824066937 -0.4722741246 -0.1217598692 2.345938842e-38
-0.1387060285 -0.03906643763 -0.2382176071 2.345938842e-38
0.3018018901 -0.1110462099 -0.0594991222 2.345830942e-38
-0.3266253769 -0.3931949735 -0.1434573829 2.345830942e-38
0.03507063538 -0.03727785498 -0.2490850389 2.345830942e-38
-0.06908362359 -0.3675892949 -0.1649734378 2.345830942e-38
0.3372277617 -0.3216761351 -0.1448557824 2.345830942e-38
0.2035381943 -0.49079144 0.02527712286 2.345830942e-38
-0.2558147609 -0.5123279691 0.002602517605 2.345830942e-38
0.1263376623 -0.4605588317 -0.2318759859 2.345830942e-38
0.3073498011 -0.09541741014 -0.1742414534 2.345723183e-38
-0.198179096 -0.5146127343 0.1768369973 2.345723183e-38
0.1010133103 -0.460639596 -0.2414071858 2.345723183e-38
0.2890342474 -0.07663872838 -0.2550741136 2.345723183e-38
0.1653404236 -0.4626646042 -0.2005065978 2.345723183e-38
0.1987953484 -0.4803991318 -0.054394871 2.345723183e-38
0.3493178487 -0.3545990288 0.03933751583 2.345723183e-38
0.06404320151 -0.462987721 -0.2386314869 2.345723183e-38
-0.2475127578 -0.7672197819 -0.007196113467 2.345615283e-38
0.3281863332 -0.3360818028 -0.1076994538 2.345615283e-38
0.2903893292 -0.07960794866 -0.2323107123 2.345615283e-38
0.3425423801 -0.3397529125 -0.07447956502 2.345615283e-38
0.4388641715 -0.388100177 0.04915973172 2.345615283e-38
0.291066885 -0.0810925588 -0.2209289819 2.345615283e-38
0.291744411 -0.08257716894 -0.2095472962 2.345615283e-38
0.1646628678 -0.4611799717 -0.2118882835 2.345615283e-38
0.1940525174 -0.4700068831 -0.1340668052 2.345507523e-38
-0.07708910853 -0.03515297547 -0.2428438216 2.345507523e-38
0.2015055418 -0.4863376021 -0.008868023753 2.345507523e-38
-0.3778476119 -0.01726111397 -0.2289818525 2.345507523e-38
0.4395417273 -0.3895847797 0.0605414249 2.345507523e-38
0.2377516478 -0.3388528824 -0.1901904643 2.345507523e-38
-0.2015722692 -0.03381079063 -0.2356773615 2.345507523e-38
0.1906647682 -0.4625838399 -0.1909753531 2.345507523e-38
0.1633077711 -0.4582107663 -0.2346517146 2.345399623e-38
0.3148028255 -0.1117481291 -0.04904263839 2.345399623e-38
-0.08803022653 -0.4909780025 -0.09002283216 2.345399623e-38
0.2964872718 -0.09296943992 -0.1298753321 2.345399623e-38
0.005814028904 -0.4743242264 -0.1770967245 2.345399623e-38
0.3335009515 -0.3541585505 -0.03732325137 2.345399623e-38
0.01542720757 -0.4676030874 -0.2235487998 2.345399623e-38
0.2985199094 -0.09742327034 -0.09573020041 2.345399623e-38
0.3033902645 -0.08030986041 -0.2218542248 2.345291723e-38
0.004458932206 -0.4713549614 -0.1998601407 2.345291723e-38
-0.3623462021 -0.4047121704 -0.1385957003 2.345291723e-38
0.3254761398 -0.3301433623 -0.1532263011 2.345291723e-38
0.3067779839 -0.08773291111 -0.1649456769 2.345291723e-38
0.003781381994 -0.4698703885 -0.2112418711 2.345291723e-38
0.3382437825 -0.3645508289 0.04234871641 2.345291723e-38
-0.2686881721 -0.484120369 -0.2136499286 2.345291723e-38
0.3391546309 -0.3323298693 -0.1313881129 2.345219836e-38
0.3389213383 -0.3660354316 0.05373041332 2.345219836e-38
0.05846811831 -0.02654335648 -0.2530215085 2.345219836e-38
-0.2274683565 -0.02620706707 -0.2359128296 2.345219836e-38
-0.07833842933 -0.0259838663 -0.2449297756 2.345219836e-38
0.3451467752 -0.3518912792 -0.04963018745 2.345219836e-38
0.3128759265 -0.1010944098 -0.06251031905 2.345219836e-38
-0.265427947 -0.519049108 0.0490545854 2.345219836e-38
-0.1852839291 -0.521514535 0.1666159928 2.345111936e-38
-0.328554064 -0.01413034275 -0.2326828241 2.345111936e-38
0.350567162 -0.3637681603 0.04142347723 2.345111936e-38
-0.07841701806 -0.4842568636 -0.1364749074 2.345111936e-38
0.2952379584 -0.08380030841 -0.1319612861 2.345111936e-38
0.09543823451 -0.02419528365 -0.2557972074 2.345111936e-38
0.3021409512 -0.07114073634 -0.2239401937 2.345111936e-38
0.3028184772 -0.07262534648 -0.212558493 2.345111936e-38
-0.2351492345 -0.5169607997 0.179612726 2.345004176e-38
0.3048511446 -0.0770791769 -0.1784133762 2.345004176e-38
-0.3162306845 -0.01334765181 -0.233608067 2.345004176e-38
-0.04318756238 -0.3751930594 -0.1647379547 2.345004176e-38
0.3169412017 -0.1100020632 0.005779917818 2.345004176e-38
0.4077368975 -0.1526723206 0.01768809557 2.345004176e-38
0.3280805647 -0.3422816694 -0.1283769161 2.345004176e-38
-0.1165578961 -0.01916283369 -0.2442400157 2.345004176e-38
0.3417590261 -0.344468236 -0.1065387279 2.344896276e-38
0.2912784517 -0.06869275868 -0.1795740873 2.344896276e-38
-0.09191115946 -0.01759745181 -0.2460905015 2.344896276e-38
-0.09548325092 -0.4746472836 -0.2152216136 2.344896276e-38
0.0572187975 -0.01737424731 -0.2551074624 2.344896276e-38
-0.3130526543 -0.4015814066 -0.142296657 2.344896276e-38
-0.1078066304 -0.4754300117 -0.2142963707 2.344896276e-38
0.3123041689 -0.09340988845 -0.05321456492 2.344896276e-38
-0.1577777117 -0.4770761728 -0.2219771147 2.344788516e-38
0.3347502947 -0.363327682 -0.03523728997 2.344788516e-38
0.2995365262 -0.05900240317 -0.2487895787 2.344788516e-38
0.3381380439 -0.3707507253 0.02167125419 2.344788516e-38
0.3015691638 -0.06345622987 -0.2146444619 2.344788516e-38
0.3022467196 -0.06494084746 -0.2032627314 2.344788516e-38
-0.1917475313 -0.01468983665 -0.2407745272 2.344788516e-38
0.2953437269 -0.07760041952 -0.1112838238 2.344788516e-38
0.4058100283 -0.1420185715 0.004220433533 2.344680616e-38
0.2960212827 -0.07908502966 -0.09990213066 2.344680616e-38
-0.1794241369 -0.01390714198 -0.2416997701 2.344680616e-38
0.3390488327 -0.3385297954 -0.1520655751 2.344680616e-38
0.348428756 -0.3655142188 -0.01339910552 2.344680616e-38
0.3320401013 -0.3573892415 -0.08076410741 2.344680616e-38
0.03132267296 -0.009770523757 -0.2553429306 2.344680616e-38
0.2334941179 -0.03392390907 -0.2618029714 2.344680616e-38
0.2759710848 -0.3456739187 -0.1908802241 2.344572857e-38
0.3056344688 -0.07236389816 -0.1463541836 2.344572857e-38
0.3383713067 -0.3370451629 -0.1634472758 2.344572857e-38
0.3504614234 -0.3699680269 0.02074601501 2.344572857e-38
0.3511389494 -0.3714526594 0.03212774172 2.344572857e-38
0.4290394485 -0.4072211087 0.05425689742 2.344572857e-38
0.3518165052 -0.3729372621 0.04350943863 2.344572857e-38
0.2075980306 -0.02632015944 -0.2620384395 2.344572857e-38
0.3306849897 -0.3544200361 -0.103527531 2.344464957e-38
0.4297170043 -0.4087057114 0.06563858688 2.344464957e-38
-0.08083707839 -0.007645603269 -0.2491017133 2.344464957e-38
-0.2605793476 -0.5232414603 0.1494040191 2.344464957e-38
0.2156034708 -0.3587565124 -0.1841680408 2.344464957e-38
0.297609657 -0.04834868759 -0.2622572482 2.344464957e-38
0.3443634808 -0.3566065431 -0.08168934286 2.344464957e-38
0.3003198206 -0.05428712443 -0.2167304158 2.344464957e-38
0.3130874932 -0.0886946097 -0.02115540393 2.344357197e-38
0.003897774965 -0.1279779971 0.5314010978 2.344357197e-38
0.314442575 -0.09166382253 0.001607991289 2.344357197e-38
0.2961270213 -0.07288514078 -0.07922466099 2.344357197e-38
0.2867471278 -0.04590068758 -0.2178911418 2.344357197e-38
-0.1313799471 -0.001607265323 -0.2474867105 2.344357197e-38
0.03007334657 -0.0006013736129 -0.2574289143 2.344357197e-38
0.01747046784 -0.1363644004 0.5325618386 2.344357197e-38
0.3903104365 -0.1229784191 -0.01040795073 2.344249297e-38
0.3001923263 -0.08179280162 -0.01093442552 2.344249297e-38
0.04239671677 0.0001813173294 -0.2583541572 2.344249297e-38
-0.05426160991 -0.3851448596 -0.1617267579 2.344249297e-38
0.3050626814 -0.06467939913 -0.1370584518 2.344249297e-38
0.3353220522 -0.3710122108 -0.04453302175 2.344249297e-38
0.06676401198 -0.1332336366 0.528860867 2.344249297e-38
0.03104316071 -0.1447508037 0.5337225199 2.344249297e-38
0.3420975208 -0.3858582973 0.06928404421 2.344141397e-38
-0.02074899897 -0.129543364 0.5332515836 2.344141397e-38
-0.2606851161 -0.5294413567 0.1287265718 2.344141397e-38
-0.04511626065 0.003871582448 -0.2539634109 2.344141397e-38
0.05568993092 -0.1431854367 0.5318720341 2.344141397e-38
0.004177283496 0.007002353668 -0.2576643825 2.344141397e-38
0.338943094 -0.3447296619 -0.1727430373 2.344141397e-38
0.4033113718 -0.1236803308 4.850700498e-05 2.344141397e-38
-0.1695994139 0.00521376729 -0.2467969358 2.344033637e-38
0.294877708 -0.06371600926 -0.08131062984 2.344033637e-38
-0.1449526399 0.006779156625 -0.2486474216 2.344033637e-38
-0.1326292604 0.007561847568 -0.2495726645 2.344033637e-38
0.2309954613 -0.01558566466 -0.2659748793 2.344033637e-38
0.2895438373 -0.3540603518 -0.1897194982 2.344033637e-38
0.02882402577 0.008567735553 -0.2595148683 2.344033637e-38
0.2975879014 -0.06965444982 -0.03578378633 2.344033637e-38
0.2882080078 -0.04267001897 -0.1744502634 2.343925737e-38
0.2050993741 -0.007981941104 -0.2662103772 2.343925737e-38
0.00764574483 -0.155485332 0.5376589894 2.343925737e-38
0.1286604404 0.005660168827 -0.2648308575 2.343925737e-38
0.3375880122 -0.3417604566 -0.1955064386 2.343925737e-38
0.05347082764 0.01013312489 -0.2613653541 2.343925737e-38
0.2692149282 -0.02240669727 -0.266664654 2.343925737e-38
-0.2600075603 -0.5309259892 0.1401082873 2.343925737e-38
0.2433189005 -0.01480296999 -0.266900152 2.343817977e-38
-0.07101235539 0.01147530973 -0.254198879 2.343817977e-38
0.4309663177 -0.4178748131 0.06772455573 2.343817977e-38
0.3005313873 -0.04188732803 -0.1753754914 2.343817977e-38
0.4323213995 -0.4208440185 0.090487957 2.343817977e-38
-0.009395409375 0.01538877189 -0.2588250935 2.343817977e-38
0.002927962691 0.01617146283 -0.2597503364 2.343817977e-38
0.2856035829 -0.03053166717 -0.1992996484 2.343817977e-38
0.4106586277 -0.1462109536 0.1045698673 2.343710077e-38
0.01525133289 0.01695415378 -0.2606755793 2.343710077e-38
0.008895066567 -0.1646544337 0.5397449732 2.343710077e-38
0.2038500607 0.001187168062 -0.2682963312 2.343710077e-38
0.339281559 -0.3861197531 0.003079758491 2.343710077e-38
0.3406366706 -0.3890889585 0.02584318072 2.343710077e-38
0.03354180604 -0.1630890369 0.5378944874 2.343710077e-38
0.2997263372 -0.06790839136 0.01903879456 2.343710077e-38
0.3372489214 -0.3816659153 -0.03106536344 2.343566444e-38
0.2938616872 -0.02084131166 -0.2685151398 2.343566444e-38
0.2876362205 -0.03498549759 -0.1651545167 2.343566444e-38
0.2958943248 -0.02529514208 -0.2343700081 2.343566444e-38
0.1397344917 0.01561196893 -0.2678420544 2.343566444e-38
