# .PCD v0.7 - Point Cloud Data file format
VERSION 0.7
FIELDS x y z rgb
SIZE 4 4 4 4
TYPE F F F F
COUNT 1 1 1 1
WIDTH 822
HEIGHT 1
VIEWPOINT 0 0 0 1 0 0 0
POINTS 822
DATA ascii
0.1122012734 -0.3403166234 0.1500233263 2.462297202e-39
0.2364306152 -0.3434103429 0.2010964751 2.462297202e-39
-0.159449622 -0.19731538 0.07567845285 2.646685659e-39
-0.01247964427 -0.3504748344 0.1359584928 2.646685659e-39
0.1619485617 -0.34139359 0.1629926711 2.646685659e-39
-0.02449924685 -0.3251060545 0.1239736229 2.646685659e-39
-0.1725126058 -0.2466433048 0.06194640696 2.646685659e-39
-0.1568412781 -0.01057356875 0.08004641533 2.646685659e-39
0.1246612221 -0.3405189812 0.1501573622 2.646685659e-39
-0.1721648276 -0.2217444032 0.06252879649 2.646685659e-39
-0.1611071974 -0.3096280098 0.08549083024 2.830713982e-39
-0.1726865023 -0.259092778 0.06165520847 2.830713982e-39
-0.1570151597 -0.02302304097 0.07975521684 2.830713982e-39
-0.1585801691 -0.1350681037 0.07713444531 2.830713982e-39
-0.1695564836 -0.03500259668 0.06689675897 2.830713982e-39
-0.1600526273 -0.2468456775 0.06208045036 2.830713982e-39
-0.1582323909 -0.1101692244 0.07771683484 2.830713982e-39
-0.1578846127 -0.08527030796 0.07829923183 2.830713982e-39
-0.02467313781 -0.3375555277 0.1236824244 3.015101038e-39
-0.03669273853 -0.312186718 0.1116976142 3.015101038e-39
-0.171121493 -0.1470476836 0.06427598 3.015101038e-39
-0.1709475964 -0.1345982105 0.06456717849 3.015101038e-39
-0.03686662763 -0.3246361613 0.1114064157 3.015101038e-39
-0.02484702691 -0.350004971 0.1233912259 3.015101038e-39
-0.1595309675 -0.2094973177 0.06295404583 3.015101038e-39
-0.1730342805 -0.2839916945 0.06107281148 3.015101038e-39
-0.1591831893 -0.1845984161 0.06353643537 3.199488094e-39
-0.158487618 -0.1348005831 0.06470122933 3.199488094e-39
-0.1570965052 -0.0352049619 0.06703080982 3.199488094e-39
-0.1691161394 -0.009836163372 0.05504599959 3.199488094e-39
-0.1579659581 -0.09745223075 0.06557482481 3.199488094e-39
-0.1577920616 -0.08500278741 0.06586601585 3.199488094e-39
-0.157618165 -0.07255331427 0.06615721434 3.199488094e-39
-0.1599600613 -0.2465781569 0.04964729398 3.199488094e-39
-0.1699855775 -0.07208343595 0.05359001458 3.383517819e-39
-0.1727678329 -0.2712747157 0.04893085361 3.383517819e-39
-0.171028927 -0.146780163 0.05184283108 3.383517819e-39
-0.1594384015 -0.2092297971 0.05052088946 3.383517819e-39
-0.02431412041 -0.3245710135 0.09910731763 3.383517819e-39
-0.1587428302 -0.1594319791 0.05168568343 3.383517819e-39
0.1123863906 -0.3397815824 0.1251569539 3.383517819e-39
0.149673745 -0.3406561911 0.1379923075 3.383517819e-39
-0.158395052 -0.1345330626 0.05226807296 3.567904875e-39
-0.1721535921 -0.2336588353 0.03737129271 3.567904875e-39
-0.1580472738 -0.1096341908 0.05285046995 3.567904875e-39
-0.1609220803 -0.3090929687 0.06062446535 3.567904875e-39
-0.1578733921 -0.09718471766 0.05314166844 3.567904875e-39
-0.1718058139 -0.2087599188 0.03795368597 3.567904875e-39
-0.1570039392 -0.03493744507 0.05459765345 3.567904875e-39
-0.1573517174 -0.05983636156 0.05401525646 3.567904875e-39
-0.1604817361 -0.2839265168 0.04877370596 3.75229193e-39
-0.1695452332 -0.04691702873 0.04173925519 3.75229193e-39
-0.1704146862 -0.1091642976 0.04028326645 3.75229193e-39
-0.156656161 -0.01003853232 0.05518005043 3.75229193e-39
-0.1714580357 -0.1838610023 0.03853608295 3.75229193e-39
-0.1693713516 -0.03446755931 0.04203045368 3.75229193e-39
-0.1711102426 -0.1589620858 0.03911847621 3.75229193e-39
-0.1702408046 -0.09671482444 0.04057446495 3.75229193e-39
-0.01229451783 -0.3499398232 0.1110921204 3.936320254e-39
-0.03668150306 -0.3241011202 0.08654011041 3.936320254e-39
-0.1726752669 -0.27100721 0.03649770096 3.936320254e-39
-0.1735559553 -0.3213400245 0.06019921601 3.936320254e-39
-0.169197455 -0.02201811783 0.04232164845 3.936320254e-39
-0.1596936136 -0.2338611931 0.03750533983 3.936320254e-39
-0.1731156111 -0.2961736321 0.04834845662 3.936320254e-39
0.211788401 -0.3422030509 0.1635288596 3.936320254e-39
0.1373063475 -0.3401862979 0.1254250407 4.120708711e-39
-0.1584763825 -0.1467150152 0.03954372182 4.120708711e-39
-0.1588241607 -0.1716139317 0.03896132857 4.120708711e-39
-0.1732894927 -0.3086230457 0.04805726558 4.120708711e-39
-0.1608295143 -0.3088254333 0.04819130898 4.120708711e-39
-0.1577808261 -0.09691719711 0.04070851207 4.120708711e-39
-0.1720610261 -0.2333913147 0.02493813634 4.120708711e-39
-0.1603891701 -0.2836590111 0.03634054959 4.120708711e-39
-0.1572591513 -0.05956884101 0.04158210382 4.304737034e-39
-0.1715393513 -0.1960429251 0.02581173182 4.304737034e-39
-0.1706698984 -0.1337956488 0.02726771683 4.304737034e-39
-0.1597749293 -0.2460431159 0.02478098869 4.304737034e-39
-0.1569113731 -0.03466992453 0.0421645008 4.304737034e-39
-0.1730230451 -0.2959061265 0.03591530398 4.304737034e-39
-0.01220195461 -0.3496722877 0.09865896404 4.304737034e-39
-0.1565635949 -0.009771014564 0.04274689406 4.304737034e-39
-0.169974342 -0.083997868 0.02843250707 4.48912409e-39
-0.1694526672 -0.0466495119 0.02930609882 4.48912409e-39
-0.1592532694 -0.208694756 0.02565458044 4.48912409e-39
-0.1607369483 -0.3085579276 0.03575815633 4.48912409e-39
-0.1731969267 -0.30835554 0.03562410921 4.48912409e-39
-0.169104889 -0.02175059915 0.0298884958 4.48912409e-39
-0.1580360383 -0.121548593 0.02769296244 4.48912409e-39
-0.1717945635 -0.220674336 0.01279618219 4.48912409e-39
-0.1687571108 0.003148313612 0.03047088906 4.673152414e-39
-0.1724901348 -0.2704721689 0.01163139194 4.673152414e-39
-0.1604705006 -0.2958409786 0.02361619845 4.673152414e-39
-0.1716206819 -0.2082248926 0.01308737881 4.673152414e-39
-0.157340467 -0.07175076753 0.02885775268 4.673152414e-39
0.04153356701 -0.05249743909 0.1434834152 4.673152414e-39
-0.1707512289 -0.1459776163 0.01454336569 4.673152414e-39
-0.1726640165 -0.2829216123 0.01134019531 4.673152414e-39
0.09110696614 -0.0660238713 0.1561615616 4.857539469e-39
0.2243409157 -0.3421379328 0.1512297541 4.857539469e-39
-0.1610847414 -0.3334568441 0.03517576307 4.857539469e-39
-0.1735447198 -0.3332544565 0.03504171222 4.857539469e-39
-0.160204038 -0.28312397 0.01147424243 4.857539469e-39
-0.1566449106 -0.02195296809 0.03002254292 4.857539469e-39
0.06645346433 -0.05290217325 0.1437515169 4.857539469e-39
-0.1608182788 -0.3207398653 0.02303380519 4.857539469e-39
0.1374914795 -0.3396512568 0.1005587429 5.041567793e-39
0.3097655177 -0.4084769487 0.2750437856 5.041567793e-39
-0.1589868069 -0.1959777921 0.01351262443 5.041567793e-39
-0.161258623 -0.3459062874 0.03488456458 5.041567793e-39
-0.1720497906 -0.245305717 -0.0002194270492 5.041567793e-39
-0.1582912505 -0.146179989 0.01467741281 5.041567793e-39
-0.1588129252 -0.1835283488 0.01380382106 5.041567793e-39
0.3099394143 -0.3960274756 0.2753349543 5.041567793e-39
-0.1586390287 -0.1710789055 0.01409501955 5.225597518e-39
-0.1703724265 -0.2524048388 -0.2491739094 5.225597518e-39
-0.1723975837 -0.2702046633 -0.0008018221706 5.225597518e-39
-0.1700246483 -0.2275059223 -0.2485915273 5.225597518e-39
0.1996061355 -0.3411981463 0.1260952801 5.225597518e-39
-0.1609921753 -0.3331893384 0.0227426067 5.225597518e-39
-0.169012323 -0.02148308232 0.01745533943 5.225597518e-39
-0.1734521538 -0.3329869509 0.02260855958 5.225597518e-39
-0.1597637087 -0.2579575479 -0.0003765765578 5.409984573e-39
-0.1575956941 -0.09638216347 0.01584220305 5.409984573e-39
-0.1594159305 -0.2330586463 0.0002058185637 5.409984573e-39
0.05408608168 -0.05243228376 0.1311842501 5.409984573e-39
-0.1688384414 -0.009033610113 0.01774653792 5.409984573e-39
-0.168459639 -0.1154608279 -0.2459707409 5.409984573e-39
0.2244334817 -0.3418703973 0.1387965977 5.409984573e-39
-0.1601114869 -0.2828564644 -0.0009589698166 5.409984573e-39
-0.1713542342 -0.1955078989 0.0009453631938 5.594012897e-39
-0.1703108996 -0.1208111867 0.002692548558 5.594012897e-39
-0.1727453619 -0.2951035798 -0.001384217292 5.594012897e-39
-0.1580863446 -0.2650566697 -0.249331072 5.594012897e-39
-0.1454524994 -0.2528095543 -0.2489058226 5.594012897e-39
0.249260813 -0.3425426483 0.1514978409 5.594012897e-39
-0.1719572246 -0.2450381964 -0.01265258156 5.594012897e-39
-0.1452786028 -0.2403600961 -0.2486146241 5.594012897e-39
0.2120660841 -0.3414005041 0.1262293309 5.77804122e-39
-0.1699631214 -0.09591227025 0.00327494368 5.77804122e-39
0.1375840455 -0.3393837512 0.08812558651 5.77804122e-39
-0.1729192436 -0.3075529933 -0.001675413921 5.77804122e-39
-0.1570429951 -0.1903599054 -0.247583881 5.77804122e-39
-0.1559996605 -0.1156631932 -0.2458366901 5.77804122e-39
-0.1677640676 -0.06566300243 -0.2448059469 5.77804122e-39
-0.1561735421 -0.1281126291 -0.2461278886 5.77804122e-39
-0.1568691134 -0.177910462 -0.2472926825 5.962428276e-39
-0.1716094464 -0.2201392949 -0.01207018644 5.962428276e-39
-0.1580248028 -0.1334629953 0.00253539905 5.962428276e-39
-0.1562045664 0.003213462653 0.01817178354 5.962428276e-39
-0.1565213203 -0.1530115455 -0.2467102855 5.962428276e-39
0.1748713106 -0.3402583599 0.1009608805 5.962428276e-39
-0.1596711427 -0.2576900125 -0.01280973013 5.962428276e-39
-0.1449308246 -0.2154611796 -0.2480322272 5.962428276e-39
-0.1694414467 -0.05856391788 0.00414853543 6.1464566e-39
-0.1578509212 -0.121013552 0.002826595679 6.1464566e-39
-0.1616064012 -0.3708052039 0.03430216759 6.1464566e-39
-0.1598450392 -0.2701394856 -0.0131009277 6.1464566e-39
-0.1326447725 -0.2281130254 -0.2481893748 6.1464566e-39
-0.1613399535 -0.3580882549 0.02216021344 6.1464566e-39
-0.1458002776 -0.2777084708 -0.2494882196 6.1464566e-39
0.2863630354 -0.343952328 0.1891994476 6.1464566e-39
-0.1705661118 -0.1454425752 -0.01032300107 6.330484923e-39
-0.1445830464 -0.1905622631 -0.2474498302 6.330484923e-39
-0.1589755863 -0.2078922093 -0.01164494082 6.330484923e-39
-0.1703922153 -0.1329931021 -0.01003180351 6.330484923e-39
-0.1735334694 -0.3451688588 0.009884206578 6.330484923e-39
-0.1571553499 -0.07121572644 0.003991385922 6.330484923e-39
-0.1672424078 -0.0283146482 -0.2439323664 6.330484923e-39
0.1873312593 -0.3404607475 0.1010949314 6.330484923e-39
-0.1435397118 -0.1158655658 -0.2457026541 6.514514648e-39
-0.1588016897 -0.195442751 -0.01135374233 6.514514648e-39
-0.1442352682 -0.1656633765 -0.2468674332 6.514514648e-39
-0.1437135935 -0.1283150017 -0.2459938377 6.514514648e-39
-0.1603666991 -0.3074878454 -0.01397451945 6.514514648e-39
0.1625039428 -0.3397884965 0.08839368075 6.514514648e-39
-0.1431919336 -0.09096664935 -0.2451202571 6.514514648e-39
0.2121586502 -0.3411329985 0.1137961745 6.514514648e-39
-0.1722124517 -0.2696696222 -0.02566812932 6.698542971e-39
-0.1670685112 -0.01586520486 -0.2436411679 6.698542971e-39
0.249353379 -0.3422751129 0.1390646845 6.698542971e-39
-0.1700444371 -0.1080942303 -0.009449409321 6.698542971e-39
-0.1732670367 -0.3324519098 -0.002257809043 6.698542971e-39
0.1376766115 -0.3391162157 0.07569243014 6.698542971e-39
-0.1082465127 -0.2658661306 -0.2487948686 6.698542971e-39
-0.1335142255 -0.2903603315 -0.2496453673 6.698542971e-39
-0.1078987345 -0.2409671992 -0.2482124716 6.882571295e-39
-0.1321230978 -0.1907646358 -0.2473157793 6.882571295e-39
-0.1450233757 -0.2157287002 -0.2355990708 6.882571295e-39
-0.1711691022 -0.1949728578 -0.02392094582 6.882571295e-39
-0.1723863333 -0.2821190655 -0.02595932782 6.882571295e-39
-0.1210542396 -0.2905626893 -0.2495113164 6.882571295e-39
0.0419851467 -0.03924541175 0.1064750925 6.882571295e-39
-0.1730005741 -0.3197349012 -0.01439976506 6.882571295e-39
-0.1198370084 -0.2034164816 -0.247472927 7.066599618e-39
-0.09561264515 -0.253619045 -0.2483696342 7.066599618e-39
-0.1547824293 -0.02851701342 -0.2437983155 7.066599618e-39
-0.1590569019 -0.2200741321 -0.02436929196 7.066599618e-39
-0.1332589984 -0.2657289207 -0.2366298139 7.066599618e-39
0.1749638766 -0.3399908543 0.0885277316 7.066599618e-39
-0.1706474274 -0.157624498 -0.02304735221 7.066599618e-39
-0.1612473875 -0.3578207195 0.00972705707 7.066599618e-39
-0.1317753196 -0.1658657491 -0.2467333972 7.250627941e-39
-0.1075509563 -0.2160682827 -0.2476300895 7.250627941e-39
0.09138464928 -0.06522131711 0.1188620478 7.250627941e-39
-0.09543875605 -0.2411695719 -0.2480784357 7.250627941e-39
-0.1458928287 -0.2779759765 -0.2370550632 7.250627941e-39
0.2864556015 -0.3436848223 0.1767662913 7.250627941e-39
-0.1615138352 -0.3705376983 0.02186901495 7.250627941e-39
-0.131601423 -0.153416276 -0.2464421988 7.250627941e-39
-0.1446755975 -0.1908297837 -0.2350166738 7.434656265e-39
-0.1426702589 -0.05361830071 -0.2442466617 7.434656265e-39
-0.132563442 -0.2159310728 -0.2354650199 7.434656265e-39
-0.1196631119 -0.1909670085 -0.2471817434 7.434656265e-39
-0.166720733 0.009033707902 -0.2430587709 7.434656265e-39
-0.1561120152 0.00348098157 0.005738569424 7.434656265e-39
-0.1438061595 -0.1285825223 -0.2335606962 7.434656265e-39
-0.1207990199 -0.2659312785 -0.2364957631 7.434656265e-39
-0.158187449 -0.1578268707 -0.02291330509 7.618684588e-39
-0.1734409183 -0.3449013531 -0.002549006604 7.618684588e-39
-0.1202773526 -0.2285829037 -0.2356221825 7.618684588e-39
-0.1691749841 -0.04584695771 -0.007993422449 7.618684588e-39
-0.1715982109 -0.2320537269 -0.03722769022 7.618684588e-39
-0.1572366804 -0.08339768648 -0.008732966147 7.618684588e-39
-0.1305580884 -0.07871957868 -0.2446950078 7.618684588e-39
-0.1194892228 -0.1785175651 -0.2468905449 7.618684588e-39
-0.1710765362 -0.1947053373 -0.03635409847 7.802712912e-39
-0.1607144922 -0.3323867619 -0.01455691457 7.802712912e-39
-0.1460667253 -0.2904254496 -0.2373462617 7.802712912e-39
-0.1212281287 -0.3030121326 -0.2498025149 7.802712912e-39
-0.08350047469 -0.2787203193 -0.2488179803 7.802712912e-39
-0.1721198857 -0.2694021165 -0.0381012857 7.802712912e-39
-0.1303841919 -0.06627010554 -0.2444038093 7.802712912e-39
-0.1072031707 -0.1911693662 -0.2470476925 7.802712912e-39
-0.1709026545 -0.1822558939 -0.0360629037 7.986382503e-39
-0.07069274783 -0.2540237904 -0.2481015325 7.986382503e-39
-0.1568889022 -0.05849877 -0.008150571026 7.986382503e-39
-0.07086664438 -0.2664732337 -0.248392731 7.986382503e-39
-0.08280491829 -0.2289225012 -0.2476531863 7.986382503e-39
-0.1078174114 -0.2287852764 -0.2354881316 7.986382503e-39
-0.1189675555 -0.1411692053 -0.2460169494 7.986382503e-39
0.3106574416 -0.3700585067 0.2261846811 7.986382503e-39
-0.1591382325 -0.2322560847 -0.03709364682 8.170410826e-39
-0.1722937673 -0.2818515599 -0.03839248046 8.170410826e-39
-0.1705548614 -0.1573569775 -0.03548050672 8.170410826e-39
-0.1302103102 -0.05382066593 -0.2441126108 8.170410826e-39
-0.08367437124 -0.2911697924 -0.2491091788 8.170410826e-39
-0.1598337889 -0.2820539176 -0.03825843334 8.170410826e-39
-0.1576657891 -0.1204785183 -0.02203971148 8.170410826e-39
0.07919115573 -0.05230198801 0.1065860391 8.170410826e-39
-0.09570521116 -0.2538865507 -0.2359364778 8.35443915e-39
-0.1712418795 -0.3146520853 -0.2506299019 8.35443915e-39
-0.1318678856 -0.1661332697 -0.2343002409 8.35443915e-39
-0.1587904543 -0.2073571682 -0.03651124984 8.35443915e-39
-0.1684794277 0.003950867802 -0.006828632206 8.35443915e-39
-0.1427628249 -0.05388581753 -0.2318135053 8.35443915e-39
-0.1663729548 0.03393259272 -0.2424763739 8.35443915e-39
-0.156541124 -0.03359985352 -0.007568175904 8.35443915e-39
-0.09553132206 -0.2414370924 -0.2356452793 8.538467473e-39
-0.1197556779 -0.191234529 -0.234748587 8.538467473e-39
-0.1315201074 -0.1412343532 -0.2337178439 8.538467473e-39
-0.1180981025 -0.0789219439 -0.244560957 8.538467473e-39
-0.1421485841 -0.01626994088 -0.2433730662 8.538467473e-39
-0.1715056449 -0.2317862064 -0.04966087639 8.538467473e-39
-0.158781901 -0.3148544729 -0.250495851 8.538467473e-39
-0.1300364137 -0.04137122631 -0.2438214123 8.538467473e-39
-0.1711578667 -0.2068872899 -0.04907847941 8.722137064e-39
-0.1709839702 -0.1944378167 -0.04878728092 8.722137064e-39
-0.09605298936 -0.2787854671 -0.2365188748 8.722137064e-39
-0.1086868644 -0.2910325527 -0.2369441092 8.722137064e-39
-0.1074696332 -0.2038863599 -0.2349057347 8.722137064e-39
-0.08384826034 -0.3036192358 -0.2494003773 8.722137064e-39
-0.1708100885 -0.1819883734 -0.04849608615 8.722137064e-39
-0.09535743296 -0.2289876491 -0.2353540808 8.722137064e-39
-0.1573180109 -0.09557960927 -0.02145731822 8.906165387e-39
-0.0834191516 -0.2665383816 -0.2360936254 8.906165387e-39
-0.08245714009 -0.2040235847 -0.2470707893 8.906165387e-39
-0.05840666592 -0.2666756213 -0.2482586801 8.906165387e-39
-0.1718534231 -0.2566851079 -0.05024326965 8.906165387e-39
0.1163045466 -0.065626055 0.1191301346 8.906165387e-39
-0.07095920295 -0.2667407393 -0.2359595746 8.906165387e-39
-0.1425889283 -0.04143637419 -0.2315223068 8.906165387e-39
-0.0945693031 -0.1789222956 -0.2466224432 9.089834978e-39
-0.170636192 -0.1695389301 -0.04820489138 9.089834978e-39
-0.1733483523 -0.3446338177 -0.01498216018 9.089834978e-39
-0.1611548364 -0.3575532138 -0.002706156112 9.089834978e-39
-0.1668132842 0.008766190149 -0.2306256145 9.089834978e-39
-0.1690824181 -0.04557944089 -0.02042657696 9.089834978e-39
-0.1304767579 -0.06653762609 -0.2319706529 9.089834978e-39
-0.1730819046 -0.3319168687 -0.02712411806 9.089834978e-39
-0.1720273197 -0.2691345811 -0.05053446814 9.273863302e-39
-0.1593934447 -0.2568874657 -0.05010922253 9.273863302e-39
-0.08228324354 -0.1915741116 -0.2467795908 9.273863302e-39
-0.1708914191 -0.1941703111 -0.06122043729 9.273863302e-39
-0.1715869755 -0.2439681292 -0.06238522753 9.273863302e-39
-0.1577471048 -0.1326604337 -0.03476406634 9.273863302e-39
0.04217027128 -0.03871037439 0.08160878718 9.273863302e-39
0.1130343378 -0.3379089534 0.03812481463 9.273863302e-39
-0.1192340106 -0.1538861692 -0.2338749915 9.457532893e-39
-0.1419746876 -0.003820470534 -0.2430818677 9.457532893e-39
-0.1569702178 -0.07068069279 -0.0208749231 9.457532893e-39
-0.169859305 -0.1075591892 -0.0343157202 9.457532893e-39
-0.1185384467 -0.1040883809 -0.2327101976 9.457532893e-39
-0.1187123358 -0.1165378243 -0.2330013961 9.457532893e-39
-0.1560194492 0.003748499323 -0.006694584154 9.457532893e-39
-0.1190601215 -0.1414367259 -0.233583793 9.457532893e-39
-0.1590456665 -0.2319885641 -0.04952682927 9.641561216e-39
-0.09500965476 -0.2040887326 -0.2347716838 9.641561216e-39
-0.1188862324 -0.1289872527 -0.2332925946 9.641561216e-39
-0.1424150467 -0.02898690104 -0.2312311083 9.641561216e-39
0.3107500076 -0.3697910011 0.2137515247 9.641561216e-39
-0.1337806731 -0.3030772805 -0.2375034094 9.641561216e-39
-0.07061142474 -0.2418418229 -0.2353771776 9.641561216e-39
-0.1585239917 -0.1946401894 -0.04865323752 9.641561216e-39
-0.1581762135 -0.1697413027 -0.04807084054 9.825230807e-39
0.07928372175 -0.05203447118 0.09415289015 9.825230807e-39
-0.1696854234 -0.09510971606 -0.03402452171 9.825230807e-39
-0.1303028762 -0.05408818275 -0.2316794544 9.825230807e-39
-0.1672536284 -0.01640024222 -0.2187748253 9.825230807e-39
-0.1723750979 -0.2940334976 -0.05111686513 9.825230807e-39
-0.1706249714 -0.1814533472 -0.07336242497 9.825230807e-39
-0.1213206947 -0.3032796383 -0.2373693585 9.825230807e-39
-0.1056381613 -0.07912431657 -0.2444269061 1.000925913e-38
-0.1575732231 -0.1202109978 -0.03447286785 1.000925913e-38
-0.05771110207 -0.2168777585 -0.2470938861 1.000925913e-38
-0.09422152489 -0.1540233791 -0.2460400462 1.000925913e-38
-0.05867312104 -0.2793925703 -0.2361167222 1.000925913e-38
-0.04577282816 -0.2544285059 -0.2478334308 1.000925913e-38
-0.1296886355 -0.01647230983 -0.2432390153 1.000925913e-38
-0.1712980568 -0.2550800145 -0.1248422563 1.000925913e-38
-0.05892833322 -0.3040239811 -0.2491322756 1.019292872e-38
-0.1593008935 -0.2566199601 -0.0625423789 1.019292872e-38
-0.1599151194 -0.2942358553 -0.05098281428 1.019292872e-38
-0.1181906685 -0.07918946445 -0.2321278006 1.019292872e-38
-0.1566224396 -0.04578180984 -0.02029252797 1.019292872e-38
0.1378617287 -0.3385811746 0.05082606524 1.019292872e-38
-0.09369985014 -0.1166750342 -0.2451664507 1.019292872e-38
-0.09387374669 -0.1291244775 -0.2454576492 1.019292872e-38
-0.1695115268 -0.08266027272 -0.03373332322 1.037659831e-38
-0.1418008059 0.008628970943 -0.2427906692 1.037659831e-38
-0.04629449919 -0.2917768955 -0.2487070262 1.037659831e-38
-0.1712279618 -0.2309836596 -0.08696036786 1.037659831e-38
-0.1709502786 -0.230181098 -0.1242598593 1.037659831e-38
-0.0825497061 -0.2042911053 -0.234637633 1.037659831e-38
-0.08394082636 -0.3038867414 -0.2369672209 1.037659831e-38
-0.05753721297 -0.2044283152 -0.2468027025 1.037659831e-38
-0.1708577126 -0.2299135923 -0.1366930455 1.056062664e-38
-0.1714719534 -0.2675294876 -0.1251334548 1.056062664e-38
-0.1578284353 -0.1448423862 -0.04748844355 1.056062664e-38
-0.1054642722 -0.06667484343 -0.2441357076 1.056062664e-38
-0.1596486717 -0.2815188766 -0.06312477589 1.056062664e-38
0.116223231 -0.07780797035 0.1064057872 1.056062664e-38
-0.1701958627 -0.1443725079 -0.06005564705 1.056062664e-38
0.1254942864 -0.3381113112 0.03825886175 1.056062664e-38
-0.07148087025 -0.3040890992 -0.2368331701 1.074429623e-38
-0.171390608 -0.2553475201 -0.1124090999 1.074429623e-38
-0.1586641818 -0.2428328991 -0.124417007 1.074429623e-38
-0.1699406356 -0.1197411194 -0.04704009742 1.074429623e-38
-0.1600890011 -0.3066852987 -0.05127401277 1.074429623e-38
-0.06964940578 -0.1793270409 -0.2463543415 1.074429623e-38
-0.159034431 -0.2439029813 -0.07468436658 1.074429623e-38
-0.1706950516 -0.205549702 -0.1112443134 1.074429623e-38
-0.09466186911 -0.1791898161 -0.2341892868 1.092796582e-38
-0.1592083275 -0.2563524246 -0.07497556508 1.092796582e-38
0.0917436704 -0.05223684013 0.09428693354 1.092796582e-38
-0.04621317238 -0.279594928 -0.2359826714 1.092796582e-38
-0.1064262912 -0.1291896254 -0.2331585437 1.092796582e-38
-0.05797755718 -0.2295947522 -0.2349519432 1.092796582e-38
-0.1579097658 -0.1570243239 -0.06021279842 1.092796582e-38
-0.04586539045 -0.2546960115 -0.2354002893 1.092796582e-38
-0.1585940868 -0.2187365443 -0.08653512597 1.111163541e-38
-0.1174025387 -0.02912412025 -0.243396163 1.111163541e-38
-0.171483174 -0.2556150556 -0.09997591376 1.111163541e-38
-0.1584202051 -0.2062871009 -0.08624392748 1.111163541e-38
-0.1585828513 -0.2306509763 -0.1116926596 1.111163541e-38
-0.170521155 -0.1931002289 -0.1109531149 1.111163541e-38
-0.1683868617 0.004218385555 -0.01926178671 1.111163541e-38
0.1163971126 -0.06535853446 0.1066969857 1.111163541e-38
-0.07008974999 -0.204493463 -0.2345035821 1.1295305e-38
-0.1727228761 -0.3189323545 -0.05169925839 1.1295305e-38
-0.158849299 -0.2433679402 -0.09955067188 1.1295305e-38
0.3234652579 -0.3453619778 0.226901114 1.1295305e-38
-0.1704398394 -0.1809183061 -0.09822873026 1.1295305e-38
-0.1585015208 -0.2184690237 -0.09896827489 1.1295305e-38
-0.1059046164 -0.09184127301 -0.2322849482 1.1295305e-38
-0.1729893386 -0.331649363 -0.03955727071 1.1295305e-38
-0.1583276391 -0.2060195804 -0.0986770764 1.147897319e-38
-0.159104526 -0.267999351 -0.1125662476 1.147897319e-38
-0.03348674253 -0.2670803666 -0.2479905933 1.147897319e-38
-0.1299550831 -0.02918926999 -0.2310970575 1.147897319e-38
-0.1700219661 -0.1319230348 -0.05976444855 1.147897319e-38
-0.1570515484 -0.08286264539 -0.03359927237 1.147897319e-38
-0.1669058502 0.008498672396 -0.2181924284 1.147897319e-38
-0.1583164036 -0.2179339826 -0.1238346174 1.147897319e-38
-0.1595561057 -0.2812513411 -0.07555795461 1.166264278e-38
0.1038558409 -0.07733809203 0.0938385874 1.166264278e-38
-0.1701846123 -0.1562869102 -0.08521318436 1.166264278e-38
-0.1599964499 -0.306417793 -0.06370716542 1.166264278e-38
-0.1581537426 -0.1935701221 -0.09838587791 1.166264278e-38
-0.1661177278 0.05856401846 -0.2294608206 1.166264278e-38
-0.1577358842 -0.1445748806 -0.05992159992 1.166264278e-38
-0.1561007798 -0.008433424868 -0.01941893622 1.166264278e-38
-0.1717383862 -0.2802464366 -0.1129914969 1.184631237e-38
-0.1293408573 0.00842660293 -0.2426566184 1.184631237e-38
-0.1732557863 -0.344366312 -0.02741531469 1.184631237e-38
-0.1535651982 0.05862916633 -0.2417599261 1.184631237e-38
-0.1605293602 -0.3318517506 -0.03942322358 1.184631237e-38
0.1503216773 -0.3387835622 0.05096010864 1.184631237e-38
-0.1172286496 -0.01667467877 -0.2431049794 1.184631237e-38
-0.1597300023 -0.2937008142 -0.0758491531 1.184631237e-38
0.10402973 -0.06488864869 0.0941297859 1.202998196e-38
-0.1578171998 -0.1567568034 -0.07264597714 1.202998196e-38
-0.08141379803 -0.1293268353 -0.2453236133 1.202998196e-38
0.3231174648 -0.3702608943 0.226318717 1.202998196e-38
-0.08123990148 -0.1168774068 -0.2450324148 1.202998196e-38
0.05454889685 -0.05109469593 0.06901842356 1.202998196e-38
-0.1339545697 -0.3155266941 -0.2377946079 1.202998196e-38
-0.04656095058 -0.3044938445 -0.2365650684 1.202998196e-38
-0.09414020181 -0.1418414712 -0.2333156914 1.221365155e-38
-0.105116494 -0.04177596048 -0.2435533255 1.221365155e-38
-0.1702659428 -0.1684688628 -0.09793753177 1.221365155e-38
-0.1735222489 -0.3570832908 -0.01527335774 1.221365155e-38
-0.09379241616 -0.1169425547 -0.2327333093 1.221365155e-38
-0.1699882597 -0.167666316 -0.1352370679 1.221365155e-38
-0.1573067605 -0.1074940488 -0.04661485553 1.221365155e-38
-0.1737886965 -0.3698002696 -0.003131401725 1.221365155e-38
0.1379542947 -0.338313669 0.03839290887 1.239732115e-38
0.0547227934 -0.03864522651 0.06930962205 1.239732115e-38
-0.1718309522 -0.280513972 -0.1005583107 1.239732115e-38
-0.1688159704 -0.03286245465 -0.03256853297 1.239732115e-38
-0.1720974147 -0.2932309508 -0.08841635287 1.239732115e-38
-0.1592784077 -0.2804487944 -0.1128574461 1.239732115e-38
-0.1575619876 -0.1321254075 -0.05963040143 1.239732115e-38
-0.1579798609 -0.1811206788 -0.09809468687 1.239732115e-38
-0.1090346426 -0.3159314394 -0.2375265062 1.258099074e-38
-0.02137457579 -0.2921816409 -0.2484389395 1.258099074e-38
0.06683495641 -0.06374650449 0.06886127591 1.258099074e-38
-0.06974197179 -0.1795945615 -0.2339212 1.258099074e-38
-0.02154846489 -0.3046310842 -0.2487301379 1.258099074e-38
0.1255868524 -0.3378438056 0.02582570538 1.258099074e-38
-0.1571328789 -0.09504457563 -0.04632365704 1.258099074e-38
-0.03323152661 -0.242448926 -0.23497504 1.258099074e-38
-0.03410097584 -0.3046962023 -0.2364310175 1.276466033e-38
-0.1340358853 -0.3277086616 -0.2505189776 1.276466033e-38
-0.04664228112 -0.3166757822 -0.2492894232 1.276466033e-38
-0.1696741879 -0.1070241556 -0.05918205529 1.276466033e-38
-0.1590932906 -0.2799137533 -0.1377237886 1.276466033e-38
-0.1700920463 -0.1560193896 -0.09764634073 1.276466033e-38
0.116315797 -0.07754045725 0.09397263825 1.276466033e-38
-0.08411471546 -0.3163361847 -0.2372584194 1.276466033e-38
-0.1049425974 -0.0293264892 -0.243262127 1.294832852e-38
-0.166558072 0.03339755535 -0.2176100314 1.294832852e-38
-0.0716547668 -0.3165385425 -0.2371243685 1.294832852e-38
-0.1686420739 -0.02041301131 -0.03227733448 1.294832852e-38
-0.1578872949 -0.1808531582 -0.1105278656 1.294832852e-38
-0.08185414225 -0.1544932723 -0.2334728539 1.294832852e-38
-0.06877996027 -0.1170797721 -0.2448983639 1.294832852e-38
-0.0327911824 -0.2172825038 -0.2468257993 1.294832852e-38
-0.1577246338 -0.1564892828 -0.08507913351 1.313163938e-38
-0.1548862159 -0.01687012799 -0.2062076181 1.313163938e-38
-0.04472948611 -0.1797317713 -0.2460862547 1.313163938e-38
0.1132194698 -0.3373739123 0.01325850561 1.313163938e-38
-0.05728199333 -0.1797969192 -0.2337871492 1.313163938e-38
-0.02164102904 -0.3048985898 -0.2362969816 1.313163938e-38
-0.06860607117 -0.1046303287 -0.2446071655 1.313163938e-38
-0.1722712964 -0.3056803644 -0.08870755136 1.313163938e-38
-0.1690711826 -0.05749384686 -0.04558411241 1.331530897e-38
-0.1578059644 -0.1686712354 -0.09780348837 1.331530897e-38
0.1164896786 -0.06509102136 0.09426383674 1.331530897e-38
-0.1697555184 -0.1192060784 -0.07190643251 1.331530897e-38
-0.1698368341 -0.1313879937 -0.08463078737 1.331530897e-38
-0.1669984162 0.008231154643 -0.205759272 1.331530897e-38
-0.1574694216 -0.1318578869 -0.07206358016 1.331530897e-38
-0.1698255986 -0.1433024257 -0.109788321 1.331530897e-38
-0.1695003062 -0.09457468241 -0.0588908568 1.349897856e-38
-0.1717271656 -0.2921608686 -0.1381490231 1.349897856e-38
-0.1684681922 -0.00796353817 -0.03198613971 1.349897856e-38
-0.03288374469 -0.2175500244 -0.234392643 1.349897856e-38
-0.02172235586 -0.3170805275 -0.2490213215 1.349897856e-38
0.07946884632 -0.05149943382 0.0692865178 1.349897856e-38
-0.1576208472 -0.1681361943 -0.1226698235 1.349897856e-38
-0.0813324675 -0.1171449274 -0.2325992584 1.349897856e-38
-0.09327074885 -0.07959420234 -0.2318597138 1.368228942e-38
-0.04482205212 -0.1799992919 -0.2336530983 1.368228942e-38
0.1042961776 -0.05217168853 0.08198782802 1.368228942e-38
-0.0811585784 -0.104695484 -0.2323080599 1.368228942e-38
-0.06843217462 -0.09218086302 -0.244315967 1.368228942e-38
-0.1692927033 -0.1178684905 -0.134072274 1.368228942e-38
-0.1662102938 0.05829650164 -0.2170276344 1.368228942e-38
-0.05649387091 -0.1297315806 -0.2450555116 1.368228942e-38
-0.04673483968 -0.3169432878 -0.2368562669 1.386595901e-38
-0.1678651869 0.04156677052 -0.0183881931 1.386595901e-38
-0.1289930791 0.03332548589 -0.2420742363 1.386595901e-38
-0.1045948192 -0.004427576438 -0.2426797301 1.386595901e-38
-0.008833301254 -0.2802020311 -0.2355805337 1.386595901e-38
-0.008566848002 -0.2674850821 -0.2477224916 1.386595901e-38
-0.0966559872 -0.3283157945 -0.2501168251 1.386595901e-38
-0.02077157795 -0.2426512986 -0.2348409891 1.386595901e-38
-0.0205051247 -0.2299343348 -0.246982947 1.404926846e-38
-0.1697442681 -0.1311204731 -0.09706394374 1.404926846e-38
-0.1695816219 -0.106756635 -0.07161523402 1.404926846e-38
-0.009262409061 -0.3172828853 -0.2488872856 1.404926846e-38
-0.1574469507 -0.1556867212 -0.122378625 1.404926846e-38
-0.0446481593 -0.1675498486 -0.2333618999 1.404926846e-38
0.09192879498 -0.05170180276 0.06942056865 1.404926846e-38
-0.1570403278 -0.09477705508 -0.05875680968 1.404926846e-38
-0.008659411222 -0.2677525878 -0.2352893353 1.423293806e-38
-0.1575395018 -0.1559542418 -0.1099454761 1.423293806e-38
-0.1672648787 -0.004485805053 -0.1936173141 1.423293806e-38
-0.140931353 0.07087624073 -0.2413346916 1.423293806e-38
-0.1167069823 0.02067367733 -0.2422313839 1.423293806e-38
-0.1721787304 -0.3054128587 -0.1011407077 1.423293806e-38
0.04065877199 -0.3059104383 -0.2356267422 1.423293806e-38
0.1256794184 -0.3375762701 0.01339255273 1.423293806e-38
-0.1660363972 0.07074593753 -0.2167364508 1.441624891e-38
-0.03226951137 -0.179934144 -0.2459522039 1.441624891e-38
0.2000689507 -0.3398605585 0.06392945349 1.441624891e-38
-0.02059768699 -0.2302018553 -0.2345497906 1.441624891e-38
-0.05614609271 -0.1048327014 -0.2444731146 1.441624891e-38
-0.1560082138 -0.008165907115 -0.03185208887 1.441624891e-38
0.003545317799 -0.2925863564 -0.2481708378 1.441624891e-38
0.02846527286 -0.2929911017 -0.2479027361 1.441624891e-38
-0.1288191825 0.0457749851 -0.2417830378 1.459991851e-38
0.003371426836 -0.3050357997 -0.2484620363 1.459991851e-38
-0.06825828552 -0.07973141968 -0.2440247685 1.459991851e-38
-0.06887251884 -0.1173472926 -0.2324652076 1.459991851e-38
0.01600532793 -0.292788744 -0.2480367869 1.459991851e-38
0.04048487544 -0.3183598518 -0.2359179407 1.459991851e-38
-0.05676032603 -0.1424485743 -0.2329135537 1.459991851e-38
0.1752415597 -0.3391882777 0.05122821033 1.459991851e-38
-0.1549787819 -0.01713764668 -0.1937744766 1.478322936e-38
-0.1728042215 -0.3311143219 -0.0644236058 1.478322936e-38
-0.1540980935 0.03319518641 -0.2174759954 1.478322936e-38
-0.1044209301 0.008021865971 -0.2423885316 1.478322936e-38
-0.157273069 -0.1432372779 -0.1220874265 1.478322936e-38
0.02802492864 -0.3181574941 -0.2360519767 1.478322936e-38
0.01617921703 -0.2803392708 -0.2477455884 1.478322936e-38
-0.1691525131 -0.06967577338 -0.05830846354 1.478322936e-38
-0.1720861644 -0.3051453233 -0.1135738939 1.496689755e-38
-0.1216684729 -0.3281785548 -0.2379517555 1.496689755e-38
0.003452755511 -0.292853862 -0.2357376814 1.496689755e-38
0.01591276564 -0.2930562496 -0.2356036305 1.496689755e-38
-0.1564373076 -0.04524677247 -0.04515886679 1.496689755e-38
0.05321127921 -0.3058452904 -0.2479258478 1.496689755e-38
-0.1694778204 -0.1184035242 -0.1092059314 1.496689755e-38
-0.1048612744 -0.01714456454 -0.2305377722 1.496689755e-38
-0.1597187519 -0.3056152463 -0.1010066569 1.515020841e-38
0.05338516831 -0.2933958471 -0.2476346493 1.515020841e-38
0.0532926023 -0.2936633527 -0.2352014929 1.515020841e-38
0.04057744145 -0.3180923462 -0.2483510822 1.515020841e-38
0.003626644611 -0.2804044187 -0.2354464829 1.515020841e-38
-0.1719936132 -0.3048778176 -0.1260070503 1.515020841e-38
-0.1694077402 -0.09430716187 -0.07132404298 1.515020841e-38
0.04100655019 -0.2810115218 -0.2350443453 1.515020841e-38
0.01556498371 -0.3179551363 -0.2361860275 1.533351927e-38
-0.05597220361 -0.09238322824 -0.2441819161 1.533351927e-38
-0.1695703864 -0.1186710447 -0.09677274525 1.533351927e-38
-0.1715896577 -0.3395510018 -0.2512122989 1.533351927e-38
-0.08037045598 -0.05463014171 -0.2435764223 1.533351927e-38
0.02881305106 -0.2680921853 -0.247320354 1.533351927e-38
0.07956140488 -0.05123191699 0.05685336888 1.533351927e-38
0.04127299786 -0.2682945728 -0.2471863031 1.533351927e-38
-0.1554052085 0.04136440158 -0.01825414598 1.551683013e-38
0.04031098634 -0.330809325 -0.2362091392 1.551683013e-38
0.05303739011 -0.3182947338 -0.2482170463 1.551683013e-38
0.162874192 -0.3387184143 0.03866100311 1.551683013e-38
0.06584511697 -0.2935982049 -0.2475005984 1.551683013e-38
0.06540477276 -0.3187645972 -0.235649839 1.551683013e-38
-0.008045177907 -0.2301367074 -0.2468488961 1.551683013e-38
0.05346649885 -0.2812138796 -0.2349102944 1.551683013e-38
-0.08428860456 -0.3287856579 -0.2375496179 1.570049832e-38
0.01626054384 -0.2681573331 -0.2350212485 1.570049832e-38
-0.09213484079 -0.004629944451 -0.2425456792 1.570049832e-38
-0.08019656688 -0.04218069836 -0.2432852238 1.570049832e-38
0.1505068094 -0.3382485509 0.02609380335 1.570049832e-38
-0.1572842896 -0.1313228458 -0.0969298929 1.570049832e-38
0.02872048877 -0.2683596909 -0.2348871976 1.570049832e-38
0.3357512951 -0.3580137789 0.2267439663 1.570049832e-38
0.3236503899 -0.3448269367 0.2020348161 1.588380918e-38
0.04118043929 -0.2685620785 -0.2347531468 1.588380918e-38
0.09059117734 -0.3064523935 -0.2475236952 1.588380918e-38
0.07830511779 -0.2938005924 -0.2473665476 1.588380918e-38
-0.1543645412 0.02047822811 -0.2053340375 1.588380918e-38
0.02785103954 -0.3306069672 -0.2363431752 1.588380918e-38
-0.1566925347 -0.0698781386 -0.05817441642 1.588380918e-38
-0.104247041 0.02047130838 -0.2420973331 1.588380918e-38
-0.1692338437 -0.08185771853 -0.07103284448 1.606712004e-38
-0.04430037737 -0.1426509321 -0.2327795029 1.606712004e-38
0.3355773985 -0.3704632521 0.2264527678 1.606712004e-38
0.01670088805 -0.2429908812 -0.2468719929 1.606712004e-38
-0.08002267033 -0.02973122895 -0.2429940253 1.606712004e-38
0.02916083299 -0.2431932539 -0.246737957 1.606712004e-38
0.0154836569 -0.3301371038 -0.2489103824 1.606712004e-38
-0.1693039238 -0.1059540808 -0.1089147329 1.606712004e-38
-0.1730706543 -0.3438312709 -0.05228165165 1.625043089e-38
-0.1663028598 0.05802898109 -0.2045944929 1.625043089e-38
-0.03435619175 -0.3293276131 -0.2494465709 1.625043089e-38
-0.155071348 -0.0174051635 -0.1813412905 1.625043089e-38
0.06619290262 -0.2686992884 -0.2469182014 1.625043089e-38
0.04162078351 -0.2433956265 -0.2466039062 1.625043089e-38
0.1166747957 -0.06455598027 0.06939746439 1.625043089e-38
0.00441476889 -0.2303390652 -0.2467148453 1.625043089e-38
-0.06791050732 -0.05483251065 -0.2434423715 1.643374035e-38
0.09076506644 -0.2940029502 -0.2472324967 1.643374035e-38
-0.04386003688 -0.1174845099 -0.2446302623 1.643374035e-38
-0.1571104079 -0.1188734099 -0.09663869441 1.643374035e-38
-0.09196095169 0.007819497958 -0.2422544807 1.643374035e-38
-0.1570178419 -0.1186058894 -0.1090718806 1.643374035e-38
0.09032472223 -0.3191693425 -0.2353817374 1.643374035e-38
-0.1567513943 -0.1058889404 -0.1212138385 1.643374035e-38
-0.1690599471 -0.06940825284 -0.07074164599 1.661705121e-38
-0.1722600609 -0.3175947666 -0.1138650849 1.661705121e-38
-0.141023919 0.07060872018 -0.2289015353 1.661705121e-38
-0.007963850163 -0.2179547548 -0.2341245413 1.661705121e-38
-0.1535764188 0.07054357231 -0.2166023999 1.661705121e-38
-0.1598926485 -0.3180646896 -0.1012978554 1.661705121e-38
-0.1567738652 -0.0820600912 -0.07089880109 1.661705121e-38
0.09067250043 -0.2942704558 -0.2347993553 1.661705121e-38
0.1155110747 -0.3068571389 -0.2472556084 1.680036207e-38
-0.05606476218 -0.09265074879 -0.2317487597 1.680036207e-38
-0.1040731519 0.03292075172 -0.2418061346 1.680036207e-38
0.1153371781 -0.3193065822 -0.2475468069 1.680036207e-38
-0.1559156477 -0.007898389362 -0.04428527504 1.680036207e-38
-0.05562442541 -0.06748431921 -0.2435995191 1.680036207e-38
-0.1720749438 -0.3170597255 -0.13873142 1.680036207e-38
-0.1691300422 -0.09350460768 -0.1086235344 1.680036207e-38
-0.06773661822 -0.04238306731 -0.243151173 1.698367293e-38
-0.1548974663 -0.004955692217 -0.181050092 1.698367293e-38
-0.166743204 0.03286252171 -0.1927437335 1.698367293e-38
0.1032250151 -0.294205308 -0.2470984608 1.698367293e-38
-0.1161853075 0.0580220595 -0.2413577884 1.698367293e-38
0.2868258357 -0.3426147401 0.1270336211 1.698367293e-38
0.1027846709 -0.3193717003 -0.2352477014 1.698367293e-38
0.1753341258 -0.3389207721 0.03879505396 1.698367293e-38
-0.06817696244 -0.06754946709 -0.2313004136 1.716698239e-38
-0.1598000824 -0.3177971542 -0.1137310416 1.716698239e-38
-0.00752350688 -0.1927883178 -0.2459753007 1.716698239e-38
-0.1688635945 -0.08078765124 -0.1207654923 1.716698239e-38
-0.1680278331 0.01720286347 -0.0438369289 1.716698239e-38
-0.1563447565 -0.04497925565 -0.05759201944 1.716698239e-38
-0.1688860655 -0.05695881322 -0.07045045495 1.716698239e-38
-0.1568439454 -0.1061564535 -0.1087806821 1.716698239e-38
-0.1674499959 -0.005020841025 -0.1687509865 1.735029324e-38
-0.04395259917 -0.1177520305 -0.2321971059 1.735029324e-38
-0.09178706259 0.02026893944 -0.2419632822 1.735029324e-38
0.004762548953 -0.2054401636 -0.2461324632 1.735029324e-38
-0.0197282359 -0.1679545939 -0.2330937982 1.735029324e-38
-0.03184040263 -0.1428533047 -0.232645452 1.735029324e-38
-0.1681567878 -0.0429042615 -0.1447582394 1.735029324e-38
-0.1726190895 -0.3305792809 -0.08928994834 1.735029324e-38
-0.1557417512 0.004551053047 -0.04399407655 1.75336041e-38
-0.1551638991 -0.01767268218 -0.1689081341 1.75336041e-38
0.1633145511 -0.3135519922 0.02681024373 1.75336041e-38
0.1277971268 -0.31950894 -0.2474127561 1.75336041e-38
-0.1729781032 -0.3435637653 -0.06471480429 1.75336041e-38
-0.1689561456 -0.08105516434 -0.1083323359 1.75336041e-38
0.115244627 -0.3195740879 -0.2351136506 1.75336041e-38
-0.1684232503 -0.05562122166 -0.1326162815 1.75336041e-38
0.01722255908 -0.2056425214 -0.2459984124 1.771655483e-38
0.004496095702 -0.2181571275 -0.2339905053 1.771655483e-38
0.2001615167 -0.3395930231 0.05149630457 1.771655483e-38
0.3360177577 -0.3452968299 0.2146020085 1.771655483e-38
-0.07950100303 0.007617129013 -0.2421204299 1.771655483e-38
-0.1561708748 -0.0325297825 -0.05730082095 1.771655483e-38
-0.1677164435 -0.01773783192 -0.1566089988 1.771655483e-38
-0.1689673811 -0.06914073974 -0.08317480236 1.771655483e-38
0.3356699646 -0.3701957464 0.2140196115 1.789986569e-38
0.3358438611 -0.3577462733 0.21431081 1.789986569e-38
-0.06738884002 -0.01748415083 -0.242568776 1.789986569e-38
-0.1467622817 -0.3402232528 -0.2385110408 1.789986569e-38
-0.1343023479 -0.3404256105 -0.2383770049 1.789986569e-38
-0.168689698 -0.06833818555 -0.1204742938 1.789986569e-38
0.07856033742 -0.2691691816 -0.2343510091 1.789986569e-38
-0.07994134724 -0.01754930243 -0.2302696705 1.789986569e-38
0.3237429559 -0.3445594311 0.1896016002 1.808317654e-38
0.05398816615 -0.2438655049 -0.2340366989 1.808317654e-38
0.1158588529 -0.2819582224 -0.2466732115 1.808317654e-38
0.0417021066 -0.2312137038 -0.2338795513 1.808317654e-38
-0.1566812992 -0.0817925781 -0.08333195001 1.808317654e-38
-0.156426087 -0.05716118217 -0.0703164041 1.808317654e-38
0.128144905 -0.2946100533 -0.2468303591 1.808317654e-38
-0.121842362 -0.3406279981 -0.238242954 1.808317654e-38
-0.05571698397 -0.06775183976 -0.2311663628 1.826612727e-38
0.1035728008 -0.2693063915 -0.2465160638 1.826612727e-38
-0.1555678546 0.01700049452 -0.04370287806 1.826612727e-38
-0.1688748151 -0.06887321919 -0.09560795128 1.826612727e-38
-0.05527663976 -0.04258543625 -0.2430171221 1.826612727e-38
-0.1559969783 -0.02008034289 -0.05700962618 1.826612727e-38
-0.1687822491 -0.06860569865 -0.1080411375 1.826612727e-38
0.0912867412 -0.2566545606 -0.2463589162 1.826612727e-38
0.02941605262 -0.2185618579 -0.2337224036 1.844943813e-38
-0.1682493538 -0.04317177832 -0.132325083 1.844943813e-38
-0.104165718 0.03265323117 -0.2293729782 1.844943813e-38
-0.08446249366 -0.3412351012 -0.2378408015 1.844943813e-38
-0.1565074027 -0.06934310496 -0.08304075152 1.844943813e-38
0.07900068164 -0.2440027297 -0.2462017536 1.844943813e-38
0.01739644818 -0.1931930631 -0.2457072139 1.844943813e-38
0.1160327345 -0.269508779 -0.246382013 1.844943813e-38
-0.09692244232 -0.3410327137 -0.2379748523 1.863274899e-38
-0.1562521905 -0.04471173882 -0.07002520561 1.863274899e-38
0.1877940744 -0.3391231596 0.03892910108 1.863274899e-38
-0.1676800549 0.04210180789 -0.04325453192 1.863274899e-38
-0.04343092814 -0.08040367812 -0.2313235253 1.863274899e-38
0.05442851037 -0.2186990678 -0.2458874583 1.863274899e-38
-0.03122616932 -0.1052374393 -0.2442050129 1.863274899e-38
0.09102028608 -0.2693715394 -0.2342169583 1.863274899e-38
-0.05554309487 -0.05530239269 -0.2308751643 1.881569971e-38
-0.03149262071 -0.1179544032 -0.2320630699 1.881569971e-38
-0.09143928438 0.045167882 -0.2413808852 1.881569971e-38
-0.03453008458 -0.3417770565 -0.2497377694 1.881569971e-38
0.06644811481 -0.2440678626 -0.2339026481 1.881569971e-38
-0.05510275066 -0.03013596311 -0.2427259237 1.881569971e-38
0.04214245081 -0.2060472667 -0.2457303107 1.881569971e-38
-0.1162778735 0.05775454268 -0.2289246321 1.881569971e-38
-0.1686196029 -0.04424185306 -0.08259240538 1.899901057e-38
-0.156333521 -0.05689366534 -0.08274955302 1.899901057e-38
-0.1678090096 -0.01800534874 -0.1441758424 1.899901057e-38
0.1401645839 -0.3199788034 -0.2348455489 1.899901057e-38
-0.1564148366 -0.06907558441 -0.09547390789 1.899901057e-38
0.2126214653 -0.3397953808 0.05163034797 1.899901057e-38
-0.009610189125 -0.3421818018 -0.2494696826 1.899901057e-38
-0.1683419198 -0.04343929887 -0.1198918968 1.899901057e-38
-0.1548161209 0.007226231974 -0.1683257371 1.91819627e-38
-0.1683643907 -0.01961045712 -0.06957685947 1.91819627e-38
-0.155393973 0.029449936 -0.04341167957 1.91819627e-38
0.163059324 -0.3381833732 0.01379469782 1.91819627e-38
0.02985639311 -0.1933954209 -0.245573163 1.91819627e-38
-0.07959356904 0.00734961126 -0.2296872735 1.91819627e-38
-0.1563222706 -0.06880806386 -0.1079070941 1.91819627e-38
-0.154109329 0.04510965198 -0.1923184842 1.91819627e-38
-0.1560558379 -0.05609111115 -0.1200490445 1.936527215e-38
-0.04325703532 -0.06795420498 -0.2310323268 1.936527215e-38
-0.03105227835 -0.09278796613 -0.2439138293 1.936527215e-38
0.1284926832 -0.2697111368 -0.2462479621 1.936527215e-38
0.1383245438 -0.3372435868 -0.0113397669 1.936527215e-38
-0.1560783088 -0.03226226568 -0.06973400712 1.936527215e-38
0.07917457074 -0.2315532863 -0.24591057 1.936527215e-38
-0.1556492001 0.0048185708 -0.0564272292 1.936527215e-38
-0.007001835853 -0.155439958 -0.2451017201 1.954822428e-38
-0.1685270369 -0.04397433251 -0.09502556175 1.954822428e-38
0.1525431871 -0.3323631585 -0.2474358529 1.954822428e-38
-0.1673686653 0.007161082234 -0.1560266018 1.954822428e-38
0.3483851552 -0.3457666934 0.2271692157 1.954822428e-38
0.1405123621 -0.2950799167 -0.2342631519 1.954822428e-38
-0.1684457213 -0.03179238364 -0.08230120689 1.954822428e-38
-0.1343836635 -0.352607578 -0.2511013448 1.954822428e-38
-0.1681680381 -0.03098982945 -0.1196006984 1.973153514e-38
0.3480373621 -0.3706656098 0.2265868187 1.973153514e-38
0.06662200391 -0.2316184342 -0.2336114645 1.973153514e-38
-0.1676351279 -0.005555876531 -0.1438846439 1.973153514e-38
0.09119417518 -0.2569220662 -0.2339257598 1.973153514e-38
-0.04308314621 -0.05550476164 -0.2307411283 1.973153514e-38
0.1282262504 -0.2824280858 -0.2341060042 1.973153514e-38
0.07890811563 -0.2442702502 -0.2337686121 1.973153514e-38
-0.03114484251 -0.09305548668 -0.231480673 1.991448586e-38
0.3482112586 -0.3582161367 0.2268780172 1.991448586e-38
-0.04281669483 -0.0427878052 -0.2428830862 1.991448586e-38
-0.1553490311 -0.01820771769 -0.1440417916 1.991448586e-38
-0.03087838739 -0.08033852279 -0.2436226308 1.991448586e-38
-0.07897933573 0.04496551305 -0.2412468344 1.991448586e-38
0.1397354603 -0.3570596874 -0.2481523007 1.991448586e-38
0.1159401834 -0.2697762847 -0.2339488566 1.991448586e-38
-0.1677614003 0.02991982363 -0.05597888306 2.009743799e-38
-0.05519531667 -0.03040347993 -0.2302927822 2.009743799e-38
0.3361103237 -0.3450292945 0.2021688521 2.009743799e-38
-0.009702752344 -0.3424493074 -0.2370365262 2.009743799e-38
0.0916345194 -0.231755659 -0.2457765192 2.009743799e-38
-0.02216269821 -0.3422469497 -0.2371705621 2.009743799e-38
0.00528421998 -0.1680918038 -0.2452588677 2.009743799e-38
-0.05475497246 -0.005237049423 -0.2421435416 2.009743799e-38
-0.1683531553 -0.03152486309 -0.09473436326 2.028074885e-38
-0.1679941416 -0.01854038425 -0.1193095073 2.028074885e-38
-0.1559744924 -0.04390918463 -0.1073246971 2.028074885e-38
-0.1677276939 -0.005823394284 -0.1314514875 2.028074885e-38
-0.1663140953 0.06994338334 -0.1794369519 2.028074885e-38
-0.1559857428 -0.03199474886 -0.08216716349 2.028074885e-38
0.1163805276 -0.2446098328 -0.245799616 2.028074885e-38
0.02976383083 -0.1936629415 -0.2331400067 2.028074885e-38
-0.006827945821 -0.1429905146 -0.2448105216 2.046369957e-38
-0.1560670584 -0.04417670146 -0.0948915109 2.046369957e-38
-0.1554753035 0.01726801321 -0.05613603443 2.046369957e-38
0.005017766729 -0.1808087677 -0.2331169099 2.046369957e-38
0.311560601 -0.3435544968 0.1521680802 2.046369957e-38
0.06706234813 -0.2064519972 -0.2454622239 2.046369957e-38
-0.1554415971 -0.01847523637 -0.1316086352 2.046369957e-38
0.1406862587 -0.2826304436 -0.2339719534 2.046369957e-38
-0.03070449829 -0.06788904965 -0.2433314323 2.06466517e-38
-0.01876622252 -0.1054398045 -0.244070977 2.06466517e-38
-0.07208387554 -0.3536194265 -0.2504311204 2.06466517e-38
-0.06713362038 0.007147243246 -0.2295532376 2.06466517e-38
-0.1551751494 -0.005758245476 -0.1437505931 2.06466517e-38
-0.1675875038 0.04236932471 -0.05568768457 2.06466517e-38
-0.1735109985 -0.3689977229 -0.04043086618 2.06466517e-38
-0.1680866927 -0.01880790293 -0.1068763509 2.06466517e-38
0.1040944681 -0.2319580168 -0.2456424683 2.082996116e-38
-0.1681792587 -0.01907542162 -0.09444316477 2.082996116e-38
0.09136806428 -0.244472608 -0.2336345613 2.082996116e-38
0.02750325762 -0.3555058837 -0.2369255722 2.082996116e-38
-0.05458108336 0.007212392054 -0.2418523431 2.082996116e-38
0.01747777872 -0.1810111403 -0.232982859 2.082996116e-38
-0.05502142757 -0.01795403846 -0.2300015837 2.082996116e-38
-0.07924578339 0.03224849701 -0.2291048914 2.082996116e-38
0.05450983346 -0.2065171599 -0.2331631035 2.101291328e-38
-0.1558931768 -0.03172722831 -0.09460031241 2.101291328e-38
-0.1555566341 0.005086089019 -0.06886041164 2.101291328e-38
-0.06669327617 0.03231364489 -0.2414039969 2.101291328e-38
-0.1558118463 -0.01954530738 -0.081875965 2.101291328e-38
-0.05962389708 -0.3538217843 -0.2502970695 2.101291328e-38
-0.167912811 -0.006358430721 -0.1065851524 2.101291328e-38
-0.1603329927 -0.3432311118 -0.08944709599 2.101291328e-38
0.04222378135 -0.1938653141 -0.2330059558 2.119586541e-38
0.1165544093 -0.2321603894 -0.2455084175 2.119586541e-38
0.1521954089 -0.3572620749 -0.2480182499 2.119586541e-38
0.07952234894 -0.2066543698 -0.245328173 2.119586541e-38
-0.1556267142 -0.01901027188 -0.1067423001 2.119586541e-38
-0.1676688343 0.03018734045 -0.06841206551 2.119586541e-38
-0.1665805429 0.05722643062 -0.167294994 2.119586541e-38
0.1038280129 -0.2446749955 -0.2335005105 2.119586541e-38
-0.1544683427 0.03212511539 -0.1677433401 2.137881613e-38
-0.1540280133 0.0572915785 -0.1795940995 2.137881613e-38
-0.1676463634 0.006358528975 -0.1187271103 2.137881613e-38
0.1535865366 -0.257666409 -0.2456886768 2.137881613e-38
