# .PCD v0.7 - Point Cloud Data file format
VERSION 0.7
FIELDS x y z rgb
SIZE 4 4 4 4
TYPE F F F F
COUNT 1 1 1 1
WIDTH 828
HEIGHT 1
VIEWPOINT 0 0 0 1 0 0 0
POINTS 828
DATA ascii
-0.01989268139 -0.4548841119 -0.136950627 5.225597518e-39
0.3795572817 -0.7219164371 -0.08869966865 5.225597518e-39
-0.1260958463 -0.4123089314 -0.1625647545 5.409984573e-39
-0.3898230195 -0.2148976028 -0.1014377028 5.409984573e-39
-0.008658916689 -0.4711435437 -0.2113580704 5.409984573e-39
-0.007835643366 -0.4664593339 -0.1792795062 5.409984573e-39
0.03592319787 -0.1752456129 -0.2252004147 5.409984573e-39
-0.07704994082 -0.7496611476 -0.0655003041 5.409984573e-39
-0.09006275237 -0.7489528656 -0.07594707608 5.409984573e-39
-0.315199852 -0.2116540968 -0.09566400945 5.409984573e-39
-0.2276755571 -0.1813525558 -0.285243243 5.594012897e-39
0.1449970156 -0.4612828493 -0.0901279822 5.594012897e-39
0.04376170039 -0.4230155349 -0.01537519693 5.594012897e-39
-0.1297920048 -0.7453292608 -0.1186688319 5.594012897e-39
0.04541566968 -0.4800091386 0.1417801976 5.594012897e-39
-0.3282126784 -0.2109457999 -0.1061107814 5.594012897e-39
0.005867971107 -0.4686663151 -0.1574513465 5.594012897e-39
0.2213673592 -0.4057489634 0.419482708 5.594012897e-39
-0.2075075656 -0.4946939945 0.01664562523 5.77804122e-39
0.1043272614 -0.7303123474 -0.1364265084 5.77804122e-39
0.09415278584 -0.02318466082 -0.2537405193 5.77804122e-39
-0.1942162961 -0.382725656 -0.2096142173 5.77804122e-39
-0.08867902309 -0.1801519096 -0.2386170328 5.77804122e-39
0.3075505197 -0.1962426305 -0.1488426179 5.77804122e-39
0.2056690156 -0.1581858844 -0.2838105857 5.77804122e-39
0.252346009 -0.2723250687 -0.2052484453 5.77804122e-39
0.03959631175 -0.4479727149 0.1014390215 5.962428276e-39
0.2999238968 -0.1473445743 -0.1819336414 5.962428276e-39
-0.01729034819 -0.4346488714 -0.02001785114 5.962428276e-39
0.2087984532 -0.04361182451 -0.2559551001 5.962428276e-39
-0.4028358161 -0.2141893059 -0.1118845046 5.962428276e-39
0.3119883537 -0.2252817154 -0.1312642545 5.962428276e-39
0.3019887507 -0.08547867835 -0.2407877594 5.962428276e-39
-0.2406884134 -0.1806442589 -0.2956900597 5.962428276e-39
-0.3781916797 -0.2126085758 -0.113753736 6.1464566e-39
-0.1117014885 -0.4160146117 -0.1293551624 6.1464566e-39
0.1173400879 -0.731020689 -0.1259797364 6.1464566e-39
0.3236196339 -0.2229926884 -0.1435802877 6.1464566e-39
0.1426749527 -0.730938673 -0.1164675802 6.1464566e-39
-0.3028777838 -0.2108637393 -0.09659862518 6.1464566e-39
-0.07098823041 -0.4411839247 -0.1259620488 6.1464566e-39
-0.01920191571 -0.4563827515 -0.1255692095 6.1464566e-39
0.1675406247 -0.4227933884 -0.03403707221 6.330484923e-39
-0.1445230991 -0.4273776412 -0.0582629554 6.330484923e-39
0.2521942258 -0.1490297765 -0.3330746293 6.330484923e-39
-0.1167791933 -0.7460376024 -0.1082220599 6.330484923e-39
-0.06518966705 -0.5071694851 0.0994816944 6.330484923e-39
-0.09384588152 -0.4935753942 0.05375968665 6.330484923e-39
-0.3289034367 -0.2094471306 -0.1174921915 6.330484923e-39
0.005735464394 -0.4748491645 -0.1781484634 6.330484923e-39
-0.1543263197 -0.4125791788 -0.2382996082 6.514514648e-39
0.1824064404 -0.1627639383 -0.2591785491 6.514514648e-39
-0.2016498893 -0.1827691644 -0.264349699 6.514514648e-39
0.1344996989 -0.1689227223 -0.2326773405 6.514514648e-39
-0.1894417554 -0.7260107398 -0.2856512964 6.514514648e-39
0.3239128888 -0.2430397868 -0.1942903101 6.514514648e-39
-0.1285571456 -0.2134146392 -0.1958008558 6.514514648e-39
-0.1134370863 -0.7257645726 -0.2571147978 6.514514648e-39
0.07899232954 -0.7303944826 -0.1459386945 6.698542971e-39
-0.09730713814 -0.4197202325 -0.09614559263 6.698542971e-39
-0.2868335545 -0.4812640548 -0.04810070246 6.698542971e-39
-0.01799484342 -0.02111778408 -0.2473946363 6.698542971e-39
-0.2550827563 -0.1769386232 -0.328899622 6.698542971e-39
0.3211216033 -0.2046324015 -0.1477115899 6.698542971e-39
-0.4158487022 -0.213481009 -0.1223312691 6.698542971e-39
-0.01768787764 -0.4531973004 -0.08210928738 6.698542971e-39
0.3031127155 -0.1672035158 -0.1664209664 6.882571295e-39
-0.2205203772 -0.4939857125 0.006198853254 6.882571295e-39
-0.1578899771 -0.7394166589 -0.1737065762 6.882571295e-39
-0.05171503499 -0.749579072 -0.05598814785 6.882571295e-39
0.09570875019 -0.4644443393 -0.08638951927 6.882571295e-39
-0.3788824677 -0.2111099064 -0.1251351237 6.882571295e-39
0.05329990387 -0.4501796961 0.1232671961 6.882571295e-39
-0.2754705846 -0.2152776718 -0.0529422611 6.882571295e-39
0.2769901752 -0.2707443237 -0.2071176767 7.066599618e-39
-0.1886370778 -0.1834774613 -0.2539029121 7.066599618e-39
-0.2393068671 -0.1836415827 -0.2729272544 7.066599618e-39
-0.07508933544 -0.7263908386 -0.2371558547 7.066599618e-39
-0.1395062208 -0.4301490784 -0.2351029217 7.066599618e-39
-0.02372878045 -0.7277253866 -0.2067501396 7.066599618e-39
0.207928732 -0.391176343 0.4390487969 7.066599618e-39
0.2686586678 -0.7290296555 -0.08028814197 7.066599618e-39
0.01094751991 -0.5007405281 0.1487153471 7.250627941e-39
0.3244711459 -0.2507212758 -0.2036060393 7.250627941e-39
-0.009398697875 -0.4711812735 0.054467462 7.250627941e-39
0.07565021515 -0.7506674528 0.0029540658 7.250627941e-39
0.3063015044 -0.1870624721 -0.1509082764 7.250627941e-39
-0.07029746473 -0.4426825643 -0.1145806685 7.250627941e-39
-0.1421282291 -0.2050248384 -0.1969318986 7.250627941e-39
-0.06334412098 -0.1800698489 -0.2291048765 7.250627941e-39
-0.1865885407 -0.1523150802 -0.2065219581 7.434656265e-39
-0.1137370244 -0.2309845388 -0.1926041692 7.434656265e-39
0.2929880321 -0.09994518757 -0.2036433071 7.434656265e-39
-0.01699711196 -0.45469594 -0.07072787732 7.434656265e-39
0.1707751602 -0.1650529653 -0.2468625605 7.434656265e-39
-0.0003544595093 -0.75091362 -0.02558240294 7.434656265e-39
0.3147439659 -0.1649144888 -0.1787369549 7.434656265e-39
0.193344757 -0.7307745218 -0.09744321555 7.434656265e-39
-0.4953071773 -0.2062338591 -0.2077747434 7.618684588e-39
-0.006454114802 -0.4694566727 -0.1565167308 7.618684588e-39
-0.2660232782 -0.1807263196 -0.3052022159 7.618684588e-39
-0.06214080006 -0.4668493867 0.001298941672 7.618684588e-39
0.1456877738 -0.4627815485 -0.07874657214 7.618684588e-39
0.2063597888 -0.1596845537 -0.272429198 7.618684588e-39
-0.10445714 -0.7452472448 -0.1091566682 7.618684588e-39
-0.08304526657 -0.4296086431 -0.08363316953 7.618684588e-39
-0.06947419792 -0.437998414 -0.08250213414 7.802712912e-39
-0.01336731017 -0.750205338 -0.03602923453 7.802712912e-39
0.2563366294 -0.729820013 -0.07935352623 7.802712912e-39
-0.1240235493 -0.4168049693 -0.1284205467 7.802712912e-39
0.01011685096 -0.4390627742 0.02363850921 7.802712912e-39
0.1556877792 -0.731646955 -0.1060208157 7.802712912e-39
0.2072379738 -0.3896777034 0.4276674092 7.802712912e-39
0.2470136881 -0.05042089522 -0.2566932738 7.802712912e-39
-0.1181607246 -0.743040204 -0.1309848577 7.986382503e-39
-0.3426070511 -0.2072401643 -0.1393203735 7.986382503e-39
0.03628242016 -0.5006584525 0.1582275033 7.986382503e-39
0.3108718693 -0.2099187374 -0.1126327515 7.986382503e-39
0.3038034737 -0.1687021852 -0.1550395787 7.986382503e-39
0.1311190128 -0.02081357315 -0.2565443516 7.986382503e-39
-0.06960669905 -0.4441812634 -0.1031992808 7.986382503e-39
-0.01630634628 -0.4561946392 -0.05934649333 7.986382503e-39
-0.2256032676 -0.185848549 -0.2510990798 8.170410826e-39
0.2891084552 -0.0785875693 -0.2305374146 8.170410826e-39
0.1430290043 -0.4181913137 -0.01147072762 8.170410826e-39
-0.1749334931 -0.1856844425 -0.2320747375 8.170410826e-39
0.3025544584 -0.1595220417 -0.1571052223 8.170410826e-39
-0.05951025337 -0.479026854 0.02612736076 8.170410826e-39
-0.05687969923 -0.4912043214 0.05095583946 8.170410826e-39
-0.3056408465 -0.2048690766 -0.1421242207 8.170410826e-39
-0.06615287811 -0.4516745806 -0.04629230499 8.35443915e-39
0.06667027622 -0.7311848402 -0.1450040787 8.35443915e-39
-0.06726196408 -0.5026735067 0.06533748657 8.35443915e-39
-0.1458972394 -0.4907422066 0.01197255403 8.35443915e-39
-0.2465460598 -0.4925690889 -0.01469472051 8.35443915e-39
-0.006077381782 -0.4848573804 0.09067731351 8.35443915e-39
-0.01147099398 -0.4666852951 0.02032325417 8.35443915e-39
-0.09213505685 -0.7444568872 -0.1100912839 8.35443915e-39
0.2201183438 -0.3965688348 0.4174170792 8.538467473e-39
-0.07125325501 -0.4535495639 -0.1673563421 8.538467473e-39
-0.2822706401 -0.4377584457 -0.1028235182 8.538467473e-39
-0.3432978094 -0.2057414949 -0.1507017612 8.538467473e-39
0.3133699 -0.2282790542 -0.1085014492 8.538467473e-39
-0.0530965589 -0.7465817928 -0.07875092328 8.538467473e-39
-0.05033130199 -0.1807781458 -0.2186581045 8.538467473e-39
-0.2632602155 -0.1867209673 -0.2596766353 8.538467473e-39
0.3139281273 -0.2359605134 -0.1178172231 8.722137064e-39
-0.3186536729 -0.2041607797 -0.1525709927 8.722137064e-39
-0.2940095663 -0.2025800496 -0.1544402242 8.722137064e-39
0.02382043563 -0.4412697554 0.0454666689 8.722137064e-39
-0.01561558247 -0.4576932788 -0.04796510935 8.722137064e-39
-0.08027482033 -0.5019651651 0.05489071459 8.722137064e-39
-0.4966886938 -0.2032365203 -0.2305375338 8.722137064e-39
-0.2061126232 -0.397380352 -0.2386924624 8.722137064e-39
0.03752401471 -0.4434767365 0.06729481369 8.906165387e-39
0.0612580739 -0.1751635522 -0.2156882286 8.906165387e-39
-0.2679839134 -0.2039966583 -0.1335466504 8.906165387e-39
-0.006768149324 -0.4833587408 0.07929588109 8.906165387e-39
-0.2686746716 -0.2024979889 -0.1449280679 8.906165387e-39
-0.06352233142 -0.4638520479 -0.0214638561 8.906165387e-39
0.3193285167 -0.7288655639 -0.06126382947 8.906165387e-39
-0.1372765005 -0.1848120093 -0.2234971821 8.906165387e-39
-0.2522079945 -0.2106996179 -0.07757431269 9.089834978e-39
0.314088881 -0.2621904314 -0.1892243922 9.089834978e-39
-0.2528987527 -0.2092009485 -0.0889557004 9.089834978e-39
-0.2920946479 -0.4569091201 -0.09775760025 9.089834978e-39
0.3141857386 -0.1572329998 -0.1694212258 9.089834978e-39
-0.2214909792 -0.3721289039 -0.2325734198 9.089834978e-39
-0.01924386434 -0.01193764806 -0.2494602799 9.089834978e-39
-0.06138573959 -0.7285977602 -0.2153277099 9.089834978e-39
-0.1712321043 -0.4908242822 0.002460390329 9.273863302e-39
-0.2458626777 -0.427705884 -0.09631162882 9.273863302e-39
0.1067535505 -0.4220610857 0.002714499831 9.273863302e-39
0.3316505551 -0.7280752063 -0.0621984452 9.273863302e-39
0.1190756783 -0.4212707281 0.0017798841 9.273863302e-39
0.06562201679 -0.4493893385 0.1223325655 9.273863302e-39
-0.06684364378 -0.450175941 -0.05767368898 9.273863302e-39
-0.01423405297 -0.4606906176 -0.02520231158 9.273863302e-39
0.291738987 -0.09076502919 -0.2057089657 9.457532893e-39
0.3259851635 -0.2475357652 -0.1601461023 9.457532893e-39
-0.1544502825 -0.205815196 -0.1959972829 9.457532893e-39
-0.2721284926 -0.1950046718 -0.2018350363 9.457532893e-39
-0.2755823135 -0.1875113398 -0.2587420344 9.457532893e-39
0.3076830208 -0.1900597811 -0.1281454712 9.457532893e-39
-0.119542256 -0.7400429249 -0.153747648 9.457532893e-39
-0.2577340901 -0.1987102926 -0.1686254442 9.457532893e-39
-0.1681894958 -0.1048336327 -0.2187194377 9.641561216e-39
-0.1865647733 -0.1879734695 -0.2197587341 9.641561216e-39
-0.2735100091 -0.192007333 -0.2245978117 9.641561216e-39
-0.296772629 -0.196585387 -0.1999658048 9.641561216e-39
-0.1792625636 -0.1148041338 -0.2157191783 9.641561216e-39
-0.0602010116 -0.4775282145 0.0147459805 9.641561216e-39
-0.02499639615 -0.1806961 -0.2091459334 9.641561216e-39
-0.258875519 -0.4269975424 -0.1067584008 9.641561216e-39
0.2975583673 -0.1228014529 -0.1653678268 9.825230807e-39
-0.01795289293 -0.4655629396 -0.1235035509 9.825230807e-39
0.02832255326 -0.7305585742 -0.1649630368 9.825230807e-39
0.2897992134 -0.08008623123 -0.219155997 9.825230807e-39
-0.1356548667 -0.4190939665 -0.1161045507 9.825230807e-39
-0.06532217562 -0.5133523345 0.07878453285 9.825230807e-39
-0.4843666553 -0.2024461627 -0.2314721644 9.825230807e-39
-0.2454120517 -0.197919935 -0.1695600599 9.825230807e-39
-0.1382572055 -0.4393292069 -0.233037293 1.000925913e-38
0.1563785374 -0.7331455946 -0.09463937581 1.000925913e-38
-0.2885951102 -0.1868030429 -0.2691887915 1.000925913e-38
0.2195600867 -0.3888873458 0.4267328084 1.000925913e-38
0.2198714763 -0.0336413309 -0.2589553595 1.000925913e-38
-0.2385044098 -0.212906599 -0.05574610457 1.000925913e-38
0.3244429231 -0.2183085382 -0.1115017235 1.000925913e-38
-0.2872135937 -0.1898003668 -0.2464259863 1.000925913e-38
-0.1339365989 -0.7363373041 -0.1869572252 1.019292872e-38
-0.1965670139 -0.4909062982 -0.00705178827 1.019292872e-38
-0.2405767143 -0.2084105909 -0.08989031613 1.019292872e-38
-0.1202330142 -0.7385442257 -0.1651290357 1.019292872e-38
-0.03731844947 -0.1814864576 -0.2082113028 1.019292872e-38
-0.08050376177 -0.7421678305 -0.1224072874 1.019292872e-38
0.07005984336 -0.4784284234 0.1399109662 1.019292872e-38
-0.06987172365 -0.4565469027 -0.1445935518 1.019292872e-38
-0.2105181515 -0.1910528541 -0.2065081149 1.037659831e-38
-0.1119416282 -0.1847299635 -0.2139850259 1.037659831e-38
-0.2412674725 -0.2069119215 -0.1012716964 1.037659831e-38
-0.1858740151 -0.1894721389 -0.2083773464 1.037659831e-38
-0.2988449335 -0.1920893937 -0.2341099977 1.037659831e-38
-0.4850574136 -0.2009474933 -0.2428535819 1.037659831e-38
-0.2214586735 -0.1948405504 -0.182810694 1.037659831e-38
0.002987653017 -0.7306406498 -0.1744751781 1.037659831e-38
0.196783334 -0.4764817357 -0.08973513544 1.056062664e-38
-0.09067820758 -0.035040088 -0.2397212982 1.056062664e-38
-0.2995356917 -0.1905907243 -0.2454913855 1.056062664e-38
-0.3337388039 -0.1989564747 -0.1971619725 1.056062664e-38
-0.2212185711 -0.4261251688 -0.09818086028 1.056062664e-38
-0.134627372 -0.7348386049 -0.1983386129 1.056062664e-38
-0.1641503572 -0.4317297935 -0.2332336903 1.056062664e-38
0.1817134768 -0.733063519 -0.08512721956 1.056062664e-38
0.09709028155 -0.467441678 -0.0636267215 1.074429623e-38
-0.1719302982 -0.4229636788 -0.1019193158 1.074429623e-38
0.2089446634 -0.4494614005 -0.01926258206 1.074429623e-38
0.03684067726 -0.5083399415 0.1489117742 1.074429623e-38
-0.002426754683 -0.7464176416 -0.05972661078 1.074429623e-38
-0.1605391204 -0.1893900782 -0.1988651603 1.074429623e-38
-0.1353181303 -0.7333399057 -0.2097200155 1.074429623e-38
-0.1842449605 -0.4901159406 -0.007986404002 1.074429623e-38
-0.05820367113 -0.2737238109 -0.1860143691 1.092796582e-38
-0.06490385532 -0.4608547688 -0.04422665387 1.092796582e-38
-0.14797692 -0.4198843241 -0.1151699349 1.092796582e-38
-0.06864349544 -0.499676168 0.04257471859 1.092796582e-38
-0.01726212911 -0.4670615792 -0.1121221706 1.092796582e-38
0.2794882059 -0.2891046405 -0.2029863596 1.092796582e-38
-0.4193025231 -0.205987677 -0.1792382598 1.092796582e-38
0.09338667989 -0.7341001034 -0.1127291173 1.092796582e-38
-0.3125484884 -0.1898824275 -0.2559381723 1.111163541e-38
0.3157354295 -0.2528221309 -0.1250672936 1.111163541e-38
0.01600047015 -0.7313489318 -0.1640284061 1.111163541e-38
-0.4590317607 -0.202364102 -0.2219600081 1.111163541e-38
0.2542665303 -0.1535257697 -0.2989304662 1.111163541e-38
0.07244616747 -0.4690223932 -0.06175749376 1.111163541e-38
-0.3153115511 -0.1838877648 -0.301463753 1.111163541e-38
-0.135894984 -0.1878093481 -0.2007343918 1.111163541e-38
-0.3160023093 -0.1823890954 -0.3128451705 1.1295305e-38
0.19691585 -0.4702988863 -0.06903800368 1.1295305e-38
0.2775291502 -0.1489477158 -0.3235624731 1.1295305e-38
-0.2219093293 -0.4246264696 -0.109562248 1.1295305e-38
-0.2275638729 -0.2091189027 -0.07944354415 1.1295305e-38
0.3247450888 -0.1412902772 -0.3614451289 1.1295305e-38
-0.09660894424 -0.4875807762 0.008234091103 1.1295305e-38
-0.3248705566 -0.190672785 -0.2550035715 1.1295305e-38
-0.3590736985 -0.1990385354 -0.2066741288 1.147897319e-38
-0.1596008241 -0.4885352254 -0.009855635464 1.147897319e-38
-0.08165635169 -0.498967886 0.03212789446 1.147897319e-38
-0.4597225189 -0.2008654326 -0.2333413959 1.147897319e-38
0.1194123775 -0.7355166674 -0.09183552861 1.147897319e-38
0.1421920508 -0.01084307581 -0.259544611 1.147897319e-38
-0.1583654881 -0.08568298072 -0.2237853557 1.147897319e-38
0.1444105357 -0.4211886525 0.0112920925 1.147897319e-38
-0.1915846169 -0.1155944914 -0.2147845626 1.166264278e-38
-0.2455768585 -0.381391108 -0.2400199175 1.166264278e-38
-0.0243056342 -0.1821947545 -0.1977645457 1.166264278e-38
0.01275479607 -0.5176021457 0.1414652169 1.166264278e-38
-0.08660672605 -0.1846479028 -0.2044728547 1.166264278e-38
-0.4323153198 -0.2052793652 -0.1896850467 1.166264278e-38
0.3251336813 -0.2198072076 -0.1001203358 1.166264278e-38
-0.4864389598 -0.1979501545 -0.2656163275 1.166264278e-38
-0.08522184938 -0.4637082219 -0.2305787802 1.184631237e-38
-0.3597644567 -0.197539866 -0.2180555165 1.184631237e-38
0.122425206 -0.4673596025 -0.0541145727 1.184631237e-38
-0.3276336193 -0.1846781224 -0.3005291224 1.184631237e-38
-0.1954330057 -0.1962571442 -0.1619171351 1.184631237e-38
-0.1753841192 -0.4154703617 -0.1588262916 1.184631237e-38
0.3169844449 -0.2620022893 -0.12300165 1.184631237e-38
-0.1472787708 -0.4877448678 -0.01079024374 1.184631237e-38
0.03351936489 -0.4946638346 0.1127019003 1.202998196e-38
0.03523020446 -0.7455452085 -0.05114907026 1.202998196e-38
0.009189289063 -0.4823424816 -0.1212414801 1.202998196e-38
-0.2063735574 -0.2000448406 -0.1382197291 1.202998196e-38
-0.2479349673 -0.4232099056 -0.1304558218 1.202998196e-38
-0.2226001024 -0.42312783 -0.1209436357 1.202998196e-38
-0.372086525 -0.1983302236 -0.2171208858 1.202998196e-38
0.258086741 -0.04045037925 -0.2596935332 1.202998196e-38
0.08349098265 -0.42663908 0.02734655142 1.221365155e-38
-0.4871297181 -0.1964515001 -0.276997745 1.221365155e-38
-0.2026576847 -0.1255650073 -0.2117842883 1.221365155e-38
0.156732589 -0.4203982949 0.01035747677 1.221365155e-38
-0.2124816924 -0.144715637 -0.2067183703 1.221365155e-38
-0.4741168916 -0.197159797 -0.2665509582 1.221365155e-38
0.1324252039 -0.736225009 -0.08138875663 1.221365155e-38
0.3001814783 -0.06861704588 -0.2335376889 1.221365155e-38
-0.1591575891 -0.1923874021 -0.17610237 1.239732115e-38
0.1502733678 -0.7474239469 0.008727759123 1.239732115e-38
0.3446633816 -0.7287834883 -0.05175161362 1.239732115e-38
-0.01505732723 -0.4653747678 -0.05728084967 1.239732115e-38
-0.1733118296 -0.4199663997 -0.1246820837 1.239732115e-38
0.09407745302 -0.7355988026 -0.101347737 1.239732115e-38
-0.09766116738 -0.7324675322 -0.2011424452 1.239732115e-38
-0.3960399032 -0.201409623 -0.2038702816 1.239732115e-38
0.01335132495 -0.1813223362 -0.1891869754 1.258099074e-38
0.009204536676 -0.7441285849 -0.07204261422 1.258099074e-38
-0.1947422475 -0.1977558136 -0.1505357474 1.258099074e-38
-0.2056827992 -0.20154351 -0.1268383414 1.258099074e-38
0.328350693 -0.2720788717 -0.1767119467 1.258099074e-38
0.196110025 -0.1649709046 -0.2373504043 1.258099074e-38
0.192729339 -0.01686176285 -0.2612174153 1.258099074e-38
-0.06227330863 -0.4730321765 -0.01939820498 1.258099074e-38
-0.07052572072 -0.2745141685 -0.1850797534 1.276466033e-38
0.172829926 -0.4795610905 -0.07648449391 1.276466033e-38
0.3143182397 -0.15105021 -0.1487240791 1.276466033e-38
0.2433260083 -0.1573134661 -0.2752330601 1.276466033e-38
-0.05724115297 -0.7375897169 -0.1470393091 1.276466033e-38
-0.003823561594 -0.4816341996 -0.1316882819 1.276466033e-38
-0.2087346315 -0.1722560823 -0.2005214244 1.276466033e-38
0.06022839993 -0.4312171936 0.05197855085 1.276466033e-38
-0.4357691407 -0.1977860481 -0.2465920448 1.294832852e-38
0.009321793914 -0.4761596322 -0.1005443633 1.294832852e-38
-0.09729970992 -0.486082077 -0.003147296607 1.294832852e-38
-0.2049920261 -0.2030421793 -0.1154569238 1.294832852e-38
-0.1849357188 -0.488617301 -0.01936778799 1.294832852e-38
0.2782199383 -0.1504463851 -0.3121810853 1.294832852e-38
0.01206403039 -0.5161034465 0.1300838292 1.294832852e-38
-0.1584668159 -0.1938860714 -0.1647209823 1.294832852e-38
0.03453943878 -0.7440465689 -0.06253045797 1.313163938e-38
-0.2609478235 -0.422501564 -0.1409025788 1.313163938e-38
-0.01436656341 -0.4668734074 -0.04589946568 1.313163938e-38
-0.07359387726 -0.1853561997 -0.1940260828 1.313163938e-38
-0.01820266247 -0.7397146821 -0.1156989783 1.313163938e-38
0.04849275947 -0.472101748 -0.04850687832 1.313163938e-38
-0.2435045689 -0.3858871162 -0.2058757544 1.313163938e-38
0.06874257326 -0.7356808186 -0.1108598933 1.313163938e-38
0.2866104245 -0.06022727489 -0.2346687168 1.331530897e-38
0.2931205332 -0.09376236051 -0.1829461753 1.331530897e-38
0.1112349182 -0.7452990413 -0.02261255682 1.331530897e-38
-0.3748495877 -0.1923355758 -0.2626464963 1.331530897e-38
-0.4508542717 -0.192581743 -0.2911829948 1.331530897e-38
-0.4892019928 -0.1919555068 -0.311141938 1.331530897e-38
0.3206958473 -0.1907680929 -0.1176986694 1.331530897e-38
0.3165586889 -0.2481380105 -0.09298877418 1.331530897e-38
-0.1877061725 -0.4162607789 -0.1578916907 1.349897856e-38
-0.1602915823 -0.4870365858 -0.02123701945 1.349897856e-38
0.172962442 -0.4733783007 -0.05578737706 1.349897856e-38
0.3226356208 -0.2014469206 -0.1042516381 1.349897856e-38
-0.2566498816 -0.3913616538 -0.2370196581 1.349897856e-38
-0.2486257404 -0.4217112064 -0.1418372095 1.349897856e-38
0.2191269249 -0.3022365868 -0.1962476522 1.349897856e-38
-0.2948577106 -0.4509144425 -0.1432831883 1.349897856e-38
0.1286209673 -0.002453301102 -0.2606756389 1.368228942e-38
-0.1103125364 -0.485373795 -0.01359409094 1.368228942e-38
0.009880052879 -0.4838411212 -0.1098600999 1.368228942e-38
0.2314489782 -0.3014461994 -0.197182253 1.368228942e-38
0.327631712 -0.2381674945 -0.09598903358 1.368228942e-38
0.07496165484 -0.1773705184 -0.193860054 1.368228942e-38
-0.4220655859 -0.1999930143 -0.2247638404 1.368228942e-38
-0.2356054932 -0.4887814522 -0.03839213029 1.368228942e-38
-0.2102706283 -0.4886993766 -0.02887997031 1.386595901e-38
-0.1596145034 -0.07650284469 -0.2258509994 1.386595901e-38
-0.2036105096 -0.2060395032 -0.09269415587 1.386595901e-38
0.3097553253 -0.1945557892 -0.09400129318 1.386595901e-38
0.3298647404 -0.2688933909 -0.1332520247 1.386595901e-38
0.05954500288 -0.4960803986 0.1335954368 1.386595901e-38
-0.1374684125 -0.05656182766 -0.2318515331 1.386595901e-38
0.1242499352 -0.1742090732 -0.1975985169 1.386595901e-38
0.2101936787 -0.4586415887 -0.01719693467 1.404926846e-38
-0.008643640205 -0.7329297066 -0.1621591896 1.404926846e-38
-0.2363036871 -0.4209208488 -0.1427718103 1.404926846e-38
-0.003132795915 -0.4831328392 -0.1203068644 1.404926846e-38
-0.3878624141 -0.191627264 -0.2730932534 1.404926846e-38
0.108825855 -0.4265570641 0.03685871512 1.404926846e-38
-0.4652486444 -0.1888761073 -0.3243925571 1.404926846e-38
0.1235569715 -0.7445086837 -0.02354715765 1.404926846e-38
-0.09754724801 -0.1884355992 -0.1807754338 1.423293806e-38
0.1105441451 -0.7438004017 -0.03399394453 1.423293806e-38
0.2892409563 -0.07240474224 -0.2098402679 1.423293806e-38
0.3297322094 -0.2750762105 -0.1539491415 1.423293806e-38
-0.4275916815 -0.1880036891 -0.3158150017 1.423293806e-38
0.3021732569 -0.1473670006 -0.3254316747 1.423293806e-38
-0.01958419383 -0.7367173433 -0.1384617686 1.423293806e-38
-0.2714700401 -0.3737916946 -0.2402163446 1.423293806e-38
-0.2565173805 -0.3851788044 -0.2163225412 1.441624891e-38
-0.413888067 -0.1902106553 -0.2939868271 1.441624891e-38
0.1707729548 -0.7368512154 -0.06142982841 1.441624891e-38
-0.2987372875 -0.4295568466 -0.170177266 1.441624891e-38
0.2084320784 -0.164180547 -0.2382850051 1.441624891e-38
-0.2116595507 -0.4193401337 -0.1446410418 1.441624891e-38
0.3181009591 -0.2773652375 -0.141633153 1.441624891e-38
-0.09799047559 -0.4845834374 -0.01452870667 1.441624891e-38
-0.3885531723 -0.1901285946 -0.2844746709 1.459991851e-38
-0.04825900495 -0.1852741539 -0.1845138967 1.459991851e-38
0.05041175336 -0.5167297125 0.1500428021 1.459991851e-38
0.07255045325 -0.430426836 0.05104393512 1.459991851e-38
-0.1570852846 -0.1968833953 -0.1419581771 1.459991851e-38
-0.08303787559 -0.4959705472 0.009365126491 1.459991851e-38
0.1409430206 -0.001662939787 -0.2616102695 1.459991851e-38
0.2309445143 -0.02367081493 -0.2619556189 1.459991851e-38
0.3065665364 -0.1746968329 -0.1095139831 1.478322936e-38
0.09684050083 -0.7415934205 -0.05582213402 1.478322936e-38
-0.2895966172 -0.4752693772 -0.09362629801 1.478322936e-38
0.317807734 -0.2573181391 -0.09092311561 1.478322936e-38
0.2556480467 -0.1565231085 -0.276167661 1.478322936e-38
0.0217555631 -0.5031356215 0.1043207869 1.478322936e-38
-0.1447632313 -0.1960930377 -0.1428928077 1.478322936e-38
0.07382769138 -0.4720196724 -0.03899469599 1.478322936e-38
-0.2616385818 -0.4210029244 -0.1522839963 1.496689755e-38
-0.4036383331 -0.1849243045 -0.3290656209 1.496689755e-38
0.1211479679 -0.4257667065 0.03592409194 1.496689755e-38
0.0588542372 -0.4945816994 0.1222140566 1.496689755e-38
0.001720035449 -0.1836113632 -0.1768709719 1.496689755e-38
0.2440167665 -0.1588121355 -0.2638516426 1.496689755e-38
-0.3064964116 -0.3868415952 -0.223965466 1.496689755e-38
-0.1687166095 -0.1991724223 -0.1296421885 1.496689755e-38
-0.2695302367 -0.3844705224 -0.2267692983 1.515020841e-38
0.3053175211 -0.1655167043 -0.1115796268 1.515020841e-38
0.1228661984 -0.7430100441 -0.03492854536 1.515020841e-38
0.1728474498 -0.1695489585 -0.2127183676 1.515020841e-38
-0.08109808713 -0.506649375 0.02281216532 1.515020841e-38
-0.3052473962 -0.3960217237 -0.2218998075 1.515020841e-38
-0.506794095 -0.2654562891 -0.1606308371 1.515020841e-38
-0.06793193519 -0.4672257304 -0.1311465204 1.515020841e-38
0.3304229975 -0.2765748799 -0.1425677687 1.533351927e-38
-0.1885253638 -0.2112438083 -0.04810317978 1.533351927e-38
0.2107519358 -0.4663230181 -0.02651266381 1.533351927e-38
-0.3913162351 -0.1841339469 -0.3300002515 1.533351927e-38
-0.1778453887 -0.2165760696 -0.1920623928 1.533351927e-38
-0.224672392 -0.4186318517 -0.1550878435 1.533351927e-38
-0.2210566849 -0.1730464399 -0.1995868087 1.533351927e-38
0.01070332527 -0.479156971 -0.07778156549 1.533351927e-38
0.1914803237 -0.007681626827 -0.2632830739 1.551683013e-38
0.2097679228 -0.4447773099 0.01281597465 1.551683013e-38
0.018763531 -0.7373435497 -0.118502818 1.551683013e-38
0.30850631 -0.1853756607 -0.09606693685 1.551683013e-38
-0.189216122 -0.2097451389 -0.05948456377 1.551683013e-38
0.03144706786 -0.4901677966 0.07855769247 1.551683013e-38
-0.2260527611 -0.136325866 -0.2078494132 1.551683013e-38
-0.01035448071 -0.4820482135 0.001691788435 1.551683013e-38
0.3177034259 -0.2959136665 -0.2037245631 1.570049832e-38
0.1214846671 -0.7400126457 -0.05769136548 1.570049832e-38
0.3288807273 -0.2473476529 -0.09392337501 1.570049832e-38
0.02629734948 0.01876424998 -0.2593956888 1.570049832e-38
-0.1609823555 -0.4855379462 -0.03261843324 1.570049832e-38
-0.06102428585 -0.4822123647 -0.01733255386 1.570049832e-38
-0.2941743731 -0.3860512376 -0.2249000669 1.570049832e-38
-0.2584423423 -0.5072237849 -0.04377298057 1.570049832e-38
-0.1796571314 -0.2029601187 -0.105944775 1.588380918e-38
0.07255788147 -0.4967886806 0.1440422535 1.588380918e-38
0.09719455987 -0.4288460612 0.04917470366 1.588380918e-38
-0.281294018 -0.392942369 -0.2351504266 1.588380918e-38
0.008051946759 -0.5009286404 0.0824925676 1.588380918e-38
0.3112619221 -0.1250084192 -0.1435396522 1.588380918e-38
0.3169488013 -0.1632276773 -0.1238956302 1.588380918e-38
0.08363091201 -0.4868181944 0.1410419941 1.588380918e-38
0.3015629947 -0.0716143772 -0.2107748836 1.606712004e-38
-0.001618759707 -0.4799473286 -0.07684694976 1.606712004e-38
0.3143256903 -0.2174120843 -0.05572577938 1.606712004e-38
-0.1083519459 -0.4621034265 -0.1852496415 1.606712004e-38
0.007361182943 -0.4994300008 0.07111119479 1.606712004e-38
0.01139409095 -0.4806556702 -0.06640015543 1.606712004e-38
0.03075630404 -0.488669157 0.06717630476 1.606712004e-38
0.1126186475 -0.1764981151 -0.1852824986 1.606712004e-38
0.0718671158 -0.495290041 0.132660836 1.625043089e-38
0.174917534 -0.7458432317 0.00685852766 1.625043089e-38
0.3193499744 -0.2865453959 -0.1395674944 1.625043089e-38
0.2573421001 -0.3090456426 -0.1969858259 1.625043089e-38
0.2679701149 -0.1557327509 -0.2771022618 1.625043089e-38
0.2943083346 -0.3066745698 -0.1997896731 1.625043089e-38
-0.08384367079 -0.1906425655 -0.158947289 1.625043089e-38
-0.001751268283 -0.486130178 -0.09754409641 1.625043089e-38
-0.2358768135 -0.1554765254 -0.2027834952 1.643374035e-38
-0.2134386003 -0.4348912835 -0.2294952571 1.643374035e-38
-0.1426909417 -0.200589031 -0.1087486148 1.643374035e-38
0.005979655311 -0.496432662 0.04834841937 1.643374035e-38
-0.1986393034 -0.4864103198 -0.04119597003 1.643374035e-38
-0.0463860184 0.004841938615 -0.2517223656 1.643374035e-38
-0.2273017913 -0.1271457374 -0.2099150568 1.643374035e-38
-0.1768940687 -0.2089547813 -0.0604191795 1.643374035e-38
0.1249407008 -0.1757077426 -0.1862171292 1.661705121e-38
0.3060082793 -0.1670153737 -0.1001982391 1.661705121e-38
0.01126158424 -0.48683846 -0.08709730208 1.661705121e-38
0.06273381412 -0.5159393549 0.1491082013 1.661705121e-38
0.3132017255 -0.1356872469 -0.130092591 1.661705121e-38
-0.2405807674 -0.4181116819 -0.231757313 1.661705121e-38
0.1598323733 -0.7406389713 -0.03773239255 1.661705121e-38
0.3318045139 -0.2795722187 -0.1198049635 1.661705121e-38
0.3192174435 -0.2927281857 -0.160264641 1.680036207e-38
0.3091970682 -0.18687433 -0.08468553424 1.680036207e-38
-0.0009279940277 -0.4814460278 -0.06546553969 1.680036207e-38
-0.2346277833 -0.1646566689 -0.2007178366 1.680036207e-38
0.306630373 -0.3058841825 -0.2007242888 1.680036207e-38
-0.1213647723 -0.4613951445 -0.1956964135 1.680036207e-38
-0.1659535468 -0.2051670849 -0.08411661536 1.680036207e-38
0.304759264 -0.1578352302 -0.1022638977 1.680036207e-38
0.3111368418 -0.197553128 -0.07123848796 1.698367293e-38
0.009991737083 -0.5116074681 0.09593965858 1.698367293e-38
0.01473285351 -0.1843196601 -0.1664241999 1.698367293e-38
0.3313787878 -0.2657079101 -0.08979208767 1.698367293e-38
-0.08210319281 -0.00670927763 -0.2468528748 1.698367293e-38
-0.06655040383 -0.4702230096 -0.1083837152 1.698367293e-38
0.1187897995 -0.4675855041 0.1454882324 1.698367293e-38
0.09985333681 -0.473436296 -0.01810112968 1.698367293e-38
-0.1875454336 -0.4424906969 -0.22929883 1.716698239e-38
-0.1054983065 -0.01747018099 -0.2429179847 1.716698239e-38
0.02937477268 -0.4856718183 0.04441353679 1.716698239e-38
0.3188885748 -0.1739064753 -0.1104485989 1.716698239e-38
0.3290132284 -0.2411648035 -0.07322624326 1.716698239e-38
-0.1901674718 -0.217366457 -0.1911277771 1.716698239e-38
0.1025881767 -0.4470182061 0.1195287332 1.716698239e-38
-0.2533285618 -0.4050377607 -0.2008098364 1.716698239e-38
-0.233378768 -0.1738368273 -0.198652193 1.735029324e-38
-0.04687747359 -0.1882714778 -0.1617511213 1.735029324e-38
-0.2969300151 -0.4464184642 -0.1774273813 1.735029324e-38
0.3199082017 -0.294226855 -0.1488832384 1.735029324e-38
-0.2591331005 -0.5057250857 -0.05515439436 1.735029324e-38
0.06402113289 -0.1811582148 -0.1701626629 1.735029324e-38
0.02231382392 -0.5108171105 0.09500504285 1.735029324e-38
0.1251882613 -0.4733542204 -0.008588977158 1.735029324e-38
0.3022537529 -0.07311304659 -0.1993934661 1.75336041e-38
-0.1206740066 -0.462893784 -0.1843150258 1.75336041e-38
-0.1953316778 -0.08805406094 -0.2209815085 1.75336041e-38
0.1851672977 -0.7405568361 -0.0282202363 1.75336041e-38
0.003907358274 -0.4919366837 0.01420421153 1.75336041e-38
0.3314070106 -0.2981206179 -0.1818964034 1.75336041e-38
0.03893376887 -0.4788867831 -0.00204667449 1.75336041e-38
-0.1074919179 -0.2768852711 -0.1822759211 1.75336041e-38
-0.1522499323 -0.2073740661 -0.06228840724 1.771655483e-38
-0.3027493358 -0.4143820405 -0.2177685201 1.771655483e-38
0.3197757304 -0.3004096448 -0.1695803851 1.771655483e-38
-0.09409342706 -0.1959289163 -0.1238684654 1.771655483e-38
0.315141499 -0.1463660598 -0.1166455448 1.771655483e-38
-0.1731855869 -0.06811305135 -0.2269820422 1.771655483e-38
-0.266473949 -0.4105122685 -0.2319537401 1.771655483e-38
-0.2285508066 -0.117965579 -0.2119807154 1.771655483e-38
0.01830173843 -0.4956423044 0.04741380364 1.789986569e-38
-0.05850876868 -0.1905605048 -0.1494351029 1.789986569e-38
-0.09442527592 -0.007499638945 -0.245918259 1.789986569e-38
-0.2529028058 -0.4189020395 -0.2308227122 1.789986569e-38
-0.1057247445 -0.1982179433 -0.111552462 1.789986569e-38
0.0632635653 0.02113533765 -0.2621995211 1.789986569e-38
0.08822204173 -0.4757253528 -0.005785129964 1.789986569e-38
0.3205989897 -0.2957255244 -0.1375018507 1.789986569e-38
0.1872395873 -0.7450528145 0.005923911929 1.808317654e-38
-0.07015753537 -0.5028616786 -0.0008852258325 1.808317654e-38
-0.2916689217 -0.4707733989 -0.1277704835 1.808317654e-38
0.3186309636 -0.2526339889 -0.05884458497 1.808317654e-38
-0.4969700873 -0.2463056445 -0.1656967551 1.808317654e-38
0.01264311187 -0.4898357987 -0.06433450431 1.808317654e-38
-0.4685789049 -0.2722653449 -0.1613690406 1.808317654e-38
-0.1377197355 -0.4809598923 -0.05725042522 1.808317654e-38
0.3320977688 -0.2996192873 -0.1705150008 1.826612727e-38
-0.02154257149 -0.1881894171 -0.1522389501 1.826612727e-38
0.3330535293 -0.288752377 -0.1177393049 1.826612727e-38
-0.2904272974 -0.4135916829 -0.2187031209 1.826612727e-38
0.2117077261 -0.4554560781 0.02626301348 1.826612727e-38
0.2093028575 -0.3213872313 -0.1911817193 1.826612727e-38
0.327896744 -0.2258018553 -0.054594744 1.826612727e-38
-0.1166652739 -0.2020056397 -0.08785507828 1.826612727e-38
0.01692020707 -0.4926449656 0.02465097606 1.844943813e-38
0.2832352817 -0.316645056 -0.1967894137 1.844943813e-38
-0.2469498366 -0.1654470265 -0.1997832358 1.844943813e-38
0.3180727363 -0.2449524999 -0.04952882603 1.844943813e-38
0.07505592704 -0.5151489973 0.1481735706 1.844943813e-38
0.2709131837 -0.3174354136 -0.195854798 1.844943813e-38
0.01415714808 -0.4866502881 -0.02087458968 1.844943813e-38
0.2105021626 -0.7404748201 -0.01870808005 1.844943813e-38
0.2025533468 0.002288870513 -0.2662833333 1.863274899e-38
-0.1007535309 -0.4785887599 -0.06005427241 1.863274899e-38
0.2585911155 -0.3182257712 -0.1949201822 1.863274899e-38
0.3297039866 -0.2426634729 -0.06184485182 1.863274899e-38
0.2339470088 -0.3198065162 -0.1930509508 1.863274899e-38
-0.04763503373 0.01402207464 -0.2537879944 1.863274899e-38
0.2462690473 -0.3190161288 -0.1939855665 1.863274899e-38
0.1256314516 -0.1772063971 -0.1748357415 1.863274899e-38
0.332788527 -0.3011179566 -0.1591336131 1.881569971e-38
0.005847144872 -0.5026155114 0.02765124291 1.881569971e-38
0.3203339875 -0.3080911338 -0.1788961291 1.881569971e-38
0.3319652677 -0.3058021367 -0.1912121326 1.881569971e-38
-0.2983115315 -0.4434211254 -0.2001901716 1.881569971e-38
0.01484791376 -0.4881489873 -0.009493179619 1.881569971e-38
0.2867429256 -0.05404447019 -0.2139715701 1.881569971e-38
0.07703395188 -0.1818665266 -0.1597158611 1.881569971e-38
0.1600539237 -0.4340744615 0.04656729102 1.899901057e-38
0.302944541 -0.07461170852 -0.1880120933 1.899901057e-38
-0.1276057959 -0.205793336 -0.06415763497 1.899901057e-38
0.2284464836 -0.005310542881 -0.2660869062 1.899901057e-38
-0.1192924753 -0.4658911228 -0.1615522206 1.899901057e-38
-0.4796519578 -0.2822358608 -0.1583687663 1.899901057e-38
-0.2761654258 -0.4234801531 -0.2061907053 1.899901057e-38
-0.03317386284 -0.1904784441 -0.1399229467 1.899901057e-38
-0.511790216 -0.2287356853 -0.1688934416 1.91819627e-38
-0.2408728898 -0.1187559366 -0.2110460997 1.91819627e-38
-0.1862964183 -0.4516708255 -0.2272331715 1.91819627e-38
-0.1744346023 -0.05893291533 -0.2290477008 1.91819627e-38
0.3220915496 -0.7348601818 -0.01573823392 1.91819627e-38
0.3326560259 -0.3073007762 -0.1798307449 1.91819627e-38
-0.08649169654 -0.4884772301 -0.04754185304 1.91819627e-38
0.3218480349 -0.304905653 -0.1354361922 1.91819627e-38
0.005156381056 -0.5011168122 0.01626986265 1.936527215e-38
0.05263735354 -0.4810937643 0.0197814852 1.936527215e-38
-0.1332611144 -0.4760498405 -0.2247746885 1.936527215e-38
-0.2904198766 -0.4799535275 -0.1257048249 1.936527215e-38
-0.3009420931 -0.4312436581 -0.2250185907 1.936527215e-38
-0.1014442965 -0.4770901203 -0.07143568248 1.936527215e-38
0.1889822781 0.0106786862 -0.267414391 1.936527215e-38
0.3228037953 -0.294038713 -0.08266051114 1.936527215e-38
0.2802327871 -0.02050936595 -0.2656940818 1.954822428e-38
-0.2638433874 -0.4226897359 -0.2071253359 1.954822428e-38
-0.1460089236 -0.4629758596 -0.1938271821 1.954822428e-38
0.1512138993 -0.474770844 0.01230455935 1.954822428e-38
-0.2519459128 -0.1287264526 -0.2080458254 1.954822428e-38
0.3010047376 -0.06393291056 -0.2014591247 1.954822428e-38
-0.4994681478 -0.2279453278 -0.1698280573 1.954822428e-38
0.3157072067 -0.2204093933 -0.03296300769 1.954822428e-38
0.001702556387 -0.4936234951 -0.0406371206 1.973153514e-38
0.3217155039 -0.3110884726 -0.1561333388 1.973153514e-38
0.3223780394 -0.2801744342 -0.05264763162 1.973153514e-38
0.3222098649 -0.187582612 -0.07423876226 1.973153514e-38
-0.4673298895 -0.2814454734 -0.159303382 1.973153514e-38
-0.4328617454 -0.2607141137 -0.1662385315 1.973153514e-38
0.004465617239 -0.4996181726 0.004888474941 1.973153514e-38
-0.07227917016 0.01244135201 -0.2519187629 1.973153514e-38
0.1484226137 -0.4363634586 0.05888328701 1.991448586e-38
-0.4341107607 -0.2515339553 -0.1683041751 1.991448586e-38
0.319021076 -0.1677236557 -0.08975145221 1.991448586e-38
-0.2911106348 -0.4784548879 -0.1370862424 1.991448586e-38
-0.1325703561 -0.47754848 -0.2133933008 1.991448586e-38
0.3205707967 -0.2633127868 -0.04539752379 1.991448586e-38
-0.2996930778 -0.4404237866 -0.2229529321 1.991448586e-38
0.1122796759 -0.4340503812 0.09376569837 1.991448586e-38
0.3233620524 -0.3017201722 -0.09197625518 2.009743799e-38
0.3224062622 -0.312587142 -0.1447519213 2.009743799e-38
-0.1021350622 -0.4755914211 -0.08281707019 2.009743799e-38
0.2978233993 -0.1104358435 -0.1239735335 2.009743799e-38
0.1982298195 -0.3313577473 -0.1881814599 2.009743799e-38
0.2939437926 -0.0890782252 -0.150867641 2.009743799e-38
0.003774853423 -0.4981194735 -0.006492912769 2.009743799e-38
-0.1267792135 -0.4771721363 -0.08094783872 2.009743799e-38
0.333214283 -0.3149822652 -0.1891464889 2.028074885e-38
-0.2421219051 -0.109575808 -0.2131117433 2.028074885e-38
0.3094546795 -0.1081468165 -0.136289537 2.028074885e-38
0.3348608315 -0.3056139648 -0.1249894202 2.028074885e-38
0.2010604292 -0.4792909026 -0.0007496327162 2.028074885e-38
0.292004019 -0.07839940488 -0.1643146724 2.028074885e-38
-0.1592782289 -0.2616864443 -0.1826687455 2.028074885e-38
0.3232295513 -0.3079029918 -0.1126734018 2.028074885e-38
-0.07693267614 -0.4816921949 -0.09400206059 2.046369957e-38
0.07797228545 -0.4810116887 0.0292936936 2.046369957e-38
0.2598401308 -0.3274059296 -0.1928545237 2.046369957e-38
-0.1591542661 -0.4684503675 -0.2249711156 2.046369957e-38
-0.2199758142 -0.08963479102 -0.219112277 2.046369957e-38
0.01680514961 -0.1888156533 -0.1322799921 2.046369957e-38
0.2925548255 -0.01971900463 -0.2666286826 2.046369957e-38
0.09582045674 -0.4922106266 0.1194102094 2.046369957e-38
-0.1760674715 -0.4803336263 -0.07720938325 2.06466517e-38
-0.1756836325 -0.04975275695 -0.2311133444 2.06466517e-38
-0.4612529278 -0.2347544134 -0.1705662459 2.06466517e-38
0.3214504719 -0.3234541118 -0.1975276023 2.06466517e-38
-0.09063959867 -0.2034222484 -0.06696148217 2.06466517e-38
-0.08460122347 0.01165099442 -0.2509841621 2.06466517e-38
-0.1583310068 -0.4637662172 -0.1928925663 2.06466517e-38
-0.2642680109 -0.1295168102 -0.2071112096 2.06466517e-38
0.3230688274 -0.2816731036 -0.04126621783 2.082996116e-38
-0.2260465026 -0.481996417 -0.08485233039 2.082996116e-38
0.33164379 -0.2533423007 -0.04839778692 2.082996116e-38
-0.1158386543 -0.4733844399 -0.1046452522 2.082996116e-38
-0.419290632 -0.2691038847 -0.1651074886 2.082996116e-38
-0.185047403 -0.4608509541 -0.2251675129 2.082996116e-38
0.1316701621 -0.4744765759 0.1352379024 2.082996116e-38
0.3197118342 -0.1692223251 -0.0783700645 2.082996116e-38
-0.4625019431 -0.225574255 -0.1726319045 2.101291328e-38
0.3229645193 -0.320268631 -0.1540676951 2.101291328e-38
0.3597485423 -0.7339878082 -0.007160693407 2.101291328e-38
0.234457776 -0.1655971557 -0.2173914611 2.101291328e-38
-0.4489308596 -0.2339640558 -0.1715008616 2.101291328e-38
0.3237878084 -0.3155844808 -0.1219891459 2.101291328e-38
-0.1713438332 -0.4630579352 -0.2033393681 2.101291328e-38
0.07935380936 -0.4840090275 0.05205646902 2.101291328e-38
-0.07831754535 -0.2026318908 -0.0678960979 2.119586541e-38
0.1853888482 -0.4339923859 0.05607943982 2.119586541e-38
-0.2390593141 -0.4812880754 -0.09529910982 2.119586541e-38
-0.09692331403 0.01086062938 -0.2500495613 2.119586541e-38
0.3295804262 -0.1517809331 -0.2817753553 2.119586541e-38
0.127951324 -0.4793488979 0.03693661839 2.119586541e-38
0.1402733773 -0.4785585403 0.03600200266 2.119586541e-38
-0.1281607449 -0.4741747975 -0.1037106365 2.119586541e-38
-0.1716002822 -0.2624768019 -0.1817341447 2.137881613e-38
0.306265831 -0.08828786016 -0.1518022567 2.137881613e-38
0.3244785666 -0.3170831501 -0.1106077433 2.137881613e-38
-0.2814179957 -0.1861783862 -0.1928480864 2.137881613e-38
-0.2267372608 -0.4804977179 -0.0962337181 2.137881613e-38
0.3344632983 -0.3241624236 -0.1870808303 2.137881613e-38
0.3119601309 -0.1928689778 -0.03915996104 2.137881613e-38
0.3216516376 -0.1799011379 -0.06492300332 2.137881613e-38
-0.2542758584 -0.202957958 -0.1905860007 2.156176826e-38
-0.4107156396 -0.2407730818 -0.1722390652 2.156176826e-38
0.310377419 -0.3334246278 -0.1945273429 2.156176826e-38
-0.1973694861 -0.4616413116 -0.2242329121 2.156176826e-38
-0.1769326478 -0.04057262093 -0.233179003 2.156176826e-38
-0.01808875054 -0.1956827343 -0.09533199668 2.156176826e-38
0.3120852113 -0.1203242838 -0.1114611179 2.156176826e-38
-0.1658596098 -0.03060212731 -0.2361792624 2.156176826e-38
-0.1572144926 -0.4791291952 -0.2115240693 2.174471899e-38
0.1225368604 -0.4951259494 0.1516851783 2.174471899e-38
-0.2258846462 -0.2289176583 -0.1862582862 2.174471899e-38
0.3207032681 -0.257129997 -0.02470040135 2.174471899e-38
0.2913058102 -0.01053886861 -0.2686943412 2.174471899e-38
-0.3946464956 -0.2675231695 -0.1669767201 2.174471899e-38
0.3251693249 -0.3185818195 -0.09922635555 2.174471899e-38
-0.3848224878 -0.2483724952 -0.1720426381 2.174471899e-38
-0.4180416167 -0.2782840431 -0.163041845 2.192767111e-38
0.325008601 -0.2923518717 -0.02781918645 2.192767111e-38
0.09236662835 -0.4847173095 0.062503241 2.192767111e-38
-0.2274280339 -0.4789990783 -0.1076151058 2.192767111e-38
-0.2931829393 -0.4739588499 -0.1712304205 2.192767111e-38
-0.04135135561 -0.2002608031 -0.07069994509 2.192767111e-38
0.3370656073 -0.3039271533 -0.07014809549 2.192767111e-38
0.3254343271 -0.3062161803 -0.05783206597 2.192767111e-38
-0.3983935416 -0.2399827242 -0.1731736809 2.211062324e-38
-0.3208822906 -0.1701892018 -0.1941755414 2.211062324e-38
0.1286420822 -0.4808475375 0.0483180061 2.211062324e-38
0.3233902752 -0.3341329396 -0.1840805709 2.211062324e-38
0.3191536069 -0.1615408659 -0.06905429065 2.211062324e-38
0.3107111156 -0.1836888194 -0.04122561589 2.211062324e-38
-0.005075898953 -0.196391046 -0.08488517255 2.211062324e-38
-0.2394557148 -0.2205278873 -0.1873893142 2.211062324e-38
-0.5017980337 -0.302176863 -0.1523682326 2.229357396e-38
0.3287200034 -0.2211177051 -0.02251620963 2.229357396e-38
0.3219523132 -0.2663101256 -0.02263475209 2.229357396e-38
0.1557560116 -0.4652144313 0.1426844001 2.229357396e-38
-0.0886964947 -0.4901640415 -0.1023831815 2.229357396e-38
-0.2778390944 -0.1211270243 -0.2082422525 2.229357396e-38
0.3302712142 -0.1532796025 -0.2703939378 2.229357396e-38
-0.3725004196 -0.2475821376 -0.1729772538 2.229357396e-38
-0.3048131168 -0.1969392598 -0.1889132112 2.247652609e-38
-0.2446199507 -0.09121551365 -0.2172430456 2.247652609e-38
-0.3823244572 -0.2667327821 -0.1679113358 2.247652609e-38
-0.3319552839 -0.1801597178 -0.1911752671 2.247652609e-38
-0.004385133274 -0.1978897154 -0.07350378484 2.247652609e-38
0.2823050916 -0.0250053592 -0.2315499187 2.247652609e-38
0.3255668581 -0.3000333905 -0.03713491559 2.247652609e-38
-0.3996425867 -0.2308025956 -0.1752393246 2.247652609e-38
-0.3123072386 -0.1418583989 -0.201307103 2.265947681e-38
0.3240810335 -0.335631609 -0.1726991832 2.265947681e-38
0.3249042928 -0.3309474289 -0.1406206191 2.265947681e-38
0.336535573 -0.328658402 -0.1529366523 2.265947681e-38
0.3357123137 -0.333342582 -0.1850151867 2.265947681e-38
0.1864842325 0.0290389508 -0.2715456784 2.265947681e-38
0.03119949624 -0.192521289 -0.09907045215 2.265947681e-38
0.19965069 -0.4438807964 0.06859191507 2.265947681e-38
-0.4539269209 -0.1972434521 -0.179763481 2.284242894e-38
-0.2027838975 -0.4774183631 -0.1094843298 2.284242894e-38
-0.2632777095 -0.496733129 -0.1234427541 2.284242894e-38
0.3244503438 -0.2846704125 -0.01850344986 2.284242894e-38
-0.1692715287 -0.4675539136 -0.1691951603 2.284242894e-38
-0.1825493574 -0.4792112708 -0.2210362256 2.284242894e-38
-0.2224738598 -0.07127449661 -0.2232435793 2.284242894e-38
-0.2945644557 -0.4709615707 -0.1939932108 2.284242894e-38
0.05515290424 -0.1894419044 -0.1123210713 2.302537966e-38
0.2919965982 -0.01203753054 -0.2573129535 2.302537966e-38
0.2993043959 -0.3433951139 -0.1915270835 2.302537966e-38
-0.2220136225 -0.4632220268 -0.2223636806 2.302537966e-38
-0.3466072679 -0.2551815808 -0.1727808267 2.302537966e-38
-0.5057132244 -0.1820446253 -0.1801563203 2.302537966e-38
-0.1215674281 0.00927990675 -0.2481803298 2.302537966e-38
-0.3417793214 -0.1993103325 -0.186109364 2.302537966e-38
-0.355350405 -0.1909205616 -0.187240392 2.320833179e-38
-0.3246293366 -0.1426487565 -0.2003724873 2.320833179e-38
0.3372263312 -0.3301570714 -0.1415552348 2.320833179e-38
0.1053794548 -0.4854256511 0.07294999808 2.320833179e-38
0.3127759695 -0.1218229532 -0.1000797004 2.320833179e-38
0.3239485025 -0.3418143988 -0.1933963001 2.320833179e-38
-0.25414446 -0.4760838151 -0.1398900896 2.320833179e-38
0.3383146524 -0.3131072819 -0.06808243692 2.320833179e-38
-0.3812435567 -0.1833211482 -0.1874368042 2.339092378e-38
-0.2357086539 -0.2480683327 -0.1811923683 2.339092378e-38
-0.3135562539 -0.1326782703 -0.2033727616 2.339092378e-38
-0.4058876634 -0.1849018931 -0.1855675876 2.339092378e-38
-0.2901611328 -0.1219173819 -0.2073076367 2.339092378e-38
0.3378888965 -0.2992430329 -0.0380695276 2.339092378e-38
-0.3614273667 -0.2376116514 -0.1759775281 2.339092378e-38
0.06747495383 -0.1886515468 -0.1132556796 2.339092378e-38
0.3070086241 -0.1578576565 -0.2457619309 2.348204041e-38
-0.2098155022 -0.2556677163 -0.1809959561 2.348204041e-38
-0.3810754418 -0.2759129405 -0.1658456773 2.348204041e-38
0.3147157431 -0.1325017512 -0.08663266897 2.348204041e-38
0.1988062859 0.02982931584 -0.272480309 2.348204041e-38
-0.3503543437 -0.2276411653 -0.1789777875 2.348204041e-38
0.3370938301 -0.336339891 -0.1622523814 2.348204041e-38
0.1518764347 -0.4438567758 0.1157902703 2.348204041e-38
0.2895059884 -0.06003913283 -0.1684459746 2.348132155e-38
0.3262858391 -0.3339447677 -0.1178578436 2.348132155e-38
-0.3787455261 -0.2016814351 -0.1833055168 2.348132155e-38
0.3342743516 -0.265519768 -0.02356936596 2.348132155e-38
0.1639792174 -0.1778326482 -0.1548767835 2.348132155e-38
-0.2343356758 -0.464012444 -0.22142905 2.348132155e-38
-0.3108901083 -0.2436303496 -0.1776503325 2.348132155e-38
-0.4441029429 -0.1780928075 -0.1848293841 2.348132155e-38
-0.3219631314 -0.2536008656 -0.1746500582 2.348060128e-38
-0.2862459719 -0.2420496047 -0.1795195639 2.348060128e-38
-0.3269592226 -0.2168802619 -0.1829126626 2.348060128e-38
0.3262219429 -0.2027574182 -0.02664751373 2.348060128e-38
-0.248030737 -0.2488586903 -0.1802577525 2.348060128e-38
0.2036909759 -0.49146837 0.02407884598 2.348060128e-38
0.3388729095 -0.3207887709 -0.07739818096 2.348060128e-38
0.07979701459 -0.1878611743 -0.1141902953 2.348060128e-38
-0.5069622993 -0.1728644967 -0.182221964 2.347952368e-38
0.3177795112 -0.2249054015 0.001181201078 2.347952368e-38
0.2875662148 -0.04936031252 -0.1818930358 2.347952368e-38
-0.2751728892 -0.2320791185 -0.1825198233 2.347952368e-38
0.336961329 -0.3425227106 -0.1829495281 2.347952368e-38
0.3355233669 -0.2746998966 -0.02150371671 2.347952368e-38
-0.3603464961 -0.1541999876 -0.1955029964 2.347952368e-38
-0.3492734432 -0.1442294866 -0.1985032558 2.347952368e-38
-0.254835248 -0.4745851159 -0.1512714624 2.347880341e-38
0.3390054107 -0.3146059513 -0.05670103058 2.347880341e-38
