# .PCD v0.7 - Point Cloud Data file format
VERSION 0.7
FIELDS x y z rgb
SIZE 4 4 4 4
TYPE F F F F
COUNT 1 1 1 1
WIDTH 834
HEIGHT 1
VIEWPOINT 0 0 0 1 0 0 0
POINTS 834
DATA ascii
0.158178851 -0.2258712947 -0.2047267258 3.080777095e-39
-0.1926469654 -0.2926948667 0.03410938382 3.080777095e-39
-0.2158635855 -0.3536666334 -0.05977902189 3.080777095e-39
-0.1245820969 -0.2200008184 -0.1521322578 2.898180898e-39
-0.06050186977 -0.732427597 -0.1927256584 2.898180898e-39
-0.2197711915 -0.3359118104 0.1455783844 2.898180898e-39
-0.1977076977 -0.3821978569 0.2326689363 2.898180898e-39
-0.04490288347 -0.3521395028 -0.1368507296 2.898180898e-39
0.3221308291 -0.24320364 -0.2104969919 2.898180898e-39
-0.2263351232 -0.3086659312 0.07311622053 2.898180898e-39
-0.1960981488 -0.4114512801 0.184104234 2.898180898e-39
0.2469411939 -0.238730669 -0.2070315033 2.715227371e-39
0.1196060479 -0.7102949619 -0.2862762511 2.715227371e-39
-0.1181656271 -0.3583202958 -0.1199175715 2.715227371e-39
-0.01391850784 -0.7233583927 -0.2419534326 2.715227371e-39
-0.2151860297 -0.3551512361 -0.04839729518 2.715227371e-39
-0.1369054615 -0.2207835019 -0.1512070149 2.715227371e-39
0.3192302287 -0.3096547723 -0.1835883111 2.715227371e-39
-0.1866336167 -0.3722460568 0.2296577245 2.715227371e-39
-0.1964583695 -0.3913669884 0.2347549051 2.532632576e-39
0.2087217122 -0.2319096327 -0.2063417286 2.532632576e-39
0.3006595373 -0.2392348647 -0.1731606722 2.532632576e-39
0.2352953851 -0.2409979701 -0.1947245598 2.532632576e-39
-0.1866547912 -0.3122562766 0.1158673465 2.532632576e-39
-0.1833728254 -0.3258792162 0.1520984024 2.532632576e-39
-0.1828856468 -0.3997533917 0.2359156162 2.532632576e-39
-0.1490487903 -0.4162664711 0.1049032658 2.532632576e-39
-0.2223756015 -0.3237734735 0.1207290292 2.349677647e-39
0.06069932505 -0.7201468349 -0.2361232042 2.349677647e-39
-0.2077439576 -0.4137185812 0.1964112371 2.349677647e-39
-0.2256575823 -0.3101505041 0.08449791372 2.349677647e-39
-0.2190936357 -0.3373964429 0.156960085 2.349677647e-39
0.01072823256 -0.7217929959 -0.2438039184 2.349677647e-39
0.2624400258 -0.2324138135 -0.1724709123 2.349677647e-39
-0.2119579464 -0.3723268211 0.2201265097 2.349677647e-39
-0.1952090561 -0.4005360901 0.2368408591 2.167082852e-39
0.2970820963 -0.3295583725 -0.1775659025 2.167082852e-39
-0.1947430521 -0.4144204855 0.2068676949 2.167082852e-39
-0.2028107643 -0.3517212868 0.2036476582 2.167082852e-39
0.0353750065 -0.7202275991 -0.2456544042 2.167082852e-39
-0.03585508838 -0.7308622003 -0.1945761442 2.167082852e-39
-0.2268959582 -0.2587447762 -0.03719776496 2.167082852e-39
-0.05711412802 -0.7398506403 -0.1358171105 2.167082852e-39
-0.19569619 -0.3266619146 0.1530236453 1.984127923e-39
-0.1339735091 -0.3165485561 0.1690749079 1.984127923e-39
-0.1708796024 -0.4175703824 0.1729580313 1.984127923e-39
-0.2275734991 -0.2572601438 -0.04857949167 1.984127923e-39
-0.2138848007 -0.3616730869 0.2066588551 1.984127923e-39
0.02305163443 -0.7210103273 -0.2447291613 1.984127923e-39
0.3129829168 -0.2384521663 -0.1740859151 1.984127923e-39
-0.14392519 -0.2818796039 0.03970417753 1.984127923e-39
-0.1599753797 -0.3151447177 0.1481619477 1.801533128e-39
-0.1018621996 -0.2077817023 -0.1674503982 1.801533128e-39
-0.1446661949 -0.4065744281 0.2352258563 1.801533128e-39
-0.1341271698 -0.51504457 0.08233551681 1.801533128e-39
-0.03246735036 -0.7382852435 -0.1376675963 1.801533128e-39
0.3094055355 -0.3287756741 -0.1784911454 1.801533128e-39
-0.1692495048 -0.2819603682 0.03017293662 1.801533128e-39
-0.02420926467 -0.7285948992 -0.2068830729 1.801533128e-39
-0.02353171632 -0.7300795317 -0.1955013722 1.618578199e-39
-0.05575903133 -0.7428199053 -0.1130536869 1.618578199e-39
-0.1462969035 -0.3173312545 0.1700001508 1.618578199e-39
-0.08619791269 -0.09084357321 0.2844690084 1.618578199e-39
-0.04422533885 -0.3536241353 -0.1254690289 1.618578199e-39
-0.217738539 -0.3403656483 0.179723531 1.618578199e-39
0.2217226326 -0.2326115668 -0.1958852708 1.618578199e-39
-0.04208056256 -0.7450063825 -0.09121552855 1.618578199e-39
0.01739157923 -0.3497106731 -0.1300952435 1.435982003e-39
-0.02975716069 -0.7442237139 -0.0921407789 1.435982003e-39
-0.1187700927 -0.4141781926 0.2354613394 1.435982003e-39
0.003147695214 -0.7329679728 -0.1632067412 1.435982003e-39
-0.1388323456 -0.2101297826 -0.1646746695 1.435982003e-39
0.04079538584 -0.7321044803 -0.1546007395 1.435982003e-39
-0.2153975815 -0.3675510287 -0.08975221217 1.435982003e-39
-0.1723404676 -0.4208010733 0.129517138 1.435982003e-39
-0.05372638628 -0.7472736835 -0.07890854031 1.253028475e-39
0.3253062963 -0.2376694828 -0.175011158 1.253028475e-39
-0.07849043608 -0.1334585249 0.3383396864 1.253028475e-39
-0.04140301049 -0.746491015 -0.07983377576 1.253028475e-39
0.3142322302 -0.2476212829 -0.1719999611 1.253028475e-39
0.2845888734 -0.2378672063 -0.1984255314 1.253028475e-39
-0.2076701522 -0.3265980482 0.2101619989 1.253028475e-39
-0.1932187229 -0.2850103974 0.04340514913 1.253028475e-39
-0.2112803906 -0.3738114238 0.2315082103 1.070432279e-39
0.04350557923 -0.7380429506 -0.109073922 1.070432279e-39
-0.01743378863 -0.7434409857 -0.09306601435 1.070432279e-39
-0.136577934 -0.3044102192 0.144225508 1.070432279e-39
-0.01684783213 -0.1931337416 -0.1760130674 1.070432279e-39
0.04486067593 -0.741012156 -0.08631047606 1.070432279e-39
0.0558289811 -0.7372602224 -0.1099991649 1.070432279e-39
-0.1846221536 -0.3167101145 0.1500124335 1.070432279e-39
-0.1011846513 -0.209266305 -0.1560686976 8.874787512e-40
-0.2238467187 -0.2247777581 -0.1561120152 8.874787512e-40
-0.1985223889 -0.224696964 -0.1465808004 8.874787512e-40
-0.05237128958 -0.7502429485 -0.05614514649 8.874787512e-40
0.2490379512 -0.3418582976 -0.171778962 8.874787512e-40
-0.1621554941 -0.4217644334 0.07376934588 8.874787512e-40
-0.2170609981 -0.3418502808 0.1911052316 8.874787512e-40
-0.2146142721 -0.3628357351 -0.05769306049 8.874787512e-40
0.2969122827 -0.2370845079 -0.1993507743 7.045238224e-40
-0.1939597279 -0.4097051919 0.2389268279 7.045238224e-40
0.2456918806 -0.2295615673 -0.2091174573 7.045238224e-40
-0.004432836547 -0.7441429496 -0.08260950446 7.045238224e-40
0.09766949713 -0.7177987099 -0.2388989329 7.045238224e-40
-0.005110386759 -0.7426583171 -0.09399125725 7.045238224e-40
0.03944028914 -0.7291352749 -0.1773641706 7.045238224e-40
0.2414847761 -0.6994987726 -0.3182920814 7.045238224e-40
-0.1498321146 -0.4209817648 0.07284410298 5.219290273e-40
0.2613613009 -0.341075629 -0.1727042049 5.219290273e-40
0.3463756144 -0.3264276087 -0.1812668741 5.219290273e-40
0.02971495129 -0.3489279747 -0.1310204715 5.219290273e-40
-0.2066645026 -0.3304138184 0.1767123342 5.219290273e-40
-0.1593395323 -0.4215030074 0.1399736553 5.219290273e-40
0.309235692 -0.2363018095 -0.2002760172 5.219290273e-40
0.0120833274 -0.7247622013 -0.221040532 5.219290273e-40
0.01411597244 -0.7292160988 -0.1868953854 3.389740985e-40
0.05040859804 -0.7253834009 -0.2010528296 3.389740985e-40
-0.1375087351 -0.4201990664 0.07191886008 3.389740985e-40
0.03876274452 -0.7276506424 -0.1887458712 3.389740985e-40
-0.2099464834 -0.3167908788 0.1404812187 3.389740985e-40
-0.1423373818 -0.3324387968 0.2176129073 3.389740985e-40
-0.084842816 -0.09381279349 0.3072324097 3.389740985e-40
0.05709245056 -0.1884375811 -0.1815645099 3.389740985e-40
0.2736846805 -0.3402929306 -0.1736294478 1.56020571e-40
-0.1435226351 -0.4219434559 0.2166343778 1.56020571e-40
-0.2147200406 -0.3690356314 -0.07837051153 1.56020571e-40
0.006549583748 -0.1823992282 -0.1799495071 1.56020571e-40
0.293333441 -0.2766939998 -0.1638915837 1.56020571e-40
-0.2031799853 -0.3729682565 -0.1113549098 1.56020571e-40
0.2994101942 -0.2300657332 -0.175246641 1.56020571e-40
-0.1319408715 -0.3210023642 0.2032200098 1.56020571e-40
-0.1521832943 -0.2915699482 0.108919695 6.490113838e-41
-0.0946675539 -0.1129337251 0.3123295605 6.490113838e-41
-0.1251853406 -0.419416368 0.07099361718 6.490113838e-41
-0.0414946042 -0.1946991235 -0.1741625816 6.490113838e-41
-0.2111207396 -0.3640589118 0.01989294589 6.490113838e-41
-0.1415630728 -0.3690547943 -0.1159811243 6.490113838e-41
-0.158773914 -0.5166100264 0.08418600261 6.490113838e-41
-0.1345452815 -0.3088640571 0.1783706397 6.490113838e-41
0.28600806 -0.3395102322 -0.1745546907 2.496469266e-40
0.338201493 -0.2445712984 -0.1852321476 2.496469266e-40
-0.1702661365 -0.320381254 0.1832323372 2.496469266e-40
0.07708798349 -0.728271842 -0.1687581986 2.496469266e-40
0.3338823915 -0.2347364426 -0.202126503 2.496469266e-40
-0.08166663349 -0.1136356592 0.3227860034 2.496469266e-40
0.3499530852 -0.236104086 -0.1768616438 2.496469266e-40
0.3223006725 -0.3356775343 -0.1887121201 2.496469266e-40
-0.07846474648 -0.1970472038 -0.1713868529 4.340353837e-40
-0.1821446717 -0.2750585675 0.04039394483 4.340353837e-40
-0.1031115204 -0.1986125857 -0.1695363671 4.340353837e-40
0.3117335737 -0.2292830497 -0.1761718839 4.340353837e-40
-0.2053094059 -0.3333830237 0.1994757205 4.340353837e-40
0.1812229604 -0.7063814402 -0.2909024656 4.340353837e-40
0.157253772 -0.7094314694 -0.2776702642 4.340353837e-40
-0.1154348925 -0.1993952841 -0.1686111242 4.340353837e-40
-0.2063150555 -0.3295672834 0.2329253852 6.184224396e-40
-0.2183103263 -0.3326811194 0.1890192628 6.184224396e-40
-0.1565876454 -0.3225677609 0.2050704956 6.184224396e-40
-0.1695885807 -0.3218658566 0.1946140379 6.184224396e-40
0.2592638731 -0.2125909626 -0.1880245358 6.184224396e-40
-0.1728705615 -0.3082428873 0.1583829224 6.184224396e-40
-0.07994616032 -0.3651413321 -0.1206073314 6.184224396e-40
-0.005096238106 -0.1846665144 -0.1676425636 6.184224396e-40
0.2421623319 -0.7009834051 -0.3069103956 8.028094954e-40
0.1456078738 -0.7116987705 -0.2653633058 8.028094954e-40
0.2851599753 -0.2201947123 -0.1877890676 8.028094954e-40
-0.1935995072 -0.4297895432 0.1882761717 8.028094954e-40
0.3523952365 -0.6924545765 -0.3266192675 8.028094954e-40
-0.06546382606 -0.1977491081 -0.1609303951 8.028094954e-40
0.01955056377 -0.1831011474 -0.1694930494 8.028094954e-40
-0.2059228718 -0.4305722117 0.1892014146 8.028094954e-40
-0.08609214425 -0.08464369178 0.3051464558 9.871979525e-40
-0.0313301608 -0.3605259359 -0.1356900036 9.871979525e-40
-0.1594247669 -0.2628394365 0.02507576905 9.871979525e-40
0.3240569532 -0.2285003513 -0.1770971268 9.871979525e-40
-0.05612156168 -0.519256115 0.1450743079 9.871979525e-40
-0.2288337648 -0.2903276682 0.06894429773 9.871979525e-40
-0.0944468081 -0.518634975 0.1250866354 9.871979525e-40
0.2914558947 -0.6978526115 -0.3106113672 9.871979525e-40
0.1106704175 -0.7185007334 -0.2284424752 1.171585008e-39
-0.183393985 -0.2658894658 0.0383079797 1.171585008e-39
0.3161026239 -0.6962872744 -0.3124618232 1.171585008e-39
-0.1404316723 -0.2831027508 0.1172901839 1.171585008e-39
-0.1770518124 -0.2033087462 -0.1639849097 1.171585008e-39
-0.2300721407 -0.2389219254 -0.05275141448 1.171585008e-39
0.3512023985 -0.2452732027 -0.1747756898 1.171585008e-39
-0.2327823341 -0.2329834849 -0.09827823192 1.171585008e-39
0.2715873122 -0.2118082792 -0.1889497936 1.355972064e-39
-0.1270807385 -0.2016625702 -0.1563041806 1.355972064e-39
0.2185464352 -0.2127887011 -0.2114388943 1.355972064e-39
0.0894113481 -0.7274891138 -0.1696834415 1.355972064e-39
0.2858375013 -0.221679315 -0.176407367 1.355972064e-39
0.0900889039 -0.7289737463 -0.1583017111 1.355972064e-39
-0.2151553184 -0.292514205 0.09078244865 1.355972064e-39
-0.1729974747 -0.2544530332 0.02391505055 1.355972064e-39
-0.1024596691 -0.1365084946 0.3515718877 1.540360521e-39
-0.2202371955 -0.3220273852 0.1755516082 1.540360521e-39
0.005300262943 -0.1732301116 -0.182035476 1.540360521e-39
-0.1853208691 -0.2552357316 0.02484029345 1.540360521e-39
-0.2045677751 -0.4335414171 0.2119648606 1.540360521e-39
0.0907664448 -0.7304583192 -0.1469200253 1.540360521e-39
0.1702546775 -0.7101334333 -0.2672137916 1.540360521e-39
0.2451201081 -0.2218770683 -0.1998217255 1.540360521e-39
-0.1456405073 -0.258826077 0.06759141386 1.724747577e-39
-0.2314381897 -0.2781893611 0.04409491271 1.724747577e-39
-0.04274392873 -0.185529992 -0.1762485355 1.724747577e-39
-0.2026082277 -0.3806527257 -0.1206506491 1.724747577e-39
0.3401283324 -0.2552250028 -0.171764493 1.724747577e-39
0.348026216 -0.2254503667 -0.1903293133 1.724747577e-39
-0.188697651 -0.2055760324 -0.1516779661 1.724747577e-39
-0.1579639018 -0.2596087754 0.06851665676 1.724747577e-39
0.2722648382 -0.2132928818 -0.1775680929 1.909134633e-39
0.3185519874 -0.2828131616 -0.1750378013 1.909134633e-39
-0.0834877193 -0.09678201377 0.3299958408 1.909134633e-39
0.3476249278 -0.33559677 -0.1791809052 1.909134633e-39
-0.08223840594 -0.1059511602 0.3320818245 1.909134633e-39
-0.06844496727 -0.5200387836 0.1459995508 1.909134633e-39
-0.152077511 -0.2853700817 0.1295971274 1.909134633e-39
0.3635257781 -0.2444905192 -0.1757009327 1.909134633e-39
-0.0550673008 -0.1863126904 -0.1753232926 2.09352309e-39
0.2626106143 -0.3502447307 -0.170618251 2.09352309e-39
-0.1728917062 -0.248253122 0.04459250718 2.09352309e-39
-0.1162714437 -0.4325164258 0.2396332622 2.09352309e-39
0.2839106619 -0.2110255808 -0.1898750216 2.09352309e-39
-0.07971407473 -0.1878780723 -0.1734728217 2.09352309e-39
0.2981608808 -0.2208966166 -0.1773326099 2.09352309e-39
0.2065472454 -0.7063007355 -0.2813712358 2.09352309e-39
-0.158090204 -0.4306721091 0.1420596093 2.277910146e-39
-0.03065261617 -0.3620105684 -0.124308303 2.277910146e-39
-0.2108772546 -0.432579726 0.0681745559 2.277910146e-39
-0.1827369481 -0.4322375059 0.1439100951 2.277910146e-39
-0.1442854106 -0.2617953122 0.09035480022 2.277910146e-39
-0.006345560774 -0.1754974127 -0.1697285324 2.277910146e-39
-0.1697422266 -0.5203619003 0.1078746319 2.277910146e-39
0.348703742 -0.2269349694 -0.1789476126 2.277910146e-39
-0.2101996988 -0.4340643287 0.07955627888 2.462297202e-39
-0.006005845964 -0.3604451716 -0.1261587888 2.462297202e-39
0.2820902169 -0.2195289731 -0.2025974542 2.462297202e-39
-0.15921323 -0.2504396439 0.0664306879 2.462297202e-39
-0.2347092032 -0.2223297507 -0.1117459163 2.462297202e-39
0.1003796905 -0.7237372398 -0.1933720857 2.462297202e-39
-0.1508493423 -0.2345494032 0.01789263636 2.462297202e-39
0.02994706668 -0.1716647297 -0.1838859618 2.462297202e-39
-0.1436078548 -0.2632799149 0.1017365605 2.646685659e-39
-0.2319990098 -0.2282681912 -0.06621907651 2.646685659e-39
-0.2112169415 -0.247631982 0.0246048104 2.646685659e-39
-0.1403259039 -0.2769028544 0.1379676163 2.646685659e-39
0.181004554 -0.2074522972 -0.1993674338 2.646685659e-39
0.3183828592 -0.215696305 -0.2167548835 2.646685659e-39
-0.2196865976 -0.2697221339 0.05246540532 2.646685659e-39
-0.1739071161 -0.4302316606 0.0653988272 2.646685659e-39
-0.2292888165 -0.2342066318 -0.02069222927 2.830713982e-39
0.2188706845 -0.7055180073 -0.2822964787 2.830713982e-39
0.05652067065 -0.1807530522 -0.1722687781 2.830713982e-39
-0.1448360384 -0.3141005635 0.2134409845 2.830713982e-39
-0.2333541065 -0.2252989709 -0.08898249269 2.830713982e-39
-0.1701603681 -0.3141813278 0.2039097697 2.830713982e-39
-0.2142540365 -0.3829200566 -0.1083437055 2.830713982e-39
-0.05438975245 -0.187797308 -0.163941592 2.830713982e-39
0.3985691071 -0.2314887196 -0.191944316 3.015101038e-39
0.1024123281 -0.7281910181 -0.159226954 3.015101038e-39
-0.2079349607 -0.2612549663 0.060835924 3.015101038e-39
-0.1878195107 -0.2368974835 0.02066837065 3.015101038e-39
0.1592864096 -0.7138853073 -0.2435251474 3.015101038e-39
-0.08076833934 -0.5208214521 0.1469247937 3.015101038e-39
-0.1774018407 -0.285450846 0.1200659126 3.015101038e-39
-0.1928802282 -0.3264004588 0.21922791 3.015101038e-39
0.2962340415 -0.2102428973 -0.1908002645 3.199488094e-39
-0.1492603421 -0.4286662638 0.06354834139 3.199488094e-39
-0.1609061807 -0.4309335649 0.07585530728 3.199488094e-39
0.3104842603 -0.2201139331 -0.1782578528 3.199488094e-39
-0.1571594179 -0.3148832321 0.2143662274 3.199488094e-39
-0.1279903501 -0.3774411976 -0.1148204058 3.199488094e-39
-0.2031388581 -0.3493901193 0.2484790236 3.199488094e-39
-0.008272429928 -0.1648436934 -0.183196187 3.199488094e-39
0.1120255142 -0.7214698792 -0.2056790441 3.383517819e-39
-0.1369369626 -0.4278835654 0.06262309849 3.383517819e-39
0.3221301138 -0.217846632 -0.1905647814 3.383517819e-39
-0.1485827863 -0.4301508665 0.07493006438 3.383517819e-39
-0.1406534463 -0.1932761371 -0.1574649066 3.383517819e-39
-0.03099230304 -0.1770628095 -0.1678780466 3.383517819e-39
-0.1314169765 -0.5209830403 0.1278623641 3.383517819e-39
-0.1708590686 -0.2527069449 0.07873763144 3.383517819e-39
-0.2060286403 -0.4367721081 0.1685239822 3.567904875e-39
-0.1968609244 -0.2513031363 0.0578247197 3.567904875e-39
-0.1994441599 -0.2991545796 0.1467657536 3.567904875e-39
-0.2332592905 -0.2613357306 0.05130468309 3.567904875e-39
-0.1767242998 -0.2869354486 0.1314476132 3.567904875e-39
-0.2152712792 -0.196487695 -0.1632951498 3.567904875e-39
-0.06776741892 -0.5215233564 0.1573812366 3.567904875e-39
-0.1897252202 -0.2862335443 0.1209911555 3.567904875e-39
-0.2351861596 -0.2506819963 0.03783702105 3.75229193e-39
-0.1793286949 -0.2747971117 0.1065982431 3.75229193e-39
0.3358733654 -0.3440639377 -0.187551409 3.75229193e-39
-0.08156085014 -0.1074357629 0.3434635103 3.75229193e-39
-0.2182045579 -0.3264812231 0.2096966952 3.75229193e-39
-0.2052036375 -0.3271831572 0.2201531529 3.75229193e-39
-0.1690646708 -0.5218465328 0.119256407 3.75229193e-39
-0.212445125 -0.2984526455 0.1363092959 3.75229193e-39
0.2056512982 -0.2058869004 -0.2012179196 3.936320254e-39
-0.09102021158 -0.3750931323 -0.1175961345 3.936320254e-39
0.3313837349 -0.2163982093 -0.2062984258 3.936320254e-39
-0.1571805775 -0.2548934817 0.1005758345 3.936320254e-39
-0.1760678887 -0.228430301 0.02903888747 3.936320254e-39
-0.2013177574 -0.3662437797 0.2412692457 3.936320254e-39
-0.1042715535 -0.5377559066 0.130183816 3.936320254e-39
-0.1807043105 -0.436691314 0.178055197 3.936320254e-39
-0.02059580013 -0.1656263918 -0.1822709441 4.120708711e-39
-0.1560575664 -0.4351259172 0.1762047112 4.120708711e-39
-0.1916520745 -0.2755798101 0.107523486 4.120708711e-39
-0.189068839 -0.2277283669 0.01858240925 4.120708711e-39
-0.2065798789 -0.2642241716 0.08359931409 4.120708711e-39
-0.0930917114 -0.5216041803 0.1478500366 4.120708711e-39
-0.0563166216 -0.1771435738 -0.1774092615 4.120708711e-39
-0.1948071122 -0.3157467246 0.2057602555 4.120708711e-39
0.1839331537 -0.7123199105 -0.2453756183 4.304737034e-39
0.1127030551 -0.7229545116 -0.1942973286 4.304737034e-39
0.2690886557 -0.1934700608 -0.1931217164 4.304737034e-39
-0.2345086187 -0.2521665692 0.04921871796 4.304737034e-39
0.2924867868 -0.2080925703 -0.2169903666 4.304737034e-39
-0.143740356 -0.5217657089 0.128787607 4.304737034e-39
0.1904914379 -0.371794492 -0.1722765714 4.304737034e-39
-0.1011045724 -0.1394777 0.374335289 4.304737034e-39
-0.2269171327 -0.1987549812 -0.1509882063 4.48912409e-39
-0.04240424186 -0.370477736 -0.1326788068 4.48912409e-39
-0.1591074467 -0.2442397624 0.08710812032 4.48912409e-39
-0.1015917212 -0.06560353935 0.2905180454 4.48912409e-39
0.23187159 -0.7062199116 -0.2718400061 4.48912409e-39
-0.2305381447 -0.2250375301 -0.02277819254 4.48912409e-39
0.1483180672 -0.7176371813 -0.2198364735 4.48912409e-39
0.3242275417 -0.3463312685 -0.1752444655 4.48912409e-39
0.3048101664 -0.2073098719 -0.2179155946 4.673152414e-39
-0.2039754391 -0.2763624787 0.1084487289 4.673152414e-39
0.1962565184 -0.7115372419 -0.2463008612 4.673152414e-39
-0.1929014027 -0.2664107084 0.1054375321 4.673152414e-39
-0.2280504555 -0.2856124043 0.1010034233 4.673152414e-39
-0.2012119889 -0.3600438535 0.2619466484 4.673152414e-39
0.2419439107 -0.2020542324 -0.2153753489 4.673152414e-39
0.309234947 -0.2109448016 -0.1803438067 4.673152414e-39
0.1797552258 -0.1982831657 -0.2014534026 4.857539469e-39
0.2392131537 -0.3609792292 -0.1666817963 4.857539469e-39
-0.1560637206 -0.5225484371 0.1297128499 4.857539469e-39
-0.1551479399 -0.2593473196 0.1347209364 4.857539469e-39
0.1366722435 -0.719904542 -0.2075295299 4.857539469e-39
-0.2017837614 -0.3523593545 0.2712424397 4.857539469e-39
-0.1421470046 -0.2600492239 0.1451773793 4.857539469e-39
0.1538590938 -0.190679431 -0.2016888708 4.857539469e-39
-0.2052247673 -0.267193377 0.106362775 5.041567793e-39
0.05527134985 -0.1715839505 -0.1743547469 5.041567793e-39
0.3776702583 -0.2605614662 -0.1838359386 5.041567793e-39
0.2441949695 -0.705437243 -0.272765249 5.041567793e-39
-0.2311099172 -0.2173530012 -0.01348245889 5.041567793e-39
-0.1549036801 -0.1834051162 -0.1700073183 5.041567793e-39
-0.01077107526 -0.1465054601 -0.1873681098 5.041567793e-39
0.3467769027 -0.2162812501 -0.1924152821 5.041567793e-39
0.1519322246 -0.1800257266 -0.2151565403 5.225597518e-39
-0.2273728997 -0.287097007 0.1123851836 5.225597518e-39
0.4023663402 -0.6908084154 -0.3189385235 5.225597518e-39
-0.2240909338 -0.3007199466 0.1486162394 5.225597518e-39
-0.2272883207 -0.2209073156 0.0192721691 5.225597518e-39
-0.2006934881 -0.2899854481 0.1446797848 5.225597518e-39
0.04102111608 -0.1617129296 -0.1868971586 5.225597518e-39
-0.2378854007 -0.2025068998 -0.1272995472 5.225597518e-39
-0.1837542206 -0.2458051443 0.08895860612 5.409984573e-39
-0.05405006558 -0.3727450669 -0.1203718558 5.409984573e-39
-0.2312266529 -0.2657895386 0.0854497999 5.409984573e-39
-0.2104124725 -0.3029064536 0.1704544425 5.409984573e-39
-0.2142873555 -0.2216092497 0.02972865105 5.409984573e-39
0.3178110421 -0.2080117911 -0.2074591368 5.409984573e-39
0.2561934292 -0.1865682304 -0.1829007268 5.409984573e-39
-0.09830975533 -0.07922646403 0.3267491758 5.409984573e-39
-0.1918738484 -0.1857531965 -0.1672315896 5.594012897e-39
-0.03349094838 -0.1587245613 -0.1720499694 5.594012897e-39
-0.03416849673 -0.1572399437 -0.1834316701 5.594012897e-39
0.2964038849 -0.3027167916 -0.1690154076 5.594012897e-39
0.3783477843 -0.2620460391 -0.1724542528 5.594012897e-39
-0.05688839406 -0.1694590747 -0.1681135148 5.594012897e-39
-0.1674713194 -0.2601299882 0.1356461793 5.594012897e-39
-0.2005344331 -0.361528486 0.2733283937 5.594012897e-39
-0.1542261392 -0.1848897338 -0.1586256176 5.77804122e-39
-0.148605153 -0.2266034484 0.09339269996 5.77804122e-39
-0.1042807549 -0.1196548641 0.3587816656 5.77804122e-39
0.0145532731 -0.1464246809 -0.1778369099 5.77804122e-39
-0.1150952056 -0.3843429983 -0.1250413805 5.77804122e-39
-0.1492826939 -0.2251188308 0.08201095462 5.77804122e-39
0.4146897197 -0.6900256872 -0.3198637664 5.77804122e-39
-0.2158430368 -0.188803196 -0.153999418 5.77804122e-39
0.3124759495 -0.354798466 -0.1836149544 5.962428276e-39
0.2024751008 -0.1860640645 -0.216771543 5.962428276e-39
-0.2331425697 -0.2128991783 -0.04762757942 5.962428276e-39
-0.2081361413 -0.3127136528 0.2401351631 5.962428276e-39
-0.14733468 -0.2957623601 0.2092690617 5.962428276e-39
-0.1767121255 -0.3882564604 -0.1204151735 5.962428276e-39
-0.2330367863 -0.2066992819 -0.02695011906 5.962428276e-39
-0.1915674806 -0.2093901336 0.01441048179 5.962428276e-39
-0.01202039979 -0.1373363286 -0.1894540787 6.1464566e-39
-0.1525646746 -0.2114958763 0.04577989876 6.1464566e-39
-0.2023555338 -0.3446748257 0.2805381715 6.1464566e-39
-0.2351752073 -0.2084453553 -0.08177269995 6.1464566e-39
-0.01134285331 -0.1388209462 -0.178072378 6.1464566e-39
-0.228537634 -0.211738199 0.01718620583 6.1464566e-39
0.3907204866 -0.6930756569 -0.3066315651 6.1464566e-39
-0.2398122698 -0.1918531805 -0.1407672018 6.1464566e-39
0.3678455353 -0.2796823978 -0.1787387729 6.330484923e-39
-0.2227358371 -0.3036891818 0.1713796854 6.330484923e-39
-0.2084009647 -0.2473705262 0.09080909193 6.330484923e-39
-0.2214019299 -0.246668607 0.08035263419 6.330484923e-39
-0.1438296288 -0.1734533161 -0.17301853 6.330484923e-39
-0.2408609986 -0.2125208974 0.01811144687 6.330484923e-39
-0.2260178179 -0.2900662422 0.1351485699 6.330484923e-39
-0.2100829631 -0.385627836 -0.01937600784 6.330484923e-39
0.1736424267 -0.7175564766 -0.2103052586 6.514514648e-39
-0.140791893 -0.2630184591 0.1679408252 6.514514648e-39
0.1414150894 -0.7302967906 -0.1278575659 6.514514648e-39
0.3667512536 -0.6961257458 -0.2933993936 6.514514648e-39
0.1400599927 -0.7273275852 -0.1506209821 6.514514648e-39
-0.2123393565 -0.2922527492 0.1569867283 6.514514648e-39
0.190829277 -0.1883313507 -0.2044645995 6.514514648e-39
0.2034923732 -0.3724964261 -0.1618201137 6.514514648e-39
-0.2011062205 -0.3538439572 0.2826241553 6.698542971e-39
0.4270130992 -0.6892430186 -0.3207890093 6.698542971e-39
0.3087272644 -0.3019340634 -0.1699406505 6.698542971e-39
-0.1772114336 -0.2130612731 0.04763038456 6.698542971e-39
-0.2350694239 -0.2022454441 -0.06109526753 6.698542971e-39
-0.1992851049 -0.3706976175 0.2754143775 6.698542971e-39
-0.1553861797 -0.5240330696 0.1410945356 6.698542971e-39
0.3282075524 -0.1965753734 -0.2218520492 6.698542971e-39
0.04385947436 -0.364998877 -0.1391555071 6.882571295e-39
0.161996603 -0.7198237181 -0.1979983002 6.882571295e-39
-0.1921180934 -0.261695385 0.1374966651 6.882571295e-39
-0.0170799233 -0.3703969717 -0.1231475845 6.882571295e-39
-0.1928168088 -0.2002210021 0.01232451666 6.882571295e-39
-0.2122213989 -0.3873738647 -0.07419858873 6.882571295e-39
0.2271219045 -0.1844986677 -0.2186220288 6.882571295e-39
-0.2018582076 -0.214626655 0.04948087037 6.882571295e-39
0.04044933617 -0.1540284157 -0.1776014268 7.066599618e-39
-0.1889624298 -0.4463816881 0.2472706735 7.066599618e-39
-0.1544915438 -0.2008421421 0.03231220692 7.066599618e-39
-0.01258794125 -0.4594730735 0.3077005446 7.066599618e-39
-0.2245781273 -0.2268457562 0.06479901075 7.066599618e-39
-0.04706367105 -0.1503381431 -0.1732106954 7.066599618e-39
-0.1568408906 -0.4398412406 0.1441455781 7.066599618e-39
0.2521083653 -0.3678810298 -0.1769027859 7.066599618e-39
-0.1804934144 -0.1994383037 0.01139927004 7.250627941e-39
-0.1966493726 -0.2389033437 0.09917964041 7.250627941e-39
0.3060587645 -0.1911219805 -0.1958974302 7.250627941e-39
-0.1691642702 -0.440623939 0.145070821 7.250627941e-39
0.2031526566 -0.1875486672 -0.2053898424 7.250627941e-39
0.2099349797 -0.7137237787 -0.224462688 7.250627941e-39
-0.2349636555 -0.1960455626 -0.04041780531 7.250627941e-39
-0.153813988 -0.2023267448 0.04369392991 7.250627941e-39
0.2549440861 -0.1773991287 -0.1849866956 7.434656265e-39
-0.1681700349 -0.1986556202 0.01047403086 7.434656265e-39
-0.1401143521 -0.2645030618 0.1793225259 7.434656265e-39
-0.1814876348 -0.4414066076 0.1459960639 7.434656265e-39
-0.236996308 -0.1915917397 -0.07456292212 7.434656265e-39
0.2536955178 -0.1935870051 -0.20700486 7.434656265e-39
-0.2272671312 -0.2808970809 0.133062616 7.434656265e-39
-0.2363187522 -0.1930763423 -0.06318122894 7.434656265e-39
-0.1801222265 -0.1772859991 -0.1588611007 7.618684588e-39
-0.01259217598 -0.1296518296 -0.1801583469 7.618684588e-39
-0.2012857944 -0.4471643865 0.2481959164 7.618684588e-39
0.2158157378 -0.3717137277 -0.1627453566 7.618684588e-39
0.2899881303 -0.1897543073 -0.2211622894 7.618684588e-39
0.01137707941 -0.1266018301 -0.1933905333 7.618684588e-39
-0.2083798349 -0.3073602915 0.2045995295 7.618684588e-39
0.2736839354 -0.3149358928 -0.1536972523 7.618684588e-39
0.1523833573 -0.726544857 -0.151546225 7.802712912e-39
-0.1758563519 -0.2160304785 0.07039377838 7.802712912e-39
-0.1513877958 -0.3881757259 -0.1108839512 7.802712912e-39
-0.1888572872 -0.2153285742 0.0599373281 7.802712912e-39
-0.1661373824 -0.2031094432 0.04461918026 7.802712912e-39
0.2853298485 -0.3126685619 -0.1660041958 7.802712912e-39
0.2695192695 -0.7053564787 -0.2632340193 7.802712912e-39
-0.1320780367 -0.1649861038 -0.1646480262 7.802712912e-39
0.2818427086 -0.7045737505 -0.2641592622 7.986382503e-39
-0.2089727372 -0.2396860421 0.1001048833 7.986382503e-39
-0.1726577878 -0.4394007623 0.06748478115 7.986382503e-39
-0.1849811524 -0.4401834607 0.06841002405 7.986382503e-39
-0.1883579344 -0.3905237913 -0.1081082299 7.986382503e-39
-0.2313426584 -0.1697630286 -0.1686277986 7.986382503e-39
-0.1843035966 -0.4416680634 0.07979175448 7.986382503e-39
-0.1881797463 -0.2168131769 0.07131902874 7.986382503e-39
0.3578509688 -0.2063294351 -0.195426479 8.170410826e-39
-0.1684867293 -0.4421085417 0.1564525068 8.170410826e-39
0.2281391174 -0.3709310293 -0.1636705995 8.170410826e-39
0.3188128173 -0.7022256851 -0.2669349909 8.170410826e-39
-0.1654598415 -0.2045940608 0.05600087717 8.170410826e-39
-0.1020942852 -0.3850449622 -0.1145849228 8.170410826e-39
0.1513604522 -0.1723411977 -0.2058608085 8.170410826e-39
-0.2375680804 -0.1839072108 -0.06526719034 8.170410826e-39
-0.2362129837 -0.186876446 -0.04250377044 8.35443915e-39
-0.2016779929 -0.3461594284 0.2919198871 8.35443915e-39
-0.2265895754 -0.2823817134 0.1444443166 8.35443915e-39
-0.1438399553 -0.4405431449 0.154602021 8.35443915e-39
-0.0847113654 -0.1512016058 -0.1818166673 8.35443915e-39
-0.2087278664 -0.3885970414 0.003387415316 8.35443915e-39
-0.1524377465 -0.2652857304 0.1802477688 8.35443915e-39
0.01205462776 -0.1280864477 -0.1820088327 8.35443915e-39
-0.2005031258 -0.2175958753 0.07224426419 8.538467473e-39
-0.1588959098 -0.2318399549 0.1284630448 8.538467473e-39
-0.1010953635 -0.5575787425 0.1457374394 8.538467473e-39
-0.2233076245 -0.296004653 0.1806754172 8.538467473e-39
0.289078474 -0.3655329347 -0.1796784997 8.538467473e-39
-0.1907629967 -0.2646645904 0.1602601111 8.538467473e-39
0.1876530796 -0.1685084999 -0.2200182378 8.538467473e-39
-0.09635718912 -0.1534689069 -0.1695097238 8.538467473e-39
-0.1350100935 -0.4385372996 0.07609079033 8.722137064e-39
-0.2077022791 -0.308844924 0.2159812301 8.722137064e-39
0.2524462044 -0.1844178885 -0.209090814 8.722137064e-39
0.2258725762 -0.175329566 -0.2207079977 8.722137064e-39
0.1640292555 -0.7242775559 -0.1638531685 8.722137064e-39
-0.1678091884 -0.4435931444 0.1678342074 8.722137064e-39
-0.1936949492 -0.1688995659 -0.1600218117 8.722137064e-39
0.2401228249 -0.1852005869 -0.2081655711 8.722137064e-39
-0.09108942747 -0.04796721041 0.2968025804 8.906165387e-39
-0.2207031995 -0.3081429899 0.2055247724 8.906165387e-39
0.1636838913 -0.1715584993 -0.2067860514 8.906165387e-39
0.3501235843 -0.3539350033 -0.1750089824 8.906165387e-39
0.2019033283 -0.1783795655 -0.2074758112 8.906165387e-39
-0.2186917365 -0.2526070476 0.1258794814 8.906165387e-39
-0.09060226381 -0.1218413711 0.3806197941 8.906165387e-39
-0.2080503255 -0.3900816739 0.01476913877 8.906165387e-39
-0.07744751126 -0.3834795654 -0.1164354086 9.089834978e-39
-0.1517602056 -0.2667703629 0.1916294694 9.089834978e-39
-0.03723468259 -0.4610384107 0.3095510304 9.089834978e-39
-0.04115491733 -0.3796468675 -0.1305928379 9.089834978e-39
-0.1946378946 -0.1833674014 0.01953431964 9.089834978e-39
-0.2101887465 -0.3918277025 -0.04005344212 9.089834978e-39
-0.19814156 -0.3860665858 0.2568228543 9.089834978e-39
-0.2141604424 -0.2753991187 0.1641965508 9.089834978e-39
-0.02684241533 -0.1197808012 -0.1927007586 9.273863302e-39
-0.06063636392 -0.14195171 -0.1743714064 9.273863302e-39
-0.2123271674 -0.3935737908 -0.09487602115 9.273863302e-39
0.3133855462 -0.1790198237 -0.2250987291 9.273863302e-39
-0.1671316326 -0.4450777471 0.1792159081 9.273863302e-39
-0.1770845205 -0.2668511271 0.1820982546 9.273863302e-39
0.3960704505 -0.2131504864 -0.1961162388 9.273863302e-39
-0.2271613628 -0.2746971846 0.1537400484 9.273863302e-39
-0.03348671272 -0.4885457754 0.3158089221 9.457532893e-39
-0.1106074601 -0.1435978711 -0.1820521355 9.457532893e-39
0.1756750643 -0.7220102549 -0.1761601269 9.457532893e-39
0.2894163728 -0.1820698082 -0.2118665427 9.457532893e-39
-0.2202685624 -0.1598112285 -0.1716389954 9.457532893e-39
0.2701968253 -0.7068410516 -0.2518523037 9.457532893e-39
0.2122998089 -0.1669431329 -0.2218687087 9.457532893e-39
-0.1702974886 -0.1581650674 -0.1639582664 9.457532893e-39
-0.1475775987 -0.1459459364 -0.1792764217 9.641561216e-39
0.2998128831 -0.1706334054 -0.2262594551 9.641561216e-39
-0.2310151011 -0.253389746 0.1268047243 9.641561216e-39
-0.1887515187 -0.2091286629 0.08061476052 9.641561216e-39
-0.08848501742 -0.06010556221 0.3216519952 9.641561216e-39
0.3557829857 -0.6998776197 -0.2697107196 9.641561216e-39
-0.01509082317 -0.1113135815 -0.1843302697 9.641561216e-39
-0.09760650992 -0.1442997754 -0.1715956926 9.641561216e-39
-0.2219525278 -0.2989738584 0.2034388185 9.825230807e-39
0.2660182118 -0.1674472988 -0.1879979074 9.825230807e-39
-0.09310090542 -0.1035031378 0.3764478862 9.825230807e-39
0.2897560298 -0.3670175672 -0.1682967991 9.825230807e-39
-0.2095112056 -0.3933123052 -0.02867174521 9.825230807e-39
-0.1599009782 -0.1467286348 -0.1783511788 9.825230807e-39
-0.2408500463 -0.1702842712 -0.1014982685 9.825230807e-39
0.3140630722 -0.1805044413 -0.2137170285 9.825230807e-39
0.2742557526 -0.322620362 -0.1629929841 1.000925913e-38
-0.2088669837 -0.2334861308 0.1207823157 1.000925913e-38
-0.2442377806 -0.162861228 -0.158406809 1.000925913e-38
0.3171328306 -0.1811701506 -0.1989086419 1.000925913e-38
-0.01650814526 -0.3780814707 -0.1324433237 1.000925913e-38
0.1488618106 -0.1540029645 -0.2100327313 1.000925913e-38
-0.1400085837 -0.2583031654 0.1999999583 1.000925913e-38
-0.1347246468 -0.1395207793 -0.09674659371 1.000925913e-38
-0.2212115228 -0.1742790341 0.007917110808 1.019292872e-38
-0.134047091 -0.1410053968 -0.08536489308 1.019292872e-38
0.3313830793 -0.1910412014 -0.1863662302 1.019292872e-38
-0.240066722 -0.1655689776 -0.06943911314 1.019292872e-38
0.3318137527 -0.7029275894 -0.2564785182 1.019292872e-38
-0.02741419338 -0.1120962799 -0.1834050268 1.019292872e-38
-0.2432538718 -0.1879827678 0.03461698443 1.019292872e-38
0.2919142544 -0.1750510335 -0.1877624243 1.019292872e-38
0.009555978701 -0.1097481996 -0.1861807555 1.037659831e-38
-0.2128053457 -0.2783683538 0.1869599521 1.037659831e-38
-0.1634060293 -0.2690376639 0.2039364129 1.037659831e-38
-0.1490806937 -0.1358496547 -0.1299664676 1.037659831e-38
-0.2258062661 -0.2776664495 0.1765034944 1.037659831e-38
0.3244596124 -0.1690680236 -0.228109926 1.037659831e-38
-0.2428826839 -0.1658304334 -0.1356433928 1.037659831e-38
-0.1592234224 -0.1482132375 -0.1669694781 1.037659831e-38
-0.206917733 -0.4476872981 0.1157873571 1.056062664e-38
-0.08721000701 -0.1328633726 -0.1859885901 1.056062664e-38
-0.2003973424 -0.211395964 0.09292174876 1.056062664e-38
-0.09775450826 -0.137172699 -0.09952230752 1.056062664e-38
0.2615933418 -0.1638123542 -0.2255696803 1.056062664e-38
0.2369466126 -0.1653777361 -0.2237192094 1.056062664e-38
-0.09435023367 -0.09433403611 0.3743619323 1.056062664e-38
-0.1997511238 -0.3568131626 0.3053875268 1.056062664e-38
-0.09627711773 -0.0836803019 0.3608942628 1.074429623e-38
-0.1367572844 -0.1350669563 -0.1308917105 1.074429623e-38
0.2533576787 -0.3770501316 -0.174816817 1.074429623e-38
0.2524454594 -0.1590608805 -0.1891586185 1.074429623e-38
-0.2231172472 -0.223615095 0.108239904 1.074429623e-38
-0.1230788231 -0.1372534782 -0.1090535522 1.074429623e-38
-0.080099985 -0.1042050719 0.3869043887 1.074429623e-38
-0.1168533862 -0.123109296 -0.2124141604 1.074429623e-38
-0.1237563789 -0.1357688606 -0.1204352528 1.092796582e-38
-0.1769998968 -0.2006614804 0.088985309 1.092796582e-38
-0.1641142517 -0.1306938976 -0.174568072 1.092796582e-38
-0.2001095861 -0.3989909589 -0.1164787263 1.092796582e-38
-0.1387899369 -0.1306131184 -0.1650368571 1.092796582e-38
0.2656810284 -0.3762674332 -0.1757420599 1.092796582e-38
-0.1401450336 -0.1276438981 -0.1878002435 1.092796582e-38
-0.1394674778 -0.1291285157 -0.1764185429 1.092796582e-38
-0.1111792326 -0.135913372 -0.1727564037 1.111163541e-38
-0.09910960495 -0.1342034936 -0.1222857386 1.111163541e-38
0.1592583656 -0.1425665319 -0.2244256288 1.111163541e-38
-0.2315868735 -0.2457052469 0.1361004561 1.111163541e-38
-0.1971153766 -0.2250189185 0.1291528046 1.111163541e-38
-0.09978714585 -0.132718876 -0.1336674392 1.111163541e-38
-0.2224608362 -0.1651099324 0.005831150338 1.111163541e-38
0.2110504955 -0.1577740163 -0.2239546776 1.111163541e-38
-0.160620749 -0.1319170594 -0.09698206186 1.1295305e-38
-0.1991268396 -0.2805548906 0.2087980956 1.1295305e-38
-0.2461646646 -0.1522074938 -0.1718744785 1.1295305e-38
-0.1346188784 -0.1333208978 -0.07606912404 1.1295305e-38
0.2003218085 -0.7204449177 -0.1780106127 1.1295305e-38
-0.06381256133 -0.1221288815 -0.1899250299 1.1295305e-38
-0.2085169703 -0.1513440162 -0.1632685065 1.1295305e-38
0.4406915307 -0.6914295554 -0.2989508212 1.1295305e-38
-0.2331637442 -0.1529093981 -0.1614180207 1.147897319e-38
-0.1469422877 -0.1341035813 -0.07514388114 1.147897319e-38
-0.09832628071 -0.1294881999 -0.09022657573 1.147897319e-38
0.0354520455 -0.1173519492 -0.1859452724 1.147897319e-38
-0.1410301626 -0.5277041793 0.1743144691 1.147897319e-38
0.1735086143 -0.1524375677 -0.2118832171 1.147897319e-38
-0.0761359632 -0.1229115725 -0.188999787 1.147897319e-38
-0.02815396897 -0.3803488016 -0.1201363802 1.147897319e-38
0.3564605415 -0.7013621926 -0.258329004 1.166264278e-38
-0.1744166464 -0.1528100371 4.42173332e-05 1.166264278e-38
-0.09900383651 -0.1280035973 -0.1016082764 1.166264278e-38
0.1994046867 -0.1600413173 -0.211647734 1.166264278e-38
0.1974778026 -0.1493875682 -0.2251154035 1.166264278e-38
-0.1860624701 -0.1550773382 0.01235118229 1.166264278e-38
-0.1673962325 -0.117070958 -0.2107991427 1.166264278e-38
-0.02105757222 -0.4815632105 0.3355610967 1.166264278e-38
0.3927531242 -0.6975295544 -0.2724864483 1.184631237e-38
-0.2347630709 -0.2258823961 0.1205468327 1.184631237e-38
-0.04888053611 -0.4633057117 0.3218579888 1.184631237e-38
-0.16536358 -0.121524781 -0.1766540259 1.184631237e-38
-0.1384195685 -0.4524200261 0.2456556708 1.184631237e-38
-0.06063213199 -0.4717729092 0.3134874701 1.184631237e-38
-0.100130856 -0.06237286329 0.3339589238 1.184631237e-38
-0.2308247387 -0.1810001731 0.05436920002 1.184631237e-38
-0.1782492101 -0.1914923489 0.08689934015 1.202998196e-38
-0.1981204748 -0.1399075985 -0.177661404 1.202998196e-38
-0.1860413253 -0.2150671035 0.1261416078 1.202998196e-38
-0.1830542833 -0.4508371949 0.08187771589 1.202998196e-38
-0.08778178692 -0.1251788735 -0.1766928434 1.202998196e-38
-0.2198352963 -0.2372380197 0.1444709599 1.202998196e-38
0.1599359214 -0.1440511495 -0.213043943 1.202998196e-38
-0.05813348293 -0.4901111722 0.3176594079 1.202998196e-38
-0.2386168092 -0.2045749426 0.09361150861 1.221365155e-38
-0.1309447885 -0.4474449754 0.1443810612 1.221365155e-38
0.0342027247 -0.1081828177 -0.1880312413 1.221365155e-38
-0.1501384825 -0.3973448277 -0.1087979898 1.221365155e-38
-0.1507429779 -0.4532027245 0.2465809137 1.221365155e-38
-0.1001051515 -0.125961557 -0.1757676154 1.221365155e-38
-0.1235448271 -0.1233690903 -0.07908032835 1.221365155e-38
-0.00873420015 -0.4807805419 0.3346358836 1.221365155e-38
-0.2457525134 -0.1696445346 0.0304450579 1.239732115e-38
0.1580090523 -0.1333974302 -0.2265115976 1.239732115e-38
-0.1756659746 -0.1436409205 -0.002041744068 1.239732115e-38
-0.1879893541 -0.144423604 -0.001116501167 1.239732115e-38
0.3026511669 -0.3739193678 -0.1785177886 1.239732115e-38
-0.1623996198 -0.1283904165 -0.1825231016 1.239732115e-38
-0.1563221812 -0.1071191505 -0.2138103545 1.239732115e-38
-0.07738528401 -0.1137424409 -0.1910857558 1.239732115e-38
-0.1605149657 -0.1257171631 -0.07630459964 1.258099074e-38
-0.1193520278 -0.1047710776 -0.2165860832 1.258099074e-38
-0.1626650244 -0.1443428397 0.008414736949 1.258099074e-38
-0.07817311585 -0.1148588061 0.4003720582 1.258099074e-38
-0.2237736136 -0.2821202576 0.2106485814 1.258099074e-38
-0.1070286334 -0.1039883792 -0.2175113261 1.258099074e-38
0.3819258809 -0.1970795393 -0.187981233 1.258099074e-38
0.2599060833 -0.7120776176 -0.2167819589 1.258099074e-38
-0.165904671 -0.2506994605 0.1997644901 1.276466033e-38
-0.2433487028 -0.151946038 -0.1056701988 1.276466033e-38
-0.1996351928 -0.1466909051 0.01119046565 1.276466033e-38
0.2751654088 -0.1468417645 -0.2044767588 1.276466033e-38
-0.2344130725 -0.1437402964 -0.1635039747 1.276466033e-38
0.2635195851 -0.1491090655 -0.1921698302 1.276466033e-38
-0.1794985384 -0.1823232323 0.0848133713 1.276466033e-38
-0.1384726167 -0.1120134294 -0.1030044705 1.276466033e-38
-0.1020320281 -0.1153078228 -0.18923527 1.294832852e-38
-0.07670773566 -0.1152270436 -0.1797040552 1.294832852e-38
0.393571794 -0.1948122382 -0.2002881765 1.294832852e-38
-0.150796026 -0.1127961278 -0.1020792276 1.294832852e-38
-0.1131683365 -0.3949967623 -0.1115737185 1.294832852e-38
-0.2119585723 -0.1474736035 0.01211570669 1.294832852e-38
-0.2126995772 -0.2721684277 0.2076373845 1.294832852e-38
-0.1501184702 -0.1142807305 -0.09069752693 1.294832852e-38
-0.1637969315 -0.1120942011 -0.1125357151 1.313163938e-38
-0.1521511227 -0.1098269075 -0.1248426586 1.313163938e-38
-0.2447037995 -0.1489768177 -0.1284336299 1.313163938e-38
0.261592716 -0.1384553313 -0.2056374848 1.313163938e-38
0.2838753462 -0.7090275884 -0.2300141454 1.313163938e-38
-0.2295542359 -0.2501590848 0.1702456027 1.313163938e-38
-0.2242819369 -0.1482563019 0.01304094773 1.313163938e-38
-0.176915288 -0.1344718039 -0.00412770547 1.313163938e-38
0.2486982346 -0.1569105387 -0.2153487056 1.331530897e-38
0.00580801256 -0.08224084973 -0.1924386472 1.331530897e-38
-0.0762462467 -0.1255125403 0.4138396978 1.331530897e-38
-0.09752643108 -0.07451120019 0.3588083088 1.331530897e-38
-0.165829584 -0.1076403707 -0.1466808319 1.331530897e-38
-0.1656769365 -0.5292695761 0.1761649549 1.331530897e-38
-0.204748407 -0.3201366961 0.2970436811 1.331530897e-38
-0.1993697882 -0.1307384968 -0.1797473729 1.331530897e-38
-0.2453813404 -0.1474922001 -0.1398153156 1.349897856e-38
-0.1015024781 -0.1096653491 -0.1057801992 1.349897856e-38
0.05743216723 -0.3733853102 -0.1379947811 1.349897856e-38
-0.1940225959 -0.4545890987 0.1055663824 1.349897856e-38
-0.1329247355 -0.09638463706 -0.2177467942 1.349897856e-38
-0.2021439821 -0.3322750628 0.321893096 1.349897856e-38
-0.2063459605 -0.4553717971 0.1064916253 1.349897856e-38
-0.1885611117 -0.136739105 0.008179261349 1.349897856e-38
-0.1671846807 -0.1046711504 -0.1694442481 1.368228942e-38
-0.1275043488 -0.1082615182 -0.1266931444 1.368228942e-38
-0.1872906536 -0.2058979869 0.1240556389 1.368228942e-38
-0.2313965112 -0.1733156741 0.06366493553 1.368228942e-38
-0.1625592411 -0.1381429434 0.0290922001 1.368228942e-38
0.156759724 -0.1242282987 -0.2285975665 1.368228942e-38
-0.1008449644 -0.3942140639 -0.1124989614 1.368228942e-38
-0.186368838 -0.1314404011 -0.1692909151 1.368228942e-38
-0.2268652171 -0.1961077452 0.1019820124 1.386595901e-38
-0.09174580872 -0.106472373 0.3992113173 1.386595901e-38
-0.1568939537 -0.09943462908 -0.2045146227 1.386595901e-38
0.2758429348 -0.148326382 -0.1930950582 1.386595901e-38
-0.2204070538 -0.2295535356 0.1537667364 1.386595901e-38
0.208551839 -0.1394357681 -0.2281266004 1.386595901e-38
-0.226208806 -0.1376025677 -0.0004267375916 1.386595901e-38
0.283741504 -0.1439087242 -0.2315921038 1.386595901e-38
0.2874887884 -0.146059081 -0.2054020017 1.404926846e-38
-0.1302145422 -0.1023230776 -0.1722199768 1.404926846e-38
-0.007764741778 -0.07385443896 -0.1935993582 1.404926846e-38
-0.2119373977 -0.2074633837 0.1259061247 1.404926846e-38
-0.1748826355 -0.1389256418 0.030017443 1.404926846e-38
-0.2138109952 -0.2745525837 0.2204096168 1.404926846e-38
-0.2035299987 -0.4551103413 0.172695905 1.404926846e-38
-0.1165360659 -0.104509607 -0.1503818035 1.404926846e-38
-0.1028575748 -0.1066961288 -0.1285436153 1.423293806e-38
-0.05222896859 -0.3895986676 -0.1275816411 1.423293806e-38
-0.2118841112 -0.2852063179 0.2338772714 1.423293806e-38
-0.1962146908 -0.39672032 0.270290494 1.423293806e-38
0.369461447 -0.7020641565 -0.2478725612 1.423293806e-38
-0.1035351157 -0.1052115262 -0.139925316 1.423293806e-38
-0.1042126715 -0.1037269086 -0.1513070464 1.423293806e-38
0.2176368237 -0.3885673285 -0.1699551344 1.423293806e-38
-0.04416307807 -0.08388701081 -0.2001193762 1.441624891e-38
0.2489378154 -0.7158294916 -0.193093285 1.441624891e-38
-0.2255312502 -0.1390871853 0.01095498633 1.441624891e-38
-0.1759723425 -0.1200039834 -0.1836838126 1.441624891e-38
-0.08852156252 -0.3934313655 -0.1134242043 1.441624891e-38
0.2228021622 -0.1493068039 -0.2155841887 1.441624891e-38
0.04527676851 -0.09823101759 -0.1910424381 1.441624891e-38
-0.1742050946 -0.1404102445 0.04139913991 1.441624891e-38
0.225646168 -0.7203640938 -0.168479383 1.459991851e-38
-0.008056652732 -0.4822651148 0.3460175693 1.459991851e-38
0.03170407563 -0.08984457701 -0.1922031641 1.459991851e-38
-0.08837923408 -0.05390565097 0.3423294127 1.459991851e-38
0.315652132 -0.3746213019 -0.1680613309 1.459991851e-38
0.3519447148 -0.370788604 -0.1822187603 1.459991851e-38
-0.1658823043 -0.4542468488 0.1813018769 1.459991851e-38
-0.1629713923 -0.1207058877 -0.1732273698 1.459991851e-38
-0.2158757746 -0.2523455918 0.1920837611 1.478322936e-38
-0.24304232 -0.1755829751 0.07597187907 1.478322936e-38
-0.2056684196 -0.4568563998 0.1178733259 1.478322936e-38
-0.07352730632 -0.4648711085 0.3237084746 1.478322936e-38
-0.2501780391 -0.1406525671 0.01280547213 1.478322936e-38
0.1438645124 -0.117326498 -0.2183765769 1.478322936e-38
-0.03308903053 -0.0739352107 -0.203130573 1.478322936e-38
0.1555103958 -0.1150591895 -0.2306835204 1.478322936e-38
-0.2197295129 -0.2310381383 0.165148437 1.496689755e-38
-0.0675605312 -0.09462150186 -0.1961829215 1.496689755e-38
0.1833333373 -0.133316651 -0.2169803828 1.496689755e-38
-0.2371771187 -0.1413544863 0.02326192893 1.496689755e-38
-0.2466306537 -0.1383230984 -0.1419012696 1.496689755e-38
-0.1948059201 -0.4593043923 0.07350720465 1.496689755e-38
0.2059910148 -0.3908346593 -0.1576481909 1.496689755e-38
0.2073025256 -0.1302666664 -0.2302125692 1.496689755e-38
0.2729070187 -0.7127795219 -0.2063254714 1.515020841e-38
-0.1999415606 -0.123053968 -0.1704516262 1.515020841e-38
0.2824921906 -0.1347396076 -0.2336780578 1.515020841e-38
-0.202174902 -0.4580795765 0.1954592913 1.515020841e-38
-0.2301260084 -0.242474556 0.1795413345 1.515020841e-38
0.288506031 -0.3324914575 -0.1504505724 1.515020841e-38
0.0440274477 -0.08906188607 -0.193128407 1.515020841e-38
-0.01180462074 -0.45475775 0.3397596776 1.515020841e-38
0.3215230107 -0.7081640959 -0.2214081585 1.533351927e-38
-0.2047170848 -0.1762041152 0.09595960379 1.533351927e-38
0.01495519094 -0.06163530797 -0.2089175135 1.533351927e-38
0.02755842544 -0.476947844 0.3204784393 1.533351927e-38
-0.02758219466 -0.3880332708 -0.1294321269 1.533351927e-38
0.247448191 -0.1223843992 -0.1975024641 1.533351927e-38
-0.154745996 -0.1745579541 0.1036403328 1.533351927e-38
-0.07102866471 -0.4832093716 0.3278803825 1.533351927e-38
-0.2049908787 -0.4583410025 0.1292550266 1.551683013e-38
0.3194622993 -0.1323915422 -0.2364537865 1.551683013e-38
-0.05677839369 -0.4930803776 0.3404228091 1.551683013e-38
0.1956567168 -0.1325339675 -0.2179056257 1.551683013e-38
-0.1482878327 -0.2080037445 0.1554250568 1.551683013e-38
-0.1891739815 -0.4587814808 0.2059158087 1.551683013e-38
0.2869169712 -0.138374567 -0.19610627 1.551683013e-38
-0.2075843215 -0.4039660692 -0.01520408504 1.551683013e-38
-0.02133743651 -0.06546799839 -0.1947600842 1.570049832e-38
-0.1988602579 -0.4081600904 -0.1143927574 1.570049832e-38
-0.1571582109 -0.4584409297 0.08211319894 1.570049832e-38
-0.2437089086 -0.1318617314 -0.05501954257 1.570049832e-38
-0.2462185323 -0.1557601243 0.0604182519 1.570049832e-38
-0.03433835506 -0.06476607919 -0.2052165419 1.570049832e-38
0.2338761985 -0.1393549889 -0.2185953856 1.570049832e-38
-0.1605266035 -0.1425967664 0.06323729455 1.570049832e-38
0.3399584889 -0.1627511382 -0.1935493499 1.588380918e-38
-0.1918007731 -0.243095696 0.1995290071 1.588380918e-38
0.3338463902 -0.7073814273 -0.2223334014 1.588380918e-38
0.2442720085 -0.1025615707 -0.2130560875 1.588380918e-38
-0.2332176119 -0.1564620435 0.07087470591 1.588380918e-38
0.2585229278 -0.137789607 -0.2204458714 1.588380918e-38
-0.05773580074 -0.07550059259 -0.2012800872 1.588380918e-38
0.2708463073 -0.1370069236 -0.2213711143 1.588380918e-38
-0.2104977071 -0.1442429423 0.05555656552 1.606712004e-38
-0.2105290145 -0.2881755233 0.2566407025 1.606712004e-38
0.2597716153 -0.1216017008 -0.1984277219 1.606712004e-38
-0.09424446523 -0.08813412488 0.3950394094 1.606712004e-38
-0.2021126747 -0.188342452 0.120808959 1.606712004e-38
-0.03452449292 -0.466976881 0.3550778329 1.606712004e-38
-0.1832465082 -0.1548158824 0.07855549455 1.606712004e-38
