# .PCD v0.7 - Point Cloud Data file format
VERSION 0.7
FIELDS x y z rgb
SIZE 4 4 4 4
TYPE F F F F
COUNT 1 1 1 1
WIDTH 839
HEIGHT 1
VIEWPOINT 0 0 0 1 0 0 0
POINTS 839
DATA ascii
0.04574286938 -0.3891290724 0.3736285567 3.936320254e-39
-0.07373070717 -0.4245730937 0.3891716599 3.936320254e-39
-0.09097902477 -0.3531573415 -0.08046585321 3.936320254e-39
0.07718666643 -0.5372726321 -0.003730610013 3.936320254e-39
-0.1692347527 -0.2870199084 -0.1982999742 3.936320254e-39
0.1520748436 -0.521663487 0.04343737662 3.936320254e-39
0.2250082344 -0.7719467878 0.2203012109 3.936320254e-39
0.2666050792 -0.3518203795 0.1189272106 4.120708711e-39
0.174908042 -0.3407171965 0.3323224187 4.120708711e-39
-0.1438654065 -0.2838278711 0.386323154 4.120708711e-39
-0.1266961992 -0.3647085726 -0.07559636235 4.120708711e-39
-0.0891090855 -0.3993217051 0.3952906728 4.120708711e-39
-0.1394275725 -0.3128669262 0.4039014876 4.120708711e-39
-0.08605279028 -0.425363481 0.3901062608 4.120708711e-39
0.1368572116 -0.5226420164 -0.02185076475 4.120708711e-39
0.08881795406 -0.5349836349 -0.01604665816 4.304737034e-39
-0.1530257165 -0.3739490211 -0.07934223115 4.304737034e-39
0.02663507313 -0.3994541466 0.2478840202 4.304737034e-39
0.3355413973 -0.3103576303 0.1050569117 4.304737034e-39
0.1770085543 -0.3776259422 0.2743622661 4.304737034e-39
0.2552388012 -0.3417437673 0.1726374924 4.304737034e-39
0.1159282625 -0.3568464816 0.3618239164 4.304737034e-39
0.2912210226 -0.3178269267 0.2091622949 4.304737034e-39
0.1855871826 -0.5117990971 -0.01627343893 4.48912409e-39
0.0580649823 -0.388338685 0.3726938963 4.48912409e-39
-0.150395155 -0.3861265182 -0.05451377854 4.48912409e-39
0.3003825247 -0.3295903504 0.1006106734 4.48912409e-39
0.2193703949 -0.7321910858 -0.07654967904 4.48912409e-39
0.1926539987 -0.7292758226 -0.1088246554 4.48912409e-39
0.2605929375 -0.7665783763 0.1947346032 4.48912409e-39
-0.1789336801 -0.233625859 -0.2655352056 4.48912409e-39
0.181135118 -0.3509601951 0.2160900235 4.673152414e-39
-0.03551548719 -0.4313821793 0.3884334564 4.673152414e-39
0.2460868657 -0.7351064086 -0.04427470267 4.673152414e-39
0.1972185224 -0.5095100403 -0.02858950198 4.673152414e-39
0.232383281 -0.7328994274 -0.06610290706 4.673152414e-39
0.1765827984 -0.3637616336 0.3043751717 4.673152414e-39
0.275406301 -0.3094153702 0.2117318809 4.673152414e-39
0.03442772478 -0.7162802219 -0.2683301866 4.673152414e-39
0.04948993027 -0.416669488 0.3798254728 4.857539469e-39
0.02306677029 -0.433801353 0.2968405485 4.857539469e-39
0.2373302877 -0.7711564302 0.2193666101 4.857539469e-39
0.1760245413 -0.3560801148 0.3136909008 4.857539469e-39
-0.09360957891 -0.3409799039 -0.1052943021 4.857539469e-39
0.08630561084 -0.3848235309 0.2297638953 4.857539469e-39
-0.1221406832 -0.2548410892 -0.2233174443 4.857539469e-39
0.1577399671 -0.3617210686 0.2200248986 4.857539469e-39
-0.01087135077 -0.4298014641 0.3865641952 5.041567793e-39
0.2728032768 -0.7380216122 -0.011999771 5.041567793e-39
0.2755663395 -0.7440162897 0.03352582455 5.041567793e-39
-0.0701341778 -0.4226386547 0.2481108457 5.041567793e-39
0.05626162887 -0.4101793766 0.05405887589 5.041567793e-39
0.06181204319 -0.4158791304 0.378890872 5.041567793e-39
-0.1265785098 -0.2258020043 -0.2408957928 5.041567793e-39
0.06045339629 -0.7176968455 -0.2474366277 5.041567793e-39
0.06858371198 -0.409389019 0.05312426016 5.225597518e-39
0.2721125185 -0.7365230322 -0.02338115871 5.225597518e-39
-0.1840622723 -0.2030880749 -0.2944949567 5.225597518e-39
0.1934571713 -0.3501698375 0.2151554078 5.225597518e-39
0.2584089339 -0.734316051 -0.0452093184 5.225597518e-39
0.2017456591 -0.7765248418 0.2449332774 5.225597518e-39
0.07415697724 -0.7199038267 -0.2256084681 5.225597518e-39
0.08342806995 -0.4206694067 0.2901018262 5.225597518e-39
-0.1769939065 -0.244304657 -0.2520881891 5.409984573e-39
0.2899606824 -0.7477219701 0.06673541665 5.409984573e-39
0.2906514406 -0.7492206097 0.07811680436 5.409984573e-39
-0.09431906044 -0.712194562 -0.3500351906 5.409984573e-39
-0.04993410781 -0.4339661002 0.1214430332 5.409984573e-39
0.1343448758 -0.3724819422 0.2239597887 5.409984573e-39
0.2310017496 -0.7299020886 -0.08886567503 5.409984573e-39
-0.1346220523 -0.4624363482 0.3131218553 5.409984573e-39
-0.1335235685 -0.4421415925 0.1679296792 5.594012897e-39
-0.08533379436 -0.459274888 0.3093833923 5.594012897e-39
0.1700620204 -0.3609306812 0.2190902978 5.594012897e-39
0.1790808439 -0.3821219206 0.3085064292 5.594012897e-39
0.1529247165 -0.7256522775 -0.1515463889 5.594012897e-39
-0.0003283508122 -0.4445622265 0.3007754087 5.594012897e-39
0.2934145033 -0.7552152872 0.1236424148 5.594012897e-39
0.05976262689 -0.7161982059 -0.2588180304 5.594012897e-39
-0.1058513522 -0.4341898859 0.2529803514 5.77804122e-39
-0.1321420372 -0.4451389313 0.1906925142 5.77804122e-39
0.2440145612 -0.7306103706 -0.0784189105 5.77804122e-39
0.2947960496 -0.758212626 0.1464051604 5.77804122e-39
0.1410018057 -0.5316339731 0.04643765092 5.77804122e-39
0.2801479697 -0.3277974427 0.2121625543 5.77804122e-39
0.1275898367 -0.7257343531 -0.1610585302 5.77804122e-39
0.1767152995 -0.3575787842 0.3250722885 5.77804122e-39
-0.134092018 -0.4377050698 0.3959103823 5.962428276e-39
0.1073531955 -0.3851772547 0.368955493 5.962428276e-39
0.2225534022 -0.5094280243 -0.01907728612 5.962428276e-39
0.2954868078 -0.7597112656 0.1577865481 5.962428276e-39
-0.04549003765 -0.4210579395 0.2462416142 5.962428276e-39
0.0752325803 -0.3947940469 0.2327641696 5.962428276e-39
0.2035945207 -0.7254881859 -0.1325220466 5.962428276e-39
0.1779643297 -0.3667589426 0.3271379471 5.962428276e-39
-0.06098634377 -0.4099874496 -0.06065929309 6.1464566e-39
-0.03426646814 -0.4405623078 0.390499115 6.1464566e-39
0.1294993311 -0.3652362525 0.3629549146 6.1464566e-39
-0.04866429046 -0.4091970921 -0.06159390882 6.1464566e-39
0.03304619715 -0.7132828832 -0.2910929918 6.1464566e-39
0.2700402141 -0.7320269942 -0.05752536654 6.1464566e-39
0.02788409218 -0.408634305 0.249949649 6.1464566e-39
0.2433238029 -0.7291117311 -0.08980029076 6.1464566e-39
-0.1390256882 -0.2991370559 -0.1676600277 6.330484923e-39
0.03951538354 -0.4063452482 0.2376336604 6.330484923e-39
0.3125325441 -0.7416452169 0.03072197735 6.330484923e-39
0.1671844721 -0.396776557 0.279428184 6.330484923e-39
0.3234730959 -0.7378575802 0.007024601102 6.330484923e-39
0.1642643809 -0.5270559788 0.02180559933 6.330484923e-39
0.3241638541 -0.7393562198 0.01840597391 6.330484923e-39
-0.1176954582 -0.3502420485 -0.1127407998 6.330484923e-39
0.2013631165 -0.518501997 0.03969892859 6.514514648e-39
0.2123036385 -0.5147143602 0.01600149274 6.514514648e-39
0.215916574 -0.7246978283 -0.1334566474 6.514514648e-39
0.2961775661 -0.7612099648 0.1691679358 6.514514648e-39
0.1232718378 -0.3824524283 0.2269600481 6.514514648e-39
0.1804623753 -0.3851192594 0.3312692642 6.514514648e-39
-0.1399858445 -0.305185467 0.4132172167 6.514514648e-39
0.0720846802 -0.7154078484 -0.2597526312 6.514514648e-39
-0.009622331709 -0.4389815927 0.3886298537 6.698542971e-39
0.2024364173 -0.7780234814 0.2563146651 6.698542971e-39
0.1589889973 -0.370901227 0.2220905572 6.698542971e-39
0.2419422716 -0.7261143923 -0.1125631183 6.698542971e-39
0.1768478155 -0.3513959944 0.3457694054 6.698542971e-39
-0.1312739551 -0.2754904032 -0.2068701386 6.698542971e-39
0.242187202 -0.3393269181 0.2207326889 6.698542971e-39
0.3152025938 -0.3471602499 0.1038073599 6.698542971e-39
0.2503431737 -0.7718647718 0.2298133671 6.882571295e-39
-0.005992291495 -0.7111579776 -0.3224333227 6.882571295e-39
-0.1643605828 -0.2992191315 -0.177172184 6.882571295e-39
-0.1053733751 -0.3494516909 -0.1136754155 6.882571295e-39
0.07538311929 -0.4242689312 0.3800219297 6.882571295e-39
0.2889773846 -0.317805171 0.2128629237 6.882571295e-39
-0.05735285953 -0.7098234296 -0.3528390527 6.882571295e-39
0.2022129893 -0.7224907875 -0.1552848369 6.882571295e-39
0.2549550831 -0.7268227339 -0.1021162942 7.066599618e-39
-0.10080304 -0.372307986 -0.07539993525 7.066599618e-39
0.1203942895 -0.4182983041 0.2872979641 7.066599618e-39
-0.1331824809 -0.3587676585 0.4142297506 7.066599618e-39
-0.1776846647 -0.2428059876 -0.263469547 7.066599618e-39
0.2412514985 -0.7246157527 -0.1239444986 7.066599618e-39
0.1811531484 -0.3866179287 0.3426506519 7.066599618e-39
0.2136851698 -0.5177116394 0.03876431286 7.066599618e-39
0.06415954977 -0.404764533 0.235764429 7.250627941e-39
0.09987670183 -0.3932133019 0.2308949381 7.250627941e-39
-0.1046900377 -0.2845885158 -0.1952923238 7.250627941e-39
0.03663784266 -0.442191124 0.2979715466 7.250627941e-39
-0.1315077096 -0.3818121254 0.3862825334 7.250627941e-39
-0.1300697327 -0.4496349096 0.2248366624 7.250627941e-39
-0.168930918 -0.2763628364 -0.2154476792 7.250627941e-39
0.01502180845 -0.4374008477 0.3867606521 7.250627941e-39
0.3276176751 -0.7468495369 0.07531297207 7.434656265e-39
0.02844234928 -0.4163157642 0.2406339198 7.434656265e-39
-0.1550980061 -0.3694530129 -0.1134864092 7.434656265e-39
0.1357444376 -0.411136955 0.3732832074 7.434656265e-39
0.07981722057 -0.5494501591 0.02109782398 7.434656265e-39
-0.1649262458 -0.2251757681 -0.2608547807 7.434656265e-39
-0.05656309798 -0.4310284555 0.2492418736 7.434656265e-39
0.210789606 -0.5178998709 -0.02745845914 7.434656265e-39
-0.04534297064 -0.4228732586 -0.02538406849 7.618684588e-39
0.1327163428 -0.4175079465 0.2863633633 7.618684588e-39
0.1479159445 -0.3808717132 0.2250908166 7.618684588e-39
0.2665863931 -0.7245336771 -0.1144323498 7.618684588e-39
-0.1342989802 -0.3434047401 0.4328612685 7.618684588e-39
-0.02372347005 -0.4553230703 0.304710269 7.618684588e-39
-0.1309494525 -0.3894935846 0.3769667447 7.618684588e-39
-0.1526041776 -0.2243854105 -0.2617893815 7.618684588e-39
-0.1241981536 -0.3830688596 -0.07146504521 7.802712912e-39
-0.006683057174 -0.709659338 -0.3338147402 7.802712912e-39
-0.1579829752 -0.3389370441 -0.1461467892 7.802712912e-39
0.1121987551 -0.3924229443 0.2299603224 7.802712912e-39
0.2311140895 -0.3492974341 0.2237329483 7.802712912e-39
0.1566414833 -0.3820158243 0.36521703 7.802712912e-39
-0.1866928339 -0.1909106076 -0.3193233907 7.802712912e-39
-0.1442867815 -0.2747821212 -0.2173169106 7.802712912e-39
-0.1757448763 -0.2534847856 -0.2500225306 7.986382503e-39
0.02913311124 -0.4178144336 0.2520153224 7.986382503e-39
0.1578905135 -0.3911959529 0.3672826886 7.986382503e-39
0.3392489552 -0.7445605397 0.06299695373 7.986382503e-39
0.1822696477 -0.4019808471 0.324019134 7.986382503e-39
0.2012306154 -0.5246848464 0.01900175214 7.986382503e-39
0.2919213474 -0.7244516611 -0.1049201414 7.986382503e-39
0.2077189982 -0.3600582778 0.2276678234 7.986382503e-39
0.0009206682444 -0.4537423551 0.3028410673 8.170410826e-39
0.1486067027 -0.3823703825 0.2364722043 8.170410826e-39
0.2652048469 -0.7215363383 -0.1371951103 8.170410826e-39
-0.1254546046 -0.3075268269 -0.1665289998 8.170410826e-39
0.3611300588 -0.7369850874 0.01560212672 8.170410826e-39
0.1818439066 -0.3881165981 0.3540320396 8.170410826e-39
-0.1333730221 -0.4716165066 0.3151875138 8.170410826e-39
0.2019213736 -0.526183486 0.03038313985 8.170410826e-39
-0.046724502 -0.4198759198 -0.04814686626 8.35443915e-39
0.1754965931 -0.7195755243 -0.1875597984 8.35443915e-39
-0.1488496959 -0.3182877004 -0.1625941098 8.35443915e-39
0.3042433858 -0.7236613035 -0.1058547497 8.35443915e-39
0.2376385033 -0.5146322846 0.02551364899 8.35443915e-39
0.3179469705 -0.7258682251 -0.08402658999 8.35443915e-39
0.03135250509 -0.424125731 0.01453383267 8.35443915e-39
0.2121711373 -0.52089715 -0.004695624113 8.35443915e-39
0.08258028328 -0.555444777 0.06662340462 8.538467473e-39
-0.1531582177 -0.3801318407 -0.100039348 8.538467473e-39
0.05308645219 -0.4147350192 0.2387646884 8.538467473e-39
0.05699957162 -0.7102035284 -0.304343611 8.538467473e-39
-0.1177028492 -0.283880204 -0.2057390958 8.538467473e-39
0.2128618956 -0.5223958492 0.006685748696 8.538467473e-39
0.3035525978 -0.7221626043 -0.1172361895 8.538467473e-39
0.2026121467 -0.5276821852 0.04176457226 8.538467473e-39
-0.1507894844 -0.3076089025 -0.1760411561 8.722137064e-39
-0.1053808033 -0.2830898464 -0.2066737115 8.722137064e-39
0.04398675263 -0.7094951868 -0.3147903979 8.722137064e-39
0.369998306 -0.7287014723 -0.04223945737 8.722137064e-39
0.1836511791 -0.4049781859 0.3467819691 8.722137064e-39
0.1234452575 -0.7167423368 -0.229346931 8.722137064e-39
0.03097390197 -0.7087868452 -0.325237155 8.722137064e-39
-0.1365276277 -0.3174973428 -0.1635287255 8.722137064e-39
0.2383292764 -0.5161309242 0.0368950814 8.906165387e-39
-0.1898816377 -0.1710516512 -0.3348360956 8.906165387e-39
0.1252116263 -0.3931312561 0.2404070944 8.906165387e-39
0.373452127 -0.7361947298 0.01466752589 8.906165387e-39
0.09421157092 -0.5531557798 0.05430741608 8.906165387e-39
0.0960380882 -0.712328434 -0.2730032802 8.906165387e-39
0.2244931906 -0.5201067924 -0.005630239844 8.906165387e-39
0.1814463884 -0.4066649973 0.2919406295 8.906165387e-39
-0.05434371904 -0.4373397827 0.01176037267 9.089834978e-39
0.0949023366 -0.5546544194 0.06568880379 9.089834978e-39
0.02189402096 -0.3302799165 -0.2460812926 9.089834978e-39
0.3014803231 -0.717666626 -0.1513803452 9.089834978e-39
-0.1297004372 -0.3986737132 0.3790324032 9.089834978e-39
0.3830111027 -0.7294097543 -0.03179268539 9.089834978e-39
-0.1318590045 -0.4684309959 0.3586473465 9.089834978e-39
-0.05503447726 -0.4358410835 0.0003789886832 9.089834978e-39
0.04505608976 -0.4263327122 0.03636201844 9.273863302e-39
-0.052271422 -0.4418357611 0.0459045805 9.273863302e-39
-0.06763613224 -0.4409989417 0.2522421479 9.273863302e-39
-0.1405440867 -0.2975040078 0.4225330055 9.273863302e-39
-0.1779390872 -0.2244674563 -0.2713015079 9.273863302e-39
0.0255648084 -0.4521616399 0.3009718657 9.273863302e-39
0.1843419373 -0.4064768553 0.3581633568 9.273863302e-39
0.3850834072 -0.7339057326 0.002351522446 9.273863302e-39
0.3408024907 -0.3347125947 0.1547138095 9.457532893e-39
0.1727105975 -0.4087658525 0.3704793453 9.457532893e-39
0.3645838797 -0.7444784641 0.07250910997 9.457532893e-39
0.04329598695 -0.7079964876 -0.3261717856 9.457532893e-39
0.3138023913 -0.7168762684 -0.152314961 9.457532893e-39
0.2877767384 -0.7154595852 -0.1732085347 9.457532893e-39
0.1493155062 -0.4195267558 0.3744142056 9.457532893e-39
-0.04810603335 -0.416878581 -0.07090963423 9.457532893e-39
-0.008064584807 -0.7066619992 -0.3565775156 9.641561216e-39
-0.1373552829 -0.3173629344 0.4380456805 9.641561216e-39
0.2323631048 -0.3584775627 0.2257986069 9.641561216e-39
-0.1229565665 -0.3258871138 -0.1623976976 9.641561216e-39
0.285144031 -0.3645180166 0.2204251736 9.641561216e-39
0.08592611551 -0.4390296936 0.2942331433 9.641561216e-39
-0.1495404541 -0.316789031 -0.1739754975 9.641561216e-39
-0.005746226758 -0.4326796532 -0.003359466791 9.641561216e-39
-0.05019912496 -0.4463317394 0.08004873991 9.825230807e-39
0.1741150618 -0.7165782452 -0.2103225887 9.825230807e-39
0.1848821789 -0.3785006106 0.2222869694 9.825230807e-39
0.08037547767 -0.5571315885 0.01178207994 9.825230807e-39
-0.1229491308 -0.392249018 -0.06939940155 9.825230807e-39
-0.04409395531 -0.4320533872 -0.02331842482 9.825230807e-39
0.2117719799 -0.715705812 -0.2017450184 9.825230807e-39
-0.005055468529 -0.4341782928 0.008021917194 9.825230807e-39
0.1611022353 -0.7158699036 -0.2207693607 1.000925913e-38
0.3646233678 -0.337816 0.1207660139 1.000925913e-38
-0.1372184008 -0.3159986734 -0.1749101132 1.000925913e-38
0.3261244297 -0.7160859108 -0.1532495767 1.000925913e-38
0.04201342165 -0.424705565 0.2417649627 1.000925913e-38
0.3762151897 -0.7421894073 0.06019312143 1.000925913e-38
-0.02247444913 -0.4645032287 0.3067759275 1.000925913e-38
-0.03246263787 -0.4297643304 -0.03563442454 1.000925913e-38
0.3658537269 -0.719709456 -0.1105278209 1.019292872e-38
-0.1790661961 -0.2398086488 -0.2862323523 1.019292872e-38
0.09824816883 -0.438239336 0.2932984829 1.019292872e-38
-0.1700580418 -0.2917040288 -0.2303785235 1.019292872e-38
0.161487028 -0.3892615139 0.2262218595 1.019292872e-38
0.2381967753 -0.5223137736 0.01619791985 1.019292872e-38
0.05561804026 -0.70720613 -0.3271064162 1.019292872e-38
-0.1197677553 -0.3457460701 -0.1468849778 1.019292872e-38
-0.128451407 -0.4078538716 0.3810980618 1.037659831e-38
0.2279470116 -0.5276001692 0.05127672851 1.037659831e-38
0.2863952219 -0.712462306 -0.195971325 1.037659831e-38
0.1343857795 -0.7129546404 -0.2530443072 1.037659831e-38
-0.1033533141 -0.4525501728 0.2571116686 1.037659831e-38
0.3514593542 -0.7160037756 -0.1437374204 1.037659831e-38
0.3932608962 -0.7241233587 -0.06687150896 1.037659831e-38
0.09269753098 -0.5563412309 0.0108474642 1.037659831e-38
0.1857463419 -0.7142891884 -0.2226385772 1.056062664e-38
-0.1125742644 -0.3144179583 -0.1767793447 1.056062664e-38
0.3653141558 -0.3393146694 0.1321474016 1.056062664e-38
-0.04409048334 -0.4597129524 0.395565033 1.056062664e-38
-0.04547548667 -0.4290560484 -0.04608122259 1.056062664e-38
0.3651816249 -0.345497489 0.1114502847 1.056062664e-38
-0.08105670661 -0.4620840549 0.3983688354 1.056062664e-38
0.3911885917 -0.7196273804 -0.1010156721 1.056062664e-38
0.1473986059 -0.713662982 -0.2425975502 1.074429623e-38
-0.1002522111 -0.3136276007 -0.1777139604 1.074429623e-38
0.1980683953 -0.7134988308 -0.2235732079 1.074429623e-38
0.01657955162 -0.7050812244 -0.3584467173 1.074429623e-38
0.3117300868 -0.71238029 -0.1864591688 1.074429623e-38
0.06253102422 -0.4497905374 0.2981680036 1.074429623e-38
-0.1057008207 -0.4636647701 0.4002380967 1.074429623e-38
-0.1719978154 -0.2810252309 -0.2438255697 1.074429623e-38
0.3904978335 -0.7181287408 -0.1123970523 1.092796582e-38
0.1738090813 -0.3884711564 0.2252872437 1.092796582e-38
0.2857044637 -0.7109636068 -0.2073527128 1.092796582e-38
-0.05819161981 -0.4760544598 0.3116454482 1.092796582e-38
0.1023747325 -0.4115735888 0.2350262403 1.092796582e-38
0.03398305178 -0.4363031983 0.03936227784 1.092796582e-38
-0.146648109 -0.4136669636 -0.04831681773 1.092796582e-38
0.1586094797 -0.4251073897 0.2865597606 1.092796582e-38
0.1855909675 -0.4156570137 0.3602290154 1.111163541e-38
0.2402690649 -0.5268098116 0.05034212768 1.111163541e-38
0.3207287192 -0.3591495752 0.1948584914 1.111163541e-38
0.06665758789 -0.42312482 0.2398957312 1.111163541e-38
-0.1067623347 -0.2800925076 -0.2294365019 1.111163541e-38
0.2980265021 -0.7101732492 -0.2082873285 1.111163541e-38
0.01861833781 -0.4354664087 0.2456998378 1.111163541e-38
0.1467078328 -0.7121642828 -0.2539789379 1.111163541e-38
0.4035106301 -0.7188370228 -0.1019502804 1.1295305e-38
0.1387826949 -0.4015210271 0.2415381223 1.1295305e-38
0.2480474412 -0.7118360996 -0.2159302831 1.1295305e-38
0.2810931206 -0.3476346433 0.2313758731 1.1295305e-38
0.2102170438 -0.3784185648 0.2317991257 1.1295305e-38
0.1861311942 -0.387680769 0.224352628 1.1295305e-38
-0.05033163354 -0.4525145888 0.05935162678 1.1295305e-38
-0.1306099743 -0.4776111543 0.3607130051 1.1295305e-38
0.3754127026 -0.7129244208 -0.1569880247 1.147897319e-38
0.3097881973 -0.3629372716 0.2185559422 1.147897319e-38
-0.1600552648 -0.3344410658 -0.180290997 1.147897319e-38
-0.1525999606 -0.3878133297 -0.109355092 1.147897319e-38
0.04216396064 -0.4541804194 0.3890227079 1.147897319e-38
-0.05750085786 -0.4775530994 0.3230268359 1.147897319e-38
0.2350346148 -0.711127758 -0.2263770401 1.147897319e-38
0.2729827166 -0.3915382624 0.1499525756 1.147897319e-38
0.3493870497 -0.7115077972 -0.1778815985 1.166264278e-38
0.170931533 -0.4243170321 0.2856251597 1.166264278e-38
0.4179050624 -0.7225426435 -0.06874074042 1.166264278e-38
0.1271694452 -0.4394677579 0.380414784 1.166264278e-38
-0.1266159117 -0.4571282566 0.2817436457 1.166264278e-38
0.1352143884 -0.4358682334 0.2904946804 1.166264278e-38
-0.05447622016 -0.4435225725 -0.008936738595 1.166264278e-38
0.05448601395 -0.4533900619 0.3880881071 1.166264278e-38
-0.1277606487 -0.409352541 0.3924795091 1.184631237e-38
-0.01976412907 -0.5681763887 0.2530059814 1.184631237e-38
0.3430355191 -0.3654384613 0.1174508184 1.184631237e-38
-0.09377628565 -0.4814228415 0.3372120857 1.184631237e-38
0.3877347708 -0.7121340632 -0.1579226553 1.184631237e-38
-0.1334757209 -0.3387205899 0.4649397731 1.184631237e-38
-0.1758773923 -0.2596676052 -0.2707196772 1.184631237e-38
-0.05406505615 -0.4493887424 0.2533732057 1.184631237e-38
0.2973357141 -0.7086746097 -0.2196687311 1.202998196e-38
-0.1567413509 -0.2817552984 -0.2370794266 1.202998196e-38
0.2736734748 -0.3930369318 0.1613340229 1.202998196e-38
-0.186825335 -0.1970934272 -0.3400205374 1.202998196e-38
-0.1444192827 -0.2809649408 -0.2380140573 1.202998196e-38
-0.05516698584 -0.4420239329 -0.02031815052 1.202998196e-38
0.4151419997 -0.7165480256 -0.1142662838 1.202998196e-38
-0.02122542821 -0.4736833572 0.3088415861 1.202998196e-38
0.171351999 -0.7105835676 -0.2558481693 1.221365155e-38
0.1394914985 -0.4386774004 0.3794801235 1.221365155e-38
0.3356834352 -0.7093008757 -0.1997097731 1.221365155e-38
0.03163115308 -0.4361747205 0.2561466396 1.221365155e-38
-0.01013688184 -0.7021659613 -0.3907217085 1.221365155e-38
-0.03455575928 -0.4592175484 0.1153239906 1.221365155e-38
-0.1354111284 -0.3328603208 -0.1821602285 1.221365155e-38
0.3189496696 -0.3747006655 0.1100043133 1.221365155e-38
-0.004086017609 -0.4477259517 0.2610161304 1.239732115e-38
-0.04174297303 -0.4485983849 0.252438575 1.239732115e-38
-0.03208621219 -0.5689667463 0.2539405823 1.239732115e-38
0.4288455546 -0.7187549472 -0.09243813157 1.239732115e-38
-0.02032238618 -0.5604948997 0.2623217106 1.239732115e-38
0.1836740524 -0.70979321 -0.2567827702 1.239732115e-38
0.003418710083 -0.4721026421 0.3069723845 1.239732115e-38
0.1991440058 -0.3883890808 0.2347994 1.239732115e-38
0.007545273751 -0.4454369247 0.2487000972 1.258099074e-38
0.09949719906 -0.4474194646 0.2953641415 1.258099074e-38
0.3740311563 -0.7099270821 -0.1797508299 1.258099074e-38
0.03796319664 -0.3570299745 -0.2408189476 1.258099074e-38
0.1446355432 -0.7076683044 -0.2881231308 1.258099074e-38
0.09258426726 -0.7048350573 -0.3299102485 1.258099074e-38
0.1634268165 -0.3999403119 0.2396688908 1.258099074e-38
-0.02873015404 -0.4493066967 0.2628853619 1.258099074e-38
0.0151980212 -0.7020839453 -0.3812095523 1.276466033e-38
0.04395321012 -0.4353843629 0.255212009 1.276466033e-38
0.1868399829 -0.4248371422 0.3622946143 1.276466033e-38
0.139340952 -0.4092024863 0.2322223932 1.276466033e-38
-0.160746038 -0.3329423964 -0.1916723847 1.276466033e-38
-0.1391625702 -0.3005013168 0.4452957809 1.276466033e-38
-0.05337429047 -0.4508874118 0.2647545934 1.276466033e-38
0.4439306855 -0.7239592671 -0.04784715176 1.276466033e-38
-0.1359737515 -0.3203602731 0.4608084559 1.294832852e-38
-0.06748560071 -0.4704738259 0.3994998932 1.294832852e-38
0.2582563162 -0.3660769761 0.2259950191 1.294832852e-38
0.4432399273 -0.7224606276 -0.05922853947 1.294832852e-38
0.002185173333 -0.7013756037 -0.3916563392 1.294832852e-38
-0.1793206185 -0.2214701176 -0.294064343 1.294832852e-38
0.4425491691 -0.7209619284 -0.07060997188 1.294832852e-38
-0.1287446618 -0.387806803 0.4318080842 1.294832852e-38
0.3678121865 -0.3576749563 0.1362787038 1.313163938e-38
0.1598585099 -0.4342875183 0.2886254191 1.313163938e-38
-0.1484239399 -0.332152009 -0.1926070005 1.313163938e-38
-0.03216595203 -0.4774710536 0.3325389624 1.313163938e-38
-0.09844493866 -0.330489248 -0.1849640757 1.313163938e-38
0.2765690386 -0.3928487897 0.2275567353 1.313163938e-38
0.3787527084 -0.35388726 0.1125813276 1.313163938e-38
0.063780047 -0.4589706957 0.3002336621 1.313163938e-38
0.3342998028 -0.3675393462 0.1959895343 1.331530897e-38
-0.04491722956 -0.4367375374 -0.05539694801 1.331530897e-38
0.3212890625 -0.7055952549 -0.2329193503 1.331530897e-38
-0.1309776753 -0.3570808768 0.4690710604 1.331530897e-38
0.2742317319 -0.4007184207 0.1520182341 1.331530897e-38
0.02495031618 -0.3563216925 -0.2512657046 1.331530897e-38
-0.1276281476 -0.4031697214 0.4131765962 1.331530897e-38
-0.1407258958 -0.1740730256 -0.3592717052 1.331530897e-38
0.1873802245 -0.3968609273 0.2264182717 1.349897856e-38
0.004800237715 -0.475099951 0.3297351599 1.349897856e-38
0.1516630054 -0.4084121287 0.2312877774 1.349897856e-38
-0.1714395583 -0.2887067199 -0.2531413138 1.349897856e-38
0.258297205 -0.7065496445 -0.2510090768 1.349897856e-38
-0.1341620982 -0.3420404494 -0.1800945699 1.349897856e-38
0.2836321592 -0.7064676285 -0.2414969206 1.349897856e-38
0.006446786225 -0.4657316506 0.3938922286 1.349897856e-38
0.1062685996 -0.5647310019 0.01197850704 1.368228942e-38
-0.1604916155 -0.3512808979 -0.1838404238 1.368228942e-38
0.1692797095 -0.7060875893 -0.2899923623 1.368228942e-38
0.3676796854 -0.3638577461 0.115581587 1.368228942e-38
0.2471832633 -0.376047492 0.2289952934 1.368228942e-38
-0.09239475429 -0.4844201803 0.3599748611 1.368228942e-38
-0.1218400523 -0.3412500918 -0.1810291857 1.368228942e-38
-0.178507939 -0.2474901378 -0.2955480814 1.368228942e-38
0.07610210031 -0.4581803381 0.2992990613 1.386595901e-38
-0.1354037076 -0.3992221653 -0.08916192502 1.386595901e-38
0.3589460552 -0.7047227621 -0.2243418097 1.386595901e-38
0.117209129 -0.5609433055 -0.01171892881 1.386595901e-38
0.3122862577 -0.3812975585 0.2226872295 1.386595901e-38
0.1090316623 -0.5707256794 0.05750410259 1.386595901e-38
0.1042155474 -0.7025460601 -0.3422262669 1.386595901e-38
0.1178998947 -0.5624419451 -0.0003374963999 1.386595901e-38
-0.06775061786 -0.4828394651 0.3581055999 1.404926846e-38
0.02682931162 -0.6997948885 -0.3935255408 1.404926846e-38
-0.1471749246 -0.3413321674 -0.1905413568 1.404926846e-38
0.2199495137 -0.7059234381 -0.27096802 1.404926846e-38
0.3205983043 -0.7040965557 -0.2443007678 1.404926846e-38
-0.1095179692 -0.3404597342 -0.1819638014 1.404926846e-38
0.02875361219 -0.4720205665 0.3164845109 1.404926846e-38
0.1764576584 -0.4363063276 0.376676321 1.404926846e-38
0.3464893401 -0.3729318082 0.1743577868 1.423293806e-38
-0.1682507545 -0.3085656464 -0.2376286238 1.423293806e-38
0.04959448427 -0.3547409773 -0.2531349361 1.423293806e-38
0.2445936203 -0.7043427229 -0.2728372514 1.423293806e-38
-0.1259057671 -0.1916429698 -0.3560750186 1.423293806e-38
0.1425632536 -0.7031723261 -0.3222673237 1.423293806e-38
0.1206629574 -0.5684366226 0.04518805444 1.423293806e-38
-0.1148327366 -0.181672439 -0.359075278 1.423293806e-38
-0.1294934601 -0.4929741025 0.3420815468 1.441624891e-38
0.02944437787 -0.4735192358 0.3278658986 1.441624891e-38
0.3452424705 -0.7025158405 -0.2461699992 1.441624891e-38
0.452798903 -0.7156755924 -0.1056887433 1.441624891e-38
0.1763071269 -0.4068314135 0.229418546 1.441624891e-38
-0.1701905429 -0.2978868783 -0.2510756552 1.441624891e-38
0.1220444888 -0.5714339614 0.06795087457 1.441624891e-38
0.1165376008 -0.7017557025 -0.3431608677 1.441624891e-38
-0.1520417184 -0.3954947889 -0.1186708361 1.459991851e-38
0.4377138019 -0.7104712725 -0.1502797306 1.459991851e-38
0.1809109896 -0.7037985325 -0.3023083806 1.459991851e-38
0.2822506428 -0.7034703493 -0.264259696 1.459991851e-38
-0.1135837138 -0.1908526123 -0.3570096195 1.459991851e-38
-0.02927038446 -0.4772828817 0.3987616897 1.459991851e-38
0.1322942376 -0.5661475658 0.032872051 1.459991851e-38
0.1418532878 -0.5593625307 -0.01358817518 1.459991851e-38
-0.1546722502 -0.3833173513 -0.143499285 1.478322936e-38
0.3575645387 -0.7017254829 -0.247104615 1.478322936e-38
0.06191653758 -0.3539506197 -0.2540695667 1.478322936e-38
-0.06705985218 -0.4843381345 0.3694870472 1.478322936e-38
0.3705773354 -0.7024337649 -0.2366578132 1.478322936e-38
-0.01752282493 -0.1561576575 0.528644979 1.478322936e-38
-0.07855866104 -0.4804443419 0.4025001526 1.478322936e-38
0.2062458694 -0.7037165165 -0.2927961946 1.478322936e-38
0.3098164201 -0.3953500092 0.1264516115 1.496689755e-38
0.2769947648 -0.4067130685 0.1975438297 1.496689755e-38
-0.1498054862 -0.3291546702 -0.2153697908 1.496689755e-38
-0.006618800107 -0.5627018809 0.2841498852 1.496689755e-38
0.2747899592 -0.4083998799 0.1427024901 1.496689755e-38
0.1439255774 -0.5638585687 0.02055604756 1.496689755e-38
0.1872657388 -0.4387014508 0.3322817087 1.496689755e-38
-0.137483418 -0.3283643126 -0.2163044065 1.496689755e-38
0.06448626518 -0.6989225149 -0.3849479854 1.515020841e-38
0.1653846353 -0.4462768137 0.3796765804 1.515020841e-38
0.04295928031 -0.3937505484 -0.2325563431 1.515020841e-38
0.3455335498 -0.3837987483 0.1215821207 1.515020841e-38
0.1541753411 -0.5585721731 -0.01452277601 1.515020841e-38
-0.1288026869 -0.4944727719 0.3534629345 1.515020841e-38
-0.1631221622 -0.3391034007 -0.2086688727 1.515020841e-38
0.2420763373 -0.5436713696 0.04309204221 1.515020841e-38
0.4096158743 -0.7045587301 -0.2053174675 1.533351927e-38
0.2185679823 -0.7029261589 -0.2937308252 1.533351927e-38
0.1555568725 -0.5615695715 0.008240044117 1.533351927e-38
-0.1527324766 -0.3939961493 -0.1300522536 1.533351927e-38
-0.1670017391 -0.3177458048 -0.2355629802 1.533351927e-38
-0.1573028117 -0.3711398542 -0.1683277339 1.533351927e-38
0.3221384585 -0.3945596516 0.1255170107 1.533351927e-38
-0.1760099083 -0.2658504248 -0.2914167941 1.533351927e-38
-0.08893957734 -0.1892718673 -0.3588788509 1.551683013e-38
-0.05534882098 -0.5735448003 0.2785725594 1.551683013e-38
0.2275494933 -0.5461485386 -0.01081468165 1.551683013e-38
-0.1218474433 -0.2748882174 -0.2740274668 1.551683013e-38
0.02001789212 -0.4741214514 0.3950232267 1.551683013e-38
0.2250371575 -0.3959884942 0.2349958271 1.551683013e-38
0.07735112309 -0.4673604667 0.3013646603 1.551683013e-38
0.2841494381 -0.3736763895 0.2261914462 1.551683013e-38
-0.04358499497 -0.5650729537 0.2869537473 1.570049832e-38
-0.1108994931 -0.3374623954 -0.2047265768 1.570049832e-38
0.4219379127 -0.7037683129 -0.2062520832 1.570049832e-38
0.08216845244 -0.4421934187 0.2544738352 1.570049832e-38
0.1419895291 -0.4570376575 0.3836114407 1.570049832e-38
0.2432120889 -0.7013454437 -0.2956000566 1.570049832e-38
-0.1005172282 -0.3259932399 -0.2191082537 1.570049832e-38
0.09379974008 -0.4399043918 0.242157802 1.570049832e-38
0.05547001213 -0.4749358594 0.3487594724 1.588380918e-38
0.07548761368 -0.3623403907 -0.2529385388 1.588380918e-38
-0.1281119287 -0.4959714413 0.3648443222 1.588380918e-38
-0.01683206297 -0.1576563269 0.5400263667 1.588380918e-38
0.3185259998 -0.6996005774 -0.2784449458 1.588380918e-38
0.2931911349 -0.6996825933 -0.2879571021 1.588380918e-38
0.2289310098 -0.549145937 0.01194809377 1.588380918e-38
0.204864338 -0.7007191181 -0.31555897 1.588380918e-38
0.1659248471 -0.4183005989 0.243800208 1.606712004e-38
0.3344605267 -0.3937692642 0.1245823875 1.606712004e-38
0.007563300431 -0.4810946286 0.3752607107 1.606712004e-38
0.2555341423 -0.7005550265 -0.2965346575 1.606712004e-38
0.1808917522 -0.5614874959 0.01775220037 1.606712004e-38
0.1151560694 -0.6987583637 -0.3659236431 1.606712004e-38
-0.09857743979 -0.3366720378 -0.2056611925 1.606712004e-38
-0.1504962444 -0.3276560009 -0.2267511785 1.606712004e-38
0.2405623049 -0.5468568802 -0.0003679096699 1.625043089e-38
0.07873265445 -0.4703577757 0.3241274357 1.625043089e-38
-0.1548089683 -0.226072222 -0.3166307211 1.625043089e-38
-0.1466166675 -0.3490136266 -0.1998570859 1.625043089e-38
-0.03057217412 -0.5657812357 0.2974005342 1.625043089e-38
0.09449050575 -0.4414030612 0.2535392046 1.625043089e-38
0.1822732836 -0.5644848347 0.04051497579 1.625043089e-38
0.06247479469 -0.3616320491 -0.2633852959 1.625043089e-38
-0.1314138621 -0.2153113484 -0.3205655813 1.643374035e-38
0.3819415271 -0.3737462163 0.1280940175 1.643374035e-38
0.04821295291 -0.3517436385 -0.2758977413 1.643374035e-38
0.3178352416 -0.6981018782 -0.2898263335 1.643374035e-38
0.03220743686 -0.4795139134 0.3733915091 1.643374035e-38
0.1925230473 -0.5591984987 0.005436196923 1.643374035e-38
-0.1339119077 -0.1969510615 -0.3246968985 1.643374035e-38
-0.02889740653 -0.5888257027 0.2694532871 1.643374035e-38
-0.1190918088 -0.2145209908 -0.3215001822 1.661705121e-38
-0.1819511652 -0.2092926651 -0.318892777 1.661705121e-38
-0.1599333584 -0.358962357 -0.1931561828 1.661705121e-38
0.01662555151 -0.2395630628 -0.3887364566 1.661705121e-38
0.2139641047 -0.4059590101 0.2379960865 1.661705121e-38
-0.1798894703 -0.244492799 -0.3183108866 1.661705121e-38
-0.1135300472 -0.3252849281 -0.2295550257 1.661705121e-38
0.4075435698 -0.7000626922 -0.2394616604 1.661705121e-38
-0.1233228222 -0.4383916259 0.4100578427 1.680036207e-38
-0.1708781123 -0.1993221492 -0.3218930364 1.680036207e-38
0.3685050607 -0.6979377866 -0.2708019912 1.680036207e-38
0.2316940725 -0.5551405549 0.05747368932 1.680036207e-38
0.01174419653 -0.6945905685 -0.4381165206 1.680036207e-38
-0.08223588765 -0.4174183607 -0.06600628793 1.680036207e-38
-0.1244393289 -0.4230286777 0.428689301 1.680036207e-38
0.1541610509 -0.4267724156 0.2354190797 1.680036207e-38
-0.02802136354 -0.4864630401 0.4008273482 1.698367293e-38
0.05685155094 -0.4779331982 0.3715222478 1.698367293e-38
0.2055359185 -0.5599067807 0.0158829689 1.698367293e-38
-0.1165937707 -0.2328812778 -0.317368865 1.698367293e-38
0.2760389745 -0.4175800383 0.1447681487 1.698367293e-38
-0.02932315134 -0.5749614239 0.2994661927 1.698367293e-38
0.1026860029 -0.4672783911 0.3108768463 1.698367293e-38
0.2164956778 -0.6984301209 -0.3278750181 1.698367293e-38
-0.1249975935 -0.4153472185 0.4380050302 1.716698239e-38
-0.1523109376 -0.2444324791 -0.312499404 1.716698239e-38
-0.1227645651 -0.4460731149 0.4007420838 1.716698239e-38
0.2918096185 -0.6966853142 -0.3107199073 1.716698239e-38
0.1548518091 -0.428271085 0.2468004674 1.716698239e-38
-0.05572044849 -0.1593603343 -0.3678796589 1.716698239e-38
0.4068528116 -0.6985640526 -0.2508430779 1.716698239e-38
-0.1399888843 -0.2436421216 -0.3134340048 1.716698239e-38
0.1892055124 -0.4493802488 0.3457288146 1.735029324e-38
0.4472727776 -0.7036862373 -0.1967399269 1.735029324e-38
-0.05447142571 -0.1685404927 -0.3658140004 1.735029324e-38
0.03326034546 -0.340356499 -0.2997915745 1.735029324e-38
-0.04066120088 -0.5972975492 0.2610721588 1.735029324e-38
0.2440161258 -0.5543501973 0.05653907359 1.735029324e-38
-0.08963169903 -0.4904148281 0.405500412 1.735029324e-38
-0.07730964571 -0.4896244705 0.4045658112 1.735029324e-38
0.2262861729 -0.4051686227 0.2370614707 1.75336041e-38
0.3606187403 -0.3890030682 0.1661731005 1.75336041e-38
0.1781479269 -0.6978038549 -0.3478339612 1.75336041e-38
-0.07930216938 -0.5766242146 0.2918232679 1.75336041e-38
-0.06586359441 -0.5911967754 0.2722570896 1.75336041e-38
-0.1019537598 -0.4912051857 0.4064350128 1.75336041e-38
-0.01863934286 -0.1407946795 0.5472764373 1.75336041e-38
-0.1142758429 -0.491995573 0.4073696733 1.75336041e-38
0.1040675193 -0.4702757299 0.3336396217 1.771655483e-38
-0.05197338387 -0.1869007796 -0.3616826832 1.771655483e-38
0.1898962855 -0.4508789182 0.3571102023 1.771655483e-38
0.126639396 -0.4641990364 0.2976261973 1.771655483e-38
-0.09732842445 -0.3458521664 -0.2035955489 1.771655483e-38
0.1124538407 -0.3599692583 -0.2557423711 1.771655483e-38
0.1581874341 -0.5737470388 0.03306846321 1.771655483e-38
0.04126966 -0.2379823476 -0.3906056881 1.771655483e-38
-0.1142208129 -0.3237862587 -0.2409364432 1.789986569e-38
0.1007617265 -0.695052743 -0.399133265 1.789986569e-38
0.02024746872 -0.3396481872 -0.3102383614 1.789986569e-38
-0.125844717 -0.39243716 -0.1356221139 1.789986569e-38
-0.04220346361 -0.5680702925 0.3097165227 1.789986569e-38
0.2788020372 -0.4235747159 0.1902937442 1.789986569e-38
-0.1510619223 -0.2536126375 -0.3104337454 1.789986569e-38
0.1163895726 -0.4694853723 0.3327050209 1.789986569e-38
-0.1606241316 -0.3574636877 -0.2045375705 1.808317654e-38
0.07410608232 -0.3593430519 -0.2757013142 1.808317654e-38
-0.003988249227 -0.5748793483 0.3089783192 1.808317654e-38
-0.1270980984 -0.3784385026 0.4959651828 1.808317654e-38
0.0851791203 -0.3493725359 -0.2787015736 1.808317654e-38
0.1774571687 -0.6963052154 -0.359215349 1.808317654e-38
-0.08818775415 -0.3915647566 -0.1270445734 1.808317654e-38
-0.09330891818 -0.4273888469 -0.06300602853 1.808317654e-38
0.08287724108 -0.4793497622 0.3924158216 1.826612727e-38
-0.03997044265 -0.5987962484 0.2724535465 1.826612727e-38
-0.1567445546 -0.3788213432 -0.177643463 1.826612727e-38
-0.1209096834 -0.2283635139 -0.3478124142 1.826612727e-38
-0.1243068203 -0.4168458879 0.4493864775 1.826612727e-38
-0.04947534576 -0.2052610517 -0.3575513959 1.826612727e-38
0.1644443572 -0.6955969334 -0.369662106 1.826612727e-38
0.1130837798 -0.6942623854 -0.4000678658 1.826612727e-38
0.1437787861 -0.438241601 0.2498007268 1.844943813e-38
0.21521312 -0.4151391387 0.240061745 1.844943813e-38
0.4054712951 -0.6955667138 -0.2736058235 1.844943813e-38
0.4870020747 -0.7073098421 -0.1540181786 1.844943813e-38
0.1604930907 -0.3476276994 -0.2615464926 1.844943813e-38
0.3480315804 -0.402159065 0.1257134229 1.844943813e-38
0.4184840918 -0.6962749958 -0.2631590664 1.844943813e-38
0.07216630131 -0.3486642241 -0.2891483605 1.844943813e-38
0.3410978913 -0.6935238242 -0.3144583702 1.863274899e-38
-0.01794857718 -0.1422933489 0.5586578846 1.863274899e-38
-0.1085876375 -0.2275731564 -0.348747015 1.863274899e-38
0.1294024587 -0.4701936841 0.3431517482 1.863274899e-38
-0.08098686486 -0.4265984893 -0.06394064426 1.863274899e-38
0.3955125809 -0.3821359873 0.1292250454 1.863274899e-38
0.2904280722 -0.6936879158 -0.3334826827 1.863274899e-38
0.06591376662 -0.2364016175 -0.3924749196 1.863274899e-38
-0.1012005657 -0.3908564448 -0.1374913454 1.881569971e-38
0.4589040875 -0.7013972402 -0.2090559304 1.881569971e-38
0.3027501404 -0.6928975582 -0.3344173133 1.881569971e-38
0.2527710795 -0.694560349 -0.3420602381 1.881569971e-38
0.02149649151 -0.3488283753 -0.3081727028 1.881569971e-38
0.2445743829 -0.5620316267 0.04722334445 1.881569971e-38
0.1351581663 -0.347709775 -0.2710586488 1.881569971e-38
0.2779788077 -0.4282588661 0.15821518 1.881569971e-38
-0.1498128921 -0.2627927959 -0.3083680868 1.899901057e-38
-0.02982728742 -0.1669597626 -0.3676832318 1.899901057e-38
0.2772880197 -0.4267601967 0.1468338072 1.899901057e-38
0.3734990358 -0.3958941996 0.1559227556 1.899901057e-38
0.2786695659 -0.4297575355 0.1695966274 1.899901057e-38
0.07544231415 -0.4259120822 0.444145143 1.899901057e-38
0.1677321345 -0.4351622164 0.2365501225 1.899901057e-38
0.2808743417 -0.4280706942 0.224437952 1.899901057e-38
-0.1528649777 -0.4001789689 -0.1507493705 1.91819627e-38
0.4582133293 -0.6998986006 -0.2204373181 1.91819627e-38
-0.1025895253 -0.3214972317 -0.2532524467 1.91819627e-38
-0.1247325689 -0.4029815793 0.4793993235 1.91819627e-38
0.098750256 -0.3577623367 -0.2775705457 1.91819627e-38
-0.1258490831 -0.3876186311 0.4980308414 1.91819627e-38
0.04808044434 -0.3579264283 -0.296594888 1.91819627e-38
0.03569757193 -0.6915112138 -0.4513671398 1.91819627e-38
-0.01351075061 -0.1713324636 0.576236248 1.936527215e-38
0.07823587954 -0.2356112599 -0.3934095204 1.936527215e-38
0.3516179323 -0.4034695625 0.203317523 1.936527215e-38
0.2815651 -0.4295693636 0.2358193398 1.936527215e-38
0.1098232791 -0.3477918208 -0.2805708051 1.936527215e-38
0.1649871022 -0.4648252428 0.3175851703 1.936527215e-38
0.2390674949 -0.6923534274 -0.3638884127 1.936527215e-38
0.1684228927 -0.4366608858 0.2479314953 1.936527215e-38
-0.1651944518 -0.3346074224 -0.2428130656 1.954822428e-38
-0.02639936842 -0.6071859598 0.2735845447 1.954822428e-38
0.1000864506 -0.424331367 0.4422759116 1.954822428e-38
0.2398572564 -0.4135584235 0.2381925136 1.954822428e-38
-0.1574353129 -0.3773226738 -0.1890248805 1.954822428e-38
0.3216738999 -0.3789868057 0.2140718699 1.954822428e-38
0.1630628258 -0.692599535 -0.3924249113 1.954822428e-38
-0.1593751013 -0.366643846 -0.2024719268 1.954822428e-38
0.08573736995 -0.3570539951 -0.2880173326 1.973153514e-38
0.1800541878 -0.4343718588 0.2356155068 1.973153514e-38
-0.01226172782 -0.180512622 0.5783019066 1.973153514e-38
0.1221453324 -0.3470014334 -0.2815054357 1.973153514e-38
0.2755744457 -0.4020071924 0.2333230078 1.973153514e-38
0.1721243858 -0.3453386724 -0.2738624811 1.973153514e-38
0.1663686335 -0.4678225815 0.3403479457 1.973153514e-38
0.1883976907 -0.692517519 -0.382912755 1.973153514e-38
-0.08956927806 -0.3885674179 -0.1498073637 1.991448586e-38
0.2260546833 -0.6916451454 -0.3743351698 1.991448586e-38
-0.05104350299 -0.608766675 0.2754538059 1.991448586e-38
0.04801962525 -0.6907208562 -0.4523017704 1.991448586e-38
-0.01500719227 -0.1845296919 -0.3644865453 1.991448586e-38
-0.01101270504 -0.1896927506 0.5803675652 1.991448586e-38
0.4979425967 -0.7035221457 -0.1777155995 1.991448586e-38
0.4334826469 -0.242143929 -0.2695549428 1.991448586e-38
0.3780640662 -0.6911527514 -0.3172622025 2.009743799e-38
-0.07568761706 -0.6103473902 0.2773230076 2.009743799e-38
0.4236586094 -0.2612945735 -0.2644890249 2.009743799e-38
-0.1710138172 -0.3025709987 -0.2831541896 2.009743799e-38
0.156809628 -0.4746075869 0.386808157 2.009743799e-38
0.1923763007 -0.4335815012 0.234680891 2.009743799e-38
0.1623720527 -0.6911008954 -0.4038063288 2.009743799e-38
-0.1279244274 -0.3215793073 -0.2627645731 2.009743799e-38
0.1357164085 -0.3553912342 -0.2803744078 2.028074885e-38
-0.05314402282 -0.5718579888 0.3334138989 2.028074885e-38
-0.1073386148 -0.2367533147 -0.3466813564 2.028074885e-38
-0.009205428883 -0.2065543681 0.5731173754 2.028074885e-38
0.1896312684 -0.4632445276 0.315715909 2.028074885e-38
0.2890465558 -0.6906906366 -0.3562454879 2.028074885e-38
-0.0772298798 -0.581120193 0.3259674311 2.028074885e-38
-0.1246000603 -0.3967987895 0.5000964999 2.028074885e-38
0.4972518086 -0.7020235062 -0.1890969723 2.046369957e-38
0.0707847774 -0.3456669152 -0.3119111657 2.046369957e-38
-0.005183180794 -0.1653790474 -0.3695524633 2.046369957e-38
0.08845516294 -0.4266204238 0.4545919001 2.046369957e-38
0.03118805401 -0.3358604908 -0.3339357674 2.046369957e-38
-0.1729536057 -0.2918922007 -0.2966012359 2.046369957e-38
0.4698446393 -0.6976095438 -0.2327533364 2.046369957e-38
-0.1234835535 -0.4121617079 0.481464982 2.046369957e-38
0.1480384618 -0.3546008468 -0.2813090086 2.06466517e-38
0.1930670589 -0.4350801706 0.2460622638 2.06466517e-38
-0.1532519162 -0.3880231977 -0.179278478 2.06466517e-38
0.08504660428 -0.3555553555 -0.2993987203 2.06466517e-38
0.1967684925 -0.3437579572 -0.2757317126 2.06466517e-38
-0.01548703108 -0.5709855556 0.3419914842 2.06466517e-38
0.08901342005 -0.4343019128 0.445276171 2.06466517e-38
0.1910127997 -0.4662418664 0.3384786844 2.06466517e-38
-0.1305475533 -0.3757637143 -0.1945947409 2.082996116e-38
0.1214545742 -0.3455027938 -0.2928868234 2.082996116e-38
0.301368624 -0.689900279 -0.3571801186 2.082996116e-38
0.146981895 -0.5899003744 0.01537162066 2.082996116e-38
-0.03803065419 -0.6094750166 0.2859005928 2.082996116e-38
0.2995277643 -0.3989278078 0.2200724036 2.082996116e-38
0.1240243018 -0.690474689 -0.4237652421 2.082996116e-38
0.09868943691 -0.6905567646 -0.4332774282 2.082996116e-38
0.4417466521 -0.6916969419 -0.2877910733 2.101291328e-38
0.174694106 -0.6903105378 -0.4047409296 2.101291328e-38
-0.1748933941 -0.2812133729 -0.3100482821 2.101291328e-38
0.02011496387 -0.3458310366 -0.3309354782 2.101291328e-38
0.1337766349 -0.3447124362 -0.2938214242 2.101291328e-38
0.3689841628 -0.312645793 -0.2381062806 2.101291328e-38
0.4359806776 -0.260504216 -0.2654236555 2.101291328e-38
0.2376859635 -0.6893560886 -0.3866512179 2.101291328e-38
0.1497449577 -0.595895052 0.0608972162 2.119586541e-38
0.4691538811 -0.6961108446 -0.2441347241 2.119586541e-38
-0.1800219864 -0.2506756186 -0.3390080333 2.119586541e-38
0.08310683072 -0.3448765278 -0.3128457665 2.119586541e-38
-0.1676999331 -0.2498852611 -0.3399426341 2.119586541e-38
0.01817517541 -0.3351522088 -0.3443825245 2.119586541e-38
0.3870701194 -0.4042839706 0.1570537835 2.119586541e-38
0.2053891122 -0.434289813 0.245127663 2.119586541e-38
0.3793664277 -0.3011766076 -0.2524879575 2.137881613e-38
0.3973198533 -0.3989976048 0.12197496 2.137881613e-38
0.1709352434 -0.58682096 0.002121001482 2.137881613e-38
-0.1032728627 -0.3863604367 -0.1716355532 2.137881613e-38
0.2828141451 -0.438749522 0.2378849834 2.137881613e-38
-0.1542465091 -0.3971816301 -0.1735121608 2.137881613e-38
0.1084417477 -0.3447945118 -0.3033336103 2.137881613e-38
0.05221018195 -0.2341946661 -0.4143030941 2.137881613e-38
0.1613762379 -0.5936059952 0.04858115315 2.156176826e-38
0.2060798854 -0.4357884824 0.2565090656 2.156176826e-38
0.0343160443 -0.688513875 -0.4741299152 2.156176826e-38
-0.1226707175 -0.2795723379 -0.3061060309 2.156176826e-38
0.05965091288 -0.688431859 -0.464617759 2.156176826e-38
0.1707428545 -0.3423413336 -0.2966252863 2.156176826e-38
0.2177111655 -0.4334994555 0.2441930473 2.156176826e-38
-0.136359483 -0.4100891352 -0.1419375986 2.156176826e-38
0.120763801 -0.3440041244 -0.3042682409 2.174471899e-38
-0.09358135611 -0.3733926117 -0.1973985881 2.174471899e-38
-0.03465522081 -0.222830981 -0.3543547094 2.174471899e-38
0.04475913197 -0.3442502916 -0.3328047097 2.174471899e-38
-0.04966197163 -0.6117640734 0.2982166409 2.174471899e-38
0.04663809761 -0.6877235174 -0.4750645459 2.174471899e-38
-0.01635376364 -0.6886780262 -0.4931542575 2.174471899e-38
-0.1039636284 -0.3848617673 -0.183016941 2.174471899e-38
-0.1039710566 -0.3184999228 -0.2760152221 2.192767111e-38
-0.02586932667 -0.582454741 0.3563731313 2.192767111e-38
0.3155032694 -0.4335692227 0.1460956037 2.192767111e-38
0.07685434818 -0.2326139361 -0.4161723256 2.192767111e-38
0.3129999042 -0.6876112223 -0.3694961071 2.192767111e-38
-0.1588168442 -0.3743253648 -0.2117876559 2.192767111e-38
-0.1493723392 -0.4093808234 -0.1523843706 2.192767111e-38
-0.09376750886 -0.2451430857 -0.3455503285 2.192767111e-38
0.1454079151 -0.3424234092 -0.3061374426 2.211062324e-38
0.1077509895 -0.3432958126 -0.314714998 2.211062324e-38
0.3506568968 -0.6867388487 -0.3609185815 2.211062324e-38
0.5081923604 -0.6982358098 -0.2127943933 2.211062324e-38
0.07197296619 -0.6876415014 -0.4655523896 2.211062324e-38
-0.1549372822 -0.3956829607 -0.1848935783 2.211062324e-38
0.1983423978 -0.5912349224 0.04577732086 2.211062324e-38
-0.1143459305 -0.3963309228 -0.1686352789 2.211062324e-38
-0.1117153764 -0.40850842 -0.14380683 2.229357396e-38
0.04600815475 -0.3534304202 -0.3307390809 2.229357396e-38
0.2583788037 -0.3398061395 -0.2804047763 2.229357396e-38
0.1143483222 -0.4342198372 0.4547883272 2.229357396e-38
0.2921081185 -0.444330126 0.1500304937 2.229357396e-38
-0.02233316563 -0.2220406234 -0.3552893102 2.229357396e-38
0.05896015093 -0.6869331598 -0.4759991467 2.229357396e-38
0.1009097323 -0.4196472168 0.4743544459 2.229357396e-38
-0.1546334326 -0.3850258887 -0.2020412683 2.247652609e-38
0.3883191347 -0.4134640992 0.1591194421 2.247652609e-38
0.0003170687705 -0.610101223 0.3058595657 2.247652609e-38
0.294180423 -0.4488261342 0.1841747016 2.247652609e-38
0.377378583 -0.4172517955 0.1828168184 2.247652609e-38
0.5075016022 -0.6967371702 -0.224175781 2.247652609e-38
0.2330439389 -0.3398882151 -0.2899169624 2.247652609e-38
0.4937979877 -0.6945301294 -0.2460039556 2.247652609e-38
0.2840631604 -0.4479296505 0.239950642 2.265947681e-38
0.2780724764 -0.4203674793 0.2374543101 2.265947681e-38
0.1966359764 -0.349940747 -0.2964288592 2.265947681e-38
-0.1662721485 -0.3209530711 -0.282723546 2.265947681e-38
-0.1583878994 -0.291123569 -0.3012365103 2.265947681e-38
0.3376440704 -0.6860305071 -0.3713653386 2.265947681e-38
-0.1247281954 -0.4078001082 -0.154253602 2.265947681e-38
-0.06912340224 -0.2435623705 -0.34741956 2.265947681e-38
0.4657000601 -0.6886175871 -0.3010417223 2.284242894e-38
0.3992596269 -0.4096764028 0.1354219913 2.284242894e-38
0.1323951036 -0.3417150974 -0.3165842295 2.284242894e-38
0.2948711812 -0.4503248036 0.1955560893 2.284242894e-38
0.3401473761 -0.4319885075 0.1442263722 2.284242894e-38
0.07065226138 -0.351849705 -0.3326082826 2.284242894e-38
0.520514369 -0.6974453926 -0.2137289941 2.284242894e-38
0.02445707098 -0.2005188763 -0.3631590903 2.284242894e-38
0.1226427704 -0.6874773502 -0.4465280473 2.302537966e-38
-0.07361532748 -0.6148433685 0.3114672303 2.302537966e-38
0.1479777098 -0.6873953342 -0.4370158911 2.302537966e-38
0.3751738071 -0.418938607 0.1279754937 2.302537966e-38
0.3305883706 -0.4387735426 0.1906865835 2.302537966e-38
0.2089580297 -0.3491503894 -0.2973634601 2.302537966e-38
-0.01001111232 -0.2212502658 -0.3562239408 2.302537966e-38
0.2576880455 -0.3383074701 -0.2917861938 2.302537966e-38
