# .PCD v0.7 - Point Cloud Data file format
VERSION 0.7
FIELDS x y z rgb
SIZE 4 4 4 4
TYPE F F F F
COUNT 1 1 1 1
WIDTH 834
HEIGHT 1
VIEWPOINT 0 0 0 1 0 0 0
POINTS 834
DATA ascii
-0.2063979059 -0.2511261404 0.1819366366 5.409984573e-39
0.04918985069 -0.4325699806 0.07346782833 5.409984573e-39
-0.1819155812 -0.3497053087 0.458193481 5.409984573e-39
0.06057392806 -0.235806495 -0.2253680974 5.409984573e-39
-0.1618482918 -0.3639347255 0.3053206205 5.594012897e-39
0.08873836696 -0.4347296953 -0.2937326431 5.594012897e-39
-0.1173820496 -0.4166327417 0.3149755597 5.594012897e-39
0.01021059044 -0.3223400712 -0.2020098269 5.594012897e-39
-0.2126727402 -0.2438797355 0.05884125084 5.594012897e-39
-0.01586007886 -0.2221807837 -0.2239148915 5.594012897e-39
0.03467933089 -0.2282055914 -0.2255758047 5.594012897e-39
-0.1698646545 -0.427600652 0.50894171 5.594012897e-39
0.09695637226 -0.424983412 -0.3629424572 5.77804122e-39
-0.2117521316 -0.2329908609 0.1115848646 5.77804122e-39
-0.1846867204 -0.4100346565 0.5057234168 5.77804122e-39
-0.2100547701 -0.2560428679 0.08367608488 5.77804122e-39
-0.1046164855 -0.209343195 -0.2215273827 5.77804122e-39
-0.2221405953 -0.2444490194 0.1259747148 5.77804122e-39
0.1487456262 -0.4401852489 -0.3625270724 5.77804122e-39
0.03485540301 -0.3207639456 -0.2038784325 5.77804122e-39
0.2284401208 -0.3731822371 -0.2033588439 5.962428276e-39
0.03370198235 -0.07431975007 -0.05855290592 5.962428276e-39
0.09225134552 -0.474642694 -0.3288681209 5.962428276e-39
-0.2053938955 -0.3003478646 0.3484093547 5.962428276e-39
0.03438604251 -0.07581278682 -0.04717367142 5.962428276e-39
-0.1422028691 -0.3256504834 0.2951468229 5.962428276e-39
-0.2084500939 -0.2466470301 0.1477989405 5.962428276e-39
-0.2119886875 -0.2453727722 0.07022048533 5.962428276e-39
-0.2005961835 -0.2831363678 0.222303316 6.1464566e-39
-0.2228246629 -0.2429559529 0.1145954803 6.1464566e-39
0.02311915904 -0.332410723 0.05156276375 6.1464566e-39
-0.01380358078 -0.4470363557 0.3158063293 6.1464566e-39
-0.2144883722 -0.2270186841 0.06606786698 6.1464566e-39
0.006950146984 -0.4029687643 -0.3626312613 6.1464566e-39
-0.143452704 -0.3164734542 0.2930704951 6.1464566e-39
0.1032055914 -0.4708685577 -0.3525609374 6.1464566e-39
-0.2113139033 -0.2745285928 0.2873604894 6.330484923e-39
-0.2091341466 -0.2451539934 0.1364196986 6.330484923e-39
-0.1787318438 -0.3695523739 0.4737253189 6.330484923e-39
0.06876377016 -0.4529480934 -0.2328915149 6.330484923e-39
-0.1878704578 -0.3901875317 0.4901914597 6.330484923e-39
-0.2076570243 -0.2696118951 0.3856210709 6.330484923e-39
0.1092787981 -0.4241953492 -0.36387676 6.330484923e-39
0.06984851509 -0.4158446789 0.0240059495 6.330484923e-39
-0.1742982268 -0.398576498 0.4913334846 6.514514648e-39
-0.1891203076 -0.3810105026 0.4881151915 6.514514648e-39
-0.177481994 -0.378729403 0.4758016467 6.514514648e-39
-0.07997170091 -0.2077670693 -0.2233959883 6.514514648e-39
0.09385602176 -0.4652469158 -0.2647452652 6.514514648e-39
-0.1186318994 -0.4074556828 0.3128992319 6.514514648e-39
-0.2202066928 -0.2551190853 0.1394303143 6.514514648e-39
-0.05327042937 -0.4310464561 0.3144566417 6.514514648e-39
0.1482565403 -0.3320254683 -0.2081345469 6.698542971e-39
0.02868431993 -0.3768028319 0.0505650565 6.698542971e-39
-0.1805474609 -0.3526913822 0.4809519649 6.698542971e-39
-0.2098182142 -0.2436609566 0.1250404119 6.698542971e-39
0.1000408158 -0.2517963648 -0.2240183949 6.698542971e-39
0.04670841992 -0.07502472401 -0.04810797423 6.698542971e-39
-0.1975051016 -0.2705356777 0.3298668861 6.698542971e-39
0.0936909914 -0.4189664423 -0.009924084879 6.698542971e-39
0.04602435976 -0.07353168726 -0.05948720872 6.882571295e-39
-0.1705972105 -0.2996954918 0.2907865047 6.882571295e-39
-0.2007237524 -0.3169900775 0.4073818326 6.882571295e-39
-0.1890854239 -0.3147089779 0.3950683475 6.882571295e-39
-0.1397031844 -0.3440045416 0.2992994189 6.882571295e-39
0.02743447572 -0.3676258028 0.0484887585 6.882571295e-39
0.08108614385 -0.4521600008 -0.2338258177 6.882571295e-39
-0.01894447766 -0.3953678608 -0.3628389537 6.882571295e-39
-0.2077752948 -0.2758028507 0.3649389148 7.066599618e-39
0.04342824221 -0.2924448252 -0.2110416591 7.066599618e-39
-0.1716802716 -0.4107396305 0.5161682963 7.066599618e-39
-0.2059504092 -0.2650010884 0.1519515514 7.066599618e-39
-0.0812215507 -0.1985900104 -0.2254723012 7.066599618e-39
-0.1902518719 -0.3656425476 0.5067210793 7.066599618e-39
-0.2069729716 -0.2711049318 0.3970003128 7.066599618e-39
0.0928171277 -0.4823266864 -0.3381710649 7.066599618e-39
-0.2051480711 -0.2603031695 0.1840129495 7.250627941e-39
-0.1786135584 -0.363361448 0.4944075346 7.250627941e-39
0.04516718164 -0.4097816348 -0.363357842 7.250627941e-39
0.07053257525 -0.4173377156 0.03538518399 7.250627941e-39
-0.2065161914 -0.257317096 0.1612544805 7.250627941e-39
-0.1298805028 -0.3248624206 0.2942125201 7.250627941e-39
-0.1953346431 -0.2688238323 0.3846867681 7.250627941e-39
0.02630290762 -0.352257818 0.06709460914 7.250627941e-39
-0.2085683793 -0.2528379858 0.1271167099 7.434656265e-39
0.01763004437 -0.04757672548 -0.06384752691 7.434656265e-39
-0.1773637235 -0.3725384772 0.4964838624 7.434656265e-39
-0.2086959183 -0.2866917253 0.3121953011 7.434656265e-39
0.0238032192 -0.3339037597 0.06294199824 7.434656265e-39
0.09522414953 -0.4682329893 -0.2419867665 7.434656265e-39
0.1044554412 -0.4800456166 -0.3504846096 7.434656265e-39
-0.2080118656 -0.288184762 0.323574543 7.434656265e-39
-0.02862564847 -0.4294703305 0.3125880361 7.618684588e-39
0.05834673718 -0.07274362445 -0.06042151153 7.618684588e-39
0.09521749616 -0.3076466024 -0.2106262594 7.618684588e-39
0.07135317475 -0.07344861329 -0.04997657984 7.618684588e-39
-0.1969393343 -0.2782196701 0.3205639124 7.618684588e-39
-0.1983074546 -0.2752335668 0.2978054285 7.618684588e-39
-0.206288904 -0.2725979686 0.4083795547 7.618684588e-39
-0.1791793406 -0.3556774557 0.5037105083 7.618684588e-39
-0.1954529136 -0.2750147879 0.364004612 7.802712912e-39
-0.1927515566 -0.3472884893 0.5025684834 7.802712912e-39
0.05002707243 -0.3615705669 0.01248241216 7.802712912e-39
-0.1211315915 -0.3891016245 0.3087466359 7.802712912e-39
-0.1372034848 -0.3623585999 0.3034520149 7.802712912e-39
-0.05782660842 -0.1878368855 -0.2294172049 7.802712912e-39
0.1334344596 -0.3144594729 -0.211352855 7.802712912e-39
0.02936838008 -0.3782958686 0.061944291 7.802712912e-39
0.05127691478 -0.370747596 0.01455871761 7.986382503e-39
-0.03068214096 -0.2046148181 -0.2271331996 7.986382503e-39
0.1221858785 -0.2318661809 -0.2300396264 7.986382503e-39
-0.1273808181 -0.3432164788 0.2983651161 7.986382503e-39
0.04477450997 -0.06435464323 -0.06156352162 7.986382503e-39
0.09578993171 -0.4759169221 -0.2512896955 7.986382503e-39
0.09146796167 -0.280115515 -0.2168551832 7.986382503e-39
0.08299155533 -0.07116751373 -0.06229011714 7.986382503e-39
0.09602648765 -0.4635350704 -0.2099253535 8.170410826e-39
0.1370079368 -0.2494322062 -0.2268213034 8.170410826e-39
-0.04550423473 -0.1870488226 -0.2303515077 8.170410826e-39
-0.2065254599 -0.2849798799 0.3670152426 8.170410826e-39
-0.2056048512 -0.2740910053 0.4197588563 8.170410826e-39
-0.1175580844 -0.3240743577 0.2932782173 8.170410826e-39
0.0410249792 -0.03682357073 -0.06779244542 8.170410826e-39
-0.1223814338 -0.3799245954 0.3066703081 8.170410826e-39
0.01802267879 -0.3930036724 -0.3656418622 8.35443915e-39
0.1876467317 -0.4484911263 -0.3518744111 8.35443915e-39
0.08924365789 -0.5473539829 -0.3227025867 8.35443915e-39
0.2395126373 -0.3632171452 -0.2063694596 8.35443915e-39
0.09629127383 -0.2242652774 -0.2302473187 8.35443915e-39
0.1037903503 -0.2793274522 -0.2177894861 8.35443915e-39
0.03294187039 -0.3132686019 0.04647585005 8.35443915e-39
-0.1970576048 -0.2844106257 0.2998816967 8.35443915e-39
0.09647399187 -0.4774100184 -0.2399104536 8.538467473e-39
0.2259404212 -0.3548281789 -0.2075114548 8.538467473e-39
0.0300524421 -0.3797889054 0.07332352549 8.538467473e-39
0.03975687921 -0.3668377399 0.04755444825 8.538467473e-39
0.1173625663 -0.2877164483 -0.216647476 8.538467473e-39
0.2123681605 -0.3464392126 -0.2086534649 8.538467473e-39
0.04391733184 -0.4006045759 -0.3654341698 8.538467473e-39
-0.2059596777 -0.2926638722 0.3577122688 8.538467473e-39
0.03342948854 -0.2190285623 -0.2276521027 8.722137064e-39
0.1987959296 -0.3380502462 -0.2097954601 8.722137064e-39
0.1414226294 -0.4776813984 -0.353287518 8.722137064e-39
-0.1323801875 -0.3065083623 0.2900598645 8.722137064e-39
0.06291522831 -0.3684664667 0.002245152369 8.722137064e-39
-0.1932824701 -0.2733029425 0.4188245535 8.722137064e-39
0.07386948913 -0.3646923304 -0.02144762315 8.722137064e-39
0.0288025979 -0.3706118762 0.07124722749 8.722137064e-39
-0.194685474 -0.3366184235 0.4891129136 8.906165387e-39
-0.2019735873 -0.3078130484 0.4053055644 8.906165387e-39
0.12968494 -0.2869283855 -0.2175817788 8.906165387e-39
-0.1942030787 -0.284191817 0.3660809398 8.906165387e-39
0.1967853457 -0.4278559685 -0.3683405817 8.906165387e-39
0.1090329289 -0.4642400146 -0.1994803846 8.906165387e-39
0.1284350902 -0.2777513266 -0.2196580917 8.906165387e-39
-0.1903352588 -0.3055319488 0.3929920197 8.906165387e-39
0.143257156 -0.2953173518 -0.2164397836 9.089834978e-39
-0.09989987314 -0.7283582687 -0.2355015278 9.089834978e-39
-0.204236716 -0.2770771086 0.4425173402 9.089834978e-39
-0.1238606125 -0.7314274311 -0.2222536802 9.089834978e-39
0.1995215863 -0.4338281155 -0.3228235841 9.089834978e-39
0.2518350482 -0.3624290824 -0.2073037624 9.089834978e-39
0.1616527438 -0.2478560805 -0.2286899239 9.089834978e-39
0.0858489573 -0.5012500286 -0.2668849826 9.089834978e-39
-0.1863491833 -0.3206811547 0.4405853152 9.273863302e-39
-0.1925984025 -0.2747959793 0.4302037954 9.273863302e-39
-0.1094860435 -0.7351184487 -0.1890502423 9.273863302e-39
0.160402894 -0.2386790514 -0.2307662219 9.273863302e-39
0.1852653027 -0.4239460826 -0.335344851 9.273863302e-39
0.2110416293 -0.4377379715 -0.3558193147 9.273863302e-39
0.05459720269 -0.04521255195 -0.06665043533 9.273863302e-39
0.09692149609 -0.4912849665 -0.2698955834 9.273863302e-39
0.03362593427 -0.3147616386 0.05785508454 9.457532893e-39
0.1420073211 -0.2861403227 -0.2185160816 9.457532893e-39
0.04169078171 -0.3775078058 0.06100998819 9.457532893e-39
0.2111183107 -0.3372621834 -0.2107297629 9.457532893e-39
0.1004344746 -0.5311979651 -0.3050310612 9.457532893e-39
0.05026362836 -0.3491886556 0.05384676903 9.457532893e-39
0.211725682 -0.4392310083 -0.3444401026 9.457532893e-39
-0.1368670315 -0.7307224274 -0.2326986045 9.457532893e-39
-0.1522016376 -0.2522342205 0.2785363197 9.641561216e-39
0.1704016477 -0.3120952845 -0.2141557783 9.641561216e-39
0.08619192243 -0.3639042675 -0.02238192596 9.641561216e-39
0.1145724654 -0.5472708941 -0.3131919503 9.641561216e-39
0.0822891742 -0.4088656604 0.04375384003 9.641561216e-39
-0.03623575717 -0.7288970947 -0.2060353011 9.641561216e-39
0.09221646935 -0.5409442186 -0.2358212471 9.641561216e-39
0.08555462211 -0.4148826301 -0.3092645407 9.641561216e-39
-0.1856651157 -0.3221741915 0.4519645572 9.825230807e-39
-0.1348148584 -0.7352015376 -0.1985608786 9.825230807e-39
0.1159405932 -0.5502569675 -0.2904334664 9.825230807e-39
0.1660673767 -0.4761052728 -0.3551561236 9.825230807e-39
0.02005368657 -0.3063726723 0.0567130819 9.825230807e-39
0.09986869246 -0.5235139132 -0.2957280874 9.825230807e-39
0.09028255194 -0.5302741528 -0.2492768168 9.825230807e-39
-0.1919143349 -0.2762890458 0.4415830374 9.825230807e-39
-0.02322932333 -0.7296020389 -0.195590362 1.000925913e-38
-0.02459744364 -0.7266159654 -0.2183488607 1.000925913e-38
0.2130938023 -0.4422171116 -0.3216815889 1.000925913e-38
0.08778286725 -0.5119200945 -0.2534294426 1.000925913e-38
0.1044205576 -0.5463470817 -0.2574377656 1.000925913e-38
-0.1259128004 -0.7269482613 -0.2563914061 1.000925913e-38
0.09873712808 -0.508145988 -0.2771221995 1.000925913e-38
0.1024866551 -0.5356770754 -0.2708932757 1.000925913e-38
0.2125280201 -0.4345331192 -0.3123786449 1.019292872e-38
0.1328497827 -0.5060005784 -0.3461242914 1.019292872e-38
-0.1920326203 -0.2824800014 0.4209008813 1.019292872e-38
0.1691518128 -0.3029182553 -0.2162320763 1.019292872e-38
0.154329747 -0.2853522599 -0.2194503844 1.019292872e-38
-0.02254525945 -0.7310950756 -0.1842111051 1.019292872e-38
0.09998697042 -0.5173229575 -0.2750459015 1.019292872e-38
-0.2037892193 -0.2909520566 0.4125321507 1.019292872e-38
0.1242769361 -0.5343196988 -0.3389610648 1.037659831e-38
-0.03418357298 -0.7333761454 -0.1718975604 1.037659831e-38
0.2226799428 -0.435456872 -0.3681328893 1.037659831e-38
-0.1889671385 -0.3085180521 0.4157505035 1.037659831e-38
0.06371757388 -0.3637685776 0.03430660814 1.037659831e-38
0.2233640105 -0.4369499087 -0.3567536175 1.037659831e-38
0.09840789437 -0.4880800843 -0.2264548987 1.037659831e-38
0.1714754403 -0.2287139297 -0.2337768376 1.037659831e-38
0.001415457577 -0.7280259132 -0.1974589676 1.056062664e-38
0.1019208729 -0.5279930234 -0.2615903616 1.056062664e-38
0.04844799638 -0.3323276341 0.06107339263 1.056062664e-38
-0.184981063 -0.3236672282 0.4633437991 1.056062664e-38
0.0685620904 -0.3990284503 -0.3673027754 1.056062664e-38
0.1173087135 -0.553243041 -0.2676749825 1.056062664e-38
-0.1912302822 -0.2777820826 0.4529622793 1.056062664e-38
0.1006710306 -0.5188159943 -0.2636666596 1.056062664e-38
0.08756004274 -0.366890341 0.0003765467554 1.074429623e-38
-0.1156518757 -0.7493438721 -0.08570273966 1.074429623e-38
0.2227982134 -0.4292659163 -0.3474506736 1.074429623e-38
0.04719815403 -0.323150605 0.05899708718 1.074429623e-38
0.1340996325 -0.5151775479 -0.3440480232 1.074429623e-38
0.1894623488 -0.4653521478 -0.3591010571 1.074429623e-38
0.1179927737 -0.5547360778 -0.2562957406 1.074429623e-38
0.09794851393 -0.3554322124 -0.01401329786 1.074429623e-38
0.07172463089 -0.327765435 0.03644631431 1.092796582e-38
-0.08142095804 -0.7410075665 -0.1340226233 1.092796582e-38
-0.102645427 -0.7500488758 -0.07525774837 1.092796582e-38
-0.01432722434 -0.7213487625 -0.2534208894 1.092796582e-38
-0.09100708365 -0.7477678061 -0.08757135272 1.092796582e-38
0.2138961405 -0.4375191927 -0.2896201611 1.092796582e-38
0.1814741939 -0.3021301925 -0.2171663791 1.092796582e-38
0.2078578621 -0.4178908467 -0.3713511825 1.092796582e-38
0.06258600205 -0.3484005928 0.05291246623 1.111163541e-38
-0.05197847262 -0.722219944 -0.2619972229 1.111163541e-38
-0.09032301605 -0.7492607832 -0.07619206607 1.111163541e-38
0.1101526096 -0.3608351052 -0.035629794 1.111163541e-38
-0.1129156351 -0.7553160191 -0.04018573463 1.111163541e-38
0.01860742457 -0.2014625669 -0.2308704108 1.111163541e-38
0.1108366698 -0.3623281419 -0.02425052971 1.111163541e-38
-0.07809124887 -0.3400642276 0.2946279049 1.111163541e-38
-0.1509517729 -0.2614112794 0.2806126475 1.1295305e-38
0.002783581614 -0.7310119867 -0.1747004688 1.1295305e-38
0.1501715332 -0.5419206023 -0.3387534022 1.1295305e-38
0.1464219987 -0.5143895149 -0.344982326 1.1295305e-38
-0.02733368799 -0.7206437588 -0.2638658285 1.1295305e-38
0.09965774417 -0.4972571135 -0.2243785858 1.1295305e-38
0.08430477232 -0.4057055712 -0.3113408387 1.1295305e-38
0.1435004175 -0.4435217977 -0.2064359039 1.1295305e-38
0.04865283519 -0.7203945518 -0.2353339195 1.147897319e-38
-0.07800064981 -0.7484727502 -0.07712636888 1.147897319e-38
-0.07184202224 -0.3859493732 0.3050094247 1.147897319e-38
0.03217963874 -0.2098515332 -0.2297284156 1.147897319e-38
0.1460001022 -0.4618758559 -0.202283293 1.147897319e-38
-0.1952512562 -0.3289344013 0.4984158874 1.147897319e-38
0.03906667978 -0.7271547318 -0.188882634 1.147897319e-38
-0.1836129427 -0.3266533017 0.4861023426 1.147897319e-38
0.2764797807 -0.3608529568 -0.209172368 1.166264278e-38
0.2041917443 -0.4504703283 -0.2638510466 1.166264278e-38
-0.06636230648 -0.7461916208 -0.08943995833 1.166264278e-38
0.1176058277 -0.4359208941 -0.2066436112 1.166264278e-38
0.1875473261 -0.2554569542 -0.2284822166 1.166264278e-38
0.1789745092 -0.2837761343 -0.22131899 1.166264278e-38
-0.1907827854 -0.2916570306 0.4229771495 1.166264278e-38
0.1210719869 -0.4233625233 0.03372427821 1.166264278e-38
0.1587443799 -0.5136014223 -0.3459166288 1.184631237e-38
0.1039730608 -0.5324721932 -0.2274526358 1.184631237e-38
0.08498883247 -0.4071986079 -0.2999615669 1.184631237e-38
0.1296311617 -0.552455008 -0.2686092854 1.184631237e-38
0.05758662522 -0.3116924763 0.04460724443 1.184631237e-38
0.1821393371 -0.5028483272 -0.3498615026 1.184631237e-38
0.1913962513 -0.4760221839 -0.3456454873 1.184631237e-38
0.1599942297 -0.522778511 -0.343840301 1.184631237e-38
-0.05472398922 -0.7439105511 -0.1017534956 1.202998196e-38
-0.198553279 -0.3152782619 0.4622017741 1.202998196e-38
0.1612440646 -0.5319555402 -0.3417639732 1.202998196e-38
-0.04376973584 -0.740136385 -0.12544626 1.202998196e-38
0.04200232774 -0.1907094121 -0.2348153293 1.202998196e-38
-0.1607745141 -0.2805534005 0.2856995463 1.202998196e-38
-0.04034012556 -0.7199388146 -0.2743107975 1.202998196e-38
-0.1225017458 -0.7620762587 0.006265565753 1.202998196e-38
-0.0766325295 -0.7514588833 -0.05436788499 1.221365155e-38
0.2480088174 -0.4353737831 -0.3586222231 1.221365155e-38
0.0609752126 -0.7196065187 -0.2362682223 1.221365155e-38
0.01579001918 -0.7317169905 -0.1642555445 1.221365155e-38
-0.1272809207 -0.7239621878 -0.2791498899 1.221365155e-38
0.2486928701 -0.4368668199 -0.347243011 1.221365155e-38
0.1196861789 -0.2135121226 -0.2341922373 1.221365155e-38
0.1757974476 -0.4245153666 -0.2682113647 1.221365155e-38
-0.1218176931 -0.7635692954 0.0176447928 1.239732115e-38
0.06234333664 -0.7225925922 -0.2135097384 1.239732115e-38
0.1558227837 -0.4427337348 -0.2073702067 1.239732115e-38
0.130999282 -0.5554410815 -0.2458508164 1.239732115e-38
0.1214130819 -0.5622013211 -0.1993995011 1.239732115e-38
0.1361774206 -0.4810180068 -0.1971963793 1.239732115e-38
0.2493769228 -0.4383598566 -0.3358637691 1.239732115e-38
0.204639256 -0.4643452764 -0.2938361764 1.239732115e-38
0.1028414965 -0.5171042085 -0.2088467479 1.258099074e-38
0.05374002084 -0.3814624548 -0.3705210686 1.258099074e-38
-0.1211336255 -0.7650623322 0.02902403474 1.258099074e-38
0.2165141106 -0.4496822953 -0.2647853494 1.258099074e-38
-0.1275568455 -0.2506580949 0.2766677141 1.258099074e-38
0.1933301538 -0.4866923094 -0.3321899474 1.258099074e-38
-0.06951840967 -0.3117450774 0.2874646783 1.258099074e-38
-0.01912495121 -0.7385603189 -0.1273148656 1.258099074e-38
-0.05951964855 -0.3851613104 0.3040751219 1.276466033e-38
0.2603311837 -0.4345857203 -0.3595565259 1.276466033e-38
-0.04594740272 -0.3935503066 0.3052171469 1.276466033e-38
-0.04171755537 -0.7446155548 -0.09130856395 1.276466033e-38
-0.05469631404 -0.3293110728 0.2906829715 1.276466033e-38
0.121756047 -0.4248555601 0.04510354251 1.276466033e-38
0.05892303213 -0.7151273489 -0.2704059482 1.276466033e-38
-0.2011712492 -0.3031151593 0.437367022 1.276466033e-38
0.08237086982 -0.3950355351 -0.3247963786 1.294832852e-38
0.1693950146 -0.4511227012 -0.2062281966 1.294832852e-38
0.1238431111 -0.3630331159 -0.01380559802 1.294832852e-38
0.004835765809 -0.7354911566 -0.1405627429 1.294832852e-38
0.2610152364 -0.436078757 -0.3481773138 1.294832852e-38
0.2397908121 -0.4451200962 -0.2894124389 1.294832852e-38
-0.03007920459 -0.7423344254 -0.1036221012 1.294832852e-38
0.07261352986 -0.7173253894 -0.2485817671 1.294832852e-38
0.1958298385 -0.5050463676 -0.3280373216 1.313163938e-38
0.05827068537 -0.313185513 0.05598647892 1.313163938e-38
0.104775399 -0.5277742743 -0.1953912079 1.313163938e-38
0.1443309784 -0.211935997 -0.2360608429 1.313163938e-38
0.1921059191 -0.4388765097 -0.2215523869 1.313163938e-38
-0.2002506256 -0.2922263145 0.4901106358 1.313163938e-38
0.1140323058 -0.5009481907 -0.1911751628 1.313163938e-38
0.1944873482 -0.4634215236 -0.2380819321 1.313163938e-38
0.1706448644 -0.4602997303 -0.2041518986 1.331530897e-38
0.1128888577 -0.366807282 0.009887203574 1.331530897e-38
0.1333943605 -0.4225744605 0.0327899754 1.331530897e-38
0.187822789 -0.5410494804 -0.3301770389 1.331530897e-38
0.1330514699 -0.5599201918 -0.2117130458 1.331530897e-38
0.04111886397 -0.7316339016 -0.1547448933 1.331530897e-38
0.0730927512 -0.3307515085 0.05920478702 1.331530897e-38
0.2045209706 -0.470536232 -0.3145183623 1.331530897e-38
0.1221457645 -0.3399811685 0.01410321519 1.349897856e-38
0.1208959222 -0.3308041692 0.01202690974 1.349897856e-38
0.007581283338 -0.7138004899 -0.3008064628 1.349897856e-38
-0.1183973849 -0.7710344791 0.07454101741 1.349897856e-38
0.0991634801 -0.4309107661 0.0811098516 1.349897856e-38
-0.1965010911 -0.3197574019 0.4963395596 1.349897856e-38
-0.09580481052 -0.7649792433 0.03853471577 1.349897856e-38
0.08561997116 -0.7180303335 -0.2381368279 1.349897856e-38
0.2062439322 -0.4549494684 -0.2297133207 1.368228942e-38
0.09029629081 -0.3728625178 0.04589354247 1.368228942e-38
-0.1887305975 -0.2961361408 0.4571148753 1.368228942e-38
-0.1152344719 -0.2498700321 0.2757334113 1.368228942e-38
0.081469208 -0.2066992819 -0.2334656268 1.368228942e-38
0.2066080272 -0.4087138474 -0.3734275103 1.368228942e-38
0.1894879639 -0.426713407 -0.2463871539 1.368228942e-38
0.1321445107 -0.4133974016 0.03071366251 1.368228942e-38
0.1227115467 -0.3476651609 0.004800286144 1.386595901e-38
0.1019346043 -0.3705814183 0.03358000517 1.386595901e-38
-0.1177133173 -0.7725275755 0.08592025936 1.386595901e-38
0.116355978 -0.426743865 -0.2087199092 1.386595901e-38
0.1232773289 -0.3553491533 -0.004502668045 1.386595901e-38
0.1344195902 -0.5629062653 -0.1889545768 1.386595901e-38
-0.05403066054 -0.7177407742 -0.2961349487 1.386595901e-38
0.1245271713 -0.3645261526 -0.002426361665 1.386595901e-38
0.07056134939 -0.7128462791 -0.2827195227 1.404926846e-38
0.1829672903 -0.4595116675 -0.2050862014 1.404926846e-38
0.1135729179 -0.3683003187 0.02126643807 1.404926846e-38
0.2025841773 -0.02956484258 -0.05717991292 1.404926846e-38
-0.04487362504 -0.3101689517 0.2855960727 1.404926846e-38
-0.1170292497 -0.7740205526 0.0972995609 1.404926846e-38
0.04276456311 -0.2941265106 0.04138893262 1.404926846e-38
-0.09443669021 -0.7679653168 0.06129316986 1.404926846e-38
0.1202815175 -0.5468333364 -0.1807936281 1.423293806e-38
0.2740216851 -0.436783731 -0.3377323747 1.423293806e-38
0.08977726102 -0.4176499248 -0.2203068733 1.423293806e-38
0.1901720166 -0.4282064438 -0.2350079268 1.423293806e-38
-0.01707277074 -0.7430393696 -0.09317716956 1.423293806e-38
0.06987728179 -0.7113531828 -0.2940987647 1.423293806e-38
0.06507958472 -0.7285647392 -0.1679927707 1.423293806e-38
0.1848178059 -0.4100711942 -0.3053597212 1.423293806e-38
0.1215799823 -0.3322972059 0.02340617403 1.441624891e-38
-0.0496969372 -0.3660192192 0.2989882231 1.441624891e-38
0.1563280821 -0.5553579926 -0.2363401651 1.441624891e-38
0.006897221319 -0.7123074532 -0.3121857345 1.441624891e-38
0.205083847 -0.04791890085 -0.05302730203 1.441624891e-38
0.07059305906 -0.3123974502 0.05505217612 1.441624891e-38
-0.114293009 -0.7799927592 0.1428164989 1.441624891e-38
0.2309784591 -0.05551980436 -0.05281960219 1.441624891e-38
0.07671789825 -0.7262836099 -0.1803063005 1.459991851e-38
0.2571474612 -0.4147386253 -0.3750883937 1.459991851e-38
0.2154723108 -0.03646078706 -0.06741714478 1.459991851e-38
0.08666503429 -0.3391404748 0.06034678966 1.459991851e-38
-0.03612471372 -0.3744081855 0.3001301885 1.459991851e-38
0.2083887905 -0.4918763638 -0.2876072526 1.459991851e-38
0.09955319017 -0.3460364044 0.05010955781 1.459991851e-38
0.04151471704 -0.2849494517 0.03931262344 1.459991851e-38
-0.1136089414 -0.781485796 0.1541957706 1.478322936e-38
-0.06703709066 -0.71703583 -0.3065799177 1.478322936e-38
0.0286265593 -0.2780535221 0.04954986274 1.478322936e-38
-0.04239230976 -0.7154597044 -0.3084485233 1.478322936e-38
-0.1033387631 -0.7762185931 0.1191237122 1.478322936e-38
0.08180508763 -0.3873515129 -0.3154934645 1.478322936e-38
0.2308886796 -0.4533733726 -0.2315819263 1.478322936e-38
0.1399269551 -0.5085490346 -0.1909674704 1.478322936e-38
0.1326039582 -0.5460452437 -0.1817279309 1.496689755e-38
0.09931053221 -0.720228374 -0.2163126469 1.496689755e-38
0.2644355595 -0.4435439706 -0.2912810445 1.496689755e-38
0.2734559178 -0.4290997684 -0.3284294009 1.496689755e-38
0.1026186645 -0.372074455 0.04495923966 1.496689755e-38
0.1013688222 -0.3628974259 0.04288293421 1.496689755e-38
0.2131516039 -0.5409663916 -0.3206664026 1.496689755e-38
-0.05844584852 -0.3017799854 0.2844540477 1.496689755e-38
0.1731445491 -0.4786537886 -0.1999992877 1.515020841e-38
0.2009474933 -0.5355635285 -0.2990499139 1.515020841e-38
0.1301042587 -0.5276911855 -0.1858805418 1.515020841e-38
0.1686504632 -0.5545699 -0.2372744679 1.515020841e-38
-0.08143021166 -0.7686703205 0.07173810899 1.515020841e-38
0.05412532762 -0.7323389053 -0.1442999542 1.515020841e-38
0.114256978 -0.3697933555 0.03264570236 1.515020841e-38
0.006887950003 -0.7399702072 -0.1064250097 1.515020841e-38
0.1461761743 -0.5544341803 -0.1805859208 1.533351927e-38
-0.09170044959 -0.7739374638 0.1068101674 1.533351927e-38
-0.028801715 -0.3369119763 0.2908906937 1.533351927e-38
0.1981185824 -0.4971435666 -0.252535224 1.533351927e-38
0.03084867075 -0.7369010448 -0.1196728572 1.533351927e-38
0.1912430972 -0.5485146642 -0.2732807994 1.533351927e-38
0.1411768049 -0.5177261233 -0.1888911575 1.533351927e-38
0.2013343275 -0.02038782835 -0.05925621092 1.533351927e-38
0.2741399705 -0.4305928051 -0.317050159 1.551683013e-38
0.01853556372 -0.7100263834 -0.3244992793 1.551683013e-38
0.1151061431 -0.4175668359 -0.2107962221 1.551683013e-38
0.08715929836 -0.4054868221 -0.2451416552 1.551683013e-38
0.1590643376 -0.5613301396 -0.1908231825 1.551683013e-38
0.1082125902 -0.7119750977 -0.2741431594 1.551683013e-38
0.1998159438 -0.5201955438 -0.280444026 1.551683013e-38
0.1246454567 -0.3583352566 0.01825582981 1.551683013e-38
-0.1046883017 -0.7179069519 -0.3151562512 1.570049832e-38
0.2290445566 -0.04484975338 -0.06627514958 1.570049832e-38
-0.04788337275 -0.7588409185 0.01203897595 1.570049832e-38
-0.02755186893 -0.3460890353 0.2929669619 1.570049832e-38
0.1075285226 -0.7104821205 -0.2855224311 1.570049832e-38
-0.03255124763 -0.3093808889 0.2846617699 1.570049832e-38
-0.06772115827 -0.7155427933 -0.3179591596 1.570049832e-38
0.0838572681 -0.3918306231 -0.2813557088 1.570049832e-38
-0.05815355852 -0.764108181 0.04711101949 1.588380918e-38
0.0555027239 -0.7076621652 -0.3273021877 1.588380918e-38
0.2767579556 -0.442755878 -0.2922153473 1.588380918e-38
-0.04307636991 -0.7139666677 -0.3198277652 1.588380918e-38
-0.0800435245 -0.7163308859 -0.3170248568 1.588380918e-38
0.1109488308 -0.7179473042 -0.2286262065 1.588380918e-38
0.0421987772 -0.2864424884 0.05069185793 1.588380918e-38
0.2466028631 -0.06838791072 -0.01753983647 1.588380918e-38
0.08291549981 -0.3116093874 0.05411786586 1.606712004e-38
0.1971053034 -0.4755846262 -0.2132471651 1.606712004e-38
0.2297286093 -0.04634279013 -0.05489590764 1.606712004e-38
0.2000524998 -0.5078136325 -0.2390796691 1.606712004e-38
0.2284787595 -0.03716576099 -0.05697221309 1.606712004e-38
-0.08896419406 -0.7799096704 0.152327165 1.606712004e-38
0.1116328984 -0.719440341 -0.2172469497 1.606712004e-38
0.2542836368 -0.4426202178 -0.23552683 1.606712004e-38
0.09315396845 -0.7067910433 -0.318725884 1.625043089e-38
0.08055524528 -0.3781745136 -0.3175697625 1.625043089e-38
0.1219030917 -0.7141731977 -0.2523189783 1.625043089e-38
0.1917859763 -0.3911478519 -0.3766458035 1.625043089e-38
0.09455381334 -0.3093282878 0.04180432856 1.625043089e-38
0.2864623368 -0.4298047423 -0.3179844618 1.625043089e-38
-0.03556099907 -0.7580528855 0.01110467315 1.625043089e-38
-0.07201809436 -0.2933910191 0.2833120823 1.625043089e-38
0.08972433209 -0.726988554 -0.1698613763 1.643374035e-38
0.1149410382 -0.3712863922 0.04402493685 1.643374035e-38
-0.04583118483 -0.7633200884 0.04617673159 1.643374035e-38
0.2972983718 -0.4322215319 -0.3623594642 1.643374035e-38
0.1153519601 -0.3775221407 -0.3751925826 1.643374035e-38
0.269195497 -0.06233265996 -0.05354620516 1.643374035e-38
0.2556231916 -0.05394369364 -0.05468820781 1.643374035e-38
-0.1176947802 -0.7172019482 -0.3256012201 1.643374035e-38
0.1430811435 -0.2027589679 -0.2381371409 1.661705121e-38
0.2555334866 -0.4517972469 -0.233450532 1.661705121e-38
0.214190498 -0.5238865614 -0.247240603 1.661705121e-38
-0.02460671216 -0.754278779 -0.01258811355 1.661705121e-38
0.2658934593 -0.04867650568 -0.08976024389 1.661705121e-38
0.278126061 -0.4457419813 -0.2694568634 1.661705121e-38
0.2043678015 -0.5430287123 -0.2421536744 1.661705121e-38
-0.06840521097 -0.7140497565 -0.3293384314 1.661705121e-38
0.1994867176 -0.5001296401 -0.2297767103 1.680036207e-38
0.139750883 -0.4159907103 -0.2126648277 1.680036207e-38
-0.08072759211 -0.7148377895 -0.3284041286 1.680036207e-38
0.1946634054 -0.5559799075 -0.2163845599 1.680036207e-38
-0.01772915386 -0.3269469142 0.2878800631 1.680036207e-38
0.2032362521 -0.5276607275 -0.2235477865 1.680036207e-38
0.07877008617 -0.7307627201 -0.1461685598 1.680036207e-38
0.1837090999 -0.559754014 -0.192691803 1.680036207e-38
0.06713177264 -0.7330438495 -0.1338550001 1.698367293e-38
0.1229481027 -0.3352832794 0.04616464674 1.698367293e-38
0.1131254137 -0.3544253707 0.05125156045 1.698367293e-38
0.1867168248 -0.4870427251 -0.1988572925 1.698367293e-38
0.202670455 -0.5199767351 -0.2142448723 1.698367293e-38
0.0904083997 -0.7284816504 -0.1584821045 1.698367293e-38
0.2014206201 -0.510799706 -0.2163211703 1.698367293e-38
0.2252950072 -0.01731866598 -0.07250405848 1.698367293e-38
0.08260742575 -0.3826536238 -0.2834320068 1.716698239e-38
0.008940135129 -0.7444493771 -0.07228724658 1.716698239e-38
-0.02255452797 -0.7587578297 0.02154959738 1.716698239e-38
0.1793937683 -0.5245389342 -0.189617753 1.716698239e-38
0.01716744155 -0.7070403099 -0.3472577929 1.716698239e-38
0.2161244154 -0.5345566869 -0.233785063 1.716698239e-38
-0.0554173179 -0.770080328 0.09262801707 1.716698239e-38
0.1720479131 -0.396984309 -0.2744402885 1.716698239e-38
0.003342134878 -0.3903980553 0.3014799356 1.735029324e-38
0.104792282 -0.7045099735 -0.3310394287 1.735029324e-38
0.1953474581 -0.5574729443 -0.2050053328 1.735029324e-38
-0.007477339357 -0.7086163759 -0.3453891873 1.735029324e-38
0.2259790897 -0.01881170273 -0.06112481654 1.735029324e-38
-0.03282475471 -0.7640250921 0.05662165582 1.735029324e-38
0.1782137454 -0.3827588856 -0.3777877986 1.735029324e-38
-0.05676690862 -0.7117686272 -0.3416519761 1.735029324e-38
-0.05473325774 -0.7715733051 0.104007259 1.75336041e-38
-0.02187046409 -0.760250926 0.03292888403 1.75336041e-38
0.180949986 -0.3887310624 -0.3322708011 1.75336041e-38
0.2033545226 -0.5214697719 -0.2028656304 1.75336041e-38
0.009624196216 -0.7459424138 -0.06090800464 1.75336041e-38
0.06615947187 -0.2833733261 0.03744401783 1.75336041e-38
0.1917161942 -0.5237509012 -0.1905520558 1.75336041e-38
0.106876187 -0.308540225 0.04087002575 1.75336041e-38
0.2008548379 -0.5031157136 -0.2070182413 1.771655483e-38
0.3109888732 -0.4344195426 -0.3405352831 1.771655483e-38
0.1996049881 -0.4939386845 -0.2090945542 1.771655483e-38
0.282201916 -0.0630376488 -0.04310124367 1.771655483e-38
0.101779744 -0.3691331744 -0.3763346076 1.771655483e-38
0.1261786669 -0.4076017439 -0.2138068229 1.771655483e-38
0.114375256 -0.3636023998 0.0533278659 1.771655483e-38
-0.03214069456 -0.7655180693 0.06800089777 1.771655483e-38
3.806687891e-05 -0.7527025938 -0.01445671916 1.789986569e-38
0.2117227912 -0.008929684758 -0.07364606857 1.789986569e-38
0.0288057588 -0.7047591209 -0.3595713377 1.789986569e-38
0.2423253804 -0.3971726298 -0.3783067167 1.789986569e-38
0.1905361265 -0.3819708228 -0.3787221014 1.789986569e-38
0.2124068439 -0.01042272151 -0.06226682663 1.789986569e-38
0.09330397099 -0.3001512587 0.03972802311 1.789986569e-38
0.1523190886 -0.3751579523 -0.377995491 1.789986569e-38
0.251873672 -0.02641260624 -0.06091712415 1.808317654e-38
0.08465961367 -0.3871327639 -0.2492942661 1.808317654e-38
0.0304866042 -0.407175988 0.303763926 1.808317654e-38
-0.07326793671 -0.28421399 0.2812357545 1.808317654e-38
0.3144091964 -0.4418847561 -0.2836390436 1.808317654e-38
-0.004156934097 -0.3353358507 0.2890220881 1.808317654e-38
0.2653276622 -0.0409925282 -0.08045728505 1.808317654e-38
0.2802680135 -0.05236756802 -0.05655681342 1.808317654e-38
-0.08691202104 -0.7843887806 0.1864648908 1.826612727e-38
0.2287531644 -0.3887836635 -0.3794487119 1.826612727e-38
0.08534367383 -0.3886258006 -0.2379150242 1.826612727e-38
0.01236044243 -0.7519145608 -0.01539102197 1.826612727e-38
0.05327130854 -0.2764773965 0.04768125713 1.826612727e-38
0.2912507653 -0.4402560294 -0.2383297384 1.826612727e-38
0.1646415144 -0.3743699193 -0.3789297938 1.826612727e-38
0.08204164356 -0.3749696612 -0.2741290629 1.826612727e-38
0.1988346279 -0.002033755183 -0.06340883672 1.844943813e-38
0.294524312 -0.06224960089 -0.04403554648 1.844943813e-38
0.169429943 -0.3848211765 -0.2992751002 1.844943813e-38
0.04044409841 -0.7024780512 -0.3718848825 1.844943813e-38
0.07463524491 -0.3523552418 -0.378618598 1.844943813e-38
0.1492840797 -0.7185691595 -0.2086706161 1.844943813e-38
0.06684353203 -0.2848663628 0.04882325232 1.844943813e-38
0.1163091585 -0.3742724657 0.06678340584 1.844943813e-38
-0.09855033457 -0.7866698503 0.1987784356 1.863274899e-38
0.1864224821 -0.4006753564 -0.2412368357 1.863274899e-38
0.07848190516 -0.2825852633 0.0365097113 1.863274899e-38
0.3267315626 -0.4410966933 -0.2845733464 1.863274899e-38
0.03426897526 -0.7443662882 -0.06277662516 1.863274899e-38
0.1790160835 -0.3780609369 -0.3457263708 1.863274899e-38
0.2641961277 -0.02562454343 -0.06185142696 1.863274899e-38
0.05686157197 -0.7383110523 -0.09878299385 1.863274899e-38
0.1150593162 -0.3650954366 0.06470710039 1.881569971e-38
0.1776479632 -0.3750748634 -0.3684848547 1.881569971e-38
0.3241135776 -0.4289335907 -0.3094081283 1.881569971e-38
0.1383298337 -0.7223433256 -0.1849778146 1.881569971e-38
0.314527452 -0.4356938004 -0.2629568577 1.881569971e-38
0.1754682213 -0.4044495225 -0.217544049 1.881569971e-38
0.2151808739 -0.3803946972 -0.3805907369 1.881569971e-38
0.3247976601 -0.4304266274 -0.2980288863 1.881569971e-38
0.3164613843 -0.4463638663 -0.2495012879 1.899901057e-38
0.02468281984 -0.7511265278 -0.01632532477 1.899901057e-38
0.2200408131 -0.3321836591 -0.004750450142 1.899901057e-38
0.3152115345 -0.4371868372 -0.2515775859 1.899901057e-38
0.2764002085 -0.03102745116 -0.08346790075 1.899901057e-38
0.09903416783 -0.3908238113 -0.2160908282 1.899901057e-38
0.08973366022 -0.6993257999 -0.3756220937 1.899901057e-38
-0.03899057209 -0.7782504559 0.1599691957 1.899901057e-38
0.006915627047 -0.3253707886 0.2860114574 1.91819627e-38
0.08409382403 -0.3794487715 -0.2399913371 1.91819627e-38
0.3261657655 -0.4334127307 -0.2752704024 1.91819627e-38
0.08969386667 -0.3575393558 -0.3340359032 1.91819627e-38
0.005665784702 -0.3161937594 0.2839351296 1.91819627e-38
0.08900980651 -0.356046319 -0.345415175 1.91819627e-38
0.1390139014 -0.7238363624 -0.1735985726 1.91819627e-38
0.3376857936 -0.437322557 -0.3082661033 1.91819627e-38
0.2463829219 -0.3536594808 -0.03452787176 1.936527215e-38
0.0428089872 -0.4063879251 0.3028296232 1.936527215e-38
0.1094202921 -0.4391557276 0.3064633012 1.936527215e-38
0.3390539289 -0.4403086305 -0.2855076492 1.936527215e-38
0.3158955872 -0.4386799037 -0.240198344 1.936527215e-38
-0.0177660957 -0.7692091465 0.1012043506 1.936527215e-38
0.1618959457 -0.3960605264 -0.2186860442 1.936527215e-38
-0.02803632617 -0.7744763494 0.1362763792 1.936527215e-38
0.2622621953 -0.01495447755 -0.0753069669 1.954822428e-38
0.05754563585 -0.7398040295 -0.08740369976 1.954822428e-38
0.06918394566 -0.7375229597 -0.09971729666 1.954822428e-38
-0.04862315953 -0.2826378644 0.2793671489 1.954822428e-38
-0.006127784029 -0.7669280767 0.08889080584 1.954822428e-38
0.3411061168 -0.4447877407 -0.2513698936 1.954822428e-38
0.09928005189 -0.3507791162 -0.3804872036 1.954822428e-38
0.3049127758 -0.05079144239 -0.05842541903 1.954822428e-38
-0.02735226229 -0.7759693861 0.147655651 1.973153514e-38
0.0465913564 -0.7435781956 -0.06371092796 1.973153514e-38
0.2323631942 -0.3313955963 -0.005684752949 1.973153514e-38
0.2629462779 -0.0164475143 -0.06392773986 1.973153514e-38
0.116421327 -0.7298916578 -0.1375922114 1.973153514e-38
0.1681801081 -0.3756441474 -0.3013513684 1.973153514e-38
0.3391721845 -0.4341176748 -0.2648254633 1.973153514e-38
0.1695482284 -0.3786302209 -0.2785928845 1.973153514e-38
-0.06370362639 -0.04637753963 0.3615041077 1.991448586e-38
-0.0499448292 -0.782024622 0.1836619824 1.991448586e-38
0.1013322398 -0.3552582264 -0.3463494778 1.991448586e-38
0.235428676 -0.3574336171 -0.01083509903 1.991448586e-38
0.3343837559 -0.4236664176 -0.3444801867 1.991448586e-38
0.03700522333 -0.7503384352 -0.01725962758 1.991448586e-38
0.1251746565 -0.3583800495 -0.3802795112 1.991448586e-38
-0.00544372201 -0.7684210539 0.1002700478 1.991448586e-38
0.2234793901 -0.0004576444626 -0.06527744234 2.009743799e-38
-0.05237268656 -0.255106777 0.2731382251 2.009743799e-38
0.01191500761 -0.3620789051 0.294316709 2.009743799e-38
0.08284398168 -0.3702717423 -0.2420676351 2.009743799e-38
0.2913405597 -0.04240247607 -0.05956742167 2.009743799e-38
0.3534285128 -0.4439997077 -0.2523041964 2.009743799e-38
-0.09718221426 -0.7896559834 0.2215369493 2.009743799e-38
-0.02598413825 -0.7789554596 0.1704141349 2.009743799e-38
0.3405403197 -0.4371037781 -0.2420669496 2.028074885e-38
0.1047525406 -0.3627234399 -0.2894532681 2.028074885e-38
0.1798184365 -0.3733630776 -0.3136649132 2.028074885e-38
0.1366854161 -0.3899526596 -0.2075145096 2.028074885e-38
0.317235142 -0.05000337958 -0.05935972929 2.028074885e-38
0.1101067588 -0.3808587193 -0.2191014439 2.028074885e-38
0.1054366082 -0.3642165065 -0.2780739963 2.028074885e-38
0.3295860887 -0.4408779144 -0.218374148 2.028074885e-38
0.2317974269 -0.3237116039 0.003618177027 2.046369957e-38
0.2477510422 -0.3566455543 -0.01176940184 2.046369957e-38
0.3501264751 -0.4303435683 -0.28851825 2.046369957e-38
0.3643828034 -0.4402255416 -0.2759969831 2.046369957e-38
0.3314914703 -0.05988541245 -0.04683846235 2.046369957e-38
-0.08485983312 -0.7888679504 0.2206026465 2.046369957e-38
0.1171053946 -0.731384635 -0.1262129843 2.046369957e-38
0.00687868055 -0.7676330209 0.09933574498 2.046369957e-38
0.332175523 -0.0613784492 -0.03545922041 2.06466517e-38
0.1224291325 -0.3800706863 -0.2200357467 2.06466517e-38
0.02548722364 -0.3704678714 0.2954586744 2.06466517e-38
0.3473902345 -0.4243714213 -0.3340352178 2.06466517e-38
0.3419084549 -0.4400898516 -0.2193084508 2.06466517e-38
0.0895544365 -0.2726202011 0.03349910676 2.06466517e-38
-0.04005031288 -0.2543187141 0.2722039223 2.06466517e-38
0.2869069874 -0.01337836683 -0.07717557251 2.06466517e-38
0.3438423574 -0.4507599175 -0.2058529258 2.082996116e-38
0.2616964281 -0.007270470262 -0.06600405276 2.082996116e-38
-0.06219537556 -0.274248898 0.2782251239 2.082996116e-38
0.1259769946 -0.3536821008 -0.3482180834 2.082996116e-38
0.125292927 -0.352189064 -0.3595973253 2.082996116e-38
0.3295575678 -0.04921531677 -0.0602940321 2.082996116e-38
0.2600734234 -0.3558574915 -0.01270370465 2.082996116e-38
0.2840341926 -0.3527883291 -0.02595154941 2.082996116e-38
0.3128015697 -0.02097925544 -0.07696788013 2.101291328e-38
0.2827843428 -0.3436113 -0.02802785113 2.101291328e-38
0.2108960301 -0.7146288753 -0.2133421302 2.101291328e-38
0.1766651422 -0.7229652405 -0.1650222242 2.101291328e-38
-0.0365591608 -0.06315548718 0.3637880981 2.101291328e-38
0.1294277608 -0.730596602 -0.1271472871 2.101291328e-38
0.1198111624 -0.3679075539 -0.2448705435 2.101291328e-38
0.2733347416 -0.004989385605 -0.07831758261 2.101291328e-38
0.2222295403 0.00871938467 -0.06735374033 2.119586541e-38
-0.001339353621 -0.777379334 0.1685455292 2.119586541e-38
0.3597126603 -0.4235833287 -0.3349695206 2.119586541e-38
0.05069572479 -0.7525364161 0.004564538598 2.119586541e-38
0.1424037218 -0.3618522882 -0.2808768749 2.119586541e-38
0.1403515488 -0.357373178 -0.3150146306 2.119586541e-38
0.03156037629 -0.323794663 0.2841428518 2.119586541e-38
0.1410356015 -0.3588662148 -0.3036353886 2.119586541e-38
0.008930862881 -0.7721121311 0.1334734708 2.137881613e-38
0.2740187943 -0.006482422352 -0.06693835557 2.137881613e-38
0.0602818802 -0.7457762361 -0.04188676178 2.137881613e-38
0.3580986559 -0.4606419504 -0.1933316439 2.137881613e-38
0.3251239955 -0.02019119263 -0.07790218294 2.137881613e-38
0.3672373295 -0.4400067925 -0.2097978294 2.137881613e-38
0.1773492098 -0.7244582772 -0.1536429971 2.137881613e-38
0.03281022608 -0.3329716921 0.2862191796 2.137881613e-38
0.3263738453 -0.02936823666 -0.07582587004 2.156176826e-38
0.2682565451 -0.4124127328 0.01113340259 2.156176826e-38
-0.07185335457 -0.7895729542 0.2310475558 2.156176826e-38
0.3890275657 -0.438649416 -0.2778655887 2.156176826e-38
0.1328152567 -0.4284026027 0.3025184274 2.156176826e-38
0.2338678539 0.01100046933 -0.07966728508 2.156176826e-38
0.1540420502 -0.3595711887 -0.2931904793 2.156176826e-38
0.03780960292 -0.3696798086 0.2945243716 2.156176826e-38
0.04110959172 -0.7592966557 0.05101583898 2.174471899e-38
0.3115517199 -0.01180224121 -0.07904417813 2.174471899e-38
0.3587827384 -0.4621349871 -0.1819524169 2.174471899e-38
0.2970406115 -0.3534933031 -0.01550661679 2.174471899e-38
0.3582169414 -0.4544509649 -0.1726494879 2.174471899e-38
0.373403132 -0.4257813692 -0.3131453395 2.174471899e-38
0.3775075078 -0.4347395897 -0.244869858 2.174471899e-38
0.01029898785 -0.7750982046 0.1562319845 2.174471899e-38
0.3593485057 -0.4698189795 -0.1912553459 2.192767111e-38
0.314928174 -0.3970973492 -0.01743862405 2.192767111e-38
0.2086573243 0.01710836589 -0.06849575043 2.192767111e-38
-0.0006552934647 -0.7788723707 0.1799247712 2.192767111e-38
0.3727190793 -0.4242883325 -0.3245245814 2.192767111e-38
0.2730799317 -0.3565624952 -0.002258747816 2.192767111e-38
0.1622601002 -0.3498249054 -0.3624002337 2.192767111e-38
0.189671576 -0.7236702442 -0.1545773 2.192767111e-38
0.2013098896 -0.7213891149 -0.1668908298 2.211062324e-38
0.3862913251 -0.432677269 -0.323382616 2.211062324e-38
0.3589009941 -0.4559440017 -0.161270231 2.211062324e-38
0.2863411903 -0.005694359541 -0.06787265837 2.211062324e-38
0.1335016638 -0.3701055646 -0.2230463624 2.211062324e-38
0.1567782909 -0.3655433655 -0.2476734519 2.211062324e-38
0.2388489842 -0.3648988307 0.04606113583 2.211062324e-38
-0.03755062073 -0.2726727724 0.2763565183 2.211062324e-38
0.3381304443 -0.02089616656 -0.0674572587 2.229357396e-38
0.1670485288 -0.3602761626 -0.2827455103 2.229357396e-38
0.3576511443 -0.4467670023 -0.163346529 2.229357396e-38
0.235540837 -0.7130527496 -0.2152107358 2.229357396e-38
0.3864096105 -0.4264863133 -0.3027004004 2.229357396e-38
0.4020339847 -0.4393544197 -0.2674206495 2.229357396e-38
0.3333237469 -0.3496360779 -0.02968876436 2.229357396e-38
0.2977246642 -0.3549863696 -0.00412735343 2.229357396e-38
0.0142386239 -0.2878745794 0.2767719626 2.247652609e-38
0.07260425389 -0.744988203 -0.04282106459 2.247652609e-38
0.3320738971 -0.3404590487 -0.03176506609 2.247652609e-38
0.1766346693 -0.3535159528 -0.3291968107 2.247652609e-38
2.876669168e-05 -0.7803654075 0.1913039833 2.247652609e-38
0.320435524 -0.3427401781 -0.0194515232 2.247652609e-38
-0.04720858112 -0.787996769 0.2291789502 2.247652609e-38
0.2417066693 -0.6988273263 -0.3185582459 2.247652609e-38
0.1691007167 -0.3647553027 -0.2486077696 2.265947681e-38
0.2727689445 0.002694606781 -0.06901465356 2.265947681e-38
0.0732883215 -0.7464811802 -0.03144177794 2.265947681e-38
0.247421816 -0.3365796804 0.03889791295 2.265947681e-38
0.393250227 -0.4414167404 -0.1889079362 2.265947681e-38
0.05343196914 -0.7585086226 0.05008153617 2.265947681e-38
0.05013198406 -0.3688917458 0.2935900688 2.265947681e-38
-0.01160954311 -0.7826465368 0.2036175877 2.265947681e-38
0.3103018701 -0.002625197172 -0.08112049103 2.284242894e-38
0.362532258 -0.4896660447 -0.1757234931 2.284242894e-38
0.2357835025 -0.33886078 0.05121145397 2.284242894e-38
0.06495410949 -0.3864577413 0.2968084216 2.284242894e-38
0.2143163383 -0.722094059 -0.1564459056 2.284242894e-38
0.3864929676 -0.4865968823 -0.1889713407 2.284242894e-38
0.2585126758 0.01257659495 -0.0815358907 2.284242894e-38
0.2395330369 -0.3663918674 0.05744037032 2.284242894e-38
0.3223694265 -0.353410244 -0.005995959975 2.302537966e-38
0.3321921527 -0.3342681229 -0.0110828774 2.302537966e-38
0.02262136526 -0.7743101716 0.1552976817 2.302537966e-38
0.04763229191 -0.3505376875 0.2894374728 2.302537966e-38
0.2744480669 -0.3595485687 0.02049975097 2.302537966e-38
-0.03488620743 -0.7872087359 0.2282446474 2.302537966e-38
0.3615189791 -0.4681071639 -0.1364354193 2.302537966e-38
0.2526609004 -0.6950532198 -0.3422510624 2.302537966e-38
0.2813813388 -0.4069267511 0.04226051643 2.320833179e-38
0.05745504051 -0.3313955665 0.284350574 2.320833179e-38
-0.04652452096 -0.7894898653 0.2405581921 2.320833179e-38
0.3767885864 -0.499548018 -0.163202256 2.320833179e-38
0.4136722982 -0.4370733202 -0.2797341943 2.320833179e-38
0.4109360576 -0.4311011434 -0.3252512217 2.320833179e-38
0.07852632552 -0.3948467076 0.297950387 2.320833179e-38
0.2597441971 -0.3357916176 0.03796361014 2.320833179e-38
0.4143563509 -0.4385663569 -0.2683549523 2.339092378e-38
0.3693472445 -0.5432351828 -0.1746449023 2.339092378e-38
0.3346918523 -0.3526221812 -0.006930266507 2.339092378e-38
-0.05816287175 -0.7917709351 0.2528717518 2.339092378e-38
0.3713417053 -0.448965013 -0.141522333 2.339092378e-38
0.2382831872 -0.3572148383 0.05536406487 2.339092378e-38
0.2855205834 -0.3495834768 0.01748914644 2.339092378e-38
0.05480009317 -0.7614946961 0.07284002006 2.339092378e-38
-0.01316422597 -0.05240231752 0.3598431945 2.348204041e-38
0.1314799488 -0.7350757122 -0.0930095166 2.348204041e-38
0.404204458 -0.4376425743 -0.2126007378 2.348204041e-38
0.391492337 -0.5233049989 -0.1806661189 2.348204041e-38
0.4000652134 -0.4949858785 -0.1878293455 2.348204041e-38
0.2572445273 -0.3174375594 0.03381099552 2.348204041e-38
0.2642992139 -0.6927720904 -0.3545646071 2.348204041e-38
0.3774726391 -0.5010411143 -0.1518229991 2.348204041e-38
0.3762227893 -0.4918640852 -0.1538992971 2.348132155e-38
0.3176644146 -0.403069526 0.02807837352 2.348132155e-38
0.2978429794 -0.348795414 0.01655484363 2.348132155e-38
0.06852757186 -0.3214304745 0.2813399434 2.348132155e-38
0.2629311085 -0.6897859573 -0.377323091 2.348132155e-38
0.1438023299 -0.7342876196 -0.0939438194 2.348132155e-38
0.2720666528 -0.3350035548 0.03702930361 2.348132155e-38
0.4131065011 -0.4293893278 -0.2704312801 2.348132155e-38
0.3114151955 -0.3571843803 0.01769684255 2.348060128e-38
0.2670354545 -0.6987442374 -0.3090476096 2.348060128e-38
0.2273228168 -0.7227990627 -0.1460009515 2.348060128e-38
0.2684035897 -0.7017303109 -0.2862891257 2.348060128e-38
0.3849139214 -0.4573539793 -0.1403803378 2.348060128e-38
0.3921764195 -0.5247980356 -0.1692868769 2.348060128e-38
0.3101653457 -0.3480073512 0.01562054083 2.348060128e-38
0.2499154061 -0.7167438269 -0.1820073128 2.348060128e-38
0.3719652295 -0.5553982854 -0.1498101205 2.347952368e-38
0.4170926213 -0.4445385337 -0.2228379697 2.347952368e-38
0.2389611453 -0.720517993 -0.1583145112 2.347952368e-38
0.3645844162 -0.4941452146 -0.1415857673 2.347952368e-38
0.2695669532 -0.3166494966 0.03287668899 2.347952368e-38
0.08834694326 -0.7516652942 0.01314087212 2.347952368e-38
0.417776674 -0.4460315704 -0.2114587426 2.347952368e-38
0.2559946775 -0.3082605302 0.0317346938 2.347952368e-38
0.01303523406 -0.7810704112 0.2017489821 2.347880341e-38
0.1088873893 -0.7411309481 -0.05700320005 2.347880341e-38
0.2615537047 -0.7144626975 -0.1943208575 2.347880341e-38
0.3464484513 -0.3441501558 0.001438364387 2.347880341e-38
0.1684471369 -0.7327115536 -0.09581243247 2.347880341e-38
0.09861713648 -0.7463980913 -0.02193114161 2.347880341e-38
0.403814733 -0.5225169063 -0.1816004217 2.347880341e-38
0.3317446709 -0.3203932047 0.01890224591 2.347880341e-38
0.2786738575 -0.6964631081 -0.3213611543 2.347808455e-38
0.4158427715 -0.4353615046 -0.2249142826 2.347808455e-38
0.4172108769 -0.438347578 -0.2021557838 2.347808455e-38
0.27935794 -0.6979562044 -0.3099819422 2.347808455e-38
0.3120992482 -0.358677417 0.02907607704 2.347808455e-38
0.1944271922 -0.4244622886 0.2978469133 2.347808455e-38
