# .PCD v0.7 - Point Cloud Data file format
VERSION 0.7
FIELDS x y z rgb
SIZE 4 4 4 4
TYPE F F F F
COUNT 1 1 1 1
WIDTH 827
HEIGHT 1
VIEWPOINT 0 0 0 1 0 0 0
POINTS 827
DATA ascii
0.2671587765 -0.0906772092 -0.2046673745 3.383517819e-39
0.200725466 -0.4454852045 -0.2370872945 3.383517819e-39
0.0672865361 -0.05049451068 0.03185300902 3.383517819e-39
-0.2302489728 -0.06518620253 -0.2206098586 3.567904875e-39
0.1049328893 -0.03838462755 0.02011319622 3.567904875e-39
0.2688051164 0.03354983404 -0.1893222481 3.567904875e-39
0.04572017118 0.03544957191 0.04911422357 3.567904875e-39
-0.2426163554 -0.06471630931 -0.2331770808 3.567904875e-39
-0.1356519163 -0.3708063662 -0.2032212913 3.567904875e-39
-0.003471706063 0.03813167661 -0.03845410049 3.567904875e-39
0.1006979868 -0.4687651694 -0.2387420684 3.567904875e-39
-0.2336263955 -0.2089496404 -0.1259091049 3.75229193e-39
0.2782276571 -0.1904752105 -0.2068629116 3.75229193e-39
-0.06521612406 0.04074862599 -0.1137233526 3.75229193e-39
0.2665445507 -0.128293097 -0.1931078136 3.75229193e-39
0.08272982389 0.03377240151 0.09924905002 3.75229193e-39
-0.1271456778 0.04283053428 -0.1641262323 3.75229193e-39
-0.2318650186 -0.1082839444 -0.1733121872 3.75229193e-39
0.08000175655 -0.02606548555 0.04500260949 3.75229193e-39
0.3344281912 0.03694801033 -0.2337654829 3.936320254e-39
0.2677617967 -0.04114690423 -0.1910694391 3.936320254e-39
0.133217603 0.03483554721 0.0127530992 3.936320254e-39
0.07957264781 -0.06314632297 0.03169586137 3.936320254e-39
0.195980221 0.03516129404 -0.04874252155 3.936320254e-39
-0.1767078042 0.04444256425 -0.2019619495 3.936320254e-39
-0.1643404365 0.04397267103 -0.1893947124 3.936320254e-39
-0.1604792923 -0.3701341152 -0.2159225494 3.936320254e-39
-0.09835337847 -0.383595407 -0.2155435085 4.120708711e-39
0.3215980232 0.03608030826 -0.1841668487 4.120708711e-39
0.09220648557 -0.05089924857 0.03212110326 4.120708711e-39
0.1077422872 0.03363517672 0.08708399534 4.120708711e-39
-0.2351689339 -0.3448235393 -0.1788449436 4.120708711e-39
0.2674140036 -0.06604581326 -0.191651836 4.120708711e-39
-0.2338928431 -0.2216666043 -0.1137671396 4.120708711e-39
0.2712027729 0.03528467566 -0.1101040691 4.120708711e-39
-0.232745707 -0.1586167812 -0.1496106386 4.304737034e-39
-0.2428127378 -0.05333694071 -0.1831532121 4.304737034e-39
-0.2428014874 -0.06525134295 -0.2083107531 4.304737034e-39
0.1631716937 -0.4573275447 -0.2377806306 4.304737034e-39
-0.1768003702 0.0441750437 -0.1895287633 4.304737034e-39
0.09203259647 -0.06334869564 0.03182990849 4.304737034e-39
-0.2325718254 -0.1461673379 -0.149319455 4.304737034e-39
0.06727530062 -0.03858007863 0.05701051652 4.304737034e-39
0.2209926546 0.0350240767 -0.06090757996 4.48912409e-39
0.06702008098 -0.06321147084 0.04399496689 4.48912409e-39
0.2084401697 0.03495892137 -0.04860847443 4.48912409e-39
0.1329399198 0.03403299302 0.05005256459 4.48912409e-39
-0.2317023724 -0.08392006904 -0.1478634626 4.48912409e-39
0.2898181677 -0.2529248595 -0.2081848532 4.48912409e-39
-0.2352614999 -0.3450910449 -0.1664117873 4.48912409e-39
-0.2310180366 -0.02220783569 -0.121541135 4.48912409e-39
0.2892965078 -0.2902731895 -0.2090584487 4.673152414e-39
-0.1729392409 -0.3699317575 -0.2160566002 4.673152414e-39
0.1327547878 0.03349795938 0.07491892576 4.673152414e-39
-0.1273308098 0.04229550064 -0.1392599344 4.673152414e-39
0.3341505229 0.03614545614 -0.196465984 4.673152414e-39
-0.1768929213 0.04390753061 -0.1770956069 4.673152414e-39
-0.2331047207 -0.1716012955 -0.1250355095 4.673152414e-39
0.1455849856 0.03436566144 0.0253203027 4.673152414e-39
-0.1025034264 0.0416232422 -0.1265586466 4.857539469e-39
0.2962152362 0.03514745086 -0.1222691238 4.857539469e-39
0.2381978631 -0.4458248019 -0.2491182983 4.857539469e-39
-0.2226977497 -0.3569403291 -0.2038684338 4.857539469e-39
0.06692751497 -0.06347899139 0.05642811954 4.857539469e-39
0.1454924196 0.03409814835 0.03775345907 4.857539469e-39
-0.1521581709 0.04296775162 -0.1519611776 4.857539469e-39
-0.2319688201 -0.09663702548 -0.1357215047 4.857539469e-39
0.2585577071 0.03495200723 -0.08537177742 5.041567793e-39
0.2711102068 0.03501715511 -0.09767088294 5.041567793e-39
0.1756316274 -0.4575299323 -0.2376465797 5.041567793e-39
0.2789232135 -0.1406773776 -0.2056981176 5.041567793e-39
0.104318656 -0.0760005042 0.03167275712 5.041567793e-39
-0.2058844417 -0.06719604135 -0.145742774 5.041567793e-39
-0.1149633899 0.04182560742 -0.1266926974 5.041567793e-39
0.1580449343 0.03416328877 0.02545434982 5.041567793e-39
-0.03632003441 -0.3973242342 -0.2027313113 5.225597518e-39
-0.2348548621 -0.2841813564 -0.1027899683 5.225597518e-39
0.1059537604 0.06014092639 0.07217539102 5.225597518e-39
-0.2018128484 0.04431226104 -0.1773637086 5.225597518e-39
0.2889487147 -0.315172106 -0.2096408308 5.225597518e-39
0.2903398573 -0.2155764848 -0.2073112577 5.225597518e-39
0.2804882228 -0.02863231301 -0.2030773461 5.225597518e-39
0.1052581966 0.01034309715 0.0710106045 5.225597518e-39
0.1048290879 -0.0267377384 0.05770385265 5.409984573e-39
0.06691627949 -0.05156458169 0.08158568293 5.409984573e-39
0.2786567807 -0.1533943713 -0.1935561597 5.409984573e-39
0.2803143561 -0.04108175635 -0.2033685446 5.409984573e-39
-0.02839162759 0.0385364145 -0.03872219846 5.409984573e-39
-0.231029287 -0.01029339805 -0.09638362378 5.409984573e-39
0.02024490014 0.03424920142 0.1234451234 5.409984573e-39
0.1577672362 0.03336074203 0.06275381148 5.409984573e-39
0.1576746851 0.03309322149 0.07518702745 5.594012897e-39
0.008525457233 0.03659170866 0.02384577692 5.594012897e-39
-0.2328495085 -0.1469698995 -0.1120199487 5.594012897e-39
0.3212277591 0.03501024097 -0.1344342083 5.594012897e-39
0.06699761748 -0.03938263282 0.09431003779 5.594012897e-39
0.06666106731 -0.07619594783 0.06857007742 5.594012897e-39
0.1380778998 -0.4693722725 -0.2383399159 5.594012897e-39
0.2208075374 0.03448904306 -0.03604124114 5.594012897e-39
0.2710176706 0.03474963456 -0.08523772657 5.77804122e-39
0.3086752295 0.03494508564 -0.1221350729 5.77804122e-39
0.1167786121 -0.07620286942 0.03180680424 5.77804122e-39
-0.1978591681 -0.3695270121 -0.216324687 5.77804122e-39
-0.2350287586 -0.2966308296 -0.1030811667 5.77804122e-39
0.07912106812 -0.07639831305 0.06870412827 5.77804122e-39
0.281091243 0.02089796588 -0.1894793957 5.77804122e-39
0.2812651098 0.0333474651 -0.1891881973 5.77804122e-39
-0.01148143783 -0.4099108875 -0.2151875645 5.962428276e-39
-0.2352502644 -0.357005477 -0.1915692985 5.962428276e-39
0.279004544 -0.1284954548 -0.1929737628 5.962428276e-39
0.1184137017 0.05993855745 0.07230944186 5.962428276e-39
0.008155204356 0.03552164137 0.0735784471 5.962428276e-39
0.1172890365 -0.02694010735 0.0578379035 5.962428276e-39
0.2902472913 -0.2158440053 -0.1948781013 5.962428276e-39
0.1703197509 0.03342588991 0.05045470223 5.962428276e-39
0.1298415512 -0.02687495947 0.04553879797 6.1464566e-39
-0.2306927294 0.02651989087 -0.07064369321 6.1464566e-39
0.3464253545 0.03540805727 -0.1714656055 6.1464566e-39
-0.05312639475 0.03947617859 -0.06385663152 6.1464566e-39
0.007877515629 0.03471908718 0.1108779162 6.1464566e-39
0.2800478935 -0.05379874632 -0.1912265867 6.1464566e-39
0.263507098 -0.3521157205 -0.2107825279 6.1464566e-39
0.2332674861 0.03428667784 -0.03590719402 6.1464566e-39
0.09158101678 -0.07660068572 0.06883817166 6.330484923e-39
0.07902850211 -0.07666583359 0.08113733679 6.330484923e-39
0.1177994758 0.02232265286 0.08386906236 6.330484923e-39
0.2834776044 0.03454726934 -0.08510367572 6.330484923e-39
0.06314419955 -0.4806075394 -0.2394354045 6.330484923e-39
-0.1808944196 -0.04350444674 -0.1075927913 6.330484923e-39
0.3463327885 0.03514053673 -0.1590324193 6.330484923e-39
0.07560420036 -0.4808098972 -0.2393013537 6.330484923e-39
-0.01157400012 -0.4101783931 -0.2027544081 6.514514648e-39
-0.1931805164 -0.03085260838 -0.1074356437 6.514514648e-39
0.2910354137 -0.1657786667 -0.2061464638 6.514514648e-39
-0.004212209955 0.03599153459 0.06101119146 6.514514648e-39
-0.2320726216 -0.08499013633 -0.09813080728 6.514514648e-39
-0.004397336394 0.0354564935 0.08587755263 6.514514648e-39
0.2912093103 -0.1533292234 -0.2058552653 6.514514648e-39
-0.2335563153 -0.1848532856 -0.08802720159 6.514514648e-39
0.2833850384 0.03427975625 -0.07267051935 6.698542971e-39
-0.07795375586 0.04014843702 -0.07655791193 6.698542971e-39
-0.2341705263 -0.222469151 -0.0764676407 6.698542971e-39
-0.1808131039 -0.03132249415 -0.0948684141 6.698542971e-39
-0.1151485071 0.04129057378 -0.1018263698 6.698542971e-39
0.1292273104 -0.06449083239 0.05709835887 6.698542971e-39
0.213011533 -0.4581370354 -0.2372444421 6.698542971e-39
0.3020116389 -0.2658441663 -0.1959088445 6.698542971e-39
0.3018377721 -0.2782936394 -0.196200043 6.882571295e-39
0.3026258945 -0.2282283008 -0.2074684054 6.882571295e-39
0.3016638756 -0.2907430828 -0.1964912415 6.882571295e-39
-0.2304678261 -0.02997798473 -0.1202709377 6.882571295e-39
0.2939915359 0.04586205631 -0.2011961043 6.882571295e-39
0.2917309701 -0.1159808561 -0.2049816847 6.882571295e-39
0.3014086485 -0.3153744936 -0.2095067948 6.882571295e-39
0.2941654325 0.05831149966 -0.2009049058 6.882571295e-39
-0.01648703031 0.03672893345 0.03601083532 7.066599618e-39
-0.2313882858 -0.0232779067 -0.07180847973 7.066599618e-39
-0.02876188047 0.03746633977 0.01101047918 7.066599618e-39
0.258187443 0.03388193995 -0.03563909978 7.066599618e-39
-0.09041373432 0.04035080969 -0.07669195533 7.066599618e-39
0.2911167443 -0.1535967439 -0.1934221089 7.066599618e-39
-0.23089692 -0.067058824 -0.1335777193 7.066599618e-39
0.1041923836 -0.04052476957 0.1195784956 7.066599618e-39
0.3588852882 0.0352056846 -0.1713315547 7.250627941e-39
0.1421164274 -0.02761236392 0.07053915411 7.250627941e-39
-0.2355279624 -0.3578080535 -0.1542697996 7.250627941e-39
-0.01722753607 0.03458879143 0.1354761869 7.250627941e-39
0.1880102307 -0.4699142277 -0.2502368689 7.250627941e-39
0.3719006777 0.03660842776 -0.2457964867 7.250627941e-39
-0.2325129658 -0.1101565734 -0.08628001809 7.250627941e-39
-0.1855731159 -0.3821788132 -0.2164818347 7.250627941e-39
0.1544137299 -0.05217860639 0.04522449523 7.434656265e-39
-0.2334749699 -0.1726713628 -0.07530285418 7.434656265e-39
0.2932034135 -0.004203286488 -0.1899277419 7.434656265e-39
0.06301185489 -0.4238420725 -0.2022413164 7.434656265e-39
0.2918123007 -0.103798911 -0.1922573298 7.434656265e-39
0.1288683116 -0.07747530937 0.08167353272 7.434656265e-39
-0.1110797748 -0.396110028 -0.2035356015 7.434656265e-39
0.2706474066 0.03367956728 -0.03550504893 7.434656265e-39
-0.04886130989 -0.4093037844 -0.2155897021 7.618684588e-39
0.1420238763 -0.0278798826 0.08297237009 7.618684588e-39
0.1544950455 -0.03999665752 0.0579488501 7.618684588e-39
-0.05349665135 0.03840610385 -0.01412398554 7.618684588e-39
0.2940728664 0.05804398283 -0.1884717643 7.618684588e-39
0.3012347817 -0.3278239369 -0.2097979784 7.618684588e-39
-0.2314808518 -0.02354542539 -0.059375301 7.618684588e-39
0.2831999063 0.03374471515 -0.04780418426 7.618684588e-39
-0.02959494479 0.0350586772 0.122908935 7.802712912e-39
-0.02922469564 0.03612875193 0.07317630947 7.802712912e-39
0.141420871 -0.07741015404 0.06937436759 7.802712912e-39
0.2004702389 -0.4701166153 -0.250102818 7.802712912e-39
-0.2345295548 -0.2354536653 -0.0518925041 7.802712912e-39
-0.2331271917 -0.1477724463 -0.0747204572 7.802712912e-39
0.3716230094 0.03580587357 -0.2084970027 7.802712912e-39
0.3083049953 0.03387501836 -0.07240243256 7.802712912e-39
-0.2306226492 0.05061627924 -0.03276180476 7.986382503e-39
-0.234877333 -0.2603525519 -0.05247489363 7.986382503e-39
-0.1856656671 -0.3824463189 -0.2040486783 7.986382503e-39
0.2633332014 -0.3645651937 -0.2110737264 7.986382503e-39
-0.243275553 -0.05467453226 -0.1209873855 7.986382503e-39
0.02563201264 -0.4232349694 -0.202643469 7.986382503e-39
-0.09059885889 0.0398157686 -0.05182562023 7.986382503e-39
0.2704622746 0.03314452618 -0.01063874178 7.986382503e-39
0.3030549884 -0.1911474615 -0.1941616535 8.170410826e-39
0.3142164052 -0.2906779349 -0.208790347 8.170410826e-39
-0.2309704274 0.02571733668 -0.03334420174 8.170410826e-39
-0.2060808092 -0.05581666902 -0.09571889788 8.170410826e-39
0.3334099948 0.03400531411 -0.09700064361 8.170410826e-39
0.1540547013 -0.06516308337 0.06979960948 8.170410826e-39
-0.04186976701 0.03579608351 0.09790857136 8.170410826e-39
-0.231144309 0.01326789521 -0.03363540024 8.170410826e-39
0.3140425086 -0.303127408 -0.2090815455 8.35443915e-39
-0.1030588076 0.04001813382 -0.05195967108 8.35443915e-39
-0.04224001616 0.03472600877 0.1476412416 8.35443915e-39
-0.1775408685 0.04203490168 -0.09006345272 8.35443915e-39
0.3713453114 0.03500331938 -0.1711975038 8.35443915e-39
-0.04140695184 0.03713367134 0.03574274108 8.35443915e-39
-0.2308890969 0.03789931908 -0.02061981894 8.35443915e-39
0.3207649589 0.03367265314 -0.07226838171 8.35443915e-39
0.3150858581 -0.2284306735 -0.2073343545 8.538467473e-39
0.3333174586 0.03373779356 -0.08456748724 8.538467473e-39
0.3054081202 -0.02903704904 -0.2028092444 8.538467473e-39
0.1503639668 -0.4820241034 -0.2384970784 8.538467473e-39
-0.2353990078 -0.2977009118 -0.05334848911 8.538467473e-39
0.3148193955 -0.2411476672 -0.1951923966 8.538467473e-39
0.3052342534 -0.04148649424 -0.2031004429 8.538467473e-39
-0.1403461397 0.04089275748 -0.06479496509 8.538467473e-39
-0.2322689742 -0.07361073792 -0.04810693115 8.722137064e-39
-0.230981648 0.03763180226 -0.008186666295 8.722137064e-39
-0.2358056456 -0.3586106002 -0.1169703081 8.722137064e-39
-0.2307264358 0.06226317212 0.004828912206 8.722137064e-39
-0.2315846682 -0.01189850643 -0.02178460918 8.722137064e-39
0.3010608852 -0.3402734101 -0.2100891769 8.722137064e-39
0.3054894507 -0.01685509644 -0.1900848895 8.722137064e-39
0.1753764004 -0.4821613431 -0.250662148 8.722137064e-39
0.3044461012 -0.09155183285 -0.1918320805 8.906165387e-39
-0.2357018441 -0.3702574968 -0.1545609981 8.906165387e-39
0.3046199977 -0.07910235971 -0.191540882 8.906165387e-39
0.2827370763 0.03240712732 0.0143616721 8.906165387e-39
-0.07850912958 0.03854332864 -0.00195892714 8.906165387e-39
0.3049677908 -0.05420348421 -0.190958485 8.906165387e-39
0.3080272973 0.03307246417 -0.03510290757 8.906165387e-39
0.05047057942 -0.4358216524 -0.2150997221 8.906165387e-39
-0.2312481105 0.02491478249 0.003955318592 9.089834978e-39
-0.2308190018 0.06199565157 0.01726206578 9.089834978e-39
0.3136947453 -0.3280262947 -0.2096639425 9.089834978e-39
-0.06623431295 0.03780592233 0.02304148674 9.089834978e-39
-0.09690903127 -0.0302582588 -0.05838570371 9.089834978e-39
-0.06706738472 0.03539826721 0.1349399984 9.089834978e-39
-0.1777260005 0.04149986804 -0.06519711018 9.089834978e-39
-0.1092764437 -0.02978837304 -0.07095293701 9.089834978e-39
-0.06651200354 0.03700337559 0.06034095213 9.273863302e-39
0.3270241022 -0.265981406 -0.2080738991 9.273863302e-39
0.3838052452 0.03480094671 -0.171063453 9.273863302e-39
-0.2315145582 0.0121978242 0.01609727554 9.273863302e-39
0.23785007 -0.4707237184 -0.2497006953 9.273863302e-39
-0.1094503403 -0.04223781824 -0.0712441355 9.273863302e-39
0.3266763389 -0.2908802927 -0.2086562961 9.273863302e-39
-0.1217363924 -0.02958600409 -0.07108698785 9.273863302e-39
-0.2026459277 0.04190459847 -0.06546520442 9.457532893e-39
0.06283796579 -0.4362915158 -0.2025325149 9.457532893e-39
-0.1096242219 -0.05468725413 -0.07153533399 9.457532893e-39
0.3156888485 -0.1789003909 -0.1937364191 9.457532893e-39
-0.2318623513 -0.01270106062 0.01551488228 9.457532893e-39
-0.21066688 -0.3942235708 -0.2170411348 9.457532893e-39
-0.1529912353 0.0405600965 -0.04006267712 9.457532893e-39
-0.09106167406 0.03847818077 0.01034023985 9.457532893e-39
-0.07897194475 0.03720574081 0.06020690128 9.641561216e-39
-0.2320362329 -0.0251505319 0.01522368379 9.641561216e-39
-0.1097981185 -0.06713671982 -0.07182653248 9.641561216e-39
0.3275457919 -0.2286330312 -0.2072003037 9.641561216e-39
-0.09718671441 -0.03106081299 -0.02108621225 9.641561216e-39
-0.07887938619 0.03747325391 0.04777375236 9.641561216e-39
0.317694217 -0.04168886319 -0.202966392 9.641561216e-39
-0.2316996902 0.01166278869 0.04096358269 9.641561216e-39
-0.2311892509 0.06092557684 0.06699474156 9.825230807e-39
-0.1220841706 -0.05448488146 -0.07166937739 9.825230807e-39
0.3264098763 -0.3035972714 -0.1965143383 9.825230807e-39
-0.1097167879 -0.05495477468 -0.05910214782 9.825230807e-39
0.3173464239 -0.0665877685 -0.203548789 9.825230807e-39
-0.1654511839 0.04076246172 -0.04019672424 9.825230807e-39
-0.231466949 0.0601230301 0.1042942032 9.825230807e-39
0.3163844049 -0.1291025728 -0.1925716251 9.825230807e-39
-0.2313631475 0.04847613722 0.06670354307 1.000925913e-38
0.2127563059 -0.4827684462 -0.2502599955 1.000925913e-38
-0.2316408455 0.04767358303 0.1040030122 1.000925913e-38
-0.2319185287 0.04687102884 0.141302526 1.000925913e-38
-0.09115423262 0.03821066022 0.0227733925 1.000925913e-38
-0.2315370291 0.03602669388 0.06641234457 1.000925913e-38
0.3184711039 0.02029086091 -0.1890772581 1.000925913e-38
-0.1342889369 -0.02965115197 -0.0587878488 1.000925913e-38
-0.09785981476 -0.1046874449 -0.07256607711 1.019292872e-38
-0.2319998443 0.03468910232 0.1285781711 1.019292872e-38
-0.09207986295 0.03553548455 0.1471050531 1.019292872e-38
0.3278935552 -0.2037341297 -0.2066179216 1.019292872e-38
-0.2318147272 0.03522413969 0.1037118137 1.019292872e-38
-0.09152448922 0.03714059293 0.07250607014 1.019292872e-38
0.0005381661467 -0.4352796972 -0.2032027543 1.019292872e-38
0.317601651 -0.04195638001 -0.1905332357 1.019292872e-38
-0.134544149 -0.05428251624 -0.07180342823 1.037659831e-38
-0.1096466929 -0.03085844405 -0.02122026123 1.037659831e-38
-0.2359795272 -0.3710600436 -0.1172615066 1.037659831e-38
0.2002038062 -0.4828335643 -0.237960875 1.037659831e-38
-0.232221365 -0.02568556741 0.04008999467 1.037659831e-38
-0.2321962118 0.04606847465 0.1786020398 1.037659831e-38
0.3189927638 0.05763924494 -0.1882036626 1.037659831e-38
-0.2322775424 0.03388655186 0.1658776402 1.037659831e-38
-0.02428916655 -0.4346074462 -0.2159040123 1.056062664e-38
-0.1283490062 0.03935280442 -0.002495119348 1.056062664e-38
-0.2318848073 0.01112775132 0.06582995504 1.056062664e-38
-0.2322074473 0.05798288435 0.203759551 1.056062664e-38
0.3276271224 -0.2164511234 -0.1944759637 1.056062664e-38
-0.110064581 -0.07985368371 -0.05968454108 1.056062664e-38
-0.2323588729 0.02170456946 0.1531532854 1.056062664e-38
-0.1036141813 0.03841302544 0.02263934538 1.056062664e-38
-0.1159815714 0.03888291121 0.01007214189 1.074429623e-38
-0.2323952615 -0.03813501075 0.03979879618 1.074429623e-38
-0.2360019982 -0.3472312093 -0.06694643199 1.074429623e-38
-0.2323000133 0.0577153638 0.2161927074 1.074429623e-38
-0.01192178112 -0.4350773096 -0.2033368051 1.074429623e-38
-0.1591162533 -0.02897890098 -0.07148912549 1.074429623e-38
-0.1734609157 -0.4072801173 -0.2169301808 1.074429623e-38
-0.1103197932 -0.1044850796 -0.07270012051 1.074429623e-38
-0.1042621285 0.03654040396 0.1096714884 1.092796582e-38
0.3261546791 -0.3282286525 -0.2095298916 1.092796582e-38
-0.2323139161 -0.02595308609 0.05252320319 1.092796582e-38
-0.104447253 0.03600537032 0.1345378608 1.092796582e-38
-0.2325552255 0.03308399767 0.2031771541 1.092796582e-38
-0.2324739099 0.04526592046 0.2159015089 1.092796582e-38
-0.1039844379 0.03734295815 0.07237201929 1.092796582e-38
-0.1226058453 -0.09183327109 -0.07254297286 1.092796582e-38
-0.1102384627 -0.09230315685 -0.05997573957 1.111163541e-38
-0.1408089548 0.03955516964 -0.002629166469 1.111163541e-38
0.2252162546 -0.482970804 -0.2501259446 1.111163541e-38
-0.2328104377 0.008452571929 0.1901616007 1.111163541e-38
0.2881605923 -0.3652374446 -0.1983724684 1.111163541e-38
-0.2324878126 -0.0384025313 0.05223201215 1.111163541e-38
-0.0976382941 -0.04431281239 0.01592211053 1.111163541e-38
-0.1160741374 0.03861539066 0.02250529826 1.111163541e-38
-0.2328216881 0.02036697976 0.2153191119 1.1295305e-38
-0.2328917682 -0.003729352029 0.1774372607 1.1295305e-38
-0.1715762317 -0.02877653204 -0.07162317634 1.1295305e-38
-0.134474054 -0.03018618934 -0.03392150998 1.1295305e-38
0.3279748857 -0.1915522069 -0.1938935667 1.1295305e-38
-0.1859208941 -0.4070777297 -0.2170642316 1.1295305e-38
-0.2329955697 0.007917536423 0.2150279135 1.1295305e-38
0.3707899153 0.033398211 -0.09659849107 1.1295305e-38
-0.2324990481 -0.0264881216 0.07738951594 1.147897319e-38
-0.2325916141 -0.02675563842 0.08982267231 1.147897319e-38
-0.09821881354 -0.1176719218 -0.04799093306 1.147897319e-38
-0.1161667034 0.03834787756 0.0349384509 1.147897319e-38
-0.1285341233 0.03881776333 0.02237124741 1.147897319e-38
-0.2360833287 -0.359413147 -0.07967081666 1.147897319e-38
0.3281487823 -0.1791027635 -0.1936023682 1.147897319e-38
0.3311974704 0.03280550987 -0.2010851651 1.147897319e-38
-0.2329254746 0.03201392293 0.2529098392 1.166264278e-38
-0.2331469953 -0.0283607468 0.1644216478 1.166264278e-38
-0.2331806868 0.007382500451 0.2398942858 1.166264278e-38
0.3283226788 -0.1666532904 -0.1933111697 1.166264278e-38
-0.1472705603 -0.06679713726 -0.05979548767 1.166264278e-38
-0.1292746365 0.0366776213 0.1218365431 1.166264278e-38
-0.134659186 -0.03072122298 -0.009055201896 1.166264278e-38
-0.1110153496 -0.1542829126 -0.07386490703 1.166264278e-38
-0.1719240099 -0.05367541313 -0.07220557332 1.184631237e-38
-0.0984852761 -0.1303889155 -0.03584894538 1.184631237e-38
0.3299802542 -0.05434070155 -0.2031235397 1.184631237e-38
-0.2332732528 0.007114982698 0.2523274422 1.184631237e-38
-0.09849651158 -0.1184744835 -0.01069143973 1.184631237e-38
0.3298063576 -0.06679013371 -0.2034147382 1.184631237e-38
0.3959875107 0.0337960273 -0.1336299181 1.184631237e-38
-0.1362549365 -0.4203366935 -0.2168192416 1.184631237e-38
0.4088177085 0.03466372937 -0.1832285225 1.202998196e-38
0.3288443387 -0.1293049306 -0.1924375743 1.202998196e-38
-0.2333658189 0.006847464945 0.2647606134 1.202998196e-38
-0.09817120433 -0.06974675506 0.04020602629 1.202998196e-38
0.330409348 -0.01725983247 -0.1898168027 1.202998196e-38
-0.1416420192 0.03714750707 0.1092693508 1.202998196e-38
0.3397393525 -0.2415523976 -0.1949243098 1.202998196e-38
-0.1224768907 -0.03172614425 0.02837836742 1.202998196e-38
-0.1108526886 -0.1299190223 -0.04841617867 1.221365155e-38
-0.110863924 -0.1180045903 -0.02325864136 1.221365155e-38
-0.2332845032 0.01902939007 0.2774849534 1.221365155e-38
-0.09826377034 -0.07001427561 0.05263918266 1.221365155e-38
-0.1593939364 -0.02978145517 -0.03418960422 1.221365155e-38
-0.1534540504 0.03922250122 0.02210315317 1.221365155e-38
-0.10116373 -0.3412270844 -0.07809882611 1.221365155e-38
0.331278801 0.04498743638 -0.1883608103 1.221365155e-38
-0.1004681587 -0.2914292514 -0.07693403959 1.239732115e-38
-0.09925092757 -0.2042830735 -0.07489565015 1.239732115e-38
-0.172271803 -0.07857432216 -0.0727879703 1.239732115e-38
-0.1103759706 -0.04491299391 0.0530875288 1.239732115e-38
-0.1134498119 -0.3285752237 -0.07794167101 1.239732115e-38
0.06266407669 -0.4487409592 -0.2028237134 1.239732115e-38
-0.09820491076 -0.03400351107 0.1156786084 1.239732115e-38
-0.1132759303 -0.3161257803 -0.07765047252 1.239732115e-38
-0.09977260232 -0.2416314185 -0.07576924562 1.258099074e-38
-0.1225694567 -0.0319936648 0.0408115238 1.258099074e-38
-0.09893685579 -0.1436409205 0.001159319654 1.258099074e-38
-0.09885552526 -0.1314589977 0.01388372853 1.258099074e-38
-0.1232313067 -0.117534712 -0.03582584485 1.258099074e-38
-0.1257358789 -0.3159234226 -0.07778452337 1.258099074e-38
-0.09861154854 -0.09491319209 0.05205678567 1.258099074e-38
-0.2338762581 -0.04241529852 0.2387294918 1.258099074e-38
-0.1719352454 -0.04176101089 -0.04704803228 1.276466033e-38
-0.1842212975 -0.02910919674 -0.04689088464 1.276466033e-38
-0.1782813668 0.03989475965 0.009401902556 1.276466033e-38
-0.09829747677 -0.03427102417 0.1281117648 1.276466033e-38
-0.2335509509 0.006312430371 0.2896268964 1.276466033e-38
-0.1538242996 0.03815243393 0.07183583081 1.276466033e-38
-0.2356740087 -0.2029206157 0.1727780998 1.276466033e-38
-0.09911075234 -0.1560903937 0.0008681211621 1.276466033e-38
-0.09935472906 -0.1926361769 -0.03730493411 1.294832852e-38
-0.1120586842 -0.2289796174 -0.07561209798 1.294832852e-38
-0.1380219609 -0.3032715917 -0.07762737572 1.294832852e-38
-0.2360330373 -0.2159051001 0.197353214 1.294832852e-38
-0.1726195812 -0.1034732386 -0.07337035984 1.294832852e-38
-0.1007346213 -0.3041462302 -0.06479205191 1.294832852e-38
-0.1378480643 -0.2908221483 -0.07733617723 1.294832852e-38
-0.1111416072 -0.1188071519 0.01404087991 1.294832852e-38
-0.236299485 -0.228622064 0.2094951719 1.313163938e-38
0.01389756054 -0.4341684878 0.3101710379 1.313163938e-38
-0.2339351028 -0.07842605561 0.1756900698 1.313163938e-38
-0.09969127178 -0.2294495106 -0.06304486096 1.313163938e-38
0.3706048131 0.03286317736 -0.07173219323 1.313163938e-38
-0.1000390649 -0.2543484271 -0.06362725794 1.313163938e-38
-0.1849056333 -0.09082143009 -0.07321321219 1.313163938e-38
-0.2363808155 -0.2408040166 0.196770817 1.313163938e-38
-0.08658895642 -0.4335955977 -0.2165742517 1.331530897e-38
-0.1727934629 -0.1159226894 -0.07366155833 1.331530897e-38
-0.1846504211 -0.06619003415 -0.06019763276 1.331530897e-38
-0.1262575388 -0.3532717824 -0.07865811884 1.331530897e-38
-0.233643502 0.006044910755 0.3020601273 1.331530897e-38
-0.2360442728 -0.203990683 0.2225107104 1.331530897e-38
-0.2364846021 -0.2291571051 0.2343615294 1.331530897e-38
-0.1243447512 -0.2163278162 -0.07545495033 1.331530897e-38
-0.2340613902 -0.04295033589 0.2635958195 1.349897856e-38
-0.1719464809 -0.02984660305 -0.0218904987 1.349897856e-38
-0.1660065651 0.03915735334 0.03440225869 1.349897856e-38
-0.2353262305 -0.178021729 0.1733604968 1.349897856e-38
-0.1375002861 -0.2659232318 -0.07675378025 1.349897856e-38
-0.09897056222 -0.1078976616 0.07663194835 1.349897856e-38
-0.1373264045 -0.2534737885 -0.07646258175 1.349897856e-38
0.3407013714 -0.1790376157 -0.2059014738 1.349897856e-38
-0.1883834451 -0.3398104906 -0.07903715968 1.368228942e-38
-0.2341427058 -0.05513228849 0.2508714497 1.368228942e-38
-0.148569122 -0.1661252528 -0.07455825061 1.368228942e-38
-0.1663768142 0.0380872786 0.08413493633 1.368228942e-38
0.3517701924 -0.2788355947 -0.2080970109 1.368228942e-38
-0.1107574552 -0.03406865895 0.1279777139 1.368228942e-38
-0.1662842482 0.03835479915 0.07170177996 1.368228942e-38
-0.1353659779 -0.06860461831 0.01493757218 1.368228942e-38
-0.2338173985 -0.006404531188 0.3017689288 1.386595901e-38
-0.1357838511 -0.1175998598 -0.02352673747 1.386595901e-38
-0.2364032865 -0.2169751823 0.2470858842 1.386595901e-38
-0.2365434617 -0.2651678622 0.1713221073 1.386595901e-38
-0.1234276742 -0.1061553434 0.01419802755 1.386595901e-38
-0.1480586678 -0.1168624461 -0.04852712154 1.386595901e-38
-0.1731412411 -0.1408216059 -0.07424394786 1.386595901e-38
-0.1845690757 -0.05400808156 -0.04747328162 1.386595901e-38
0.2880792618 -0.3774193823 -0.2110968232 1.404926846e-38
-0.2367510647 -0.2418740988 0.2465034872 1.404926846e-38
-0.1499602348 -0.2657208741 -0.07688783109 1.404926846e-38
-0.2362293899 -0.2045257241 0.2473770827 1.404926846e-38
-0.1750540435 -0.2777656019 -0.07744712383 1.404926846e-38
-0.2369137257 -0.2662379444 0.2210547328 1.404926846e-38
-0.2343053669 -0.07949613035 0.2254226953 1.404926846e-38
-0.09881915152 -0.07161938399 0.1272381693 1.404926846e-38
-0.1381145269 -0.3035391271 -0.06519418955 1.423293806e-38
-0.2367173582 -0.2776173055 0.1710309088 1.423293806e-38
-0.2368436307 -0.2421416044 0.2589366436 1.423293806e-38
-0.1618984938 -0.2281701565 -0.07614828646 1.423293806e-38
-0.1722016931 -0.05447796732 -0.03490604833 1.423293806e-38
0.01415278018 -0.4095371068 0.3231865764 1.423293806e-38
-0.1015115082 -0.3661259711 -0.07868121564 1.423293806e-38
-0.1610290557 -0.1659228802 -0.074692294 1.423293806e-38
-0.1355398744 -0.0810540542 0.01464637741 1.441624891e-38
-0.1236015558 -0.1186047941 0.01390683278 1.441624891e-38
-0.2370062768 -0.26650545 0.2334879339 1.441624891e-38
-0.2339912951 -0.0188539736 0.3014777303 1.441624891e-38
-0.2367623001 -0.2299596518 0.2716609836 1.441624891e-38
-0.1669321954 0.03648217022 0.1587339193 1.441624891e-38
-0.235152334 -0.1655722558 0.1736516953 1.441624891e-38
-0.1139714867 -0.3659235835 -0.07881526649 1.441624891e-38
-0.1242634207 -0.2041458637 -0.06273056567 1.459991851e-38
-0.1004906297 -0.2676004171 -0.02661896311 1.459991851e-38
-0.1244373173 -0.2165953368 -0.06302176416 1.459991851e-38
-0.09915569425 -0.1084326953 0.1014982611 1.459991851e-38
-0.2339099646 -0.006672048941 0.3142020702 1.459991851e-38
-0.1784664989 0.03935972601 0.03426821157 1.459991851e-38
-0.2370988429 -0.2667729855 0.2459210902 1.459991851e-38
-0.2363219559 -0.2047932297 0.2598102391 1.459991851e-38
-0.08766592294 -0.3345272839 0.15684627 1.478322936e-38
-0.1113379896 -0.1074277759 0.06406469643 1.478322936e-38
-0.1481512338 -0.1171299666 -0.0360939391 1.478322936e-38
-0.2359629422 -0.1918087602 0.2352351248 1.478322936e-38
-0.187166214 -0.2526642978 -0.07699877769 1.478322936e-38
-0.0877584815 -0.3347948194 0.1692794263 1.478322936e-38
-0.2344792634 -0.09194560349 0.2251314968 1.478322936e-38
0.3410491645 -0.1541386992 -0.2053190768 1.478322936e-38
-0.1630344093 -0.3031343818 -0.06546229124 1.496689755e-38
-0.1114193052 -0.1196096987 0.05134034529 1.496689755e-38
-0.1869923174 -0.2402148545 -0.0767075792 1.496689755e-38
-0.2371914089 -0.2670404911 0.2583542466 1.496689755e-38
-0.2370287627 -0.2426766455 0.2838029563 1.496689755e-38
-0.2360496223 -0.3951564133 -0.1551433951 1.496689755e-38
-0.07422157377 -0.4340654612 -0.2040070444 1.496689755e-38
-0.100409314 -0.2554184794 -0.01389461197 1.496689755e-38
-0.1354697794 -0.05695769936 0.05252823606 1.515020841e-38
-0.2343278378 -0.05566732213 0.2757377625 1.515020841e-38
-0.1359689832 -0.1181349009 0.001339569688 1.515020841e-38
-0.1722129434 -0.04256356508 -0.009748542681 1.515020841e-38
-0.188128233 -0.3151791096 -0.06602157652 1.515020841e-38
-0.2340025306 -0.006939566694 0.3266352117 1.515020841e-38
0.3417447209 -0.1043408588 -0.2041542828 1.515020841e-38
-0.178744182 0.03855717182 0.07156772912 1.515020841e-38
0.02678661421 -0.3972900212 0.3236118257 1.533351927e-38
0.01380499825 -0.4344359934 0.3226041794 1.533351927e-38
0.3440052867 0.05750202388 -0.2003687173 1.533351927e-38
-0.1512700319 -0.3531345725 -0.06649303436 1.533351927e-38
-0.2356964946 -0.1790917963 0.2230931073 1.533351927e-38
-0.1638112962 -0.3651141226 -0.07935145497 1.533351927e-38
-0.2350710183 -0.1533903331 0.1863760352 1.533351927e-38
-0.1598567516 -0.03111904301 0.02797622606 1.533351927e-38
-0.1626866311 -0.2782354951 -0.06487989426 1.551683013e-38
-0.2372502685 -0.3030512631 0.1953148246 1.551683013e-38
-0.1845803261 -0.04209367931 -0.02231574431 1.551683013e-38
-0.1860947907 -0.4195272028 -0.2173554301 1.551683013e-38
-0.174010694 -0.2030688673 -0.07569994032 1.551683013e-38
-0.2373765409 -0.2675755322 0.2832205594 1.551683013e-38
0.3420924842 -0.07944194973 -0.2035718858 1.551683013e-38
-0.04822837189 -0.420707196 0.3097919822 1.551683013e-38
-0.1792995632 0.03695206344 0.1461667269 1.570049832e-38
-0.2374578714 -0.2797574699 0.2704962194 1.570049832e-38
-0.1241232306 -0.1559531689 0.01303324103 1.570049832e-38
-0.1859489828 -0.1655181497 -0.07496039569 1.570049832e-38
-0.1360615343 -0.1184024215 0.01377278566 1.570049832e-38
-0.1261874437 -0.3291754425 -0.04077620059 1.570049832e-38
-0.1793921292 0.03668454289 0.1585998833 1.570049832e-38
-0.1376854032 -0.2664582729 -0.05188744515 1.570049832e-38
0.3831573129 0.03292831779 -0.08403129876 1.588380918e-38
-0.2343390733 -0.04375289008 0.3008953333 1.588380918e-38
-0.2363497764 -0.3721301258 -0.06752882898 1.588380918e-38
-0.1128692925 -0.2552161217 -0.01402866095 1.588380918e-38
-0.2341764271 -0.01938900724 0.3263440132 1.588380918e-38
-0.2372138798 -0.2432116866 0.3086693287 1.588380918e-38
-0.2375167161 -0.3157682419 0.2074567825 1.588380918e-38
-0.1114530265 -0.08386645466 0.12681292 1.588380918e-38
0.3422663808 -0.06699250638 -0.2032807022 1.606712004e-38
-0.1477558464 -0.0443058908 0.05268538371 1.606712004e-38
-0.1795772612 0.03614950925 0.1834661812 1.606712004e-38
-0.1855198741 -0.1284373105 -0.06165361777 1.606712004e-38
-0.1606111676 -0.1169276088 -0.03622798622 1.606712004e-38
-0.1239688545 -0.4329884946 -0.2169763893 1.606712004e-38
-0.2375504375 -0.2800249755 0.2829293609 1.606712004e-38
-0.09914150089 -0.4336607456 -0.2042751461 1.606712004e-38
-0.1138200611 -0.3296453059 -0.02820899896 1.625043089e-38
-0.2377130836 -0.3043888509 0.2574806511 1.625043089e-38
-0.1140640527 -0.366191119 -0.06638208032 1.625043089e-38
-0.1796698123 0.0358819887 0.1958993971 1.625043089e-38
-0.1377779692 -0.2667258084 -0.03945425898 1.625043089e-38
-0.1481737047 -0.09330116212 0.0142211318 1.625043089e-38
-0.1364906579 -0.1554832906 0.000465977937 1.625043089e-38
-0.1015339792 -0.3422971666 -0.02836614847 1.625043089e-38
-0.2362406403 -0.1926113069 0.272534579 1.643374035e-38
-0.2358532548 -0.4065357745 -0.2051672786 1.643374035e-38
-0.1240419 -0.1437712014 0.02575759217 1.643374035e-38
-0.02305323072 -0.3964805603 0.3230756223 1.643374035e-38
-0.1485102624 -0.1301144809 -0.01151882857 1.643374035e-38
-0.1846728921 -0.04236119241 -0.009882590733 1.643374035e-38
-0.1264539063 -0.3418924212 -0.02863424458 1.643374035e-38
-0.1511073709 -0.3287706971 -0.04104429483 1.643374035e-38
-0.186296761 -0.1904170513 -0.07554279268 1.661705121e-38
-0.1845915616 -0.03017926775 0.002841761336 1.661705121e-38
-0.1499714702 -0.2538064718 -0.05173029751 1.661705121e-38
-0.2349195927 -0.1171120405 0.2369823158 1.661705121e-38
-0.112400718 -0.3335875273 0.1317117959 1.661705121e-38
-0.2352561504 -0.1539253592 0.211242348 1.661705121e-38
-0.11194098 -0.1569580883 0.05046674982 1.661705121e-38
-0.234675616 -0.08056620508 0.2751553655 1.661705121e-38
-0.1869109869 -0.2280329317 -0.06398320198 1.680036207e-38
-0.1366645545 -0.1679327339 0.0001747813076 1.680036207e-38
-0.1600418836 -0.03165408224 0.05284253135 1.680036207e-38
-0.1389839798 -0.3657863736 -0.06665018201 1.680036207e-38
0.3426954746 -0.0299116727 -0.1899739504 1.680036207e-38
-0.1724793911 -0.05528052151 0.002393415198 1.680036207e-38
-0.1885685623 -0.3403455317 -0.05417082086 1.680036207e-38
-0.2363332063 -0.1928788275 0.2849677503 1.680036207e-38
-0.1762824953 -0.3529973328 -0.05432797223 1.698367293e-38
-0.1737273633 -0.4199970961 -0.2047882229 1.698367293e-38
0.05153262243 -0.4101442099 0.3235887289 1.698367293e-38
-0.1880468875 -0.3029971421 -0.05329722911 1.698367293e-38
-0.2351748198 -0.1417434067 0.2239667028 1.698367293e-38
-0.1118008047 -0.1087653637 0.126230523 1.698367293e-38
-0.1240531504 -0.131856814 0.05091509596 1.698367293e-38
-0.17231673 -0.03091667406 0.02784217522 1.698367293e-38
0.3419999182 -0.07970947027 -0.1911387444 1.716698239e-38
-0.2364423424 -0.3723976314 -0.05509567261 1.716698239e-38
-0.136583209 -0.1557508111 0.01289919019 1.716698239e-38
-0.1001765579 -0.2069582492 0.0494360067 1.716698239e-38
-0.1608776301 -0.1296445876 -0.02408603206 1.716698239e-38
-0.2378757298 -0.3287526965 0.2320319563 1.716698239e-38
0.3423477113 -0.05481058732 -0.1905563474 1.716698239e-38
0.3512485027 -0.3161839545 -0.2089705914 1.716698239e-38
-0.1602270007 -0.03218911588 0.07770889997 1.735029324e-38
-0.1364288181 -0.4327861369 -0.2171104401 1.735029324e-38
-0.1919446737 0.03661939502 0.1708989888 1.735029324e-38
-0.1865632087 -0.2031340152 -0.063400805 1.735029324e-38
0.3421738148 -0.06726002693 -0.1908475459 1.735029324e-38
-0.1119746864 -0.121214807 0.1259393245 1.735029324e-38
-0.2354412675 -0.1544604003 0.2361087203 1.735029324e-38
-0.2376906127 -0.3282176852 0.207165584 1.735029324e-38
-0.1614806205 -0.1791748703 -0.03768397495 1.75336041e-38
-0.1846841127 -0.0304467883 0.01527497545 1.75336041e-38
-0.03701559454 -0.4471220076 -0.2038961053 1.75336041e-38
-0.2380720973 -0.3173733354 0.2820557654 1.75336041e-38
-0.03551317751 -0.3962781727 0.3229415715 1.75336041e-38
-0.1507538259 -0.3835808039 0.167444393 1.75336041e-38
-0.1367571056 -0.1682002544 0.01260799356 1.75336041e-38
-0.1510202885 -0.3962977529 0.1795863509 1.75336041e-38
-0.1010347754 -0.2811199725 0.02282251418 1.771655483e-38
0.07619735599 -0.4351803362 0.3108412623 1.771655483e-38
-0.1013937891 -0.2941044271 0.0473976247 1.771655483e-38
-0.1007907987 -0.2445741296 0.06099556759 1.771655483e-38
0.02634627372 -0.4224564135 0.3354625702 1.771655483e-38
-0.1482775211 -0.08165424317 0.05181178823 1.771655483e-38
-0.1883133501 -0.3157141507 -0.04115524143 1.771655483e-38
-0.2379907668 -0.3051913977 0.294780165 1.771655483e-38
-0.1360251606 -0.05856280774 0.1271272153 1.789986569e-38
-0.1123813242 -0.1821244955 0.0623175092 1.789986569e-38
-0.1140051931 -0.330180347 -0.003342690878 1.789986569e-38
0.02669405192 -0.3975575268 0.3360449672 1.789986569e-38
-0.1884872317 -0.328163594 -0.04144643992 1.789986569e-38
-0.1873513311 -0.2531993389 -0.05213243887 1.789986569e-38
-0.1753317267 -0.2785681784 -0.04014760256 1.789986569e-38
-0.2359458208 -0.4068032801 -0.1927340925 1.789986569e-38
-0.1849393398 -0.05507814884 0.002259366214 1.808317654e-38
-0.1741958112 -0.2036038935 -0.0508336015 1.808317654e-38
-0.1493797153 -0.1923617572 -0.01297481637 1.808317654e-38
0.3575893939 0.0314604342 0.002732746303 1.808317654e-38
-0.1734189242 -0.1416241527 -0.03694443032 1.808317654e-38
-0.1369309872 -0.1806496829 0.01231679693 1.808317654e-38
-0.1016377658 -0.3306502402 0.009224571288 1.808317654e-38
-0.1855310947 -0.1165228635 -0.03649608418 1.808317654e-38
-0.1505799443 -0.3711313307 0.1677355915 1.826612727e-38
-0.187965557 -0.2908152342 -0.04057284817 1.826612727e-38
-0.1848580092 -0.0428962335 0.01498377696 1.826612727e-38
-0.06184295565 -0.4464497864 -0.2165973485 1.826612727e-38
0.01274289377 -0.4601134658 -0.2160842568 1.826612727e-38
-0.1483112276 -0.04591099173 0.1272843778 1.826612727e-38
-0.1249926835 -0.2182004452 0.0115772523 1.826612727e-38
-0.1604121327 -0.03272414953 0.1025752127 1.826612727e-38
-0.1764451563 -0.3773612082 -0.07977670431 1.844943813e-38
-0.1126365364 -0.2067558914 0.0493019633 1.844943813e-38
-0.1242607534 -0.1085630059 0.126096487 1.844943813e-38
0.06381867826 -0.422796011 0.3234315813 1.844943813e-38
-0.1378817856 -0.2550789118 -0.001863600686 1.844943813e-38
-0.1130486578 -0.3354601264 0.2187440097 1.844943813e-38
-0.1251665652 -0.2306498885 0.01128605567 1.844943813e-38
-0.1864818782 -0.1909520775 -0.05067645386 1.844943813e-38
0.08883118629 -0.4229332507 0.3112665117 1.863274899e-38
0.08900508285 -0.4104838073 0.3115577102 1.863274899e-38
-0.1490431577 -0.1555484384 0.01276514307 1.863274899e-38
-0.1605635583 -0.06900243461 0.05196894333 1.863274899e-38
-0.1135059893 -0.2690031528 0.04784597084 1.863274899e-38
0.3511559367 -0.3164514601 -0.19653745 1.863274899e-38
-0.1010684818 -0.2453766763 0.09829509258 1.863274899e-38
-0.1133321077 -0.2565537095 0.04813716933 1.863274899e-38
-0.1502321661 -0.346232444 0.1683179885 1.881569971e-38
-0.1885797977 -0.3284310997 -0.02901328541 1.881569971e-38
-0.1365355998 -0.1078255922 0.1010961235 1.881569971e-38
-0.1134246737 -0.256821245 0.0605703257 1.881569971e-38
-0.2363385558 -0.384044528 -0.09268636256 1.881569971e-38
-0.1019491702 -0.2957095504 0.1219966114 1.881569971e-38
-0.2349532992 -0.08136875927 0.3124548793 1.881569971e-38
-0.2348719835 -0.06918683648 0.325179249 1.881569971e-38
-0.1254160404 -0.334990263 0.206176728 1.899901057e-38
-0.1504986137 -0.358949393 0.1804599464 1.899901057e-38
-0.1256882399 -0.2679982185 0.01041246206 1.899901057e-38
-0.1735114902 -0.1418916732 -0.02451127581 1.899901057e-38
-0.1014275104 -0.2583611906 0.1228702068 1.899901057e-38
-0.0494755432 -0.4469196498 -0.2040301412 1.899901057e-38
-0.1731749624 -0.105078347 0.001228624955 1.899901057e-38
-0.2359854132 -0.167979911 0.2855501473 1.899901057e-38
0.4209999442 0.03365880251 -0.1457949877 1.91819627e-38
-0.1856236607 -0.1167903841 -0.02406292967 1.91819627e-38
-0.1607374549 -0.08145187795 0.05167774484 1.91819627e-38
-0.1487178653 -0.1068206728 0.06366254389 1.91819627e-38
-0.1500582695 -0.3337829709 0.168609187 1.91819627e-38
-0.1503247321 -0.3464999497 0.18075113 1.91819627e-38
-0.1018116623 -0.3430997133 0.008933372796 1.91819627e-38
-0.1260360181 -0.292897135 0.009830066934 1.91819627e-38
-0.148799181 -0.1190025955 0.05093820021 1.936527215e-38
-0.1366281658 -0.1080931127 0.1135292798 1.936527215e-38
-0.1878842413 -0.2786332965 -0.02784849703 1.936527215e-38
-0.1130180359 -0.1959115565 0.1241921484 1.936527215e-38
-0.1848692447 -0.03098182194 0.04014128447 1.936527215e-38
0.4339227974 0.03479403257 -0.2078267634 1.936527215e-38
-0.1503417343 -0.254876554 -0.00199764967 1.936527215e-38
-0.1640777439 -0.3778311312 -0.06720946729 1.936527215e-38
-0.2351271957 -0.09381823242 0.3121636808 1.954822428e-38
-0.1146643758 -0.3201385736 0.1088470221 1.954822428e-38
-0.1247824132 -0.1459113508 0.1252228916 1.954822428e-38
-0.1607711613 -0.04570862651 0.127150327 1.954822428e-38
-0.189020142 -0.3535975218 -0.01716252603 1.954822428e-38
-0.1386698931 -0.3051442206 0.009404823184 1.954822428e-38
-0.2354637533 -0.1306315511 0.2864237428 1.954822428e-38
-0.1138874888 -0.2581588328 0.122736156 1.954822428e-38
-0.1137949228 -0.2578913271 0.1103029996 1.973153514e-38
-0.1137023568 -0.2576237917 0.09786984324 1.973153514e-38
-0.1378759891 -0.3347879052 0.2060426772 1.973153514e-38
-0.114235267 -0.2830577493 0.122153759 1.973153514e-38
-0.1861453354 -0.1541387737 -0.02493652143 1.973153514e-38
-0.15147762 -0.3298407495 0.008688379079 1.973153514e-38
-0.1251778156 -0.2187354714 0.03644356132 1.973153514e-38
-0.1365213692 -0.4330536425 -0.2046772838 1.973153514e-38
-0.1268466264 -0.3191336393 0.0714135021 1.991448586e-38
-0.1401985288 -0.3573497236 0.1201384813 1.991448586e-38
-0.1269391924 -0.3194011748 0.08384665847 1.991448586e-38
-0.1749951839 -0.2417548001 -0.01440770179 1.991448586e-38
-0.1495648324 -0.1928967983 0.01189155132 1.991448586e-38
-0.1256181598 -0.2439018488 0.04829431698 1.991448586e-38
-0.1279124469 -0.3700015247 0.1199813336 1.991448586e-38
-0.1850543767 -0.03151685745 0.06500759721 1.991448586e-38
-0.1179690287 -0.363820672 0.2161449343 2.009743799e-38
-0.1613487452 -0.4323813915 -0.2173785269 2.009743799e-38
-0.08676284552 -0.4460450411 -0.2168654501 2.009743799e-38
-0.07349607348 -0.4452013671 0.3089414835 2.009743799e-38
-0.01077841036 -0.3972179592 0.3480759859 2.009743799e-38
-0.1251302063 -0.1708102673 0.1246404946 2.009743799e-38
0.4338302314 0.03452651203 -0.195393607 2.009743799e-38
0.101291135 -0.4231356084 0.3114005625 2.009743799e-38
-0.1502434015 -0.334318012 0.1934754848 2.028074885e-38
-0.1018929929 -0.355281651 -0.003791037947 2.028074885e-38
-0.2381421924 -0.3414697051 0.2441739142 2.028074885e-38
0.4209073782 0.03339128941 -0.1333618313 2.028074885e-38
-0.160945043 -0.05815806985 0.1268591285 2.028074885e-38
-0.1641114503 -0.3420878649 0.008263133466 2.028074885e-38
-0.1379685402 -0.3350554109 0.218475908 2.028074885e-38
-0.2382347584 -0.3417372108 0.2566070557 2.028074885e-38
-0.1731161028 -0.06906757504 0.06426805258 2.046369957e-38
-0.1889388263 -0.3414156139 -0.00443817582 2.046369957e-38
-0.151755318 -0.3306432962 0.04598784074 2.046369957e-38
-0.1143529713 -0.3550792634 -0.003925085999 2.046369957e-38
-0.1766302735 -0.3778962493 -0.05491036549 2.046369957e-38
0.02625371143 -0.422723949 0.3478957415 2.046369957e-38
-0.1858901232 -0.1295073777 -0.01192097273 2.046369957e-38
-0.1268690974 -0.295304805 0.1217285246 2.046369957e-38
-0.1744735092 -0.2044064552 -0.01353411004 2.06466517e-38
-0.1260697395 -0.2571538985 0.08530265093 2.06466517e-38
-0.1851357073 -0.04369878769 0.05228323862 2.06466517e-38
-0.1373012513 -0.1817197502 0.06204941496 2.06466517e-38
0.3554218709 -0.01739705354 -0.2019818574 2.06466517e-38
-0.1652923077 -0.3693944216 0.119579196 2.06466517e-38
-0.06193551794 -0.4467172921 -0.2041641921 2.06466517e-38
-0.2364311069 -0.3843120337 -0.08025320619 2.06466517e-38
-0.2111072242 -0.419389993 -0.2051903754 2.082996116e-38
-0.2383273244 -0.3420047462 0.2690402269 2.082996116e-38
-0.1536800861 -0.2628154159 0.1807729155 2.082996116e-38
-0.1538539678 -0.2752648294 0.180481717 2.082996116e-38
-0.1772081256 -0.3556725085 0.07000371814 2.082996116e-38
-0.1398507506 -0.3324508071 0.1207208782 2.082996116e-38
-0.1731385738 -0.04523874074 0.1145831198 2.082996116e-38
-0.1542017609 -0.3001637757 0.17989932 2.082996116e-38
-0.1860640049 -0.1419568211 -0.01221217029 2.101291328e-38
-0.1635897756 -0.3047394753 0.00913672708 2.101291328e-38
0.01265033148 -0.4603809714 -0.2036511004 2.101291328e-38
-0.1649445295 -0.3444955349 0.1201615781 2.101291328e-38
-0.1769416928 -0.3429555595 0.05786170438 2.101291328e-38
-0.1611189395 -0.07060754299 0.12656793 2.101291328e-38
-0.1899457723 -0.3562727273 0.1071691364 2.101291328e-38
-0.1537726521 -0.2630829215 0.193206057 2.101291328e-38
-0.1618508697 -0.1802449524 0.01204870082 2.119586541e-38
-0.1749781966 -0.3333782554 0.1683410853 2.119586541e-38
-0.101985544 -0.3555491567 0.008642176166 2.119586541e-38
-0.2358227521 -0.1436160356 0.3109988868 2.119586541e-38
-0.1612703502 -0.1068858206 0.07596170902 2.119586541e-38
-0.1770454794 -0.3313086629 0.09545242786 2.119586541e-38
-0.1871073544 -0.2166535556 -0.01395935565 2.119586541e-38
0.3550741076 -0.04229597002 -0.2025642544 2.119586541e-38
0.354552418 -0.07964431494 -0.2034378499 2.137881613e-38
-0.1884171516 -0.3040672243 -0.003564582206 2.137881613e-38
-0.1766639948 -0.3421530128 0.02056223899 2.137881613e-38
0.3540307581 -0.1169927046 -0.2043114454 2.137881613e-38
-0.164770633 -0.3320460618 0.1204527766 2.137881613e-38
-0.1270906031 -0.3556794524 0.03324038908 2.137881613e-38
-0.1543868929 -0.3006988168 0.2047656327 2.137881613e-38
-0.1770567298 -0.3193942606 0.1206099391 2.137881613e-38
-0.1733124554 -0.05768818408 0.1142919213 2.156176826e-38
-0.1623725444 -0.2175933421 0.01117510907 2.156176826e-38
-0.1541316658 -0.2760673761 0.2177811712 2.156176826e-38
-0.1892389804 -0.3183893263 0.08317641914 2.156176826e-38
-0.1890313774 -0.3416831195 0.007995037362 2.156176826e-38
-0.188243255 -0.2916177809 -0.003273385577 2.156176826e-38
-0.1750707626 -0.333645761 0.1807742417 2.156176826e-38
-0.1271831691 -0.3559469581 0.04567354545 2.156176826e-38
-0.1614330113 -0.131249696 0.05051295087 2.174471899e-38
-0.1383558214 -0.2445020676 0.08545979857 2.174471899e-38
-0.1613629162 -0.1071533412 0.08839486539 2.174471899e-38
0.4082623124 0.03305862844 -0.1086295396 2.174471899e-38
-0.1621986479 -0.2051438689 0.0114663057 2.174471899e-38
-0.1267792135 -0.3906201422 -0.07953171432 2.174471899e-38
0.0001903851517 -0.4601785839 -0.2037851512 2.174471899e-38
-0.1859013438 -0.1175929457 0.01323659346 2.174471899e-38
-0.1543981135 -0.2887843549 0.2299231887 2.192767111e-38
-0.137937963 -0.1955068111 0.1239240468 2.192767111e-38
-0.1893903911 -0.354667604 0.03257014975 2.192767111e-38
-0.1628942192 -0.2549416721 0.01030151546 2.192767111e-38
-0.15457201 -0.3012338281 0.2296319902 2.192767111e-38
-0.1763162166 -0.3172541261 0.02114463598 2.192767111e-38
-0.1898419708 -0.367919594 0.0695784688 2.192767111e-38
-0.1615143269 -0.1434316188 0.03778860345 2.192767111e-38
-0.1510822326 -0.2570166886 0.09746770561 2.211062324e-38
-0.1546421051 -0.3253301978 0.1917500794 2.211062324e-38
-0.1734751165 -0.08205205947 0.08884321153 2.211062324e-38
0.3638823628 -0.3039368689 -0.208545357 2.211062324e-38
-0.1751633286 -0.3339132965 0.1932073832 2.211062324e-38
-0.1516151428 -0.2824506164 0.1217516214 2.211062324e-38
-0.1891576499 -0.3062073588 0.095900774 2.211062324e-38
-0.1307992339 -0.3646883965 0.2657435834 2.211062324e-38
0.4336450994 0.03399147838 -0.1705272645 2.229357396e-38
-0.1735564321 -0.09423401207 0.07611887157 2.229357396e-38
-0.1664064825 -0.2753300071 0.1927808225 2.229357396e-38
-0.1878954768 -0.2667188644 -0.002690989524 2.229357396e-38
-0.2119878083 -0.3317010701 0.1182062626 2.229357396e-38
-0.1547234207 -0.3375121057 0.1790257245 2.229357396e-38
-0.1308917999 -0.3649559021 0.2781767249 2.229357396e-38
-0.1892978251 -0.3544000983 0.0201369971 2.229357396e-38
