# .PCD v0.7 - Point Cloud Data file format
VERSION 0.7
FIELDS x y z rgb
SIZE 4 4 4 4
TYPE F F F F
COUNT 1 1 1 1
WIDTH 832
HEIGHT 1
VIEWPOINT 0 0 0 1 0 0 0
POINTS 832
DATA ascii
0.1727253348 -0.4633016586 0.3043323755 1.147897319e-38
-0.3116975725 -0.404550612 -0.1195332631 1.147897319e-38
-0.3532643318 -0.1418751776 -0.02392893657 1.147897319e-38
-0.1599426717 -0.2516022921 -0.1979212165 1.166264278e-38
0.03615199029 -0.32238397 -0.193026185 1.166264278e-38
-0.2138399482 -0.4610681534 0.2516092062 1.166264278e-38
-0.1742236912 -0.3659847379 0.2932528853 1.166264278e-38
0.1197471544 -0.2060930282 -0.22545968 1.166264278e-38
-0.3534329534 -0.1929589808 -0.1779668629 1.166264278e-38
-0.3138377964 -0.3440345526 0.2981610894 1.166264278e-38
-0.341575563 -0.178291887 -0.1489189118 1.166264278e-38
0.07437141985 -0.3292050064 -0.1937159598 1.184631237e-38
-0.3433126509 -0.1765441298 0.1054417789 1.184631237e-38
0.1480145007 -0.3661932647 0.305075407 1.184631237e-38
0.2219123691 -0.134864971 -0.2483886033 1.184631237e-38
-0.3215452731 -0.3014196455 0.2442904264 1.184631237e-38
-0.1381837279 -0.3981299698 -0.1220933869 1.184631237e-38
-0.08598960936 -0.328548044 -0.1527030468 1.184631237e-38
-0.3526925147 -0.1495596915 -0.03322467208 1.184631237e-38
-0.2150475681 -0.3470253646 0.2690932751 1.202998196e-38
0.1270098984 -0.4014658928 0.292506367 1.202998196e-38
-0.1758314222 -0.3989934325 -0.1306993663 1.202998196e-38
-0.3120166957 -0.3608882129 0.2909513414 1.202998196e-38
-0.3055156171 -0.4330179691 0.2300530076 1.202998196e-38
0.1466375738 -0.0783810392 -0.03948926926 1.202998196e-38
-0.3382095695 -0.2070207149 0.1344631165 1.202998196e-38
0.1510849297 -0.392215997 0.2999516129 1.202998196e-38
-0.216127038 -0.4303301275 0.2887921929 1.221365155e-38
0.04955482483 -0.2382965386 -0.2136503458 1.221365155e-38
-0.1767640114 -0.4525201619 0.2695109248 1.221365155e-38
-0.1894168854 -0.3089650869 -0.1826297194 1.221365155e-38
0.06079873443 -0.320818603 -0.1948766708 1.221365155e-38
0.1109385639 -0.3747412264 0.2871737182 1.221365155e-38
0.1405825913 -0.4098523259 0.293667078 1.221365155e-38
0.1589609981 -0.07759834081 -0.04041451216 1.221365155e-38
-0.2277293801 -0.3899858594 -0.1518477648 1.239732115e-38
-0.1174341962 -0.4178686738 0.302067697 1.239732115e-38
-0.323343426 -0.4068178833 -0.1072262973 1.239732115e-38
-0.3015143871 -0.343251884 0.2972358465 1.239732115e-38
-0.1926237941 -0.4133957028 0.3055331707 1.239732115e-38
-0.3406864405 -0.1673766822 -0.09618229419 1.239732115e-38
-0.3174781799 -0.3725894094 -0.1599362791 1.239732115e-38
-0.3446677327 -0.1735749245 0.08267838508 1.239732115e-38
-0.2985497713 -0.3754745126 0.2714345455 1.258099074e-38
-0.03301738948 -0.7092949748 -0.3548452854 1.258099074e-38
-0.1872245967 -0.3652828336 0.2827964425 1.258099074e-38
0.1533090174 -0.3611853421 -0.1909235567 1.258099074e-38
-0.2240582556 -0.2371775359 -0.1974669397 1.258099074e-38
-0.08696330339 -0.4056529403 -0.1123266667 1.258099074e-38
0.1239176989 -0.09060014039 -0.02417112514 1.258099074e-38
-0.1963717639 -0.3858883679 0.299275279 1.258099074e-38
-0.0992866978 -0.4064356089 -0.1114014238 1.276466033e-38
-0.172974363 -0.3751538396 0.2953388691 1.276466033e-38
-0.3130756319 -0.2793295085 0.2164298594 1.276466033e-38
-0.1561947167 -0.2791096568 -0.1916633397 1.276466033e-38
0.1380839497 -0.3915140927 0.2894951403 1.276466033e-38
0.1368128508 -0.09750197083 -0.03439209983 1.276466033e-38
-0.1186835095 -0.4086995721 0.2999817133 1.276466033e-38
-0.3227099478 -0.2260608673 0.1490914971 1.276466033e-38
0.1668817699 -0.3695717454 -0.1897628456 1.294832852e-38
-0.3132660389 -0.3517190814 0.2888653576 1.294832852e-38
-0.2694339752 -0.3602895439 -0.1657232046 1.294832852e-38
-0.2004781961 -0.4005587995 -0.1288488805 1.294832852e-38
0.07420156896 -0.2367311567 -0.2155008316 1.294832852e-38
-0.2438985854 -0.2296083272 -0.00251621753 1.294832852e-38
-0.2663737237 -0.3457023203 0.238649115 1.294832852e-38
-0.3473779261 -0.1676364839 0.03715153411 1.294832852e-38
-0.1521172374 -0.4509547949 0.267660439 1.313163938e-38
0.1596385539 -0.07908295095 -0.02903281525 1.313163938e-38
0.00775722228 -0.2964420319 -0.1974335909 1.313163938e-38
-0.2774478197 -0.3556541204 0.2416603118 1.313163938e-38
-0.3103424907 -0.4075198472 -0.09676983953 1.313163938e-38
-0.3226659 -0.4083025157 -0.09584459662 1.313163938e-38
-0.2940807343 -0.3618549109 -0.1638727188 1.313163938e-38
-0.1904424727 -0.4503336549 0.2476727515 1.313163938e-38
-0.3271971643 -0.3855104446 -0.1341616511 1.331530897e-38
0.2191164345 -0.158211112 0.2517822981 1.331530897e-38
-0.135960713 -0.3301942348 -0.1603837907 1.331530897e-38
0.1848570704 -0.08520206809 -0.04017903656 1.331530897e-38
-0.3440959752 -0.1812594235 0.07338264585 1.331530897e-38
0.07187277824 -0.3108667731 -0.1978878826 1.331530897e-38
-0.3080142736 -0.4146797657 0.2258810848 1.331530897e-38
-0.2363816202 -0.2379602194 -0.1965416968 1.331530897e-38
-0.2034434229 -0.4496317506 0.2372163087 1.349897856e-38
-0.3503625095 -0.2189817131 -0.1830906719 1.349897856e-38
-0.2540503442 -0.3449196219 0.2377238721 1.349897856e-38
-0.3374673426 -0.2258835435 -0.1933116764 1.349897856e-38
-0.2289786935 -0.3808167577 -0.1539337337 1.349897856e-38
0.02615741082 -0.249031052 -0.2097138911 1.349897856e-38
-0.2087574452 -0.3502594233 -0.1734238118 1.349897856e-38
-0.2359463573 -0.3760981262 0.2772016525 1.349897856e-38
0.1374903917 -0.09898658097 -0.02301040106 1.368228942e-38
-0.3251439631 -0.2251008451 -0.1942369193 1.368228942e-38
-0.23408176 -0.3503401577 -0.1829550415 1.368228942e-38
-0.105788365 -0.4156013727 0.2897607684 1.368228942e-38
-0.345451057 -0.1782901883 0.05061919242 1.368228942e-38
-0.3344615996 -0.2345280647 0.1407210082 1.368228942e-38
-0.326754123 -0.2771430016 0.1945916563 1.368228942e-38
-0.1781191081 -0.4495509565 0.2467475086 1.368228942e-38
0.01508329995 -0.2589828372 -0.2067026794 1.386595901e-38
-0.342846632 -0.1904285401 0.07546860725 1.386595901e-38
-0.1495334059 -0.3218078017 -0.1615445167 1.386595901e-38
-0.1144695356 -0.4500913322 0.2762664557 1.386595901e-38
-0.06930999458 -0.7131276727 -0.340687871 1.386595901e-38
0.1927778423 -0.3771755099 -0.1895273626 1.386595901e-38
-0.332300216 -0.3550338745 -0.163182959 1.386595901e-38
0.1491580606 -0.3815622926 0.2864839435 1.386595901e-38
0.1966086626 -0.07673487812 -0.03180854023 1.404926846e-38
-0.08753507584 -0.3979684114 -0.1030309349 1.404926846e-38
-0.223007679 -0.3403883576 -0.1859662533 1.404926846e-38
-0.3386538029 -0.1718305051 -0.06203718111 1.404926846e-38
0.2301904857 -0.1482593119 0.2487711012 1.404926846e-38
0.2165120244 -0.14607279 0.2269329429 1.404926846e-38
-0.007693070918 -0.7092142105 -0.3453140855 1.404926846e-38
0.0631275177 -0.2466829717 -0.2124896199 1.404926846e-38
-0.3387595713 -0.1780304313 -0.0827146098 1.423293806e-38
-0.0959636122 -0.3964804411 0.284663558 1.423293806e-38
-0.3086918294 -0.413195163 0.2144993842 1.423293806e-38
-0.0900337249 -0.3796301782 -0.1072028577 1.423293806e-38
-0.3373615742 -0.2196836323 -0.1726342291 1.423293806e-38
-0.3125038445 -0.2870140076 0.2071341276 1.423293806e-38
0.1873557121 -0.1035403088 -0.03600711003 1.423293806e-38
-0.3511887789 -0.1850129962 -0.1024668291 1.423293806e-38
0.1345691681 -0.2236485779 -0.2222130001 1.441624891e-38
-0.2042389065 -0.2914095521 -0.1858763993 1.441624891e-38
-0.3216510713 -0.3076195717 0.2236129791 1.441624891e-38
-0.1917975694 -0.4473644197 0.2249093652 1.441624891e-38
-0.09414251894 -0.4133340716 0.2774538398 1.441624891e-38
-0.3170351386 -0.2642219365 0.1688170433 1.441624891e-38
-0.3189620078 -0.2535682321 0.1553493887 1.441624891e-38
-0.09128304571 -0.3704610765 -0.1092888266 1.441624891e-38
-0.2458768785 -0.4014189243 0.261621356 1.459991851e-38
0.1924381256 -0.1922277659 -0.2330970913 1.459991851e-38
-0.20554474 -0.7202526331 -0.3418918848 1.459991851e-38
-0.2981895208 -0.3955588043 0.2207839191 1.459991851e-38
-0.3099411428 -0.4040260315 0.2124134302 1.459991851e-38
-0.3380820155 -0.179515034 -0.07133290917 1.459991851e-38
0.2326891273 -0.1665975302 0.2529430091 1.459991851e-38
0.1579666436 -0.2129140645 -0.2261494547 1.459991851e-38
-0.3117622435 -0.3871723711 0.2196231931 1.478322936e-38
-0.2047985196 -0.4466625154 0.2144528478 1.478322936e-38
-0.3448792696 -0.1859747022 0.04132345319 1.478322936e-38
0.219010666 -0.1644110084 0.2311048508 1.478322936e-38
-0.3200614452 -0.4204408526 -0.0709952116 1.478322936e-38
-0.1829048544 -0.4004746974 0.2797585726 1.478322936e-38
-0.3047963679 -0.3296289146 0.261004746 1.478322936e-38
0.215835616 -0.1814932525 -0.237033546 1.478322936e-38
-0.2341252416 -0.3929517567 0.2699918747 1.496689755e-38
-0.08124735951 -0.4202359319 0.2672328353 1.496689755e-38
-0.3089873791 -0.4104890525 -0.07400642335 1.496689755e-38
-0.3489445448 -0.1770670414 -0.02696678974 1.496689755e-38
-0.3347988725 -0.3366956115 -0.1673548818 1.496689755e-38
-0.258877784 -0.40071702 0.2511649132 1.496689755e-38
0.2218272537 -0.08285398781 -0.04295476526 1.496689755e-38
-0.3077380359 -0.4196581542 -0.0719204545 1.496689755e-38
-0.1067826375 -0.3514209092 -0.1239171997 1.515020841e-38
-0.2768760324 -0.3633386493 0.23236458 1.515020841e-38
-0.2165623158 -0.2921922803 -0.1849511564 1.515020841e-38
-0.2255063206 -0.3220501542 -0.1901381761 1.515020841e-38
-0.2112561017 -0.3319211602 -0.1775957346 1.515020841e-38
-0.1411489695 -0.4472028911 0.2439717799 1.515020841e-38
-0.158680588 -0.342413336 -0.1450656205 1.515020841e-38
-0.3498336673 -0.1879822314 -0.0797034055 1.515020841e-38
-0.3378275931 -0.205799222 -0.1426610202 1.533351927e-38
-0.3374044895 -0.1809996367 -0.05995121598 1.533351927e-38
-0.06863243878 -0.7146122456 -0.3293061852 1.533351927e-38
-0.347589463 -0.1800362617 -0.004203392193 1.533351927e-38
-0.01933889464 -0.7114815116 -0.333007127 1.533351927e-38
-0.2257037163 -0.7872216702 0.1512225121 1.533351927e-38
0.1426767856 -0.119212009 0.2730940282 1.533351927e-38
-0.2003794163 -0.7871409059 0.1607538015 1.533351927e-38
-0.3384211063 -0.2194205076 0.09310819209 1.551683013e-38
-0.3087975979 -0.4193950295 0.1938219517 1.551683013e-38
-0.3234933019 -0.2307761461 0.1170323119 1.551683013e-38
-0.3106186986 -0.4025414288 0.2010317296 1.551683013e-38
-0.2378297299 -0.3228328228 -0.1892129332 1.551683013e-38
-0.2947588861 -0.441665858 0.1650094539 1.551683013e-38
-0.3436299562 -0.1951438338 0.04340941831 1.551683013e-38
-0.1288255602 -0.4464201927 0.243046537 1.551683013e-38
-0.3103219271 -0.2426563799 -0.1909902394 1.570049832e-38
-0.07517058402 -0.3736076355 0.2558777928 1.570049832e-38
-0.208906725 -0.3990708292 0.2588456273 1.570049832e-38
0.3064091802 -0.01052767038 -0.07903073728 1.570049832e-38
0.08044818044 -0.2825767398 -0.2050710171 1.570049832e-38
-0.1418265104 -0.4457182884 0.2325900942 1.570049832e-38
-0.1607978642 -0.4041491747 -0.08609778434 1.570049832e-38
-0.329018265 -0.3686568439 -0.1269518733 1.570049832e-38
0.1211663261 -0.3077360392 -0.2015888542 1.588380918e-38
-0.3494734466 -0.2080665231 -0.1303540617 1.588380918e-38
-0.3217979074 -0.3373975754 -0.1568984091 1.588380918e-38
0.005307847634 -0.7099161148 -0.3348576128 1.588380918e-38
-0.335434705 -0.2303373665 -0.1591665596 1.588380918e-38
-0.2107689083 -0.4057953358 -0.09377850592 1.588380918e-38
-0.3360064626 -0.2226528525 -0.149870798 1.588380918e-38
0.1742078513 -0.3321126103 -0.1990319341 1.588380918e-38
-0.1425727308 -0.7193084359 -0.323754698 1.606712004e-38
-0.3321944773 -0.3488339782 -0.1425054967 1.606712004e-38
-0.2721024454 -0.2494774312 -0.1916799992 1.606712004e-38
0.223754108 -0.09350772947 -0.0294870995 1.606712004e-38
-0.25311777 -0.2913928628 -0.1624864191 1.606712004e-38
0.1606351584 -0.3237261772 -0.2001926601 1.606712004e-38
-0.2731280625 -0.3908459842 0.2386224717 1.606712004e-38
-0.2412090898 -0.2937576175 -0.1831006706 1.606712004e-38
-0.1548274308 -0.4450163543 0.2221336365 1.625043089e-38
-0.3268599212 -0.2833428681 0.173914209 1.625043089e-38
-0.1061050892 -0.3529055119 -0.1125355065 1.625043089e-38
-0.1854446381 -0.4057145715 -0.08424729854 1.625043089e-38
-0.3460427821 -0.2541735768 -0.1861285418 1.625043089e-38
-0.3083316088 -0.4332794249 0.1638487428 1.625043089e-38
-0.3364724815 -0.2087684423 -0.119897604 1.625043089e-38
-0.3333180845 -0.2498970777 0.122129485 1.625043089e-38
-0.2948646247 -0.4478657544 0.1443320215 1.643374035e-38
0.0915222913 -0.2726249397 -0.208082214 1.643374035e-38
-0.2230923176 -0.4065780342 -0.09285326302 1.643374035e-38
-0.3187063634 -0.4234100878 -0.04823179543 1.643374035e-38
-0.3199557066 -0.4142409563 -0.05031775683 1.643374035e-38
0.1136704013 -0.2527213097 -0.2141046226 1.643374035e-38
-0.3337193727 -0.2533909082 -0.1870537847 1.643374035e-38
0.2136766165 -0.3481027484 -0.19763574 1.643374035e-38
-0.2392694354 -0.3860532939 -0.118863374 1.661705121e-38
-0.2401168346 -0.2920947969 -0.1520299464 1.661705121e-38
-0.3003273606 -0.3160093129 -0.1743025333 1.661705121e-38
-0.1425040662 -0.4442336559 0.2212083936 1.661705121e-38
-0.231384322 -0.2746366858 -0.1881978363 1.661705121e-38
-0.1977680027 -0.4064972401 -0.08332205564 1.661705121e-38
0.307086736 -0.01201228797 -0.06764903665 1.661705121e-38
-0.09260165691 -0.7176622152 -0.3160739541 1.661705121e-38
0.1186676845 -0.2893977761 -0.205760777 1.680036207e-38
0.2408220619 -0.3648756146 -0.1953142881 1.680036207e-38
-0.1049250364 -0.7184449434 -0.3151487112 1.680036207e-38
-0.1601203084 -0.4056338072 -0.07471606135 1.680036207e-38
-0.3479067683 -0.1986359656 -0.06623574346 1.680036207e-38
-0.3347571492 -0.2318219841 -0.1477848291 1.680036207e-38
-0.3002221584 -0.3911049664 0.1866388321 1.680036207e-38
-0.2984010577 -0.4079586267 0.1794290543 1.680036207e-38
0.1259937733 -0.2519386411 -0.2150298655 1.698367293e-38
-0.3085431457 -0.4456792176 0.1224938184 1.698367293e-38
-0.2966857255 -0.4310121238 0.1515417993 1.698367293e-38
-0.1460404843 -0.4043264985 0.256305337 1.698367293e-38
-0.335583359 -0.1978532672 -0.06716098636 1.698367293e-38
-0.1010020226 -0.3833821118 -0.08351419866 1.698367293e-38
-0.07885448635 -0.4447740316 0.2507272959 1.698367293e-38
0.06556966901 -0.7030334473 -0.3622472286 1.698367293e-38
-0.2374072373 -0.3793287873 0.233760789 1.716698239e-38
-0.251657486 -0.3694577515 0.2212183625 1.716698239e-38
-0.3339956105 -0.248412475 0.1107477844 1.716698239e-38
0.1593858451 -0.3145570457 -0.202278614 1.716698239e-38
-0.06045434251 -0.3973630667 0.2384469658 1.716698239e-38
-0.1713647991 -0.4044072926 0.2467741519 1.716698239e-38
-0.3453652263 -0.2556582093 -0.1747468263 1.716698239e-38
-0.3087558746 -0.3145213723 0.2133920044 1.716698239e-38
-0.3235990703 -0.2369760424 0.09635487199 1.735029324e-38
-0.3132231236 -0.3904030621 0.1761823744 1.735029324e-38
-0.334693104 -0.3304957449 -0.1466774195 1.735029324e-38
-0.3114020228 -0.4072567225 0.1689725369 1.735029324e-38
-0.261482209 -0.3885786831 0.2263155282 1.735029324e-38
-0.1966890842 -0.4044880569 0.237242952 1.735029324e-38
-0.3152140379 -0.2810755968 0.1616072804 1.735029324e-38
-0.3472292423 -0.2001205683 -0.05485404655 1.735029324e-38
0.2395727485 -0.3557064831 -0.197400257 1.75336041e-38
-0.3217568398 -0.3138194382 0.2029355019 1.75336041e-38
-0.3160819709 -0.3519805372 0.2226611078 1.75336041e-38
-0.3346513808 -0.2256220728 -0.1271073818 1.75336041e-38
0.138317138 -0.2511559129 -0.2159551084 1.75336041e-38
-0.3088816106 -0.4042891562 -0.05332896113 1.75336041e-38
-0.319745332 -0.2582834959 0.1232901961 1.75336041e-38
-0.2147354484 -0.7834697962 0.1275338978 1.75336041e-38
-0.3242766261 -0.2354914397 0.0849731788 1.771655483e-38
-0.07652568072 -0.3706384003 0.2331143171 1.771655483e-38
-0.1467180252 -0.4028418958 0.2449236661 1.771655483e-38
-0.2222243696 -0.335673064 -0.1539070904 1.771655483e-38
0.1852819026 -0.3221607804 -0.202043131 1.771655483e-38
-0.31080845 -0.3936353922 -0.06679665297 1.771655483e-38
0.1297417432 -0.279445976 -0.2087719738 1.771655483e-38
-0.2344425619 -0.4115514159 0.207959488 1.771655483e-38
-0.346657455 -0.2078050822 -0.06414978206 1.789986569e-38
0.2509212792 -0.3951235712 0.2946356237 1.789986569e-38
-0.3343340456 -0.2070223838 -0.06507502496 1.789986569e-38
-0.3173512518 -0.4263792932 -0.02546837367 1.789986569e-38
-0.0488085188 -0.3950957656 0.2261400372 1.789986569e-38
-0.262942493 -0.3105137944 -0.1573892534 1.789986569e-38
-0.3378692865 -0.3106728792 -0.162231043 1.789986569e-38
-0.322349757 -0.246145159 0.09844084084 1.789986569e-38
0.3299124539 0.006406739354 -0.06228975952 1.808317654e-38
-0.2981466055 -0.4342428148 0.1081009135 1.808317654e-38
-0.03030719608 -0.7152334452 -0.3093184531 1.808317654e-38
-0.1343946159 -0.4020592272 0.2439984232 1.808317654e-38
-0.3275585771 -0.2218684852 0.04874206334 1.808317654e-38
-0.1683995724 -0.3553343713 -0.1192909926 1.808317654e-38
-0.2370464206 -0.3181175292 -0.1571537852 1.808317654e-38
-0.1821843982 -0.4406432807 0.178457275 1.808317654e-38
-0.1973666251 -0.4030034542 0.2258612365 1.826612727e-38
-0.2534831762 -0.7263526917 -0.3154275417 1.826612727e-38
-0.05363595113 -0.4508931637 0.2395810634 1.826612727e-38
-0.1430752426 -0.355253607 -0.1097597778 1.826612727e-38
0.2547315061 -0.1528938115 0.2262431681 1.826612727e-38
-0.2968972623 -0.4434119165 0.1101868749 1.826612727e-38
-0.256031096 -0.2762020826 -0.1863473505 1.826612727e-38
-0.3317925036 -0.2640446126 -0.1735861003 1.826612727e-38
0.2085095197 -0.2189524323 -0.2277644575 1.844943813e-38
0.2928887308 -0.4294519722 0.3002037406 1.844943813e-38
-0.3094334304 -0.3130367398 0.202010259 1.844943813e-38
-0.05238663033 -0.4600622952 0.2416670173 1.844943813e-38
0.2383234352 -0.3465373516 -0.1994862258 1.844943813e-38
-0.3158915937 -0.2795909643 0.1502255797 1.844943813e-38
-0.2245120704 -0.3862306178 0.2235397995 1.844943813e-38
-0.05613460019 -0.4325549304 0.2354091257 1.844943813e-38
-0.3460856974 -0.2154895812 -0.07344551384 1.863274899e-38
-0.1097478718 -0.4004938304 0.2421479374 1.863274899e-38
-0.345979929 -0.2092896849 -0.05276808515 1.863274899e-38
-0.3151499927 -0.3797493279 0.1627146453 1.863274899e-38
-0.2411598265 -0.7255699635 -0.3163527846 1.863274899e-38
0.1568871886 -0.2962188125 -0.2064505368 1.863274899e-38
-0.3301618397 -0.353287816 -0.1083603725 1.863274899e-38
-0.3438414931 -0.2075436264 0.002054498997 1.863274899e-38
0.2559808195 -0.1620629281 0.2283291221 1.881569971e-38
-0.3336565197 -0.2085069865 -0.05369332805 1.881569971e-38
-0.2997561693 -0.4049893916 0.1566656083 1.881569971e-38
-0.1568600684 -0.4405625463 0.187988475 1.881569971e-38
-0.09253296256 -0.4425875247 0.2288891226 1.881569971e-38
-0.2154129893 -0.7819851637 0.1161521822 1.881569971e-38
-0.3256317079 -0.2325222045 0.06220972165 1.881569971e-38
-0.1042474955 -0.7199295759 -0.3037670255 1.881569971e-38
-0.2444571257 -0.4217663705 -0.05477169901 1.899901057e-38
-0.3338680863 -0.2209067792 -0.09504821897 1.899901057e-38
-0.2510851324 -0.2958467007 -0.1283412725 1.899901057e-38
-0.2326209098 -0.3471094668 -0.1395141631 1.899901057e-38
-0.1980441809 -0.4015188217 0.2144795507 1.899901057e-38
-0.3117193282 -0.4258563817 0.106940195 1.899901057e-38
-0.3434383869 -0.2663119137 -0.1612791568 1.899901057e-38
-0.1963288486 -0.4245723784 0.1865922809 1.899901057e-38
-0.2992901504 -0.4188737869 0.1266924292 1.91819627e-38
-0.3010054827 -0.39582026 0.1545796394 1.91819627e-38
-0.3243812025 -0.3852489889 -0.06795737147 1.91819627e-38
-0.2502377331 -0.3898051679 -0.09517471492 1.91819627e-38
-0.3185806274 -0.3336422741 0.2184891701 1.91819627e-38
-0.2993959188 -0.4250736833 0.1060149521 1.91819627e-38
-0.2998619378 -0.4111892879 0.135988161 1.91819627e-38
-0.3455139399 -0.2231740952 -0.08274127543 1.91819627e-38
0.03063216805 -0.7098352909 -0.3253263831 1.936527215e-38
-0.3120577931 -0.3844662905 -0.06888261437 1.936527215e-38
0.2658055723 -0.1429420114 0.2232319713 1.936527215e-38
0.1531392187 -0.2687114775 -0.2127084285 1.936527215e-38
-0.3211004138 -0.2553142905 0.1005268022 1.936527215e-38
-0.1047499925 -0.355874747 -0.08977208287 1.936527215e-38
0.2922112048 -0.4279673696 0.2888220549 1.936527215e-38
0.1025398374 -0.7006853819 -0.3650229573 1.936527215e-38
-0.3165691495 -0.2781063318 0.1388438195 1.954822428e-38
-0.341914624 -0.2181973606 0.01552218571 1.954822428e-38
-0.2481204867 -0.3280693591 -0.1541425735 1.954822428e-38
0.1692105532 -0.2954361439 -0.2073757797 1.954822428e-38
-0.3367058039 -0.2424740195 0.06522093713 1.954822428e-38
0.1543885469 -0.277880609 -0.2106224746 1.954822428e-38
-0.1788653731 -0.7231410742 -0.3095972538 1.954822428e-38
-0.3316867352 -0.2578447163 -0.1529086679 1.954822428e-38
-0.3101109862 -0.3115521371 0.1906285584 1.973153514e-38
-0.3205074966 -0.3229885697 0.2050214559 1.973153514e-38
-0.1341184378 -0.4070376158 -0.05380311981 1.973153514e-38
-0.05431349948 -0.449408561 0.2281993479 1.973153514e-38
-0.3016830087 -0.3943356574 0.1431979388 1.973153514e-38
-0.3250387907 -0.3001965284 0.1667044461 1.973153514e-38
-0.2504075766 -0.2973313034 -0.1169595718 1.973153514e-38
-0.17776528 -0.7811216712 0.1247581691 1.973153514e-38
-0.2314561903 -0.4224682748 -0.04431521893 1.991448586e-38
-0.1705385745 -0.4383760095 0.1661503315 1.991448586e-38
-0.3327245116 -0.236275807 -0.1136397123 1.991448586e-38
-0.249835819 -0.3050158024 -0.1262553036 1.991448586e-38
-0.3243823946 -0.2416913211 0.06429569423 1.991448586e-38
-0.3217767775 -0.3973873258 -0.04310799018 1.991448586e-38
-0.1322132945 -0.4389971495 0.1861379892 1.991448586e-38
-0.3172455132 -0.4201793969 -0.004790937994 1.991448586e-38
-0.3325129747 -0.2238760144 -0.07228479534 2.009743799e-38
-0.2381905317 -0.384044081 0.2017015964 2.009743799e-38
-0.2534139156 -0.369982332 -0.1107283309 2.009743799e-38
-0.1487506777 -0.3983880579 0.2107785791 2.009743799e-38
-0.142715618 -0.4566334486 0.1798534691 2.009743799e-38
-0.3023605645 -0.3928510547 0.1318162382 2.009743799e-38
-0.3146422505 -0.288760066 0.1523115337 2.009743799e-38
0.1654625833 -0.2679287791 -0.2136336714 2.009743799e-38
-0.07714557648 -0.7793139815 0.1515013725 2.028074885e-38
-0.07413280755 -0.3951765597 0.2166088223 2.028074885e-38
-0.3280445337 -0.2915519476 -0.1673282236 2.028074885e-38
-0.07106237859 -0.4211992621 0.2114850134 2.028074885e-38
0.3176530898 -0.09304973483 -0.06025707722 2.028074885e-38
-0.3345873356 -0.3242958486 -0.1259999722 2.028074885e-38
0.04295556992 -0.7090526819 -0.326251626 2.028074885e-38
-0.3304374218 -0.2670138478 -0.150822714 2.028074885e-38
-0.3421890438 -0.2754810452 -0.1591932029 2.046369957e-38
-0.3001792431 -0.4297889769 0.07395578921 2.046369957e-38
0.3446286917 -0.01734870672 -0.07972051203 2.046369957e-38
-0.07231169939 -0.4120301604 0.2093990445 2.046369957e-38
-0.1576434076 -0.4452778101 0.1559292972 2.046369957e-38
-0.3153186142 -0.4308331311 0.008676748723 2.046369957e-38
-0.3056854606 -0.3405441046 0.2082681358 2.046369957e-38
-0.3222639263 -0.3235131502 -0.1269252151 2.046369957e-38
-0.1563940793 -0.4544469416 0.1580152661 2.06466517e-38
-0.3165679574 -0.4216639996 0.006590786856 2.06466517e-38
-0.3298656344 -0.2746983469 -0.1601184458 2.06466517e-38
-0.1982557327 -0.4139186442 0.1731246263 2.06466517e-38
-0.08156467974 -0.4388355911 0.2052004337 2.06466517e-38
-0.1531185508 -0.7795562744 0.1229076833 2.06466517e-38
-0.2743767798 -0.3003813326 -0.1037274003 2.06466517e-38
-0.1535410434 -0.7230603695 -0.3000660539 2.06466517e-38
-0.3432268202 -0.2539121211 -0.1199242473 2.082996116e-38
-0.3310520947 -0.2206453234 -0.02884394303 2.082996116e-38
0.2813051045 -0.1619821489 0.2378603518 2.082996116e-38
-0.2597663105 -0.3303366303 -0.1418356001 2.082996116e-38
-0.3268798292 -0.3669107556 -0.07212929428 2.082996116e-38
-0.2277940363 -0.3726076782 0.1873086989 2.082996116e-38
-0.2996074557 -0.4374734759 0.06466004997 2.082996116e-38
-0.3420832753 -0.2692811489 -0.1385157406 2.082996116e-38
0.1802846193 -0.285484314 -0.2103869915 2.101291328e-38
-0.1117805094 -0.3960399926 0.2080028504 2.101291328e-38
-0.09014651179 -0.7786120176 0.14104487 2.101291328e-38
-0.2265447229 -0.3817767799 0.1893946528 2.101291328e-38
0.1641567498 -0.6967719197 -0.3696491718 2.101291328e-38
-0.1827344447 -0.411653012 -0.0387204513 2.101291328e-38
0.0313097164 -0.7113199234 -0.3139446676 2.101291328e-38
-0.3029952049 -0.4300504327 0.007751505356 2.101291328e-38
-0.3237894773 -0.3093656301 0.1687904 2.119586541e-38
0.1790352911 -0.2763152122 -0.2124729455 2.119586541e-38
-0.3132859766 -0.4352869689 0.04282186925 2.119586541e-38
-0.301322788 -0.4144199491 0.09254728258 2.119586541e-38
0.2930567265 -0.1535149515 0.2462308407 2.119586541e-38
-0.09945712239 -0.3952572942 0.2070776075 2.119586541e-38
-0.3166108727 -0.3829800189 0.1192738265 2.119586541e-38
-0.1950578094 -0.4124356806 -0.03779520839 2.119586541e-38
-0.3409397304 -0.284650147 -0.1571072489 2.137881613e-38
-0.1440707147 -0.4536642432 0.1570900232 2.137881613e-38
-0.3144295216 -0.4199179411 0.06141336635 2.137881613e-38
-0.2860226333 -0.3026486039 -0.09142043442 2.137881613e-38
-0.3400935531 -0.2350509763 0.008312387392 2.137881613e-38
0.3435492516 -0.1006534696 -0.06002159417 2.137881613e-38
-0.3063630164 -0.3390595019 0.1968864352 2.137881613e-38
-0.1465693563 -0.43532601 0.1529180855 2.137881613e-38
0.07924813032 -0.7052199841 -0.3404090703 2.156176826e-38
-0.3178172708 -0.4124948978 0.004504825454 2.156176826e-38
-0.2613758743 -0.3010832369 -0.09327091277 2.156176826e-38
-0.2170155197 -0.3599497378 -0.1042083204 2.156176826e-38
0.3441627026 -0.00346429646 -0.04974731803 2.156176826e-38
-0.3235132396 -0.3143440187 -0.1290111691 2.156176826e-38
-0.318326205 -0.359926492 0.1471610367 2.156176826e-38
-0.3133929372 -0.2979291975 0.1543975025 2.156176826e-38
-0.3080982566 -0.3995738328 -0.02126980945 2.174471899e-38
0.1901093274 -0.2663633823 -0.2154841572 2.174471899e-38
0.3552367389 0.006487503648 -0.05275851488 2.174471899e-38
-0.08656197786 -0.4021591246 0.1968565732 2.174471899e-38
-0.3431210518 -0.2477122247 -0.0992468074 2.174471899e-38
-0.3291880786 -0.2761829495 -0.1487367451 2.174471899e-38
-0.3151070774 -0.4184333384 0.05003164336 2.174471899e-38
-0.1302646995 -0.428345114 -0.02686779574 2.174471899e-38
0.3668825626 0.008754819632 -0.06506547332 2.192767111e-38
-0.08781129867 -0.3929899931 0.1947706193 2.192767111e-38
0.2992946506 -0.03558702767 -0.02840675414 2.192767111e-38
-0.3054938614 -0.4117121994 0.003579582553 2.192767111e-38
-0.1132196262 -0.377964884 -0.06191148981 2.192767111e-38
-0.09831357747 -0.410626322 0.1884860843 2.192767111e-38
-0.2590887845 -0.3318212628 -0.1304538995 2.192767111e-38
-0.3150012791 -0.4122334123 0.07070910186 2.192767111e-38
-0.321206212 -0.2615141869 0.07984931767 2.211062324e-38
-0.253985703 -0.362297833 -0.1014325917 2.211062324e-38
0.341050595 -0.08231523633 -0.06419353187 2.211062324e-38
-0.3172884285 -0.3814953864 0.1078920737 2.211062324e-38
-0.3076123297 -0.3298903704 0.1948004812 2.211062324e-38
-0.28477332 -0.3118177354 -0.08933447301 2.211062324e-38
-0.1921213269 -0.7774505615 0.09153826535 2.211062324e-38
-0.1540435106 -0.3590055406 -0.08607111871 2.211062324e-38
-0.1866099089 -0.4116513431 0.1608176827 2.229357396e-38
-0.3074207306 -0.4010584652 -0.009888110682 2.229357396e-38
-0.3184319437 -0.3661263883 0.1264835894 2.229357396e-38
-0.1431598514 -0.4214432836 -0.01664679497 2.229357396e-38
-0.3408339322 -0.2784502506 -0.1364297867 2.229357396e-38
-0.3159973621 -0.2857908607 0.1295480877 2.229357396e-38
-0.2624553442 -0.3843879998 -0.0735720098 2.229357396e-38
-0.2601265609 -0.3102523386 -0.09118495136 2.229357396e-38
-0.1131356135 -0.3930707872 0.1852394044 2.247652609e-38
-0.1287192255 -0.3589247465 -0.07653989643 2.247652609e-38
-0.003205277026 -0.7746177912 0.1459499151 2.247652609e-38
-0.3049650192 -0.380712688 0.1069668308 2.247652609e-38
-0.3301201165 -0.2484141439 -0.08879032731 2.247652609e-38
-0.3422319591 -0.2367970347 -0.04651019722 2.247652609e-38
0.3564860523 -0.002681612968 -0.05067256093 2.247652609e-38
-0.1172637716 -0.4290470183 -0.01641131192 2.247652609e-38
-0.321883738 -0.2600295544 0.06846762449 2.265947681e-38
-0.1797979176 -0.7766678333 0.09061299264 2.265947681e-38
0.3797777593 0.001853004098 -0.0752864629 2.265947681e-38
0.3202575147 -0.1051880717 -0.035407722 2.265947681e-38
0.1162183136 -0.7028719187 -0.343184799 2.265947681e-38
-0.2552350163 -0.3531287014 -0.1035185605 2.265947681e-38
-0.3344815671 -0.3180959523 -0.1053225026 2.265947681e-38
-0.3185377419 -0.3723262548 0.1058061048 2.265947681e-38
-0.3040329814 -0.4084815085 0.04702043161 2.284242894e-38
-0.3066803217 -0.3576591909 0.1348540932 2.284242894e-38
-0.05292132869 -0.7212526202 -0.2733228505 2.284242894e-38
-0.3271983564 -0.2419527769 -0.001908592414 2.284242894e-38
-0.1190848574 -0.4121933877 -0.009201536886 2.284242894e-38
-0.3209934831 -0.3926720619 -0.01104882918 2.284242894e-38
-0.2466596067 -0.3248386681 -0.1107016951 2.284242894e-38
-0.1157182828 -0.3596266508 -0.06608341634 2.284242894e-38
-0.1910136938 -0.361353606 -0.08329539001 2.302537966e-38
-0.3278758824 -0.2404681742 -0.01329028979 2.302537966e-38
-0.306065619 -0.4040276706 0.01287531108 2.302537966e-38
0.3830180168 -0.1166436374 -0.05862540007 2.302537966e-38
-0.2688077092 -0.3447422683 -0.1046792865 2.302537966e-38
0.304025054 -0.1497630477 0.2225421965 2.302537966e-38
0.2160054594 -0.2739671469 -0.2152486742 2.302537966e-38
-0.3248471916 -0.3713645935 -0.03798414767 2.302537966e-38
-0.3251445889 -0.3063963652 0.1460269541 2.320833179e-38
0.09224911034 -0.7059218884 -0.3299525976 2.320833179e-38
-0.3232388496 -0.257060349 0.04570422322 2.320833179e-38
-0.06617729366 -0.775562048 0.1278126687 2.320833179e-38
-0.1775102764 -0.7261103392 -0.2868338227 2.320833179e-38
-0.3338040113 -0.319580555 -0.09394080937 2.320833179e-38
0.3521246314 -0.07236343622 -0.06720472872 2.320833179e-38
0.3052743673 -0.1589321494 0.2246281803 2.320833179e-38
0.3798835576 0.008052885532 -0.05460900068 2.339092378e-38
-0.336239785 -0.2563584447 0.0352477394 2.339092378e-38
-0.3197870553 -0.3631571531 0.1037201434 2.339092378e-38
0.0682798624 -0.708971858 -0.3167203963 2.339092378e-38
-0.2454102933 -0.3340077996 -0.1086157262 2.339092378e-38
-0.3222427964 -0.3835029602 -0.01313479058 2.339092378e-38
-0.3128211796 -0.3056136966 0.1451017112 2.339092378e-38
0.2283288389 -0.2731844187 -0.2161739171 2.339092378e-38
-0.1682097465 -0.3642403781 0.1485373825 2.348204041e-38
-0.1403650492 -0.3611920476 -0.06423293054 2.348204041e-38
0.3780207038 -0.07996717095 -0.06696924567 2.348204041e-38
-0.02759700641 -0.7211718559 -0.2637916207 2.348204041e-38
-0.3350533247 -0.3104114532 -0.09602676332 2.348204041e-38
0.3717741072 -0.03412155807 -0.07739906013 2.348204041e-38
0.05663403869 -0.7112392187 -0.3044134378 2.348204041e-38
-0.115040727 -0.3611112535 -0.05470171571 2.348204041e-38
-0.3080354333 -0.3546899855 0.1120906919 2.348132155e-38
-0.3064258397 -0.3839433789 0.06352597475 2.348132155e-38
0.02076394111 -0.7715678215 0.1327176839 2.348132155e-38
-0.3198928237 -0.3693570495 0.08304271102 2.348132155e-38
-0.01527360454 -0.7203891873 -0.2647168636 2.348132155e-38
-0.3303534091 -0.2821197212 0.09632822871 2.348132155e-38
-0.17871207 -0.3818766773 0.1422528028 2.348132155e-38
-0.2215256691 -0.3971474767 -0.02873494849 2.348132155e-38
-0.3209306002 -0.3477881551 0.1223116666 2.348060128e-38
-0.3069976568 -0.3762588799 0.07282173634 2.348060128e-38
-0.2026595175 -0.3636209071 -0.07098844647 2.348060128e-38
0.02101898938 -0.7165564299 -0.2788743079 2.348060128e-38
0.03308731318 -0.7707850933 0.131792441 2.348060128e-38
0.3597263396 -0.1211782396 -0.03401151299 2.348060128e-38
-0.2821688652 -0.3239560723 -0.06448507309 2.348060128e-38
-0.002950236201 -0.7196065187 -0.2656421065 2.348060128e-38
-0.3210363984 -0.3539880514 0.101634182 2.347952368e-38
0.08238086104 -0.7676543593 0.1280914694 2.347952368e-38
-0.3111687005 -0.3735511303 -0.01614599489 2.347952368e-38
0.3175977468 -0.1581494659 0.2237029374 2.347952368e-38
-0.121583499 -0.3938551247 -0.01337346807 2.347952368e-38
-0.2739953697 -0.3804553747 -0.04058760405 2.347952368e-38
0.3960189819 -0.1173455417 -0.04816894233 2.347952368e-38
-0.2759222686 -0.3698016405 -0.05405526236 2.347952368e-38
-0.1565639377 -0.3619730771 0.1362303942 2.347880341e-38
0.314222455 -0.04694268107 -0.004482612014 2.347880341e-38
-0.3310309649 -0.2806351185 0.08494647592 2.347880341e-38
0.3228619397 -0.1173264086 -0.01055833697 2.347880341e-38
-0.3266682923 -0.3545109332 -0.03077438101 2.347880341e-38
-0.1131138578 -0.3717649877 -0.04123405367 2.347880341e-38
-0.3247414529 -0.3651646972 -0.01730671339 2.347880341e-38
-0.1896585971 -0.3643228114 -0.06053196266 2.347880341e-38
-0.3226459324 -0.3247346282 0.1501988769 2.347808455e-38
-0.3078867197 -0.3871740997 0.02008511312 2.347808455e-38
-0.1462302506 -0.3954205215 -0.01152298134 2.347808455e-38
0.3934562206 -0.000333532691 -0.05344828963 2.347808455e-38
0.3835257292 -0.02565437555 -0.06902857125 2.347808455e-38
0.3130789101 -0.03157365322 0.0141088888 2.347808455e-38
-0.1585536599 -0.3962032199 -0.01059773844 2.347808455e-38
-0.004560375586 -0.7716485858 0.1231864542 2.347808455e-38
-0.3258003294 -0.2836059928 -0.09182820469 2.347700555e-38
-0.2569503486 -0.3300752044 -0.07563132793 2.347700555e-38
-0.1948315203 -0.7715120912 0.04601146281 2.347700555e-38
-0.3091789484 -0.3393209577 0.1306821704 2.347700555e-38
-0.3240638971 -0.3666492999 -0.005924988538 2.347700555e-38
-0.3213537037 -0.3725877404 0.0396018289 2.347700555e-38
-0.3385897577 -0.2705042958 -0.06092973799 2.347700555e-38
0.2031594962 -0.6988776326 -0.3382797837 2.347700555e-38
0.3830597401 -0.01176995039 -0.03905537724 2.347628668e-38
0.321040839 -0.1004727781 -0.003348536789 2.347628668e-38
-0.3233446181 -0.2632602453 0.025026761 2.347628668e-38
-0.2790984511 -0.3499788046 -0.06960891932 2.347628668e-38
-0.3091360331 -0.3780049682 0.01799915172 2.347628668e-38
-0.1643342823 -0.3642420173 -0.05100075155 2.347628668e-38
0.3166153133 -0.07148081064 -0.02098815143 2.347628668e-38
0.3847750723 -0.03482347727 -0.0669426024 2.347628668e-38
0.3755220771 -0.06162890792 -0.07114118338 2.347520768e-38
-0.3374462128 -0.2858732939 -0.0795212388 2.347520768e-38
-0.002272687852 -0.7210910916 -0.2542604208 2.347520768e-38
-0.2078324407 -0.7708101869 0.03555494547 2.347520768e-38
0.3197915256 -0.09130367637 -0.005434498191 2.347520768e-38
0.02008639462 -0.770083189 0.1213359684 2.347520768e-38
0.01600379497 -0.4102838337 0.1932245344 2.347520768e-38
-0.3272400796 -0.3468264639 -0.02147864364 2.347520768e-38
-0.2629213333 -0.3705035746 -0.04359880835 2.347448882e-38
-0.0422080718 -0.7725120783 0.1145804971 2.347448882e-38
-0.3223914802 -0.351018846 0.07887078822 2.347448882e-38
-0.1889810562 -0.3658074141 -0.04915026575 2.347448882e-38
-0.3323860466 -0.2776658833 0.06218307838 2.347448882e-38
-0.3141762614 -0.3026444912 0.1223383099 2.347448882e-38
-0.3129898012 -0.3566974998 -0.008936200291 2.347448882e-38
0.3727272749 -0.1218801439 -0.02355504036 2.347448882e-38
-0.2764940262 -0.3621171415 -0.0447595343 2.347340982e-38
-0.1247597113 -0.3740322888 -0.02892708778 2.347340982e-38
0.05705653876 -0.7677351236 0.1185602397 2.347340982e-38
-0.3123122454 -0.3581821024 0.002445498016 2.347340982e-38
-0.2338342965 -0.7694063783 0.0146420449 2.347340982e-38
-0.3101738095 -0.3564360142 0.05726807937 2.347340982e-38
-0.3109571636 -0.3611513376 0.02520892024 2.347340982e-38
-0.1515084058 -0.7275141478 -0.2659209371 2.347340982e-38
0.3377256989 -0.03000827134 0.01225839555 2.347269095e-38
-0.3330636024 -0.2761812806 0.05080138147 2.347269095e-38
0.3897723556 -0.07149997354 -0.05859875679 2.347269095e-38
-0.3142391145 -0.3475283682 -0.01102216169 2.347269095e-38
-0.255595237 -0.3330444098 -0.05286790431 2.347269095e-38
0.3850506544 -0.1210974455 -0.02448028326 2.347269095e-38
-0.157183826 -0.7706486583 0.05461741984 2.347269095e-38
0.1563211381 -0.762958169 0.122540012 2.347269095e-38
0.3371122479 -0.1271974444 0.001984111965 2.347161195e-38
-0.3207401931 -0.2753985822 0.04987613857 2.347161195e-38
0.203837052 -0.7003622651 -0.3268980682 2.347161195e-38
-0.01756129414 -0.7709466815 0.1127300113 2.347161195e-38
-0.2148771137 -0.3582036793 -0.0493857488 2.347161195e-38
-0.1721263528 -0.3878167868 -0.01175845694 2.347161195e-38
-0.2499204278 -0.3712055087 -0.03314235434 2.347161195e-38
0.06529734284 -0.40715307 0.1895235628 2.347161195e-38
0.2088057548 -0.2470155358 0.04080918059 2.347089308e-38
0.03184241056 -0.3894185126 0.04341182113 2.347089308e-38
-0.3248054683 -0.2664909065 -0.01841413043 2.347089308e-38
-0.3249112666 -0.2726908326 -0.03909158707 2.347089308e-38
-0.327811867 -0.3391419649 -0.01218288019 2.347089308e-38
0.1675444841 -0.704194963 -0.312740624 2.347089308e-38
0.3254663646 -0.1294647455 0.01429106295 2.347089308e-38
-0.3234292567 -0.3294499218 0.1181397438 2.347089308e-38
0.04634331167 -0.7164757252 -0.2693430781 2.346981408e-38
0.08386732638 -0.4522159696 0.1990281343 2.346981408e-38
-0.3236407936 -0.3418497145 0.07678482682 2.346981408e-38
0.07131123543 -0.4054086804 0.04480802268 2.346981408e-38
0.07279328257 -0.4621677995 0.2020393461 2.346981408e-38
-0.1863766462 -0.377945751 -0.02430088073 2.346981408e-38
-0.3355193436 -0.2965270281 -0.06605357677 2.346981408e-38
-0.3311367333 -0.2868350148 0.06426905096 2.346981408e-38
-0.1272583604 -0.3556940556 -0.03309901804 2.346909522e-38
0.3494356275 -0.1264147758 0.001058869064 2.346909522e-38
0.0585430339 -0.4522967339 0.1894969195 2.346909522e-38
0.07380987704 -0.4237469137 0.04897994548 2.346909522e-38
-0.3360911012 -0.2888425589 -0.05675781518 2.346909522e-38
-0.2388463616 -0.3612536788 -0.03615356237 2.346909522e-38
-0.3148109019 -0.3398438692 -0.001726425253 2.346909522e-38
0.3552454114 -0.1572859883 0.2323088944 2.346909522e-38
0.4077064693 -0.01020456851 -0.04090586305 2.346801622e-38
0.3977759778 -0.03552538157 -0.05648615956 2.346801622e-38
0.03997299075 -0.4072338343 0.179992348 2.346801622e-38
-0.06321205199 -0.7264891863 -0.2382524759 2.346801622e-38
-0.3236619532 -0.2818599343 -0.03700562194 2.346801622e-38
0.01940884814 -0.7685986161 0.1099542826 2.346801622e-38
0.0703125 -0.7134256959 -0.2825752795 2.346801622e-38
0.3857281804 -0.122582078 -0.01309858263 2.346801622e-38
0.4096974432 -0.1195320487 -0.02633076906 2.346693862e-38
0.03251995891 -0.3909031153 0.05479354411 2.346693862e-38
0.03072003648 -0.4340392947 0.1757937223 2.346693862e-38
0.08738256991 -0.4321333468 0.05014066398 2.346693862e-38
0.3173986375 -0.066765517 0.01107101142 2.346693862e-38
-0.3243183494 -0.3403651118 0.06540312618 2.346693862e-38
-0.3331693709 -0.2823811769 0.0301239267 2.346693862e-38
-0.06820993125 -0.7711082697 0.09366758168 2.346693862e-38
-0.1285076886 -0.3465249538 -0.03518497944 2.346621835e-38
-0.3201684058 -0.2830830812 0.04058038071 2.346621835e-38
-0.3215235174 -0.2801138759 0.01781695895 2.346621835e-38
-0.3208459616 -0.2815985084 0.0291986838 2.346621835e-38
0.05866668001 -0.715692997 -0.270268321 2.346621835e-38
0.326757431 -0.03376020491 0.03594706208 2.346621835e-38
0.1072647423 -0.4414814711 0.1950916946 2.346621835e-38
0.1102082878 -0.4137143195 0.05549997091 2.346621835e-38
0.08318977803 -0.4507313669 0.1876464337 2.346514075e-38
-0.3353078067 -0.2841272354 -0.02469865605 2.346514075e-38
0.1996585727 -0.2676210701 0.05728804693 2.346514075e-38
-0.3298874199 -0.2960041165 0.06635501236 2.346514075e-38
-0.32467857 -0.3202807903 0.1160537824 2.346514075e-38
0.06870239228 -0.7654678822 0.106253311 2.346514075e-38
0.09495930374 -0.7118602991 -0.2844257653 2.346514075e-38
-0.1408310682 -0.3473076224 -0.03425973654 2.346514075e-38
0.02212346345 -0.4023395479 0.06918644905 2.346406175e-38
-0.3117834032 -0.3271826208 0.1058328003 2.346406175e-38
-0.2031255215 -0.3497364819 -0.04101524502 2.346406175e-38
0.1989810318 -0.2661364675 0.04590634629 2.346406175e-38
0.0763085261 -0.4420851767 0.05315186828 2.346406175e-38
0.07573674619 -0.4344006479 0.06244762987 2.346406175e-38
-0.3133500218 -0.3366131783 0.04171445966 2.346406175e-38
-0.2166981995 -0.3413500786 -0.04217596352 2.346406175e-38
-0.224771142 -0.733694911 -0.2489877492 2.346334289e-38
-0.3247843683 -0.3264806867 0.09537629038 2.346334289e-38
-0.05588654056 -0.7703255415 0.09274233878 2.346334289e-38
-0.1838632077 -0.7677601576 0.02232275903 2.346334289e-38
0.03446800262 -0.4615466595 0.1820516139 2.346334289e-38
0.04486451298 -0.4501101971 0.1676587164 2.346334289e-38
-0.3266054392 -0.3096270859 0.1025861204 2.346334289e-38
0.0271207504 -0.4390160143 0.07753029466 2.346334289e-38
0.4103749692 -0.1210166812 -0.01494906843 2.346226389e-38
0.1212823391 -0.4037625194 0.05248877406 2.346226389e-38
0.04869713634 -0.4114279151 0.08080364764 2.346226389e-38
0.3255721331 -0.1232648492 0.03496851027 2.346226389e-38
-0.3179870844 -0.3200210333 -0.0172800459 2.346226389e-38
0.06102050841 -0.4106452167 0.07987840474 2.346226389e-38
0.3274349868 -0.0352448076 0.04732876271 2.346226389e-38
0.1303193122 -0.7615543604 0.1016270965 2.346226389e-38
0.2223784477 -0.255401969 0.04196989909 2.346118629e-38
0.05244509876 -0.43893525 0.08706153929 2.346118629e-38
0.2414847761 -0.6994987726 -0.3182920814 2.346118629e-38
-0.327960521 -0.3066578507 0.07982267439 2.346118629e-38
0.0228010118 -0.4038241804 0.08056817204 2.346118629e-38
-0.2160206586 -0.3428346813 -0.03079424053 2.346118629e-38
0.1688995808 -0.7071641684 -0.2899772227 2.346118629e-38
0.07709184289 -0.4373698831 0.08521105349 2.346118629e-38
0.3636217415 -0.03761202097 0.0124938786 2.346010729e-38
-0.188197732 -0.3610921204 -0.01709110662 2.346010729e-38
0.04769840837 -0.7194449306 -0.2465796471 2.346010729e-38
0.1103140563 -0.4075144529 0.07617744058 2.346010729e-38
-0.332703352 -0.2962656021 0.0001507285051 2.346010729e-38
0.3985592723 -0.03081011772 -0.02442696691 2.346010729e-38
0.1316788197 -0.3923261166 0.03809584677 2.346010729e-38
0.3193255067 -0.0774192512 0.02453869581 2.346010729e-38
0.01604670659 -0.4489678442 0.08054150641 2.345938842e-38
-0.1407252848 -0.3411077559 -0.01358227525 2.345938842e-38
0.08183468133 -0.4477621317 0.1648829877 2.345938842e-38
0.1250302941 -0.4312698841 0.05874665827 2.345938842e-38
-0.332025826 -0.297750175 0.01153242588 2.345938842e-38
0.101738587 -0.4358044863 0.08336056769 2.345938842e-38
-0.3261394501 -0.3235114813 0.07261289656 2.345938842e-38
0.1812229604 -0.7063814402 -0.2909024656 2.345938842e-38
0.03605255112 -0.7217122316 -0.2342727184 2.345830942e-38
0.130504027 -0.32139346 0.0298284255 2.345830942e-38
-0.1208911985 -0.7668159604 0.0404600054 2.345830942e-38
-0.3267112076 -0.3158269525 0.0819086358 2.345830942e-38
0.1304295063 -0.383156985 0.03600987792 2.345830942e-38
0.0716675967 -0.7163949013 -0.2598118782 2.345830942e-38
0.0900927633 -0.4380717874 0.09566751122 2.345830942e-38
0.02993671969 -0.4387545884 0.1437346041 2.345830942e-38
0.1428274065 -0.3206107914 0.0289031826 2.345723183e-38
0.1449303329 -0.710214138 -0.2767450213 2.345723183e-38
0.2002303451 -0.2753055692 0.04799230769 2.345723183e-38
0.1158401966 -0.4131914377 0.18790856 2.345723183e-38
0.1452515274 -0.4007125199 0.03925656527 2.345723183e-38
-0.1517993361 -0.351059556 -0.01057107095 2.345723183e-38
0.0254054293 -0.4159624875 0.1054175347 2.345723183e-38
-0.3204857409 -0.3016827703 -0.02145197615 2.345723183e-38
0.10863778 -0.7140468359 -0.2625876069 2.345615283e-38
0.03118603677 -0.4479236901 0.145820573 2.345615283e-38
-0.1468930691 -0.7654120922 0.01954704523 2.345615283e-38
0.1194612235 -0.3869088888 0.05969854072 2.345615283e-38
0.131911546 -0.4399160743 0.1932412088 2.345615283e-38
-0.08256596327 -0.7674371004 0.06044767797 2.345615283e-38
0.1306622177 -0.4307469428 0.1911552399 2.345615283e-38
0.02618875355 -0.4112472236 0.1374767125 2.345615283e-38
-0.3281720877 -0.3190576434 0.03846777231 2.345507523e-38
0.1209611446 -0.7132641673 -0.2635128498 2.345507523e-38
0.1695771366 -0.7086488008 -0.2785955071 2.345507523e-38
0.3642992973 -0.03909663856 0.02387557924 2.345507523e-38
0.05515529215 -0.4448736906 0.1325883865 2.345507523e-38
0.1145908833 -0.4040223062 0.1858225912 2.345507523e-38
0.07844693959 -0.4403390884 0.1079744548 2.345507523e-38
0.1201599538 -0.4483832717 0.184870705 2.345507523e-38
0.0207895413 -0.4593601227 0.1602134705 2.345399623e-38
0.4104807377 -0.1148167849 0.005728393793 2.345399623e-38
-0.3184531033 -0.3061366081 0.01269314438 2.345399623e-38
0.2058696896 -0.704816103 -0.2927529514 2.345399623e-38
-0.1215687394 -0.7653313875 0.02907826006 2.345399623e-38
0.114739567 -0.4365063906 0.09381702542 2.345399623e-38
-0.3157429099 -0.3120750785 0.0582199879 2.345399623e-38
-0.1125055999 -0.7296199203 -0.2345515043 2.345399623e-38
-0.1345697045 -0.7646294236 0.01862180233 2.345291723e-38
0.06680111587 -0.4426063895 0.1202813834 2.345291723e-38
0.01740180328 -0.4519370794 0.1033049226 2.345291723e-38
0.144679755 -0.3930280209 0.04855232686 2.345291723e-38
0.3404358923 -0.0359467119 0.05778521672 2.345291723e-38
0.157574892 -0.3999298513 0.03833132237 2.345291723e-38
-0.2118977308 -0.7619025111 -0.03273528814 2.345291723e-38
0.1043174118 -0.7601505518 0.08071418107 2.345291723e-38
0.1281635761 -0.4124087393 0.1869833171 2.345219836e-38
-0.2378995717 -0.7604987025 -0.05364820361 2.345219836e-38
0.07980203629 -0.4433083236 0.1307379007 2.345219836e-38
0.2008021325 -0.282990098 0.03869657591 2.345219836e-38
-0.1352472454 -0.7631448507 0.007240101695 2.345219836e-38
0.119482398 -0.446898669 0.1734889597 2.345219836e-38
0.1270629317 -0.435723722 0.09289178252 2.345219836e-38
0.1496770382 -0.4297044873 0.05689617991 2.345219836e-38
0.1702546775 -0.7101334333 -0.2672137916 2.345111936e-38
0.1037712246 -0.4402582943 0.1175056547 2.345111936e-38
-0.2473852336 -0.7397141457 -0.2129921317 2.345111936e-38
0.1582524478 -0.401414454 0.04971304536 2.345111936e-38
-0.007270567119 -0.7657101154 0.07765962183 2.345111936e-38
-0.0488560386 -0.730160296 -0.2050325871 2.345111936e-38
-0.09692199528 -0.7637659311 0.02722777426 2.345111936e-38
0.07287787646 -0.3959780931 0.108926326 2.345111936e-38
0.0928029567 -0.4440102279 0.1411943585 2.345004176e-38
0.1387087703 -0.4334564209 0.08058483899 2.345004176e-38
0.1269142479 -0.4032396078 0.1848973483 2.345004176e-38
0.3404999971 -0.1346204877 0.05889265612 2.345004176e-38
-0.08392104506 -0.7644678354 0.0376842767 2.345004176e-38
0.1429855973 -0.4299642742 0.190229997 2.345004176e-38
0.1462854296 -0.713183403 -0.2539815903 2.345004176e-38
-0.2385771275 -0.7590141296 -0.06502990425 2.345004176e-38
0.2065472454 -0.7063007355 -0.2813712358 2.344896276e-38
0.1160946637 -0.439475596 0.1165804118 2.344896276e-38
0.03740764782 -0.724681437 -0.2115092874 2.344896276e-38
0.1825780571 -0.7093507051 -0.2681390345 2.344896276e-38
0.1686490029 -0.3899780512 0.03532011434 2.344896276e-38
0.2188706845 -0.7055180073 -0.2822964787 2.344896276e-38
0.1497828215 -0.4235046208 0.07757364213 2.344896276e-38
0.3213581443 -0.08187305927 0.05868382007 2.344896276e-38
0.001115052029 -0.7285141349 -0.197351858 2.344788516e-38
0.318965286 -0.05733495951 0.07518935949 2.344788516e-38
0.4222323596 -0.1063495576 0.01409889013 2.344788516e-38
0.1919362247 -0.7576409578 0.09700088203 2.344788516e-38
-0.08459860086 -0.7629832625 0.02630253136 2.344788516e-38
0.1223162413 -0.7162333727 -0.2407494187 2.344788516e-38
0.2311940491 -0.7047353387 -0.2832217216 2.344788516e-38
0.1284180284 -0.4386929274 0.1156551689 2.344788516e-38
0.02576182596 -0.7269487381 -0.1992023438 2.344680616e-38
0.4122377634 -0.03299663961 -0.002588808537 2.344680616e-38
0.1318057626 -0.4461160004 0.1725637168 2.344680616e-38
-0.245352596 -0.7441679835 -0.1788470149 2.344680616e-38
0.2020514607 -0.2921591997 0.04078253731 2.344680616e-38
0.4257046878 -0.04758295417 -0.0221055299 2.344680616e-38
0.09820216894 -0.3958973289 0.1184576005 2.344680616e-38
0.1822216958 -0.3983644545 0.03648083284 2.344680616e-38
-0.2269313037 -0.756746769 -0.07733689249 2.344572857e-38
0.1098480523 -0.3936300278 0.1061505973 2.344572857e-38
-0.2412873209 -0.7530756593 -0.1105567515 2.344572857e-38
0.3264612257 -0.1123496592 0.08770513535 2.344572857e-38
0.4462015629 -0.103299588 0.0008667111397 2.344572857e-38
