# .PCD v0.7 - Point Cloud Data file format
VERSION 0.7
FIELDS x y z rgb
SIZE 4 4 4 4
TYPE F F F F
COUNT 1 1 1 1
WIDTH 831
HEIGHT 1
VIEWPOINT 0 0 0 1 0 0 0
POINTS 831
DATA ascii
-0.1357355267 -0.3473761082 0.2349870056 8.170410826e-39
-0.1406365335 -0.4437550902 0.2003571093 8.170410826e-39
-0.1284196824 -0.4429101348 0.1990579665 8.170410826e-39
-0.2177593261 -0.3266094923 0.1705843806 8.170410826e-39
-0.1957608759 -0.4558154941 0.1182192415 8.170410826e-39
-0.1412789971 -0.02643297613 -0.190358907 8.170410826e-39
-0.1411655545 -0.3166923225 -0.1157529354 8.170410826e-39
-0.2028723061 -0.4387378097 0.2049395442 8.35443915e-39
-0.1807633936 -0.1886846423 -0.1167638451 8.35443915e-39
-0.1756267697 -0.04745159298 -0.1826347858 8.35443915e-39
-0.09221659601 -0.3213291764 -0.1304313391 8.35443915e-39
0.3985661268 -0.007740087807 -0.2436948866 8.35443915e-39
-0.1963310987 -0.3996998668 0.1845919192 8.35443915e-39
-0.1671287417 -0.451010704 0.1706833541 8.35443915e-39
-0.2237608135 -0.2563503981 0.1894631535 8.35443915e-39
-0.1841047406 -0.179035455 0.1689598858 8.538467473e-39
-0.09203541279 -0.1864463389 -0.0916724503 8.538467473e-39
0.3851163685 0.00867344439 -0.2348272949 8.538467473e-39
-0.1523444355 -0.03651984408 -0.1871464252 8.538467473e-39
0.1939208061 -0.03970824927 0.008239854127 8.538467473e-39
-0.1900342554 -0.3366123438 0.192689687 8.538467473e-39
0.3573097587 0.02669277787 -0.2474507838 8.538467473e-39
-0.1548609138 -0.2927695513 0.2248061448 8.538467473e-39
-0.2130721807 -0.3715936542 0.1687559187 8.722137064e-39
-0.2209569961 -0.2034036815 -0.03218840808 8.722137064e-39
0.003559619188 -0.1772361547 -0.1248559579 8.722137064e-39
-0.1634913236 -0.03859015554 -0.1744521409 8.722137064e-39
-0.07999974489 -0.320484221 -0.131730482 8.722137064e-39
0.05660721287 -0.3216573596 -0.132712692 8.722137064e-39
-0.224992469 -0.2225516587 -0.106214419 8.722137064e-39
-0.1899527907 -0.3446288705 0.1832078844 8.722137064e-39
-0.222608164 -0.249052003 -0.1118695438 8.906165387e-39
-0.20904769 -0.4554350376 0.1081232578 8.906165387e-39
0.1676329672 -0.1254202127 0.02935732529 8.906165387e-39
0.08586782217 -0.167645514 -0.1681354344 8.906165387e-39
0.05028715357 -0.171405673 -0.1528428495 8.906165387e-39
-0.2213752866 -0.2663104236 -0.1194380373 8.906165387e-39
0.3143128753 -0.3131558001 -0.1580815315 8.906165387e-39
-0.1179966778 -0.0155012235 -0.1948705465 8.906165387e-39
-0.2202251107 -0.2920926213 0.185721308 9.089834978e-39
-0.1290621161 -0.02558804676 -0.1916580647 9.089834978e-39
-0.2043095976 -0.3430230021 0.1617167741 9.089834978e-39
0.1081616133 -0.1635048836 -0.1935240328 9.089834978e-39
-0.2067741305 -0.2919658422 -0.1263923198 9.089834978e-39
-0.1928768307 -0.4274255633 0.190331921 9.089834978e-39
0.2765922844 -0.3144651949 -0.1655792147 9.089834978e-39
-0.1417879611 -0.4345131516 0.1984437853 9.089834978e-39
-0.2107693404 -0.3900774717 0.1725825965 9.273863302e-39
0.1687843949 -0.1346621215 0.03127066419 9.273863302e-39
-0.1856222302 -0.0587638095 -0.1680271626 9.273863302e-39
-0.03309098259 -0.1797709316 -0.1209585071 9.273863302e-39
-0.2249110043 -0.2305681854 -0.1156962141 9.273863302e-39
0.09701471031 -0.1655751914 -0.1808297634 9.273863302e-39
0.104064703 -0.7341191769 -0.2095234841 9.273863302e-39
-0.1695945114 -0.4164938331 0.1858202815 9.273863302e-39
-0.2164449841 -0.3518844843 0.1535341144 9.457532893e-39
-0.1430428326 -0.1873752624 -0.1092661396 9.457532893e-39
0.4007875025 -0.01820737869 -0.230386436 9.457532893e-39
-0.2043910623 -0.3350064754 0.1711985767 9.457532893e-39
0.2653874755 -0.3870628476 -0.1805983335 9.457532893e-39
-0.2175964117 -0.3426425457 0.1516207904 9.457532893e-39
0.1932181716 -0.1329722703 0.02867235616 9.457532893e-39
-0.1609133929 -0.3799066544 0.1882629246 9.457532893e-39
-0.1169267297 -0.01672661304 -0.1834754199 9.641561216e-39
0.3450929224 0.02584785223 -0.246151641 9.641561216e-39
-0.2068568319 -0.3004896343 0.1863355041 9.641561216e-39
0.3595311642 0.01622548699 -0.2341423184 9.641561216e-39
-0.1563296467 -0.186994791 -0.1193621457 9.641561216e-39
-0.2220269591 -0.2021782845 -0.04358356446 9.641561216e-39
0.4008689523 -0.02622389048 -0.2398682237 9.641561216e-39
-0.1437649578 -0.4480954409 0.1566898674 9.641561216e-39
-0.09417533875 -0.1839955598 -0.1144627482 9.825230807e-39
-0.205542475 -0.3257645965 0.1692852378 9.825230807e-39
-0.1389761567 -0.04491681978 -0.1865322441 9.825230807e-39
0.1707632393 -0.1461814344 -0.3152703941 9.825230807e-39
0.2298905402 -0.7150219083 -0.3149752915 9.825230807e-39
0.09594475478 -0.1643498093 -0.19222489 9.825230807e-39
-0.1734053791 -0.05791888386 -0.1693263203 9.825230807e-39
0.006669765338 -0.3238116503 -0.1389112175 9.825230807e-39
0.2287368476 -0.3895976245 -0.1767008752 1.000925913e-38
-0.03416095302 -0.1785455346 -0.1323536634 1.000925913e-38
0.4019389153 -0.0274492763 -0.2284730971 1.000925913e-38
-0.1804155558 -0.450630188 0.1605873108 1.000925913e-38
0.2298687398 -0.1304374933 0.02477490529 1.000925913e-38
0.2165199816 -0.3904425502 -0.1754017323 1.000925913e-38
-0.1196790487 -0.1844600141 -0.123259604 1.000925913e-38
-0.1512437314 -0.3365283608 0.2115825564 1.000925913e-38
-0.1342582554 -0.388684094 0.1989730895 1.019292872e-38
-0.2282023579 -0.2188754976 -0.1403998435 1.019292872e-38
-0.1596709937 -0.1773456037 0.1663615704 1.019292872e-38
0.1160986722 -0.1577583849 -0.2404037863 1.019292872e-38
0.2776622474 -0.315690577 -0.1541840732 1.019292872e-38
-0.1511622518 -0.3445448875 0.2021007538 1.019292872e-38
0.05929418653 -0.1668845713 -0.1883274317 1.019292872e-38
-0.1934872717 -0.2923462987 -0.1162963361 1.019292872e-38
0.3606825769 0.006983585656 -0.2322289944 1.037659831e-38
0.1831629872 -0.720852375 -0.2869884372 1.037659831e-38
0.1341126263 -0.1487162113 -0.3113729358 1.037659831e-38
-0.2103098631 -0.2562235594 -0.122650519 1.037659831e-38
0.01363657974 -0.17394045 -0.1489454061 1.037659831e-38
-0.1045149565 -0.3141575456 -0.1196503937 1.037659831e-38
-0.2160682082 -0.2265543789 0.1710288227 1.037659831e-38
-0.206612438 -0.3245391846 0.1578901112 1.037659831e-38
0.3607640266 -0.001032970846 -0.2417107671 1.056062664e-38
0.0258534383 -0.1730955243 -0.1502445638 1.056062664e-38
-0.1178017706 -0.3137770891 -0.1297463775 1.056062664e-38
-0.1788873672 -0.3345420361 0.1799954027 1.056062664e-38
-0.2279469967 -0.1399357021 -0.03418661654 1.056062664e-38
0.09380482882 -0.1618990302 -0.2150151879 1.056062664e-38
0.347314328 0.01538056135 -0.2328431755 1.056062664e-38
0.3819384575 -0.269893229 -0.1849249154 1.056062664e-38
0.05822422355 -0.1656591892 -0.199722603 1.074429623e-38
-0.1341767907 -0.3967006207 0.1894912869 1.074429623e-38
-0.1721725017 -0.07517731935 -0.176894784 1.074429623e-38
-0.01186712459 -0.1744049191 -0.1577422321 1.074429623e-38
-0.2079255432 -0.2827239633 -0.1283056438 1.074429623e-38
0.3473957777 0.007364049554 -0.2423249632 1.074429623e-38
-0.1207490116 -0.183234632 -0.1346547306 1.074429623e-38
0.09184783697 -0.7349641323 -0.2082243264 1.074429623e-38
-0.1775729954 -0.3598169982 0.1629451364 1.092796582e-38
-0.08134607971 -0.01296644658 -0.1987680048 1.092796582e-38
-0.1931626648 -0.3409526944 0.1490224898 1.092796582e-38
0.004812488798 -0.7539774179 -0.08387970179 1.092796582e-38
-0.1208084822 -0.4050976038 0.190105468 1.092796582e-38
-0.1706644744 -0.4152684212 0.1744251549 1.092796582e-38
0.08158797026 -0.1627439559 -0.2137160301 1.092796582e-38
-0.1979008019 -0.4533647299 0.09542895108 1.092796582e-38
0.1654115915 -0.114952907 0.01604885608 1.111163541e-38
-0.2106878757 -0.3980939984 0.163100794 1.111163541e-38
0.3618339896 -0.002258352935 -0.2303156406 1.111163541e-38
-0.1488901675 -0.06424554437 -0.1814064234 1.111163541e-38
0.3339460194 0.02377753705 -0.2334573567 1.111163541e-38
0.0003497339785 -0.1735599935 -0.1590413749 1.111163541e-38
-0.2078453153 -0.3072807789 0.16545856 1.111163541e-38
0.1096789092 -0.1504060626 -0.3087746501 1.111163541e-38
0.4062907398 -0.260186851 -0.1780414283 1.1295305e-38
-0.2294352353 -0.2016170621 -0.1328313798 1.1295305e-38
-0.2242483497 -0.1917109787 -0.05689203739 1.1295305e-38
0.3619154692 -0.01027486846 -0.2397974432 1.1295305e-38
-0.1329439133 -0.4139590263 0.1819228381 1.1295305e-38
-0.1595395356 -0.1833186299 -0.153547585 1.1295305e-38
-0.1521507651 -0.3513360023 0.181223765 1.1295305e-38
0.1128887832 -0.1540822238 -0.2745892107 1.1295305e-38
-0.136479646 -0.3782168031 0.185664624 1.147897319e-38
0.194309935 -0.7187820673 -0.2996827066 1.147897319e-38
0.3253783286 -0.3030689657 -0.1612940133 1.147897319e-38
0.05545578524 -0.312415421 -0.134626016 1.147897319e-38
-0.03113225661 -0.3171045184 -0.136927098 1.147897319e-38
-0.1692177355 -0.2911637425 0.2033150345 1.147897319e-38
-0.1600370556 -0.06631585956 -0.1687121391 1.147897319e-38
-0.2041466683 -0.3590560555 0.1427531242 1.147897319e-38
0.06830115616 -0.1623634845 -0.2238120139 1.166264278e-38
-0.1366733164 -0.06340061873 -0.1827055663 1.166264278e-38
0.3764352202 -0.02791373804 -0.237269938 1.166264278e-38
-0.2282036096 -0.2354158163 0.1628461629 1.166264278e-38
0.06723119318 -0.1611380875 -0.2352071851 1.166264278e-38
-0.08027611673 -0.01419183612 -0.1873728782 1.166264278e-38
0.2498597503 -0.1078130305 -0.004440341145 1.166264278e-38
-0.1235295981 -0.4495205283 0.09902919829 1.166264278e-38
-0.05806375667 -0.002034693956 -0.2032796443 1.184631237e-38
-0.220969215 -0.322933346 0.1363989264 1.184631237e-38
0.08952498436 -0.156997472 -0.2605957687 1.184631237e-38
-0.2152828276 -0.1247665584 -0.1621315032 1.184631237e-38
-0.06921065599 -0.004105009139 -0.1905853599 1.184631237e-38
-0.1944770068 -0.315677762 0.1660727561 1.184631237e-38
-0.2114625275 -0.2635219991 0.1786821485 1.184631237e-38
-0.2148340791 -0.2272724807 -0.1397856623 1.184631237e-38
-0.02515397593 -0.1740244478 -0.1678382456 1.202998196e-38
-0.1588041782 -0.08357429504 -0.1762806028 1.202998196e-38
-0.09738521278 -0.1803193986 -0.1486481726 1.202998196e-38
-0.01293708757 -0.1731795222 -0.1691373885 1.202998196e-38
-0.2197363377 -0.3401917815 0.1288304627 1.202998196e-38
-0.21858491 -0.3494336605 0.1307438016 1.202998196e-38
0.06509126723 -0.1586873233 -0.2579974532 1.202998196e-38
-0.1811902076 -0.3160582185 0.1761687398 1.202998196e-38
-0.2295981646 -0.1855840385 -0.1138677597 1.221365155e-38
-0.1606094837 -0.1820932329 -0.1649427116 1.221365155e-38
-0.1729578227 -0.1769651324 0.156265527 1.221365155e-38
-0.1520692855 -0.359352529 0.1717419624 1.221365155e-38
-0.1400968283 -0.3344580233 0.198888272 1.221365155e-38
-0.156755209 -0.2978280485 -0.1296755821 1.221365155e-38
-0.1024069935 -0.03436552733 -0.1809478998 1.221365155e-38
-0.2049307674 -0.4443035722 0.1726674736 1.221365155e-38
-0.2221206427 -0.3136914372 0.1344856024 1.239732115e-38
-0.1957086474 -0.2818790078 -0.1296048015 1.239732115e-38
-0.1851027012 -0.4056460857 0.1624158323 1.239732115e-38
-0.1930812001 -0.3489692211 0.1395406425 1.239732115e-38
-0.079124704 -0.02343373373 -0.1854595393 1.239732115e-38
-0.2354367226 -0.1313579679 -0.1139526367 1.239732115e-38
-0.2362623215 -0.1541821361 -0.1537931859 1.239732115e-38
-0.1134724617 -0.04445235431 -0.1777354032 1.239732115e-38
-0.2352738082 -0.1473910213 -0.132916227 1.258099074e-38
-0.1560633183 -0.4409238696 0.1674708724 1.258099074e-38
-0.0569123365 -0.01127659529 -0.2013663054 1.258099074e-38
0.2055164874 -0.1401438415 0.01789140329 1.258099074e-38
-0.1861131936 -0.1825577021 -0.1737395674 1.258099074e-38
-0.1699511111 -0.08564460278 -0.1635863185 1.258099074e-38
-0.201843828 -0.3775398731 0.146579802 1.258099074e-38
-0.2228138149 -0.1871359646 0.1405852139 1.258099074e-38
-0.2162820697 -0.3679174781 0.1345704794 1.276466033e-38
-0.2343667597 -0.1325833648 -0.1025574729 1.276466033e-38
0.3641368449 -0.02074215561 -0.2264889777 1.276466033e-38
0.3218106329 0.01491609961 -0.2416399866 1.276466033e-38
0.04323893785 -0.3132603467 -0.1333268732 1.276466033e-38
-0.001790188253 -0.1711091995 -0.1818316877 1.276466033e-38
-0.1994000077 -0.1821772456 -0.1838355511 1.276466033e-38
-0.1178832352 -0.3057605624 -0.1202645749 1.276466033e-38
0.2521626055 -0.1262968481 -0.0006136670709 1.294832852e-38
-0.1740372777 -0.3955592513 0.1592033505 1.294832852e-38
-0.231576398 -0.2157066017 0.1476243585 1.294832852e-38
-0.1217969656 -0.4118887186 0.1692285538 1.294832852e-38
-0.2087523639 -0.3220884204 0.1350997835 1.294832852e-38
-0.2372520417 -0.1775135994 0.1285758913 1.294832852e-38
0.03272048756 -0.1661236584 -0.208519429 1.294832852e-38
0.02844063751 -0.1612221003 -0.2541000247 1.294832852e-38
-0.06682634354 -0.03060536459 -0.1962404847 1.313163938e-38
-0.2296796143 -0.1775675118 -0.1043859646 1.313163938e-38
-0.2052166313 -0.3578306735 0.1313579977 1.313163938e-38
-0.2019960135 -0.1251470298 -0.1520355195 1.313163938e-38
-0.1816484332 -0.4333717823 0.1681558341 1.313163938e-38
-0.2307495773 -0.1763421297 -0.1157810986 1.313163938e-38
-0.1823416203 -0.3068163097 0.1742554009 1.313163938e-38
-0.2038500756 -0.2091691047 -0.1335163563 1.313163938e-38
-0.1277170032 -0.3496461511 0.1786254644 1.331530897e-38
-0.2003958076 -0.2368948609 -0.1277763397 1.331530897e-38
-0.05576091632 -0.02051849663 -0.1994529814 1.331530897e-38
-0.132780984 -0.4299920797 0.1629592329 1.331530897e-38
-0.2232720554 -0.3044495285 0.1325722635 1.331530897e-38
0.3508500457 -0.02036169171 -0.2365849614 1.331530897e-38
-0.1449978352 -0.4308370352 0.1642583907 1.331530897e-38
-0.2332153469 -0.1418252587 -0.1006441414 1.331530897e-38
-0.203768611 -0.2171856463 -0.142998144 1.349897856e-38
-0.2341223955 -0.1566329151 -0.131002903 1.349897856e-38
-0.1461492628 -0.4215950966 0.1623450518 1.349897856e-38
0.01880516484 -0.3149501979 -0.1307285577 1.349897856e-38
-0.09010866284 -0.04153711349 -0.1917288452 1.349897856e-38
-0.05065765604 -0.1744889021 -0.1766350716 1.349897856e-38
-0.1701235324 -0.2894310653 -0.1302897632 1.349897856e-38
-0.03363001347 -0.0003448426723 -0.2058779448 1.349897856e-38
-0.2026171833 -0.2264275551 -0.14108482 1.368228942e-38
-0.219654873 -0.3482083082 0.1193486676 1.368228942e-38
-0.2288540304 -0.1547433436 -0.06454537809 1.368228942e-38
-0.1847246885 -0.2637756467 -0.1233354956 1.368228942e-38
-0.2019145638 -0.1331635416 -0.1615173221 1.368228942e-38
-0.1239588857 -0.1795584559 -0.1688401699 1.368228942e-38
0.01622378081 -0.1620670259 -0.2528008819 1.368228942e-38
-0.1961586922 -0.1959134042 0.1512953639 1.368228942e-38
-0.2014657706 -0.2356694788 -0.1391714811 1.386595901e-38
-0.2119100243 -0.144475773 -0.1469096988 1.386595901e-38
-0.1225410998 -0.4427294135 0.1199061647 1.386595901e-38
-0.1904830486 -0.2341064215 0.1703438461 1.386595901e-38
-0.1117419899 -0.1787135303 -0.1701393127 1.386595901e-38
-0.2129799873 -0.143250376 -0.1583048254 1.386595901e-38
-0.0546094887 -0.02976043895 -0.1975396276 1.386595901e-38
0.1688061953 -0.7192465067 -0.3084795475 1.386595901e-38
-0.04450056329 -0.3087075353 -0.1375412792 1.404926846e-38
-0.2298425436 -0.1615344733 -0.08542233706 1.404926846e-38
-0.2231906056 -0.3124660552 0.1230904609 1.404926846e-38
-0.2139792293 -0.3864012957 0.1383971423 1.404926846e-38
-0.09952513874 -0.1778686047 -0.1714384705 1.404926846e-38
-0.1372456998 -0.1791779995 -0.1789361835 1.404926846e-38
-0.1953025907 -0.3385019302 0.1262321621 1.404926846e-38
0.3943277597 -0.06526184827 -0.2195206136 1.404926846e-38
-0.1873240918 -0.3951787353 0.1491073072 1.423293806e-38
-0.1553499103 -0.111300014 -0.170540601 1.423293806e-38
-0.02729389444 -0.1715736687 -0.1906285286 1.423293806e-38
-0.22335352 -0.2964330316 0.1420541108 1.423293806e-38
-0.1870275289 -0.2452918291 -0.1271621585 1.423293806e-38
0.3231569231 -0.2926017046 -0.1746024787 1.423293806e-38
0.2887277603 -0.3056037426 -0.1573965698 1.423293806e-38
0.3385517299 -0.01319010556 -0.225804016 1.423293806e-38
-0.1210021526 -0.09028143436 -0.1782647222 1.441624891e-38
-0.1443659365 -0.09319667518 -0.1642712802 1.441624891e-38
-0.1228669286 -0.4106633663 0.1578334123 1.441624891e-38
-0.1904817969 -0.2175661027 -0.1329021603 1.441624891e-38
0.3120335937 -0.3732158542 -0.1991034001 1.441624891e-38
-0.1554313749 -0.1032835022 -0.1610587984 1.441624891e-38
-0.1409223974 -0.3572822213 0.159047693 1.441624891e-38
-0.1749662608 -0.1804873943 -0.1864338517 1.441624891e-38
-0.02969818935 -0.7589629889 -0.05719192326 1.459991851e-38
-0.133300513 -0.08310982585 -0.1674837619 1.459991851e-38
0.1887754053 -0.1120376587 0.002055417746 1.459991851e-38
-0.05345806852 -0.03900233656 -0.1956263036 1.459991851e-38
-0.1250288486 -0.1783330739 -0.1802353263 1.459991851e-38
-0.2101991177 -0.446193099 0.1062099338 1.459991851e-38
-0.2101481706 -0.2887969613 0.1616318971 1.459991851e-38
0.3251834214 -0.004793129861 -0.2264181972 1.459991851e-38
-0.1882531196 -0.180106923 -0.1965298355 1.478322936e-38
-0.1881789565 -0.2360499352 -0.1290754974 1.478322936e-38
-0.1686474979 -0.3472793698 0.136942327 1.478322936e-38
-0.1383156627 -0.1779526174 -0.19033131 1.478322936e-38
-0.143388167 -0.3227653503 0.1741846204 1.478322936e-38
-0.2234349847 -0.2884164751 0.1515359133 1.478322936e-38
-0.1700433046 -0.3139879107 0.1634744406 1.478322936e-38
-0.01721693203 -0.168277964 -0.2147179544 1.478322936e-38
-0.1568366736 -0.2898115218 -0.1201937944 1.496689755e-38
-0.1915517598 -0.2163407207 -0.1442973018 1.496689755e-38
-0.2017623782 -0.3855563998 0.1370979846 1.496689755e-38
-0.131251514 -0.2973635793 -0.120878756 1.496689755e-38
-0.03132717311 -0.01882864535 -0.2020512819 1.496689755e-38
-0.216200605 -0.3759340048 0.1250886619 1.496689755e-38
-0.02026173472 -0.008741818368 -0.2052637637 1.496689755e-38
-0.220724836 -0.3469828963 0.1079535335 1.496689755e-38
-0.1542092115 -0.3569017649 0.1489517093 1.515020841e-38
-0.181934312 -0.3468989134 0.1268463433 1.515020841e-38
0.2972953916 0.02124276012 -0.2295598984 1.515020841e-38
-0.1830857396 -0.3376569748 0.1249330118 1.515020841e-38
0.3397031426 -0.0224320069 -0.2238906771 1.515020841e-38
-0.2238837779 -0.1859105676 0.1291900724 1.515020841e-38
-0.2106771469 -0.1617341936 -0.1544781625 1.515020841e-38
-0.1483706534 -0.4111278057 0.1490365267 1.515020841e-38
-0.1839418411 -0.1950684786 0.1499962211 1.533351927e-38
0.3821108937 -0.06610677391 -0.2182214558 1.533351927e-38
-0.1287055016 -0.3564372957 0.1577485353 1.533351927e-38
-0.1740277857 -0.1757397354 0.1448704004 1.533351927e-38
-0.09451943636 -0.302845329 -0.134258002 1.533351927e-38
0.3676725626 -0.0564844124 -0.2302307636 1.533351927e-38
0.132155627 -0.7217813134 -0.3045820892 1.533351927e-38
-0.1892489195 -0.2348245531 -0.140470624 1.533351927e-38
-0.2014670074 -0.2522097826 0.1640745401 1.551683013e-38
-0.1983081102 -0.4132820964 0.1428380013 1.551683013e-38
-0.2083743066 -0.1802180111 -0.1506514847 1.551683013e-38
0.3966305852 -0.08374566585 -0.2156939358 1.551683013e-38
-0.1893230826 -0.178881526 -0.2079249918 1.551683013e-38
0.3264163136 -0.022051543 -0.2339866608 1.551683013e-38
-0.08665440977 -0.06926283985 -0.1859888434 1.551683013e-38
-0.05238810927 -0.0402277261 -0.1842311621 1.551683013e-38
-0.1782649457 -0.2167211771 -0.134201318 1.570049832e-38
0.2753829658 -0.3757506311 -0.1952059567 1.570049832e-38
-0.1263211966 -0.3829376101 0.1520934105 1.570049832e-38
-0.1419816315 -0.119697012 -0.169926405 1.570049832e-38
0.2984468341 0.01200085878 -0.2276465595 1.570049832e-38
0.07856102288 -0.7345836759 -0.2183203399 1.570049832e-38
-0.1873948723 -0.1508024335 -0.158989802 1.570049832e-38
0.405139327 -0.2509449422 -0.1799547523 1.570049832e-38
-0.2170567065 -0.2333455086 0.1501518786 1.588380918e-38
-0.05115522444 -0.05748613924 -0.1917996258 1.588380918e-38
-0.01935685799 -0.1658271849 -0.2375082523 1.588380918e-38
0.2121391594 -0.1091224253 -0.01193801686 1.588380918e-38
-0.1408409476 -0.365298748 0.1495658755 1.588380918e-38
-0.1771061867 -0.1780366004 -0.2092241496 1.588380918e-38
0.3832623065 -0.0753486678 -0.2163081318 1.588380918e-38
-0.1793349087 -0.215495795 -0.1455964446 1.588380918e-38
0.05626717582 -0.7387242913 -0.1929317415 1.606712004e-38
-0.04272064194 -0.1687424183 -0.2235148102 1.606712004e-38
0.2850785255 0.02039783448 -0.2282607406 1.606712004e-38
-0.02902432345 -0.03731248528 -0.1982246041 1.606712004e-38
-0.159139514 -0.2713277042 -0.1240204573 1.606712004e-38
-0.1752594262 -0.1419409961 -0.1508071572 1.606712004e-38
-0.1614423692 -0.2528438568 -0.1278471351 1.606712004e-38
-0.1064824611 -0.1079203114 -0.1757372022 1.606712004e-38
0.06536979973 -0.2930866778 -0.1397518367 1.625043089e-38
-0.2112181336 -0.2875715494 0.1502367556 1.625043089e-38
0.3554557264 -0.05732933432 -0.2289316207 1.625043089e-38
0.1087918282 -0.724696517 -0.2905886471 1.625043089e-38
-0.2036798596 -0.1772756875 -0.2294161469 1.625043089e-38
0.3844137192 -0.08459059894 -0.2143947929 1.625043089e-38
-0.1841557026 -0.3364316225 0.1135378778 1.625043089e-38
-0.1588149071 -0.3199341297 0.1412983537 1.625043089e-38
-0.01680746675 -0.03646756336 -0.199523747 1.643374035e-38
0.0238964241 -0.7461606264 -0.1434537023 1.643374035e-38
0.02880063653 -0.3036379814 -0.1453361809 1.643374035e-38
-0.1175478846 -0.1180071607 -0.1725247055 1.643374035e-38
0.3141180277 -0.01487995684 -0.2232057154 1.643374035e-38
0.01194393449 -0.1571654677 -0.2983814478 1.643374035e-38
0.005323460326 -0.0162938647 -0.2059487402 1.643374035e-38
-0.2081406564 -0.4406273961 0.1384820193 1.643374035e-38
0.2996796966 -0.005257599056 -0.2352150232 1.661705121e-38
0.3141994774 -0.02289646864 -0.2326875031 1.661705121e-38
0.3856466115 -0.101849027 -0.2219632566 1.661705121e-38
0.002672567032 -0.7515266538 -0.1066699699 1.661705121e-38
0.07758666575 -0.2922417521 -0.1410509944 1.661705121e-38
-0.1851734817 -0.1612697244 -0.1456813365 1.661705121e-38
-0.1837069094 -0.4389375448 0.1358837187 1.661705121e-38
-0.1740265489 -0.1591994166 -0.1583756208 1.661705121e-38
-0.2104434967 -0.4221435785 0.1346553564 1.680036207e-38
-0.05600746349 -0.1683619618 -0.2336107939 1.680036207e-38
0.01765374094 -0.3057082891 -0.1326418966 1.680036207e-38
-0.1990522295 -0.4441227913 0.09351561964 1.680036207e-38
-0.06115069985 -0.06879837066 -0.1771920174 1.680036207e-38
-0.1606595218 -0.1841367185 0.1454845816 1.680036207e-38
-0.1816377491 -0.1970119774 -0.1494231224 1.680036207e-38
-0.2251676172 -0.3260483146 0.08133657277 1.680036207e-38
-0.1960772127 -0.2039299309 0.1418135762 1.698367293e-38
0.3007496595 -0.006482984871 -0.2238198817 1.698367293e-38
-0.2047498226 -0.1760502905 -0.2408112735 1.698367293e-38
-0.1508256793 -0.1402511448 -0.1534054577 1.698367293e-38
0.3566071689 -0.06657123566 -0.2270182818 1.698367293e-38
-0.1456095576 -0.3122980595 0.16087614 1.698367293e-38
-0.1705735177 -0.2034654617 0.1506104022 1.698367293e-38
0.08756799996 -0.730062604 -0.2538049221 1.698367293e-38
-0.2092920691 -0.4313854575 0.1365686953 1.716698239e-38
0.2997931838 -0.2955169082 -0.1606090516 1.716698239e-38
-0.1671994776 -0.2066343278 -0.1374138147 1.716698239e-38
0.3734296858 -0.1026939601 -0.2206640989 1.716698239e-38
0.2265154719 -0.3791303337 -0.1900093406 1.716698239e-38
-0.1618911624 -0.1503379643 -0.1501929611 1.716698239e-38
0.2022251487 -0.1284511685 -0.006812196225 1.716698239e-38
-0.1537424475 -0.175121367 -0.2232175767 1.716698239e-38
-0.1457712352 -0.2797247171 -0.1234062761 1.735029324e-38
-0.08320014179 -0.09698855877 -0.1802488416 1.735029324e-38
0.06634411216 -0.7354285717 -0.2170211822 1.735029324e-38
-0.1792461127 -0.1755858362 -0.2320144475 1.735029324e-38
0.01638889126 -0.006207037717 -0.209161222 1.735029324e-38
0.3008311391 -0.01449949667 -0.2333016843 1.735029324e-38
0.3918524384 -0.2505644858 -0.1900507361 1.735029324e-38
-0.02149678394 -0.1633764058 -0.2602985501 1.735029324e-38
-0.08044120669 -0.1700518131 -0.2310124934 1.75336041e-38
-0.1770333052 -0.2505199313 0.1614762247 1.75336041e-38
-0.1517434567 -0.3914185762 0.1338147223 1.75336041e-38
-0.0448605679 -0.1662916541 -0.2463051081 1.75336041e-38
-0.1415255517 -0.1742764413 -0.2245167345 1.75336041e-38
-0.2130322158 -0.3171868622 0.08951921761 1.75336041e-38
-0.146598056 -0.3190891743 0.1399992108 1.75336041e-38
-0.08328159153 -0.08897204697 -0.1707670391 1.75336041e-38
0.2873813808 0.001914039254 -0.2244340777 1.771655483e-38
0.05519721657 -0.7374988794 -0.2043268681 1.771655483e-38
-0.1041796207 -0.1264041364 -0.1719105244 1.771655483e-38
-0.2084265202 -0.3541545272 0.09717255831 1.771655483e-38
-0.0456519872 -0.2994656265 -0.1394546032 1.771655483e-38
-0.1332297325 -0.3274861574 0.140613392 1.771655483e-38
-0.2255749106 -0.2859656811 0.1287455857 1.771655483e-38
-0.2181266695 -0.2321201116 0.138756752 1.771655483e-38
-0.2273889929 -0.3155810237 0.06802807748 1.789986569e-38
-0.2393919677 -0.1750628054 0.1057855636 1.789986569e-38
-0.1030281931 -0.1356460452 -0.1699971855 1.789986569e-38
-0.09311415255 -0.116317302 -0.175123021 1.789986569e-38
0.3019011021 -0.01572488621 -0.2219065577 1.789986569e-38
0.3733482361 -0.09467741847 -0.2111822963 1.789986569e-38
-0.1717237085 -0.1776832342 -0.154548943 1.789986569e-38
0.01869173907 -0.0246908851 -0.2053345442 1.789986569e-38
-0.2058197856 -0.1748248935 -0.2522064149 1.808317654e-38
-0.2250861526 -0.3340648413 0.07185474783 1.808317654e-38
0.09657496214 -0.7255414724 -0.2892895043 1.808317654e-38
-0.1273097098 -0.389728725 0.1312164068 1.808317654e-38
-0.2131136805 -0.3091703653 0.09900105 1.808317654e-38
-0.2171891183 -0.3827251196 0.1042117178 1.808317654e-38
-0.1683508903 -0.1973924339 -0.1393271387 1.808317654e-38
-0.005823496729 -0.01836417988 -0.193254441 1.808317654e-38
-0.1018767655 -0.144887954 -0.1680838615 1.826612727e-38
-0.165967837 -0.2404330969 0.1582637429 1.826612727e-38
-0.1999897361 -0.2935177684 0.128060624 1.826612727e-38
-0.2274704576 -0.307564497 0.07750989497 1.826612727e-38
-0.1648164093 -0.2496750057 0.1601770818 1.826612727e-38
0.3890194297 -0.1215582192 -0.2067414522 1.826612727e-38
-0.2291106284 -0.2502234578 0.1324874461 1.826612727e-38
-0.03671695292 -0.06710851938 -0.179790318 1.826612727e-38
0.01984316297 -0.03393278271 -0.2034212053 1.844943813e-38
0.02745433152 0.003879785538 -0.2123737037 1.844943813e-38
0.178717941 -0.3837354183 -0.173417598 1.844943813e-38
0.3600614369 -0.09429696202 -0.22127828 1.844943813e-38
-0.2102805823 -0.4381765723 0.1156917214 1.844943813e-38
0.2966163158 -0.1505651027 -0.246322602 1.844943813e-38
-0.03663549572 -0.07512503117 -0.1892721206 1.844943813e-38
-0.1936029345 -0.1739799678 -0.2535055578 1.844943813e-38
0.3780353665 -0.1396615803 -0.2130107582 1.863274899e-38
0.3309405446 -0.05100265145 -0.2168515176 1.863274899e-38
-0.1059449166 -0.1705162823 -0.2398093492 1.863274899e-38
0.2744853795 -0.1707387865 -0.2398976237 1.863274899e-38
-0.01458608452 -0.04693485051 -0.1862152815 1.863274899e-38
-0.2103620321 -0.4301601052 0.1251735538 1.863274899e-38
-0.1706537455 -0.1789086163 -0.1431538165 1.863274899e-38
-0.1549011618 -0.2138059437 -0.1481947452 1.863274899e-38
-0.02363670617 -0.1609256268 -0.2830888331 1.881569971e-38
-0.05884785205 -0.08728219569 -0.1733653396 1.881569971e-38
-0.1240076572 -0.1650616229 -0.1616588831 1.881569971e-38
-0.1335543543 -0.2788797617 -0.1247054338 1.881569971e-38
-0.1502954662 -0.2507735491 -0.1405414194 1.881569971e-38
-0.03343510255 -0.2986207008 -0.1407537609 1.881569971e-38
-0.05814738944 -0.1659111828 -0.2564010918 1.881569971e-38
0.3031339645 -0.03298329562 -0.2294750214 1.881569971e-38
0.3111360073 -0.1682039946 -0.243795082 1.899901057e-38
-0.1117907763 -0.1642166972 -0.1629580408 1.899901057e-38
-0.002369226888 -0.04608992487 -0.1875144392 1.899901057e-38
-0.1680992246 -0.1735155135 -0.2447087318 1.899901057e-38
-0.01335320063 -0.064193286 -0.1937837452 1.899901057e-38
0.2500516474 -0.1724286228 -0.2372993231 1.899901057e-38
-0.2061236799 -0.3726382852 0.1009992361 1.899901057e-38
0.2989191413 -0.1690489203 -0.2424959391 1.899901057e-38
-0.2138882577 -0.1745983511 0.1145824566 1.91819627e-38
0.3175722957 -0.04260567576 -0.2174657136 1.91819627e-38
-0.1981451809 -0.4293151498 0.1238744035 1.91819627e-38
-0.04770095646 -0.08521188051 -0.186059624 1.91819627e-38
-0.1603393853 -0.1127936393 -0.1679801196 1.91819627e-38
0.0329034254 -0.7416395545 -0.1789382696 1.91819627e-38
-0.2151721418 -0.3147360682 0.0667289272 1.91819627e-38
-0.1502624452 -0.109497942 -0.1920695305 1.91819627e-38
-0.08850845695 -0.1532849371 -0.1674696803 1.936527215e-38
0.3454602659 -0.06864155084 -0.2143239975 1.936527215e-38
0.2733339667 -0.1614968777 -0.2418109626 1.936527215e-38
-0.1212560385 -0.2860513628 -0.1354863793 1.936527215e-38
-0.1464351416 -0.3351222277 0.121035561 1.936527215e-38
-0.09479801357 -0.1684459597 -0.2525036335 1.936527215e-38
-0.1118722409 -0.1562001705 -0.1534762383 1.936527215e-38
-0.1516619921 -0.3994351029 0.1243329197 1.936527215e-38
-0.09842249751 -0.1726136804 -0.1623438448 1.954822428e-38
0.2752459645 -0.006947446615 -0.2326167226 1.954822428e-38
0.25120309 -0.1816705465 -0.2353859842 1.954822428e-38
-0.1477494687 -0.3098472953 0.1380858719 1.954822428e-38
-0.1893825531 -0.4007444978 0.116835244 1.954822428e-38
-0.1351545602 -0.1671319455 -0.1489645988 1.954822428e-38
-0.1946728975 -0.1727545857 -0.2649007142 1.954822428e-38
-0.139445141 -0.3985902071 0.1230337769 1.954822428e-38
-0.1624016315 -0.4415880442 0.08961816132 1.973153514e-38
-0.05761497095 -0.1045406088 -0.1809338033 1.973153514e-38
-0.08620561659 -0.1717687547 -0.1636430025 1.973153514e-38
0.2999891043 -0.1702743173 -0.2311007977 1.973153514e-38
-0.05520189181 -0.7594274282 -0.06598875672 1.973153514e-38
-0.1514481455 -0.2580719888 0.160791263 1.973153514e-38
-0.06634879112 -0.761497736 -0.05329446495 1.973153514e-38
0.3634342253 -0.1140061691 -0.2060564756 1.973153514e-38
-0.08743850887 -0.1545103192 -0.1560745388 1.991448586e-38
0.03967119381 0.00472471118 -0.2136728466 1.991448586e-38
-0.1192317307 -0.170135811 -0.2499053329 1.991448586e-38
-0.1427657306 -0.2049444765 -0.1400121152 1.991448586e-38
0.3645856678 -0.1232480705 -0.2041431367 1.991448586e-38
0.2820965946 -0.1329262257 -0.2488501221 1.991448586e-38
-0.04547957331 -0.09567917138 -0.1727511585 1.991448586e-38
-0.06761047244 -0.1158528477 -0.1663261801 1.991448586e-38
-0.1404628754 -0.223428309 -0.1361854374 2.009743799e-38
-0.142684266 -0.2129610181 -0.1494939029 2.009743799e-38
-0.1157517806 -0.1045123786 -0.2187572867 2.009743799e-38
0.2862535119 -0.0673879385 -0.2635426223 2.009743799e-38
-0.2216318846 -0.3617905378 0.07759474963 2.009743799e-38
-0.1528134197 -0.390193224 0.1224195883 2.009743799e-38
-0.09850396216 -0.1645971686 -0.1528620571 2.009743799e-38
-0.07629160583 -0.1524400115 -0.1687688231 2.009743799e-38
-0.1268986762 -0.1065827012 -0.2060630023 2.028074885e-38
0.2885563672 -0.08587175608 -0.2597159445 2.028074885e-38
0.2599656582 -0.1530998796 -0.2424251437 2.028074885e-38
-0.1462199837 -0.177218765 -0.145752117 2.028074885e-38
-0.01220177859 -0.07343518734 -0.1918704212 2.028074885e-38
0.3187237084 -0.0518475771 -0.2155523747 2.028074885e-38
0.2877722383 -0.1711192429 -0.2298016548 2.028074885e-38
-0.01175298914 -0.1759411246 -0.1695245802 2.028074885e-38
1.507811248e-05 -0.0725902617 -0.193169564 2.046369957e-38
0.0320600234 -0.03308785707 -0.204720363 2.046369957e-38
0.01037788205 -0.1557674408 -0.1759495437 2.046369957e-38
0.03250880912 -0.1355937719 -0.1823745221 2.046369957e-38
-0.1824560016 -0.1719096601 -0.2661998868 2.046369957e-38
-0.01228323951 -0.06541867554 -0.1823886186 2.046369957e-38
0.2786423266 -0.1052004844 -0.2545901239 2.046369957e-38
0.04933135584 -0.1717164963 -0.1760203242 2.046369957e-38
-0.05795031041 -0.2922940254 -0.1286736727 2.06466517e-38
0.247748822 -0.1539448053 -0.2411260009 2.06466517e-38
-0.1380785704 -0.2499286383 -0.1418405622 2.06466517e-38
0.001615289599 -0.1843380928 -0.1689103842 2.06466517e-38
0.2965348363 -0.1425485909 -0.2368407995 2.06466517e-38
0.3000705838 -0.178290844 -0.2405826002 2.06466517e-38
-0.1403826475 -0.2479851544 0.1575787663 2.06466517e-38
0.0138321463 -0.1834931672 -0.1702095419 2.06466517e-38
-0.1205534041 -0.1927873492 -0.1559188813 2.082996116e-38
-0.2115854174 -0.1930821538 0.1184091195 2.082996116e-38
-0.1258287132 -0.1078080907 -0.194667846 2.082996116e-38
0.3117572069 -0.06692346931 -0.2547457814 2.082996116e-38
-0.06522616744 -0.1423531771 -0.1719813049 2.082996116e-38
0.2878537178 -0.1791357696 -0.2392834425 2.082996116e-38
-0.1607919186 -0.3335163593 0.09954444319 2.082996116e-38
0.30535537 -0.04345060885 -0.2161665559 2.082996116e-38
-0.187772885 -0.2926728427 0.1267614663 2.101291328e-38
-0.1581179798 -0.1232609525 -0.1546716243 2.101291328e-38
0.2843179703 -0.1433935165 -0.2355416566 2.101291328e-38
-0.2277962863 -0.2754983902 0.1154371202 2.101291328e-38
-0.08390277624 -0.1902525723 -0.1598163396 2.101291328e-38
0.03321144357 -0.04232975841 -0.2028070241 2.101291328e-38
0.2831665576 -0.1341516078 -0.2374549806 2.101291328e-38
-0.1447354406 -0.1706002653 -0.2587021589 2.101291328e-38
0.3512173593 -0.1148510948 -0.2047573328 2.119586541e-38
0.2519057095 -0.088406533 -0.2558184862 2.119586541e-38
-0.231332019 -0.2397561669 0.1191789135 2.119586541e-38
-0.08365108073 -0.1663756371 -0.2651979327 2.119586541e-38
0.02444885299 -0.07090040296 -0.1957678646 2.119586541e-38
0.2553599775 -0.1161322594 -0.2500784695 2.119586541e-38
0.212952286 -0.0724574849 -0.2557477057 2.119586541e-38
0.2523545027 -0.1909124553 -0.2334726602 2.119586541e-38
0.2565113902 -0.1253741533 -0.2481651455 2.137881613e-38
0.3140600324 -0.08540729433 -0.2509191036 2.137881613e-38
-0.1481225193 -0.1119487137 -0.1692792624 2.137881613e-38
0.3199566007 -0.06910601258 -0.2231208384 2.137881613e-38
-0.2324834466 -0.2305142581 0.1172655746 2.137881613e-38
0.3152114749 -0.09464919567 -0.2490057796 2.137881613e-38
-0.1512509584 -0.1162890792 -0.2129464895 2.137881613e-38
-0.1355325729 -0.3090023696 0.1367867291 2.137881613e-38
-0.1072665602 -0.1931678057 -0.1458228976 2.156176826e-38
0.2396888733 -0.08925145864 -0.2545193434 2.156176826e-38
0.2389047742 -0.1744989455 -0.2246050388 2.156176826e-38
-0.04424668849 -0.1129376069 -0.1803196222 2.156176826e-38
-0.01060156897 -0.1851830184 -0.1676112413 2.156176826e-38
0.22862342 -0.09933828562 -0.2513068616 2.156176826e-38
0.2431431413 -0.116977185 -0.2487793416 2.156176826e-38
-0.2248722762 -0.1927016973 0.1083130836 2.156176826e-38
0.2645713687 -0.1900675297 -0.234771803 2.174471899e-38
-0.1570480168 -0.1244863421 -0.1432764828 2.174471899e-38
0.2351410538 0.01824352145 -0.2344592661 2.174471899e-38
-0.1247624904 -0.4322621226 0.106597662 2.174471899e-38
-0.1342182457 -0.3342772722 0.1197364032 2.174471899e-38
0.03871471062 -0.2843092084 -0.1504620165 2.174471899e-38
0.2495793998 0.008621163666 -0.2224499583 2.174471899e-38
0.2145524621 -0.1842053235 -0.2314885259 2.174471899e-38
0.2332291305 -0.1363059282 -0.243653506 2.192767111e-38
0.2496608496 0.0006046444178 -0.2319317609 2.192767111e-38
0.2175579965 -0.1094251126 -0.248094365 2.192767111e-38
-0.1390340626 -0.1154441535 -0.2142456472 2.192767111e-38
0.01914052851 -0.1271967888 -0.1829887033 2.192767111e-38
-0.2104339898 -0.2023240626 0.1203224584 2.192767111e-38
0.2007353902 -0.07330241799 -0.2544485331 2.192767111e-38
-0.1539196074 -0.1201459765 -0.09960923344 2.192767111e-38
0.3186657429 -0.122374922 -0.2432657778 2.211062324e-38
-0.04194384441 -0.131421417 -0.1764929444 2.211062324e-38
-0.1744860709 -0.293053329 0.1368575096 2.211062324e-38
0.2995403111 -0.06776839495 -0.2534466386 2.211062324e-38
-0.2136533856 -0.4184674025 0.1004699171 2.211062324e-38
-0.07168591022 -0.1894076467 -0.1611154824 2.211062324e-38
0.02596760169 -0.1746317148 -0.1620268971 2.211062324e-38
-0.2006524056 -0.33237499 0.06925643981 2.211062324e-38
-0.04317672923 -0.1141629964 -0.1689244807 2.229357396e-38
-0.03087838367 -0.1213345751 -0.179705441 2.229357396e-38
0.04191039503 -0.7371184826 -0.2144228816 2.229357396e-38
-0.1403814107 -0.2314448506 -0.14566724 2.229357396e-38
0.2221636772 -0.1463927627 -0.2404410243 2.229357396e-38
0.214022249 -0.07368287444 -0.2443525791 2.229357396e-38
0.2732524872 -0.153480351 -0.23232916 2.229357396e-38
-0.09575232863 -0.2855868936 -0.1266895533 2.229357396e-38
-0.02219725214 -0.08474741876 -0.177262798 2.247652609e-38
0.04924989492 -0.1636999547 -0.1665385365 2.247652609e-38
-0.05193931982 -0.1427336335 -0.161885336 2.247652609e-38
0.02720048651 -0.1918901354 -0.1695953608 2.247652609e-38
-0.0674187541 -0.7602723837 -0.06468960643 2.247652609e-38
0.3803382218 -0.1581453979 -0.2091840804 2.247652609e-38
0.2721010745 -0.1442384422 -0.2342424989 2.247652609e-38
-0.01068302803 -0.1771665215 -0.1581294388 2.247652609e-38
0.2023355961 -0.1850502491 -0.230189383 2.265947681e-38
0.2930805981 -0.1148228645 -0.2425808012 2.265947681e-38
0.001533828676 -0.1763215959 -0.1594285965 2.265947681e-38
-0.2237208486 -0.2019436061 0.1102264225 2.265947681e-38
0.2362924963 0.009001620114 -0.2325459421 2.265947681e-38
0.3343948126 -0.07872837782 -0.2111115158 2.265947681e-38
0.3356277049 -0.09598681331 -0.2186799794 2.265947681e-38
-0.02211579122 -0.09276393056 -0.1867445856 2.265947681e-38
0.226239115 -0.0728379488 -0.245651722 2.284242894e-38
0.01259926334 -0.1662347317 -0.1626410782 2.284242894e-38
-0.1395628154 -0.12175183 -0.07811808586 2.284242894e-38
0.03473018855 -0.1460610628 -0.1690660566 2.284242894e-38
-0.1357769668 -0.2849527597 0.1652321219 2.284242894e-38
0.02366475761 -0.1561478972 -0.1658535749 2.284242894e-38
0.04056876525 -0.2002871335 -0.1689811796 2.284242894e-38
0.2787002325 -0.0346731469 -0.2268767208 2.284242894e-38
0.248818785 -0.1551702023 -0.2297308594 2.302537966e-38
0.3330709636 -0.2732729316 -0.1797282994 2.302537966e-38
-0.0602873154 -0.1634604037 -0.2791913748 2.302537966e-38
-0.199500978 -0.341616869 0.0711697787 2.302537966e-38
0.2110981941 -0.1564795822 -0.2372285426 2.302537966e-38
-0.03211126477 -0.1040761471 -0.1721369773 2.302537966e-38
-0.09693793952 -0.1659951806 -0.2752939463 2.302537966e-38
0.3268651366 -0.1245574579 -0.2116408199 2.302537966e-38
0.307739675 -0.06995093822 -0.2218216807 2.320833179e-38
-0.1474236399 -0.3419133425 0.1001586318 2.320833179e-38
0.02649779245 -0.2851541638 -0.1491628587 2.320833179e-38
0.06199700013 -0.2733774781 -0.154973641 2.320833179e-38
0.2366019189 -0.1560151279 -0.2284317166 2.320833179e-38
-0.07250420749 -0.1643053293 -0.2778922319 2.320833179e-38
-0.02289988659 -0.1780114472 -0.1568302959 2.320833179e-38
0.05188805237 0.005569636822 -0.2149720043 2.320833179e-38
0.2575813532 -0.1265995502 -0.2367700189 2.339092378e-38
-0.1908198595 -0.3050297499 0.07361245155 2.339092378e-38
0.3353158832 -0.3622840941 -0.2036150396 2.339092378e-38
0.2156224251 -0.1854307055 -0.2200933993 2.339092378e-38
0.01453484036 -0.09022915363 -0.1906420439 2.339092378e-38
0.2396073937 -0.0812349245 -0.2450375408 2.339092378e-38
0.2064925134 -0.1195119619 -0.2448818833 2.339092378e-38
0.05278562382 -0.1994422078 -0.1702803224 2.339092378e-38
-0.1623163819 -0.1263759136 -0.2097340077 2.348204041e-38
0.217476517 -0.1014086008 -0.2386125773 2.348204041e-38
0.2243850529 -0.1568600535 -0.2271325588 2.348204041e-38
0.2087953389 -0.1379957795 -0.2410552055 2.348204041e-38
-0.1125749052 -0.2494641691 -0.1330437362 2.348204041e-38
0.00223646313 -0.08305756748 -0.1798610985 2.348204041e-38
0.05198733136 -0.7338227034 -0.2385123074 2.348204041e-38
0.01568626054 -0.09947104752 -0.1887287199 2.348204041e-38
-0.1516982317 -0.1306132972 -0.08630076051 2.348132155e-38
-0.009531607851 -0.1864084005 -0.1562161148 2.348132155e-38
-0.1406328082 -0.1205264479 -0.0895132497 2.348132155e-38
-0.160176456 -0.1288266778 -0.1869437099 2.348132155e-38
0.003469346091 -0.1003159806 -0.1874295622 2.348132155e-38
-0.2022111267 -0.2830504477 0.1147521511 2.348132155e-38
-0.159106493 -0.1300520748 -0.1755485833 2.348132155e-38
0.03312998265 -0.03431324661 -0.1933252215 2.348132155e-38
0.3255742788 -0.1778263748 -0.2317857593 2.348060128e-38
0.2342990935 -0.1375313103 -0.2322583795 2.348060128e-38
0.2373624593 0.007776230574 -0.2211508006 2.348060128e-38
0.2197793722 -0.1198924184 -0.2347858995 2.348060128e-38
0.3378490806 -0.1064541191 -0.205371514 2.348060128e-38
-0.2181776166 -0.389516294 0.08333475143 2.348060128e-38
-0.1170991361 -0.2205130756 -0.1501788646 2.348060128e-38
0.06500248611 -0.1985972822 -0.1715794802 2.348060128e-38
-0.1755560338 -0.2918279171 0.1254623234 2.347952368e-38
-0.1294858456 -0.1184561253 -0.1022075415 2.347952368e-38
0.2774094641 -0.08794207126 -0.2470216602 2.347952368e-38
0.3366976678 -0.0972121954 -0.2072848529 2.347952368e-38
0.2240756601 0.008156694472 -0.2312467843 2.347952368e-38
-0.1494768262 -0.1410805881 -0.07299226522 2.347952368e-38
-0.2358562499 -0.2108050436 0.1020437777 2.347952368e-38
0.2133195698 -0.166946888 -0.2239200622 2.347952368e-38
0.318102479 -0.1531281173 -0.2046016604 2.347880341e-38
0.1930427551 -0.1030984521 -0.2360142618 2.347880341e-38
0.176301688 -0.07499226928 -0.2518502474 2.347880341e-38
-0.2347048223 -0.2200469673 0.1039571092 2.347880341e-38
-0.2298547626 -0.2810641527 0.0831650272 2.347880341e-38
0.3436062038 -0.152663663 -0.1958048344 2.347880341e-38
-0.01528871898 -0.1401988566 -0.1657827795 2.347880341e-38
0.2412890792 -0.2009992599 -0.2302601635 2.347880341e-38
-0.1558151543 -0.1417447627 -0.1508449465 2.347808455e-38
0.2664833963 -0.03551807255 -0.225577563 2.347808455e-38
0.00383667089 -0.1948053688 -0.1556019187 2.347808455e-38
0.02068653889 -0.7424844503 -0.1776391268 2.347808455e-38
-0.2414504439 -0.1806285381 0.07351350039 2.347808455e-38
0.2034870088 -0.1942921579 -0.2282760441 2.347808455e-38
-0.04610074684 -0.1969596893 -0.161800459 2.347808455e-38
-0.1918898225 -0.303804338 0.06221728772 2.347808455e-38
-0.00422328338 -0.1301120371 -0.1689952612 2.347700555e-38
-0.1159477085 -0.2297549993 -0.1482655406 2.347700555e-38
-0.1226188168 -0.1114842594 -0.1604824066 2.347700555e-38
0.2107073665 0.01655367017 -0.2318609655 2.347700555e-38
0.26308465 -0.36857903 -0.1844249964 2.347700555e-38
-0.2167308629 -0.2654115856 0.1122246385 2.347700555e-38
0.02667023614 -0.08136771619 -0.1824593991 2.347700555e-38
-0.1884355545 -0.3315300345 0.06795729697 2.347700555e-38
0.1774531007 -0.08423417062 -0.2499369234 2.347628668e-38
0.2901565433 -0.1976195574 -0.2354567796 2.347628668e-38
0.305885613 -0.153973043 -0.2033025026 2.347628668e-38
0.04048729688 -0.1922706068 -0.159499377 2.347628668e-38
0.1965784729 -0.1388407052 -0.2397560626 2.347628668e-38
0.01605352759 -0.193960458 -0.1569010764 2.347628668e-38
0.3023734391 -0.1967746317 -0.2367559224 2.347628668e-38
0.05534232035 -0.02215610817 -0.2092319876 2.347628668e-38
-0.0846054405 -0.2835165858 -0.1393838227 2.347520768e-38
0.3994636834 -0.2127519101 -0.1990032345 2.347520768e-38
-0.1526867151 -0.137404412 -0.1071777195 2.347520768e-38
-0.05716620758 -0.2070465386 -0.1585879624 2.347520768e-38
-0.01644014008 -0.1309569627 -0.1676961184 2.347520768e-38
0.05508847162 -0.2179260403 -0.1664536595 2.347520768e-38
0.05091736466 -0.7325973511 -0.2499074638 2.347520768e-38
0.1786045283 -0.09347608685 -0.2480235845 2.347520768e-38
0.035432823 -0.05279704928 -0.1894985586 2.347448882e-38
-0.2281636298 -0.1810090095 0.08360948414 2.347448882e-38
0.04304399341 -0.01498448104 -0.1984510571 2.347448882e-38
-0.1839113235 -0.3604811728 0.08509245515 2.347448882e-38
0.03065475449 -0.2196158767 -0.163855359 2.347448882e-38
-0.2247908115 -0.200718224 0.09883129597 2.347448882e-38
-0.1172690019 -0.1176111996 -0.1035066843 2.347448882e-38
-0.06716168672 -0.2183587551 -0.1439803541 2.347448882e-38
0.2290722132 -0.2018441856 -0.2289610207 2.347340982e-38
-0.01874298602 -0.1124731451 -0.1715227813 2.347340982e-38
-0.1161990538 -0.1188365966 -0.09211155772 2.347340982e-38
0.03057328984 -0.21159935 -0.1543735564 2.347340982e-38
-0.007677551359 -0.1023862958 -0.1747352779 2.347340982e-38
-0.1903710663 -0.4075356126 0.09595827758 2.347340982e-38
-0.0915954411 -0.2200486064 -0.1413820386 2.347340982e-38
-0.2402990162 -0.1898704469 0.07542683184 2.347340982e-38
0.3134967685 -0.1161604822 -0.2122550011 2.347269095e-38
0.2118587792 0.00731176883 -0.2299476415 2.347269095e-38
-0.2166493982 -0.2734280825 0.1027428359 2.347269095e-38
-0.1102247685 -0.1656147242 -0.2853899002 2.347269095e-38
-0.2147233486 -0.4172419906 0.08907476068 2.347269095e-38
0.06730532646 -0.2170811146 -0.1677528024 2.347269095e-38
-0.03166250512 -0.2065820694 -0.1497911364 2.347269095e-38
0.3099610507 -0.0804182291 -0.2085132152 2.347269095e-38
-0.1104019657 -0.1106393337 -0.1617815644 2.347161195e-38
-0.1037308127 -0.2289100736 -0.1495646834 2.347161195e-38
0.1843616366 -0.1396856308 -0.2384569049 2.347161195e-38
-0.13725999 -0.1402356625 -0.07429142296 2.347161195e-38
-0.1029122248 -0.1192170531 -0.08201554418 2.347161195e-38
-0.01829419844 -0.2149790525 -0.1491769552 2.347161195e-38
0.07632182539 0.007259488106 -0.2175703049 2.347161195e-38
-0.2310876399 -0.263805747 0.09073351324 2.347161195e-38
0.1820587963 -0.1212018132 -0.2422835827 2.347089308e-38
0.2820730507 -0.05438235775 -0.2116549164 2.347089308e-38
-0.09912513196 -0.2658776939 -0.1419113427 2.347089308e-38
0.240898177 -0.02796602622 -0.2248926014 2.347089308e-38
-0.2032810897 -0.2818250656 0.103357017 2.347089308e-38
0.283305943 -0.07164078951 -0.2192233801 2.347089308e-38
0.2168552876 -0.202689141 -0.227661863 2.347089308e-38
-0.1025793999 -0.2381519675 -0.1476513594 2.347089308e-38
0.1984905154 0.01570874453 -0.2305618227 2.346981408e-38
-0.1071920767 -0.1143154949 -0.127596125 2.346981408e-38
0.03180617467 -0.2288577855 -0.1619420201 2.346981408e-38
-0.1757699102 -0.433191061 0.08900398016 2.346981408e-38
0.05385558307 -0.2006675899 -0.1588851959 2.346981408e-38
0.1831287444 -0.1224271953 -0.2308884412 2.346981408e-38
-0.2319946885 -0.2786133587 0.06037473306 2.346981408e-38
-0.07238854468 -0.2826716602 -0.1406829804 2.346981408e-38
0.1640848219 -0.07583719492 -0.2505511045 2.346909522e-38
0.03172471374 -0.2208412588 -0.1524602175 2.346909522e-38
0.2913658917 -0.136334151 -0.2058300376 2.346909522e-38
-0.2357747853 -0.2188215852 0.09256197512 2.346909522e-38
-0.06955868006 -0.7578215599 -0.08747992665 2.346909522e-38
0.2408167273 -0.01994951442 -0.2154107988 2.346909522e-38
0.315718174 -0.126627773 -0.1989465356 2.346909522e-38
0.1854315996 -0.1409110129 -0.2270617783 2.346909522e-38
-0.09069532901 -0.1183721274 -0.08331469446 2.346801622e-38
0.1744476259 -0.1590143591 -0.2333310843 2.346801622e-38
0.2046384215 -0.2035340369 -0.2263627201 2.346801622e-38
0.2832244635 -0.06362427771 -0.2097415775 2.346801622e-38
0.06871065497 -0.03055308014 -0.2086178213 2.346801622e-38
0.2420496047 -0.03720792383 -0.2229792625 2.346801622e-38
-0.2178008258 -0.2641862035 0.1008295044 2.346801622e-38
0.04349277914 -0.1174904108 -0.1761052161 2.346801622e-38
0.05879658088 -0.04988180846 -0.2034919858 2.346693862e-38
-0.1767889112 -0.2745695114 0.1330308318 2.346693862e-38
0.03641187027 -0.2658254206 -0.1542886794 2.346693862e-38
-0.06017168984 -0.2818267345 -0.1419821382 2.346693862e-38
-0.03504799679 -0.7528360486 -0.1141676456 2.346693862e-38
-0.1500523239 -0.2913634777 0.134259209 2.346693862e-38
0.05854273215 -0.2456517518 -0.1607136428 2.346693862e-38
-0.1362767071 -0.3398430347 0.08746431768 2.346693862e-38
-0.004925917834 -0.2233760506 -0.1485627741 2.346621835e-38
0.2791490555 -0.1371790767 -0.2045308799 2.346621835e-38
-0.2025064975 -0.4163970947 0.08777561039 2.346621835e-38
-0.2413689792 -0.1886450648 0.06403167546 2.346621835e-38
0.1801232696 -0.1972073913 -0.214282617 2.346621835e-38
0.04969868064 -0.2662059069 -0.1441926956 2.346621835e-38
0.1663876623 -0.0943210125 -0.2467244267 2.346621835e-38
-0.153801918 -0.3969843388 0.1015426219 2.346621835e-38
0.05003399029 -0.07845248282 -0.1964528263 2.346514075e-38
-0.01714277454 -0.2242209762 -0.1472636163 2.346514075e-38
0.2948201597 -0.1640598774 -0.2000900209 2.346514075e-38
0.1732961982 -0.1497724652 -0.2352444232 2.346514075e-38
-0.1779403389 -0.2653276026 0.1311175078 2.346514075e-38
-0.1636345088 -0.4243295789 0.09718665481 2.346514075e-38
0.03888709098 -0.08052279055 -0.1837585568 2.346514075e-38
0.358207345 -0.1783190668 -0.2027591169 2.346514075e-38
