# .PCD v0.7 - Point Cloud Data file format
VERSION 0.7
FIELDS x y z rgb
SIZE 4 4 4 4
TYPE F F F F
COUNT 1 1 1 1
WIDTH 834
HEIGHT 1
VIEWPOINT 0 0 0 1 0 0 0
POINTS 834
DATA ascii
0.01866240427 -0.4632400274 -0.156227693 9.290090338e-39
-0.1145734116 -0.4416169524 0.100358054 9.290090338e-39
0.08249986917 -0.4495227337 0.05434043705 9.107495543e-39
-0.08816824108 -0.4424679279 0.1368186474 9.107495543e-39
-0.01472489815 -0.4454681575 0.1086179614 9.107495543e-39
-0.08887126297 -0.4439710975 -0.1763994992 9.107495543e-39
0.005722206086 -0.4627941847 -0.168204248 8.924899347e-39
-0.1007620096 -0.4434439838 -0.1633610427 8.924899347e-39
0.1564679891 -0.4524823129 0.03864728659 8.924899347e-39
0.03388751298 -0.4474954605 0.08147922903 8.924899347e-39
-0.1096724421 -0.4397884011 0.5136360526 8.742304551e-39
-0.1259393841 -0.4410491288 0.1259039491 8.742304551e-39
-0.1430775076 -0.4409286678 0.01386753656 8.742304551e-39
-0.09673225135 -0.4402342141 0.5256125927 8.742304551e-39
-0.1833633929 -0.4769443572 0.4017421603 8.560068489e-39
-0.1575919539 -0.4406048656 -0.03563144803 8.560068489e-39
0.1837442964 -0.4547144771 -0.2005877793 8.560068489e-39
0.08983265609 -0.4860249758 0.009294422343 8.560068489e-39
0.03441225365 -0.4474547803 0.09398670495 8.377473694e-39
0.1024419963 -0.4793373346 -0.222422123 8.377473694e-39
0.1445772052 -0.4519551694 0.05168570951 8.377473694e-39
-0.136602357 -0.4389781058 0.4646680057 8.377473694e-39
0.1148574501 -0.4798238277 -0.2229530662 8.194878899e-39
-0.1631857902 -0.4395896792 0.127496779 8.194878899e-39
-0.1684331894 -0.4399963617 0.002421952784 8.194878899e-39
0.1190159321 -0.4546026886 -0.14802742 8.194878899e-39
-0.07417853922 -0.4428323805 0.1738101244 8.012284103e-39
-0.1802543849 -0.4518045783 0.4516528845 8.012284103e-39
-0.01367541682 -0.445386827 0.1336329728 8.012284103e-39
0.2925134003 -0.4578743279 0.02029940672 8.012284103e-39
-0.08484149724 -0.4407613873 0.5125741959 7.829687907e-39
0.2806226611 -0.4573471546 0.03333782777 7.829687907e-39
-0.1710568964 -0.440199703 -0.06011547893 7.829687907e-39
0.07113388926 -0.4489549398 0.07988639176 7.829687907e-39
-0.1483249217 -0.4413353503 -0.1112073287 7.647093112e-39
0.07708629966 -0.4784049988 -0.2338677347 7.647093112e-39
-0.1668091565 -0.4397618473 0.4635697603 7.647093112e-39
-0.1880466193 -0.5022061467 0.314309001 7.647093112e-39
0.3162948191 -0.4589286447 -0.005777463317 7.464498317e-39
-0.1844128668 -0.4770256877 0.3767271638 7.464498317e-39
-0.1807791293 -0.4518452287 0.4391453266 7.464498317e-39
0.04735245183 -0.4479005933 0.1059632301 7.464498317e-39
-0.04987236857 -0.4438460469 0.1602407694 7.281903522e-39
0.2930381298 -0.4578336477 0.03280688077 7.281903522e-39
-0.1864921004 -0.4896362424 0.3392643929 7.281903522e-39
-0.1828583628 -0.4644557834 0.4016825557 7.281903522e-39
-0.1740766317 -0.4901227355 0.3387334347 7.099307325e-39
-0.1357311457 -0.4403593242 0.1889723241 7.099307325e-39
-0.01315067615 -0.4453461468 0.1461404413 7.099307325e-39
0.03598647565 -0.4473327696 0.1315091848 7.099307325e-39
-0.1899373978 -0.4373168349 0.3792393506 6.91671253e-39
-0.1787195951 -0.4267867804 0.4640411139 6.91671253e-39
-0.1688883901 -0.452372402 0.4261069298 6.91671253e-39
-0.08641572297 -0.4408833981 0.4750517011 6.91671253e-39
-0.1885713488 -0.5022467971 0.3018015027 6.734117735e-39
-0.1387013197 -0.4391407967 0.4146380723 6.734117735e-39
-0.09044548869 -0.4440931082 -0.2139219344 6.734117735e-39
-0.1729775667 -0.4388998449 0.1905651689 6.734117735e-39
-0.1906404495 -0.4388200641 0.0660212487 6.55152294e-39
-0.09988069534 -0.4404782355 0.4505676925 6.55152294e-39
0.02409569919 -0.4468055964 0.1445476115 6.55152294e-39
-0.08694045991 -0.4409240484 0.4625442326 6.55152294e-39
-0.1726311147 -0.4403217137 -0.09763792902 6.368926744e-39
-0.1792443395 -0.4268274605 0.4515336156 6.368926744e-39
-0.1142269447 -0.4430388212 -0.1878450811 6.368926744e-39
0.01532013714 -0.4706581533 -8.700788021e-05 6.368926744e-39
0.2334061861 -0.4566604197 -0.2027115524 6.186331949e-39
0.3192771077 -0.4871602356 -0.09386585653 6.186331949e-39
-0.2020064145 -0.4382522404 0.0915672034 6.186331949e-39
-0.1972837597 -0.4378862083 0.2041345835 6.186331949e-39
0.2770944536 -0.4807930291 0.0137781091 6.003737154e-39
-0.1470971555 -0.4397914708 0.2145182788 6.003737154e-39
-0.1807988435 -0.4393973649 0.4265782237 6.003737154e-39
-0.007916871458 -0.48201105 0.05106444284 6.003737154e-39
-0.1595126092 -0.4393049777 0.215049237 5.820783626e-39
0.08512356877 -0.4493193924 0.1168778688 5.820783626e-39
0.109429799 -0.450333029 0.1033084989 5.820783626e-39
-0.07504974306 -0.4414512217 0.449505806 5.820783626e-39
-0.1014549136 -0.4406002462 0.4130452275 5.63818743e-39
0.07323284447 -0.448792249 0.1299163401 5.63818743e-39
-0.1859870851 -0.4771476984 0.3392047286 5.63818743e-39
-0.182878077 -0.4520079195 0.3891154528 5.63818743e-39
-0.165294081 -0.4022961557 0.4633908868 5.455592635e-39
0.2087535113 -0.4542249143 0.09906093776 5.455592635e-39
0.3741742373 -0.4616864026 -0.1084920838 5.455592635e-39
-0.0486445874 -0.4423021674 0.4859663546 5.455592635e-39
0.2841098905 -0.4730901718 -0.05481019616 5.272997839e-39
-0.1689081192 -0.4399245381 0.4135398269 5.272997839e-39
-0.1418497562 -0.4393847883 0.3395931423 5.272997839e-39
-0.1289095283 -0.439830631 0.3515696824 5.272997839e-39
-0.1019796506 -0.4406408966 0.4005377591 5.090401643e-39
0.2582371235 -0.4576334059 -0.2037734389 5.090401643e-39
0.06362135708 -0.4779998958 -0.2583517432 5.090401643e-39
0.2657285035 -0.4802251756 0.0393240042 5.090401643e-39
0.1138079613 -0.4799051583 -0.2479680479 4.907806848e-39
-0.1832940876 -0.4382506907 0.2411260605 4.907806848e-39
0.109954536 -0.4502923787 0.1158159748 4.907806848e-39
-0.07609922439 -0.4415325522 0.4244908094 4.907806848e-39
0.2335844934 -0.4551978707 0.09799904376 4.725212053e-39
-0.1658188254 -0.4023368359 0.4508833885 4.725212053e-39
-0.1694328636 -0.4399651885 0.4010323286 4.725212053e-39
-0.1782342941 -0.4018503428 0.4514143467 4.725212053e-39
-0.116494067 -0.4403170943 0.3510387242 4.542257124e-39
-0.1460476816 -0.4397101402 0.2395332456 4.542257124e-39
-0.1574136466 -0.4391423166 0.2650791705 4.542257124e-39
0.3865897059 -0.4621728957 -0.1090230271 4.542257124e-39
0.266253233 -0.4801845253 0.05183147639 4.359662329e-39
0.3876391947 -0.4620915353 -0.08400804549 4.359662329e-39
0.3451575041 -0.4880518615 -0.06991277635 4.359662329e-39
0.02566991746 -0.4466836154 0.1820700169 4.359662329e-39
-0.0367538631 -0.4428293407 0.472927928 4.177066133e-39
-0.1325827092 -0.4401153028 0.2640172839 4.177066133e-39
-0.1320579648 -0.4400746226 0.2765247524 4.177066133e-39
-0.1854820549 -0.4646591246 0.339145124 4.177066133e-39
-0.1315332353 -0.4400339723 0.2890322506 3.994471337e-39
0.03366212919 -0.4386273623 -0.1193554401 3.994471337e-39
-0.1828978062 -0.4395600259 0.3765482903 3.994471337e-39
-0.1787590384 -0.4018909931 0.4389068484 3.994471337e-39
0.07480706275 -0.4486702383 0.1674387753 3.81151781e-39
0.05361605063 -0.4720362723 0.02333513275 3.81151781e-39
0.2856841087 -0.4729681611 -0.01728774235 3.81151781e-39
-0.1747300774 -0.4404843748 -0.1476678848 3.81151781e-39
0.385540247 -0.462254256 -0.1340380013 3.628921614e-39
-0.06473321468 -0.4421003461 0.3989449143 3.628921614e-39
0.3229503036 -0.4868755043 -0.006313478574 3.628921614e-39
-0.1710070819 -0.4400871992 0.3635098934 3.628921614e-39
-0.1792837679 -0.4019316733 0.4263993502 3.446326818e-39
0.2589401305 -0.4561302066 0.1094446257 3.446326818e-39
0.1979122758 -0.4536164105 0.1371143758 3.446326818e-39
-0.1752548069 -0.4405250549 -0.1601753533 3.446326818e-39
-0.1782540232 -0.3894024491 0.4388471842 3.26337189e-39
-0.1582435071 -0.2150084674 0.4499889612 3.26337189e-39
0.368414253 -0.4891468585 -0.108497113 3.26337189e-39
0.1308869421 -0.4426819086 -0.1736329794 3.26337189e-39
-0.0393775627 -0.4430326819 0.4103904963 3.080777095e-39
0.06344109029 -0.4481024146 0.19298473 3.080777095e-39
-0.1818877608 -0.4145829082 0.3764290214 3.080777095e-39
0.1860215664 -0.453089267 0.1501527876 3.080777095e-39
0.3080773056 -0.4581167996 0.09481336921 2.898180898e-39
0.3451454341 -0.4610387981 -0.2074900568 2.898180898e-39
0.01238523796 -0.4761759341 -0.2937504053 2.898180898e-39
-0.05336724222 -0.4426681697 0.3733989596 2.898180898e-39
-0.176194489 -0.3643440008 0.4637429714 2.715227371e-39
-0.1401073635 -0.4421471655 -0.2117981613 2.715227371e-39
-0.1519981027 -0.4416200519 -0.1987597346 2.715227371e-39
-0.05389198661 -0.4427088499 0.3608914912 2.715227371e-39
0.02480070293 -0.4766623974 -0.2942813635 2.532632576e-39
-0.1653335392 -0.3774003983 0.4382566214 2.532632576e-39
0.0551902689 -0.4719142616 0.06085755676 2.532632576e-39
0.299149096 -0.4733733237 0.007196318358 2.532632576e-39
-0.1746408045 -0.4652676284 0.301091671 2.349677647e-39
0.3969062865 -0.4628220499 -0.1595839262 2.349677647e-39
0.3110398352 -0.473900497 -0.005842161365 2.349677647e-39
-3.217253834e-05 -0.4443294406 0.4588276148 2.349677647e-39
-0.07895080745 -0.4943399727 0.2344259471 2.167082852e-39
0.01482868101 -0.4460751414 0.2201234698 2.167082852e-39
-0.06653532386 -0.4948264658 0.2338950187 2.167082852e-39
-0.1715515256 -0.427679956 0.3384352922 2.167082852e-39
-0.06840640306 -0.4423850477 0.3113924563 1.984127923e-39
0.2967113256 -0.4575489759 0.1203593239 1.984127923e-39
-0.05756516755 -0.4429935217 0.2733390927 1.984127923e-39
0.03773894161 -0.4457482398 0.4697422385 1.984127923e-39
-0.01454662066 -0.4440056384 0.4093286097 1.801533128e-39
-0.1849967688 -0.4397227168 0.3265184164 1.801533128e-39
-0.1679375023 -0.3900516331 0.3882863522 1.801533128e-39
-0.1653532386 -0.3649525046 0.4256895185 1.801533128e-39
-0.01664558053 -0.4441682994 0.3592986465 1.618578199e-39
0.005682770163 -0.4378984272 -0.1933384985 1.618578199e-39
0.3215422332 -0.4585219622 0.1192974299 1.618578199e-39
0.05259985104 -0.4474939108 0.2310380936 1.618578199e-39
0.1265679151 -0.4504535198 0.2153449357 1.435982003e-39
-0.1411568522 -0.4422284961 -0.236813128 1.435982003e-39
0.0009995438159 -0.4631602168 -0.2807715833 1.435982003e-39
0.3704934716 -0.476536274 -0.07103429735 1.435982003e-39
-0.2006105036 -0.4395927489 -0.171620965 1.253028475e-39
0.3477614522 -0.4754005969 -0.01994247176 1.253028475e-39
0.2861694396 -0.4480317235 -0.02991447598 1.253028475e-39
-0.1798479557 -0.377076596 0.3887576461 1.253028475e-39
-0.1870760024 -0.4523332715 0.2890555263 1.070432279e-39
-0.004754834808 -0.4446954727 0.3462602198 1.070432279e-39
0.1519235671 -0.4513857961 0.2267905176 1.070432279e-39
-0.1927889884 -0.4901242852 0.1891745031 1.070432279e-39
0.0293430984 -0.4463989139 0.2696224749 8.874787512e-40
0.01757348701 -0.4384255707 -0.2063769102 8.874787512e-40
-0.1866481453 -0.4420745373 -0.02218637802 8.874787512e-40
0.3451180458 -0.4631560743 -0.09504701197 8.874787512e-40
0.3855523765 -0.4892673194 0.003539327532 7.045238224e-40
0.1767545342 -0.4523587823 0.225728631 7.045238224e-40
0.2858700752 -0.4569404721 0.1584126949 7.045238224e-40
0.348810941 -0.4753192663 0.005072535947 7.045238224e-40
0.2289081961 -0.4164856374 -0.009411234409 5.219290273e-40
-0.1933137327 -0.4901649356 0.1766670346 5.219290273e-40
-0.1592338383 -0.2524335086 0.462675333 5.219290273e-40
0.3974431157 -0.4897944629 -0.009499152191 5.219290273e-40
0.2418484539 -0.4169314504 0.002565294504 3.389740985e-40
0.007135885302 -0.4452226162 0.3332217932 3.389740985e-40
-0.1700364649 -0.3902142942 0.3382564187 3.389740985e-40
0.2035525441 -0.4155533016 -0.02085684612 3.389740985e-40
-0.1027716845 -0.4683898985 0.2353685945 1.56020571e-40
0.3379696906 -0.4747107625 0.0431259051 1.56020571e-40
0.1524483114 -0.4513451457 0.2392980158 1.56020571e-40
0.3607017398 -0.4758464396 -0.00796594657 1.56020571e-40
-0.1985388845 -0.441547364 -0.009147956036 6.490113838e-41
-0.1798676699 -0.3646286726 0.3761904836 6.490113838e-41
0.02927037701 -0.4461268485 0.01177026331 6.490113838e-41
0.2542442083 -0.4049700499 -0.0105327554 6.490113838e-41
0.3350071907 -0.4589271247 0.1437814236 2.496469266e-40
0.04168583453 -0.4466133118 0.01123931818 2.496469266e-40
-0.1896799803 -0.4649844766 0.2390852123 2.496469266e-40
0.1157266796 -0.449845016 0.2533983886 2.496469266e-40
-0.1803924143 -0.3646693528 0.3636830449 4.340353837e-40
-0.1762536466 -0.3270003498 0.4260416031 4.340353837e-40
0.140557602 -0.4508179724 0.2523364723 4.340353837e-40
0.2656298876 -0.4179857373 -0.0235115774 4.340353837e-40
0.2025030702 -0.4156346619 -0.04587179422 6.184224396e-40
-0.1814221889 -0.3771986067 0.3512352109 6.184224396e-40
0.2180669606 -0.4158771336 0.02864216454 6.184224396e-40
-0.1721740514 -0.2519876957 0.4506987929 6.184224396e-40
-0.173145473 -0.4153541028 0.2883456945 8.028094954e-40
0.09142044932 -0.4488313496 0.2669677436 8.028094954e-40
0.3390191793 -0.474629432 0.06814090908 8.028094954e-40
-0.177789256 -0.4655116498 0.2260467857 8.028094954e-40
0.2056317776 -0.4029427767 0.01660600677 9.871979525e-40
0.1162514165 -0.4498043358 0.2659058571 9.871979525e-40
-0.176778391 -0.3270410299 0.4135341048 9.871979525e-40
0.2790948451 -0.4183908999 0.0009724572301 9.871979525e-40
-0.1608080566 -0.2525555193 0.4251528382 1.171585008e-39
0.3855326474 -0.4768194258 -0.009027837776 1.171585008e-39
0.0713121891 -0.4474923909 0.3805970252 1.171585008e-39
0.2558184266 -0.4048480392 0.02698969655 1.171585008e-39
0.09299466759 -0.4487093687 0.3044901788 1.355972064e-39
-0.1732235253 -0.2520690262 0.4256837964 1.355972064e-39
0.3974233568 -0.4773465395 -0.02206625789 1.355972064e-39
-0.1710859537 -0.3902956247 0.3132413626 1.355972064e-39
0.3860573769 -0.4767787457 0.00347969681 1.540360521e-39
0.3598381579 -0.4599000514 0.142719537 1.540360521e-39
-0.1928087175 -0.4776763916 0.1766074002 1.540360521e-39
0.2404061258 -0.4546691775 0.2605963945 1.540360521e-39
0.2884937823 -0.4567371309 0.2209501266 1.724747577e-39
-0.1860856861 -0.4149082601 0.2763691545 1.724747577e-39
0.2066812664 -0.4028614163 0.04162095487 1.724747577e-39
0.06973797083 -0.4476144016 0.3430745602 1.724747577e-39
0.3953047097 -0.4650613368 -0.08466331661 1.909134633e-39
-0.08934618533 -0.4438992739 0.2347183675 1.909134633e-39
0.09666785598 -0.4484246671 0.3920426071 1.909134633e-39
0.265085429 -0.4055785537 -0.04858615249 1.909134633e-39
0.08320290595 -0.4480195343 0.3675585389 2.09352309e-39
-0.1809179783 -0.4782035649 0.1635689884 2.09352309e-39
0.2909658551 -0.4064701796 -0.02463309839 2.09352309e-39
-0.1618575454 -0.2526368499 0.4001379013 2.09352309e-39
-0.162303403 -0.3024690449 0.4378988743 2.277910146e-39
-0.1741949469 -0.4154354334 0.2633307576 2.277910146e-39
0.1188751161 -0.4496009946 0.3284432888 2.277910146e-39
0.1069844067 -0.4490738511 0.3414817154 2.277910146e-39
0.2444327176 -0.3918323219 0.03996848688 2.462297202e-39
0.2320566326 -0.416241616 0.0656336993 2.462297202e-39
0.3727783561 -0.4603458941 0.1546960771 2.462297202e-39
0.3489969075 -0.4592916071 0.1807729602 2.462297202e-39
0.1196966916 -0.5021237135 0.2259308249 2.646685659e-39
0.0475927107 -0.4016481936 -0.1200652719 2.646685659e-39
-0.1705809385 -0.3778070807 0.3131817579 2.646685659e-39
-0.1628281325 -0.3025097251 0.425391376 2.646685659e-39
0.4087696075 -0.4654664993 -0.06017928571 2.830713982e-39
0.29059273 -0.4565744698 0.2709800899 2.830713982e-39
-0.180936873 -0.3522621393 0.3386084437 2.830713982e-39
0.3049555719 -0.406834662 0.01235843822 2.830713982e-39
-0.1674916446 -0.3402194083 0.3505253792 3.015101038e-39
0.1220657825 -0.3921192586 -0.135818094 3.015101038e-39
0.2811937928 -0.4182282388 0.05100238323 3.015101038e-39
0.1204493418 -0.4494789839 0.365965724 3.015101038e-39
0.04271559417 -0.4340841174 0.02368719317 3.199488094e-39
-0.1881649196 -0.4275188148 0.238906309 3.199488094e-39
0.1933679283 -0.4525198936 0.3252575994 3.199488094e-39
0.1122140288 -0.4675792456 -0.2980576158 3.199488094e-39
-0.1628289521 -0.416003257 0.237784788 3.383517819e-39
0.2573926449 -0.4047260284 0.0645121783 3.383517819e-39
-0.1799071133 -0.3397329152 0.3510562778 3.383517819e-39
0.2871794701 -0.4230546355 -0.03003373556 3.383517819e-39
0.08534410596 -0.3906190991 -0.121717751 3.567904875e-39
-0.1690461487 -0.3527893126 0.3255700469 3.567904875e-39
0.1202017069 -0.4896351993 0.2258711904 3.567904875e-39
0.2061170936 -0.3780063093 0.003979243338 3.567904875e-39
0.2936092615 -0.4187147319 0.05047143996 3.75229193e-39
0.04162667692 -0.4092696607 -0.02646202222 3.75229193e-39
0.005429785699 -0.4077288806 0.0001457929611 3.75229193e-39
0.09233804047 -0.4111343026 -0.003570828587 3.75229193e-39
0.2325222194 -0.3788572848 0.04043980688 3.936320254e-39
0.1576957107 -0.4509384334 0.3643728793 3.936320254e-39
-0.006985705346 -0.4072423875 0.0006767399609 3.936320254e-39
0.1941895485 -0.5050426722 0.2227451354 3.936320254e-39
-0.1654321253 -0.31516096 0.3754210472 4.120708711e-39
0.03480850905 -0.4487641454 0.2294089347 4.120708711e-39
0.4103438258 -0.4653444886 -0.02265683189 4.120708711e-39
0.3981339931 -0.4612781703 0.166141659 4.120708711e-39
0.3867680132 -0.4607103765 0.1916876137 4.304737034e-39
-0.1933531612 -0.4652691483 0.1515328288 4.304737034e-39
0.05963942409 -0.4497371018 0.2283470184 4.304737034e-39
0.06645765156 -0.4102426469 -0.02752391994 4.304737034e-39
0.4108685851 -0.4653038383 -0.01014935691 4.48912409e-39
-0.190244168 -0.4401293993 0.2014435232 4.48912409e-39
0.03568221256 -0.3886731565 -0.119593963 4.48912409e-39
-0.1917986721 -0.4526992738 0.1764881462 4.48912409e-39
0.3986587524 -0.46123752 0.1786491871 4.673152414e-39
0.2855855525 -0.4107287228 -0.08012332022 4.673152414e-39
-0.184045881 -0.377401948 0.2886977792 4.673152414e-39
0.006168067455 -0.4129619896 -0.2059652209 4.673152414e-39
0.1153230369 -0.4424394667 -0.2481469363 4.857539469e-39
-0.198561132 -0.4905716181 0.05159217119 4.857539469e-39
0.4119180441 -0.4652225077 0.01486565173 4.857539469e-39
0.03131017834 -0.4086205363 0.02409888059 4.857539469e-39
0.282184124 -0.3808032274 0.0383160226 5.041567793e-39
0.1057635546 -0.3866436481 -0.004221033305 5.041567793e-39
-0.1752641499 -0.4030688703 0.2257486433 5.041567793e-39
0.400552094 -0.4646546543 0.04041154683 5.041567793e-39
0.0674874112 -0.3977134228 -0.01507607102 5.225597518e-39
0.1052388102 -0.3866842985 -0.01672853902 5.225597518e-39
-0.1711253822 -0.3653998673 0.2881071568 5.225597518e-39
0.1225708127 -0.3796306849 -0.1358777136 5.225597518e-39
-0.1819871664 -0.4658370018 0.1259868741 5.409984573e-39
0.06855660677 -0.4100799859 0.02250603959 5.409984573e-39
0.03632356972 -0.4112984538 0.2292300314 5.409984573e-39
0.4462216794 -0.4633461535 0.1264954507 5.409984573e-39
0.2881895304 -0.3980775177 -0.03015299514 5.594012897e-39
0.4010768235 -0.4646140039 0.05291901901 5.594012897e-39
0.04873903096 -0.4117849469 0.2286990732 5.594012897e-39
0.4348556995 -0.4627783597 0.1520413458 5.594012897e-39
0.01442504674 -0.4386695921 -0.2814218104 5.77804122e-39
-0.1778484136 -0.4281679988 0.1883454174 5.77804122e-39
0.1827840805 -0.4795790613 0.2231568247 5.77804122e-39
0.3114659786 -0.4116203785 -0.05617023632 5.77804122e-39
-0.01782694086 -0.4066339135 0.03873013705 5.962428276e-39
-0.1814813316 -0.3398548961 0.3135338426 5.962428276e-39
0.3989581764 -0.4523287714 -0.009678040631 5.962428276e-39
0.05664617568 -0.3971049488 0.02297735587 5.962428276e-39
-0.1649468243 -0.2902245224 0.3627943397 6.1464566e-39
0.05719063431 -0.4095121324 0.04805193469 6.1464566e-39
0.2892390192 -0.3979961872 -0.005138045177 6.1464566e-39
0.04477511719 -0.4090256393 0.04858288169 6.1464566e-39
0.3178563118 -0.3823846877 -0.0007992722094 6.330484923e-39
0.03233994171 -0.3960913122 0.03654672578 6.330484923e-39
0.4140170217 -0.4650598168 0.06489561498 6.330484923e-39
0.02324703336 -0.3757387996 -0.1316301525 6.330484923e-39
0.2897637486 -0.397955507 0.007369488478 6.514514648e-39
-0.1938976198 -0.4528619647 0.1264581829 6.514514648e-39
-0.1111470014 -0.3679949641 0.2354225069 6.514514648e-39
0.03288440034 -0.4084985256 0.06162130088 6.514514648e-39
-0.1830366552 -0.4659183323 0.1009719223 6.698542971e-39
-0.1820060611 -0.3398955762 0.3010263443 6.698542971e-39
-0.1774017215 -0.264842242 0.3381910324 6.698542971e-39
-0.2426069081 -0.4406166077 -0.1701524407 6.698542971e-39
-0.1711451113 -0.3529519737 0.2755400538 6.882571295e-39
8.720904589e-05 -0.3848619163 0.2307036072 6.882571295e-39
0.02116779238 -0.3883493543 -0.169092983 6.882571295e-39
-0.004381719977 -0.3945911527 0.05064703524 6.882571295e-39
0.3249309361 -0.4120255411 -0.03168620542 7.066599618e-39
0.2081200629 -0.4680635035 0.2220353037 7.066599618e-39
0.4129478335 -0.4526932538 0.02731349692 7.066599618e-39
0.4015818536 -0.4521254301 0.05285939202 7.066599618e-39
0.2974565923 -0.3988080323 -0.1057288498 7.250627941e-39
0.005642443895 -0.2474877536 0.2300476879 7.250627941e-39
-0.2011651248 -0.5032228827 0.001621842384 7.250627941e-39
0.3146144152 -0.4113763869 0.01887469739 7.250627941e-39
0.4076806903 -0.4406520724 -0.1103284657 7.434656265e-39
0.05872541666 -0.3844943643 0.06044015288 7.434656265e-39
0.1599732339 -0.4286518991 0.2239802033 7.434656265e-39
0.008538786322 -0.382589072 0.05005646124 7.434656265e-39
-0.1799473763 -0.4283306599 0.1383155137 7.618684588e-39
0.03873127326 -0.4396831989 -0.2949911952 7.618684588e-39
0.03834365681 -0.3613442481 0.2289915234 7.618684588e-39
0.3487123549 -0.413079828 -0.05776307359 7.618684588e-39
0.09332837164 -0.3737092912 -0.01625722274 7.802712912e-39
-0.09368130565 -0.2435958683 0.2342952639 7.802712912e-39
-0.02373369038 -0.3589118123 0.2316462547 7.802712912e-39
0.1049661934 -0.2513796687 0.2258001119 7.802712912e-39
-0.01918850094 -0.2465147972 0.2311095744 7.986382503e-39
-0.1711648107 -0.3405040801 0.2629729509 7.986382503e-39
-0.1225524098 -0.3425313532 0.2358341962 7.986382503e-39
0.06367959082 -0.3498286307 0.2278700024 7.986382503e-39
-0.08530601859 -0.3439908028 0.2342413515 8.170410826e-39
0.1128364578 -0.3642631769 0.2258058339 8.170410826e-39
-0.05643489957 -0.2450553477 0.2327024192 8.170410826e-39
-0.1552536339 -0.2286749184 0.2368903607 8.170410826e-39
0.3222875297 -0.3997810185 -0.1067907363 8.35443915e-39
0.1490728557 -0.3906997442 0.2243322581 8.35443915e-39
-0.2415771484 -0.4280873537 -0.1577045918 8.35443915e-39
0.07496844232 -0.3526262939 -0.1088582128 8.35443915e-39
0.01803906634 -0.4010412395 -0.2315707803 8.538467473e-39
0.3270101845 -0.3994149864 0.005776649341 8.538467473e-39
-0.1597988158 -0.3410719037 0.2374270111 8.538467473e-39
-0.1789956689 -0.2525163889 0.2881014347 8.538467473e-39
-0.01736135781 -0.3692495823 0.01353626885 8.722137064e-39
-0.02805157006 -0.5115368962 -0.3190294504 8.722137064e-39
0.1977247 -0.4176227748 0.2223277241 8.722137064e-39
0.4134528339 -0.4402047098 0.0272538662 8.722137064e-39
0.2939025164 -0.360286504 0.06972803175 8.906165387e-39
0.01755287871 -0.2604628205 0.2295763642 8.906165387e-39
0.116876632 -0.2643547058 0.225328818 8.906165387e-39
-0.1801043004 -0.2152540386 0.2253851444 8.906165387e-39
0.3280596733 -0.3993336558 0.0307915993 9.089834978e-39
0.02198400535 -0.3705463707 0.06197335944 9.089834978e-39
0.3296338916 -0.3992116451 0.06831407547 9.089834978e-39
-0.003371678293 -0.3696140349 0.05052777752 9.089834978e-39
0.3621576726 -0.4010371268 -0.04584614933 9.273863302e-39
-0.1696300507 -0.3154863119 0.2753611803 9.273863302e-39
-0.1872140318 -0.365198046 0.2010857463 9.273863302e-39
-0.1711845398 -0.3280562162 0.2504057884 9.273863302e-39
0.3415245712 -0.3997387886 0.0552756004 9.457532893e-39
0.287080884 -0.3608151972 -0.09286931157 9.457532893e-39
0.06468963623 -0.3248515427 0.2277507335 9.457532893e-39
-0.1763530821 -0.3782544434 0.175599426 9.457532893e-39
-0.1799859852 -0.2899413705 0.3007878065 9.641561216e-39
-0.03210897744 -0.2585168779 0.2317001671 9.641561216e-39
-0.1681544185 -0.2531248629 0.2500480413 9.641561216e-39
-0.1965213269 -0.4530653059 0.06392075866 9.641561216e-39
0.383859843 -0.4147019982 -0.1093858331 9.825230807e-39
0.03985871747 -0.3238785863 0.22881262 9.825230807e-39
0.3999682069 -0.4273516834 -0.009797300212 9.825230807e-39
-0.1562636793 -0.2536520362 0.2370095998 9.825230807e-39
0.1759238541 -0.3417184651 0.2230318636 1.000925913e-38
0.1085186154 -0.5168882012 -0.3248698711 1.000925913e-38
0.3544647992 -0.4001846015 0.06725218892 1.000925913e-38
-0.2037888169 -0.5034261942 -0.06091555953 1.000925913e-38
-0.1758480519 -0.3657658696 0.1755397916 1.019292872e-38
-0.1830760986 -0.4410225749 0.07583771646 1.019292872e-38
-0.1768778116 -0.3782951236 0.1630919427 1.019292872e-38
-0.1954915673 -0.4405360818 0.07636865973 1.019292872e-38
-0.16926305 -0.2158625126 0.1873317063 1.037659831e-38
0.08456636965 -0.3604902625 0.05925900117 1.037659831e-38
0.02946334705 -0.2734378576 0.2291050404 1.037659831e-38
0.4123836458 -0.4278381765 -0.01032824535 1.037659831e-38
0.3015756011 -0.3486911058 -0.0559374392 1.056062664e-38
-0.2011848241 -0.4907749593 -0.01094526239 1.056062664e-38
0.1272720098 -0.3147954047 0.2250363678 1.056062664e-38
-0.1815404892 -0.302511245 0.2758325338 1.056062664e-38
0.2042899728 -0.255271554 0.2215525359 1.074429623e-38
0.3766917586 -0.4138088226 0.01621996984 1.074429623e-38
-0.2421216071 -0.4156801701 -0.1827792078 1.074429623e-38
0.3668803275 -0.4006710947 0.06672124565 1.074429623e-38
-0.1692236066 -0.2407582998 0.2124659866 1.092796582e-38
0.3756225705 -0.4014422596 -0.0213621445 1.092796582e-38
0.02476209402 -0.3382731378 -0.1318090409 1.092796582e-38
0.2933383286 -0.335431397 0.03208629042 1.092796582e-38
-0.1846494973 -0.3276510537 0.2259217948 1.111163541e-38
0.2938630581 -0.3353907168 0.04459376633 1.111163541e-38
0.3912062049 -0.4141326249 0.06571897864 1.111163541e-38
-0.1877396107 -0.4787322581 0.0009716376662 1.111163541e-38
-0.02221862972 -0.3214461505 0.2314673513 1.1295305e-38
-0.183600843 -0.4410632551 0.06333018094 1.1295305e-38
0.2881106436 -0.3482859433 -0.08042146266 1.1295305e-38
0.04036374018 -0.3113900125 0.2287529856 1.1295305e-38
-0.16964975 -0.3030384183 0.2627940774 1.147897319e-38
-0.1697877944 -0.2159031928 0.1748242378 1.147897319e-38
-0.0470495671 -0.3204731941 0.2325292379 1.147897319e-38
0.07110143453 -0.3600850999 0.03477499634 1.147897319e-38
-0.1816390753 -0.2402718365 0.2129969299 1.166264278e-38
0.1287485361 -0.417948842 -0.2487971336 1.166264278e-38
0.1209768653 -0.3673048019 -0.1859672815 1.166264278e-38
0.3062785566 -0.3358772099 0.04406281561 1.166264278e-38
0.4036216736 -0.4146190882 0.06518803537 1.184631237e-38
0.004127383232 -0.2849534452 0.2302265614 1.184631237e-38
-0.1851742268 -0.327691704 0.2134143263 1.184631237e-38
0.3782462776 -0.4012389183 0.04117528722 1.184631237e-38
0.06406721473 -0.4281676412 -0.2961127162 1.202998196e-38
-0.2001550794 -0.478245765 0.001502580941 1.202998196e-38
-0.1118080616 -0.3329217732 -0.1259686351 1.202998196e-38
-0.1908683181 -0.4914241433 -0.06150613725 1.202998196e-38
0.0532842204 -0.2993879616 0.2281624228 1.221365155e-38
0.2593733072 -0.3298760056 0.03913939372 1.221365155e-38
-0.1841255873 -0.4411039054 0.05082270503 1.221365155e-38
-0.05794996768 -0.2825210094 0.2328812927 1.221365155e-38
-0.1815602034 -0.2900633812 0.2632654309 1.239732115e-38
0.3988595605 -0.3900893331 -0.07251359522 1.239732115e-38
-0.1856989712 -0.3277323842 0.2009068578 1.239732115e-38
0.3791371882 -0.4150680006 -0.2219532281 1.239732115e-38
0.385394603 -0.3896842003 -0.09699761868 1.258099074e-38
0.4041267037 -0.4021305442 0.06512840092 1.258099074e-38
-0.0341290608 -0.3084710836 0.231938675 1.258099074e-38
-0.07718535513 -0.334584564 -0.1900989115 1.258099074e-38
0.1308080703 -0.3928903937 -0.2239014208 1.276466033e-38
0.3129416108 -0.3492589295 -0.08148336411 1.276466033e-38
0.3316342235 -0.3368095458 0.05550840124 1.276466033e-38
-0.1738082469 -0.3282595575 0.1878683716 1.276466033e-38
-0.2581905127 -0.4279262125 -0.2572335303 1.294832852e-38
-0.1821046621 -0.2776561379 0.2381907552 1.294832852e-38
-0.1820849478 -0.2901040614 0.2507578731 1.294832852e-38
0.3300600052 -0.3369315565 0.01798597723 1.294832852e-38
0.2097114027 -0.327930063 0.04126317799 1.313163938e-38
0.3559601009 -0.3502710462 0.05450614169 1.313163938e-38
-0.181561023 -0.4035568833 0.07565882802 1.313163938e-38
-0.1872345805 -0.4662436843 0.0009120069444 1.313163938e-38
0.3528116643 -0.3505150378 -0.0205387678 1.331530897e-38
0.3517622054 -0.3505963981 -0.04555371404 1.331530897e-38
-0.1577787399 -0.291117698 0.2371885031 1.331530897e-38
-0.02120858431 -0.2964690328 0.2313480824 1.331530897e-38
0.08786921203 -0.3281763196 -0.1220158935 1.349897856e-38
0.3144960999 -0.336689055 -0.0565280132 1.349897856e-38
0.3734841645 -0.3767091632 -0.09652630985 1.349897856e-38
0.4128492177 -0.3904538155 -0.03552208096 1.349897856e-38
0.2598783076 -0.3173874617 0.039079763 1.368228942e-38
-0.1371637285 -0.3319894671 -0.137414217 1.368228942e-38
0.3414259851 -0.3374993503 -0.007559976541 1.368228942e-38
0.3993645906 -0.3776007891 -0.07257321477 1.368228942e-38
-0.1713225693 -0.2409209907 0.1624360234 1.386595901e-38
0.372959435 -0.3767498434 -0.1090337783 1.386595901e-38
0.4133542478 -0.3779652715 -0.03558171168 1.386595901e-38
0.04694629088 -0.5019671917 -0.3222748041 1.386595901e-38
0.04782496393 -0.3465422094 0.06079220772 1.404926846e-38
-0.1324410737 -0.3316234648 -0.02484682575 1.404926846e-38
0.02211531438 -0.5009942651 -0.3212128878 1.404926846e-38
-0.1020163 -0.3336116076 -0.1890370101 1.404926846e-38
0.4014438391 -0.3649902344 -0.03511039913 1.423293806e-38
-0.2012045532 -0.4783270955 -0.02351236716 1.423293806e-38
0.3533166945 -0.3380264938 -0.02059839666 1.423293806e-38
0.01057859138 -0.3450827599 0.06238504499 1.423293806e-38
0.3615737557 -0.3637341261 -0.09605500102 1.441624891e-38
-0.1263224781 -0.3325979412 -0.1754676253 1.441624891e-38
-0.1712831408 -0.2658167481 0.1875702292 1.441624891e-38
0.1152835935 -0.4175437093 -0.273281157 1.441624891e-38
0.3393270075 -0.3376620114 -0.05758990347 1.459991851e-38
-0.03838445246 -0.323474139 -0.1667363942 1.459991851e-38
-0.1004617959 -0.3210417032 -0.1640816629 1.459991851e-38
-0.001836899668 -0.3445962667 0.06291599572 1.459991851e-38
-0.1598957181 -0.3308538198 -0.08632236719 1.478322936e-38
0.009722936898 -0.3379899859 -0.1938155293 1.478322936e-38
0.2862637043 -0.3057905734 0.06297325343 1.478322936e-38
0.3932065368 -0.3517305255 0.05291329697 1.478322936e-38
0.05207316577 -0.2072128654 0.2757670581 1.496689755e-38
-0.09691243619 -0.2013750374 0.2821384072 1.496689755e-38
-0.1025410295 -0.3336522579 -0.2015444934 1.496689755e-38
0.3921570778 -0.351811856 0.02789835259 1.496689755e-38
0.298679173 -0.3062770665 0.06244231015 1.515020841e-38
-0.2037854344 -0.3284605145 0.05338375643 1.515020841e-38
0.08557641506 -0.3355131447 0.05913974345 1.515020841e-38
-0.1718473136 -0.2409616411 0.1499285549 1.515020841e-38
-0.1862434447 -0.3153251708 0.1758322269 1.533351927e-38
0.2236616164 -0.3033988178 0.05312044919 1.533351927e-38
-0.1831524223 -0.3297588527 -0.0477380231 1.533351927e-38
-0.1882840544 -0.4663250148 -0.02410294116 1.533351927e-38
0.08931960166 -0.2086723298 0.2741742432 1.551683013e-38
-0.1966207474 -0.5043193698 -0.1865213662 1.551683013e-38
-0.01050916873 -0.2172689736 0.2784814239 1.551683013e-38
0.338802278 -0.3377026916 -0.07009737939 1.551683013e-38
0.2979024351 -0.3489758074 -0.1434898525 1.570049832e-38
-0.1345597655 -0.3193382621 -0.08744388819 1.570049832e-38
0.3734644651 -0.3642612994 -0.1090934128 1.570049832e-38
-0.1551730633 -0.3304877877 0.02624502406 1.570049832e-38
-0.1908880472 -0.4789762497 -0.07407326996 1.588380918e-38
0.1737280339 -0.3316630721 -0.1507474929 1.588380918e-38
-0.189352423 -0.3404649496 0.1259215176 1.588380918e-38
0.1861435026 -0.3321495354 -0.1512784362 1.588380918e-38
0.2371068448 -0.2913560569 0.06503740698 1.606712004e-38
-0.191894725 -0.3289876878 0.04034533724 1.606712004e-38
-0.1681132764 -0.3300419748 0.01426843554 1.606712004e-38
-0.04775556922 -0.2158095241 0.2800742686 1.606712004e-38
0.05106312782 -0.2321899831 0.275886327 1.625043089e-38
-0.03584513813 -0.2287845761 0.2796029449 1.625043089e-38
-0.1723326147 -0.2658981085 0.1625552773 1.625043089e-38
-0.2437155545 -0.4033542871 -0.2328687608 1.625043089e-38
-0.2006995231 -0.4658385217 -0.02357199602 1.643374035e-38
0.1297585815 -0.3929717243 -0.2489164025 1.643374035e-38
-0.1888087988 -0.466365695 -0.03661041707 1.643374035e-38
-0.1971421242 -0.3293943703 -0.08472952247 1.643374035e-38
0.07589410245 -0.2331629544 0.2748244405 1.661705121e-38
-0.1604401916 -0.3184466064 -0.1113969684 1.661705121e-38
-0.1924194694 -0.3290283382 0.02783786133 1.661705121e-38
-0.1940167546 -0.4916681647 -0.1365510672 1.661705121e-38
-0.2172504067 -0.328055352 0.02889975533 1.680036207e-38
-0.1464504749 -0.3188110888 -0.07440546155 1.680036207e-38
-0.2048349231 -0.3285418451 0.02836880833 1.680036207e-38
-0.1898771673 -0.3405056 0.1134140491 1.680036207e-38
-0.2032804191 -0.3159719706 0.05332412943 1.698367293e-38
0.1136455014 -0.2221338451 0.2731719613 1.698367293e-38
-0.07309153676 -0.2273251265 0.2811957896 1.698367293e-38
-0.1919375211 -0.47905761 -0.09908821434 1.698367293e-38
-0.184807241 -0.2280679643 0.1253848523 1.716698239e-38
-0.1578164846 -0.3182432652 -0.0488595441 1.716698239e-38
0.4029785991 -0.3399724364 -0.02272218093 1.716698239e-38
0.1157886237 -0.4050551355 -0.2733407915 1.716698239e-38
0.1132051945 -0.316660732 -0.1231374145 1.735029324e-38
0.3760487139 -0.3391621709 -0.07169021666 1.735029324e-38
-0.1718061566 -0.3178787827 -0.08585104346 1.735029324e-38
-0.1702319384 -0.317756772 -0.0483285971 1.735029324e-38
-0.1873503476 -0.3300842047 -0.1477979124 1.75336041e-38
-0.1712814271 -0.3178381026 -0.073343575 1.75336041e-38
0.233726114 -0.3467060328 -0.1908650547 1.75336041e-38
0.4107108414 -0.3657207489 -0.1106862426 1.75336041e-38
-0.1790162176 -0.3535619974 0.08792778105 1.771655483e-38
0.4169682562 -0.3403369486 0.01426935568 1.771655483e-38
0.1835164428 -0.5073185563 -0.3281151652 1.771655483e-38
0.159233287 -0.3437871337 -0.1876793802 1.771655483e-38
-0.114451468 -0.3206772208 -0.2010731697 1.789986569e-38
-0.1852728277 -0.2654522955 0.1505787522 1.789986569e-38
0.0472805053 -0.3341349959 0.03571763262 1.789986569e-38
-0.001856613904 -0.3321483731 0.05034888908 1.789986569e-38
0.1292338371 -0.3930124044 -0.2614238858 1.808317654e-38
-0.2001945078 -0.4533499777 -0.02363162488 1.808317654e-38
0.3113476634 -0.3369330764 -0.1315729171 1.808317654e-38
0.06507726014 -0.4031905234 -0.2962319851 1.808317654e-38
-0.1992410868 -0.3295570314 -0.1347594857 1.826612727e-38
-0.1934912056 -0.3781339824 0.06356298178 1.826612727e-38
-0.2565957606 -0.3267585933 -0.01953736693 1.826612727e-38
-0.1857581288 -0.2903887331 0.1632054895 1.826612727e-38
-0.2053793818 -0.3161346316 0.003294169903 1.844943813e-38
-0.2022737414 -0.4659605324 -0.06109444797 1.844943813e-38
0.2978827059 -0.3365279138 -0.1560569555 1.844943813e-38
0.04883500561 -0.3215650916 0.06067295 1.844943813e-38
0.03921736404 -0.3012532592 -0.1200113595 1.863274899e-38
-0.2002939284 -0.5046040416 -0.2740737796 1.863274899e-38
-0.2085278332 -0.316378653 -0.07175073773 1.863274899e-38
-0.1971618533 -0.3169464767 -0.09729665518 1.863274899e-38
0.05163287744 -0.3017397523 -0.1205423176 1.881569971e-38
-0.1961157173 -0.4918308258 -0.1865810007 1.881569971e-38
-0.2307350785 -0.3152023554 -0.008151412942 1.881569971e-38
-0.04100815207 -0.3236774802 -0.2292738259 1.881569971e-38
0.3211591542 -0.3500707746 -0.1820742041 1.899901057e-38
-0.2080064565 -0.4913036525 -0.173542574 1.899901057e-38
-0.1511731446 -0.3191771209 -0.1869728565 1.899901057e-38
-0.1981349885 -0.4282915294 0.001264065504 1.899901057e-38
0.1095517278 -0.3293933272 -0.1981227249 1.91819627e-38
-0.2008186728 -0.5046447515 -0.2865812778 1.91819627e-38
-0.1734412611 -0.228635788 0.09983895719 1.91819627e-38
-0.04256265238 -0.3362473845 -0.2542291582 1.91819627e-38
0.4127703607 -0.3406622708 -0.08579055965 1.936527215e-38
0.3491187692 -0.3383518457 -0.1206582785 1.936527215e-38
0.2958034575 -0.3491384685 -0.193519786 1.936527215e-38
0.2456168532 -0.347233206 -0.2039034963 1.936527215e-38
-0.1982113272 -0.317027837 -0.1223116368 1.954822428e-38
-0.1924811602 -0.3531568646 0.06344372034 1.954822428e-38
-0.2323092967 -0.3153243661 -0.04567386582 1.954822428e-38
0.3806522489 -0.3776023388 -0.2221321166 1.954822428e-38
0.3718704879 -0.3519353867 -0.1591830105 1.973153514e-38
0.2828632295 -0.3486926556 -0.205496341 1.973153514e-38
-0.2592194676 -0.3269619346 -0.08207479119 1.973153514e-38
-0.2132307589 -0.329192549 -0.1717509925 1.973153514e-38
-0.2566154897 -0.3143106997 -0.03210449964 1.991448586e-38
0.01745517179 -0.3637382686 -0.2817795873 1.991448586e-38
-0.1743921489 -0.2909565568 0.1376595944 1.991448586e-38
0.1581837982 -0.3438684642 -0.2126943469 1.991448586e-38
-0.2597441971 -0.3270025849 -0.09458230436 2.009743799e-38
0.3330498338 -0.350597918 -0.1951126158 2.009743799e-38
-0.2132341266 -0.5041582584 -0.2860503197 2.009743799e-38
-0.1641167104 -0.4936969578 -0.3132486939 2.009743799e-38
-0.2344082594 -0.3154870272 -0.09570382535 2.028074885e-38
-0.005316222087 -0.3377068341 -0.2558220029 2.028074885e-38
-0.2090559304 -0.4913850129 -0.1985575557 2.028074885e-38
-0.1868273169 -0.2780221701 0.1256233752 2.028074885e-38
0.3092487156 -0.3370957375 -0.1816028804 2.046369957e-38
-0.1522226185 -0.3192584515 -0.2119878083 2.046369957e-38
-0.2111515254 -0.3165819943 -0.134288162 2.046369957e-38
-0.2349330038 -0.3155277073 -0.1082112938 2.046369957e-38
-0.1863814741 -0.228189975 0.087862432 2.06466517e-38
-0.07982876897 -0.3223400116 -0.2652034461 2.06466517e-38
-0.1800854057 -0.3411954343 0.05034567416 2.06466517e-38
-0.2122010142 -0.3166633248 -0.1593031436 2.06466517e-38
0.3346043527 -0.3380280435 -0.1701572686 2.082996116e-38
-0.1739857048 -0.2162285447 0.07476438582 2.082996116e-38
-0.2272007614 -0.3412759602 -0.1961753964 2.082996116e-38
0.09041318297 -0.3916749358 -0.2973535061 2.082996116e-38
-0.1765321791 -0.4932104945 -0.3127177358 2.101291328e-38
-0.02653650194 -0.4740712047 -0.3192083836 2.101291328e-38
-0.1884195507 -0.3177176714 -0.1853800267 2.101291328e-38
0.2450921237 -0.3472738564 -0.2164109796 2.101291328e-38
-0.1139498055 -0.4831543565 -0.3154321313 2.119586541e-38
-0.2287552506 -0.3538458347 -0.2211307436 2.119586541e-38
0.4091168642 -0.3533948362 -0.1607758403 2.119586541e-38
-0.0008465722203 -0.3071712554 0.05022963136 2.119586541e-38
0.01070989855 -0.4755306542 -0.3208011985 2.137881613e-38
0.3087239563 -0.3371364176 -0.1941103488 2.137881613e-38
-0.2048974484 -0.4661638737 -0.1236318797 2.137881613e-38
-0.2354577333 -0.3155683875 -0.120718807 2.137881613e-38
-0.1914522201 -0.4541211426 -0.1117149815 2.156176826e-38
-0.2127257437 -0.316704005 -0.171810627 2.156176826e-38
0.1700745821 -0.3443956375 -0.2257327735 2.156176826e-38
-0.188944295 -0.3177583218 -0.1978874952 2.156176826e-38
-0.1263652742 -0.4826678932 -0.3149011731 2.174471899e-38
0.3956519663 -0.3529896736 -0.1852598786 2.174471899e-38
0.2833451927 -0.4987219274 -0.3324223757 2.174471899e-38
-0.1919958591 -0.3282203972 0.05081698298 2.174471899e-38
0.03742958978 -0.2961015403 0.06108463556 2.192767111e-38
0.1173036844 -0.3675894737 -0.273519665 2.192767111e-38
-0.1387807578 -0.4821814001 -0.3143702149 2.192767111e-38
-0.213250488 -0.3167446852 -0.1843181252 2.192767111e-38
-0.1759663671 -0.2910785675 0.1001371145 2.211062324e-38
-0.1869259179 -0.2157827318 0.06278779358 2.211062324e-38
-0.2116796374 -0.4915883541 -0.2610949874 2.211062324e-38
-0.2085509151 -0.4788964689 -0.1986171901 2.211062324e-38
-0.1775783002 -0.3183261156 -0.2234334201 2.229357396e-38
0.2445673645 -0.3473145366 -0.2289184481 2.229357396e-38
0.2029983699 -0.3402919471 -0.1563244015 2.229357396e-38
-0.1413813829 -0.3198669553 -0.2500412166 2.229357396e-38
0.3190601766 -0.3502334654 -0.2321041226 2.247652609e-38
-0.1764911115 -0.2911192179 0.08762963861 2.247652609e-38
0.3066447079 -0.3497469723 -0.2315731794 2.247652609e-38
0.2942292392 -0.3492604792 -0.2310422361 2.247652609e-38
-0.1760057956 -0.2661827803 0.07500290126 2.265947681e-38
0.3946024776 -0.353071034 -0.2102748454 2.265947681e-38
0.1348645985 -0.4803955257 -0.326110661 2.265947681e-38
-0.2137752324 -0.3167853355 -0.1968256086 2.265947681e-38
0.396681726 -0.3404604793 -0.1728119999 2.284242894e-38
-0.01930589788 -0.3373423219 -0.2928135097 2.284242894e-38
0.2828435302 -0.3362447619 -0.2180634439 2.284242894e-38
0.0665923208 -0.3657248616 -0.2964108586 2.284242894e-38
-0.2153297216 -0.3293552101 -0.2217809558 2.302537966e-38
-0.1971849203 -0.4794642925 -0.2241630852 2.302537966e-38
-0.2132538557 -0.491710335 -0.2986174226 2.302537966e-38
-0.1997289211 -0.4159656465 -0.04882549122 2.302537966e-38
-0.1175999194 -0.3209212422 -0.2761180699 2.320833179e-38
-0.176045239 -0.241286993 0.04986863583 2.320833179e-38
-0.242220208 -0.3534407318 -0.245614782 2.320833179e-38
-0.10570921 -0.3214483857 -0.2891565263 2.320833179e-38
0.1943807602 -0.3454092443 -0.2393021733 2.339092378e-38
-0.2018081695 -0.4285762012 -0.08628831804 2.339092378e-38
-0.1982344091 -0.4795456231 -0.2491780668 2.339092378e-38
0.3325054049 -0.3381907046 -0.2201872319 2.339092378e-38
0.3433663547 -0.3512470722 -0.2456735224 2.348204041e-38
-0.263417393 -0.3272872865 -0.1821347177 2.348204041e-38
0.01257895678 -0.2826806307 0.04957942665 2.348204041e-38
-0.1992238909 -0.4034770727 -0.04888512194 2.348204041e-38
-0.005860678852 -0.3252996206 -0.2808965743 2.348132155e-38
0.2316271663 -0.3468686938 -0.2408950031 2.348132155e-38
0.08988930285 -0.278222084 -0.1222544163 2.348132155e-38
-0.009638799354 -0.3321436942 -0.1848207712 2.348132155e-38
-0.1765699685 -0.2413276732 0.03736115992 2.348060128e-38
0.07516132295 -0.2726245224 0.04686506465 2.348060128e-38
-0.205441907 -0.4537566602 -0.1487064958 2.348060128e-38
-0.1677668244 -0.3314638436 -0.2739346623 2.348060128e-38
-0.1889854372 -0.2408411801 0.0378921032 2.347952368e-38
-0.186303407 -0.3914750218 -0.04947569594 2.347952368e-38
-0.1424308568 -0.3199482858 -0.2750561833 2.347952368e-38
-0.1981941462 -0.3909478784 -0.03643724695 2.347952368e-38
0.3195652068 -0.3377449214 -0.2321637571 2.347880341e-38
-0.1935700774 -0.3283424079 0.0132945627 2.347880341e-38
0.1147202551 -0.2791950703 -0.1233163029 2.347880341e-38
0.1172839552 -0.3551416099 -0.2860867679 2.347880341e-38
0.1560848355 -0.3440311551 -0.2627243102 2.347808455e-38
-0.2163792104 -0.3294365704 -0.2467959374 2.347808455e-38
0.01360871643 -0.2701514363 0.06202726811 2.347808455e-38
-0.2008581012 -0.4797489643 -0.3117154837 2.347808455e-38
-0.1852736622 -0.3789458275 -0.03702782094 2.347700555e-38
-0.02552646399 -0.4490941167 -0.3193276525 2.347700555e-38
-0.04312682897 -0.3113922477 -0.2918708622 2.347700555e-38
0.2186869234 -0.3464229107 -0.2528715134 2.347700555e-38
-0.189412415 -0.4166148305 -0.09938636422 2.347628668e-38
0.2559333742 -0.3478823602 -0.2544643581 2.347628668e-38
-0.2034587413 -0.3174345195 -0.2473865002 2.347628668e-38
0.2931797802 -0.3493418097 -0.2560572028 2.347628668e-38
-0.2515463531 -0.3153665662 -0.2077402472 2.347520768e-38
-0.2132735848 -0.4792624712 -0.3111845255 2.347520768e-38
0.02829724178 -0.2508532405 -0.1322264373 2.347520768e-38
-0.1899371594 -0.4166554809 -0.1118938699 2.347520768e-38
-0.1781442016 -0.2414496839 -0.0001613236964 2.347448882e-38
-0.1900349259 -0.2409225106 0.01287715882 2.347448882e-38
0.03086095303 -0.3267997205 -0.2949969172 2.347448882e-38
-0.2050132304 -0.3300043941 -0.2723418176 2.347448882e-38
-0.09228366613 -0.296957761 -0.2898067236 2.347340982e-38
-0.1905596703 -0.2409631908 0.0003696233034 2.347340982e-38
-0.1677865535 -0.31901595 -0.2865017951 2.347340982e-38
-0.1868478805 -0.3790678084 -0.07455030084 2.347340982e-38
0.02413876355 -0.2760743499 -0.2071520984 2.347269095e-38
-0.1956493109 -0.3409529626 -0.0241682902 2.347269095e-38
-0.08760380745 -0.4466616809 -0.3166729212 2.347269095e-38
-0.2039071172 -0.4287388921 -0.1363182664 2.347269095e-38
-0.1977088302 -0.366011411 -0.04906401038 2.347161195e-38
-0.1946203858 -0.4419173002 -0.1993270218 2.347161195e-38
-0.1920550168 -0.2908767462 0.01311567426 2.347161195e-38
0.08001865447 -0.2277407497 -0.1094545126 2.347161195e-38
-0.2644865811 -0.3149207234 -0.2197168022 2.347089308e-38
0.2346933931 -0.471798867 -0.3304178715 2.347089308e-38
0.1048487872 -0.3422071934 -0.2981229722 2.347089308e-38
-0.1930658817 -0.4293473661 -0.1743716747 2.347089308e-38
-0.1982335746 -0.3660520911 -0.06157148629 2.346981408e-38
0.06705874205 -0.2148470283 -0.1339981705 2.346981408e-38
-0.1801839918 -0.278955996 -0.01248990744 2.346981408e-38
-0.1796987057 -0.2540195882 -0.02511664107 2.346981408e-38
0.1043248177 -0.2287543863 -0.1230238676 2.346909522e-38
-0.1936095059 -0.3034466207 -0.01183970459 2.346909522e-38
0.1560651213 -0.3315832615 -0.2752913833 2.346909522e-38
-0.2660411 -0.3274906278 -0.2446721494 2.346909522e-38
-0.09177865088 -0.2844692171 -0.289866358 2.346801622e-38
-0.254150331 -0.3280177712 -0.2577105761 2.346801622e-38
-0.1946392804 -0.3159758747 -0.02428754792 2.346801622e-38
0.1922817975 -0.3455719352 -0.2893320918 2.346801622e-38
-0.1419455558 -0.2950118184 -0.2876829207 2.346693862e-38
-0.2101645768 -0.4541226923 -0.2612738609 2.346693862e-38
0.02619828284 -0.2510159016 -0.1822563708 2.346693862e-38
0.1307094693 -0.3306509554 -0.286736995 2.346693862e-38
-0.005375377834 -0.3003631532 -0.2935233414 2.346621835e-38
-0.2054813504 -0.428860873 -0.1738407314 2.346621835e-38
-0.216923669 -0.317029357 -0.2718704939 2.346621835e-38
0.04000337422 -0.3216417432 -0.1995116621 2.346621835e-38
0.1545106173 -0.344153136 -0.3002467453 2.346514075e-38
-0.1941153556 -0.4294287264 -0.1993866563 2.346514075e-38
-0.1941342503 -0.3034873009 -0.02434717864 2.346514075e-38
0.1276012957 -0.2422972471 -0.1490411162 2.346514075e-38
0.1669261307 -0.3446396291 -0.3007777035 2.346406175e-38
-0.2060060799 -0.4289015532 -0.1863481998 2.346406175e-38
-0.1951640248 -0.3160165548 -0.03679502383 2.346406175e-38
0.02773306891 -0.2259981483 -0.1698681563 2.346406175e-38
0.2526208162 -0.3173421323 -0.1835824251 2.346334289e-38
-0.07885816693 -0.2724671066 -0.2904569209 2.346334289e-38
0.128106311 -0.2298086882 -0.1491007507 2.346334289e-38
-0.2536453307 -0.3155292273 -0.2577701807 2.346334289e-38
-0.2174484134 -0.3170700073 -0.2843779922 2.346226389e-38
0.02048529685 -0.2888069451 -0.2821373641 2.346226389e-38
-0.1951648295 -0.429510057 -0.2244015932 2.346226389e-38
0.02203980088 -0.2762370408 -0.2571820319 2.346226389e-38
-0.2417546213 -0.3160564005 -0.2708086073 2.346118629e-38
-0.1931636482 -0.2536144257 -0.0496006757 2.346118629e-38
0.1229377985 -0.2800069153 -0.2239071429 2.346118629e-38
-0.1884220988 -0.3791898191 -0.1120727584 2.346118629e-38
-0.267090559 -0.3275719583 -0.2696870863 2.346010729e-38
-0.229863897 -0.3165835142 -0.2838470638 2.346010729e-38
0.2351984084 -0.459310323 -0.3304774761 2.346010729e-38
-0.116104573 -0.2710076571 -0.2888640761 2.346010729e-38
-0.1941350847 -0.4169808328 -0.2119537592 2.345938842e-38
-0.198273018 -0.3411563039 -0.08670572191 2.345938842e-38
-0.07835315168 -0.2599785626 -0.2905165553 2.345938842e-38
0.2893424928 -0.3188422322 -0.1976827383 2.345938842e-38
-0.1615916044 -0.4312541783 -0.3135468364 2.345830942e-38
-0.1993430406 -0.4422833025 -0.3118943572 2.345830942e-38
-0.1946598142 -0.417021513 -0.2244612277 2.345830942e-38
0.02460434288 -0.2386900336 -0.2323459685 2.345830942e-38
-0.208629787 -0.4291048944 -0.2488856316 2.345723183e-38
0.1736260951 -0.4443893135 -0.3278824091 2.345723183e-38
-0.2049960345 -0.4039244354 -0.1864674538 2.345723183e-38
0.1860415488 -0.4448758066 -0.3284133077 2.345723183e-38
-0.1828076988 -0.2791593373 -0.07502733916 2.345615283e-38
0.05720698461 -0.290307045 -0.2962377071 2.345615283e-38
0.2357034385 -0.4468217492 -0.3305371404 2.345615283e-38
0.0639103055 -0.2150910348 -0.2090430856 2.345615283e-38
-0.1911024153 -0.2805773318 -0.285618782 2.345507523e-38
-0.05301718414 -0.2484629899 -0.2916380763 2.345507523e-38
0.2267404348 -0.3164505064 -0.2075354755 2.345507523e-38
-0.1967579573 -0.3036906421 -0.08688461035 2.345507523e-38
