# .PCD v0.7 - Point Cloud Data file format
VERSION 0.7
FIELDS x y z rgb
SIZE 4 4 4 4
TYPE F F F F
COUNT 1 1 1 1
WIDTH 833
HEIGHT 1
VIEWPOINT 0 0 0 1 0 0 0
POINTS 833
DATA ascii
-0.07485747337 -0.3119976521 -0.110183388 1.478322936e-38
0.1059428006 -0.1955403537 -0.2839963436 1.478322936e-38
-0.06322225928 -0.3097118139 -0.1224957183 1.478322936e-38
-0.1462883204 -0.3350893557 -0.1004422307 1.478322936e-38
0.04627042264 -0.2101611495 -0.2658803761 1.478322936e-38
-0.3046578467 -0.362207979 -0.09554895014 1.478322936e-38
0.1903819293 -0.173156321 -0.2832912803 1.478322936e-38
-0.08661594242 -0.320468545 -0.1185582057 1.496689755e-38
0.07091394067 -0.2085829675 -0.2677464783 1.496689755e-38
0.4275706112 -0.09933143854 -0.2401406616 1.496689755e-38
-0.2816167474 -0.1663018763 -0.1427806467 1.496689755e-38
-0.01574837789 -0.2896950543 -0.1189914793 1.496689755e-38
-0.06656154245 -0.2065877318 -0.2709335387 1.496689755e-38
0.2549773455 -0.08718553185 -0.1828129292 1.496689755e-38
-0.09825114906 -0.3227544129 -0.1062458605 1.496689755e-38
-0.1839400679 -0.3359598815 -0.1090223417 1.515020841e-38
-0.09893767536 -0.3212576509 -0.1176251471 1.515020841e-38
-0.1962617934 -0.3367489874 -0.1080892831 1.515020841e-38
-0.2559341788 -0.3513697982 -0.0899733007 1.515020841e-38
-0.3322767615 -0.166464746 -0.1618070006 1.515020841e-38
-0.3132128716 -0.3241949677 -0.1814182103 1.515020841e-38
-0.2686085105 -0.1670095325 -0.132334426 1.515020841e-38
0.02162696607 -0.2117393613 -0.2640142441 1.515020841e-38
-0.2939384878 -0.1670909822 -0.1418475807 1.533351927e-38
0.1958682537 -0.1094881445 -0.1740048379 1.533351927e-38
0.04517380521 -0.2842527926 -0.1350360513 1.533351927e-38
0.4646590948 -0.09077909589 -0.222252652 1.533351927e-38
-0.004676451907 -0.2797273695 -0.1219959408 1.533351927e-38
0.08713820577 -0.3185997307 -0.1295496076 1.533351927e-38
0.01928049326 -0.2766524255 -0.1352413297 1.533351927e-38
-0.1001874655 -0.3120791018 -0.1196965501 1.533351927e-38
-0.3062602282 -0.1678800583 -0.1409145296 1.551683013e-38
-0.1448278129 -0.16680035 -0.1509728879 1.551683013e-38
0.1189510524 -0.1962480247 -0.273550123 1.551683013e-38
-0.3352692425 -0.1728477776 -0.2486985326 1.551683013e-38
0.101959601 -0.3361677527 -0.1263398677 1.551683013e-38
0.08657492697 -0.3109179437 -0.1202417314 1.551683013e-38
0.071067065 -0.2918531597 -0.134830758 1.551683013e-38
0.04461052641 -0.2765709758 -0.125728175 1.551683013e-38
-0.2682559192 -0.3521589041 -0.08904024959 1.570049832e-38
-0.1598598659 -0.3266999125 -0.1015805751 1.570049832e-38
-0.2214685678 -0.3306453824 -0.09691528976 1.570049832e-38
-0.1845033467 -0.3282780945 -0.09971445799 1.570049832e-38
-0.3125263453 -0.3256917298 -0.1700389236 1.570049832e-38
-0.3185819685 -0.1686691642 -0.1399814785 1.570049832e-38
-0.1441412866 -0.168297112 -0.1395936012 1.570049832e-38
0.4166218936 -0.1031140536 -0.2164490074 1.570049832e-38
-0.3337729871 -0.1696562469 -0.2052527815 1.588380918e-38
-0.2812641859 -0.3514512479 -0.09948647022 1.588380918e-38
-0.1235811561 -0.3228358328 -0.11575903 1.588380918e-38
-0.1228946447 -0.3243325949 -0.1043797433 1.588380918e-38
-0.1125092357 -0.3128682077 -0.1187634915 1.588380918e-38
-0.233790338 -0.3314344883 -0.09598222375 1.588380918e-38
-0.309217006 -0.3393605649 -0.1338296533 1.588380918e-38
0.03160227835 -0.2758633196 -0.1361743957 1.588380918e-38
-0.2098333389 -0.3283595145 -0.1092276275 1.606712004e-38
-0.2221550792 -0.3291486204 -0.108294569 1.606712004e-38
-0.3309037089 -0.1694582701 -0.1390484124 1.606712004e-38
-0.1975115985 -0.3275704384 -0.1101606861 1.606712004e-38
0.2027036697 -0.1723672152 -0.2842243314 1.606712004e-38
-0.3055737317 -0.1693768203 -0.1295352429 1.606712004e-38
-0.3217678964 -0.2861819863 -0.2672874629 1.606712004e-38
-0.2344768494 -0.3299377263 -0.1073615104 1.606712004e-38
-0.2578704953 -0.3406944573 -0.1034239903 1.625043089e-38
-0.01699817926 -0.2805164754 -0.1210628897 1.625043089e-38
-0.2935858965 -0.352240324 -0.09855341166 1.625043089e-38
0.1312728375 -0.1954589188 -0.2744831741 1.625043089e-38
-0.04039186239 -0.2912732363 -0.1171253622 1.625043089e-38
-0.1241444498 -0.3151540458 -0.1064511538 1.625043089e-38
-0.2461120486 -0.3322235942 -0.09504917264 1.625043089e-38
0.2075034678 -0.1072022915 -0.1863171756 1.625043089e-38
0.08463859558 -0.3002426326 -0.1336924136 1.643374035e-38
-0.1811065227 -0.1706643999 -0.136794433 1.643374035e-38
-0.005362965167 -0.2782306075 -0.1333752275 1.643374035e-38
-0.24679856 -0.3307268322 -0.1064284518 1.643374035e-38
-0.003016518429 -0.2133175433 -0.2621481419 1.643374035e-38
0.5125729442 -0.0846291855 -0.2487434596 1.643374035e-38
-0.05271361768 -0.2920623422 -0.1161923036 1.643374035e-38
0.0569322519 -0.2757818997 -0.1266612262 1.643374035e-38
0.428943634 -0.1023249626 -0.2173820734 1.661705121e-38
0.04392400756 -0.2750742137 -0.1371074617 1.661705121e-38
0.1071926057 -0.2047189176 -0.2819249332 1.661705121e-38
-0.2187582403 -0.1715349257 -0.1453745365 1.661705121e-38
-0.02834651992 -0.213398993 -0.2716613114 1.661705121e-38
0.2789342999 -0.08411058038 -0.1960583329 1.661705121e-38
0.08407531679 -0.2925608158 -0.1243845373 1.661705121e-38
0.04752022773 -0.2193397284 -0.2638089657 1.661705121e-38
-0.2057500035 -0.1722426116 -0.1349283159 1.680036207e-38
0.09889669716 -0.3101288378 -0.1211747974 1.680036207e-38
0.04683371633 -0.2178429663 -0.2751882374 1.680036207e-38
0.1137180328 -0.3276968598 -0.1179650426 1.680036207e-38
-0.2110831439 -0.3191809654 -0.111299023 1.680036207e-38
-0.05299001187 -0.214977175 -0.2697951794 1.680036207e-38
0.07147723436 -0.2162647545 -0.2770543694 1.680036207e-38
0.03519849852 -0.2201288342 -0.2628759146 1.680036207e-38
-0.05230349302 -0.216473937 -0.2584159076 1.698367293e-38
-0.1987613887 -0.3183918893 -0.1122320816 1.698367293e-38
-0.3210813701 -0.2876787484 -0.2559081912 1.698367293e-38
0.4893025458 -0.089200899 -0.2241187692 1.698367293e-38
-0.1617961824 -0.3160246015 -0.1150312573 1.698367293e-38
-0.2180717289 -0.1730316877 -0.1339952499 1.698367293e-38
0.3925416768 -0.1123740524 -0.2238907665 1.698367293e-38
-0.02931993827 -0.2813055813 -0.1201298237 1.698367293e-38
-0.2357266396 -0.3207591772 -0.1094329059 1.716698239e-38
0.09821018577 -0.3086320758 -0.1325540692 1.716698239e-38
-0.3104667962 -0.3301820159 -0.1359010488 1.716698239e-38
0.08338880539 -0.2910640538 -0.135763824 1.716698239e-38
-0.3078439832 -0.342354089 -0.1110710651 1.716698239e-38
-0.331713438 -0.174146533 -0.1711149067 1.716698239e-38
0.1202008575 -0.2054265738 -0.2714787126 1.716698239e-38
-0.06531173736 -0.2157662809 -0.2688621283 1.716698239e-38
-0.12539424 -0.3059754968 -0.1085225493 1.735029324e-38
0.5132594705 -0.08612594754 -0.237364158 1.735029324e-38
-0.06572186202 -0.291354686 -0.1266385168 1.735029324e-38
-0.2714420259 -0.3323050141 -0.1045623347 1.735029324e-38
-0.3348291814 -0.1867145896 -0.2786936164 1.735029324e-38
-0.3332097232 -0.1773380637 -0.2145606577 1.735029324e-38
0.1559162885 -0.1938807368 -0.2763493061 1.735029324e-38
0.5016242862 -0.08841180056 -0.2250518203 1.735029324e-38
-0.3163989782 -0.3043411076 -0.1969403177 1.75336041e-38
-0.2707555294 -0.3338017762 -0.09318305552 1.75336041e-38
-0.2596835792 -0.3238341212 -0.09618751705 1.75336041e-38
-0.1377159655 -0.3067645729 -0.1075894982 1.75336041e-38
-0.3124031425 -0.3195067048 -0.1493517458 1.75336041e-38
-0.3097802997 -0.3316787779 -0.1245217472 1.75336041e-38
0.1117817163 -0.3170215189 -0.1314157248 1.75336041e-38
-0.2550369799 -0.1753989756 -0.1311960816 1.75336041e-38
-0.03000645339 -0.2798088193 -0.1315091103 1.771655483e-38
0.3932281733 -0.113870807 -0.2125114948 1.771655483e-38
-0.29414922 -0.344558537 -0.08924552798 1.771655483e-38
-0.3157124817 -0.3058378696 -0.1855610162 1.771655483e-38
-0.2837637663 -0.33309412 -0.1036292762 1.771655483e-38
-0.05396342278 -0.2828837633 -0.1182637066 1.771655483e-38
0.126603052 -0.334589541 -0.1282059699 1.771655483e-38
-0.1020005643 -0.2952187359 -0.1124600768 1.771655483e-38
-0.1026870757 -0.2937219739 -0.123839356 1.789986569e-38
0.01055501215 -0.2217070162 -0.2610097826 1.789986569e-38
-0.3117166162 -0.3210034668 -0.1379724592 1.789986569e-38
0.416498661 -0.109299086 -0.2371362001 1.789986569e-38
0.2555406392 -0.09486732632 -0.1921208203 1.789986569e-38
0.1730378121 -0.1279266775 -0.1793752015 1.789986569e-38
-0.3341426551 -0.1882113516 -0.2673143148 1.789986569e-38
-0.3333329558 -0.1835230887 -0.2352478504 1.789986569e-38
0.1112184227 -0.3093397319 -0.1221078485 1.808317654e-38
-0.3150259554 -0.3073346317 -0.1741817296 1.808317654e-38
0.1325226426 -0.2046374679 -0.2724117637 1.808317654e-38
-0.1623594761 -0.3083427846 -0.105723381 1.808317654e-38
0.5255813003 -0.08533684909 -0.238297224 1.808317654e-38
-0.04232817888 -0.2805978954 -0.1305760443 1.808317654e-38
-0.3050104082 -0.1770586073 -0.138843134 1.808317654e-38
-0.1746812314 -0.3091318905 -0.104790315 1.808317654e-38
-0.2720053196 -0.3246232271 -0.09525445104 1.826612727e-38
0.2919425368 -0.08481824398 -0.1856121123 1.826612727e-38
-0.1150088459 -0.2945110798 -0.1229062974 1.826612727e-38
0.1105319113 -0.3078429699 -0.1334871352 1.826612727e-38
-0.3143394291 -0.3088313937 -0.162802428 1.826612727e-38
-0.2960855067 -0.3338832259 -0.1026962176 1.826612727e-38
-0.223968178 -0.3122882545 -0.1010580957 1.826612727e-38
0.04877003282 -0.2285182774 -0.2617375553 1.826612727e-38
0.0734135434 -0.2269400656 -0.2636036873 1.844943813e-38
-0.1682214886 -0.1775571108 -0.1470353603 1.844943813e-38
-0.2000111938 -0.3092133105 -0.114303492 1.844943813e-38
-0.1876894683 -0.3084242046 -0.1152365506 1.844943813e-38
-0.0786068812 -0.2844619751 -0.1163975894 1.844943813e-38
-0.1266440451 -0.2967969477 -0.1105939597 1.844943813e-38
-0.3334561586 -0.1897081137 -0.2559350431 1.844943813e-38
-0.2850135863 -0.323915571 -0.1057006791 1.844943813e-38
-0.3136529326 -0.3103281558 -0.1514231414 1.863274899e-38
-0.02709671482 -0.2225775421 -0.269589901 1.863274899e-38
-0.2486116588 -0.3138664663 -0.09919197857 1.863274899e-38
-0.01408847421 -0.223285228 -0.2591436803 1.863274899e-38
-0.2246546894 -0.3107914925 -0.1124373749 1.863274899e-38
-0.03941844404 -0.223366648 -0.2686568499 1.863274899e-38
-0.03873192519 -0.22486341 -0.2572775483 1.863274899e-38
-0.28432706 -0.325412333 -0.09432139993 1.863274899e-38
0.4288204014 -0.1085099876 -0.2380692512 1.881569971e-38
0.2321469486 -0.1056240946 -0.1881832927 1.881569971e-38
-0.2492981702 -0.3123697042 -0.1105712578 1.881569971e-38
-0.1798567176 -0.1798429787 -0.1347230226 1.881569971e-38
0.526267767 -0.08683360368 -0.2269179374 1.881569971e-38
0.1247899532 -0.3177292049 -0.1209695041 1.881569971e-38
-0.0792933926 -0.2829652131 -0.1277768761 1.881569971e-38
-0.1396522969 -0.2960892618 -0.1210401803 1.881569971e-38
0.08573527634 -0.2261509895 -0.2645367384 1.899901057e-38
-0.3311501741 -0.1818283498 -0.1804227829 1.899901057e-38
0.1241034418 -0.3162324429 -0.1323487908 1.899901057e-38
-0.2175084352 -0.1807135046 -0.1433031261 1.899901057e-38
0.1441578567 -0.2023515999 -0.2847241163 1.899901057e-38
0.2678623497 -0.09407822788 -0.1930538714 1.899901057e-38
-0.3129664063 -0.3118249178 -0.1400438547 1.899901057e-38
-0.2973353267 -0.3247046769 -0.1047676206 1.899901057e-38
-0.2609333992 -0.3146555722 -0.09825891256 1.91819627e-38
0.1092821211 -0.2986644208 -0.1355585307 1.91819627e-38
-0.3289673924 -0.1801335812 -0.1255977303 1.91819627e-38
-0.3183353245 -0.2936657965 -0.2103909999 1.91819627e-38
-0.2168219239 -0.1822102666 -0.1319238544 1.91819627e-38
0.1389247775 -0.3338004649 -0.1291390359 1.91819627e-38
-0.2421519309 -0.1822916865 -0.141437009 1.91819627e-38
-0.06337541342 -0.2264416218 -0.2554114461 1.91819627e-38
0.2087532729 -0.1163808405 -0.1842457801 1.936527215e-38
0.0815757066 -0.2742036879 -0.1285273433 1.936527215e-38
0.1207641438 -0.2131083906 -0.2807866037 1.936527215e-38
-0.3304636478 -0.1833251119 -0.1690435112 1.936527215e-38
-0.3122799098 -0.3133216798 -0.1286645532 1.936527215e-38
0.4295069277 -0.1100067496 -0.2266899496 1.936527215e-38
-0.1636092812 -0.2991642356 -0.1077947766 1.936527215e-38
-0.1155721247 -0.286829263 -0.1135984212 1.936527215e-38
-0.3312734067 -0.1880133748 -0.2011099756 1.954822428e-38
0.1564795822 -0.2015625238 -0.2856571674 1.954822428e-38
-0.07569717616 -0.2272306979 -0.254478395 1.954822428e-38
0.01180481538 -0.2308855653 -0.2589383721 1.954822428e-38
0.1228536516 -0.3070538938 -0.1344201863 1.954822428e-38
0.2094397843 -0.1178775951 -0.1728664935 1.954822428e-38
-0.3089705706 -0.326990515 -0.09245528281 1.954822428e-38
-0.1285803765 -0.2861216068 -0.1240446419 1.954822428e-38
-0.1423282027 -0.1851574779 -0.1468300819 1.973153514e-38
-0.3115933836 -0.3148184419 -0.117285274 1.973153514e-38
-0.2128962427 -0.3023206294 -0.1040625423 1.973153514e-38
0.09737049043 -0.2238651216 -0.2768490613 1.973153514e-38
-0.1766175479 -0.2984565794 -0.1182410046 1.973153514e-38
-0.2537871599 -0.1845775545 -0.1291246712 1.973153514e-38
-0.3305868804 -0.1895101368 -0.1897306591 1.973153514e-38
-0.2661089003 -0.1853666604 -0.1281916201 1.973153514e-38
0.4301934242 -0.1115035117 -0.215310663 1.991448586e-38
0.1330859363 -0.2123192847 -0.2817196548 1.991448586e-38
-0.1416416764 -0.1866542399 -0.1354507953 1.991448586e-38
-0.2985851169 -0.315526098 -0.1068390235 1.991448586e-38
-0.3313966095 -0.1941983998 -0.2217971683 1.991448586e-38
0.05001983047 -0.2376968265 -0.2596661448 1.991448586e-38
0.1371116787 -0.316940099 -0.1219025627 1.991448586e-38
-0.3322063684 -0.1988866925 -0.2538636327 1.991448586e-38
-0.1525373459 -0.2891965508 -0.1107992381 2.009743799e-38
-0.1532238573 -0.2876997888 -0.1221785247 2.009743799e-38
-0.2382262498 -0.3024020493 -0.1135757118 2.009743799e-38
0.1222903579 -0.2993721068 -0.1251123101 2.009743799e-38
-0.02584691346 -0.2317560911 -0.2675184906 2.009743799e-38
-0.02516040206 -0.2332528532 -0.2561392188 2.009743799e-38
-0.2978986204 -0.3170228601 -0.09545974433 2.009743799e-38
0.2210749835 -0.1155917346 -0.1851788312 2.009743799e-38
-0.03748212755 -0.234041959 -0.2552061677 2.028074885e-38
0.06126805767 -0.3203038573 -0.2410235405 2.028074885e-38
0.1210405529 -0.2901935279 -0.1271837056 2.028074885e-38
-0.05049040914 -0.2333343029 -0.2656523883 2.028074885e-38
0.1976813376 -0.1263484806 -0.1812413186 2.028074885e-38
-0.2907523811 -0.1869448423 -0.126325503 2.028074885e-38
-0.1792934239 -0.1875247657 -0.1440308988 2.028074885e-38
-0.3202716112 -0.2829904556 -0.223841697 2.028074885e-38
-0.04980389029 -0.2348310649 -0.2542730868 2.046369957e-38
0.1074690223 -0.281804055 -0.12832205 2.046369957e-38
-0.1662851721 -0.1882324219 -0.1335846782 2.046369957e-38
0.09389750659 -0.273414582 -0.1294604093 2.046369957e-38
0.2925058305 -0.09250003099 -0.1949199885 2.046369957e-38
0.1203540415 -0.2886967659 -0.1385629922 2.046369957e-38
0.1749741286 -0.1386020184 -0.1659245044 2.046369957e-38
-0.2628697157 -0.3039802611 -0.1117096022 2.046369957e-38
-0.2039369047 -0.1891029477 -0.1421647817 2.06466517e-38
0.1454076618 -0.2115301788 -0.2826527059 2.06466517e-38
-0.3195851147 -0.2844872177 -0.2124624103 2.06466517e-38
-0.06212561578 -0.2356201708 -0.2533400357 2.06466517e-38
0.1506832093 -0.325329572 -0.1207642108 2.06466517e-38
0.0932109803 -0.27191782 -0.140839681 2.06466517e-38
-0.3292138577 -0.1925036609 -0.1669721007 2.06466517e-38
-0.177867353 -0.2892780006 -0.1203124076 2.06466517e-38
-0.2285803854 -0.1906811595 -0.1402986646 2.082996116e-38
-0.1895025671 -0.2915638685 -0.1080000699 2.082996116e-38
0.1358618736 -0.3077615499 -0.1239739656 2.082996116e-38
0.417748481 -0.1184776574 -0.2350647897 2.082996116e-38
-0.1291436553 -0.2784398198 -0.1147367656 2.082996116e-38
0.1351753622 -0.3062647879 -0.1353532374 2.082996116e-38
-0.07513388991 -0.2349124849 -0.2637862563 2.082996116e-38
-0.2751914561 -0.3047693372 -0.1107765436 2.082996116e-38
-0.07444737107 -0.2364092469 -0.2524069846 2.101291328e-38
-0.3128432035 -0.3056398928 -0.1193566769 2.101291328e-38
-0.1410783976 -0.1943360269 -0.1447586715 2.101291328e-38
-0.3293370605 -0.1986886859 -0.1876592636 2.101291328e-38
0.01305461675 -0.2400641143 -0.2568669915 2.101291328e-38
-0.2025108039 -0.2908561826 -0.1184462979 2.101291328e-38
-0.227893874 -0.1921779215 -0.1289193928 2.101291328e-38
-0.1421519071 -0.2777321339 -0.1251829863 2.101291328e-38
0.2333967388 -0.1148026437 -0.1861118823 2.119586541e-38
-0.3228944242 -0.2708183825 -0.2486716807 2.119586541e-38
-0.3175255656 -0.2889775038 -0.1783245504 2.119586541e-38
-0.2655456066 -0.1930484474 -0.1374994963 2.119586541e-38
0.4067997932 -0.1222602725 -0.2113731503 2.119586541e-38
0.1346120834 -0.2985830009 -0.1260453612 2.119586541e-38
-0.3285273612 -0.194000423 -0.1555927992 2.119586541e-38
0.03662459925 -0.3218820393 -0.2391574085 2.119586541e-38
0.1577293873 -0.2107410878 -0.283585757 2.137881613e-38
-0.3121566772 -0.3071366549 -0.1079773679 2.137881613e-38
0.1333622783 -0.289404422 -0.1281167716 2.137881613e-38
-0.3168390393 -0.2904742658 -0.1669452339 2.137881613e-38
-0.2394760549 -0.2932234704 -0.1156471223 2.137881613e-38
-0.2525373697 -0.1937561035 -0.1270532757 2.137881613e-38
-0.1544736624 -0.2785212398 -0.1242499277 2.137881613e-38
0.1639022082 -0.1485696584 -0.1629200578 2.137881613e-38
0.1343357265 -0.2214978337 -0.2796482444 2.156176826e-38
0.1116285324 -0.2337513268 -0.26433146 2.156176826e-38
-0.2517977655 -0.2940125763 -0.1147140637 2.156176826e-38
0.133925572 -0.2970862389 -0.1374246478 2.156176826e-38
0.1934448332 -0.1991952211 -0.2884563506 2.156176826e-38
0.1105550304 -0.3171474636 -0.2447557747 2.156176826e-38
-0.02391060069 -0.2424314022 -0.2540678084 2.156176826e-38
0.0007328893989 -0.2408532202 -0.2559339404 2.156176826e-38
-0.2991484404 -0.307844311 -0.09753113985 2.174471899e-38
-0.01158887148 -0.2416423261 -0.2550008595 2.174471899e-38
-0.2648590803 -0.1945452094 -0.1261202097 2.174471899e-38
0.07221675664 -0.3165212274 -0.2647151649 2.174471899e-38
-0.3294603229 -0.2048737407 -0.2083464414 2.174471899e-38
-0.1527136117 -0.196621865 -0.1324463338 2.174471899e-38
-0.04924060404 -0.242512852 -0.2635809779 2.174471899e-38
-0.2634330094 -0.2962984443 -0.1024017185 2.174471899e-38
-0.3309565485 -0.2080652416 -0.2517922223 2.192767111e-38
0.08466176689 -0.3095470965 -0.2449610531 2.192767111e-38
-0.0485540852 -0.244009614 -0.2522017062 2.192767111e-38
-0.3114701807 -0.3086334169 -0.09659808874 2.192767111e-38
-0.2641195059 -0.2948016822 -0.1137810051 2.192767111e-38
-0.2771808207 -0.1953343153 -0.1251871586 2.192767111e-38
0.4191215038 -0.1214711815 -0.2123062015 2.192767111e-38
-0.1903653741 -0.1974924207 -0.1410264373 2.192767111e-38
-0.3287737966 -0.2063704729 -0.1969671696 2.211062324e-38
0.06290484965 -0.2445895374 -0.2699070871 2.211062324e-38
-0.06087581068 -0.2447987199 -0.2512686253 2.211062324e-38
0.04757330194 -0.3180994391 -0.2628490627 2.211062324e-38
-0.1310799718 -0.2677645087 -0.1281874478 2.211062324e-38
-0.1791171581 -0.2800994515 -0.1223838106 2.211062324e-38
-0.2895025909 -0.1961233914 -0.1242540926 2.211062324e-38
0.2814339101 -0.1024677008 -0.191915527 2.211062324e-38
0.148183614 -0.3069724441 -0.1249070168 2.229357396e-38
-0.3302700222 -0.2095620036 -0.2404129207 2.229357396e-38
-0.3148325682 -0.1962048411 -0.1337672621 2.229357396e-38
-0.1773571074 -0.1982000768 -0.1305802166 2.229357396e-38
0.1239502653 -0.2329622507 -0.2652645111 2.229357396e-38
0.3943547606 -0.1292344034 -0.231127277 2.229357396e-38
0.1755374223 -0.1462838054 -0.1752323955 2.229357396e-38
-0.3317663074 -0.2127535343 -0.2838586867 2.229357396e-38
0.1098685116 -0.3156507015 -0.2561350465 2.247652609e-38
-0.1907523721 -0.2823852897 -0.1100714654 2.247652609e-38
-0.2153958529 -0.2839635015 -0.1082053632 2.247652609e-38
-0.2150088251 -0.1990706027 -0.1391603202 2.247652609e-38
-0.3271543086 -0.196993947 -0.132834211 2.247652609e-38
-0.2273305804 -0.1998597085 -0.1382272691 2.247652609e-38
-0.1434016973 -0.2685535848 -0.1272543818 2.247652609e-38
-0.3234577477 -0.2631365955 -0.2393638045 2.247652609e-38
0.1232637465 -0.2314654887 -0.2766437829 2.265947681e-38
-0.07319757342 -0.245587796 -0.2503355742 2.265947681e-38
-0.3140929937 -0.296461314 -0.1214280874 2.265947681e-38
0.2821204066 -0.1039644554 -0.1805362403 2.265947681e-38
-0.3194618821 -0.2783021927 -0.1917752177 2.265947681e-38
0.03826139495 -0.2461677194 -0.2680409849 2.265947681e-38
0.100556612 -0.2437190115 -0.2613269985 2.265947681e-38
-0.2020005882 -0.1997782588 -0.1287140995 2.265947681e-38
0.1228767559 -0.3163583577 -0.2456888258 2.284242894e-38
-0.2887629867 -0.2963798642 -0.111914888 2.284242894e-38
0.01060808823 -0.320466727 -0.2600498796 2.284242894e-38
0.4314432442 -0.1206820831 -0.2132392526 2.284242894e-38
0.1314259619 -0.278729111 -0.1415674537 2.284242894e-38
0.20645307 -0.1999028921 -0.2780101299 2.284242894e-38
-0.251974076 -0.2014378905 -0.1363611519 2.284242894e-38
-0.1398285925 -0.203514576 -0.1426872611 2.284242894e-38
0.1823728383 -0.2091628909 -0.285451889 2.302537966e-38
0.2230113149 -0.1262670457 -0.1717281491 2.302537966e-38
0.02593966573 -0.2469568253 -0.2671079338 2.302537966e-38
0.3950412869 -0.1307311654 -0.2197479606 2.302537966e-38
0.1185409427 -0.2718364 -0.1313265264 2.302537966e-38
-0.2642957866 -0.2022269964 -0.1354281008 2.302537966e-38
-0.03730586171 -0.3266166449 -0.233559072 2.302537966e-38
0.03537479788 -0.3127034903 -0.2412288189 2.302537966e-38
-0.3227712214 -0.2646333575 -0.227984488 2.320833179e-38
0.1596657038 -0.221416384 -0.2701350749 2.320833179e-38
-0.276617527 -0.2030161023 -0.1344950348 2.320833179e-38
0.294442147 -0.103175357 -0.1814692914 2.320833179e-38
0.2580402493 -0.1132244468 -0.1879779994 2.320833179e-38
-0.0226607956 -0.2516099811 -0.251996398 2.320833179e-38
-0.328016907 -0.2402891815 -0.2776444852 2.320833179e-38
-0.2512875497 -0.2029346526 -0.1249818653 2.320833179e-38
-0.1514638066 -0.2058004439 -0.1303749382 2.339092378e-38
0.001296181232 -0.248535037 -0.2652418017 2.339092378e-38
0.05251944065 -0.2560539544 -0.2555233538 2.339092378e-38
-0.05100060999 -0.3244122267 -0.2553845942 2.339092378e-38
0.2346465588 -0.1239811927 -0.1840404868 2.339092378e-38
-0.3282105029 -0.2140522897 -0.2062750459 2.339092378e-38
-0.1803669631 -0.2709209025 -0.1244552135 2.339092378e-38
-0.1920021772 -0.2732067406 -0.1121428758 2.339092378e-38
-0.1891155839 -0.2066709697 -0.1389550418 2.348204041e-38
0.03468828648 -0.3112067282 -0.2526080906 2.348204041e-38
-0.001590443775 -0.3150708079 -0.2384296358 2.348204041e-38
0.1651520133 -0.1577482224 -0.1608486474 2.348204041e-38
-0.3297067583 -0.2172438204 -0.2497208118 2.348204041e-38
-0.06031252444 -0.2524805069 -0.2605765164 2.348204041e-38
0.1444341987 -0.2794367671 -0.1311212331 2.348204041e-38
0.1215037256 -0.3133648336 -0.2684473991 2.348204041e-38
-0.3135827482 -0.2053833902 -0.1316958666 2.348132155e-38
-0.05962600559 -0.2539772689 -0.2491972446 2.348132155e-38
0.1946946383 -0.208373785 -0.2863849401 2.348132155e-38
0.1351985037 -0.3155692816 -0.246621877 2.348132155e-38
0.02236652747 -0.3119958341 -0.2516750395 2.348132155e-38
-0.1926886886 -0.2717099786 -0.123522155 2.348132155e-38
-0.3275239766 -0.215549022 -0.1948957592 2.348132155e-38
0.2119393796 -0.1362347156 -0.1687236875 2.348132155e-38
-0.2137590349 -0.2082491815 -0.1370889246 2.348060128e-38
0.1437476873 -0.2779400051 -0.1425005049 2.348060128e-38
0.1573192924 -0.2863294482 -0.1413621753 2.348060128e-38
0.1719874293 -0.2206273079 -0.271068126 2.348060128e-38
-0.2289673984 -0.2755740285 -0.1093437076 2.348060128e-38
0.1216269583 -0.3071798086 -0.2477602065 2.348060128e-38
-0.1884290725 -0.2081677318 -0.1275757551 2.348060128e-38
-0.3259044886 -0.2061724961 -0.1307628006 2.348060128e-38
-0.326027751 -0.2123575211 -0.1514499933 2.347952368e-38
-0.3292666972 -0.2311106324 -0.2797158957 2.347952368e-38
-0.3240210116 -0.2554547787 -0.2300558984 2.347952368e-38
0.1245135516 -0.2406440377 -0.2745723724 2.347952368e-38
0.1301761568 -0.2695505321 -0.1436388642 2.347952368e-38
-0.01459868625 -0.314363122 -0.2488758564 2.347952368e-38
-0.1323297769 -0.2585859299 -0.1302588582 2.347952368e-38
0.03951119632 -0.2553462982 -0.2659695745 2.347952368e-38
-0.2050104141 -0.2724990845 -0.1225891039 2.347880341e-38
0.2710484564 -0.1139321104 -0.1775317788 2.347880341e-38
-0.143964991 -0.2608717978 -0.117946513 2.347880341e-38
-0.2384025306 -0.2098273635 -0.1352228075 2.347880341e-38
0.1740769297 -0.3145728111 -0.1247017384 2.347880341e-38
-0.2173321694 -0.2732881904 -0.1216560379 2.347880341e-38
-0.02692041174 -0.3151522279 -0.2479428053 2.347880341e-38
-0.3268374503 -0.2170458138 -0.1835164577 2.347880341e-38
0.05876845121 -0.3019467294 -0.2451663315 2.347808455e-38
0.1345119774 -0.3140725195 -0.2580011487 2.347808455e-38
-0.03855565935 -0.3174380958 -0.2356304675 2.347808455e-38
-0.1562867463 -0.2616608739 -0.1170134544 2.347808455e-38
-0.2130725235 -0.2097459435 -0.125709638 2.347808455e-38
0.1767872274 -0.1554623693 -0.1731609851 2.347808455e-38
-0.3128962517 -0.2068801522 -0.1203165799 2.347808455e-38
-0.2630459964 -0.2114055753 -0.1333566904 2.347808455e-38
-0.05087738484 -0.3182272017 -0.2346974015 2.347700555e-38
0.2235746086 -0.1339488626 -0.1810360253 2.347700555e-38
-0.1686084867 -0.2624499798 -0.1160803959 2.347700555e-38
-0.2542973757 -0.2756554782 -0.1188568696 2.347700555e-38
-0.2253942788 -0.2105350196 -0.1247765794 2.347700555e-38
0.1609155089 -0.230594933 -0.2680636942 2.347700555e-38
0.1721406132 -0.3038975 -0.1381524205 2.347700555e-38
0.2070163637 -0.207584694 -0.2873179913 2.347700555e-38
-0.3261509538 -0.218542546 -0.172137171 2.347628668e-38
0.1602289975 -0.229098171 -0.279442966 2.347628668e-38
-0.2377160192 -0.2113241255 -0.1238435209 2.347628668e-38
0.2008674592 -0.1462023556 -0.165719226 2.347628668e-38
0.2833701968 -0.1131430045 -0.1784648448 2.347628668e-38
0.1475202739 -0.3147801757 -0.2475549281 2.347628668e-38
0.06609097123 -0.2644434273 -0.2543849945 2.347628668e-38
-0.2666191161 -0.2764445841 -0.1179238111 2.347628668e-38
0.1567559987 -0.2786476612 -0.1320542991 2.347520768e-38
0.2077028751 -0.2090814561 -0.2759387195 2.347520768e-38
-0.2876894772 -0.2129837573 -0.1314905733 2.347520768e-38
-0.3259573579 -0.2447794676 -0.2435066104 2.347520768e-38
-0.02209750563 -0.2592917681 -0.2613042891 2.347520768e-38
0.2242611051 -0.1354456246 -0.1696567386 2.347520768e-38
-0.3276472092 -0.2217341065 -0.2155829519 2.347520768e-38
-0.1502140015 -0.2149789929 -0.1283035278 2.347520768e-38
0.1339486837 -0.3063907325 -0.2486932874 2.347448882e-38
-0.03441923112 -0.260080874 -0.260371238 2.347448882e-38
-0.1816167533 -0.2617423236 -0.1265266091 2.347448882e-38
0.07841275632 -0.2636543214 -0.2553180754 2.347448882e-38
-0.2178954482 -0.2656063735 -0.1123481691 2.347448882e-38
-0.2789408565 -0.2772336602 -0.1169907525 2.347448882e-38
0.0704036653 -0.2996608913 -0.2574786842 2.347448882e-38
-0.27825436 -0.2787304223 -0.1056114733 2.347448882e-38
-0.3000112176 -0.2137728631 -0.1305575073 2.347340982e-38
0.03412499651 -0.3035249412 -0.2433002293 2.347340982e-38
-0.04674099386 -0.2608699799 -0.2594381571 2.347340982e-38
0.1424978822 -0.268761456 -0.1445719153 2.347340982e-38
-0.1625357717 -0.2157680988 -0.1273704618 2.347340982e-38
-0.3219614923 -0.2599450648 -0.1959180385 2.347340982e-38
0.4326930344 -0.1298606396 -0.2111678571 2.347340982e-38
-0.2912625968 -0.2780227661 -0.116057694 2.347340982e-38
-0.1939384788 -0.2625314295 -0.125593558 2.347269095e-38
0.1891089529 -0.1546732783 -0.1740940362 2.347269095e-38
0.2125026733 -0.1439165026 -0.1780315638 2.347269095e-38
0.165715307 -0.1654300094 -0.1701565236 2.347269095e-38
0.1332621723 -0.3048939705 -0.2600725591 2.347269095e-38
0.0827254504 -0.2988717854 -0.2584117353 2.347269095e-38
0.04144751281 -0.2660216093 -0.2525188923 2.347269095e-38
-0.2062602043 -0.2633205056 -0.1246605068 2.347269095e-38
0.126449883 -0.2513193488 -0.2611216903 2.347161195e-38
-0.2125092298 -0.2174277306 -0.1350175142 2.347161195e-38
-0.2870029807 -0.2144805193 -0.1201112866 2.347161195e-38
0.172550723 -0.2283090949 -0.2803760171 2.347161195e-38
-0.3205884397 -0.2629385889 -0.1731594503 2.347161195e-38
0.009481510147 -0.3051031232 -0.2414340973 2.347161195e-38
-0.1871792674 -0.2173462808 -0.1255043447 2.347161195e-38
-0.3199019432 -0.2644353509 -0.1617801636 2.347161195e-38
0.0457602106 -0.3012390733 -0.2556125522 2.347089308e-38
-0.0583762005 -0.263155818 -0.2471258342 2.347089308e-38
-0.2425389439 -0.2671845555 -0.110482052 2.347089308e-38
-0.1995009929 -0.2181353867 -0.1245712936 2.347089308e-38
0.2131891847 -0.1454132646 -0.166652292 2.347089308e-38
0.02912578546 -0.2668107152 -0.2515858412 2.347089308e-38
0.1683912128 -0.2763618231 -0.1443666369 2.347089308e-38
-0.1373289973 -0.2218717039 -0.1385444552 2.347089308e-38
-0.2432254553 -0.2656877935 -0.1218613312 2.346981408e-38
0.1690777242 -0.2778585851 -0.1329873502 2.346981408e-38
0.03343848139 -0.3020281792 -0.2546795011 2.346981408e-38
-0.2548606694 -0.2679736614 -0.109548986 2.346981408e-38
0.1462704837 -0.3056016266 -0.2496263385 2.346981408e-38
0.0168040283 -0.2675998211 -0.2506527603 2.346981408e-38
-0.3116464615 -0.2160587311 -0.1182451695 2.346981408e-38
-0.1496507227 -0.2226608098 -0.1376114041 2.346981408e-38
0.008794996887 -0.3036063612 -0.2528133988 2.346909522e-38
0.0284392722 -0.2653139532 -0.2629651129 2.346909522e-38
-0.2241444737 -0.2197135985 -0.1227051765 2.346909522e-38
0.004482300952 -0.2683888972 -0.2497197092 2.346909522e-38
-0.01584849134 -0.3051845729 -0.2509472668 2.346909522e-38
0.1621652991 -0.2397735119 -0.2659922838 2.346909522e-38
-0.007839459926 -0.2691780031 -0.248786658 2.346909522e-38
-0.02817021683 -0.305973649 -0.2500142157 2.346909522e-38
-0.3178423941 -0.268925637 -0.1276422888 2.346801622e-38
0.1614787877 -0.2382767498 -0.2773715556 2.346801622e-38
0.2014307529 -0.1538841724 -0.1750271022 2.346801622e-38
0.1780370325 -0.1646409333 -0.1710895747 2.346801622e-38
0.1380851418 -0.2490335107 -0.2734340429 2.346801622e-38
0.1455839574 -0.3041048646 -0.2610056102 2.346801622e-38
-0.04049198329 -0.3067627549 -0.2490811646 2.346801622e-38
-0.3249011636 -0.2277211249 -0.1700657606 2.346801622e-38
-0.05212718993 -0.3090486228 -0.2367688119 2.346693862e-38
0.248904556 -0.1338674128 -0.1715228558 2.346693862e-38
0.4325698316 -0.1360456645 -0.2318550497 2.346693862e-38
-0.2679468989 -0.3412892222 -0.1052451283 2.346693862e-38
0.1967840642 -0.3023192883 -0.1400185376 2.346693862e-38
0.003795787692 -0.2668921351 -0.2610990107 2.346693862e-38
0.06859057397 -0.2828005254 -0.2502422035 2.346693862e-38
0.1073689088 -0.2972935736 -0.2602778375 2.346693862e-38
-0.03248291463 -0.2707562149 -0.2469205558 2.346621835e-38
-0.008525971323 -0.267681241 -0.2601659298 2.346621835e-38
0.07966256142 -0.2728328705 -0.253246665 2.346621835e-38
-0.02084770054 -0.2684703469 -0.2592328787 2.346621835e-38
0.195534274 -0.2931407392 -0.1420899332 2.346621835e-38
-0.3258341253 -0.2385944426 -0.2228194326 2.346621835e-38
0.1962207854 -0.2946375012 -0.1307106614 2.346621835e-38
0.1807129383 -0.2755727172 -0.145299688 2.346621835e-38
0.2021172643 -0.1553809345 -0.1636478156 2.346514075e-38
0.1146914214 -0.2597902715 -0.2694965303 2.346514075e-38
-0.06513547152 -0.3083409667 -0.2472150326 2.346514075e-38
-0.3263973892 -0.2309126556 -0.2135115415 2.346514075e-38
0.3968543708 -0.1475915313 -0.2269844562 2.346514075e-38
-0.1612859666 -0.2249466777 -0.1252990663 2.346514075e-38
0.2089526802 -0.2182599902 -0.2738673091 2.346514075e-38
-0.2987613976 -0.2229514122 -0.1284861118 2.346514075e-38
0.2605398595 -0.1315815598 -0.1838351935 2.346406175e-38
0.1813994497 -0.2770694792 -0.1339204013 2.346406175e-38
0.08091236651 -0.2820114195 -0.2511752546 2.346406175e-38
0.06665426493 -0.2721252143 -0.2636928856 2.346406175e-38
-0.2734314203 -0.2228699625 -0.1189729497 2.346406175e-38
-0.322524786 -0.2522632778 -0.1866101474 2.346406175e-38
0.1585921943 -0.3048125207 -0.2505593896 2.346406175e-38
0.1721637249 -0.3132019639 -0.2494210601 2.346406175e-38
-0.1989376992 -0.2258172035 -0.1338791698 2.346334289e-38
-0.3257108927 -0.2324094176 -0.2021322399 2.346334289e-38
-0.1459013075 -0.2501964867 -0.1313972026 2.346334289e-38
0.1504068673 -0.2482444048 -0.274367094 2.346334289e-38
-0.1575365514 -0.2524823248 -0.11908485 2.346334289e-38
0.1671414077 -0.2671832442 -0.1464380324 2.346334289e-38
0.2371461689 -0.1423383057 -0.1798976809 2.346334289e-38
-0.2857531607 -0.2236590683 -0.1180398911 2.346334289e-38
0.3975408971 -0.1490882933 -0.2156051546 2.346226389e-38
0.190358758 -0.1638518274 -0.1720226407 2.346226389e-38
-0.1360791922 -0.2310502529 -0.1364730597 2.346226389e-38
0.1270131469 -0.2590011656 -0.2704295814 2.346226389e-38
-0.006589658558 -0.2783565521 -0.2467152476 2.346226389e-38
-0.01891138777 -0.279145658 -0.2457821965 2.346226389e-38
-0.1982511878 -0.2273139656 -0.1224998906 2.346226389e-38
-0.3250243664 -0.2339061499 -0.1907529533 2.346226389e-38
0.02968907356 -0.2744925022 -0.2608937025 2.346118629e-38
0.03287519515 -0.2943463922 -0.2453716248 2.346118629e-38
-0.182180047 -0.2540605366 -0.1172187328 2.346118629e-38
0.209792316 -0.3030269742 -0.129572317 2.346118629e-38
0.1326988935 -0.2972121537 -0.2507646978 2.346118629e-38
-0.07013468444 -0.2716267407 -0.2555006444 2.346118629e-38
0.1676516235 -0.1761053205 -0.1567058414 2.346118629e-38
0.2066061944 -0.2831730843 -0.1450943947 2.346118629e-38
0.2085425109 -0.2938484251 -0.1316437125 2.346010729e-38
0.2144389749 -0.1545918286 -0.1645808816 2.346010729e-38
-0.206823498 -0.2556387186 -0.1153526232 2.346010729e-38
0.0814756453 -0.2896932364 -0.2604831457 2.346010729e-38
-0.3103966415 -0.2252372801 -0.116173774 2.346010729e-38
-0.1828665584 -0.2525637746 -0.1285980195 2.346010729e-38
0.02055343613 -0.2951354682 -0.2444385588 2.346010729e-38
0.3982273936 -0.1505850554 -0.204225868 2.346010729e-38
-0.1477143914 -0.2333361208 -0.1241607219 2.345938842e-38
-0.3243378401 -0.2354029417 -0.1793736517 2.345938842e-38
-0.007276169956 -0.2768597901 -0.2580945492 2.345938842e-38
-0.2228946686 -0.2288921475 -0.1206337735 2.345938842e-38
0.2735480666 -0.1322892308 -0.1733889729 2.345938842e-38
0.006981903687 -0.2867459953 -0.2455769181 2.345938842e-38
-0.1951882839 -0.2533528507 -0.1276649535 2.345938842e-38
-0.2605463862 -0.2297626734 -0.1292138845 2.345938842e-38
-0.005339857191 -0.2875351012 -0.244643867 2.345830942e-38
0.1634151042 -0.2489520609 -0.2639208734 2.345830942e-38
-0.235216409 -0.2296812534 -0.1197007149 2.345830942e-38
0.1794631332 -0.2663941383 -0.1473710984 2.345830942e-38
-0.2075100094 -0.2541419566 -0.1267319024 2.345830942e-38
0.1320123672 -0.2957153916 -0.2621439695 2.345830942e-38
-0.2728681266 -0.2305517793 -0.1282808185 2.345830942e-38
0.1709139198 -0.3040234149 -0.2514924407 2.345830942e-38
0.09379737824 -0.2889041305 -0.2614161968 2.345723183e-38
-0.1600361615 -0.2341252267 -0.1232276633 2.345723183e-38
0.1861222386 -0.2366985679 -0.2792376578 2.345723183e-38
-0.04424139112 -0.279227078 -0.255295366 2.345723183e-38
0.250154376 -0.1430459768 -0.1694514602 2.345723183e-38
-0.2598598897 -0.2312594354 -0.1178345978 2.345723183e-38
0.18680875 -0.2381953299 -0.267858386 2.345723183e-38
0.179973349 -0.1753162444 -0.1576389074 2.345723183e-38
0.1159412265 -0.2689688206 -0.2674251199 2.345615283e-38
0.2053563893 -0.2739945352 -0.1471658051 2.345615283e-38
-0.1348293871 -0.240228802 -0.1344016641 2.345615283e-38
0.006295390427 -0.2852492332 -0.2569561899 2.345615283e-38
-0.1464645863 -0.2425146699 -0.1220893189 2.345615283e-38
0.2102024853 -0.2274385393 -0.2717959285 2.345615283e-38
-0.2934531868 -0.2487959862 -0.1364054084 2.345615283e-38
0.183798939 -0.3109161258 -0.2617333829 2.345615283e-38
-0.004776563495 -0.295216918 -0.2539517283 2.345507523e-38
0.1831124276 -0.3094193637 -0.2731127143 2.345507523e-38
-0.3098333478 -0.2329190671 -0.1254816502 2.345507523e-38
0.2060429007 -0.2754912972 -0.1357865185 2.345507523e-38
-0.1846796572 -0.2357034087 -0.1213615462 2.345507523e-38
0.1523431838 -0.2589197457 -0.2609164119 2.345507523e-38
0.2196145058 -0.2838807404 -0.134648174 2.345507523e-38
0.1178775504 -0.2796441317 -0.2539744377 2.345507523e-38
-0.3184056878 -0.26124385 -0.1183343828 2.345399623e-38
0.4345061481 -0.1467209905 -0.2184043378 2.345399623e-38
0.1917848587 -0.2656050622 -0.1483041495 2.345399623e-38
-0.2814404666 -0.2588765621 -0.1211335585 2.345399623e-38
0.1916085631 -0.1730303764 -0.1699512303 2.345399623e-38
-0.3217150271 -0.247574985 -0.1545436829 2.345399623e-38
0.1757368296 -0.248162955 -0.2648539245 2.345399623e-38
0.1924713701 -0.2671018243 -0.1369248629 2.345399623e-38
-0.04174178094 -0.2975842059 -0.2511525452 2.345291723e-38
-0.2093231082 -0.2372815907 -0.1194954365 2.345291723e-38
-0.2930757105 -0.2611624002 -0.1088212132 2.345291723e-38
-0.04299158603 -0.288405627 -0.2532239556 2.345291723e-38
-0.3177191913 -0.262740612 -0.1069550961 2.345291723e-38
0.3987907171 -0.1582668424 -0.2135337591 2.345291723e-38
-0.2346531153 -0.2373630404 -0.1290085912 2.345291723e-38
-0.3214685917 -0.2352049351 -0.1131693125 2.345291723e-38
0.4104259908 -0.1559809744 -0.2258461267 2.345219836e-38
-0.2815184295 -0.3328997493 -0.1063834727 2.345219836e-38
-0.292080164 -0.2517895103 -0.1136468202 2.345219836e-38
-0.2216448635 -0.2380706966 -0.1185623705 2.345219836e-38
0.4351926446 -0.1482177526 -0.2070250511 2.345219836e-38
-0.1717946082 -0.2425960898 -0.131602481 2.345219836e-38
0.1184408292 -0.2873259485 -0.263282299 2.345219836e-38
-0.05531331152 -0.2891947329 -0.2522909045 2.345219836e-38
0.1788998395 -0.2587123513 -0.1380632073 2.345111936e-38
0.1405847371 -0.2673906088 -0.2692912221 2.345111936e-38
-0.06694855541 -0.2914806008 -0.2399785519 2.345111936e-38
0.1825491339 -0.3017375767 -0.2638047934 2.345111936e-38
-0.1841163635 -0.2433851957 -0.1306694299 2.345111936e-38
0.1968071759 -0.3116237819 -0.2512871623 2.345111936e-38
0.2183646858 -0.2747021914 -0.1367195845 2.345111936e-38
0.2331860363 -0.2922702134 -0.1335098296 2.345111936e-38
0.2864331305 -0.1391819119 -0.1836299151 2.345004176e-38
0.1573424041 -0.2956339419 -0.2526308 2.345004176e-38
-0.196438089 -0.2441743016 -0.1297363639 2.345004176e-38
-0.06763507426 -0.2899838388 -0.2513578534 2.345004176e-38
0.1873720437 -0.2458771169 -0.2771662772 2.345004176e-38
0.2319362164 -0.2830916345 -0.1355812401 2.345004176e-38
-0.2962617874 -0.2413085401 -0.1243433058 2.345004176e-38
-0.3209052682 -0.2428867221 -0.1224771887 2.345004176e-38
0.2047930956 -0.2663127184 -0.1378579289 2.344896276e-38
-0.2586100698 -0.2404379845 -0.1157632023 2.344896276e-38
-0.2203950584 -0.2472492456 -0.116490975 2.344896276e-38
-0.2210815698 -0.2457524836 -0.1278702468 2.344896276e-38
0.1295127571 -0.2773582637 -0.2662867606 2.344896276e-38
0.287119627 -0.140678674 -0.1722506285 2.344896276e-38
0.2046168745 -0.1737380326 -0.1595050246 2.344896276e-38
-0.3073337376 -0.2512761652 -0.1213388443 2.344896276e-38
0.2987548709 -0.138392821 -0.1845629662 2.344788516e-38
0.191221565 -0.2579232752 -0.1389962733 2.344788516e-38
0.1535929888 -0.2680982947 -0.2588450015 2.344788516e-38
-0.2573602796 -0.2496165335 -0.1136917919 2.344788516e-38
-0.2696820199 -0.2504056394 -0.1127587408 2.344788516e-38
0.2299999297 -0.2724163234 -0.1490319222 2.344788516e-38
-0.3078970611 -0.2435943782 -0.1120309681 2.344788516e-38
0.2162520736 -0.1714521646 -0.1718173623 2.344788516e-38
-0.2943255007 -0.2519838512 -0.1108926237 2.344680616e-38
0.176963523 -0.2480370402 -0.1515138894 2.344680616e-38
0.2164283842 -0.2640268505 -0.1501702666 2.344680616e-38
0.2637259662 -0.1514354348 -0.1683131158 2.344680616e-38
0.2455077469 -0.2914811075 -0.1344428957 2.344680616e-38
0.1418345571 -0.2765691578 -0.2672198415 2.344680616e-38
0.2435714602 -0.2808057666 -0.1478935778 2.344680616e-38
0.2306864262 -0.2739130855 -0.1376526356 2.344680616e-38
0.2003803551 -0.2465847731 -0.2667200565 2.344572857e-38
0.1696641296 -0.2948448658 -0.2535638511 2.344572857e-38
0.2753611803 -0.1491495818 -0.1806254536 2.344572857e-38
0.1694647074 -0.1929656863 -0.1639423221 2.344572857e-38
0.2084424645 -0.309337914 -0.263599515 2.344572857e-38
0.1430843472 -0.2857477367 -0.2651484311 2.344572857e-38
0.2035432905 -0.2571341693 -0.1399293244 2.344572857e-38
0.1659147143 -0.2673091888 -0.2597780824 2.344572857e-38
0.2876829207 -0.1483604908 -0.1815585047 2.344464957e-38
0.1886218488 -0.255055666 -0.2750948668 2.344464957e-38
0.1893083602 -0.256552428 -0.263715595 2.344464957e-38
0.4007270038 -0.1689421684 -0.2000830621 2.344464957e-38
0.1899717599 -0.2487447262 -0.1410676688 2.344464957e-38
0.2127020806 -0.2457956672 -0.2676531076 2.344464957e-38
0.1824729443 -0.1936733425 -0.1534960866 2.344464957e-38
0.215178594 -0.2548483014 -0.152241677 2.344464957e-38
0.4603994191 -0.1543213427 -0.2181990445 2.344357197e-38
0.2214507014 -0.3100455701 -0.2531532943 2.344357197e-38
-0.2779453099 -0.2678607702 -0.121816352 2.344357197e-38
-0.2656235695 -0.2670716643 -0.1227494031 2.344357197e-38
0.2565796971 -0.2815134525 -0.1374473572 2.344357197e-38
0.2071926594 -0.3001593649 -0.2656709254 2.344357197e-38
-0.2409800887 -0.2654934525 -0.1246155202 2.344357197e-38
0.436319232 -0.1635813415 -0.2256408334 2.344357197e-38
0.1941081583 -0.1913875043 -0.1658084244 2.344249297e-38
0.201606974 -0.2464588583 -0.1533800066 2.344249297e-38
-0.3272322714 -0.271017164 -0.1180841178 2.344249297e-38
0.166478008 -0.2749909759 -0.2690859437 2.344249297e-38
0.1707145125 -0.2021442652 -0.1618709117 2.344249297e-38
0.1812993437 -0.2925589979 -0.2658762038 2.344249297e-38
0.4610859156 -0.1558181047 -0.2068197578 2.344249297e-38
0.2649757564 -0.1606139839 -0.1662417054 2.344249297e-38
0.2546433806 -0.2708381414 -0.1508980393 2.344141397e-38
0.1947946697 -0.1928842664 -0.1544291526 2.344141397e-38
0.1714010239 -0.2036410272 -0.1504916251 2.344141397e-38
0.4253705144 -0.1673639715 -0.2019491792 2.344141397e-38
0.4370057583 -0.1650781035 -0.2142615169 2.344141397e-38
0.2415820658 -0.1713707447 -0.1623041928 2.344141397e-38
-0.2333580554 -0.3143797815 -0.09149992466 2.344141397e-38
0.2553298771 -0.2723349035 -0.1395187527 2.344141397e-38
-0.2580015361 -0.3159579635 -0.08963380754 2.344033637e-38
0.2689014077 -0.2807243466 -0.1383804083 2.344033637e-38
0.2132653743 -0.253477484 -0.2769609988 2.344033637e-38
0.1677278131 -0.2841695547 -0.2670145333 2.344033637e-38
0.2064299583 -0.1905983984 -0.1667414904 2.344033637e-38
0.2889327109 -0.1575390399 -0.1794871092 2.344033637e-38
0.1757137328 -0.2388584912 -0.1535852998 2.344033637e-38
-0.26963678 -0.3182438314 -0.07732146978 2.344033637e-38
0.2532172799 -0.1690848768 -0.1746165305 2.343925737e-38
0.183036238 -0.2013551593 -0.1628039628 2.343925737e-38
-0.2703232765 -0.3167470694 -0.08870074153 2.343925737e-38
0.2202008963 -0.3008670211 -0.2552246749 2.343925737e-38
0.2139518857 -0.254974246 -0.2655816972 2.343925737e-38
0.213928774 -0.2456697524 -0.1543130726 2.343925737e-38
0.4376922548 -0.1665748656 -0.2028822452 2.343925737e-38
0.2195143849 -0.299370259 -0.2666039765 2.343925737e-38
0.1764002442 -0.2403552532 -0.1422060132 2.343817977e-38
0.228186816 -0.2555559576 -0.1417954415 2.343817977e-38
0.1905581653 -0.2657309771 -0.2616441846 2.343817977e-38
-0.2766955197 -0.2770393193 -0.1197449416 2.343817977e-38
0.1943075806 -0.293266654 -0.2554299831 2.343817977e-38
-0.2826450169 -0.3175361753 -0.08776769042 2.343817977e-38
0.1837227494 -0.2028519213 -0.1514246911 2.343817977e-38
0.2071164697 -0.1920951605 -0.1553622186 2.343817977e-38
0.2305101156 -0.1813383996 -0.1592997313 2.343710077e-38
0.2539037764 -0.1705816388 -0.1632372439 2.343710077e-38
0.3012544513 -0.156749934 -0.1804201603 2.343710077e-38
-0.3086615205 -0.3161208332 -0.1086601615 2.343710077e-38
0.18073605 -0.2848772109 -0.2565683126 2.343710077e-38
0.1719643176 -0.2113228142 -0.1597995162 2.343710077e-38
0.2812232077 -0.2799352407 -0.1393134743 2.343710077e-38
0.2187516838 -0.1898092926 -0.1676745564 2.343710077e-38
0.1880354583 -0.2380693853 -0.154518351 2.343566444e-38
0.2655390799 -0.1682957709 -0.1755495965 2.343566444e-38
0.414298594 -0.1773316264 -0.1989447325 2.343566444e-38
0.2398220599 -0.2532701194 -0.1541077793 2.343566444e-38
0.172650829 -0.2128195763 -0.1484202296 2.343566444e-38
-0.294280231 -0.3198220432 -0.07545535266 2.343566444e-38
0.1960444748 -0.2020628154 -0.1523577422 2.343566444e-38
0.2262505293 -0.2448806465 -0.1552461237 2.343566444e-38
0.2662255764 -0.1697925329 -0.1641703099 2.343458544e-38
-0.3202967346 -0.3184067011 -0.09634782374 2.343458544e-38
0.242831856 -0.1805493236 -0.1602327824 2.343458544e-38
0.2778607905 -0.1675066948 -0.1764826477 2.343458544e-38
0.4266203046 -0.1765425205 -0.1998777837 2.343458544e-38
0.5343298912 -0.1495867521 -0.2237973958 2.343458544e-38
0.2799733877 -0.2707566917 -0.1413848698 2.343458544e-38
0.2003571838 -0.2372802794 -0.155451417 2.343458544e-38
-0.3196102083 -0.3199034631 -0.08496850729 2.343350644e-38
0.265715301 -0.2608704567 -0.1539025009 2.343350644e-38
0.2544670701 -0.1782634556 -0.1725451201 2.343350644e-38
0.278547287 -0.1690034568 -0.165103361 2.343350644e-38
0.2059428692 -0.2909807861 -0.267742306 2.343350644e-38
0.1732141227 -0.2205013633 -0.1577281058 2.343350644e-38
0.2916086018 -0.2684708238 -0.1536972076 2.343350644e-38
0.2521438003 -0.2524810135 -0.1550408453 2.343350644e-38
0.1923712641 -0.2825913429 -0.2688806653 2.343242884e-38
0.438942045 -0.1757534146 -0.2008108348 2.343242884e-38
0.2083662748 -0.2012737095 -0.1532908082 2.343242884e-38
0.5350164175 -0.1510835141 -0.2124181092 2.343242884e-38
0.2908690274 -0.1682143509 -0.166036427 2.343242884e-38
0.2385722399 -0.2440915704 -0.1561791897 2.343242884e-38
0.3025042713 -0.165928483 -0.1783487648 2.343242884e-38
0.2528302968 -0.2539777756 -0.1436615586 2.343242884e-38
-0.2729461193 -0.3045749962 -0.1135307401 2.343134984e-38
0.2922950983 -0.2699675858 -0.1423179209 2.343134984e-38
-0.2741959095 -0.2953964174 -0.1156021357 2.343134984e-38
0.1751504391 -0.2311766744 -0.1442774236 2.343134984e-38
0.2126789838 -0.2364911735 -0.156384483 2.343134984e-38
0.1855358481 -0.2197122574 -0.1586611569 2.343134984e-38
0.415548414 -0.1865101755 -0.1968733221 2.343134984e-38
0.2046930641 -0.281802237 -0.2698137164 2.343134984e-38
0.2674753666 -0.1789711118 -0.1620988995 2.343027224e-38
0.2206880152 -0.2004846334 -0.1542238593 2.343027224e-38
0.2053795755 -0.2832989991 -0.2584344447 2.343027224e-38
0.2089295685 -0.2089554965 -0.1625986844 2.343027224e-38
0.2651520073 -0.2531886697 -0.1445946097 2.343027224e-38
0.2903588116 -0.2592922747 -0.155768618 2.343027224e-38
0.1978575736 -0.2189231515 -0.1595942229 2.343027224e-38
0.2250007093 -0.2357020974 -0.1573175341 2.343027224e-38
0.2797970772 -0.1781820059 -0.1630319655 2.342919324e-38
0.2914323211 -0.1758961678 -0.1753443033 2.342919324e-38
0.2515804768 -0.2447992265 -0.145732969 2.342919324e-38
0.198544085 -0.2204199135 -0.1482149363 2.342919324e-38
0.2910453081 -0.2607890368 -0.1443893313 2.342919324e-38
0.2330097258 -0.1996955276 -0.1551569253 2.342919324e-38
0.217701301 -0.282509923 -0.2593674958 2.342919324e-38
0.302680552 -0.2585031688 -0.1567016691 2.342919324e-38
0.2632156909 -0.2425133586 -0.1580452919 2.342811565e-38
0.2373224497 -0.2349129915 -0.1582505852 2.342811565e-38
0.3033670485 -0.2599999309 -0.1453223825 2.342811565e-38
0.4400686324 -0.1911170185 -0.219426617 2.342811565e-38
0.210865885 -0.2196308076 -0.1491480023 2.342811565e-38
0.2453314662 -0.1989064217 -0.1560899764 2.342811565e-38
0.2897955179 -0.2516104877 -0.1464607418 2.342811565e-38
0.3156887889 -0.259210825 -0.1462554485 2.342811565e-38
0.234259516 -0.2088740766 -0.1530855149 2.342703665e-38
0.3050038815 -0.1842856109 -0.1742059588 2.342703665e-38
0.2933686376 -0.1865714788 -0.1618936211 2.342703665e-38
0.2348228395 -0.2165558636 -0.1623933911 2.342703665e-38
0.2619659007 -0.2333347797 -0.1601167023 2.342703665e-38
0.2360726297 -0.2257344425 -0.1603219956 2.342703665e-38
0.2699749768 -0.1973282397 -0.1579560935 2.342703665e-38
0.3144389987 -0.2500322759 -0.148326844 2.342703665e-38
0.4180480242 -0.2048672736 -0.1927305162 2.342559891e-38
0.3521796465 -0.27235502 -0.1840116233 2.342559891e-38
