# .PCD v0.7 - Point Cloud Data file format
VERSION 0.7
FIELDS x y z rgb
SIZE 4 4 4 4
TYPE F F F F
COUNT 1 1 1 1
WIDTH 838
HEIGHT 1
VIEWPOINT 0 0 0 1 0 0 0
POINTS 838
DATA ascii
-0.06184884161 -0.2433696687 0.1862143278 7.434656265e-39
-0.1001907289 -0.3052773178 0.1967893541 7.434656265e-39
-0.02188305743 -0.03340611979 0.24129951 7.434656265e-39
-0.046351403 -0.01974935457 0.2040230781 7.434656265e-39
-0.4319949746 -0.4902302027 -0.3588974178 7.434656265e-39
-0.1930654794 -0.05441392958 -0.1701838672 7.434656265e-39
-0.2052702159 -0.02958016843 -0.1573023349 7.434656265e-39
0.03098729625 -0.4532144368 0.3935064673 7.434656265e-39
-0.08893272281 0.04463109374 -0.2756226063 7.618684588e-39
-0.1566588283 -0.1056214198 -0.1336470246 7.618684588e-39
-0.02131376788 0.05186744034 0.3303700387 7.618684588e-39
-0.03623335436 -0.1939765811 0.1876472086 7.618684588e-39
0.1198320314 0.03236273676 0.1369507164 7.618684588e-39
-0.01256437041 -0.245784238 0.2613494992 7.618684588e-39
-0.1932506114 -0.05494896695 -0.1453175247 7.618684588e-39
-0.180860728 -0.07924769819 -0.1830653697 7.618684588e-39
-0.1502857655 -0.3290992379 0.1832376122 7.802712912e-39
-0.02189429477 -0.02149168029 0.2664570212 7.802712912e-39
0.2201108783 -0.354246676 0.2859482467 7.802712912e-39
0.2085428536 -0.3156258762 0.2369551063 7.802712912e-39
-0.04652529582 -0.03219882771 0.2037318796 7.802712912e-39
-0.02181296609 -0.009309757501 0.2791813612 7.802712912e-39
0.1083414853 -0.3513553143 0.2350091338 7.802712912e-39
0.1695792526 0.03128574789 0.1499200612 7.802712912e-39
-0.5348217487 -0.4977068603 0.06275784224 7.986382503e-39
-0.02173163928 0.002872167155 0.2919057012 7.986382503e-39
0.1318253577 -0.4036979675 0.3335778117 7.986382503e-39
0.1182770878 -0.4305346608 0.4323266447 7.986382503e-39
-0.1518804878 0.04377030581 -0.1892606765 7.986382503e-39
-0.193239361 -0.06686337292 -0.1704750657 7.986382503e-39
0.1321994215 0.031892851 0.1495179236 7.986382503e-39
0.1960829049 -0.3154234886 0.2368210852 7.986382503e-39
0.07061386108 -0.3756470978 0.2340246141 8.170410826e-39
-0.5200477839 -0.4912212491 -0.247937277 8.170410826e-39
-0.1391428113 0.04437048733 -0.2264261097 8.170410826e-39
-0.0232517086 -0.1568305939 0.1886548549 8.170410826e-39
0.05797995999 -0.3878941834 0.2335993648 8.170410826e-39
0.03279741108 0.03431434929 0.1111460179 8.170410826e-39
0.1820129454 -0.3796085417 0.3346963823 8.170410826e-39
-0.1013926715 0.04483345896 -0.2757566571 8.170410826e-39
-0.01239048131 -0.2333347648 0.2616406977 8.35443915e-39
-0.02221960202 -0.0702194348 0.2155595422 8.35443915e-39
0.008062641136 0.03525412083 0.08601160347 8.35443915e-39
0.2203773409 -0.3415296972 0.2738063037 8.35443915e-39
-0.01667215489 0.03619389981 0.06087714061 8.35443915e-39
-0.1797453612 -0.3905156553 -0.4125149846 8.35443915e-39
0.0824521333 0.03296984732 0.1365485787 8.35443915e-39
-0.02903956734 0.03666378558 0.04830994084 8.35443915e-39
-0.1399758756 0.04196283221 -0.1145276427 8.538467473e-39
-0.02148765884 0.039417997 0.3300788403 8.538467473e-39
0.2087167501 -0.3031764328 0.2372463048 8.538467473e-39
0.1944066435 0.03061348945 0.1626213193 8.538467473e-39
-0.01053654402 -0.1324015558 0.2018044442 8.538467473e-39
0.1181845218 -0.4308021963 0.4447598755 8.538467473e-39
-0.02206818387 -0.03394115344 0.2661658227 8.538467473e-39
-0.2174029052 -0.3907110989 -0.3756176531 8.538467473e-39
-0.02886969782 -0.4000581205 0.493951261 8.722137064e-39
0.1310960948 -0.4177525342 0.4078855813 8.722137064e-39
0.1819466949 0.03081585467 0.1624872684 8.722137064e-39
0.1188212186 -0.4170151651 0.3828852177 8.722137064e-39
-0.1813936234 -0.1046816483 -0.1587814242 8.722137064e-39
-0.009700800292 -0.0344110392 0.2787330151 8.722137064e-39
-0.4948501587 -0.4908234477 -0.2849686742 8.722137064e-39
-0.01195013709 -0.2081683427 0.2497899383 8.722137064e-39
-0.1933207065 -0.07904533297 -0.1831994206 8.906165387e-39
-0.3011150658 -0.4140844941 0.1920238137 8.906165387e-39
-0.02841812 -0.3868061304 0.4569429159 8.906165387e-39
-0.5326002836 -0.4912864268 -0.2356381565 8.906165387e-39
-0.009038947523 0.05113003403 0.3553703725 8.906165387e-39
-0.08320960402 0.0182060767 0.2044945359 8.906165387e-39
0.2202847749 -0.3417972028 0.2862394452 8.906165387e-39
0.2067740262 0.03014360368 0.1751885116 8.906165387e-39
-0.5102721453 -0.499181658 0.1127586067 9.089834978e-39
-0.1643404365 0.04397267103 -0.1893947124 9.089834978e-39
-0.238201037 -0.3774804771 0.1811344922 9.089834978e-39
0.1336092055 -0.3268611431 0.2358596325 9.089834978e-39
-0.5349143744 -0.4979743659 0.07519099116 9.089834978e-39
0.03189045563 -0.4267104268 0.3194898665 9.089834978e-39
-0.1154262051 0.04048801959 -0.06452687085 9.089834978e-39
0.1085153669 -0.3389058411 0.2353003323 9.089834978e-39
0.07078775018 -0.3631976545 0.2343158126 9.273863302e-39
-0.1076078489 0.0559591949 0.2051000297 9.273863302e-39
-0.1389576942 0.04490552843 -0.2512924671 9.273863302e-39
-0.009956018068 -0.05904243514 0.2657174766 9.273863302e-39
-0.02166154794 0.02696855739 0.3297876418 9.273863302e-39
-0.09984294325 -0.2803784013 0.1973717511 9.273863302e-39
-0.03588557616 -0.1690776646 0.1882296056 9.273863302e-39
-0.01019999944 -0.09558823705 0.2275443524 9.273863302e-39
-0.02599756978 -0.2961822152 0.297350198 9.457532893e-39
-0.03476090357 -0.08219899237 0.2027011514 9.457532893e-39
-0.02317038178 -0.1446486264 0.2013792098 9.457532893e-39
0.05815385282 -0.3754447103 0.2338905632 9.457532893e-39
-0.01045521721 -0.1202196255 0.2145287991 9.457532893e-39
-0.03615202755 -0.1817946434 0.2003715634 9.457532893e-39
-0.07413489372 -0.2307178378 0.1863714755 9.457532893e-39
-0.02240472846 -0.07075446844 0.2404259145 9.457532893e-39
0.1444742233 0.03115545213 0.1745182723 9.641561216e-39
-0.1124767736 -0.2926254869 0.1969465017 9.641561216e-39
-0.127793625 0.0409579128 -0.07709410787 9.641561216e-39
0.1056320071 -0.4308673143 0.4570589662 9.641561216e-39
-0.009793363512 -0.03467855603 0.2911661565 9.641561216e-39
0.08342158794 -0.3509505689 0.2347410619 9.641561216e-39
0.2201922089 -0.3420647383 0.2986726165 9.641561216e-39
0.1713368446 -0.3025693297 0.236844182 9.641561216e-39
-0.02299649082 -0.132199198 0.2016704082 9.825230807e-39
-0.2178114653 -0.04155975208 -0.1701607704 9.825230807e-39
0.2191413939 0.02967371792 0.1877557188 9.825230807e-39
0.02024490014 0.03424920142 0.1234451234 9.825230807e-39
0.1195543408 0.03156018257 0.1742501855 9.825230807e-39
-0.004489898682 0.0351889804 0.098310709 9.825230807e-39
-0.4856298864 -0.5003889203 0.1503261775 9.825230807e-39
-0.2173103541 -0.3904435635 -0.3880507946 9.825230807e-39
-0.02149889432 0.05133240297 0.3552363217 1.000925913e-38
-0.4822050631 -0.4904907644 -0.3097009361 1.000925913e-38
-0.2298628837 -0.3905087113 -0.375751704 1.000925913e-38
-0.04851941392 -0.1813247651 0.1878043562 1.000925913e-38
0.1942215115 0.03007845581 0.1874876171 1.000925913e-38
0.2212580144 -0.2911968529 0.2501047254 1.000925913e-38
-0.02191676572 0.002337130718 0.3167720735 1.000925913e-38
-0.04704696313 -0.06954717636 0.202858299 1.000925913e-38
-0.02441008389 -0.2079659849 0.2496558875 1.019292872e-38
-0.2255672067 -0.3652333915 0.1815597266 1.019292872e-38
0.1183584034 -0.4183527529 0.445051074 1.019292872e-38
-0.1155187562 0.04022049904 -0.05209371448 1.019292872e-38
-0.0241436325 -0.1952490211 0.2375139445 1.019292872e-38
0.06980706006 0.03263717145 0.1612808406 1.019292872e-38
-0.05915915966 -0.04444589838 0.2033066452 1.019292872e-38
-0.2676718831 -0.4269824326 -0.3894605935 1.019292872e-38
-0.1011149809 0.04563601315 -0.3130561411 1.037659831e-38
-0.02265994623 -0.09538586438 0.2274103016 1.037659831e-38
-0.1514176726 0.0451079011 -0.251426518 1.037659831e-38
0.03116118535 -0.4407649636 0.3937976658 1.037659831e-38
0.2204586565 -0.3293477595 0.2865306437 1.037659831e-38
-0.2301901281 -0.02917543054 -0.1575704366 1.037659831e-38
-0.02257861942 -0.08320391178 0.240134716 1.037659831e-38
0.1319217235 0.0310902968 0.1868173778 1.037659831e-38
0.1194466949 -0.3913136721 0.3461681008 1.056062664e-38
-0.4763314128 -0.473231107 0.1762579978 1.056062664e-38
-0.02698205411 -0.3348681629 0.3586424291 1.056062664e-38
0.1590507776 -0.2899174988 0.2370013297 1.056062664e-38
-0.1136674955 0.04557085782 -0.3007570207 1.056062664e-38
-0.06115327775 -0.1935718507 0.1873791218 1.056062664e-38
-0.5103646517 -0.4994491935 0.125191763 1.056062664e-38
-0.2382936031 -0.3777479827 0.1935676336 1.056062664e-38
-0.1639701724 0.04504274577 -0.2391273975 1.074429623e-38
-0.04722085595 -0.08199662715 0.2025671005 1.074429623e-38
-0.3259424269 -0.4134122431 0.1793225557 1.074429623e-38
-0.1767078042 0.04444256425 -0.2019619495 1.074429623e-38
-0.02308905497 -0.1324667186 0.2141035646 1.074429623e-38
0.03251972049 0.0335117951 0.1484455317 1.074429623e-38
-0.02671560086 -0.3221511841 0.3465003967 1.074429623e-38
-0.532507658 -0.4910188913 -0.2480713278 1.074429623e-38
-0.02564978786 -0.2712832987 0.297932595 1.092796582e-38
-0.009386727586 0.02623115294 0.3547879755 1.092796582e-38
-0.03528257459 -0.1195473745 0.2018275559 1.092796582e-38
0.2200070918 -0.3425997794 0.323538959 1.092796582e-38
-0.04861197621 -0.1815922707 0.2002375126 1.092796582e-38
-0.07144521177 -0.03179408982 0.2034637928 1.092796582e-38
0.0945418328 0.03169739991 0.1864152402 1.092796582e-38
0.1192615628 -0.3918487132 0.3710344136 1.092796582e-38
-0.1010224223 0.0459035337 -0.3254893124 1.111163541e-38
-0.02267118171 -0.08347142488 0.2525678873 1.111163541e-38
-0.02591624111 -0.2840003073 0.310074538 1.111163541e-38
-0.0786016956 0.0382758081 0.01047428697 1.111163541e-38
-0.04817163572 -0.1564258635 0.1883867532 1.111163541e-38
-0.02200932987 0.002069612965 0.3292052448 1.111163541e-38
-0.02824422903 -0.3743566871 0.4572341144 1.111163541e-38
-0.1373041421 -0.2919532359 0.1842452586 1.111163541e-38
-0.01064034365 -0.1207546666 0.2393951714 1.1295305e-38
-0.1375706047 -0.3046702147 0.1963872015 1.1295305e-38
-0.02352939732 -0.1576331407 0.225954324 1.1295305e-38
-0.2059545517 -0.09129240364 -0.183624655 1.1295305e-38
0.1319880188 -0.3793340921 0.3590264916 1.1295305e-38
-0.2423929274 -0.4144027233 -0.4137676358 1.1295305e-38
-0.1638776213 0.04531026632 -0.2515605688 1.1295305e-38
-0.00467502512 0.03465393931 0.1231770217 1.1295305e-38
0.206496343 0.02934104949 0.2124880403 1.147897319e-38
-0.3634962142 -0.4252546132 0.1786292195 1.147897319e-38
0.2206325531 -0.3168982863 0.2868218422 1.147897319e-38
-0.5350995064 -0.498509407 0.1000573039 1.147897319e-38
0.05850163102 -0.3505458236 0.2344729602 1.147897319e-38
-0.09592479467 -0.006222921424 0.1913449317 1.147897319e-38
-0.4980898798 -0.5001865625 0.1501921266 1.147897319e-38
-0.1118625402 -0.2550096214 0.1853869408 1.147897319e-38
-0.1081295237 0.01861081272 0.2042264342 1.166264278e-38
0.09444926679 0.03142987937 0.1988484561 1.166264278e-38
-0.06632687896 0.03753840923 0.03547463939 1.166264278e-38
-0.3260349929 -0.4136797488 0.191755712 1.166264278e-38
-0.01073290594 -0.1210221797 0.2518283427 1.166264278e-38
-0.2305379063 -0.05407434702 -0.1581528336 1.166264278e-38
0.1441965401 0.03035289794 0.211817801 1.166264278e-38
-0.01065157913 -0.1088402271 0.2645526826 1.166264278e-38
-0.02362196147 -0.1579006612 0.2383875251 1.184631237e-38
0.03260848671 -0.4007414281 0.2703395784 1.184631237e-38
0.162702471 -0.02847895212 0.2431164682 1.184631237e-38
-0.07387967408 -0.206086427 0.1993870288 1.184631237e-38
-0.1134823784 0.04610589892 -0.3256233633 1.184631237e-38
-0.02301896177 -0.1083703414 0.2519854903 1.184631237e-38
0.007599825971 0.03391653299 0.1481774449 1.184631237e-38
0.1317103207 -0.3801366389 0.3963260353 1.184631237e-38
0.206403777 0.02907352895 0.2249211967 1.202998196e-38
-0.04809030518 -0.144243896 0.2011111081 1.202998196e-38
0.09675098956 -0.2889056802 0.2363310754 1.202998196e-38
-0.07869425416 0.03800828755 0.02290743962 1.202998196e-38
-0.08390516043 -0.03159172088 0.203329742 1.202998196e-38
-0.02752619609 -0.3483876884 0.4080838561 1.202998196e-38
-0.01152103022 -0.1710875034 0.2630966902 1.202998196e-38
-0.02210189216 0.001802095212 0.3416383862 1.202998196e-38
-0.4887913465 -0.4730287492 0.1761239469 1.221365155e-38
0.1844923496 -0.2529738545 0.238142997 1.221365155e-38
0.2208064497 -0.304448843 0.2871130407 1.221365155e-38
0.03233459592 0.03297676146 0.1733118445 1.221365155e-38
-0.1404386908 0.04062523693 -0.05236181244 1.221365155e-38
-0.2171252221 -0.3899085522 -0.4129171371 1.221365155e-38
-0.02388841286 -0.1706176251 0.2505294979 1.221365155e-38
-0.01134713925 -0.1586380601 0.2633878887 1.221365155e-38
-0.01366438717 -0.05340074003 0.1871977895 1.239732115e-38
-0.1897231638 0.04303982109 -0.1274969876 1.239732115e-38
-0.2296777666 -0.3899736702 -0.4006180465 1.239732115e-38
-0.2674979866 -0.4145329893 -0.389169395 1.239732115e-38
0.04470197856 0.03250687569 0.1858790517 1.239732115e-38
-0.1083034128 0.00616137078 0.2039352357 1.239732115e-38
0.1253225803 -0.02787184902 0.2427143157 1.239732115e-38
0.2097600847 -0.2284796983 0.2389934957 1.239732115e-38
-0.1626644135 -0.3167149127 0.1958279163 1.258099074e-38
-0.2185070366 -0.09135755152 -0.1713255495 1.258099074e-38
-0.1528061181 0.04109513015 -0.06492901593 1.258099074e-38
-0.08624705672 -0.2056165487 0.1868198216 1.258099074e-38
-0.02539457008 -0.2466519475 0.3109481335 1.258099074e-38
0.07148330659 -0.3133998215 0.2354806066 1.258099074e-38
-0.2381197214 -0.3652985394 0.1938588321 1.258099074e-38
0.2204474211 -0.3174333274 0.3116881549 1.258099074e-38
-0.2187734842 -0.1040745378 -0.1591835767 1.276466033e-38
-0.2187847346 -0.09216010571 -0.1340260655 1.276466033e-38
0.03287494183 -0.3880244493 0.2581976354 1.276466033e-38
0.1750698537 -0.02894883789 0.2556836605 1.276466033e-38
-0.009653181769 0.01351413131 0.3669300079 1.276466033e-38
-0.250487119 -0.364828676 0.1812916398 1.276466033e-38
-0.2548529208 -0.4142003655 -0.4139016867 1.276466033e-38
0.2229155898 -0.178884238 0.2402923405 1.276466033e-38
0.07165720314 -0.3009503782 0.235771805 1.294832852e-38
0.1848401278 -0.2280749679 0.238725394 1.294832852e-38
0.1376086771 -0.04052368551 0.242557168 1.294832852e-38
0.2230894864 -0.1664347947 0.240583539 1.294832852e-38
-0.02522067912 -0.2342024893 0.311239332 1.294832852e-38
-0.07343932986 -0.1809200346 0.1875362694 1.294832852e-38
0.04460941255 0.03223935515 0.1983122528 1.294832852e-38
-0.5072175264 -0.4903535843 -0.2975358665 1.294832852e-38
-0.02959494479 0.0350586772 0.122908935 1.313163938e-38
0.1997345984 -0.0539849773 0.2429362237 1.313163938e-38
0.1872745901 -0.05378260463 0.2428021729 1.313163938e-38
-0.02566102333 -0.2593688965 0.3230900764 1.313163938e-38
-0.02320408821 -0.1089053825 0.2768517733 1.313163938e-38
-0.4981824458 -0.5004540682 0.1626252681 1.313163938e-38
-0.02451388352 -0.1963190883 0.2872465551 1.313163938e-38
0.07183109224 -0.2885009348 0.2360629737 1.313163938e-38
0.1979956925 -0.1784795076 0.2400242388 1.331530897e-38
0.1725540757 -0.215423122 0.2388825417 1.331530897e-38
0.2237850428 -0.1166369766 0.241748333 1.331530897e-38
0.1374347955 -0.05297312886 0.2422659695 1.331530897e-38
0.03069837019 -0.4421025515 0.4559634924 1.331530897e-38
0.1855356842 -0.1782771349 0.239890188 1.331530897e-38
0.1992129236 -0.09133332968 0.2420626283 1.331530897e-38
-0.02744486928 -0.3362057507 0.4208082557 1.331530897e-38
0.1993868202 -0.07888388634 0.2423538268 1.349897856e-38
-0.1449877322 0.05656630546 0.2046978921 1.349897856e-38
-0.09115423262 0.03821066022 0.0227733925 1.349897856e-38
-0.111514762 -0.2301107347 0.1859693378 1.349897856e-38
0.1312475055 -0.3814742267 0.4584918618 1.349897856e-38
-0.08607316762 -0.1931671053 0.1871110201 1.349897856e-38
0.08180419356 0.03109721839 0.223580718 1.349897856e-38
0.06302277744 -0.02686000429 0.2420440912 1.349897856e-38
0.03304883093 -0.3755749762 0.2584888339 1.368228942e-38
-0.009409199469 0.05005996302 0.4051030576 1.368228942e-38
0.2226491421 -0.1916012019 0.2524342835 1.368228942e-38
0.2248171568 -0.03002583422 0.268653065 1.368228942e-38
0.2208877653 -0.2922669351 0.2998373806 1.368228942e-38
0.1614852399 -0.1156251281 0.2410780787 1.368228942e-38
0.1123409569 -0.06501783431 0.2417066991 1.368228942e-38
0.100310117 -0.02773462795 0.2548793852 1.368228942e-38
-0.06037639081 -0.13159208 0.2012682557 1.386595901e-38
-0.02203180082 0.02589848638 0.3795202971 1.386595901e-38
0.1613113433 -0.1280745715 0.2407868803 1.386595901e-38
0.1607896835 -0.1654229611 0.2399132848 1.386595901e-38
-0.1887049675 0.0459825173 -0.2642618418 1.386595901e-38
0.1478080601 -0.2025689483 0.2389056683 1.386595901e-38
0.1474602818 -0.2274678648 0.2383232713 1.386595901e-38
-0.02575358748 -0.2596364021 0.3355232477 1.386595901e-38
-0.1751243621 -0.3165125549 0.1956938654 1.404926846e-38
-0.2313260287 -0.1041396931 -0.1468844563 1.404926846e-38
-0.0508703962 -0.04034416378 0.1870868504 1.404926846e-38
-0.2312334627 -0.1038721725 -0.1593176126 1.404926846e-38
0.1066315249 0.03042495996 0.2362819612 1.404926846e-38
-0.532322526 -0.49048388 -0.2729376256 1.404926846e-38
-0.02789644897 -0.3494577706 0.4578165114 1.404926846e-38
-0.09897349775 -0.2181311548 0.1988277286 1.404926846e-38
-0.02602003887 -0.2723533809 0.3476651907 1.423293806e-38
0.2236924767 -0.1169044971 0.2541814744 1.423293806e-38
-0.1451616287 0.04411686212 0.2044066936 1.423293806e-38
-0.02699381486 -0.1154456437 0.1856077611 1.423293806e-38
0.0747872293 -0.07686020434 0.2410133481 1.423293806e-38
-0.1776334345 0.04176738858 -0.07763029635 1.423293806e-38
0.2246432751 -0.0424753055 0.2683618665 1.423293806e-38
-0.176059857 0.04631519318 -0.2889941037 1.423293806e-38
-0.2555504143 -0.05393712595 -0.145987764 1.441624891e-38
0.2215945721 -0.2543835044 0.2758446634 1.441624891e-38
-0.1573551446 0.0570361875 0.1921306849 1.441624891e-38
-0.1113408729 -0.2176612914 0.1862605363 1.441624891e-38
0.08171162754 0.03082969785 0.2360138595 1.441624891e-38
-0.009583089501 0.03761051968 0.4048118591 1.441624891e-38
0.03268981352 -0.3885594904 0.2830639482 1.441624891e-38
-0.288307339 -0.3893879652 0.1927402467 1.441624891e-38
0.03348917514 -0.3504086137 0.246638 1.459991851e-38
0.111471504 -0.1272650957 0.2402507067 1.459991851e-38
0.1225403249 -0.2270631194 0.2380551696 1.459991851e-38
-0.02978007309 0.03452364355 0.1477752924 1.459991851e-38
0.1319655478 -0.3555052578 0.4093415737 1.459991851e-38
-0.2546790242 -0.4017508924 -0.4136104882 1.459991851e-38
0.03375563025 -0.3376916349 0.234496057 1.459991851e-38
-0.2022756636 0.04297467321 -0.1151978821 1.459991851e-38
-0.07335800678 -0.1687380672 0.2002606243 1.478322936e-38
0.06925167888 0.03103206307 0.2358798087 1.478322936e-38
0.2227304727 -0.1794192791 0.2651587129 1.478322936e-38
-0.2673128545 -0.413997978 -0.4140357375 1.478322936e-38
-0.009501762688 0.0497924462 0.4175361991 1.478322936e-38
-0.50712502 -0.4900860488 -0.3099690378 1.478322936e-38
0.1100803763 -0.2268607467 0.2379211187 1.478322936e-38
0.08775760233 -0.02779977955 0.2671785355 1.478322936e-38
-0.09671292454 -0.05628826469 0.2026132941 1.496689755e-38
0.04673724622 -0.3005456328 0.2355037034 1.496689755e-38
-0.1777260005 0.04149986804 -0.06519711018 1.496689755e-38
-0.190000847 0.0422372669 -0.09019750357 1.496689755e-38
0.03196433932 0.03190668672 0.2230445147 1.496689755e-38
-0.1453355104 0.03166741878 0.2041154951 1.496689755e-38
-0.07266244292 -0.1189402714 0.2014254034 1.496689755e-38
0.09883766621 -0.1395121962 0.2398254573 1.496689755e-38
0.2079762518 -0.3053165674 0.3367116749 1.515020841e-38
0.2235999256 -0.1171720177 0.2666147053 1.515020841e-38
0.223426044 -0.129621461 0.2663235068 1.515020841e-38
-0.0421474576 0.03499352932 0.1352081001 1.515020841e-38
0.2219423503 -0.2294846326 0.2764270604 1.515020841e-38
-0.5230097771 -0.499781847 0.1499240249 1.515020841e-38
0.03259725124 -0.3888270259 0.2954970896 1.515020841e-38
-0.4382161796 -0.4810733497 0.1530639976 1.515020841e-38
-0.02768937498 -0.1652434319 0.1844429672 1.533351927e-38
-0.07283633202 -0.1313897222 0.2011342049 1.533351927e-38
0.08655160666 -0.1268603653 0.239982605 1.533351927e-38
-0.2139951438 0.04531718791 -0.2147972435 1.533351927e-38
-0.175967291 0.04658270627 -0.3014272749 1.533351927e-38
-0.1495088786 -0.2671194673 0.1971267462 1.533351927e-38
-0.3633223176 -0.41280514 0.178920418 1.533351927e-38
0.1194129884 -0.3555704355 0.4216406941 1.533351927e-38
-0.1746840179 -0.2913461328 0.183843106 1.551683013e-38
0.1328687072 -0.3290012777 0.3353249729 1.551683013e-38
0.03313015774 -0.3633930683 0.2712131739 1.551683013e-38
-0.02271612547 -0.03581377864 0.353197962 1.551683013e-38
-0.2630396485 -0.3648937941 0.1935907453 1.551683013e-38
-0.1238008514 -0.2174589187 0.1861264855 1.551683013e-38
0.0851604864 -0.2264560163 0.237653017 1.551683013e-38
0.222464025 -0.192136243 0.2773006558 1.551683013e-38
0.08620382845 -0.1517592818 0.239400208 1.570049832e-38
-0.1576216072 0.04431923106 0.2042726427 1.570049832e-38
-0.1037067473 0.03814551234 0.03507250175 1.570049832e-38
-0.3258610964 -0.4012303054 0.1920469105 1.570049832e-38
0.2228118032 -0.1672373563 0.2778830528 1.570049832e-38
-0.1999517232 -0.3158403039 0.1829926223 1.570049832e-38
-0.02348177694 -0.1097079366 0.3141513169 1.570049832e-38
-0.09835925698 -0.1805153042 0.1872681677 1.570049832e-38
-0.02391088568 -0.1467887759 0.3008445501 1.588380918e-38
0.03783642873 -0.0391722545 0.2539179325 1.588380918e-38
-0.02549836971 -0.235005036 0.3485387862 1.588380918e-38
0.07339610159 -0.1764558256 0.2386837602 1.588380918e-38
0.0442391634 0.03116928786 0.2480448782 1.588380918e-38
-0.1091728657 -0.05608589947 0.2024792582 1.588380918e-38
-0.190185979 0.04170223325 -0.06533116102 1.588380918e-38
-0.1699076593 0.05697104335 0.2044297904 1.588380918e-38
0.03330404684 -0.3509436548 0.2715043724 1.606712004e-38
0.03277114034 -0.3763775527 0.2957882881 1.606712004e-38
-0.06367812306 -0.06504070759 0.1863704026 1.606712004e-38
0.2221975625 -0.2048532367 0.2894426286 1.606712004e-38
0.2245394588 -0.03082838841 0.305952549 1.606712004e-38
-0.02576482296 -0.2477220148 0.3606808186 1.606712004e-38
0.2558733821 0.02719398588 0.2751900554 1.606712004e-38
0.03241212666 -0.389362067 0.320363462 1.606712004e-38
0.222371459 -0.1924037635 0.2897338271 1.625043089e-38
-0.5070323944 -0.4898185432 -0.322402209 1.625043089e-38
0.05660660565 0.03069939464 0.2606121302 1.625043089e-38
-0.1037993133 0.0378779918 0.04750565067 1.625043089e-38
0.1000324264 -0.02853718214 0.292178899 1.625043089e-38
-0.07579029351 -0.03993942589 0.1868187487 1.625043089e-38
0.0313238427 -0.416401118 0.4192463458 1.625043089e-38
0.06093609333 -0.1762534529 0.2385497093 1.625043089e-38
-0.1699889898 0.0447891131 0.1917054355 1.643374035e-38
-0.0262977276 -0.2731559277 0.3849647343 1.643374035e-38
-0.08529628068 -0.1311873496 0.2010001689 1.643374035e-38
0.1497797072 -0.02961417474 0.3051482439 1.643374035e-38
-0.133571133 -0.01833277568 0.203084752 1.643374035e-38
-0.2270104736 0.04391444474 -0.1403323114 1.643374035e-38
-0.09723459184 -0.09363662452 0.2017397135 1.643374035e-38
-0.3005008399 -0.3764686286 0.1804642528 1.643374035e-38
-0.0230639074 -0.06071269512 0.3526155651 1.661705121e-38
0.2230670154 -0.1426059604 0.2908986211 1.661705121e-38
0.2217572182 -0.2300196588 0.3012933731 1.661705121e-38
-0.02692320012 -0.2988574207 0.4216818511 1.661705121e-38
-0.1656363159 0.04022742063 -0.01533041615 1.661705121e-38
-0.02331912331 -0.0853440538 0.3395999968 1.661705121e-38
-0.01044130512 -0.03655118495 0.3781983554 1.661705121e-38
-0.1457646191 -0.005413448438 0.1908087432 1.661705121e-38
-0.07596418262 -0.0523888953 0.1865275502 1.680036207e-38
-0.3383210599 -0.4010279477 0.1919128597 1.680036207e-38
0.08143393695 0.03002714366 0.2733133733 1.680036207e-38
-0.02264603414 -0.01171741821 0.3910798728 1.680036207e-38
0.2219311148 -0.2175701857 0.3015845716 1.680036207e-38
0.2119869441 -0.03089353628 0.3182516396 1.680036207e-38
0.2308608443 0.02733121067 0.287355125 1.680036207e-38
0.04882393032 -0.1511521637 0.2389980555 1.680036207e-38
-0.2804702818 -0.05353238806 -0.1462558657 1.698367293e-38
-0.1237195209 -0.2052769512 0.1988508403 1.698367293e-38
-0.02222816274 0.03727785125 0.4295441806 1.698367293e-38
-0.2135323286 0.04665477574 -0.2769630849 1.698367293e-38
0.03222699836 -0.3898970783 0.3452297747 1.698367293e-38
0.0486500375 -0.1636016369 0.238706857 1.698367293e-38
0.1685610563 0.02834305167 0.2866848707 1.698367293e-38
-0.2803777158 -0.05326487124 -0.1586890221 1.698367293e-38
-0.0982779339 -0.1683333367 0.1999925226 1.716698239e-38
0.04795447737 -0.2133994401 0.237542063 1.716698239e-38
0.03258601576 -0.3769125938 0.3206546605 1.716698239e-38
0.1496871561 -0.02988169156 0.3175814152 1.716698239e-38
-0.02444379218 -0.1722227335 0.3251284659 1.716698239e-38
0.07501997054 -0.02839996479 0.3043439686 1.716698239e-38
-0.262865752 -0.3524443209 0.1938819438 1.716698239e-38
0.2234961241 -0.1055251285 0.304205358 1.716698239e-38
0.2228005677 -0.1553229094 0.3030405641 1.735029324e-38
0.0440540351 0.03063424677 0.2729112506 1.735029324e-38
-0.1823676378 0.05717340857 0.2042957395 1.735029324e-38
-0.09758237004 -0.1185355335 0.2011573166 1.735029324e-38
-0.1487207562 -0.2170541734 0.1858583838 1.735029324e-38
0.1325797737 -0.3178893924 0.3977820277 1.735029324e-38
0.03426606208 -0.288428843 0.2605272233 1.735029324e-38
-0.2684282362 -0.1027300358 -0.1845860928 1.735029324e-38
-0.2752331197 -0.3519744575 0.1813147366 1.75336041e-38
-0.02315646969 -0.06098021194 0.3650487661 1.75336041e-38
-0.1756896079 0.04738526046 -0.338726759 1.75336041e-38
-0.09793015569 -0.1434344202 0.2005749196 1.75336041e-38
-0.02240205184 0.0248284135 0.4292529821 1.75336041e-38
-0.1106453091 -0.1678634584 0.1874253154 1.75336041e-38
-0.02471024543 -0.1849397123 0.3372704387 1.75336041e-38
-0.1339189112 -0.04323168844 0.202502355 1.75336041e-38
0.2243543416 -0.03136342019 0.3308188915 1.771655483e-38
0.1745144874 -0.03055394627 0.3302827179 1.771655483e-38
0.03730352223 -0.06460618228 0.2782019079 1.771655483e-38
0.2220124304 -0.2053882629 0.3143089414 1.771655483e-38
0.1335642636 -0.2792034447 0.3364897668 1.771655483e-38
0.03619009256 -0.1633992791 0.2385728061 1.771655483e-38
-0.0917096138 0.03660555929 0.09737238288 1.771655483e-38
-0.136179477 -0.2050745785 0.1987167895 1.771655483e-38
0.03443995118 -0.2759793699 0.2608184218 1.789986569e-38
-0.170336768 0.01989017241 0.1911230385 1.789986569e-38
-0.2389149964 0.0457219258 -0.2150653452 1.789986569e-38
-0.01003466919 0.02435852773 0.4418201745 1.789986569e-38
-0.02307514288 -0.04879825935 0.3777731359 1.789986569e-38
0.1620545387 -0.03035157733 0.3301486671 1.789986569e-38
0.03549452871 -0.2131970674 0.237408042 1.789986569e-38
0.2215721011 -0.2305546999 0.3261597455 1.789986569e-38
-0.1582245976 -0.005211079493 0.1906746924 1.808317654e-38
0.1962118596 -0.2553163767 0.3377424181 1.808317654e-38
-0.02333036065 -0.07342965156 0.3647575676 1.808317654e-38
0.2232296616 -0.118242085 0.316347301 1.808317654e-38
0.2239252329 -0.06844425201 0.317512095 1.808317654e-38
0.22418046 -0.04381289333 0.3305277228 1.808317654e-38
0.03738484904 -0.05242425203 0.2909262776 1.808317654e-38
-0.1462049633 -0.03057987988 0.2026595026 1.808317654e-38
-0.1881495863 0.04758762568 -0.3388608098 1.826612727e-38
-0.02436246537 -0.1600407958 0.3378528357 1.826612727e-38
0.03329281136 -0.3390292227 0.2966618836 1.826612727e-38
-0.02375946753 -0.1105104834 0.3514507711 1.826612727e-38
0.1963857561 -0.2428669333 0.3380336165 1.826612727e-38
-0.199696511 -0.2912089229 0.1960081607 1.826612727e-38
-0.0672525093 0.03486322612 0.1598063111 1.826612727e-38
-0.3878546655 -0.4445344508 0.1544737816 1.826612727e-38
0.03373315558 -0.3138627708 0.2848111391 1.844943813e-38
-0.02604251169 -0.2485245764 0.3979802728 1.844943813e-38
0.03627141938 -0.1512173265 0.2512971759 1.844943813e-38
0.0692955032 -0.3555635214 0.4584040046 1.844943813e-38
0.0367818512 -0.1019545645 0.2773283422 1.844943813e-38
0.08729478717 -0.02913736738 0.3293443918 1.844943813e-38
-0.5320448875 -0.4896813035 -0.3102371395 1.844943813e-38
0.05666160583 -0.3678105772 0.4579787552 1.844943813e-38
-0.02506926283 -0.1979241967 0.3618456125 1.863274899e-38
-0.02316770516 -0.04906577617 0.3902062774 1.863274899e-38
0.03557585925 -0.2010151446 0.2501323819 1.863274899e-38
0.03540196642 -0.2134645879 0.2498411834 1.863274899e-38
0.03746617585 -0.04024232924 0.3036506176 1.863274899e-38
-0.2258997113 0.04712466151 -0.2895302773 1.863274899e-38
-0.02702699788 -0.2872105241 0.4592725039 1.863274899e-38
0.1329275519 -0.2929905057 0.3983643949 1.863274899e-38
0.1932958812 0.02740328014 0.3118192852 1.881569971e-38
0.1559159756 0.02801038325 0.3114171326 1.881569971e-38
0.03148649633 -0.3920372427 0.4446951151 1.881569971e-38
0.224087894 -0.04408041388 0.3429608643 1.881569971e-38
0.1991679966 -0.04367567599 0.3426927626 1.881569971e-38
-0.2249642015 -0.315703094 0.1951576769 1.881569971e-38
0.2218273133 -0.205923304 0.3391752839 1.881569971e-38
0.2227893323 -0.1434085071 0.3281981349 1.881569971e-38
-0.02266850695 0.01211139373 0.4413949251 1.899901057e-38
-0.02242452465 0.04865722358 0.4795680046 1.899901057e-38
-0.01038245019 -0.0005404173862 0.4412377775 1.899901057e-38
-0.3254207671 -0.3760639131 0.1801961511 1.899901057e-38
-0.2517452538 0.04485421628 -0.1654667109 1.899901057e-38
-0.2131620795 0.04772485048 -0.32669577 1.899901057e-38
-0.3883348107 -0.4126679301 0.1910854727 1.899901057e-38
-0.02445502765 -0.1603083163 0.3502859771 1.899901057e-38
-0.2512824535 0.04619180411 -0.2276325524 1.91819627e-38
-0.195001483 0.04492633417 0.2038705051 1.91819627e-38
0.09966216981 -0.02960725687 0.3419115841 1.91819627e-38
-0.2275658548 0.04230933636 -0.06573329866 1.91819627e-38
-0.1165369526 0.03727780282 0.08467112482 1.91819627e-38
0.1493281275 -0.04286620021 0.342156589 1.91819627e-38
0.1989941001 -0.05612511933 0.3424015641 1.91819627e-38
0.2097151428 -0.1808220148 0.33962363 1.91819627e-38
-0.3004195094 -0.364286691 0.1931885928 1.936527215e-38
0.1326498687 -0.2937930524 0.4356638789 1.936527215e-38
0.2114540488 -0.05632748455 0.342535615 1.936527215e-38
0.2239139974 -0.05652984977 0.3426696658 1.936527215e-38
0.03469517082 -0.2513479888 0.2738339603 1.936527215e-38
0.00658163242 0.03097383678 0.2849422693 1.936527215e-38
0.03583107516 -0.1763837487 0.26314798 1.936527215e-38
0.03284123167 -0.3522812426 0.3336701989 1.936527215e-38
0.2233923227 -0.09387820959 0.3417960703 1.954822428e-38
-0.2398406267 0.04304674268 -0.09073369205 1.954822428e-38
0.1591797173 -0.229810372 0.3379226625 1.954822428e-38
0.03565718234 -0.188833192 0.2628567815 1.954822428e-38
0.2226967663 -0.1436760277 0.3406312764 1.954822428e-38
-0.1829706281 0.007643098477 0.1906978041 1.954822428e-38
-0.1042621285 0.03654040396 0.1096714884 1.954822428e-38
0.173726365 -0.08061929047 0.3415510654 1.954822428e-38
0.2105845958 -0.1185747534 0.3410796225 1.973153514e-38
0.1844474077 -0.2053162009 0.3387731612 1.973153514e-38
0.1860124171 -0.09327109903 0.3413939178 1.973153514e-38
0.133460477 -0.2675565481 0.3740804493 1.973153514e-38
-0.02516182512 -0.1981917173 0.374278754 1.973153514e-38
-0.01055634022 -0.01298985817 0.440946579 1.973153514e-38
0.03274866939 -0.3525487483 0.3461033702 1.973153514e-38
-0.305390209 -0.05312765017 -0.1465239674 1.973153514e-38
0.1369495094 -0.03048188053 0.3547468781 1.991448586e-38
-0.02685310692 -0.2747610509 0.4595637023 1.991448586e-38
-0.1355652362 -0.167458728 0.1871572286 1.991448586e-38
0.1977768689 -0.1432712972 0.3403631747 1.991448586e-38
0.1324647367 -0.2943280935 0.4605302513 1.991448586e-38
0.03416226432 -0.2767819464 0.2981178761 1.991448586e-38
0.03310768679 -0.3395642638 0.3215282559 1.991448586e-38
0.2181232125 0.0267310217 0.3245205879 1.991448586e-38
0.1849690825 -0.167967841 0.3396467566 2.009743799e-38
-0.4254084229 -0.4563768208 0.1537804455 2.009743799e-38
0.03211196512 -0.3663357496 0.4079779983 2.009743799e-38
0.033548031 -0.3143978119 0.309677422 2.009743799e-38
0.03702583537 -0.06540872902 0.3155013919 2.009743799e-38
-0.1993487328 -0.2663100064 0.1965905577 2.009743799e-38
-0.4754109085 -0.4799312055 0.1277955472 2.009743799e-38
-0.3052050769 -0.0525926128 -0.171390295 2.009743799e-38
0.03608629107 -0.1517523676 0.2761635482 2.028074885e-38
-0.1467266381 -0.06792823225 0.2017859071 2.028074885e-38
-0.02454759181 -0.1605758369 0.3627191782 2.028074885e-38
-0.08981528133 -0.151782155 0.1840639263 2.028074885e-38
0.0337219201 -0.3019483685 0.3099686205 2.028074885e-38
-0.0269456692 -0.2750285566 0.4719968736 2.028074885e-38
-0.1952566952 0.0202949103 0.1908549517 2.028074885e-38
0.09352363646 0.0287547037 0.3231801093 2.028074885e-38
-0.3055641055 -0.06557709724 -0.146815151 2.046369957e-38
0.120456323 -0.2808736861 0.4233878553 2.046369957e-38
-0.1608329564 -0.1919528991 0.1863067299 2.046369957e-38
-0.1015796661 -0.1017819494 0.1850946695 2.046369957e-38
0.1361726224 -0.0924616307 0.3408577442 2.046369957e-38
-0.1862745434 -0.2288965136 0.1851650476 2.046369957e-38
-0.01048624888 0.0111064706 0.47882846 2.046369957e-38
-0.01056757569 -0.001075452659 0.4661040902 2.046369957e-38
0.03728105128 -0.04077736288 0.3285169899 2.06466517e-38
-0.01064890251 -0.01325737685 0.4533797503 2.06466517e-38
-0.1356578022 -0.1677262336 0.199590385 2.06466517e-38
0.1477631181 -0.1549112648 0.3395358026 2.06466517e-38
-0.2637423873 0.04639417678 -0.2277665883 2.06466517e-38
-0.506754756 -0.4890159965 -0.3597017229 2.06466517e-38
-0.2642051876 0.04505658895 -0.1656007618 2.06466517e-38
0.03183427453 -0.3671383262 0.4452775121 2.06466517e-38
-0.1832370907 -0.005073860753 0.202839762 2.082996116e-38
0.1368569434 -0.03074939735 0.3671800196 2.082996116e-38
-0.02578729391 -0.2238931805 0.4109958112 2.082996116e-38
-0.4007947445 -0.4124655426 0.1909514219 2.082996116e-38
-0.1136918664 -0.07668070495 0.1855430156 2.082996116e-38
0.01885645278 0.03023643792 0.3099426031 2.082996116e-38
0.1681908071 0.02727297693 0.3364175558 2.082996116e-38
-0.02386326529 -0.09886359423 0.3890414834 2.082996116e-38
0.1119370013 -0.03034465946 0.3669119477 2.101291328e-38
-0.3176763058 -0.04047584161 -0.1463668048 2.101291328e-38
0.03362935781 -0.302215904 0.3224018514 2.101291328e-38
-0.1784664989 0.03935972601 0.03426821157 2.101291328e-38
-0.02319017798 -0.02523693256 0.4405213594 2.101291328e-38
0.2180306464 0.02646350116 0.3369537294 2.101291328e-38
-0.0105788121 0.01083895192 0.4912616611 2.101291328e-38
-0.104447253 0.03600537032 0.1345378608 2.101291328e-38
-0.0231088493 -0.0130550079 0.4532456994 2.119586541e-38
-0.3060970008 -0.09101104736 -0.1225312129 2.119586541e-38
0.1220550388 -0.2045718729 0.3505360782 2.119586541e-38
-0.09217242897 0.03526796401 0.1595382094 2.119586541e-38
-0.01074146573 -0.01352489367 0.4658128917 2.119586541e-38
-0.125804022 -0.05157942325 0.1859913617 2.119586541e-38
-0.4755960405 -0.4804662466 0.15266186 2.119586541e-38
-0.02352672257 -0.06205028296 0.4147813916 2.119586541e-38
0.08701710403 -0.02993992157 0.366643846 2.137881613e-38
-0.1538242996 0.03815243393 0.07183583081 2.137881613e-38
0.09343107045 0.02848718315 0.3356132507 2.137881613e-38
-0.3629745245 -0.3879062235 0.179502815 2.137881613e-38
-0.211542204 -0.2533906996 0.1843145639 2.137881613e-38
-0.3002456129 -0.3518372178 0.1934797913 2.137881613e-38
-0.2118086666 -0.2661076188 0.1964565217 2.137881613e-38
0.03718848899 -0.04104488343 0.3409501314 2.137881613e-38
-0.02686434425 -0.2628466189 0.4847212732 2.156176826e-38
-0.2523931861 0.0429815948 -0.07843458652 2.156176826e-38
0.03658549115 -0.0905751586 0.327352196 2.156176826e-38
-0.2278435379 0.04150678217 -0.02843380906 2.156176826e-38
-0.02650532685 -0.2498621643 0.4601460993 2.156176826e-38
0.0333629027 -0.314932853 0.3345437944 2.156176826e-38
-0.1024491191 -0.1640292257 0.183638677 2.156176826e-38
-0.02295743115 0.02322330698 0.5038520098 2.156176826e-38
0.03701459616 -0.05349432677 0.3406589329 2.174471899e-38
-0.02561340481 -0.2114437073 0.4112870097 2.174471899e-38
0.124304384 -0.03081454523 0.37947914 2.174471899e-38
-0.3999556303 -0.4313476086 0.1297646314 2.174471899e-38
-0.01067137532 0.01057143509 0.5036948323 2.174471899e-38
0.03309645131 -0.3276498318 0.3466857672 2.174471899e-38
-0.02303875983 0.01104132086 0.4911276102 2.174471899e-38
-0.5318597555 -0.4891462624 -0.335103482 2.174471899e-38
-0.1478513032 -0.1548069119 0.1873143762 2.192767111e-38
-0.4378683865 -0.4561744332 0.1536463946 2.192767111e-38
-0.2763874829 0.04606150836 -0.2030343413 2.192767111e-38
-0.2032012939 0.04029949009 0.009133808315 2.192767111e-38
-0.02370061167 -0.07449971884 0.4144901931 2.192767111e-38
0.1805582494 0.02680309117 0.3489847481 2.192767111e-38
0.1556382924 0.02720782906 0.3487166464 2.192767111e-38
-0.2764800489 0.04579398781 -0.1906011552 2.192767111e-38
-0.1263256967 -0.08892777562 0.1851177663 2.211062324e-38
-0.02597242035 -0.2244282216 0.4358621836 2.211062324e-38
-0.2402108908 0.04197667539 -0.04100101069 2.211062324e-38
0.1223102659 -0.179940477 0.3635516167 2.211062324e-38
0.1331715435 -0.2564446628 0.4365374744 2.211062324e-38
0.1335305572 -0.2434601784 0.4119623601 2.211062324e-38
-0.21163477 -0.2536582053 0.1967477053 2.211062324e-38
0.1337970048 -0.2307432294 0.3998203874 2.211062324e-38
-0.02361928485 -0.0623178035 0.4272145927 2.229357396e-38
-0.1264995784 -0.101377219 0.1848265678 2.229357396e-38
-0.02438493632 -0.1362119615 0.3881678879 2.229357396e-38
0.2303980291 0.02599362284 0.3495209515 2.229357396e-38
-0.2497102469 -0.3028489053 0.1951807737 2.229357396e-38
-0.02412971854 -0.1115805581 0.4011834562 2.229357396e-38
-0.02387450263 -0.08694916219 0.4141989946 2.229357396e-38
0.124211818 -0.03108206578 0.3919123411 2.229357396e-38
0.135291934 -0.1427945048 0.364559263 2.247652609e-38
0.07446458936 -0.03000506945 0.3789429367 2.247652609e-38
-0.1604851633 -0.1670539826 0.1868891269 2.247652609e-38
0.2428580374 0.02579125017 0.3496550024 2.247652609e-38
-0.1731190085 -0.1793010831 0.1864638776 2.247652609e-38
-0.1958709359 -0.01732093468 0.2024145126 2.247652609e-38
0.1233536005 -0.1052437648 0.3652988076 2.247652609e-38
-0.2253443301 0.04872976243 -0.3641293049 2.247652609e-38
0.1209779978 -0.2435253263 0.4242614508 2.265947681e-38
0.09929192066 -0.03067732789 0.3916442692 2.265947681e-38
0.03528693318 -0.1899032593 0.312589407 2.265947681e-38
-0.2322074473 0.05798288435 0.203759551 2.265947681e-38
-0.02499916963 -0.1738278419 0.3997274637 2.265947681e-38
0.086831972 -0.03047495894 0.3915102184 2.265947681e-38
-0.2495363504 -0.2903994322 0.1954719722 2.265947681e-38
0.130625844 0.0273450464 0.360881716 2.265947681e-38
0.05753105879 -0.3055633008 0.4594347477 2.284242894e-38
-0.02330521308 -0.001675637905 0.5032696128 2.284242894e-38
-0.3504332602 -0.3759266734 0.1923612058 2.284242894e-38
-0.2238283008 -0.2407388836 0.1844717115 2.284242894e-38
0.08297267556 -0.2686196864 0.4605764449 2.284242894e-38
0.1057058945 0.02774978429 0.3606136143 2.284242894e-38
-0.1391334236 -0.1136243194 0.1844013333 2.284242894e-38
0.03640036285 -0.09111019224 0.3522185087 2.284242894e-38
0.1236901432 -0.06843041629 0.3910387754 2.302537966e-38
0.1230871528 -0.1179607213 0.3774407506 2.302537966e-38
-0.22802867 0.04097174853 -0.003567501903 2.302537966e-38
-0.172945112 -0.1668516099 0.1867550761 2.302537966e-38
0.03423235565 -0.2526855767 0.3359997869 2.302537966e-38
-0.225251779 0.04899728298 -0.3765624464 2.302537966e-38
-0.02589109354 -0.212246269 0.4485865533 2.302537966e-38
0.135106802 -0.143329531 0.3894256353 2.302537966e-38
0.123342365 -0.09332932532 0.3904563785 2.320833179e-38
0.1240267009 -0.03161709756 0.4167786539 2.320833179e-38
0.121325776 -0.2186264247 0.4248438478 2.320833179e-38
-0.2493624687 -0.2779499888 0.1957631707 2.320833179e-38
-0.287437886 -0.3271406889 0.1941962391 2.320833179e-38
0.1362314671 -0.05645085871 0.4038971663 2.320833179e-38
0.05586610734 0.02855925262 0.3600774407 2.320833179e-38
0.03648169339 -0.0789282769 0.3649428487 2.320833179e-38
-0.1719943434 -0.09242241085 0.2009354234 2.339092378e-38
-0.1294597536 0.03614258766 0.1467029154 2.339092378e-38
0.03605258465 -0.1160091162 0.3516361117 2.339092378e-38
0.130533278 0.02707752585 0.3733148575 2.339092378e-38
0.1429932266 0.02687516063 0.3734489083 2.339092378e-38
-0.1841065437 -0.06732112914 0.2013837695 2.339092378e-38
-0.2504493594 0.04859946668 -0.339531064 2.339092378e-38
0.135014236 -0.1435970515 0.4018587768 2.339092378e-38
-0.1418271363 0.03661247343 0.1341357082 2.348204041e-38
-0.4125081301 -0.4314127564 0.1420637369 2.348204041e-38
-0.17216824 -0.1048718542 0.2006442249 2.348204041e-38
-0.2630944252 0.04826680571 -0.3147987723 2.348204041e-38
0.03413979337 -0.2529530823 0.3484329283 2.348204041e-38
-0.3307279944 -0.1017181948 -0.1852563322 2.348204041e-38
0.136138916 -0.05671837926 0.4163303077 2.348204041e-38
-0.1665619463 0.03755224496 0.1090012491 2.348204041e-38
0.03387333825 -0.2656700909 0.3605749011 2.348132155e-38
-0.2489221096 -0.2527835667 0.1839124113 2.348132155e-38
-0.5003308654 -0.47952649 0.1275274456 2.348132155e-38
0.03613391146 -0.1038271859 0.3643604517 2.348132155e-38
0.03492791578 -0.2028877735 0.3371645808 2.348132155e-38
-0.1854050905 -0.1666492522 0.1866210401 2.348132155e-38
0.03475402668 -0.2153372169 0.3368733823 2.348132155e-38
-0.01136693545 -0.03922636434 0.5025300384 2.348132155e-38
-0.1723421216 -0.1173213273 0.2003530264 2.348060128e-38
0.1214071065 -0.206444487 0.4375682175 2.348060128e-38
-0.2206982821 -0.01664867997 0.1897132546 2.348060128e-38
0.1349216849 -0.143864572 0.4142919183 2.348060128e-38
0.1229020208 -0.1184957623 0.4023071229 2.348060128e-38
-0.3375329375 -0.3509626091 0.1806444973 2.348060128e-38
0.08332046121 -0.2437207997 0.4611588418 2.348060128e-38
-0.5316746235 -0.4886112511 -0.3599697948 2.348060128e-38
0.1215810031 -0.1939950138 0.437859416 2.347952368e-38
-0.2086786479 -0.0420174785 0.2016980648 2.347952368e-38
-0.2618224025 -0.2777476311 0.1956291199 2.347952368e-38
-0.02466262691 -0.1370145231 0.4254674017 2.347952368e-38
-0.2630018592 0.04853432626 -0.3272319436 2.347952368e-38
0.03431368247 -0.240503639 0.3487241268 2.347952368e-38
0.03378077596 -0.2659375966 0.3730080426 2.347952368e-38
-0.3502593637 -0.3634772301 0.1926524043 2.347952368e-38
-0.02440740913 -0.1123831123 0.43848297 2.347880341e-38
0.04331353307 0.02849410474 0.3723765314 2.347880341e-38
-0.2998978198 -0.3269383311 0.1940621883 2.347880341e-38
-0.3248990774 -0.3387155533 0.1810697466 2.347880341e-38
0.167820558 0.02620290965 0.3861502409 2.347880341e-38
0.03518313169 -0.1782563776 0.3501801193 2.347880341e-38
-0.1912967265 0.03849201649 0.08386683464 2.347880341e-38
-0.2570348084 0.05865513906 0.1910583079 2.347880341e-38
0.09892167151 -0.03174740076 0.4413768649 2.347808455e-38
-0.3014925122 0.0459312126 -0.1784360856 2.347808455e-38
-0.2282137871 0.04043670744 0.02129886672 2.347808455e-38
-0.34337309 -0.1020508558 -0.1605240405 2.347808455e-38
0.1927405149 0.02579817176 0.3864183128 2.347808455e-38
0.03647045419 -0.0670138374 0.3901004195 2.347808455e-38
-0.1846282184 -0.1046694815 0.200510174 2.347808455e-38
-0.1852312088 -0.1541998088 0.1869122386 2.347808455e-38
-0.17902188 0.03775461763 0.1088671982 2.347700555e-38
0.1219287813 -0.1690961421 0.4384417832 2.347700555e-38
-0.5005159974 -0.4800615311 0.1523937583 2.347700555e-38
-0.02458130009 -0.1248325855 0.4381917715 2.347700555e-38
0.1230646819 -0.09413187951 0.4277558327 2.347700555e-38
-0.2652233839 0.04211389273 -0.02883595228 2.347700555e-38
-0.02590232901 -0.2003318518 0.4737440348 2.347700555e-38
-0.1638794541 -0.1007701159 0.1844244301 2.347700555e-38
-0.1642272472 -0.1256690323 0.1838420331 2.347628668e-38
-0.2740159035 -0.2648282647 0.183353126 2.347628668e-38
-0.2359404713 -0.2156375945 0.1849200577 2.347628668e-38
0.03526446223 -0.1660744697 0.362904489 2.347628668e-38
-0.02408210002 -0.06365539134 0.4893804193 2.347628668e-38
-0.2210460603 -0.04154759273 0.1891308725 2.347628668e-38
0.1236564368 -0.03268717229 0.4665113389 2.347628668e-38
-0.4130808115 -0.3998137414 0.1911085695 2.347628668e-38
-0.2870901227 -0.3022418022 0.1947786361 2.347520768e-38
-0.2331582308 -0.01644631103 0.1895792186 2.347520768e-38
0.03456889838 -0.2158722579 0.3617396951 2.347520768e-38
0.05822661892 -0.2557654977 0.4605995417 2.347520768e-38
0.1552680433 0.02613775432 0.3984493315 2.347520768e-38
0.09873653948 -0.0322824344 0.4662432373 2.347520768e-38
-0.2573825717 0.03375625238 0.1904759109 2.347520768e-38
-0.2994574904 -0.3017719388 0.1822114289 2.347520768e-38
0.03412855417 -0.2410386801 0.3735904396 2.347448882e-38
-0.2614746392 -0.2528487146 0.1962115169 2.347448882e-38
0.1926479489 0.02553065121 0.3988514841 2.347448882e-38
-0.1976911575 -0.1539974362 0.1867781878 2.347448882e-38
0.04559278116 -0.2680125833 0.4601742923 2.347448882e-38
-0.2694947422 0.05885750428 0.190924257 2.347448882e-38
-0.3627193272 -0.3632748723 0.1925183535 2.347448882e-38
-0.299723953 -0.3144888878 0.1943533868 2.347448882e-38
0.08401602507 -0.1939229518 0.4623236358 2.347340982e-38
0.03499800712 -0.1787914038 0.375046432 2.347340982e-38
0.03447633609 -0.2161397636 0.3741728365 2.347340982e-38
-0.0245112069 -0.1007362232 0.4760736227 2.347340982e-38
-0.2357665747 -0.2031881362 0.1852112561 2.347340982e-38
-0.1758177727 -0.06321939081 0.1851639748 2.347340982e-38
-0.2333321124 -0.02889578231 0.1892880201 2.347340982e-38
-0.2869162261 -0.2897923291 0.1950698346 2.347340982e-38
0.03560100496 -0.1292611063 0.3886444271 2.347269095e-38
-0.221312508 -0.05426458269 0.2012728155 2.347269095e-38
-0.02608745545 -0.2008668929 0.4986104071 2.347269095e-38
0.1225317717 -0.1195658296 0.452039808 2.347269095e-38
0.05840050802 -0.2433160543 0.4608907402 2.347269095e-38
-0.5131896138 -0.4352756441 0.1767294407 2.347269095e-38
-0.2484004498 -0.2154352367 0.1847860068 2.347269095e-38
-0.1977837235 -0.1542649418 0.1992113441 2.347269095e-38
-0.4500618875 -0.4432550967 0.1413703859 2.347161195e-38
-0.4004469514 -0.3875666261 0.1915338188 2.347161195e-38
0.05558841676 0.02775669843 0.3973769546 2.347161195e-38
-0.2530411482 0.04110896587 0.008597616106 2.347161195e-38
0.07138218731 -0.2061700523 0.4618983865 2.347161195e-38
-0.3247251809 -0.3262660801 0.1813609451 2.347161195e-38
-0.1792069972 0.03721958399 0.1337335706 2.347161195e-38
-0.1761655509 -0.08811829984 0.1845815778 2.347161195e-38
0.1105009317 -0.08228262514 0.4652124941 2.347089308e-38
-0.2500791252 0.04966954142 -0.3892637193 2.347089308e-38
-0.3022330105 0.04379107058 -0.07897077501 2.347089308e-38
0.0343837738 -0.2164072841 0.3866060674 2.347089308e-38
0.034731552 -0.1915083677 0.3871884644 2.347089308e-38
0.07155607641 -0.193720594 0.462189585 2.347089308e-38
-0.2214864045 -0.06671402603 0.2009816319 2.347089308e-38
-0.4501544535 -0.4435226023 0.1538035423 2.347089308e-38
0.03322539479 -0.2675427198 0.4476071 2.346981408e-38
-0.2654085159 0.04157885909 -0.003969645128 2.346981408e-38
-0.2358591408 -0.2034556419 0.1976444125 2.346981408e-38
-0.2355926931 -0.1907386929 0.1855024546 2.346981408e-38
0.07346887141 -0.05677660555 0.4653927386 2.346981408e-38
0.1098053604 -0.1320804209 0.4640477002 2.346981408e-38
-0.1669321954 0.03648217022 0.1587339193 2.346981408e-38
-0.3145078719 0.04452846944 -0.1039711237 2.346981408e-38
0.06118275225 -0.04412480444 0.4655498862 2.346909522e-38
0.04889669642 -0.03147296607 0.4657070637 2.346909522e-38
0.03446510062 -0.2042253613 0.3993304074 2.346909522e-38
-0.2531337142 0.04084144533 0.02103077248 2.346909522e-38
-0.3121839464 -0.3142865002 0.1942193359 2.346909522e-38
0.05549585074 0.02748917788 0.409810096 2.346909522e-38
-0.2100697607 -0.1416131109 0.1993684918 2.346909522e-38
-0.2408588231 0.04010404646 0.04603112862 2.346909522e-38
-0.1916669756 0.03742194921 0.1335995197 2.346801622e-38
0.03635542095 -0.043452546 0.4528486431 2.346801622e-38
-0.3248177469 -0.3265335858 0.1937941015 2.346801622e-38
-0.2227849513 -0.1660421491 0.1862188876 2.346801622e-38
-0.270016402 0.02150912024 0.1900506616 2.346801622e-38
-0.1884516031 -0.07546649873 0.1847387254 2.346801622e-38
