# .PCD v0.7 - Point Cloud Data file format
VERSION 0.7
FIELDS x y z rgb
SIZE 4 4 4 4
TYPE F F F F
COUNT 1 1 1 1
WIDTH 832
HEIGHT 1
VIEWPOINT 0 0 0 1 0 0 0
POINTS 832
DATA ascii
0.4518414736 -0.2411931604 0.4382748902 6.55152294e-39
-0.3031649888 -0.444229126 0.3062983155 6.55152294e-39
-0.3690811396 -0.4475834966 0.4476850033 6.55152294e-39
0.4382688105 -0.2328067422 0.4371141791 6.55152294e-39
-0.3188343942 -0.3327150941 0.2698850632 6.55152294e-39
0.4592316151 -0.3024077713 0.4301131666 6.55152294e-39
-0.3767886162 -0.4049685895 0.3938142955 6.368926744e-39
-0.4136753976 -0.1975693107 0.4357301295 6.368926744e-39
0.4773997068 -0.4322600365 0.4706984162 6.368926744e-39
-0.374861747 -0.4156222939 0.4072820246 6.368926744e-39
-0.4108165205 -0.2359918505 0.389251411 6.368926744e-39
0.01860379241 -0.7946196795 0.3043685555 6.368926744e-39
-0.2688993216 -0.8037139177 0.2573589087 6.368926744e-39
-0.3087981045 -0.3011943996 0.306142807 6.368926744e-39
-0.3840089738 -0.4362278283 0.423760891 6.186331949e-39
-0.3038425148 -0.4427445233 0.2949166298 6.186331949e-39
-0.3019156754 -0.4533982575 0.3083842695 6.186331949e-39
-0.2980619073 -0.4747057259 0.3353196681 6.186331949e-39
0.4493428469 -0.2228549421 0.4341029525 6.186331949e-39
-0.2951613367 -0.4082545936 0.3084109128 6.186331949e-39
-0.192926392 -0.8034716249 0.2859525681 6.186331949e-39
-0.2920909226 -0.4342773259 0.3032871187 6.186331949e-39
-0.3082263172 -0.3088788986 0.2968470752 6.003737154e-39
0.3835624456 -0.7607465982 0.1969393343 6.003737154e-39
-0.3206555247 -0.3158614933 0.277094841 6.003737154e-39
-0.1806030124 -0.8026889563 0.2850273252 6.003737154e-39
-0.2818847895 -0.4952304661 0.3613297343 6.003737154e-39
-0.2987394631 -0.4732210934 0.3239378929 6.003737154e-39
0.2863304615 -0.7699773908 0.2271046788 6.003737154e-39
0.4573047757 -0.2917540371 0.4166455269 6.003737154e-39
-0.3025932014 -0.4519136548 0.2970025837 5.820783626e-39
-0.09366177022 -0.7986947298 0.2899323106 5.820783626e-39
-0.4114940763 -0.2345072478 0.3778696954 5.820783626e-39
-0.2838116288 -0.4845767617 0.3478620648 5.820783626e-39
-0.4143529534 -0.196084708 0.4243484437 5.820783626e-39
-0.3118685186 -0.2751716673 0.3112666309 5.820783626e-39
0.4375912547 -0.2313221246 0.4257324636 5.820783626e-39
0.463149488 -0.4223889709 0.45815593 5.820783626e-39
-0.08133839071 -0.7979120016 0.2890070677 5.63818743e-39
0.4198550284 -0.7569139004 0.1827819198 5.63818743e-39
-0.4126376212 -0.2191382498 0.3964611888 5.63818743e-39
-0.3219048381 -0.3066923618 0.2750088871 5.63818743e-39
-0.3151922226 -0.366422385 0.2554655075 5.63818743e-39
-0.3164415359 -0.3572532535 0.2533795536 5.63818743e-39
-0.3095173836 -0.4045834541 0.2751910686 5.63818743e-39
0.2253910899 -0.7753754854 0.2431126386 5.63818743e-39
-0.3112967312 -0.2828561366 0.3019708991 5.455592635e-39
-0.2825623155 -0.4937458634 0.3499480188 5.455592635e-39
0.4468441904 -0.2045166939 0.4299310446 5.455592635e-39
-0.3059392273 -0.3396169245 0.2596640885 5.455592635e-39
-0.3071885407 -0.330447793 0.2575781345 5.455592635e-39
-0.3083321154 -0.315078795 0.2761695981 5.455592635e-39
-0.3107249737 -0.2905406654 0.2926751673 5.455592635e-39
-0.3985988796 -0.2414090633 0.3676487207 5.455592635e-39
-0.4014577866 -0.2029865235 0.4141274691 5.272997839e-39
0.4656481147 -0.4407272339 0.4623278677 5.272997839e-39
-0.3237259388 -0.2898387313 0.2822186351 5.272997839e-39
-0.2844891846 -0.483092159 0.3364803791 5.272997839e-39
-0.2921966612 -0.4404772222 0.2826096714 5.272997839e-39
-0.3742899895 -0.4233068228 0.3979862332 5.272997839e-39
-0.3220106065 -0.312892288 0.2543314397 5.272997839e-39
-0.2946953177 -0.422138989 0.2784377635 5.272997839e-39
-0.3266905844 -0.2576161027 0.3080199361 5.090401643e-39
-0.3691869378 -0.4537833929 0.4270075858 5.090401643e-39
0.4350925982 -0.2129838914 0.4215605557 5.090401643e-39
0.4722966552 -0.4017834663 0.4416770637 5.090401643e-39
-0.1066626906 -0.7979928255 0.2794758677 5.090401643e-39
-0.3255470097 -0.2729851305 0.2894284725 5.090401643e-39
-0.413315177 -0.2176536322 0.3850794733 5.090401643e-39
-0.3090096414 -0.3135941923 0.2647879124 5.090401643e-39
-0.2949914932 -0.5007284284 0.3301957846 4.907806848e-39
-0.4156022668 -0.1869156063 0.4222624898 4.907806848e-39
-0.3765130341 -0.4912425578 0.4362766743 4.907806848e-39
-0.2959446311 -0.4129698873 0.2763517797 4.907806848e-39
-0.3114025295 -0.2890560329 0.2812933922 4.907806848e-39
0.4523074925 -0.2550775707 0.4083016515 4.907806848e-39
0.08073079586 -0.6806834936 -0.5234416723 4.907806848e-39
-0.2449301183 -0.8006639481 0.2441266924 4.907806848e-39
-0.3090513647 -0.4184678495 0.2452178597 4.725212053e-39
0.1028348058 -0.7846870422 0.2637467384 4.725212053e-39
-0.2982888818 -0.7948870659 0.1795374304 4.725212053e-39
-0.3132236004 -0.2722024322 0.2885032296 4.725212053e-39
0.09305417538 -0.679900825 -0.5243669152 4.725212053e-39
-0.3119674027 -0.7927005291 0.1576992124 4.725212053e-39
-0.325652808 -0.2791850269 0.2687509954 4.725212053e-39
-0.3126518428 -0.2798869312 0.2792074382 4.725212053e-39
0.4320221841 -0.1869611442 0.4266843498 4.542257124e-39
-0.4134209454 -0.2238535285 0.3644020557 4.542257124e-39
0.3459147215 -0.7616100907 0.1883333772 4.542257124e-39
0.4405559003 -0.2635447979 0.3999311626 4.542257124e-39
-0.4151362777 -0.2008000016 0.3922892511 4.542257124e-39
-0.3109365106 -0.3029404581 0.2513202429 4.542257124e-39
0.4637212753 -0.4300734997 0.4488601983 4.542257124e-39
-0.3641896248 -0.4904598594 0.4353514314 4.542257124e-39
-0.3115500212 -0.4001296163 0.241045922 4.359662329e-39
-0.4061377347 -0.1477103531 0.4678159654 4.359662329e-39
-0.2989664376 -0.7934024334 0.1681557447 4.359662329e-39
-0.3067225516 -0.3443322182 0.2276048958 4.359662329e-39
0.2972987294 -0.7662254572 0.2034160346 4.359662329e-39
0.4436263144 -0.2895675302 0.3948073685 4.359662329e-39
0.4448756278 -0.2987366319 0.3968933225 4.359662329e-39
-0.2995227873 -0.4779364169 0.2918787599 4.359662329e-39
-0.3144729435 -0.2630333006 0.2864172757 4.177066133e-39
-0.3126449585 -0.7912158966 0.1463175267 4.177066133e-39
0.3822073638 -0.7577773929 0.174175933 4.177066133e-39
0.4325939715 -0.1946456432 0.417388618 4.177066133e-39
0.439306587 -0.2543756366 0.3978452086 4.177066133e-39
0.333591342 -0.7623927593 0.1892586201 4.177066133e-39
-0.3263303339 -0.2777003944 0.2573692799 4.177066133e-39
-0.3778681159 -0.4882733524 0.4135132134 4.177066133e-39
-0.4174233675 -0.1700619608 0.4294722378 3.994471337e-39
0.4504446983 -0.3430975974 0.3959414363 3.994471337e-39
-0.4039564133 -0.1846482903 0.4099555314 3.994471337e-39
-0.01514609903 -0.6928834915 -0.470512867 3.994471337e-39
-0.4140985012 -0.2223689109 0.3530202806 3.994471337e-39
0.1060550958 -0.6806027293 -0.5139104128 3.994471337e-39
-0.2852725089 -0.4878074229 0.3044211864 3.994471337e-39
0.4454890788 -0.2015474737 0.4071675837 3.994471337e-39
-0.2961561978 -0.4253696799 0.2349968553 3.81151781e-39
0.004247750156 -0.7909485102 0.2711486816 3.81151781e-39
-0.002822726965 -0.6921007633 -0.4714381099 3.81151781e-39
0.1021572649 -0.7832024097 0.2523650527 3.81151781e-39
-0.2202833295 -0.7990986109 0.2422762066 3.81151781e-39
-0.3036521375 -0.3703549504 0.2224811018 3.81151781e-39
0.3089446127 -0.7639581561 0.1911091059 3.81151781e-39
0.05811663717 -0.6867027283 -0.4874460101 3.81151781e-39
-0.03911532089 -0.6959334612 -0.4572806954 3.628921614e-39
0.4617944062 -0.4194197655 0.4353925288 3.628921614e-39
-0.3140069246 -0.276917696 0.256444037 3.628921614e-39
-0.1000546962 -0.7013315558 -0.4412727654 3.628921614e-39
0.02182404324 -0.6905354261 -0.4732885957 3.628921614e-39
-0.4040621817 -0.1908481866 0.3892780542 3.628921614e-39
-0.2859500647 -0.4863228202 0.2930395007 3.628921614e-39
0.4529433548 -0.3614358306 0.400113374 3.628921614e-39
-0.4034904242 -0.1985327005 0.3799823225 3.446326818e-39
-0.06308454275 -0.6989834905 -0.4440484941 3.446326818e-39
-0.2986548245 -0.4070314467 0.2308249474 3.446326818e-39
0.4416994452 -0.2789137959 0.381339699 3.446326818e-39
-0.301153481 -0.3886932135 0.2266530097 3.446326818e-39
0.430095315 -0.1763074398 0.4132167101 3.446326818e-39
0.0651871115 -0.7855504751 0.2551407814 3.446326818e-39
-0.4186726809 -0.1608928442 0.4273862839 3.446326818e-39
-0.4164913893 -0.1978307813 0.3695258498 3.26337189e-39
0.4282742143 -0.1594538093 0.4204264581 3.26337189e-39
0.4904076457 -0.7447947264 0.1203219146 3.26337189e-39
-0.2983792424 -0.4933054149 0.2732872367 3.26337189e-39
0.4448115528 -0.200062871 0.395785898 3.26337189e-39
-0.405777514 -0.1677946597 0.4171653092 3.26337189e-39
-0.3167102337 -0.7823082209 0.07802729309 3.26337189e-39
0.09508681297 -0.6843546629 -0.4902217388 3.26337189e-39
0.4306670725 -0.1839919239 0.4039209187 3.080777095e-39
0.4054990113 -0.7532428503 0.1495620161 3.080777095e-39
0.3568830192 -0.7578581572 0.1646446735 3.080777095e-39
-0.4182066917 -0.1747772694 0.397413075 3.080777095e-39
0.04054034501 -0.7871158123 0.2569912672 3.080777095e-39
-0.3169715703 -0.2446950674 0.282245338 3.080777095e-39
-0.1343146563 -0.7096180916 -0.3929702044 3.080777095e-39
0.1567037255 -0.6804412007 -0.4948479533 3.080777095e-39
-0.2749972641 -0.7903524637 0.1549234837 2.898180898e-39
-0.3159337938 -0.2662639916 0.2429763973 2.898180898e-39
-0.01311345398 -0.6973373294 -0.4363677502 2.898180898e-39
0.4330599606 -0.2085300535 0.3874154091 2.898180898e-39
-0.2322241664 -0.717364192 -0.3741865754 2.898180898e-39
0.4422712326 -0.286598295 0.3720439076 2.898180898e-39
-0.3030317426 -0.7844947577 0.09986542165 2.898180898e-39
0.44659096 -0.3217901587 0.3690060675 2.898180898e-39
-0.4053114951 -0.18167907 0.3871921003 2.715227371e-39
-0.3175433576 -0.2370105684 0.2915410697 2.715227371e-39
0.4270249009 -0.1502846777 0.4183405042 2.715227371e-39
-0.1459604651 -0.7118853927 -0.3806632459 2.715227371e-39
0.4410219193 -0.2774291635 0.3699579537 2.715227371e-39
0.1500957012 -0.7771024108 0.2259006351 2.715227371e-39
-0.1952540129 -0.7150161266 -0.3769622743 2.715227371e-39
0.4657608271 -0.7463601232 0.1221724004 2.715227371e-39
-0.1336371005 -0.7111027241 -0.3815884888 2.532632576e-39
-0.0364051275 -0.7018718719 -0.4117538333 2.532632576e-39
0.08344098926 -0.6866219044 -0.4779148102 2.532632576e-39
-0.1582838744 -0.7126680613 -0.379738003 2.532632576e-39
-0.4058832824 -0.173994571 0.3964878321 2.532632576e-39
-0.3037092686 -0.7830101252 0.08848373592 2.532632576e-39
-0.2438699901 -0.7196315527 -0.3618795872 2.532632576e-39
0.4566913247 -0.3889431953 0.4063712656 2.532632576e-39
0.3808522522 -0.7548081875 0.1514125019 2.349677647e-39
-0.2315466106 -0.7188488245 -0.3628048301 2.349677647e-39
-0.1963141263 -0.796048522 0.2290440351 2.349677647e-39
-0.07202018797 -0.7071892023 -0.3862147033 2.349677647e-39
0.4648648202 -0.4454425275 0.4302687347 2.349677647e-39
-0.2489953935 -0.7917562723 0.1758364588 2.349677647e-39
-0.02175412327 -0.7895447016 0.2502357364 2.349677647e-39
0.1987116933 -0.7724870443 0.2108179778 2.349677647e-39
0.488676697 -0.04663871229 -0.003968343139 2.167082852e-39
-0.4183124602 -0.1809771508 0.3767356277 2.167082852e-39
-0.09637196362 -0.7927562594 0.2444054931 2.167082852e-39
0.3322362602 -0.7594236135 0.1664951593 2.167082852e-39
-0.1463430673 -0.7944024205 0.236724779 2.167082852e-39
-0.3186869025 -0.2216415405 0.3101325631 2.167082852e-39
0.1254489571 -0.7786678076 0.2277511209 2.167082852e-39
-0.3171831369 -0.2570948601 0.2408904135 2.167082852e-39
-0.2308690697 -0.720333457 -0.3514231443 1.984127923e-39
-0.1839907467 -0.7952658534 0.2281187922 1.984127923e-39
-0.404845506 -0.1955634803 0.3572189212 1.984127923e-39
0.120411098 -0.684273839 -0.4806905389 1.984127923e-39
-0.2062222809 -0.7187680006 -0.3532736301 1.984127923e-39
-0.3316878676 -0.2209396362 0.2996760905 1.984127923e-39
0.4890525341 -0.7418254614 0.09755845368 1.984127923e-39
-0.2229935229 -0.7931601405 0.1967493743 1.984127923e-39
-0.1815755516 -0.7172026634 -0.3551241159 1.801533128e-39
0.01288841479 -0.698741138 -0.4154548049 1.801533128e-39
0.4937797487 -0.07711529732 0.02505297214 1.801533128e-39
-0.30041188 -0.4888516068 0.2391421497 1.801533128e-39
0.4446640909 -0.3111364245 0.355538398 1.801533128e-39
0.4591899514 -0.4072814286 0.4105431736 1.801533128e-39
-0.4184182286 -0.1871770471 0.3560582101 1.801533128e-39
0.4763533473 -0.04742141068 -0.003043100238 1.801533128e-39
0.4936739802 -0.08331516385 0.004375509918 1.618578199e-39
-0.2301915288 -0.7218180895 -0.340041399 1.618578199e-39
-0.2099926025 -0.7938620448 0.2072058171 1.618578199e-39
0.09644190967 -0.6873238683 -0.4674583673 1.618578199e-39
0.4944573045 -0.07859990001 0.03643469512 1.618578199e-39
-0.1341621876 -0.06472733617 -0.05084584653 1.618578199e-39
-0.2178681493 -0.7210353613 -0.3409666419 1.618578199e-39
-0.1322353184 -0.07538107038 -0.03737816215 1.618578199e-39
0.4390950203 -0.2667754591 0.3564902842 1.435982003e-39
-0.3193644583 -0.2201569378 0.2987508476 1.435982003e-39
-0.109372884 -0.7920543551 0.2339490503 1.435982003e-39
-0.03475504369 -0.7888427973 0.2397792786 1.435982003e-39
0.4926362038 -0.06174626946 0.04364446551 1.435982003e-39
-0.1354115009 -0.05555821955 -0.05293181539 1.435982003e-39
0.2103575319 -0.7702196836 0.1985110492 1.435982003e-39
0.4887824655 -0.04043883085 0.01670911908 1.435982003e-39
-0.2920634747 -0.7807428837 0.07617680728 1.253028475e-39
-0.2904533148 -0.728700757 -0.312651813 1.253028475e-39
-0.04601830617 -0.7085930109 -0.3653017879 1.253028475e-39
0.4560137987 -0.3874585927 0.3949894905 1.253028475e-39
0.4945630729 -0.07240000367 0.05711212382 1.253028475e-39
-0.301089406 -0.4873669744 0.227760464 1.253028475e-39
0.4347752929 -0.2315835804 0.3595281243 1.253028475e-39
-0.3207755089 -0.7734005451 0.009737044573 1.253028475e-39
-0.1685746014 -0.7179045677 -0.3446676135 1.070432279e-39
-0.03443153948 -0.07383483648 -0.07683928311 1.070432279e-39
0.07615542412 -0.7817986012 0.2314520925 1.070432279e-39
-0.1360890567 -0.05407360196 -0.06431351602 1.070432279e-39
0.495029062 -0.08628439903 0.02713893354 1.070432279e-39
0.4471627474 -0.3294746578 0.3597103357 1.070432279e-39
-0.2893378139 -0.4788997769 0.2361309528 1.070432279e-39
-0.02335748821 -0.06388300657 -0.07985049486 1.070432279e-39
-0.03568086028 -0.06466570497 -0.07892525196 8.874787512e-40
0.2952660918 -0.7617716789 0.169270888 8.874787512e-40
0.463352412 -0.04671949148 -0.01349955797 8.874787512e-40
-0.120695211 -0.07931366563 -0.0703625977 8.874787512e-40
-0.06032762676 -0.06623107195 -0.07707476616 8.874787512e-40
-0.07265102118 -0.06701377034 -0.07614952326 8.874787512e-40
-0.05907831341 -0.07540020347 -0.07498879731 8.874787512e-40
-0.09463430941 -0.713208437 -0.3502190709 8.874787512e-40
-0.1201875433 0.01167559624 -0.08076573908 7.045238224e-40
0.4641872644 -0.443957895 0.4188870192 7.045238224e-40
0.4845786393 -0.359211117 0.2193059921 7.045238224e-40
-0.07140169293 -0.07618290186 -0.07406355441 7.045238224e-40
0.4629379213 -0.4347887933 0.4168010652 7.045238224e-40
-0.23734954 -0.7894889712 0.1635295302 7.045238224e-40
0.4293119907 -0.1810227036 0.3811575174 7.045238224e-40
0.4616886079 -0.4256196618 0.4147151113 7.045238224e-40
-0.02137153596 -0.7070276737 -0.3671522439 5.219290273e-40
-0.1302026808 -0.07983487844 -0.00323304534 5.219290273e-40
-0.0962183103 0.01472559571 -0.09399794042 5.219290273e-40
-0.1367665827 -0.05258899927 -0.07569523156 5.219290273e-40
-0.0847261399 -0.7904889584 0.2320985645 5.219290273e-40
0.001289285719 -0.06231760979 -0.08170098066 5.219290273e-40
-0.2783850133 -0.7829294205 0.09801493585 5.219290273e-40
-0.1303084195 -0.08603480458 -0.02391050756 5.219290273e-40
-0.3248408139 -0.764492929 -0.05855320394 3.389740985e-40
-0.3329372108 -0.2117705047 0.2975901365 3.389740985e-40
0.04985855892 -0.6963930726 -0.4182305336 3.389740985e-40
-0.3261958957 -0.7615237236 -0.08131664991 3.389740985e-40
-0.197669223 -0.7930793762 0.2062805742 3.389740985e-40
-0.1429074407 -0.0005435049534 -0.06544758379 3.389740985e-40
-0.1064449921 -0.08918470144 -0.05782015622 3.389740985e-40
0.4496613741 -0.3478129208 0.3638822436 3.389740985e-40
-0.08321738988 0.01402367651 -0.08354146779 1.56020571e-40
-0.1244431809 -0.05180633068 -0.07662047446 1.56020571e-40
-0.04534075782 -0.7100776434 -0.3539200425 1.56020571e-40
-0.2934185565 -0.7777736187 0.05341340601 1.56020571e-40
0.3432045281 -0.7556716204 0.1428065151 1.56020571e-40
0.002215104178 -0.7864947319 0.2370035499 1.56020571e-40
-0.1296308935 -0.08751940727 -0.01252880692 1.56020571e-40
-0.2534831762 -0.7263526917 -0.3154275417 1.56020571e-40
-0.1678970456 -0.7193892002 -0.3332859278 6.490113838e-41
-0.1555736959 -0.718606472 -0.3342111707 6.490113838e-41
0.4256697893 -0.1473154426 0.3955770433 6.490113838e-41
-0.2790625393 -0.781444788 0.08663325012 6.490113838e-41
0.4963841736 -0.08925360441 0.04990234971 6.490113838e-41
-0.1121198162 -0.05102363229 -0.07754571736 6.490113838e-41
-0.08186229318 0.01105445623 -0.06077803671 6.490113838e-41
-0.2900153399 -0.4774151444 0.2247492373 6.490113838e-41
0.1464129984 -0.6856777072 -0.4597775936 2.496469266e-40
0.1733873487 -0.772567749 0.2012867779 2.496469266e-40
0.4274356067 -0.7457389832 0.1021846682 2.496469266e-40
0.4540994465 -0.07352495193 -0.01769812405 2.496469266e-40
0.4959181845 -0.07536920905 0.07987554371 2.496469266e-40
-0.1289533377 -0.08900400996 -0.001147083938 2.496469266e-40
-0.05789306015 0.01410444081 -0.07401025295 2.496469266e-40
0.45140481 -0.7426890135 0.08895249665 2.496469266e-40
0.05053610727 -0.6978777051 -0.4068488479 4.340353837e-40
-0.2887659967 -0.486584276 0.2268352211 4.340353837e-40
-0.2380270958 -0.7880043387 0.152147755 4.340353837e-40
-0.2940961123 -0.7762890458 0.04203164577 4.340353837e-40
-0.3125174046 -0.7637102604 -0.05947844684 4.340353837e-40
-0.2288364321 -0.7247872353 -0.3172780275 4.340353837e-40
0.4503514767 -0.04601755738 -0.02395601571 4.340353837e-40
-0.3091296554 -0.7711333036 -0.002569898963 4.340353837e-40
0.4280626774 -0.1718536019 0.3790715337 6.184224396e-40
-0.2165130526 -0.7240045667 -0.3182032406 6.184224396e-40
-0.1423356533 -0.00822801888 -0.07474333048 6.184224396e-40
0.03918524832 -0.7841466665 0.2342278212 6.184224396e-40
0.4153672755 -0.6915103197 -0.3084820807 6.184224396e-40
0.1001246125 -0.7787485719 0.218219921 6.184224396e-40
-0.04692476988 0.01785635948 -0.09769891202 6.184224396e-40
0.4384174645 -0.2652908564 0.3451085985 6.184224396e-40
-0.04489212483 0.01340253651 -0.06355376542 8.028094954e-40
0.4882106781 -0.03275433183 0.02600488067 8.028094954e-40
0.4125649035 -0.2150755376 -0.1080737859 8.028094954e-40
-0.319576025 -0.2325567305 0.2573959231 8.028094954e-40
0.4063182771 -0.1692299545 -0.1185036004 8.028094954e-40
0.4971674979 -0.08453834057 0.08196151257 8.028094954e-40
0.01678885147 -0.08135777712 -0.06707257032 8.028094954e-40
-0.0202453807 0.0149679184 -0.06540425122 8.028094954e-40
-0.1430132091 -0.00674341619 -0.08612504601 9.871979525e-40
-0.02092292905 0.01645252109 -0.07678598166 9.871979525e-40
-0.0216004774 0.01793713868 -0.08816768229 9.871979525e-40
0.1963840276 -0.6840315461 -0.4520968795 9.871979525e-40
0.02724442817 -0.7024122477 -0.382234931 9.871979525e-40
0.4869074225 -0.2850754857 0.201693058 9.871979525e-40
-0.2987114489 -0.7383911014 -0.2434362918 9.871979525e-40
-0.321185559 -0.2033033073 0.3059606254 9.871979525e-40
0.03825942799 -0.05996954441 -0.08447670937 1.171585008e-39
-0.2528056204 -0.7278372645 -0.3040457964 1.171585008e-39
-0.2877431214 -0.7346391678 -0.2671249509 1.171585008e-39
-0.09287225455 -0.09757113457 -0.05665943027 1.171585008e-39
0.4371681511 -0.2561217248 0.3430226445 1.171585008e-39
-0.2906928957 -0.4759305418 0.213367492 1.171585008e-39
-0.1425727308 -0.7193084359 -0.323754698 1.171585008e-39
0.4977392554 -0.09222283959 0.07266578078 1.171585008e-39
-0.1306897998 -0.005960732698 -0.08705028892 1.355972064e-39
-0.00859952718 0.01723521948 -0.07771122456 1.355972064e-39
0.1717372984 -0.6855969429 -0.4502463937 1.355972064e-39
0.4862838089 -0.02210058272 0.01253718883 1.355972064e-39
0.2582959831 -0.7641197443 0.1720466167 1.355972064e-39
-0.03233984113 -0.7107795477 -0.3434635997 1.355972064e-39
0.01559860632 -0.7046796083 -0.3699279726 1.355972064e-39
-0.1277040243 -0.09817311168 0.0009388774633 1.355972064e-39
0.4385998249 -0.0544847697 -0.03232653439 1.540360521e-39
-0.308324635 -0.7451122403 -0.1969842315 1.540360521e-39
-0.3001940548 -0.7629275322 -0.06040368974 1.540360521e-39
-0.01893197 -0.09287497401 -0.06221088767 1.540360521e-39
-0.2870655656 -0.7361238003 -0.2557432652 1.540360521e-39
-0.1270264685 -0.09965774417 0.0123205781 1.540360521e-39
-0.1263489425 -0.1011423469 0.02370230108 1.540360521e-39
-0.006608597934 -0.09209227562 -0.06313611567 1.540360521e-39
0.4708483517 -0.1017341912 -0.0009837821126 1.724747577e-39
0.4328484237 -0.2209298611 0.3460604846 1.724747577e-39
0.08615118265 -0.6925603747 -0.4323879778 1.724747577e-39
-0.09772706032 -0.7897870541 0.2216420919 1.724747577e-39
0.4979508221 -0.07982304692 0.114020668 1.724747577e-39
0.04933347553 -0.0500177443 -0.08748790622 1.724747577e-39
0.4410984814 -0.07282301784 -0.02815459669 1.724747577e-39
-0.02102869749 0.01025263965 -0.09746344388 1.724747577e-39
-0.1274924874 -0.08577331901 0.0422937721 1.909134633e-39
0.02837061882 0.01958329976 -0.08048695326 1.909134633e-39
0.05183212459 -0.06835597754 -0.08331598341 1.909134633e-39
0.4914926589 -0.04637727141 0.06223596632 1.909134633e-39
-0.2158355117 -0.7254891396 -0.3068215251 1.909134633e-39
0.2217083722 -0.6839507818 -0.4425656497 1.909134633e-39
-0.1133691445 -0.04185450077 -0.07963168621 1.909134633e-39
-0.1376986206 -0.02482019365 -0.01574882865 1.909134633e-39
0.04143562168 -0.07979238033 -0.06892305613 2.09352309e-39
-0.1911887378 -0.7239238024 -0.3086720109 2.09352309e-39
-0.05630907044 -0.713829577 -0.3302313983 2.09352309e-39
-0.09371965379 -0.003612652421 -0.08982601762 2.09352309e-39
0.02792197466 -0.7038968801 -0.3708532155 2.09352309e-39
0.0629061982 -0.05840414762 -0.08632719517 2.09352309e-39
0.4384039044 -0.7419870496 0.07849602401 2.09352309e-39
0.4831075966 -0.002277731895 -0.00301643461 2.09352309e-39
-0.320253551 -0.2310721278 0.2460142374 2.277910146e-39
-0.1788653731 -0.7231410742 -0.3095972538 2.277910146e-39
0.453409344 -0.3753202558 0.3701401353 2.277910146e-39
0.4671420753 0.0306468159 0.01232838631 2.277910146e-39
0.4623730779 -0.7389370799 0.06526385248 2.277910146e-39
-0.04398566857 -0.7130469084 -0.331156671 2.277910146e-39
0.4144346416 -0.7450370789 0.09172822535 2.277910146e-39
-0.2857104838 -0.7390930057 -0.2329798341 2.277910146e-39
-0.4219546616 -0.1472698897 0.3911551833 2.462297202e-39
0.06601831317 0.02044676244 -0.07188095152 2.462297202e-39
0.4089226723 -0.1813682914 -0.09365420789 2.462297202e-39
-0.2817727327 -0.7755063772 0.04110640287 2.462297202e-39
0.4989885986 -0.1013919711 0.07475173473 2.462297202e-39
-0.08872237056 -0.04028910398 -0.08148217201 2.462297202e-39
-0.136343509 -0.02778941393 0.007014602423 2.462297202e-39
-0.1330615282 -0.04141233861 0.04324568063 2.462297202e-39
-0.2871931195 -0.7636294365 -0.04994723201 2.646685659e-39
0.4940970838 -0.05851560831 0.08708535135 2.646685659e-39
-0.1257771552 -0.1088268757 0.01440654695 2.646685659e-39
-0.2851604819 -0.768083334 -0.015802145 2.646685659e-39
0.03576078266 -0.04163131118 -0.08864863217 2.646685659e-39
0.45414114 0.03134873509 0.00187189877 2.646685659e-39
-0.06636268646 -0.007985711098 -0.04614965618 2.646685659e-39
0.006328262389 0.005879580975 -0.05378708243 2.646685659e-39
0.4688574076 0.007593289018 -0.01555888355 2.830713982e-39
0.4874792099 -0.2927599847 0.1923972666 2.830713982e-39
0.05375899374 -0.07900968194 -0.06984829903 2.830713982e-39
0.4988828301 -0.1075918674 0.05407427996 2.830713982e-39
0.4334201813 -0.2286143601 0.3367647529 2.830713982e-39
-0.1356659532 -0.02927401662 0.01839630306 2.830713982e-39
0.4540353715 0.02514883876 -0.01880556345 2.830713982e-39
-0.1260944605 -0.1274265647 -0.04762580991 2.830713982e-39
0.4076733589 -0.1721991599 -0.09574017674 3.015101038e-39
-0.02710545808 -0.03637564182 -0.08610838652 3.015101038e-39
0.4260805249 -0.7427697182 0.07942126691 3.015101038e-39
0.07834171504 0.02122946084 -0.07280619442 3.015101038e-39
0.01594147459 0.01260070503 -0.1002391726 3.015101038e-39
-0.2831278443 -0.7725371122 0.01834301651 3.015101038e-39
0.4500497282 -0.7397197485 0.06618909538 3.015101038e-39
-0.04442612082 -0.0004818886518 -0.09352698922 3.015101038e-39
0.4825358391 0.00540676713 0.006279304624 3.199488094e-39
0.4819101393 -0.2483990192 0.1933492124 3.199488094e-39
0.1847382039 -0.6862988472 -0.439789921 3.199488094e-39
-0.03942883015 -0.03715834022 -0.08518314362 3.199488094e-39
-0.05465278774 -0.1043921709 -0.05734919012 3.199488094e-39
-0.285032928 -0.7405775785 -0.2215981036 3.199488094e-39
-0.1022950634 -0.03190270066 -0.08264289796 3.199488094e-39
-0.1336333156 -0.03372785449 0.05254141986 3.199488094e-39
-0.2946461439 -0.7472987175 -0.1751460433 3.383517819e-39
-0.06407559663 -0.038723737 -0.08333265781 3.383517819e-39
0.01865166798 0.006662264466 -0.05471232533 3.383517819e-39
-0.1298853457 -0.06123518944 0.05879931152 3.383517819e-39
0.4813922942 0.02077578008 0.02487079799 3.383517819e-39
-0.08976016194 -0.0187202096 -0.04221321642 3.383517819e-39
0.1117704362 -0.7764812708 0.2059129626 3.383517819e-39
-0.4209168851 -0.1688388288 0.3518862724 3.383517819e-39
-0.02939255536 -0.00563763082 -0.04892538488 3.567904875e-39
0.5005552173 -0.09196138382 0.1388700604 3.567904875e-39
0.4255640209 -0.1535153538 0.3748996258 3.567904875e-39
0.4310783744 -0.6981506944 -0.2524987757 3.567904875e-39
-0.1286360323 -0.07040432096 0.06088527292 3.567904875e-39
-0.007455974817 0.001866191626 -0.09630271792 3.567904875e-39
-0.1261373758 -0.08874255419 0.06505719572 3.567904875e-39
-0.101447694 -0.1258611679 -0.04947629571 3.567904875e-39
0.4996661544 -0.1028765738 0.08613343537 3.75229193e-39
0.4928477705 -0.04934649169 0.08499938995 3.75229193e-39
-0.09037361294 -0.115909338 -0.05248750746 3.75229193e-39
-0.2274813354 -0.7277565002 -0.2945145965 3.75229193e-39
-0.08997169882 -0.03112000227 -0.08356812596 3.75229193e-39
0.458435297 -0.7025237083 -0.2088223994 3.75229193e-39
-0.2932910621 -0.7502679825 -0.1523826271 3.75229193e-39
-0.4090594649 -0.1541717201 0.3809342086 3.75229193e-39
-0.1233425513 -0.02849131823 0.01747106016 3.936320254e-39
-0.05563152209 -0.7153141499 -0.3188496828 3.936320254e-39
0.4133481979 -0.2103602588 -0.07601462305 3.936320254e-39
-0.07805024832 -0.1151266694 -0.05341275036 3.936320254e-39
0.02859952301 -0.7053815126 -0.3594714999 3.936320254e-39
-0.03536354005 -0.04606600106 -0.0168928802 3.936320254e-39
0.08880230039 -0.06600791216 -0.08609171212 3.936320254e-39
-0.1265604496 -0.1135421395 -0.0176526159 3.936320254e-39
-0.07550989836 -0.02859121561 -0.02967080474 4.120708711e-39
0.1477680951 -0.6886469126 -0.4370141923 4.120708711e-39
-0.0776483193 -0.03033730388 -0.08449336886 4.120708711e-39
0.4616955221 -0.737452507 0.05388216674 4.120708711e-39
-0.2762248218 -0.7598775625 -0.07363592088 4.120708711e-39
-0.1219874546 -0.03146053851 0.04023447633 4.120708711e-39
0.09944707155 -0.7772639394 0.2068382055 4.120708711e-39
0.4824819267 -0.2560835183 0.184053421 4.120708711e-39
0.4883164465 -0.02655440569 0.04668231308 4.304737034e-39
-0.01603140682 -0.02642384171 -0.08911958337 4.304737034e-39
0.08630365133 -0.04766964912 -0.09026363492 4.304737034e-39
0.3658187091 -0.7496523857 0.1068108827 4.304737034e-39
0.006964124739 -0.1004787087 -0.06197540462 4.304737034e-39
0.4832133949 0.003922149539 0.01766102761 4.304737034e-39
-0.2920480072 -0.4729613364 0.1906040907 4.304737034e-39
-0.1258829236 -0.1150267422 -0.00627091527 4.304737034e-39
-0.04108009487 -0.1127785742 -0.05618847907 4.48912409e-39
-0.1242104992 -0.09939628839 0.07852488756 4.48912409e-39
0.4844627082 -0.005246967077 0.01974698901 4.48912409e-39
-0.2782574594 -0.7554237247 -0.1077810228 4.48912409e-39
-0.02875670046 -0.1119958758 -0.05711372197 4.48912409e-39
0.3900429308 -0.691591084 -0.3180132806 4.48912409e-39
-0.08014696091 -0.01199907064 -0.08866530657 4.48912409e-39
-0.1278527081 -0.06568902731 0.09294443578 4.48912409e-39
0.4044971764 -0.1523763388 -0.1112938225 4.673152414e-39
0.4180774689 -0.6974487305 -0.2629552186 4.673152414e-39
0.4937258065 -0.3386055827 0.202827096 4.673152414e-39
-0.1000925973 -0.1288304031 -0.02671287954 4.673152414e-39
-0.09869577736 -0.02692593634 0.01562057436 4.673152414e-39
-0.1252053678 -0.1165113449 0.005110807717 4.673152414e-39
0.05562181026 0.009010344744 -0.05748805404 4.673152414e-39
0.4909208715 -0.03869275749 0.07153169811 4.673152414e-39
-0.07290548831 -0.04072956741 -0.004821404815 4.857539469e-39
-0.1223894134 -0.1162499189 0.07131508738 4.857539469e-39
0.4043989778 -0.6952621937 -0.2847934067 4.857539469e-39
-0.1200605854 -0.04211425781 0.05370213836 4.857539469e-39
-0.1238502786 -0.1194805801 0.02787423134 4.857539469e-39
0.2853579521 -0.6844911575 -0.4130467176 4.857539469e-39
0.05291161686 0.01494878531 -0.1030149013 4.857539469e-39
-0.1867009401 -0.789327383 0.1825919598 4.857539469e-39
0.4955469072 -0.3554592133 0.1956173182 5.041567793e-39
0.4151692986 -0.2272138894 -0.08322440088 5.041567793e-39
-0.004109956324 -0.1104305089 -0.05896419287 5.041567793e-39
0.001606605947 -0.04371793568 -0.0196686089 5.041567793e-39
-0.0275073722 -0.1211650074 -0.05502775311 5.041567793e-39
0.007366046309 -0.01568932831 -0.09305603802 5.041567793e-39
-0.1217118576 -0.1177345216 0.08269681036 5.041567793e-39
0.08712369204 -0.778046608 0.2077634484 5.041567793e-39
-0.2816451788 -0.7480006814 -0.1646895707 5.225597518e-39
0.4868016541 -0.291275382 0.1810155809 5.225597518e-39
-0.03098474443 -0.7137488127 -0.3207001686 5.225597518e-39
-0.05147659034 -0.1242150068 -0.04179556668 5.225597518e-39
0.4865594804 -0.108374536 0.05499952286 5.225597518e-39
-0.2133803517 -0.786438942 0.1502972692 5.225597518e-39
0.1134490371 -0.06444251537 -0.08794219792 5.225597518e-39
0.09982964396 -0.6947469711 -0.4105498195 5.225597518e-39
-0.2809676528 -0.7494852543 -0.15330787 5.409984573e-39
-0.01389299333 -0.02467775345 -0.03429700434 5.409984573e-39
-0.0346859917 -0.04755060375 -0.005511172116 5.409984573e-39
0.482747376 0.0178065598 0.04763422161 5.409984573e-39
0.4880509675 -0.3004445136 0.1831015348 5.409984573e-39
-0.2544157803 -0.7798793912 0.08478276432 5.409984573e-39
-0.1241047308 -0.09319639206 0.09920231998 5.409984573e-39
0.5010212064 -0.105845809 0.108896859 5.409984573e-39
-0.2268037945 -0.7292411327 -0.2831328511 5.594012897e-39
0.06523498893 0.0157314837 -0.1039401293 5.594012897e-39
-0.1110608652 -0.1325823069 -0.003024235368 5.594012897e-39
0.1030525416 -0.07587891817 -0.07354927063 5.594012897e-39
0.008213445544 -0.1096478105 -0.05988945067 5.594012897e-39
-0.2713544965 -0.7427641153 -0.1997599602 5.594012897e-39
-0.10966409 -0.03067785501 0.03930923343 5.594012897e-39
0.494880408 -0.05380032957 0.1191445068 5.594012897e-39
0.3496850431 -0.6865161061 -0.3721460998 5.77804122e-39
-0.1228554025 -0.1023655236 0.1012882814 5.77804122e-39
-0.02378676459 -0.7850908637 0.2160906345 5.77804122e-39
0.4849872589 -0.7329178452 0.02926822007 5.77804122e-39
0.005307847634 -0.7099161148 -0.3348576128 5.77804122e-39
-0.05079904944 -0.1256996393 -0.03041383624 5.77804122e-39
0.04683483019 -0.03167948127 -0.09165984392 5.77804122e-39
0.1484456509 -0.6901315451 -0.4256324768 5.77804122e-39
0.01200310886 -0.03228151798 -0.03406153619 5.962428276e-39
-0.1158933491 -0.722196877 -0.2914600372 5.962428276e-39
-0.214480415 -0.7284584045 -0.284058094 5.962428276e-39
-0.1035699397 -0.7214142084 -0.2923852801 5.962428276e-39
0.1109503955 -0.04610428214 -0.09211412072 5.962428276e-39
0.2730345726 -0.6852738261 -0.4121214747 5.962428276e-39
0.4014337361 -0.7443351746 0.08127175272 5.962428276e-39
0.4834249318 0.01632195711 0.05901592225 5.962428276e-39
-0.2407372892 -0.782065928 0.1066209823 6.1464566e-39
0.4120262265 -0.04539643228 -0.04394371808 6.1464566e-39
0.1121530235 -0.6939642429 -0.4114750624 6.1464566e-39
0.3633635342 -0.6887026429 -0.3503079414 6.1464566e-39
-0.4215944409 -0.1673542112 0.3405045271 6.1464566e-39
0.0094627738 -0.118816942 -0.05780348182 6.1464566e-39
-0.1090282276 -0.1370361447 0.03112091124 6.1464566e-39
0.04454773292 -0.0009414702654 -0.05447684228 6.1464566e-39
0.4603335261 -0.4226504564 0.3919516504 6.330484923e-39
0.4158468544 -0.2286984921 -0.07184270024 6.330484923e-39
0.4495556355 -0.3540127873 0.3432048261 6.330484923e-39
0.4267075658 -0.1688843817 0.3563081622 6.330484923e-39
0.4325230718 -0.101113081 -0.02097147703 6.330484923e-39
0.3113597929 -0.6858949661 -0.3921337724 6.330484923e-39
0.09197849035 -0.08583074808 -0.07053805888 6.330484923e-39
0.2230634689 -0.6869200468 -0.4198022187 6.330484923e-39
0.05625764281 -0.09734791517 -0.06567637622 6.514514648e-39
-0.2487403452 -0.7367449403 -0.2357555628 6.514514648e-39
0.502376318 -0.1088150144 0.1316602826 6.514514648e-39
-0.1083506718 -0.1385207474 0.04250261188 6.514514648e-39
0.1005071998 -0.696231544 -0.3991681039 6.514514648e-39
0.4841024876 0.01483733952 0.07039764524 6.514514648e-39
-0.00218307972 -0.1210842431 -0.04549653828 6.514514648e-39
-0.09738240391 -0.1347688437 0.01881394535 6.514514648e-39
0.04518359154 -0.1072997451 -0.06266516447 6.698542971e-39
0.08988176286 0.01729686558 -0.1057906151 6.698542971e-39
-0.119213216 -0.1360727549 0.08686873317 6.698542971e-39
-0.1148517504 -0.06639096141 0.1034009084 6.698542971e-39
-0.1198907718 -0.1345881522 0.07548701018 6.698542971e-39
0.1139567271 0.02654676139 -0.0983453393 6.698542971e-39
-0.09602730721 -0.137738049 0.04157736897 6.698542971e-39
-0.4103088081 -0.1450025886 0.3788482249 6.698542971e-39
0.4342451692 -0.1190254018 0.3883939087 6.882571295e-39
0.09737770259 -0.03771784902 -0.09327484667 6.882571295e-39
0.487744689 -0.01886990666 0.05597807467 6.882571295e-39
-0.1038834825 -0.06263902783 0.07971224934 6.882571295e-39
0.4969130456 -0.05825415254 0.153289631 6.882571295e-39
0.4213500619 -0.1121236011 0.398614943 6.882571295e-39
0.06919450313 0.0006239116192 -0.05632732809 6.882571295e-39
0.3243607283 -0.6865968704 -0.3816773295 6.882571295e-39
-0.08444554359 -0.03679697216 0.02816298604 7.066599618e-39
0.1491698921 -0.05292531848 -0.09280389547 7.066599618e-39
0.405852288 -0.1553455591 -0.08853039891 7.066599618e-39
0.08886137605 -0.6984988451 -0.3868611455 7.066599618e-39
0.4331110418 -0.7026045322 -0.2183536142 7.066599618e-39
0.3033721149 -0.2325446755 0.3046700358 7.066599618e-39
0.4741464853 -0.709164083 -0.1528391093 7.066599618e-39
0.4141315222 -0.2056449801 -0.04395546764 7.066599618e-39
0.3891103566 -0.7451178432 0.08219699562 7.250627941e-39
0.4019985199 -0.1340380907 -0.1154657528 7.250627941e-39
-0.05427642539 -0.7182834148 -0.2960862517 7.250627941e-39
-0.1186414436 -0.1437572837 0.07757297158 7.250627941e-39
-0.001505531371 -0.1225688756 -0.03411480784 7.250627941e-39
-0.1028923988 -0.7228987813 -0.2810035944 7.250627941e-39
0.04579705745 -0.01011058688 -0.05239087343 7.250627941e-39
0.4823761284 -0.2622834146 0.1633759737 7.250627941e-39
0.04308686405 -0.00417214632 -0.09791772068 7.434656265e-39
-0.09056901932 -0.7221161127 -0.2819288373 7.434656265e-39
-0.1521859467 -0.7260295153 -0.2773026228 7.434656265e-39
0.3920755684 -0.6960449219 -0.2838681638 7.434656265e-39
0.4103835523 -0.1781376004 -0.05021336302 7.434656265e-39
-0.06041225046 -0.1324207783 0.0160382241 7.434656265e-39
-0.1891560853 -0.7283776402 -0.2745268941 7.434656265e-39
0.1860933006 -0.6892681122 -0.41702649 7.434656265e-39
0.4718849063 0.02025455236 0.09200032055 7.618684588e-39
0.3990252912 -0.04469451308 -0.05440019071 7.618684588e-39
0.446454823 0.01397389174 0.06179164723 7.618684588e-39
0.220648244 -0.7649831772 0.1634406596 7.618684588e-39
0.05665958673 -0.01255856454 -0.09675700963 7.618684588e-39
-0.09416449815 -0.04971802235 0.05393761396 7.618684588e-39
-0.1184298918 -0.1313574612 0.118927896 7.618684588e-39
0.4948693514 -0.3539746106 0.1842356026 7.618684588e-39
0.4123104215 -0.1887913346 -0.03674567118 7.802712912e-39
0.4084566832 -0.167483896 -0.06368102133 7.802712912e-39
0.4201101065 -0.7019025683 -0.2288101017 7.802712912e-39
0.1627425849 -0.0613117516 -0.09164316952 7.802712912e-39
-0.2563208938 -0.7479199171 -0.1551583558 7.802712912e-39
0.4313154519 0.01292972267 -0.003487385809 7.802712912e-39
-0.1056404784 -0.144459188 0.08802945912 7.802712912e-39
0.4871729016 -0.01118539274 0.06527380645 7.802712912e-39
-0.04911105707 -0.785171628 0.2065594345 7.986382503e-39
-0.1025283858 -0.06560826302 0.102475673 7.986382503e-39
0.3783971071 -0.6938583851 -0.305706352 7.986382503e-39
0.4319930077 0.01144510508 0.007894314826 7.986382503e-39
0.3927531242 -0.6975295544 -0.2724864483 7.986382503e-39
0.5037314296 -0.1117842495 0.1544237137 7.986382503e-39
-0.083026357 -0.1384399533 0.05203381926 7.986382503e-39
-0.09908215702 -0.7868177891 0.198878631 7.986382503e-39
-0.2357394397 -0.7374468446 -0.2252990752 8.170410826e-39
0.4489117563 -0.1092380285 0.04639355093 8.170410826e-39
0.4836321473 -0.7299486399 0.006504833698 8.170410826e-39
-0.1202509925 -0.1145038307 0.126137659 8.170410826e-39
-0.09467221051 -0.1407072842 0.06434078515 8.170410826e-39
0.02381878719 -0.1224880815 -0.02458360791 8.170410826e-39
-0.2131253183 -0.7314276099 -0.2612947226 8.170410826e-39
0.4071091712 -0.701200664 -0.2392665595 8.170410826e-39
0.5022705197 -0.1150149405 0.1109828204 8.35443915e-39
0.4898720682 -0.3172981143 0.175891757 8.35443915e-39
0.5044089556 -0.1132688522 0.1658053994 8.35443915e-39
0.05943383276 -0.1171707809 -0.05012275279 8.35443915e-39
0.4236371517 -0.1428616196 0.3614319563 8.35443915e-39
0.4325647652 0.003760620952 -0.001401424408 8.35443915e-39
-0.008684150875 -0.04895442724 0.0154017657 8.35443915e-39
0.4338140786 -0.005408495665 0.0006845369935 8.35443915e-39
0.09113108367 0.008127734065 -0.1037046611 8.538467473e-39
0.4725624621 0.01876993477 0.103382051 8.538467473e-39
0.4755015671 -0.7121332884 -0.130075708 8.538467473e-39
0.3767869771 -0.7459005117 0.08312223852 8.538467473e-39
-0.2240936011 -0.7351795435 -0.2376060486 8.538467473e-39
0.07107968628 -0.1149034798 -0.06242969632 8.538467473e-39
0.08953891695 -0.699983418 -0.37547943 8.538467473e-39
0.2083248794 -0.7657659054 0.1643659025 8.538467473e-39
0.4235874414 -0.1093187928 0.03686231375 8.722137064e-39
-0.245352596 -0.7441679835 -0.1788470149 8.722137064e-39
0.4324589968 -0.002439275384 -0.02207888663 8.722137064e-39
0.4365883768 -0.1100207269 0.04731879383 8.722137064e-39
0.06004732847 -0.01998160779 -0.03984846175 8.722137064e-39
0.4312096834 0.006729841232 -0.02416485548 8.722137064e-39
0.02760847658 -0.04512175918 0.001244336367 8.722137064e-39
-0.2454801202 -0.7716736794 0.02694897354 8.722137064e-39
0.06773363054 -0.002606764436 -0.09976820648 8.906165387e-39
0.3165251613 -0.7527831793 0.1105118543 8.906165387e-39
-0.08184113353 -0.04893532395 0.05301237851 8.906165387e-39
-0.1042853817 -0.1474284232 0.1107928529 8.906165387e-39
-0.1233214214 -0.08848112822 0.1312614977 8.906165387e-39
0.426022023 -0.02898326516 0.03992682695 8.906165387e-39
0.198463425 -0.04979452491 -0.09650486708 8.906165387e-39
0.06322351843 -0.03980447352 -0.02429480851 8.906165387e-39
0.4897773266 -0.02332372963 0.09012319893 9.089834978e-39
-0.2446750402 -0.745652616 -0.1674652994 9.089834978e-39
0.4498976469 -0.2201831341 0.27080369 9.089834978e-39
0.1522819996 0.02592562139 -0.07835765183 9.089834978e-39
0.1997127533 -0.05896365643 -0.09441889822 9.089834978e-39
-0.2124477625 -0.7329122424 -0.2499129772 9.089834978e-39
0.1381548494 -0.6953680515 -0.3905621171 9.089834978e-39
-0.1145382524 -0.7251660824 -0.2686966658 9.089834978e-39
-0.117752336 -0.1328420639 0.1303095967 9.273863302e-39
-0.07019529492 -0.04666800797 0.04070543498 9.273863302e-39
0.1504782885 -0.6945853233 -0.39148736 9.273863302e-39
-0.02446430922 -0.7836062908 0.2047089487 9.273863302e-39
-0.2234160453 -0.736664176 -0.2262243181 9.273863302e-39
0.2322940677 -0.7627158761 0.1511337012 9.273863302e-39
0.4364185333 -0.01754686236 0.02553392202 9.273863302e-39
0.4351691902 -0.008377730846 0.02344796062 9.273863302e-39
0.1172387004 0.01292380691 -0.06211425364 9.457532893e-39
0.3766348958 -0.2263638973 0.2877368927 9.457532893e-39
-0.1165030226 -0.1420111954 0.1323955506 9.457532893e-39
0.4130210876 -0.02828136086 0.02947036922 9.457532893e-39
0.3517176807 -0.690969944 -0.338000983 9.457532893e-39
0.4194890261 -0.2624057531 -0.08626227826 9.457532893e-39
0.4176679552 -0.2455521226 -0.07905247062 9.457532893e-39
0.5058698058 -0.1100381613 0.2092462778 9.457532893e-39
-0.1183241233 -0.1251575947 0.1396053582 9.641561216e-39
0.4502668381 -0.1122072637 0.06915694475 9.641561216e-39
0.4488780797 -0.3525281847 0.3318230808 9.641561216e-39
-0.1036078408 -0.1489130259 0.1221745759 9.641561216e-39
-0.03508792818 -0.1323399842 0.02556946129 9.641561216e-39
0.07362002134 -0.02836804092 -0.0386877358 9.641561216e-39
0.4596559703 -0.4211658537 0.3805699646 9.641561216e-39
0.3993425965 -0.02609480917 0.007632188499 9.641561216e-39
0.212095201 -0.6906719208 -0.3961135745 9.825230807e-39
0.4347032011 0.005506664515 0.05342116207 9.825230807e-39
0.4052805007 -0.1476610303 -0.07923464477 9.825230807e-39
-0.008006602526 -0.05043904483 0.02678345889 9.825230807e-39
0.4112640619 -0.1101014912 0.03778755665 9.825230807e-39
0.1874483973 -0.692237258 -0.3942630887 9.825230807e-39
0.4867069125 0.002699002624 0.09524700791 9.825230807e-39
0.4377736151 -0.02051606774 0.04829732329 9.825230807e-39
0.03993184492 -0.04433906078 0.0003190934658 1.000925913e-38
-0.2330292463 -0.7433853149 -0.1797722578 1.000925913e-38
0.1535954028 -0.08191728592 -0.07516427338 1.000925913e-38
0.09362973273 -0.01021048427 -0.09953273833 1.000925913e-38
-0.2220609486 -0.7396333814 -0.2034609318 1.000925913e-38
0.1762511879 0.02897560596 -0.09158985317 1.000925913e-38
0.4284228981 -0.1919378936 0.3284208775 1.000925913e-38
0.4494996667 -0.7107294798 -0.1509886235 1.000925913e-38
0.3507695198 -0.06939420104 -0.08996815979 1.019292872e-38
-0.06867033988 -0.1421110928 0.08525373042 1.019292872e-38
0.4379434586 -0.1129899621 0.07008218765 1.019292872e-38
0.02517388389 -0.1254572868 -0.00182017684 1.019292872e-38
-0.123893179 -0.08079659939 0.1405572444 1.019292872e-38
0.4252508283 -0.2217485309 0.2726541758 1.019292872e-38
-0.06799279898 -0.1435956955 0.0966354236 1.019292872e-38
0.3569732308 -0.07655578852 0.03314466774 1.019292872e-38
0.09238040447 -0.001041382551 -0.1016186923 1.037659831e-38
0.175573647 0.03046022356 -0.1029715538 1.037659831e-38
0.08475815505 -0.1170900166 -0.04059150815 1.037659831e-38
0.4891945422 -0.3158135116 0.1645100713 1.037659831e-38
0.4033536315 -0.1370073259 -0.09270232916 1.037659831e-38
0.5065473914 -0.111522764 0.2206279933 1.037659831e-38
0.4384511709 -0.02200068533 0.05967904627 1.037659831e-38
0.4280546606 -0.03343708813 0.07407194376 1.037659831e-38
0.3281709552 -0.7505159378 0.09820492566 1.056062664e-38
0.3127148747 -0.6888642311 -0.3693703711 1.056062664e-38
0.4533036053 -0.3815201521 0.3494627178 1.056062664e-38
-0.2309965938 -0.7478390932 -0.145627141 1.056062664e-38
0.4150537252 -0.03273518384 0.06361549348 1.056062664e-38
0.08594342321 -0.02758535743 -0.0396129787 1.056062664e-38
0.1301979274 -0.09265178442 -0.07122781873 1.056062664e-38
0.4804492891 -0.2516297102 0.149908334 1.056062664e-38
0.4359525144 -0.003662437201 0.05550711602 1.074429623e-38
-0.06555823237 -0.06326016784 0.09969994426 1.074429623e-38
0.3969080746 -0.1064303517 0.004567667842 1.074429623e-38
0.4782117605 -0.7180716991 -0.08454886079 1.074429623e-38
0.4091418087 -0.7056545019 -0.2051214427 1.074429623e-38
-0.05292132869 -0.7212526202 -0.2733228505 1.074429623e-38
0.1878970861 0.03124290705 -0.1038967967 1.074429623e-38
0.394875437 -0.1019765139 -0.02957744896 1.074429623e-38
0.450127393 -0.3616973162 0.3339090347 1.092796582e-38
0.4919798672 -0.1202514172 0.146053195 1.092796582e-38
0.0617993772 -0.7781274319 0.1982322484 1.092796582e-38
0.395552963 -0.1034611464 -0.01819574833 1.092796582e-38
0.4014267623 -0.1263535768 -0.1061699912 1.092796582e-38
0.1905655265 -0.07956919074 -0.07794000208 1.092796582e-38
0.4516219497 -0.1151764691 0.09192037582 1.092796582e-38
0.4020527899 -0.03203324974 0.05315900594 1.092796582e-38
0.3257158101 -0.6895661354 -0.3589138985 1.111163541e-38
0.4473395348 -0.7337813377 0.02066226304 1.111163541e-38
-0.08921392262 -0.7250853181 -0.2591654062 1.111163541e-38
0.2679091692 -0.7573986053 0.1255945712 1.111163541e-38
0.4788893163 -0.7195563316 -0.07316716015 1.111163541e-38
0.1872195303 0.03272750974 -0.1152785271 1.111163541e-38
0.4289946556 -0.1996223927 0.3191251457 1.111163541e-38
0.4391287267 -0.02348528802 0.07106074691 1.111163541e-38
0.4129274487 -0.2225312144 0.2735794187 1.1295305e-38
0.4950919449 -0.04140050709 0.1604993939 1.1295305e-38
0.385664165 -0.02390828729 -0.01420599222 1.1295305e-38
0.3359475136 -0.0518386662 -0.0932148397 1.1295305e-38
0.4126191735 -0.1130706966 0.06055097654 1.1295305e-38
0.4228202999 -0.7078410387 -0.1832832545 1.1295305e-38
0.4180910289 -0.2207525373 0.003657337744 1.1295305e-38
0.2008979917 0.03054098785 -0.09344033897 1.1295305e-38
0.4615434706 -0.217915833 0.2584967315 1.147897319e-38
0.2780478299 -0.2326254398 0.2951388359 1.147897319e-38
-0.0768905282 -0.7243026495 -0.2600906491 1.147897319e-38
0.3583283424 -0.0795249939 0.05590809137 1.147897319e-38
-0.01044116169 -0.1307745874 0.02371897548 1.147897319e-38
0.4501772225 -0.7122141123 -0.1396069229 1.147897319e-38
0.415731281 -0.03421978652 0.07499718666 1.147897319e-38
0.0854357034 -0.1185746193 -0.02920980752 1.147897319e-38
0.06692476571 -0.7060026526 -0.3394838274 1.166264278e-38
-0.04294409603 -0.05724097788 0.06370434165 1.166264278e-38
0.4769128561 -0.2117225528 0.1850053668 1.166264278e-38
-0.1374073923 -0.7861966491 0.1788909882 1.166264278e-38
-0.220028311 -0.7440872192 -0.1693157852 1.166264278e-38
0.4432032108 -0.3143671155 0.3120975196 1.166264278e-38
0.4645332396 -0.715885222 -0.1063870117 1.166264278e-38
0.5022276044 -0.07633090019 0.2236658335 1.166264278e-38
0.4195948243 -0.2562058568 -0.06558481604 1.184631237e-38
-0.32446751 -0.1896803677 0.2697295547 1.184631237e-38
0.491809994 -0.02777756751 0.1242683157 1.184631237e-38
0.2275356948 -0.07722112536 -0.08071573079 1.184631237e-38
0.01966389455 -0.7135872841 -0.3016377091 1.184631237e-38
0.213898927 0.02983908355 -0.08298386633 1.184631237e-38
0.4802444279 -0.7225255966 -0.05040371418 1.184631237e-38
0.3753733635 -0.02914480865 0.02086437494 1.184631237e-38
0.1148632169 -0.6999026537 -0.3659482002 1.202998196e-38
-0.1207169965 -0.1006194353 0.156110853 1.202998196e-38
-0.1894111335 -0.7833889723 0.1370650977 1.202998196e-38
0.4385569394 -0.0158007741 0.08035650849 1.202998196e-38
0.4225594699 -0.2884284854 -0.09138607979 1.202998196e-38
-0.2228660136 -0.7656544447 -0.009046599269 1.202998196e-38
0.4690901041 -0.0399966836 0.1395864934 1.202998196e-38
0.3818744421 -0.1012746096 -0.0400339216 1.202998196e-38
0.09089401364 -0.7029526234 -0.3527160287 1.221365155e-38
0.3825519979 -0.1027592123 -0.02865220606 1.221365155e-38
0.3859397173 -0.1101822853 0.02825634181 1.221365155e-38
0.4796564877 -0.1210341156 0.146978423 1.221365155e-38
-0.1138985977 -0.1541495621 0.1572449356 1.221365155e-38
-0.3250392973 -0.1819958538 0.2790253162 1.221365155e-38
0.34219414 -0.09768423438 -0.08278502524 1.221365155e-38
0.4271735847 -0.1827687621 0.3263349235 1.221365155e-38
-0.07652651519 -0.06701210141 0.1233886108 1.239732115e-38
0.2600803673 -0.04588106275 -0.1011310667 1.239732115e-38
-0.006651505828 -0.05340826511 0.04954688251 1.239732115e-38
-0.2173181176 -0.75002563 -0.1237889603 1.239732115e-38
0.3346982002 -0.04266953468 -0.09530080855 1.239732115e-38
0.4190230668 -0.2485213429 -0.05628905073 1.239732115e-38
0.3316489458 -0.07663658261 0.02361345291 1.239732115e-38
0.4885169864 -0.3143289089 0.1531283557 1.239732115e-38
0.421415925 -0.2730594873 -0.07279458642 1.258099074e-38
0.3601494431 -0.09637862444 0.04869832098 1.258099074e-38
