# .PCD v0.7 - Point Cloud Data file format
VERSION 0.7
FIELDS x y z rgb
SIZE 4 4 4 4
TYPE F F F F
COUNT 1 1 1 1
WIDTH 837
HEIGHT 1
VIEWPOINT 0 0 0 1 0 0 0
POINTS 837
DATA ascii
-0.2211742401 -0.3141101301 -0.238732934 6.514514648e-39
-0.1309422553 -0.163458094 -0.3586319089 6.514514648e-39
0.005595616996 -0.2030325085 -0.3580309749 6.514514648e-39
-0.3708788753 -0.3122167587 -0.2154751718 6.514514648e-39
0.1646216661 -0.3217211366 -0.1724116206 6.698542971e-39
0.1643552035 -0.3344381154 -0.1602696478 6.698542971e-39
0.02947223 -0.2781339586 -0.3595100641 6.698542971e-39
0.1632781625 -0.3733915985 -0.08654424548 6.698542971e-39
-0.006342659704 -0.165481776 -0.3572914004 6.698542971e-39
0.03520610929 -0.4291912615 0.2839454412 6.698542971e-39
-0.1830426455 -0.3244915307 -0.3629536629 6.698542971e-39
-0.157427147 -0.275098443 -0.3615207672 6.698542971e-39
-0.2135527283 -0.3999774754 0.2694137692 6.882571295e-39
-0.1569054723 -0.2377500683 -0.3606472015 6.882571295e-39
-0.03937974572 -0.4155275822 0.2834323645 6.882571295e-39
-0.005565771833 -0.1035020351 -0.3434022665 6.882571295e-39
0.1530536413 -0.2831003368 -0.2214047313 6.882571295e-39
0.1501815021 -0.3869762421 -0.02480366267 6.882571295e-39
-0.1305944771 -0.1385591775 -0.3580495119 6.882571295e-39
-0.2588206232 -0.3262200058 -0.2269930989 6.882571295e-39
-0.3340319097 -0.3382578194 -0.1907890886 7.066599618e-39
-0.01793315448 -0.1030321494 -0.3559694886 7.066599618e-39
0.1261647046 -0.3600675464 -0.09908834845 7.066599618e-39
0.005769507959 -0.1905830353 -0.3577397466 7.066599618e-39
0.1138786525 -0.3474157155 -0.0989312008 7.066599618e-39
-0.2758525312 -0.398965627 0.268743515 7.066599618e-39
0.1144115478 -0.3219817579 -0.1232151389 7.066599618e-39
-0.2460016161 -0.3134378791 -0.251434207 7.066599618e-39
0.1531686783 -0.3066616654 -0.284152925 7.250627941e-39
-0.2333565354 -0.3131052256 -0.2761664987 7.250627941e-39
0.05421823263 -0.2909881771 -0.3595331311 7.250627941e-39
-0.3740849197 -0.3573231697 0.1442130655 7.250627941e-39
0.1266975999 -0.3346335888 -0.123372294 7.250627941e-39
0.1654322594 -0.2954846621 -0.2339950651 7.250627941e-39
-0.01828093454 -0.1279310286 -0.3565518856 7.250627941e-39
-0.2212668061 -0.3143776357 -0.2262997627 7.250627941e-39
0.1648881137 -0.3090041876 -0.1845535785 7.434656265e-39
-0.3347612023 -0.352312386 -0.1164813042 7.434656265e-39
0.101766482 -0.3223144114 -0.09848285466 7.434656265e-39
-0.3721635342 -0.3278764486 -0.06656837463 7.434656265e-39
0.0913316831 -0.3043122292 -0.3469890356 7.434656265e-39
-0.2634851336 -0.3994355202 0.2813107371 7.434656265e-39
0.1532387584 -0.2825653255 -0.2462710589 7.434656265e-39
-0.3841606975 -0.3263364732 -0.128868252 7.434656265e-39
-0.3966318965 -0.3142196834 -0.1038447618 7.618684588e-39
-0.3726375997 -0.3172996044 0.02075499296 7.618684588e-39
0.03007522412 -0.228603676 -0.3459120989 7.618684588e-39
0.006198614836 -0.1535021961 -0.3444330096 7.618684588e-39
0.07904562354 -0.291660428 -0.3468318582 7.618684588e-39
-0.3723599017 -0.3164970279 -0.01654453017 7.618684588e-39
-0.3860231936 -0.3197723925 0.1449526101 7.618684588e-39
0.1526020467 -0.2963523865 -0.1843964309 7.618684588e-39
0.152243048 -0.3093368411 -0.1598212868 7.802712912e-39
-0.1136178449 -0.3769650161 0.2835016847 7.802712912e-39
-0.2261052281 -0.4000426233 0.2817128301 7.802712912e-39
0.1530985683 -0.3307580352 -0.3220348954 7.802712912e-39
-0.3598887026 -0.3286138475 -0.04156798869 7.802712912e-39
0.1408489048 -0.258266598 -0.2085232288 7.802712912e-39
0.1405824423 -0.2709835768 -0.1963812709 7.802712912e-39
-0.296200484 -0.3256129026 -0.2273952365 7.802712912e-39
0.1411153674 -0.2455496192 -0.2206651866 7.986382503e-39
-0.2385652065 -0.3998402357 0.2815787792 7.986382503e-39
0.04218739271 -0.2537049353 -0.346360445 7.986382503e-39
-0.3356868327 -0.3549875617 0.007850388065 7.986382503e-39
-0.1760915369 -0.388402611 0.2825402617 7.986382503e-39
0.1642626375 -0.3347056508 -0.1478364915 7.986382503e-39
-0.170061022 -0.2873455584 -0.3619459867 7.986382503e-39
0.1037103012 -0.3166965246 -0.3595793843 7.986382503e-39
-0.3459589481 -0.3126214743 -0.215207085 8.170410826e-39
-0.2461867332 -0.3139728904 -0.2265678495 8.170410826e-39
-0.3859306276 -0.3195048571 0.1325194538 8.170410826e-39
0.01805562712 -0.2032348663 -0.357896924 8.170410826e-39
0.1412079334 -0.2452820987 -0.2330983728 8.170410826e-39
0.05447345972 -0.2663567662 -0.3465175629 8.170410826e-39
-0.3333138824 -0.3122888207 -0.2399393767 8.170410826e-39
-0.3722673357 -0.3162295222 -0.02897768468 8.170410826e-39
-0.3857454956 -0.3189698458 0.1076530814 8.35443915e-39
-0.2586467266 -0.3137705326 -0.2267019004 8.35443915e-39
0.04766605794 -0.4293936193 0.2840794921 8.35443915e-39
-0.1828687489 -0.3120420575 -0.3626624346 8.35443915e-39
-0.335050106 -0.3412005007 -0.05402427539 8.35443915e-39
-0.005647098646 -0.1156839579 -0.3561266065 8.35443915e-39
-0.005820988677 -0.1281334013 -0.3564178348 8.35443915e-39
0.1517101228 -0.3347707987 -0.1355373859 8.35443915e-39
-0.3352352381 -0.3417355418 -0.02915793657 8.538467473e-39
0.1394240707 -0.322118938 -0.1353802383 8.538467473e-39
-0.2709215283 -0.3130331635 -0.2517022789 8.538467473e-39
0.1411378235 -0.2693784833 -0.2709802389 8.538467473e-39
-0.334772408 -0.340397954 -0.09132376313 8.538467473e-39
0.03042300604 -0.2037047595 -0.3453297019 8.538467473e-39
-0.3460515141 -0.3128889799 -0.2027739286 8.538467473e-39
0.1650619954 -0.2965547442 -0.18426238 8.538467473e-39
-0.3598999381 -0.3166993856 -0.01641048305 8.722137064e-39
-0.3737371266 -0.3324242532 0.1447954476 8.722137064e-39
-0.2236397415 -0.3570764065 0.02148997411 8.722137064e-39
0.1407563388 -0.2585341036 -0.1960900724 8.722137064e-39
-0.3083013892 -0.3124260604 -0.2521044314 8.722137064e-39
0.1284563094 -0.3295507431 -0.3596024513 8.722137064e-39
0.1290957034 -0.2201808095 -0.2326500267 8.722137064e-39
0.1286441088 -0.2334328294 -0.1956417263 8.722137064e-39
-0.2457239181 -0.3126353025 -0.2887336612 8.906165387e-39
0.09142424166 -0.3040447235 -0.3594222069 8.906165387e-39
-0.3598073721 -0.31643188 -0.02884363756 8.906165387e-39
0.07921952009 -0.2792109549 -0.3465406895 8.906165387e-39
0.007334519178 -0.07853797078 -0.3551189899 8.906165387e-39
0.1267789453 -0.3224516213 -0.1106479391 8.906165387e-39
-0.3345873058 -0.3398629129 -0.1161901057 8.906165387e-39
0.1534939855 -0.2579339147 -0.2332555205 8.906165387e-39
-0.373007834 -0.3183696568 0.0704876706 9.089834978e-39
0.164436534 -0.3222561777 -0.147545293 9.089834978e-39
-0.3339505792 -0.3260758817 -0.1780647337 9.089834978e-39
0.1630930305 -0.3739266396 -0.06167791039 9.089834978e-39
0.1387986094 -0.347820431 -0.09866309911 9.089834978e-39
0.1393315047 -0.3223864734 -0.1229470447 9.089834978e-39
0.1161702573 -0.3168989122 -0.3594453335 9.089834978e-39
-0.3084865212 -0.3129610717 -0.2272380888 9.089834978e-39
0.1611829102 -0.4152877629 0.1239459664 9.273863302e-39
-0.3731004 -0.3186371922 0.08292081952 9.273863302e-39
-0.3461440802 -0.3131565154 -0.1903407425 9.273863302e-39
0.007160628214 -0.09098741412 -0.3554101586 9.273863302e-39
0.1406637728 -0.2588016391 -0.1836568862 9.273863302e-39
-0.2110984772 -0.3450967968 0.03434837237 9.273863302e-39
0.01865862124 -0.1537045687 -0.3442989588 9.273863302e-39
0.1518840194 -0.3223213255 -0.1352461874 9.273863302e-39
0.006465068087 -0.1407852322 -0.3565749526 9.457532893e-39
0.1409302354 -0.2460846454 -0.1957988739 9.457532893e-39
0.1535052061 -0.2698483467 -0.2584130466 9.457532893e-39
0.141196683 -0.2333676815 -0.2079408318 9.457532893e-39
0.1167984009 -0.1956145614 -0.207335338 9.457532893e-39
0.1412303895 -0.2691109478 -0.2834134102 9.457532893e-39
-0.37356323 -0.3199747801 0.1450866461 9.457532893e-39
-0.3224162757 -0.3289534152 -0.05359902978 9.457532893e-39
-0.3614510596 -0.3450760543 0.1446382999 9.641561216e-39
0.0601260066 -0.4295960069 0.2842135429 9.641561216e-39
0.1162515879 -0.3047169745 -0.3467209339 9.641561216e-39
0.01857729815 -0.1658865213 -0.3570232987 9.641561216e-39
-0.3471622765 -0.3160991967 -0.05357592553 9.641561216e-39
0.1619121879 -0.4012331963 0.04963817447 9.641561216e-39
0.1168321073 -0.2313578427 -0.2828078866 9.641561216e-39
-0.373470664 -0.3197072446 0.1326535046 9.641561216e-39
0.129084453 -0.2082664073 -0.2074924856 9.825230807e-39
0.1413930506 -0.2447470576 -0.2579647005 9.825230807e-39
0.1646104306 -0.3098067343 -0.1472540945 9.825230807e-39
0.1523243636 -0.2971549332 -0.1470969468 9.825230807e-39
-0.200918898 -0.38773036 0.2698389888 9.825230807e-39
0.1408376694 -0.2463521659 -0.1833656877 9.825230807e-39
0.05499512702 -0.2290084064 -0.3456439972 9.825230807e-39
-0.201011464 -0.3879978657 0.2822721601 9.825230807e-39
0.01883251034 -0.1412551254 -0.3440077305 1.000925913e-38
0.04288295656 -0.2039071321 -0.3451956511 1.000925913e-38
0.1515250057 -0.3353058398 -0.1106710434 1.000925913e-38
0.1414631456 -0.2206506878 -0.2200827897 1.000925913e-38
-0.3344134092 -0.3274134696 -0.1158989072 1.000925913e-38
0.1284589916 -0.2339678705 -0.1707753837 1.000925913e-38
0.1659539342 -0.2581362724 -0.2331214696 1.000925913e-38
0.1170648485 -0.1828975976 -0.2194772959 1.000925913e-38
0.1167058349 -0.1958820671 -0.1949021816 1.019292872e-38
0.1535977721 -0.2695808411 -0.2708461881 1.019292872e-38
-0.3220460415 -0.3278833628 -0.1033316776 1.019292872e-38
0.1415557116 -0.2203831673 -0.2325159758 1.019292872e-38
-0.3603627384 -0.3180369735 0.0457553491 1.019292872e-38
0.1528572738 -0.2717209756 -0.1713808775 1.019292872e-38
0.117076084 -0.1948119998 -0.244634822 1.019292872e-38
-0.334980011 -0.317104131 -0.01614238694 1.019292872e-38
0.1169722825 -0.1831651181 -0.2070441395 1.037659831e-38
0.1536791027 -0.2573988736 -0.2581218481 1.037659831e-38
0.06728118658 -0.2416602075 -0.345801115 1.037659831e-38
-0.3604553044 -0.3183045089 0.05818850547 1.037659831e-38
0.1537604332 -0.2452169359 -0.2453974783 1.037659831e-38
-0.3468845785 -0.3152966499 -0.09087541699 1.037659831e-38
0.09159813076 -0.2915952802 -0.3591310382 1.037659831e-38
0.1533650309 -0.3180410564 -0.3341768384 1.037659831e-38
-0.3338692486 -0.3138939142 -0.1653403491 1.056062664e-38
0.05516901612 -0.2165589333 -0.3453527689 1.056062664e-38
0.141011551 -0.2339027077 -0.1830744892 1.056062664e-38
-0.335072577 -0.3173716664 -0.003709233366 1.056062664e-38
-0.3467920423 -0.3150291443 -0.1033085734 1.056062664e-38
-0.1759176403 -0.3759531677 0.2828314304 1.056062664e-38
0.07931207865 -0.2789434493 -0.3589738607 1.056062664e-38
0.1414856166 -0.2444795519 -0.2703978419 1.056062664e-38
0.08513852209 -0.4297332466 0.2720484734 1.074429623e-38
0.1657324135 -0.3185109198 -0.3216096163 1.074429623e-38
-0.3466069102 -0.3144941032 -0.128174901 1.074429623e-38
-0.2134714127 -0.3877955079 0.2821381092 1.074429623e-38
0.1659426987 -0.2462218553 -0.2079639286 1.074429623e-38
0.1391463876 -0.3229215145 -0.09808070958 1.074429623e-38
0.1658838391 -0.2822326422 -0.2710033655 1.074429623e-38
0.06702596694 -0.2662916183 -0.3588166833 1.074429623e-38
-0.3465143442 -0.3142265677 -0.1406081021 1.092796582e-38
-0.1382713169 -0.3638433218 0.27109164 1.092796582e-38
-0.245538801 -0.3121002913 -0.3136000037 1.092796582e-38
-0.3342395127 -0.3149639964 -0.1156077087 1.092796582e-38
-0.1383638829 -0.3641108274 0.2835248113 1.092796582e-38
0.1514324397 -0.3355733752 -0.09823785722 1.092796582e-38
0.1645178646 -0.31007424 -0.1348209381 1.092796582e-38
-0.3607330024 -0.3191070557 0.09548802674 1.092796582e-38
0.1172387451 -0.1704481542 -0.2191860974 1.111163541e-38
-0.001999905333 -0.4161346853 0.283834517 1.111163541e-38
0.1650507748 -0.2846402824 -0.1591048539 1.111163541e-38
0.1166132689 -0.1961495876 -0.1824689955 1.111163541e-38
-0.335165143 -0.3176391721 0.008723979816 1.111163541e-38
-0.03911329061 -0.4028106332 0.2712904215 1.111163541e-38
-0.3340543807 -0.3144289553 -0.1404740512 1.111163541e-38
0.115813911 -0.2343005389 -0.146043092 1.111163541e-38
-0.3609181345 -0.3196420968 0.1203543395 1.1295305e-38
0.1653172225 -0.2719233334 -0.1712468415 1.1295305e-38
0.1164254695 -0.2922675312 -0.3464297056 1.1295305e-38
0.1629079133 -0.3744616807 -0.03681157157 1.1295305e-38
0.09256282449 -0.1334975809 -0.1812811047 1.1295305e-38
0.128899321 -0.2088014334 -0.1826261431 1.1295305e-38
0.1041394174 -0.2796156704 -0.3462725878 1.1295305e-38
0.1291657835 -0.1960844398 -0.1947681308 1.1295305e-38
0.09185335785 -0.2669638693 -0.3461154103 1.147897319e-38
-0.1508238316 -0.3639084697 0.2833907604 1.147897319e-38
-0.2259313464 -0.3875931501 0.2820040584 1.147897319e-38
0.1661165804 -0.2337724268 -0.2076727301 1.147897319e-38
0.1534714997 -0.2341050804 -0.1829404533 1.147897319e-38
-0.2383913249 -0.3873907626 0.2818700075 1.147897319e-38
0.1170536131 -0.1709831804 -0.1943197846 1.147897319e-38
0.1539230943 -0.2208530605 -0.2199487388 1.147897319e-38
0.1174126416 -0.157998696 -0.2188948989 1.166264278e-38
0.1534575969 -0.3177735209 -0.3466100097 1.166264278e-38
0.1173313111 -0.1701806337 -0.2316192836 1.166264278e-38
0.06762896478 -0.2167613059 -0.3452187181 1.166264278e-38
0.1053004637 -0.1328974068 -0.2184465528 1.166264278e-38
0.09842029959 -0.4156135023 0.1854415536 1.166264278e-38
0.1652246565 -0.2721908391 -0.1588136554 1.166264278e-38
-0.310685575 -0.3432103395 0.02084283531 1.166264278e-38
0.1628153473 -0.3747291863 -0.02437841892 1.184631237e-38
-0.2370253503 -0.3595491946 0.1456875801 1.184631237e-38
0.165491119 -0.2594738603 -0.1709556431 1.184631237e-38
0.1646917462 -0.2976247966 -0.1345297396 1.184631237e-38
0.1516063362 -0.3231239021 -0.09794665873 1.184631237e-38
0.1050564796 -0.1694432348 -0.256619662 1.184631237e-38
0.1521392316 -0.2976899743 -0.1222306043 1.184631237e-38
0.04340462387 -0.1665587723 -0.3443220258 1.184631237e-38
0.1661390513 -0.2576012313 -0.2579877973 1.202998196e-38
0.1411715448 -0.30512169 -0.3464528322 1.202998196e-38
-0.2132049501 -0.3750785589 0.2699961662 1.202998196e-38
-0.07623797655 -0.3775721192 0.2839038372 1.202998196e-38
0.07991507649 -0.2294131517 -0.3453758955 1.202998196e-38
-0.2233031988 -0.3202630281 0.04722987115 1.202998196e-38
-0.1256374419 -0.3515962362 0.2715168595 1.202998196e-38
0.01046010293 -0.416337043 0.2839685678 1.202998196e-38
0.1539118439 -0.2089386433 -0.1947912425 1.221365155e-38
-0.3486433029 -0.3203794956 0.1453547478 1.221365155e-38
0.1175052077 -0.1577311754 -0.2313280851 1.221365155e-38
0.1288854182 -0.2924698889 -0.3462956548 1.221365155e-38
-0.1007175222 -0.3520009518 0.2717849612 1.221365155e-38
0.1623637676 -0.3879811764 0.01262990758 1.221365155e-38
0.09237769991 -0.134032622 -0.1564147621 1.221365155e-38
0.04332330078 -0.1787406951 -0.3570464253 1.221365155e-38
0.1401196271 -0.2723211646 -0.1342154443 1.239732115e-38
0.1528460383 -0.2598065436 -0.1462233514 1.239732115e-38
-0.3242450953 -0.3581326306 0.144749254 1.239732115e-38
-0.2116650939 -0.334787488 0.1341049224 1.239732115e-38
-0.2115725428 -0.3345199823 0.1216717064 1.239732115e-38
-0.02665334567 -0.403012991 0.2714244723 1.239732115e-38
0.1540969759 -0.2084036171 -0.2196575403 1.239732115e-38
0.1176678538 -0.1333673 -0.2058793455 1.239732115e-38
-0.2381248623 -0.3746738136 0.2697280645 1.258099074e-38
-0.2113060802 -0.3218030035 0.1095297486 1.258099074e-38
0.1651320904 -0.2724583745 -0.146380499 1.258099074e-38
-0.1008100882 -0.3522684574 0.2842181325 1.258099074e-38
0.1535528451 -0.2219231278 -0.1702160984 1.258099074e-38
0.1166020334 -0.1842351854 -0.1573114693 1.258099074e-38
0.1051966697 -0.1212505251 -0.1808558553 1.258099074e-38
0.104231976 -0.2793481648 -0.358705759 1.258099074e-38
0.1661502868 -0.2695156634 -0.2831453085 1.276466033e-38
-0.150649935 -0.3514589965 0.2836819291 1.276466033e-38
0.1416707486 -0.2439445108 -0.2952641845 1.276466033e-38
-0.1881111413 -0.3630338609 0.2705554366 1.276466033e-38
-0.2242175937 -0.3348526657 0.1464040279 1.276466033e-38
0.09750590473 -0.43020311 0.2846156955 1.276466033e-38
0.1517802328 -0.3106744587 -0.09765546024 1.276466033e-38
0.1663129479 -0.2451517731 -0.2576966286 1.276466033e-38
-0.1630173177 -0.3509891331 0.271114707 1.294832852e-38
-0.1631098837 -0.3512566388 0.2835478783 1.294832852e-38
0.1520466805 -0.29795748 -0.1097974479 1.294832852e-38
-0.223580882 -0.3210656047 0.08452939242 1.294832852e-38
0.06772152334 -0.2164937854 -0.3576519489 1.294832852e-38
0.1663717926 -0.209141016 -0.1946571916 1.294832852e-38
0.1525795758 -0.2725235224 -0.1340813935 1.294832852e-38
0.04444797337 -0.09186203778 -0.3425748348 1.294832852e-38
0.1484452784 -0.415887922 0.1611114293 1.313163938e-38
0.1051041037 -0.1215180382 -0.1684227139 1.313163938e-38
-0.2619452775 -0.359144479 0.1454194933 1.313163938e-38
0.1536314934 -0.3053240776 -0.3463187814 1.313163938e-38
-0.3240711987 -0.3456831574 0.1450404525 1.313163938e-38
0.1512473077 -0.3361083865 -0.07337154448 1.313163938e-38
0.1044871956 -0.2547167838 -0.3456901908 1.313163938e-38
0.165305987 -0.2600089014 -0.1460893005 1.313163938e-38
0.1542007774 -0.2200504988 -0.2572482824 1.331530897e-38
-0.3229828775 -0.3186440766 0.04615749419 1.331530897e-38
0.1537128091 -0.2931421697 -0.3335944414 1.331530897e-38
-0.2366775721 -0.3346503079 0.1462699771 1.331530897e-38
0.1491745561 -0.4018333852 0.0868036449 1.331530897e-38
-0.223766014 -0.3216006458 0.1093956977 1.331530897e-38
0.149811253 -0.3880463243 0.0249290131 1.331530897e-38
-0.22385858 -0.3218681514 0.1218288541 1.331530897e-38
0.1542708725 -0.195954144 -0.2193663418 1.349897856e-38
0.09211980551 -0.2542468905 -0.3582574129 1.349897856e-38
-0.2358557433 -0.3203282058 0.05952897668 1.349897856e-38
0.154282093 -0.207868576 -0.2445238829 1.349897856e-38
-0.1754772961 -0.3507867455 0.2709806561 1.349897856e-38
0.1537941396 -0.2809602022 -0.3208701015 1.349897856e-38
0.15098086 -0.3488253653 -0.06122956425 1.349897856e-38
0.1538754553 -0.2687782943 -0.3081457019 1.349897856e-38
0.1506218463 -0.3618098795 -0.0366544202 1.368228942e-38
0.1043973044 -0.1594014317 -0.1444299668 1.368228942e-38
-0.3360907733 -0.3203143477 0.1330556422 1.368228942e-38
0.1657463312 -0.2348424941 -0.1579400599 1.368228942e-38
-0.01419339888 -0.4032153785 0.2715585232 1.368228942e-38
0.09254891425 -0.2171660513 -0.3449506164 1.368228942e-38
0.1290593147 -0.2800204158 -0.3460044861 1.368228942e-38
0.1294771731 -0.2310251743 -0.3075401783 1.368228942e-38
0.1099658459 -0.4304054677 0.2847497463 1.386595901e-38
-0.2363185585 -0.3216657937 0.1216948032 1.386595901e-38
0.1046610847 -0.2422673404 -0.3453989625 1.386595901e-38
0.1541670561 -0.1843072474 -0.1817756593 1.386595901e-38
0.1664868295 -0.2327023447 -0.2574054003 1.386595901e-38
-0.2481305599 -0.3195907772 0.03452862427 1.386595901e-38
0.1041308492 -0.1721184254 -0.1322880089 1.386595901e-38
0.1543521881 -0.1837722212 -0.206641987 1.386595901e-38
0.1666382551 -0.1964240372 -0.2067991495 1.404926846e-38
-0.2379509807 -0.3622243702 0.2700192332 1.404926846e-38
-0.07597152144 -0.3648551702 0.2717618942 1.404926846e-38
0.1654798836 -0.2475594431 -0.145798102 1.404926846e-38
-0.1379235387 -0.3389444053 0.271674037 1.404926846e-38
0.1544335186 -0.1715902984 -0.193917647 1.404926846e-38
0.05578324944 -0.1789430678 -0.3569123745 1.404926846e-38
0.05603846908 -0.1543116719 -0.3438968062 1.404926846e-38
0.1173650026 -0.2059238851 -0.3070918322 1.423293806e-38
0.04471442103 -0.07914508134 -0.3547168374 1.423293806e-38
-0.2357743979 -0.3081462681 0.07225339115 1.423293806e-38
0.1519541144 -0.2982250154 -0.0973642692 1.423293806e-38
0.05708181113 -0.07961495966 -0.3421496153 1.423293806e-38
-0.1880298108 -0.3508518934 0.2832797766 1.423293806e-38
-0.1504760534 -0.3390095532 0.2839731574 1.423293806e-38
-0.2980629504 -0.3190488219 0.04642558843 1.423293806e-38
-0.2482231259 -0.3198582828 0.04696177691 1.441624891e-38
0.1626302153 -0.3752642274 0.0004878900945 1.441624891e-38
0.1609052271 -0.4160903096 0.1612454802 1.441624891e-38
-0.2488710582 -0.3217309117 0.1339939833 1.441624891e-38
0.1158026755 -0.2223860919 -0.1208855659 1.441624891e-38
-0.2359595299 -0.3086813092 0.09711969644 1.441624891e-38
0.118038103 -0.1322972178 -0.2556120157 1.441624891e-38
-0.2485933751 -0.320928365 0.09669445455 1.441624891e-38
0.1043047383 -0.1596689522 -0.1319968104 1.459991851e-38
-0.08835013956 -0.352470845 0.2843521833 1.459991851e-38
0.1416819692 -0.255858928 -0.3204217553 1.459991851e-38
-0.2615975142 -0.3342455626 0.1460018903 1.459991851e-38
0.1524870098 -0.2727910578 -0.1216482073 1.459991851e-38
0.09272280335 -0.2047166079 -0.3446594477 1.459991851e-38
0.1543746591 -0.2076010555 -0.2569570541 1.459991851e-38
0.1514212042 -0.3236589134 -0.07308034599 1.459991851e-38
0.1545260847 -0.1713227928 -0.2063508034 1.478322936e-38
0.1660914421 -0.3055264354 -0.3461847305 1.478322936e-38
0.1176202297 -0.1812924892 -0.2940763235 1.478322936e-38
0.1164169014 -0.1847702265 -0.1324451566 1.478322936e-38
0.06971564889 -0.06736785918 -0.3417243958 1.478322936e-38
-0.2605905533 -0.3193884194 0.03439457715 1.478322936e-38
0.05690792203 -0.092064403 -0.342440784 1.478322936e-38
-0.05122549087 -0.3777093589 0.2717387676 1.478322936e-38
0.1538053751 -0.2928746343 -0.3460276127 1.496689755e-38
0.1169471443 -0.2549191415 -0.3455561399 1.496689755e-38
0.09227390587 -0.1223857403 -0.1188240796 1.496689755e-38
0.1668934673 -0.1717926562 -0.1937835962 1.496689755e-38
-0.2866912782 -0.3462902606 0.1454425901 1.496689755e-38
0.1175388992 -0.193474412 -0.3068006635 1.496689755e-38
0.1664167494 -0.2567986846 -0.2952873111 1.496689755e-38
0.1040382907 -0.172385931 -0.1198548228 1.496689755e-38
-0.2614236176 -0.3217960894 0.1462930888 1.515020841e-38
0.1538867056 -0.2806926966 -0.3333032131 1.515020841e-38
0.1414379925 -0.292404741 -0.3585948348 1.515020841e-38
0.1545148492 -0.1594083458 -0.1811932623 1.515020841e-38
0.1179567724 -0.1444791853 -0.2683363557 1.515020841e-38
-0.2612384856 -0.3212610483 0.1214267164 1.515020841e-38
0.162989229 -0.362279743 -0.02408722043 1.515020841e-38
-0.2611459196 -0.3209935427 0.1089935601 1.515020841e-38
0.1668009013 -0.1720601767 -0.18135041 1.533351927e-38
-0.2740574479 -0.3340432048 0.1458678395 1.533351927e-38
0.141519323 -0.2802227736 -0.3458704352 1.533351927e-38
0.1644140631 -0.2984273732 -0.09723021835 1.533351927e-38
0.1663354039 -0.2689806521 -0.308011651 1.533351927e-38
0.1546999812 -0.1588733196 -0.2060596049 1.533351927e-38
-0.125115782 -0.3142478764 0.2723904848 1.533351927e-38
-0.2482343465 -0.3079438806 0.0721193403 1.533351927e-38
0.05673403293 -0.1045138761 -0.3427320123 1.551683013e-38
-0.1001958549 -0.3146526217 0.2726585865 1.551683013e-38
0.118130669 -0.1320297122 -0.268045187 1.551683013e-38
0.0682431981 -0.1791454256 -0.3567783237 1.551683013e-38
0.1543859094 -0.2195154727 -0.2821145654 1.551683013e-38
0.1649469584 -0.2729934156 -0.1215141639 1.551683013e-38
0.06954175979 -0.07981733233 -0.3420155644 1.551683013e-38
0.1544222981 -0.1596758664 -0.168760106 1.551683013e-38
0.106029734 -0.1188428625 -0.2927543521 1.570049832e-38
-0.1124819443 -0.3020007908 0.2728157043 1.570049832e-38
-0.2377770841 -0.3497749269 0.2703104615 1.570049832e-38
0.1301502734 -0.1573984921 -0.2560603619 1.570049832e-38
0.166268006 -0.1974941045 -0.1570664644 1.570049832e-38
0.1418558657 -0.2434094697 -0.320130527 1.570049832e-38
-0.2254096717 -0.3502447903 0.282877624 1.570049832e-38
0.1669860333 -0.1715251505 -0.2062167525 1.570049832e-38
-0.02647945471 -0.3905635178 0.271715641 1.588380918e-38
0.1048264131 -0.1223205924 -0.131123215 1.588380918e-38
-0.1625882089 -0.3139082789 0.2844215035 1.588380918e-38
0.1621786356 -0.3885162175 0.0374962166 1.588380918e-38
0.1507957429 -0.3493604064 -0.03636322543 1.588380918e-38
-0.1249418855 -0.3017984331 0.2726816535 1.588380918e-38
-0.2736984193 -0.3210586905 0.1212926656 1.588380918e-38
0.1653873175 -0.2478269637 -0.1333649457 1.588380918e-38
0.1667083502 -0.1723276973 -0.1689172536 1.606712004e-38
-0.1877633631 -0.3381349444 0.2711378336 1.606712004e-38
0.1056006253 -0.1559236944 -0.306061089 1.606712004e-38
0.08052930981 -0.1917972416 -0.3569355011 1.606712004e-38
0.1518615484 -0.298492521 -0.08493111283 1.606712004e-38
0.1549551934 -0.1342419088 -0.1930440515 1.606712004e-38
-0.001733452082 -0.4034177363 0.271692574 1.606712004e-38
0.1545485556 -0.1951515824 -0.2566658854 1.606712004e-38
0.1548738629 -0.1464238763 -0.2057684064 1.625043089e-38
-0.2733281553 -0.3199886084 0.07156004757 1.625043089e-38
0.1163243353 -0.1850377321 -0.1200119704 1.625043089e-38
0.1545961797 -0.147226423 -0.1684689075 1.625043089e-38
0.1667532921 -0.2199853659 -0.2695473433 1.625043089e-38
-0.1499543786 -0.3016611934 0.2848467231 1.625043089e-38
-0.2003159076 -0.3382000923 0.283436954 1.625043089e-38
0.09281536192 -0.2044490874 -0.3570926189 1.625043089e-38
0.1547112167 -0.1707877517 -0.231217131 1.643374035e-38
-0.2979816496 -0.306866914 0.05914993584 1.643374035e-38
0.1532751471 -0.2227256894 -0.1329165995 1.643374035e-38
-0.2002233416 -0.3379325867 0.2710037827 1.643374035e-38
-0.1247679889 -0.2893489599 0.2729728818 1.643374035e-38
0.0684170872 -0.1666959971 -0.356487155 1.643374035e-38
-0.260694325 -0.3077415228 0.07198529691 1.643374035e-38
0.1284365058 -0.2101390213 -0.1204603165 1.643374035e-38
0.1551290751 -0.1217924803 -0.192752853 1.661705121e-38
-0.1248605549 -0.2896164656 0.2854059935 1.661705121e-38
-0.1875894666 -0.3256854713 0.2714290023 1.661705121e-38
-0.09723971784 -0.1030118838 0.2776089311 1.661705121e-38
0.1671599299 -0.1590756774 -0.205925554 1.661705121e-38
0.09307058901 -0.1798176914 -0.3440770507 1.661705121e-38
0.1302428395 -0.1571309865 -0.2684935331 1.661705121e-38
-0.09984806925 -0.2897537053 0.2732409835 1.661705121e-38
0.1665093005 -0.256531179 -0.3077204823 1.680036207e-38
0.1669159383 -0.1956214756 -0.2440986335 1.680036207e-38
0.1294070929 -0.2551214993 -0.3454220891 1.680036207e-38
-0.2127758563 -0.3379977047 0.2833029032 1.680036207e-38
-0.2861583531 -0.320856303 0.1211586148 1.680036207e-38
-0.149687916 -0.2889442146 0.2727047801 1.680036207e-38
-0.2859732211 -0.3203212619 0.09629230946 1.680036207e-38
-0.2126832902 -0.3377301991 0.2708697319 1.680036207e-38
-0.1225074157 -0.1275060475 0.2767584324 1.698367293e-38
-0.1747817397 -0.3009889722 0.2721454501 1.698367293e-38
0.1171124727 -0.1349724084 -0.1312803626 1.698367293e-38
0.1166721284 -0.1601388305 -0.1194295734 1.698367293e-38
0.06919398159 -0.1047162414 -0.3425979614 1.698367293e-38
0.1507031769 -0.349627912 -0.02393007092 1.698367293e-38
0.1047338545 -0.122588113 -0.1186900288 1.698367293e-38
-0.187508136 -0.3135035336 0.2841534019 1.698367293e-38
-0.1621478647 -0.2887418568 0.2725707293 1.716698239e-38
0.1549664289 -0.1461563557 -0.2182015628 1.716698239e-38
0.1407226324 -0.2227908224 -0.1206174642 1.716698239e-38
0.1545597911 -0.2070660293 -0.2818233967 1.716698239e-38
-0.18741557 -0.313236028 0.2717202306 1.716698239e-38
-0.2733394206 -0.3080742061 0.0967175588 1.716698239e-38
0.1554768533 -0.09689356387 -0.1921704561 1.716698239e-38
0.1558358818 -0.08390909433 -0.2167455703 1.716698239e-38
-0.08800236136 -0.3275719285 0.2849345803 1.735029324e-38
0.1669972688 -0.1834395528 -0.2313742787 1.735029324e-38
0.1544784755 -0.2192479521 -0.2945477366 1.735029324e-38
0.06884619594 -0.129615128 -0.3431803584 1.735029324e-38
-0.1120528355 -0.2649199069 0.2861224413 1.735029324e-38
0.1548851132 -0.1583382785 -0.2309259325 1.735029324e-38
-0.09741360694 -0.1154613569 0.2773177028 1.735029324e-38
-0.2732468545 -0.3078067005 0.08428440243 1.735029324e-38
-0.1117863804 -0.2522029579 0.2739804983 1.75336041e-38
-0.2855216563 -0.3070692718 0.05928398669 1.75336041e-38
-0.1370540857 -0.2766971588 0.2731299996 1.75336041e-38
-0.1600611806 -0.1393483877 0.2760651112 1.75336041e-38
-0.1351412982 -0.1397531182 0.2763331532 1.75336041e-38
0.1540632695 -0.1726603806 -0.1441849619 1.75336041e-38
0.1286104023 -0.1976895481 -0.120169118 1.75336041e-38
0.1561948955 -0.0709245801 -0.2413207144 1.75336041e-38
-0.1116124913 -0.2397535145 0.2742717266 1.771655483e-38
0.1553842872 -0.09716108441 -0.1797372699 1.771655483e-38
-0.2250618935 -0.3253458738 0.283460021 1.771655483e-38
-0.02657201886 -0.3908310235 0.2841488123 1.771655483e-38
0.1553955376 -0.1090755165 -0.2048948109 1.771655483e-38
-0.1105691493 -0.16505678 0.276018858 1.771655483e-38
-0.07562374324 -0.3399562538 0.2723442912 1.771655483e-38
0.1547224373 -0.182702139 -0.2563746572 1.771655483e-38
0.1548037678 -0.1705202311 -0.2436502874 1.789986569e-38
0.1635221392 -0.3368457854 -0.04837116599 1.789986569e-38
0.1551403254 -0.1337068826 -0.2179103643 1.789986569e-38
-0.1113572791 -0.2151221186 0.2872872353 1.789986569e-38
-0.161973983 -0.2762924135 0.2728618979 1.789986569e-38
0.1672524959 -0.1588081568 -0.2183587104 1.789986569e-38
-0.2987109125 -0.3209214509 0.1334577799 1.789986569e-38
-0.1238985434 -0.2271016836 0.2744288445 1.789986569e-38
0.09463559836 -0.06777259707 -0.3414562941 1.808317654e-38
-0.08756201714 -0.3024055362 0.273083806 1.808317654e-38
-0.1230290905 -0.1648544073 0.2758848071 1.808317654e-38
0.1669635624 -0.1476963013 -0.1559016854 1.808317654e-38
-0.09750617296 -0.11572887 0.289750874 1.808317654e-38
0.1675077081 -0.1341767758 -0.2053431571 1.808317654e-38
-0.1232029796 -0.1773038805 0.2755936384 1.808317654e-38
-0.2981667817 -0.3074019551 0.08401630819 1.808317654e-38
0.0818278715 -0.09246914089 -0.3421727419 1.826612727e-38
0.1555806696 -0.1085404828 -0.2297611535 1.826612727e-38
0.1663493216 -0.1853121817 -0.1443421096 1.826612727e-38
-0.2857067883 -0.3076043129 0.08415035158 1.826612727e-38
0.1503441483 -0.3626124263 0.0006450396031 1.826612727e-38
0.118315801 -0.1314946711 -0.2929115295 1.826612727e-38
0.1419484317 -0.2431419492 -0.3325636983 1.826612727e-38
-0.1352338642 -0.1400206387 0.2887663245 1.826612727e-38
-0.1103139371 -0.140425384 0.2890344262 1.844943813e-38
-0.2248879969 -0.3128964305 0.2837512493 1.844943813e-38
-0.1491662413 -0.2515958548 0.2735783458 1.844943813e-38
0.1301727295 -0.1812273413 -0.3063753843 1.844943813e-38
-0.1364510953 -0.2271668315 0.2867279649 1.844943813e-38
-0.1871603578 -0.2886046171 0.2847357988 1.844943813e-38
-0.1227738783 -0.1402230114 0.2889003754 1.844943813e-38
-0.1354890764 -0.1646520346 0.2757508159 1.844943813e-38
-0.2857993543 -0.3078718185 0.09658350796 1.863274899e-38
-0.1490849257 -0.239413932 0.2863026857 1.863274899e-38
0.04783994704 -0.4169441462 0.2843707204 1.863274899e-38
-0.1745265275 -0.2763575613 0.2851610184 1.863274899e-38
-0.1997016668 -0.3005842268 0.2718773484 1.863274899e-38
0.1508770585 -0.3371784687 -0.02363887429 1.863274899e-38
0.1415107548 -0.1727255285 -0.1318858564 1.863274899e-38
0.1666018665 -0.2562636435 -0.3201536536 1.863274899e-38
-0.09915251285 -0.2399558872 0.2744057178 1.881569971e-38
-0.1602350771 -0.1517978609 0.2757738829 1.881569971e-38
0.1422036439 -0.2185105383 -0.31954813 1.881569971e-38
0.08113230765 -0.1422669739 -0.3433374763 1.881569971e-38
-0.1106617153 -0.1653243005 0.2884520292 1.881569971e-38
-0.1358368546 -0.1895509511 0.2751684189 1.881569971e-38
-0.2122541815 -0.3006493449 0.2841764688 1.881569971e-38
0.1550252885 -0.1101455912 -0.1551621407 1.881569971e-38
0.1659089774 -0.2104786187 -0.1324913502 1.899901057e-38
0.1671711653 -0.1709901094 -0.2310830951 1.899901057e-38
-0.08738812059 -0.289956063 0.2733750343 1.899901057e-38
-0.07544985414 -0.3275067806 0.2726354599 1.899901057e-38
0.06946042925 -0.09199925512 -0.354739964 1.899901057e-38
-0.161718756 -0.2516610026 0.2858774662 1.899901057e-38
0.1679368019 -0.09709593654 -0.1920364052 1.899901057e-38
0.1418671012 -0.2553238869 -0.3452880383 1.899901057e-38
-0.1479490101 -0.1644496769 0.275616765 1.91819627e-38
0.1675778031 -0.1100804433 -0.1674612761 1.91819627e-38
-0.1615448743 -0.2392115593 0.2861686349 1.91819627e-38
-0.1359294206 -0.1898184717 0.2876015306 1.91819627e-38
-0.0986308381 -0.2026074976 0.2752793431 1.91819627e-38
-0.03885807469 -0.3781792223 0.2843059897 1.91819627e-38
-0.1485632509 -0.2020655423 0.287176311 1.91819627e-38
0.0816539824 -0.104918614 -0.3424639106 1.91819627e-38
0.0687648654 -0.1417970806 -0.355904758 1.936527215e-38
0.1687361747 -0.05894502252 -0.2284623086 1.936527215e-38
0.1650283039 -0.2608114481 -0.108789809 1.936527215e-38
0.1685510427 -0.05948005989 -0.2035959661 1.936527215e-38
0.106040962 -0.1307572573 -0.3179119229 1.936527215e-38
0.1506106108 -0.3498954177 -0.01149691641 1.936527215e-38
0.1541531533 -0.2679757178 -0.3454452157 1.936527215e-38
-0.1611045301 -0.2140451223 0.2743179202 1.936527215e-38
0.1514099836 -0.3117445111 -0.04792281613 1.954822428e-38
0.1556395292 -0.07252968848 -0.1667217314 1.954822428e-38
0.1182344556 -0.1436766237 -0.3056358695 1.954822428e-38
0.106214866 -0.1183078215 -0.3176206946 1.954822428e-38
0.1634295732 -0.3371133208 -0.03593797982 1.954822428e-38
0.1558134109 -0.06008024514 -0.1664305329 1.954822428e-38
0.1285178512 -0.1979570687 -0.1077359617 1.954822428e-38
-0.1607567519 -0.1891462207 0.2749003172 1.954822428e-38
-0.1604089588 -0.1642473042 0.2754827142 1.973153514e-38
-0.09889730066 -0.2153244913 0.2874212861 1.973153514e-38
0.09341836721 -0.154918775 -0.3434946537 1.973153514e-38
-0.1605828553 -0.1766967773 0.2751914859 1.973153514e-38
-0.1610231996 -0.2018631846 0.2870422602 1.973153514e-38
-0.2119877189 -0.2879323959 0.2720345259 1.973153514e-38
-0.1740048528 -0.2390092015 0.286034584 1.973153514e-38
0.1548150033 -0.1824346334 -0.2688078284 1.973153514e-38
0.08209431916 -0.07975218445 -0.3543146849 1.991448586e-38
0.1613568068 -0.4028383195 0.12423715 1.991448586e-38
-0.1608493179 -0.1894137412 0.2873334289 1.991448586e-38
0.1421223134 -0.2306924909 -0.33227247 1.991448586e-38
-0.09785395861 -0.1406277567 0.2891684771 1.991448586e-38
0.1628040969 -0.362814784 0.0007790885866 1.991448586e-38
-0.08765458316 -0.3026730418 0.2855169773 1.991448586e-38
0.1679480523 -0.109010376 -0.2171939164 1.991448586e-38
0.1670197397 -0.207268402 -0.2816893458 2.009743799e-38
0.1043748334 -0.1355725825 -0.09411489218 2.009743799e-38
-0.1737383902 -0.2262922078 0.2738926411 2.009743799e-38
0.1683883965 -0.08384393901 -0.2290447056 2.009743799e-38
0.1181531399 -0.1558585465 -0.3183602691 2.009743799e-38
0.1423775256 -0.2060611099 -0.3192569613 2.009743799e-38
-0.08477976918 -0.103214249 0.2777429819 2.009743799e-38
0.1524757892 -0.2608766258 -0.09649067372 2.009743799e-38
0.1656425297 -0.2231955677 -0.1203493699 2.028074885e-38
0.148804307 -0.4029034376 0.1365363151 2.028074885e-38
0.1639624834 -0.3116793633 -0.06022192165 2.028074885e-38
-0.1993538886 -0.2756853104 0.2724597454 2.028074885e-38
0.0689387545 -0.1293476075 -0.3556135297 2.028074885e-38
-0.1728689373 -0.1640449315 0.2753486633 2.028074885e-38
0.1677741557 -0.1214598194 -0.2174851149 2.028074885e-38
0.1671010703 -0.1950864494 -0.2689649463 2.028074885e-38
0.1668570787 -0.2316322774 -0.3071380854 2.046369957e-38
-0.02630556561 -0.3781140745 0.2720068693 2.046369957e-38
0.1547588259 -0.1228625551 -0.1430201828 2.046369957e-38
-0.2977264225 -0.2822355032 0.0721655488 2.046369957e-38
-0.0848723352 -0.1034817621 0.2901760936 2.046369957e-38
0.1299287677 -0.2177731544 -0.3445485234 2.046369957e-38
0.1057044268 -0.1675706208 -0.3436518312 2.046369957e-38
-0.1866386831 -0.2512562871 0.2856093645 2.046369957e-38
0.1557657868 -0.1080054492 -0.2546274662 2.06466517e-38
0.1690138578 -0.05814246833 -0.2657617927 2.06466517e-38
0.1676591188 -0.09789849073 -0.1547368914 2.06466517e-38
-0.0874806866 -0.2902235687 0.285808146 2.06466517e-38
0.1633370072 -0.3373808265 -0.02350482531 2.06466517e-38
0.1680994779 -0.0727320537 -0.1665876806 2.06466517e-38
-0.07510206848 -0.3026078939 0.2732178569 2.06466517e-38
-0.06316376477 -0.3401586413 0.2724782825 2.06466517e-38
0.1560322344 -0.09528845549 -0.266769439 2.082996116e-38
0.1548262537 -0.1943490356 -0.2939653397 2.082996116e-38
0.1680406183 -0.1087428555 -0.2296271026 2.082996116e-38
0.1549888998 -0.1699852049 -0.2685166001 2.082996116e-38
-0.1860244572 -0.2136403918 0.2740498185 2.082996116e-38
0.1069216579 -0.08042443544 -0.3416134119 2.082996116e-38
0.1056230962 -0.1797525436 -0.3563761711 2.082996116e-38
-0.08651867509 -0.2277087867 0.274830997 2.082996116e-38
0.08174654096 -0.1046511009 -0.3548970819 2.101291328e-38
0.1284252852 -0.1982245892 -0.09530278295 2.101291328e-38
0.1179904789 -0.1802224219 -0.343808949 2.101291328e-38
0.1301026493 -0.205323711 -0.3442572951 2.101291328e-38
0.1664306521 -0.1731302589 -0.1316177547 2.101291328e-38
-0.08582311124 -0.1779109836 0.275995791 2.101291328e-38
-0.0852201134 -0.1283806711 0.2895936966 2.101291328e-38
0.1063074321 -0.1180403084 -0.3300538659 2.101291328e-38
-0.2853589952 -0.2827053964 0.08473274857 2.119586541e-38
0.118245706 -0.1555910259 -0.3307933807 2.119586541e-38
-0.08547533303 -0.1530120671 0.2765781879 2.119586541e-38
0.1544923782 -0.1355795115 -0.1308782101 2.119586541e-38
0.1521167606 -0.2738611102 -0.07191556692 2.119586541e-38
0.1512248516 -0.3122795522 -0.02305647731 2.119586541e-38
-0.03859162331 -0.3654622734 0.2721639872 2.119586541e-38
0.1551627964 -0.1575357318 -0.2682254314 2.119586541e-38
0.1421335638 -0.242606923 -0.3574300408 2.137881613e-38
0.08139875531 -0.1295499802 -0.3554794788 2.137881613e-38
0.1537042409 -0.1856448352 -0.1196098253 2.137881613e-38
0.1424700916 -0.2057935894 -0.331690073 2.137881613e-38
0.156391263 -0.08230398595 -0.291344583 2.137881613e-38
0.1548401564 -0.1106806248 -0.130295828 2.137881613e-38
0.1300213337 -0.2175056338 -0.3569816947 2.137881613e-38
0.1659903079 -0.1982966512 -0.119766973 2.137881613e-38
0.150958389 -0.3249965012 -0.01091452129 2.156176826e-38
-0.06281598657 -0.3152597249 0.2730606794 2.156176826e-38
0.1691989899 -0.05760743469 -0.2906281352 2.156176826e-38
0.1556844562 -0.120187372 -0.267351836 2.156176826e-38
0.1057969853 -0.1673031002 -0.3560850024 2.156176826e-38
0.1632444412 -0.3376483321 -0.01107167173 2.156176826e-38
-0.08574178815 -0.165729031 0.2887201309 2.156176826e-38
-0.07458040118 -0.2652595341 0.2740914226 2.156176826e-38
0.1555105746 -0.1326368153 -0.2676430345 2.174471899e-38
0.1544196159 -0.255258739 -0.3575871587 2.174471899e-38
0.1506919265 -0.3377135098 0.001227434725 2.174471899e-38
0.1184195876 -0.1431415826 -0.330502212 2.174471899e-38
0.1673675179 -0.1823694855 -0.2811069489 2.174471899e-38
0.1065738797 -0.1053233445 -0.3421958089 2.174471899e-38
0.106052205 -0.1426717043 -0.3430694342 2.174471899e-38
-0.01384561881 -0.378316462 0.2721409202 2.174471899e-38
0.1562173665 -0.09475342184 -0.2916357517 2.192767111e-38
0.1520241946 -0.2741286457 -0.05948237702 2.192767111e-38
0.1551740319 -0.1694501638 -0.2933829427 2.192767111e-38
-0.07440651208 -0.252810061 0.2743826509 2.192767111e-38
0.09420648962 -0.1048534662 -0.354763031 2.192767111e-38
0.1564838141 -0.08203646541 -0.3037777543 2.192767111e-38
0.1669523269 -0.1357818842 -0.1307441741 2.192767111e-38
0.1657238603 -0.2110136449 -0.1076250225 2.192767111e-38
-0.06264209747 -0.3028102815 0.2733519077 2.211062324e-38
0.1671262085 -0.1233324483 -0.1304529756 2.211062324e-38
0.1680518389 -0.1206572652 -0.2547846437 2.211062324e-38
0.1513987333 -0.2998301089 -0.02276528068 2.211062324e-38
0.1671235412 -0.2189152837 -0.3192800283 2.211062324e-38
0.1645767093 -0.274063468 -0.07178151608 2.211062324e-38
0.169291541 -0.05733991414 -0.3030613065 2.211062324e-38
0.1525571197 -0.2486946732 -0.08376631886 2.211062324e-38
0.165283516 -0.236180082 -0.09577423334 2.229357396e-38
0.1543998122 -0.1358470172 -0.1184450388 2.229357396e-38
0.1648431718 -0.2613464892 -0.08392347395 2.229357396e-38
-0.07266760617 -0.1283155233 0.2772946358 2.229357396e-38
0.03564644605 -0.4040248394 0.2720947266 2.229357396e-38
0.1536116898 -0.1859123558 -0.1071766689 2.229357396e-38
-0.06290854514 -0.3155272305 0.2854938507 2.229357396e-38
0.1556031406 -0.1323692948 -0.2800762057 2.229357396e-38
0.09777235985 -0.4174861312 0.2724737525 2.247652609e-38
-0.07353705913 -0.1905627996 0.2758386135 2.247652609e-38
0.1560434848 -0.107202895 -0.29192698 2.247652609e-38
0.1531713456 -0.2110787928 -0.09532587975 2.247652609e-38
0.1550953686 -0.08604923636 -0.1172802448 2.247652609e-38
0.1196480691 -0.06790981442 -0.3536213636 2.247652609e-38
0.09403260052 -0.117302902 -0.3550542593 2.247652609e-38
-0.07449907064 -0.2530775964 0.2868158221 2.247652609e-38
-0.06246820837 -0.2903608084 0.2736430764 2.265947681e-38
0.1068403274 -0.09260636568 -0.3543378115 2.265947681e-38
-0.07318928093 -0.1656638831 0.2764210105 2.265947681e-38
0.1673787534 -0.1942838877 -0.3062644601 2.265947681e-38
-0.07284149528 -0.1407649666 0.2770034075 2.265947681e-38
0.1669608951 -0.2432791591 -0.3447287679 2.265947681e-38
0.167460084 -0.182101965 -0.2935401201 2.265947681e-38
0.1446493417 -0.05613262951 -0.3406288624 2.265947681e-38
0.1182569414 -0.167505458 -0.3559509516 2.284242894e-38
0.1654574126 -0.2237306088 -0.09548303485 2.284242894e-38
0.1303691119 -0.1926067173 -0.3563992977 2.284242894e-38
0.1190338284 -0.1055257171 -0.342061758 2.284242894e-38
0.1677966267 -0.1452886462 -0.2678002119 2.284242894e-38
0.1504254937 -0.3504304588 0.01336945221 2.284242894e-38
-0.0139381811 -0.3785839677 0.2845740914 2.284242894e-38
0.1631518751 -0.3379158676 0.001361481845 2.284242894e-38
-0.07362961769 -0.1908303201 0.2882717848 2.302537966e-38
-0.06273465604 -0.3030777872 0.285785079 2.302537966e-38
0.1515726298 -0.2873806357 -0.02247408405 2.302537966e-38
0.1666858643 -0.1484988481 -0.1186021864 2.302537966e-38
0.1558695883 -0.1196523383 -0.2922181487 2.302537966e-38
0.1675553173 -0.08625160158 -0.1171462014 2.302537966e-38
0.1524645537 -0.2489621788 -0.07133316994 2.302537966e-38
0.1544811428 -0.1236651018 -0.1057206839 2.302537966e-38
0.154828921 -0.09876618534 -0.1051382869 2.320833179e-38
0.1556957066 -0.1321017742 -0.292509377 2.320833179e-38
0.1635922343 -0.3127494156 -0.01048927661 2.320833179e-38
-0.05062249303 -0.3281790316 0.2853367329 2.320833179e-38
0.148619175 -0.4034384787 0.1614026278 2.320833179e-38
0.1535191238 -0.1861798763 -0.09474349022 2.320833179e-38
-0.06194653362 -0.2530124485 0.2745167017 2.320833179e-38
-0.06256076694 -0.290628314 0.2860762477 2.320833179e-38
0.155359149 -0.1689151227 -0.3182492852 2.339092378e-38
0.1559621394 -0.1193848178 -0.30465132 2.339092378e-38
0.1685034335 -0.1074052677 -0.2917929292 2.339092378e-38
0.1429104358 -0.1806271672 -0.3435408473 2.339092378e-38
0.1556143612 -0.1442837268 -0.305233717 2.339092378e-38
0.1536930203 -0.1737304479 -0.09445229173 2.339092378e-38
0.1500664651 -0.363414973 0.03794456273 2.339092378e-38
0.1557882577 -0.1318342537 -0.3049425483 2.339092378e-38
-0.06107708067 -0.1907651573 0.2759726644 2.348204041e-38
-0.06238687783 -0.2781788707 0.286367476 2.348204041e-38
0.1677265316 -0.1693850011 -0.3056820631 2.348204041e-38
0.1653648466 -0.2239981294 -0.08304987848 2.348204041e-38
0.1538669169 -0.1612809747 -0.09416109324 2.348204041e-38
0.1319341213 -0.08056166023 -0.3537784815 2.348204041e-38
0.1572018564 -0.05606747791 -0.3529280424 2.348204041e-38
0.1101397425 -0.4179559946 0.2850409746 2.348204041e-38
0.1667672098 -0.1363169104 -0.1058778316 2.348132155e-38
0.169569239 -0.05653735995 -0.3403607607 2.348132155e-38
0.1685959846 -0.1071377471 -0.3042261004 2.348132155e-38
0.04801383615 -0.4044947326 0.2846618891 2.348132155e-38
0.01080788486 -0.3914381564 0.2845509648 2.348132155e-38
0.1512136012 -0.30036515 0.002101026475 2.348132155e-38
0.1430843323 -0.1681777239 -0.3432496786 2.348132155e-38
0.1528123319 -0.2240632772 -0.07075077295 2.348132155e-38
0.1490707397 -0.3901864588 0.1243943125 2.348060128e-38
-0.06116964668 -0.1910326779 0.2884058356 2.348060128e-38
-0.001385672018 -0.3785188198 0.272274971 2.348060128e-38
0.1681556553 -0.1323041469 -0.2923753262 2.348060128e-38
0.1679004282 -0.1569355279 -0.3053908944 2.348060128e-38
0.166152969 -0.1739328057 -0.09431824088 2.348060128e-38
-0.04983436689 -0.2781137228 0.2740683556 2.348060128e-38
0.1496149004 -0.3766669333 0.07495288551 2.348060128e-38
0.1563211679 -0.1064003408 -0.3292264938 2.347952368e-38
0.1674012393 -0.2181127369 -0.3565795422 2.347952368e-38
0.1691288948 -0.08170379698 -0.328510046 2.347952368e-38
0.1439537853 -0.105930455 -0.3417936563 2.347952368e-38
0.1693953574 -0.06898680329 -0.340651989 2.347952368e-38
0.06056635082 -0.4044295847 0.2723628283 2.347952368e-38
0.1686885506 -0.1068702266 -0.3166592717 2.347952368e-38
0.1315863431 -0.1054605693 -0.3543608785 2.347952368e-38
0.1536004543 -0.1739979684 -0.08201913536 2.347880341e-38
0.1615306884 -0.3903888464 0.1245283484 2.347880341e-38
0.1642064601 -0.2751335502 -0.02204883844 2.347880341e-38
0.1509471685 -0.313082099 0.01424304396 2.347880341e-38
-0.01376429107 -0.3661345243 0.2848652601 2.347880341e-38
0.1556256115 -0.1561981291 -0.3303912878 2.347880341e-38
0.1639400125 -0.2878504992 -0.009906881489 2.347880341e-38
-0.04948658496 -0.2532148063 0.2746507525 2.347880341e-38
0.1677179784 -0.06188771874 -0.09169746935 2.347808455e-38
0.1676564515 -0.193481341 -0.3435639739 2.347808455e-38
0.1548176855 -0.08685179055 -0.07998075336 2.347808455e-38
0.1521868706 -0.2497647554 -0.03403364494 2.347808455e-38
0.1539482325 -0.149099052 -0.08143673837 2.347808455e-38
0.1541221291 -0.1366495788 -0.08114554733 2.347808455e-38
0.1561472714 -0.1188497841 -0.3295176625 2.347808455e-38
0.1694879234 -0.0687192902 -0.3530851603 2.347808455e-38
0.1568540782 -0.08096639812 -0.3535104394 2.347700555e-38
-0.001478234306 -0.3787863255 0.2847080827 2.347700555e-38
0.111320585 -0.3906494379 0.1737248451 2.347700555e-38
0.1527197659 -0.2243307978 -0.05831758678 2.347700555e-38
0.1609865576 -0.4039084017 0.173969835 2.347700555e-38
-0.04731857777 -0.09163942933 0.2908694744 2.347700555e-38
0.165005818 -0.2369826436 -0.05847473815 2.347700555e-38
0.1647393852 -0.2496995777 -0.046332784 2.347700555e-38
0.1681668758 -0.144218564 -0.3175328374 2.347628668e-38
-0.04879102483 -0.2034169734 0.2758155465 2.347628668e-38
0.1524533182 -0.2370477766 -0.04617563263 2.347628668e-38
0.1559733897 -0.1312992126 -0.3298088908 2.347628668e-38
0.1436060071 -0.1308293343 -0.3423760533 2.347628668e-38
0.1614381373 -0.390656352 0.1369615644 2.347628668e-38
0.1533339918 -0.1867149174 -0.06987717748 2.347628668e-38
-0.04844324291 -0.1785180867 0.2763979435 2.347628668e-38
0.02326782979 -0.3916405141 0.2846850157 2.347520768e-38
-0.03754828125 -0.2907655537 0.2739111781 2.347520768e-38
0.151827842 -0.2627492249 -0.009458533488 2.347520768e-38
0.1440463513 -0.1056629419 -0.3542268276 2.347520768e-38
0.1515613794 -0.2754662335 0.002683421597 2.347520768e-38
-0.01349783782 -0.3534175456 0.2727233171 2.347520768e-38
0.1528936476 -0.2118813545 -0.05802639201 2.347520768e-38
-0.04957915097 -0.2534823418 0.2870839238 2.347520768e-38
0.1520943046 -0.2500322759 -0.02160049044 2.347448882e-38
-0.04940525815 -0.2410328835 0.2873750925 2.347448882e-38
0.1624338478 -0.3638848364 0.0505117625 2.347448882e-38
-0.04923136905 -0.2285834104 0.2876662612 2.347448882e-38
0.1693140268 -0.08116876334 -0.3533763885 2.347448882e-38
0.1677490175 -0.1932138205 -0.3559971452 2.347448882e-38
-0.04905747622 -0.216133967 0.2879574895 2.347448882e-38
0.1506807059 -0.3257990777 0.02638500184 2.347448882e-38
-0.04792157561 -0.141169697 0.2772715092 2.347340982e-38
0.1651797146 -0.2245331705 -0.05818353966 2.347340982e-38
0.1550728977 -0.06222038716 -0.06696520746 2.347340982e-38
0.1634071171 -0.3132844567 0.01437709108 2.347340982e-38
0.1665820777 -0.1368519515 -0.08101149648 2.347340982e-38
0.1669298559 -0.1119530722 -0.0804290995 2.347340982e-38
0.1671037376 -0.09950359911 -0.08013790846 2.347340982e-38
0.1547251195 -0.08711930364 -0.06754760444 2.347340982e-38
0.155636847 -0.168112576 -0.355548799 2.347269095e-38
0.07293378562 -0.4048994482 0.2849299908 2.347269095e-38
0.1686072201 -0.1190521568 -0.3293836117 2.347269095e-38
0.1526272148 -0.2245983034 -0.04588443413 2.347269095e-38
0.1536817849 -0.1618160158 -0.06929478049 2.347269095e-38
0.1438724548 -0.1181123778 -0.3545180559 2.347269095e-38
0.0358203426 -0.3915753663 0.2723858953 2.347269095e-38
0.1649132669 -0.2372501493 -0.04604158551 2.347269095e-38
0.1540295631 -0.1369170994 -0.06871239096 2.347161195e-38
