# .PCD v0.7 - Point Cloud Data file format
VERSION 0.7
FIELDS x y z rgb
SIZE 4 4 4 4
TYPE F F F F
COUNT 1 1 1 1
WIDTH 836
HEIGHT 1
VIEWPOINT 0 0 0 1 0 0 0
POINTS 836
DATA ascii
0.1221978217 -0.4887882769 0.415086776 3.75229193e-39
0.02090047486 -0.4139361978 0.3502151966 3.75229193e-39
-0.2108013779 -0.7354508042 -0.2270927876 3.75229193e-39
-0.2152422071 -0.3581287265 0.2407823801 3.75229193e-39
0.1786114722 -0.1905306429 0.2863506079 3.75229193e-39
-0.06663169712 -0.4489143491 0.2419651747 3.75229193e-39
-0.1797009408 -0.2540291548 0.2142058015 3.75229193e-39
-0.04825731367 -0.4673634171 -0.2533884048 3.75229193e-39
0.1156314015 -0.1914848685 0.2682635784 3.936320254e-39
-0.2114854455 -0.7339577675 -0.2384720445 3.936320254e-39
-0.01183203794 -0.1877153218 0.2548668981 3.936320254e-39
0.02146625705 -0.4216201901 0.3409122825 3.936320254e-39
-0.00986325182 -0.1320838779 0.1752755642 3.936320254e-39
-0.003377472982 -0.1655871272 0.2270214856 3.936320254e-39
0.01682171412 -0.3663392365 0.3946536183 3.936320254e-39
0.2403106689 -0.7788295746 0.2759654522 3.936320254e-39
0.1791423708 -0.264516145 0.3700945079 4.120708711e-39
0.04544662312 -0.223744303 0.2800983489 4.120708711e-39
0.1824792773 -0.2118707895 0.3132616878 4.120708711e-39
0.03536770493 -0.4500750303 0.2913869619 4.120708711e-39
-0.2379742265 -0.4362852573 -0.2269968987 4.120708711e-39
-0.1496670544 -0.2042867839 0.1896421164 4.120708711e-39
-0.0002286043018 -0.2517357171 0.3356001973 4.120708711e-39
-0.2341898084 -0.3975148201 -0.3138148487 4.120708711e-39
-0.1909543127 -0.7510861754 -0.1028553918 4.304737034e-39
-0.1034429595 -0.175096482 0.1910552233 4.304737034e-39
-0.05790296942 -0.1444131434 0.1810890883 4.304737034e-39
-0.1717727482 -0.7099029422 -0.4015187025 4.304737034e-39
0.1844131798 -0.2225408256 0.3267172277 4.304737034e-39
0.1475266963 -0.488705188 0.4245973825 4.304737034e-39
-0.1731594354 -0.7622424364 -0.01275570691 4.304737034e-39
-0.04683040828 -0.1344480515 0.1780784726 4.304737034e-39
-0.0729020983 -0.4689395428 -0.2515197992 4.48912409e-39
-0.2004201263 -0.3756947219 0.2440006882 4.48912409e-39
0.02259782143 -0.4369881749 0.3223063946 4.48912409e-39
-0.1307295859 -0.4341093898 -0.3336662352 4.48912409e-39
-0.1588056833 -0.2249219418 0.2061082721 4.48912409e-39
-0.2232355475 -0.393740654 -0.3375076354 4.48912409e-39
0.01026018336 -0.3092710376 0.3687214851 4.48912409e-39
0.1352043152 -0.4894932508 0.4255316854 4.48912409e-39
0.1081203073 -0.3677750528 0.4429146945 4.673152414e-39
-0.1724568158 -0.7084099054 -0.4128979445 4.673152414e-39
0.02827401832 -0.1541136503 -0.1254452914 4.673152414e-39
-0.1889021248 -0.7555652857 -0.06871762872 4.673152414e-39
0.2156659067 -0.7804057598 0.2778340578 4.673152414e-39
-0.1581008136 -0.7674264908 0.03182694316 4.673152414e-39
0.002082467079 0.08120755851 0.2390143573 4.673152414e-39
-0.2060129493 -0.7459020615 -0.1474380791 4.673152414e-39
-0.1689466387 -0.4272965193 -0.3329396546 4.857539469e-39
0.1434250176 -0.2760573626 0.3749737442 4.857539469e-39
0.01731174439 -0.3504582942 0.4111644626 4.857539469e-39
0.5285502672 -0.1838443279 -0.1710417867 4.857539469e-39
0.01458349079 -0.1519156396 -0.1472694874 4.857539469e-39
-0.1046928093 -0.1659194529 0.1889789104 4.857539469e-39
-0.03363485262 0.0696663484 0.2438935637 4.857539469e-39
-0.1600555331 -0.2157449126 0.2040319592 4.857539469e-39
-0.2053288966 -0.7473951578 -0.1360588223 5.041567793e-39
2.487003803e-05 -0.248236686 0.3107466996 5.041567793e-39
-0.1357638836 -0.4637027979 -0.2489245832 5.041567793e-39
0.006257178262 -0.2852389812 0.3873460889 5.041567793e-39
-0.2452623546 -0.4074799418 -0.3108042479 5.041567793e-39
-0.1868499517 -0.7600444555 -0.03457991779 5.041567793e-39
-0.006596101448 -0.2120415568 0.3045364618 5.041567793e-39
-0.1739808768 -0.4568899274 -0.2481980026 5.041567793e-39
0.119934693 -0.4580522776 0.4522984922 5.225597518e-39
0.01569014601 -0.3509712219 0.4132594466 5.225597518e-39
0.003892682493 -0.2695768476 0.3376577795 5.225597518e-39
-0.01006126031 -0.1534917653 -0.1454008818 5.225597518e-39
-0.2062796354 -0.2449351847 0.2026188523 5.225597518e-39
-0.157416746 -0.7689195871 0.04320622981 5.225597518e-39
-0.1822006255 -0.2356750965 0.2100531906 5.225597518e-39
-0.2367243916 -0.4454622865 -0.2249206007 5.225597518e-39
-0.2207358629 -0.4120947123 -0.3333550394 5.409984573e-39
-0.1170152202 -0.1667075157 0.1899132133 5.409984573e-39
-0.007811065763 -0.1365630031 0.2094133347 5.409984573e-39
-0.2115138322 -0.4515701532 -0.2360921502 5.409984573e-39
-0.06893695891 -0.1634042263 -0.09521237016 5.409984573e-39
-0.2224681079 -0.4553443193 -0.2123993635 5.409984573e-39
-0.2066877186 -0.7167462111 -0.3645780683 5.409984573e-39
-0.1572037488 -0.4192156792 0.2515792847 5.409984573e-39
-0.01626563072 -0.1586911976 0.2372587174 5.594012897e-39
0.0341255106 -0.4774436653 0.4288535118 5.594012897e-39
-0.03470603749 -0.155067876 -0.1435322762 5.594012897e-39
0.01693999209 -0.3601482809 0.4153357744 5.594012897e-39
-0.2264908105 -0.2755354643 0.2220956236 5.594012897e-39
-0.2405710369 -0.3582118154 0.2312717438 5.594012897e-39
-0.2459464222 -0.4059868455 -0.3221834898 5.594012897e-39
0.03934654966 -0.1441485584 -0.1284559071 5.594012897e-39
0.02492908761 -0.3993295133 0.4443044662 5.77804122e-39
0.008191080764 -0.2959090769 0.4008016586 5.77804122e-39
-0.1171711087 -0.4428895414 0.243626073 5.77804122e-39
-0.186303243 -0.45767802 -0.2472636998 5.77804122e-39
0.102208361 -0.1493852884 -0.1310511082 5.77804122e-39
-0.1404101253 -0.1774606705 0.1938581318 5.77804122e-39
-0.2413945347 -0.4288200736 -0.2838931084 5.77804122e-39
-0.2523487806 -0.4325941801 -0.2602003515 5.77804122e-39
-0.0220673494 -0.126681 0.196892038 5.962428276e-39
-0.2285962403 -0.7242945433 -0.3171924949 5.962428276e-39
-0.2183353156 -0.7466901541 -0.1465037763 5.962428276e-39
-0.1300592571 -0.4359936118 0.2538633347 5.962428276e-39
-0.03488469496 0.07884337008 0.2418172657 5.962428276e-39
0.1145307422 -0.1485972255 -0.131985411 5.962428276e-39
0.0003272071481 -0.1420336068 -0.1597907245 5.962428276e-39
-0.1945229918 -0.2364631593 0.2109874934 5.962428276e-39
-0.1676967889 -0.4364735484 -0.3308633268 6.1464566e-39
-0.1837824285 -0.4101217389 0.2399923652 6.1464566e-39
0.02645839006 -0.1372526288 -0.1182186753 6.1464566e-39
0.185781315 -0.2255269289 0.3494757712 6.1464566e-39
0.03355972096 -0.4697596729 0.438156426 6.1464566e-39
-0.1847977638 -0.7645235062 -0.0004421621561 6.1464566e-39
0.006941238418 -0.2867320478 0.3987253308 6.1464566e-39
-0.1979416013 -0.4599590898 -0.2349501252 6.1464566e-39
0.1015243009 -0.1478922516 -0.1424303502 6.330484923e-39
-0.002044226974 -0.2348747253 0.3428268433 6.330484923e-39
0.02242939919 -0.3809754252 0.4401518404 6.330484923e-39
0.006510648876 -0.2817399204 0.3624925613 6.330484923e-39
-0.103598848 -0.4512785375 0.2447680682 6.330484923e-39
0.02441344969 -0.4538491964 0.3150797486 6.330484923e-39
0.08851780742 -0.1471872628 -0.1528753042 6.330484923e-39
0.0163742099 -0.3524642885 0.4246387482 6.330484923e-39
0.1519978642 -0.2477382123 0.3678105175 6.514514648e-39
-0.01751547679 -0.1495141685 0.2351824045 6.514514648e-39
0.02937471122 -0.1970012784 0.2748037279 6.514514648e-39
-0.1720469892 -0.4675599933 -0.2347424328 6.514514648e-39
0.2255505025 -0.1353137195 -0.1197119653 6.514514648e-39
0.1206187457 -0.4595453143 0.4636777639 6.514514648e-39
0.02577432618 -0.1357595921 -0.1295979023 6.514514648e-39
0.1016425788 -0.1417012811 -0.1217481941 6.514514648e-39
0.2416787893 -0.7818157077 0.2987239957 6.698542971e-39
0.1052080542 -0.2692445219 0.3757003546 6.698542971e-39
0.01137483306 -0.3157561719 0.4163335562 6.698542971e-39
-0.1866342276 -0.2066509724 0.1924450248 6.698542971e-39
-0.01361278445 -0.104552798 0.1690466553 6.698542971e-39
-0.2714650035 -0.3139027655 0.2227588147 6.698542971e-39
-0.08504741639 -0.1276352257 0.178805083 6.698542971e-39
0.2501952648 -0.1337375939 -0.1215805709 6.698542971e-39
-0.1727310419 -0.4660669565 -0.2461216748 6.882571295e-39
-0.06165250391 -0.1168820634 0.1748601645 6.882571295e-39
-0.02381215617 0.08880845457 0.23880665 6.882571295e-39
0.02440620586 -0.1327735186 -0.1523564011 6.882571295e-39
-0.1305874437 -0.1583185494 0.1887712181 6.882571295e-39
-0.1195149124 -0.1483534575 0.1857606024 6.882571295e-39
-0.1461523473 -0.4751609564 -0.2345347404 6.882571295e-39
0.1131626144 -0.1456111372 -0.1547439098 6.882571295e-39
0.01330873929 -0.3264262378 0.4297890663 7.066599618e-39
-0.1991723478 -0.7608324885 -0.03364561498 7.066599618e-39
0.1630704552 -0.2377731204 0.3647999167 7.066599618e-39
0.09675343335 -0.2913727164 0.4035457373 7.066599618e-39
0.06384214759 -0.1762830466 0.2678481936 7.066599618e-39
-0.08262749016 -0.1612062007 -0.1170365512 7.066599618e-39
0.02372214571 -0.1312804818 -0.163735643 7.066599618e-39
0.005691392347 -0.2775550187 0.396649003 7.066599618e-39
-0.1697391272 -0.7697076797 0.04414053261 7.250627941e-39
0.1001561806 -0.1449061632 -0.165188849 7.250627941e-39
-0.155953899 -0.4283927083 0.2536556125 7.250627941e-39
-0.2491366714 -0.7348288894 -0.247048378 7.250627941e-39
0.5260506272 -0.1654902697 -0.1751943976 7.250627941e-39
0.02295266278 -0.4184153378 0.384352982 7.250627941e-39
-0.24538064 -0.4136708379 -0.3314864337 7.250627941e-39
-0.009095791727 -0.1936874986 0.3003838658 7.250627941e-39
-0.006442943588 -0.1395490766 0.2321718037 7.434656265e-39
0.2131098062 -0.142292738 -0.1394598484 7.434656265e-39
0.1242499948 -0.4932673872 0.449224472 7.434656265e-39
-0.2477685362 -0.7378150225 -0.2242898792 7.434656265e-39
0.02408422343 -0.4337832928 0.3657470345 7.434656265e-39
-0.0001203007996 -0.1281586736 -0.1298056096 7.434656265e-39
0.1378073692 -0.1440350264 -0.1566125154 7.434656265e-39
-0.2313417941 -0.7459851503 -0.1569487154 7.434656265e-39
0.0186798647 -0.3534443676 0.4339229167 7.618684588e-39
0.04894757643 -0.4950096607 0.432071805 7.618684588e-39
-0.2250649035 -0.3772708476 0.2458692938 7.618684588e-39
-0.1159212589 -0.4520666003 0.245702371 7.618684588e-39
-0.18595016 -0.2081440091 0.2038242668 7.618684588e-39
0.2623993754 -0.1391404867 -0.1431970596 7.618684588e-39
-0.2525569499 -0.7273637056 -0.3039445877 7.618684588e-39
-0.0829244107 0.06651411206 0.2476307899 7.618684588e-39
-0.2528934181 -0.3589998782 0.2322060466 7.802712912e-39
-0.01031075604 -0.1182089448 0.2052607089 7.802712912e-39
0.02936268598 -0.4283536375 0.4619126618 7.802712912e-39
-0.2258884162 -0.447879076 -0.2692955732 7.802712912e-39
0.07491467893 -0.1663179696 0.2648375928 7.802712912e-39
-0.08319327235 -0.1535221934 -0.1077336371 7.802712912e-39
0.1150307357 -0.2501024008 0.370613426 7.802712912e-39
-0.249885723 -0.286288619 0.2260405272 7.802712912e-39
-0.1989565939 -0.2074390352 0.1933793277 7.986382503e-39
0.01231237128 -0.3137501776 0.4028592408 7.986382503e-39
-0.2100291699 -0.2174041271 0.1963899434 7.986382503e-39
0.09550358355 -0.2821956575 0.4014694393 7.986382503e-39
-0.0122446632 -0.1075388789 0.1918051243 7.986382503e-39
-0.2532410324 -0.7258706689 -0.3153238595 7.986382503e-39
-0.1096921861 -0.1292113364 0.1806736887 7.986382503e-39
-0.08629725873 -0.1184581816 0.1767287701 7.986382503e-39
-0.2217463702 -0.7115621567 -0.4091607332 8.170410826e-39
0.01205889694 -0.3172492087 0.4277127981 8.170410826e-39
-0.1872000098 -0.1989669502 0.2017479539 8.170410826e-39
-0.004543917254 -0.2165206671 0.3386742473 8.170410826e-39
-0.01381080225 -0.1259606481 -0.1516298056 8.170410826e-39
0.06259231269 -0.1671060324 0.2657718956 8.170410826e-39
0.1781639606 -0.1766556948 0.3163357079 8.170410826e-39
-0.1152371988 -0.4535596371 0.2570816278 8.170410826e-39
-0.2327006012 -0.7153363228 -0.3854679465 8.35443915e-39
-0.03950741142 -0.09695187211 0.168838948 8.35443915e-39
0.180097878 -0.1873257756 0.3297912478 8.35443915e-39
-0.008411731571 -0.1951805353 0.3117631078 8.35443915e-39
0.1330594718 -0.4525663257 0.4834256172 8.35443915e-39
0.1364392489 -0.141048938 -0.1793710142 8.35443915e-39
-0.1063193455 0.0557609424 0.2515757084 8.35443915e-39
0.274037689 -0.1368593872 -0.1555105895 8.35443915e-39
0.01106252149 -0.3045731187 0.400782913 8.538467473e-39
-0.01034563407 -0.1845104694 0.298307538 8.538467473e-39
-0.001370143145 -0.118981652 -0.1318819076 8.538467473e-39
-0.2292896211 -0.7504643202 -0.1228109747 8.538467473e-39
-0.01614735648 -0.152500242 0.2579408884 8.538467473e-39
-0.1282436252 -0.4528546631 0.2466366738 8.538467473e-39
-0.2727148533 -0.3047257662 0.2206825167 8.538467473e-39
-0.09524677694 0.06572604924 0.2485650927 8.538467473e-39
-0.01227954216 -0.1738403887 0.2848520279 8.722137064e-39
-0.006908414885 -0.2008585036 0.2889858782 8.722137064e-39
0.009559204802 -0.2988951504 0.4235601425 8.722137064e-39
-0.2621430755 -0.7341239452 -0.2574933171 8.722137064e-39
-0.1982725263 -0.2089320719 0.2047585696 8.722137064e-39
-0.2546091378 -0.7228845358 -0.3380823433 8.722137064e-39
0.1371757984 -0.2301722169 0.3645921946 8.722137064e-39
0.03367799893 -0.4635687172 0.4588386118 8.722137064e-39
0.01080905087 -0.3080721498 0.4256364703 8.906165387e-39
-0.1552322209 -0.159894675 0.1906398237 8.906165387e-39
-0.1973758191 -0.4676430821 -0.2442530692 8.906165387e-39
0.0318623744 -0.4467076957 0.4660652876 8.906165387e-39
-0.195420742 -0.4124028385 0.2523059249 8.906165387e-39
-0.1086403877 -0.1597962379 -0.1379264444 8.906165387e-39
-0.03738437966 0.0971974358 0.2376646549 8.906165387e-39
0.2240641117 -0.1385186017 -0.16315265 8.906165387e-39
0.09425373375 -0.2730186582 0.3993931115 9.089834978e-39
-0.1093244553 -0.1583032012 -0.1493056864 9.089834978e-39
-0.04144131392 -0.08628182113 0.1553834081 9.089834978e-39
-0.2093451023 -0.2188971639 0.2077691704 9.089834978e-39
-0.02194907144 -0.1204900444 0.2175742537 9.089834978e-39
-0.002738263458 -0.115995571 -0.1546404064 9.089834978e-39
0.2177180946 -0.7848848701 0.3119718432 9.089834978e-39
-0.2286055684 -0.7519572973 -0.1114317104 9.089834978e-39
0.008309362456 -0.2897181213 0.4214838743 9.273863302e-39
0.001257797703 -0.2485308647 0.3790408373 9.273863302e-39
0.02533406951 -0.4429603219 0.3678233624 9.273863302e-39
0.009812679142 -0.2953960896 0.398706615 9.273863302e-39
0.04723535851 -0.114336364 -0.1469983608 9.273863302e-39
-0.2090141475 -0.4699242115 -0.2319395244 9.273863302e-39
-0.2373872846 -0.3780589104 0.2468035966 9.273863302e-39
-0.005793763325 -0.2073436379 0.3365979195 9.273863302e-39
-0.1109420285 -0.1200343072 0.1785973758 9.457532893e-39
0.09812155366 -0.2943587899 0.426304251 9.457532893e-39
0.006628926843 -0.2755489945 0.383174777 9.457532893e-39
-0.255977273 -0.7198984623 -0.360840857 9.457532893e-39
0.002230212092 -0.1802233458 0.2725197077 9.457532893e-39
-0.1995223761 -0.199755013 0.2026822567 9.457532893e-39
0.02379752323 -0.3839615285 0.4629103839 9.457532893e-39
0.0749605 -0.4964196086 0.4529616833 9.457532893e-39
0.03730925545 -0.4972907603 0.4443853498 9.641561216e-39
-0.002356540412 -0.2236917019 0.3272762299 9.641561216e-39
-0.0004226341844 -0.2343617678 0.3407317698 9.641561216e-39
0.01955796219 -0.3723113835 0.4401705861 9.641561216e-39
0.03129659221 -0.4390237033 0.4753682017 9.641561216e-39
-0.01546329167 -0.1539932787 0.26932019 9.641561216e-39
0.09300389886 -0.263841629 0.3973168135 9.641561216e-39
-0.2084272057 -0.4116978645 0.2418609858 9.641561216e-39
-0.1216468364 -0.159091264 -0.1483713835 9.825230807e-39
-0.01494236663 -0.1105926931 -0.1330239177 9.825230807e-39
-0.2739647031 -0.2955487072 0.2186062038 9.825230807e-39
0.2480248064 -0.1354494393 -0.1764004827 9.825230807e-39
-0.02775079012 -0.08847983181 0.1772075742 9.825230807e-39
0.1347418875 -0.1179969609 -0.1514621824 9.825230807e-39
0.03674347326 -0.4896067679 0.4536882937 9.825230807e-39
-0.2543193102 -0.2572644949 0.2084323764 9.825230807e-39
0.1219291389 -0.3637821078 0.4854210317 1.000925913e-38
0.1094130799 -0.1180800349 -0.1609728336 1.000925913e-38
-0.2101265788 -0.764606595 -0.009952798486 1.000925913e-38
0.07241499424 -0.1479638964 0.260684967 1.000925913e-38
0.01811408624 -0.3457603753 0.4432259202 1.000925913e-38
0.2099260688 -0.1224456429 -0.1549916863 1.000925913e-38
-0.2737814486 -0.736405015 -0.2451797724 1.000925913e-38
0.09720899165 -0.1126771569 -0.1393563449 1.000925913e-38
-0.133285135 -0.1613723636 -0.1360578388 1.019292872e-38
-0.2744655013 -0.7349119782 -0.2565590143 1.019292872e-38
0.0146768596 -0.3294123113 0.4525475502 1.019292872e-38
0.01330274343 -0.1702582687 0.2695091069 1.019292872e-38
-0.2265533805 -0.7564364672 -0.07729400694 1.019292872e-38
0.2350183725 -0.1347444504 -0.1868454516 1.019292872e-38
-0.2730973959 -0.7378981113 -0.2338005304 1.019292872e-38
0.1112812161 -0.2225713134 0.3643845022 1.019292872e-38
-0.2286246568 -0.441906929 -0.3148125708 1.037659831e-38
-0.2752145529 -0.2863716781 0.2165299058 1.037659831e-38
0.2473407537 -0.1339564025 -0.1877797544 1.037659831e-38
-0.1954419166 -0.478313148 -0.2307975292 1.037659831e-38
0.1130619496 -0.3057338595 0.45020473 1.037659831e-38
0.06009262428 -0.1487519592 0.2616192698 1.037659831e-38
0.007312987 -0.2770420313 0.394554019 1.037659831e-38
-0.1309641302 0.05418482423 0.253444314 1.037659831e-38
-0.1121918708 -0.1108572856 0.1765210778 1.056062664e-38
0.2463274598 -0.1123974472 -0.1484916806 1.056062664e-38
0.0009803697467 -0.1710463315 0.2704434097 1.056062664e-38
-0.1449234784 -0.1636534631 -0.1237442791 1.056062664e-38
-0.2580294609 -0.7154194117 -0.3949785829 1.056062664e-38
-0.001672478393 -0.2251847386 0.3386554718 1.056062664e-38
0.1238977686 -0.2006814331 -0.002771258354 1.056062664e-38
0.09895883501 -0.2233593762 0.365318805 1.056062664e-38
0.09788483381 -0.1992714852 -0.02366112173 1.074429623e-38
-0.1214102656 -0.1467093527 -0.1070070267 1.074429623e-38
0.07131433487 -0.1050762683 -0.1395640373 1.074429623e-38
-0.01864704303 -0.1341461986 0.2537882924 1.074429623e-38
0.1122594476 -0.2029625326 0.009542278945 1.074429623e-38
-0.01284532435 -0.1661564112 0.294154942 1.074429623e-38
0.2590973377 -0.1254843324 -0.1794110984 1.074429623e-38
0.1197934002 -0.1917231977 -0.07104672492 1.074429623e-38
-0.2346739471 -0.2189802527 0.198258549 1.092796582e-38
-0.04394100234 -0.06792777777 0.1512307972 1.092796582e-38
0.06228582188 -0.2046217322 0.00190025568 1.092796582e-38
-0.1088190451 0.07411500812 0.2474230826 1.092796582e-38
0.02437533811 -0.1602931917 0.2664985061 1.092796582e-38
0.04777024314 -0.149540022 0.2625535727 1.092796582e-38
0.0124306418 -0.307559222 0.4235413969 1.092796582e-38
0.1100313663 -0.2133942842 0.3623082042 1.092796582e-38
0.107471019 -0.1925112605 -0.07011242211 1.111163541e-38
-0.279353857 -0.3437149525 0.2413012832 1.111163541e-38
0.06296987832 -0.2061147839 0.01327949762 1.111163541e-38
0.08419433236 -0.1970734596 -0.04548534378 1.111163541e-38
-0.221315369 -0.404801935 0.2520982027 1.111163541e-38
-0.2799379826 -0.7229676247 -0.3475930095 1.111163541e-38
0.02318921499 -0.4060334265 0.4257172942 1.111163541e-38
0.2209986448 -0.1124805287 -0.1580023021 1.111163541e-38
0.11529015 -0.4027713239 0.5060398579 1.1295305e-38
-0.1338509172 -0.1536883712 -0.1267548949 1.1295305e-38
-0.2071773708 -0.4208748937 0.2439372838 1.1295305e-38
0.1226709336 -0.4640244246 0.4978154898 1.1295305e-38
0.00776848197 -0.09834648669 -0.1483480632 1.1295305e-38
0.1211038977 -0.2034291923 0.3592976034 1.1295305e-38
0.2204328477 -0.1047965512 -0.148699373 1.1295305e-38
0.06077668443 -0.150244996 0.2729985118 1.1295305e-38
0.108281523 -0.1027120799 -0.1423669457 1.147897319e-38
0.1581368595 -0.1072438136 -0.1554071009 1.147897319e-38
0.521051228 -0.1287821531 -0.1834996194 1.147897319e-38
0.03379628435 -0.4573777616 0.4795208275 1.147897319e-38
0.08282621205 -0.1940873861 -0.06824381649 1.147897319e-38
0.2327552289 -0.1040084884 -0.1496336758 1.147897319e-38
0.02714969777 -0.4598213434 0.360596776 1.147897319e-38
0.1206038892 -0.1019240171 -0.1433012486 1.147897319e-38
-0.1664606482 -0.4460417926 0.2473632842 1.166264278e-38
0.02258238941 -0.2010137588 -0.04081382602 1.166264278e-38
-0.2266907394 -0.4525769949 -0.3013570011 1.166264278e-38
-0.2484433502 -0.7086591721 -0.4414298534 1.166264278e-38
0.010260012 -0.2018018216 -0.03987952322 1.166264278e-38
0.002625923604 -0.251516968 0.4017993808 1.166264278e-38
-0.2248512357 -0.1998381019 0.1931716353 1.166264278e-38
-0.02054607123 -0.05717459321 0.1472858787 1.166264278e-38
0.0136803193 -0.2092670202 0.01701670885 1.184631237e-38
0.1505946815 -0.2035844326 0.02949789166 1.184631237e-38
0.004559827968 -0.2621870041 0.4152549505 1.184631237e-38
0.007997050881 -0.278535068 0.4059332311 1.184631237e-38
0.08077402413 -0.1896082461 -0.1023815721 1.184631237e-38
0.0691357106 -0.1918893605 -0.09006798267 1.184631237e-38
-0.09198068827 -0.08025704324 0.1570443213 1.184631237e-38
0.1574527919 -0.1057507694 -0.1667863578 1.184631237e-38
-0.2348875999 -0.3964129686 0.2509562373 1.202998196e-38
-0.06858578324 -0.06950390339 0.1530994028 1.202998196e-38
-0.01022735983 -0.1783195138 0.3189897537 1.202998196e-38
-0.2491438985 -0.3865309358 0.2384349704 1.202998196e-38
-0.01216126326 -0.1676494479 0.305534184 1.202998196e-38
0.09630592167 -0.2774977684 0.4335308671 1.202998196e-38
-0.2080744058 -0.7690857649 0.02418491244 1.202998196e-38
0.1380588412 -0.4892744124 0.4917308688 1.202998196e-38
-0.2600816488 -0.7109402418 -0.4291163087 1.221365155e-38
-0.06560005248 -0.1107588559 -0.1520451903 1.221365155e-38
0.04517501965 -0.1949585229 -0.07682014257 1.221365155e-38
-0.02397089824 -0.2101381719 0.008440382779 1.221365155e-38
0.1697751731 -0.104962714 -0.1677206606 1.221365155e-38
0.2074263692 -0.1040915772 -0.1591442972 1.221365155e-38
-0.08899499476 -0.1215119958 -0.1481002867 1.221365155e-38
0.1698934585 -0.09877177328 -0.1470384598 1.221365155e-38
-0.1023691893 -0.09171516448 0.171434164 1.239732115e-38
0.02312548831 -0.1511161327 0.2644221783 1.239732115e-38
-0.02183079347 -0.1142991036 0.2382564247 1.239732115e-38
0.05612926558 -0.1911843717 -0.1005129665 1.239732115e-38
0.01436438411 -0.2107600719 0.0283959955 1.239732115e-38
-0.2064933032 -0.4223679304 0.2553164959 1.239732115e-38
0.1759235561 -0.2035013586 0.03900852799 1.239732115e-38
0.1822158247 -0.09798371792 -0.1479727626 1.239732115e-38
-0.2819901705 -0.718488574 -0.3817307353 1.258099074e-38
0.0396931991 -0.2106769979 0.03790663183 1.258099074e-38
0.151278764 -0.2050774843 0.04087713361 1.258099074e-38
-0.123344183 -0.1360392869 -0.1204625666 1.258099074e-38
0.1666439176 -0.1727458537 0.3493314683 1.258099074e-38
0.2191830128 -0.09561952949 -0.1507756859 1.258099074e-38
0.001376079395 -0.2423399389 0.3997231126 1.258099074e-38
0.1213633567 -0.3560981154 0.4947240055 1.258099074e-38
-0.2777142227 -0.2680176198 0.2123772949 1.276466033e-38
0.1315581501 -0.09814988077 -0.1669940501 1.276466033e-38
0.03016502038 -0.4236557186 0.4939740598 1.276466033e-38
-0.05384345725 -0.1022867933 -0.1436765492 1.276466033e-38
0.1156799197 -0.3178969622 0.4750395119 1.276466033e-38
-0.2875369787 -0.2871597409 0.2174642086 1.276466033e-38
0.01629845798 -0.3288993537 0.4504525363 1.276466033e-38
0.1543215364 -0.1735339165 0.3502657712 1.276466033e-38
0.1251248568 -0.1522768587 0.3138439953 1.294832852e-38
0.1147243679 -0.3950873315 0.515342772 1.294832852e-38
0.2012523711 -0.2034182698 0.04851914942 1.294832852e-38
-0.127698034 -0.09179824591 0.1619235277 1.294832852e-38
-0.1445363462 0.06257380545 0.252302289 1.294832852e-38
0.2690383196 -0.1001512706 -0.1638158262 1.294832852e-38
0.1063476056 -0.0920419991 -0.1558225006 1.294832852e-38
0.1233550012 -0.4655174613 0.5091946721 1.294832852e-38
-0.001807672903 -0.2224928439 0.3841911554 1.313163938e-38
-0.2840516269 -0.7416722178 -0.2101077288 1.313163938e-38
-0.00954329595 -0.1798125505 0.3303689957 1.313163938e-38
-0.293628484 -0.7207696438 -0.3694171906 1.313163938e-38
-0.07685125619 0.1131873131 0.2363149524 1.313163938e-38
-0.2724040151 -0.7117283344 -0.4281820059 1.313163938e-38
-0.03411829099 -0.04878563061 0.1461438835 1.313163938e-38
-0.1602316052 -0.123186551 0.1823346019 1.313163938e-38
-0.08022410423 -0.07178500295 0.1654129475 1.331530897e-38
0.06639946252 -0.1859171987 -0.1355849802 1.331530897e-38
-0.01917794906 -0.06016067043 0.1700443476 1.331530897e-38
-0.1223912463 0.08250396699 0.2462810874 1.331530897e-38
0.08800451458 -0.2271335125 0.3890115917 1.331530897e-38
0.01779396087 -0.1905624866 -0.1204685271 1.331530897e-38
-0.03560924158 -0.2124192715 0.02075392008 1.331530897e-38
0.2437094897 -0.1002343446 -0.1733264774 1.331530897e-38
-0.2984262109 -0.7379811406 -0.2433111668 1.349897856e-38
0.006155644078 -0.1928435862 -0.1081549898 1.349897856e-38
0.08993841708 -0.2378035784 0.4024671316 1.349897856e-38
0.0273862537 -0.4474394619 0.4019611478 1.349897856e-38
-0.2943125367 -0.719276607 -0.3807964325 1.349897856e-38
-0.2214548141 -0.4769032001 -0.2516874075 1.349897856e-38
-0.1652107984 -0.4552188218 0.249439612 1.349897856e-38
0.09380623698 -0.2591437101 0.4293782711 1.349897856e-38
-0.2045217454 -0.1630469263 0.1943770349 1.368228942e-38
0.0262546856 -0.4320714772 0.4205669761 1.368228942e-38
-0.2887867987 -0.2779827416 0.2153879106 1.368228942e-38
0.1896140575 -0.2056993693 0.06083269417 1.368228942e-38
-0.27703017 -0.2695106566 0.2237565368 1.368228942e-38
0.5062291622 -0.1112161502 -0.1867179275 1.368228942e-38
-0.05876307189 -0.05036175251 0.1480124891 1.368228942e-38
-0.1270139813 -0.09329128265 0.1733027697 1.368228942e-38
0.1556371748 -0.08888975531 -0.1595597118 1.386595901e-38
-0.262032032 -0.379635036 0.2486722022 1.386595901e-38
-0.2691414058 -0.2396984696 0.2052140683 1.386595901e-38
-0.2463122606 -0.2212613225 0.2105720788 1.386595901e-38
-0.2949966192 -0.7177835703 -0.3921756744 1.386595901e-38
0.2272652686 -0.2048282325 0.0694090724 1.386595901e-38
-0.1289478838 -0.08262122422 0.1598472297 1.386595901e-38
-0.1159414053 -0.08332620561 0.170292154 1.386595901e-38
0.05168381706 -0.5009818077 0.4775888026 1.404926846e-38
-0.08917362988 0.1123992503 0.2372492552 1.404926846e-38
0.1048788279 -0.2491786182 0.4263676703 1.404926846e-38
-0.1568587124 0.06178574264 0.2532365918 1.404926846e-38
0.0270995535 -0.3976176679 0.499124378 1.404926846e-38
0.02959924191 -0.4159717262 0.5032770038 1.404926846e-38
-0.003057518974 -0.2133157849 0.3821148872 1.404926846e-38
-0.01007420197 -0.1058270335 0.2466250509 1.404926846e-38
-0.2847264409 -0.7125163674 -0.4272477031 1.423293806e-38
0.2026205063 -0.2064043581 0.07127767801 1.423293806e-38
0.1926043034 -0.08652557433 -0.1623626053 1.423293806e-38
-0.1347136497 0.08171590418 0.2472153902 1.423293806e-38
-0.02304575592 -0.03882054985 0.1431332678 1.423293806e-38
-0.03081626445 -0.06244176626 0.1823578924 1.423293806e-38
-0.02046266757 -0.1172851846 0.2610149384 1.423293806e-38
-0.1780989915 -0.4483228922 0.2596768141 1.423293806e-38
-0.2203968316 -0.7698737979 0.02511923015 1.441624891e-38
0.1381771266 -0.4830834866 0.5124130249 1.441624891e-38
-0.1504088789 -0.1040444225 0.1772476733 1.441624891e-38
-0.0120081054 -0.09515697509 0.233169511 1.441624891e-38
0.09767404199 -0.2804838717 0.456289351 1.441624891e-38
0.09990230203 -0.3775213361 0.5121244788 1.441624891e-38
0.177975744 -0.2079804838 0.07314628363 1.441624891e-38
-0.07394451648 -0.2117973715 0.0007983595133 1.441624891e-38
0.09257930517 -0.4150175452 0.5213639736 1.459991851e-38
-0.03012745455 -0.1967008114 -0.09397284687 1.459991851e-38
0.1656533182 -0.2087685466 0.07408058643 1.459991851e-38
0.01217117906 -0.1548902839 0.2881150246 1.459991851e-38
0.1097249836 -0.358379215 0.5070375204 1.459991851e-38
0.02455733903 -0.4090195 0.4484758377 1.459991851e-38
0.05270896107 -0.183719188 -0.1574091762 1.459991851e-38
-0.2384234816 -0.1914491653 0.1920296252 1.459991851e-38
-0.006671857089 -0.1884766072 0.33035025 1.478322936e-38
-0.03081151471 -0.1952077746 -0.1053520814 1.478322936e-38
-0.2323879004 -0.4147670269 0.2551088333 1.478322936e-38
0.03334877267 -0.4435028136 0.5095059276 1.478322936e-38
0.1286861897 -0.2111327201 0.07688349485 1.478322936e-38
-0.02236169577 -0.04031358659 0.1545125097 1.478322936e-38
-0.07736482471 -0.2043321729 -0.05609786883 1.478322936e-38
0.1518218517 -0.1551798582 0.3461131454 1.478322936e-38
-0.06001291424 -0.04118473083 0.1459361762 1.496689755e-38
-0.1412702501 -0.08340928704 0.1607815325 1.496689755e-38
0.09632882476 -0.4425486028 0.5275928974 1.496689755e-38
-0.02626438625 -0.08527497947 0.2206482738 1.496689755e-38
0.116363816 -0.2119207829 0.07781779766 1.496689755e-38
-0.2684573531 -0.2411915064 0.2165933102 1.496689755e-38
0.1023415029 -0.50081563 0.4966100752 1.496689755e-38
0.01104561053 -0.2956902683 0.4670008421 1.496689755e-38
-0.07040141523 -0.05264285207 0.1603260189 1.515020841e-38
-0.3052484393 -0.336114049 0.2410935909 1.515020841e-38
0.01641656645 -0.2152391821 0.06253370643 1.515020841e-38
0.02738009021 -0.1838022619 -0.1669198275 1.515020841e-38
-0.03149557486 -0.193714723 -0.1167313159 1.515020841e-38
0.08633008599 -0.3691323698 0.5109824538 1.515020841e-38
-0.2750385106 -0.3789300621 0.238227278 1.515020841e-38
0.09740260243 -0.3591672778 0.5079718232 1.515020841e-38
0.06469026208 -0.5016867518 0.4880337417 1.533351927e-38
-0.01591079682 -0.1401183605 0.2993052602 1.533351927e-38
-0.3148529828 -0.7298109531 -0.3106523454 1.533351927e-38
0.09960794449 -0.2911539078 0.4697448909 1.533351927e-38
-0.00939013809 -0.1073200852 0.2580043077 1.533351927e-38
-0.05477223545 -0.1982769221 -0.09210424125 1.533351927e-38
-0.2799472511 -0.7506304383 -0.1418322623 1.533351927e-38
-0.223507002 -0.4724240899 -0.2858251631 1.533351927e-38
0.1207975745 -0.3484141231 0.5040269494 1.551683013e-38
0.1394994259 -0.155967921 0.3470474482 1.551683013e-38
-0.1848763824 -0.1247626692 0.1842032075 1.551683013e-38
-0.1470360458 0.08092784137 0.248149693 1.551683013e-38
-0.2607821822 -0.3888120353 0.2507485151 1.551683013e-38
-0.1959489137 -0.1347277761 0.1872138232 1.551683013e-38
0.1037821472 -0.1675091386 0.3519266844 1.551683013e-38
-0.1359634995 0.09089294821 0.2451390773 1.551683013e-38
-0.3175892234 -0.7238388062 -0.356169343 1.570049832e-38
0.09171900898 -0.2134969085 0.07968640327 1.570049832e-38
0.08400645852 -0.4433366656 0.5285272002 1.570049832e-38
-0.3195047379 -0.3262320459 0.2285723388 1.570049832e-38
-0.1627312899 -0.1048324853 0.178181991 1.570049832e-38
-0.01010907814 -0.1721285582 0.3396719694 1.570049832e-38
-0.1191251576 -0.0634790808 0.1547603011 1.570049832e-38
0.004931580275 -0.2524970472 0.4110835493 1.570049832e-38
-0.0328636989 -0.1907286495 -0.1394898146 1.588380918e-38
-0.2893525958 -0.2702987194 0.2246908396 1.588380918e-38
-0.02171251364 -0.1081081405 0.2589386106 1.588380918e-38
-0.2605685294 -0.2113793492 0.1980508566 1.588380918e-38
-0.1248909459 0.1008580327 0.2421284765 1.588380918e-38
-0.02190944552 -0.1869544983 -0.1631826162 1.588380918e-38
0.004678105935 -0.2559960783 0.4359371066 1.588380918e-38
0.03822987899 -0.4864018857 0.4971289635 1.588380918e-38
-0.007921701297 -0.179299593 0.328273952 1.606712004e-38
-0.1405861974 -0.08490232378 0.1721607745 1.606712004e-38
0.07043424249 -0.4349476993 0.5273852348 1.606712004e-38
-0.03354775906 -0.1892355978 -0.1508690417 1.606712004e-38
0.01891642064 -0.3410624564 0.4752873182 1.606712004e-38
-0.1535926461 -0.0841973424 0.1617158353 1.606712004e-38
0.08618888259 -0.210272491 0.3962382078 1.606712004e-38
0.03028330579 -0.4174647927 0.5146562457 1.606712004e-38
0.01004923508 -0.2830142081 0.4400710166 1.625043089e-38
0.0951743573 -0.2621297836 0.4521367252 1.625043089e-38
-0.05614035577 -0.1952908486 -0.1148627102 1.625043089e-38
0.03153314814 -0.4266418219 0.5167325735 1.625043089e-38
-0.3034327924 -0.3529751003 0.2338669598 1.625043089e-38
0.05436227098 -0.4082046747 0.5220906138 1.625043089e-38
-0.2190286964 -0.772859931 0.04787774384 1.625043089e-38
0.02580718137 -0.4181965292 0.4505521059 1.625043089e-38
-0.2716410756 -0.2213444114 0.2010614574 1.643374035e-38
-0.03423182294 -0.1877425611 -0.1622483134 1.643374035e-38
0.1062469482 -0.2521647215 0.4491261244 1.643374035e-38
-0.01522673573 -0.1416113973 0.3106845021 1.643374035e-38
0.01353930309 -0.1578763723 0.3108735085 1.643374035e-38
-0.1824564338 -0.1583336592 -0.1116384417 1.643374035e-38
-0.05682441592 -0.1937978119 -0.1262419522 1.643374035e-38
0.09615276754 -0.3499902487 0.505895555 1.643374035e-38
-0.01178951189 -0.1579594463 0.3013628721 1.661705121e-38
-0.111595735 -0.2126685232 -0.007777959108 1.661705121e-38
-0.1955811381 -0.1638196409 -0.1427655667 1.661705121e-38
0.2046726942 -0.2108834684 0.1054153889 1.661705121e-38
0.07720342278 -0.1584151834 0.3403397501 1.661705121e-38
0.00854591839 -0.27733621 0.4628482461 1.661705121e-38
-0.1750536561 -0.1056205481 0.1791162938 1.661705121e-38
0.00879939273 -0.2738371789 0.4379946887 1.661705121e-38
-0.2477778047 -0.7654777765 -0.01852916181 1.680036207e-38
0.003681734204 -0.2433199883 0.4090072513 1.680036207e-38
-0.05750847608 -0.1923047602 -0.137621209 1.680036207e-38
-0.1109116748 -0.2141615599 0.003601275384 1.680036207e-38
0.1800279319 -0.212459594 0.1072839946 1.680036207e-38
0.02528392896 -0.3807566762 0.5063510537 1.680036207e-38
0.02875437774 -0.4504255354 0.4247196317 1.680036207e-38
0.080080688 -0.2157780081 0.09199994802 1.680036207e-38
-0.3237550259 -0.7380641699 -0.2528218031 1.698367293e-38
0.04242944345 -0.2166491598 0.0834236294 1.698367293e-38
-0.1266543567 -0.2074844241 -0.0523606576 1.698367293e-38
-0.1239181235 -0.2134565711 -0.006843656301 1.698367293e-38
0.26765275 -0.2099292576 0.1235023886 1.698367293e-38
0.03955223039 -0.1592863202 0.3317633569 1.698367293e-38
-0.2778950632 -0.7551095486 -0.1076944992 1.698367293e-38
0.02762280963 -0.4350575507 0.4433255196 1.698367293e-38
-0.03628400713 -0.1832634509 -0.1963860393 1.716698239e-38
0.01422336325 -0.1593694091 0.3222527206 1.716698239e-38
-0.1102276146 -0.2156545967 0.01498050988 1.716698239e-38
-0.2621524036 -0.7617866993 -0.05173256993 1.716698239e-38
0.002178415656 -0.23764202 0.4317845106 1.716698239e-38
-0.2922696471 -0.7514184713 -0.1408979595 1.716698239e-38
-0.1622452438 -0.1277334094 -0.1311151981 1.716698239e-38
-0.09629600495 -0.04504195601 0.1601183265 1.716698239e-38
-0.01647658274 -0.1324343681 0.3086081743 1.735029324e-38
-0.02030950971 -0.04479271173 0.1886502653 1.735029324e-38
-0.09379156679 -0.1961619854 -0.1234390363 1.735029324e-38
0.0481130518 -0.3623195291 0.5117090344 1.735029324e-38
-0.01841048524 -0.1217643023 0.2951526642 1.735029324e-38
-0.02464568987 -0.1809823513 -0.208699584 1.735029324e-38
-0.09653712064 -0.2178526223 0.03680473566 1.735029324e-38
-0.03696806729 -0.1817704141 -0.2077652812 1.735029324e-38
0.1307383776 -0.2156118453 0.1110212058 1.75336041e-38
-0.187376067 -0.1064086109 0.1800505966 1.75336041e-38
-0.06092878431 -0.1848395616 -0.1945174336 1.75336041e-38
-0.1606082618 0.08931683004 0.2470076829 1.75336041e-38
-0.1287065446 -0.2030052841 -0.08649841696 1.75336041e-38
0.1683895588 -0.2147406936 0.1195975393 1.75336041e-38
-0.04929047078 -0.1825584769 -0.2068309784 1.75336041e-38
0.1160320044 -0.5030136704 0.5184342265 1.75336041e-38
-0.2731046379 -0.3896000981 0.2516828179 1.771655483e-38
-0.1652309895 -0.0864784494 0.1740293801 1.771655483e-38
0.07025817037 -0.3423893452 0.5056878328 1.771655483e-38
-0.1893099844 -0.09573855251 0.1665950567 1.771655483e-38
0.02592545934 -0.4120055735 0.4712343216 1.771655483e-38
-0.008487483487 -0.1716156006 0.3375768661 1.771655483e-38
-0.002939237282 -0.2071248591 0.4027971029 1.771655483e-38
-0.1184363589 -0.197738111 -0.1215704232 1.771655483e-38
-0.08420544118 -0.1894017756 -0.1698903441 1.789986569e-38
-0.3318271041 -0.3270201087 0.2295066416 1.789986569e-38
0.08990354836 -0.304105103 0.4955140352 1.789986569e-38
-0.073251158 -0.1856276244 -0.1935831308 1.789986569e-38
0.02721783146 -0.3914267123 0.5198065639 1.789986569e-38
0.04023629799 -0.160779357 0.3431426585 1.789986569e-38
-0.107482098 -0.1939639747 -0.1452632248 1.789986569e-38
-0.1968309879 -0.1546425819 -0.1448418796 1.789986569e-38
-0.04997453094 -0.1810654253 -0.2182102501 1.808317654e-38
-0.1506150961 -0.2105535716 -0.03911281377 1.808317654e-38
-0.3223869205 -0.741050303 -0.2300633192 1.808317654e-38
-0.2298882157 -0.4331210554 0.2592614293 1.808317654e-38
0.01490742341 -0.1608624458 0.3336319625 1.808317654e-38
-0.2421730012 -0.163918063 0.1858007163 1.808317654e-38
-0.00100533478 -0.217794925 0.4162526131 1.808317654e-38
-0.3388136625 -0.7328801155 -0.2974044681 1.808317654e-38
-0.01769154519 -0.05695581436 0.2134850472 1.826612727e-38
-0.1485629082 -0.2150326967 -0.004975050688 1.826612727e-38
0.1060935706 -0.2171879709 0.1128898114 1.826612727e-38
0.05543610826 -0.3248233497 0.5024695396 1.826612727e-38
-0.007337955758 -0.1117991954 0.2921420336 1.826612727e-38
-0.3048587143 -0.2512396872 0.2100932896 1.826612727e-38
-0.0119247064 -0.1552675366 0.3468985558 1.826612727e-38
-0.3429180384 -0.723921895 -0.3656799793 1.826612727e-38
-0.2931021452 -0.242767632 0.2184619159 1.844943813e-38
-0.02808001824 -0.06841392815 0.22787489 1.844943813e-38
-0.01962544955 -0.04628575221 0.2000295073 1.844943813e-38
0.0843732655 -0.1934114695 0.4034648836 1.844943813e-38
0.0579358004 -0.343177408 0.5066221356 1.844943813e-38
-0.2866768241 -0.3812111616 0.2505407929 1.844943813e-38
0.07758116722 -0.3048931658 0.496448338 1.844943813e-38
-0.2909015417 -0.7544046044 -0.1181394607 1.844943813e-38
-0.1430811584 -0.1993142366 -0.1197018176 1.863274899e-38
0.002585045993 -0.1616505086 0.3345662653 1.863274899e-38
0.0288726557 -0.4442345798 0.4454017878 1.863274899e-38
-0.01772642508 -0.123257339 0.3065319061 1.863274899e-38
0.09335872531 -0.2452687621 0.4593633711 1.863274899e-38
0.04686320946 -0.3531424999 0.5096327662 1.863274899e-38
-0.2601002157 -0.7662658691 -0.017594859 1.863274899e-38
-0.1478788257 -0.2165257335 0.006404183805 1.863274899e-38
0.2190472484 -0.2145745456 0.1386188418 1.881569971e-38
0.07543362677 -0.4716558158 0.5356904268 1.881569971e-38
-0.00586951524 -0.1837787032 0.3624117076 1.881569971e-38
-0.002001704648 -0.2051188648 0.3893227875 1.881569971e-38
0.1290384233 -0.5037186742 0.5288792253 1.881569971e-38
-0.25131163 -0.1845532209 0.202266857 1.881569971e-38
-0.3305772841 -0.3361971378 0.2315829545 1.881569971e-38
-0.2450415641 -0.7714499235 0.02698783576 1.881569971e-38
-0.02159423567 -0.1019171998 0.2796208262 1.899901057e-38
0.09138724208 -0.5045897961 0.5203028321 1.899901057e-38
0.01460110769 -0.3058473766 0.4783613384 1.899901057e-38
-0.1641791463 -0.1170633435 -0.1445707679 1.899901057e-38
0.05612000078 -0.2188471705 0.1052477956 1.899901057e-38
0.005049858242 -0.2463060915 0.431765765 1.899901057e-38
-0.1905598342 -0.08656153083 0.1645187438 1.899901057e-38
-0.09857999533 -0.1857106984 -0.2030937672 1.899901057e-38
-0.3232542872 -0.2987009585 0.2223434299 1.91819627e-38
-0.2157502174 -0.4491940439 0.2511004806 1.91819627e-38
0.09931366146 -0.2047865391 0.4273653626 1.91819627e-38
-0.09926406294 -0.1842176616 -0.214473024 1.91819627e-38
-0.1573421806 -0.0566662401 0.1554869115 1.91819627e-38
-0.004719983786 -0.1239623278 0.3169769049 1.91819627e-38
-0.3203347325 -0.7455294132 -0.1959255785 1.91819627e-38
-0.0403883718 -0.1743052006 -0.2646615207 1.91819627e-38
0.04379756749 -0.2196352333 0.1061820984 1.936527215e-38
-0.3041746616 -0.252732724 0.2214725167 1.936527215e-38
-0.147194773 -0.2180187851 0.0177834183 1.936527215e-38
-0.345654279 -0.717949748 -0.4111969471 1.936527215e-38
0.1025780588 -0.4884337485 0.5379744768 1.936527215e-38
-0.08830980957 -0.1804435253 -0.2381657958 1.936527215e-38
0.09210889041 -0.2360917628 0.4572870433 1.936527215e-38
-0.3045920432 -0.7522065639 -0.1399636567 1.936527215e-38
-0.06434909254 -0.1773743629 -0.2514136732 1.954822428e-38
-0.3353933692 -0.7403452992 -0.2405082583 1.954822428e-38
-0.01510845684 -0.1354204416 0.3313667178 1.954822428e-38
-0.003251550719 -0.1959418058 0.3872464895 1.954822428e-38
-0.06571722031 -0.1743882895 -0.2741721869 1.954822428e-38
0.04186382517 -0.3164343834 0.5013275146 1.954822428e-38
-0.07667146623 -0.1781624258 -0.2504793704 1.954822428e-38
-0.3139973283 -0.271874845 0.2265594453 1.954822428e-38
-0.3511360586 -0.7336682081 -0.2964701653 1.973153514e-38
0.04141362384 -0.506248951 0.5126608014 1.973153514e-38
0.06693322957 -0.1636823714 0.3754117489 1.973153514e-38
0.001612633467 -0.2299580276 0.4410874248 1.973153514e-38
-0.03126376495 -0.04856684804 0.2123430371 1.973153514e-38
-0.3298932314 -0.3376901746 0.2429621965 1.973153514e-38
0.04160441831 -0.1637654454 0.3659011126 1.973153514e-38
-0.3293274343 -0.345374167 0.2336592525 1.973153514e-38
-0.2564668953 -0.4240271449 0.2476745099 1.991448586e-38
-0.08899386972 -0.1789504886 -0.2495450675 1.991448586e-38
0.02604374103 -0.4058146477 0.4919165373 1.991448586e-38
-0.1677259207 -0.2008903623 -0.117833212 1.991448586e-38
-0.3504520059 -0.7351611853 -0.2850909531 1.991448586e-38
0.03079130128 -0.3263994753 0.5043381453 1.991448586e-38
-0.2014939189 -0.4590760469 0.2636217475 1.991448586e-38
-0.2286383659 -0.4422981143 0.2613377571 1.991448586e-38
0.1197841242 -0.2193859816 0.1347140372 2.009743799e-38
-0.08077583462 -0.1692041755 -0.3187548518 2.009743799e-38
-0.200948298 -0.09801965207 0.1789085865 2.009743799e-38
-0.3497679532 -0.7366542816 -0.2737116814 2.009743799e-38
-0.1471855044 -0.1903559864 -0.187977314 2.009743799e-38
-0.1647449285 -0.1093793437 -0.135267809 2.009743799e-38
-0.180737108 -0.0674193874 0.15943183 2.009743799e-38
-0.1239088401 -0.1857937872 -0.2126044184 2.009743799e-38
-0.1129545942 -0.1820196509 -0.2362971902 2.028074885e-38
-0.2181737423 -0.1698748767 -0.1067592204 2.028074885e-38
-0.158823818 -0.1926371008 -0.1756637394 2.028074885e-38
-0.1725236177 -0.2181018591 0.008272789419 2.028074885e-38
-0.3054245114 -0.2435556948 0.2193962187 2.028074885e-38
0.07993966341 -0.1643873453 0.385856688 2.028074885e-38
-0.1690940559 -0.1979042739 -0.1405917108 2.028074885e-38
-0.2845292389 -0.2144485116 0.2112986892 2.028074885e-38
0.03012250178 -0.4534116089 0.4474781156 2.046369957e-38
0.03068828024 -0.4610956013 0.4381751418 2.046369957e-38
0.04061398283 -0.3072573543 0.4992512465 2.046369957e-38
-0.1786801815 -0.2046644986 -0.09414044023 2.046369957e-38
-0.1889503598 -0.2099316865 -0.05906837434 2.046369957e-38
-0.1793642342 -0.2031714618 -0.1055196747 2.046369957e-38
-0.3572926223 -0.7202308178 -0.3988834023 2.046369957e-38
-0.1040524915 -0.1737663746 -0.2941277325 2.046369957e-38
-0.1458266377 -0.2210048586 0.04054194689 2.06466517e-38
-0.1875822544 -0.21291776 -0.03630990535 2.06466517e-38
-0.01249048859 -0.1475835741 0.3562014699 2.06466517e-38
-0.1800483167 -0.2016784251 -0.1168989092 2.06466517e-38
-0.0025674887 -0.1974348426 0.3986257315 2.06466517e-38
-0.01442439575 -0.1369134784 0.3427459598 2.06466517e-38
-0.1868981719 -0.2144107968 -0.02493067086 2.06466517e-38
0.09513931721 -0.2209621072 0.1365826428 2.06466517e-38
-0.3032239377 -0.7551926374 -0.1172051579 2.082996116e-38
0.04228847846 -0.1652584821 0.3772803545 2.082996116e-38
0.05442006513 -0.5069539547 0.5231057405 2.082996116e-38
0.03846642748 -0.4740200043 0.5384933352 2.082996116e-38
-0.3286433816 -0.3468672037 0.2450384945 2.082996116e-38
-0.2655679286 -0.1746712029 0.1897456199 2.082996116e-38
-0.03057970479 -0.05005988851 0.2237222791 2.082996116e-38
-0.2700391412 -0.4156381786 0.2465324849 2.082996116e-38
0.01085157692 -0.278316319 0.4721324146 2.101291328e-38
-0.2557452321 -0.1555290818 0.1846587062 2.101291328e-38
-0.1689805239 -0.05894734338 0.1678004563 2.101291328e-38
-0.1910025477 -0.2054525614 -0.09320613742 2.101291328e-38
-0.137599349 -0.1835957766 -0.2344285846 2.101291328e-38
-0.3250699043 -0.281839937 0.2295700461 2.101291328e-38
-0.225027293 -0.1072797552 0.1714742631 2.101291328e-38
-0.1930595189 -0.06820744276 0.1603661329 2.101291328e-38
-0.2538112998 -0.1661991626 0.198114261 2.119586541e-38
-0.1286972761 -0.1753425002 -0.2922591269 2.119586541e-38
-0.0137054557 -0.07210499793 0.2610783577 2.119586541e-38
-0.1266450882 -0.1798216403 -0.2581213713 2.119586541e-38
-0.1819869578 -0.05824236572 0.1573555171 2.119586541e-38
-0.1579079479 -0.04898225516 0.1647898406 2.119586541e-38
-0.1382834017 -0.1821027398 -0.2458078563 2.119586541e-38
-0.2416448295 -0.4415931404 0.250892818 2.119586541e-38
0.02996610478 -0.1660465449 0.3782146573 2.137881613e-38
-0.1725143492 -0.1904390752 -0.1974879503 2.137881613e-38
0.1457970142 -0.2207959443 0.1556039006 2.137881613e-38
-0.3025398552 -0.7566857338 -0.1058258936 2.137881613e-38
-0.1930547357 -0.2009734362 -0.1273438632 2.137881613e-38
-0.3668787777 -0.7269910574 -0.352432102 2.137881613e-38
0.07049456239 -0.2225382328 0.1384512484 2.137881613e-38
-0.3447152972 -0.3201241791 0.2397438735 2.137881613e-38
0.006417978555 -0.249292165 0.4545242488 2.156176826e-38
-0.1410196424 -0.176130563 -0.2913248241 2.156176826e-38
0.1834482253 -0.2199247926 0.1641802341 2.156176826e-38
-0.1615600586 -0.1866649389 -0.221180737 2.156176826e-38
-0.2552170455 -0.4332041442 0.2497508079 2.156176826e-38
-0.1396515369 -0.1791166365 -0.26856637 2.156176826e-38
-0.132801652 -0.1663842648 -0.3605346084 2.156176826e-38
0.2464283109 -0.218970567 0.1822672337 2.156176826e-38
0.0674265027 -0.5076589584 0.5335507393 2.174471899e-38
-0.2298121154 -0.1721559763 -0.09444568306 2.174471899e-38
-0.2138163 -0.4598641098 0.2645560503 2.174471899e-38
-0.3263197541 -0.2726629078 0.2274937481 2.174471899e-38
-0.2033249438 -0.2062406242 -0.09227183461 2.174471899e-38
-0.1622441113 -0.1851719022 -0.232559979 2.174471899e-38
-0.1574650109 -0.2232859731 0.05285549164 2.174471899e-38
-0.1951069236 -0.1964943111 -0.161481604 2.174471899e-38
-0.2968516648 -0.2152365744 0.2122329921 2.192767111e-38
-0.1813028902 -0.05973540246 0.1687347591 2.192767111e-38
-0.3120056689 -0.3812942207 0.2410301864 2.192767111e-38
-0.1526580155 -0.1784116626 -0.2790112793 2.192767111e-38
-0.02147595771 -0.0957262516 0.3003029823 2.192767111e-38
0.04793703929 -0.2697611749 0.4900117218 2.192767111e-38
0.234105885 -0.2197586298 0.1832015365 2.192767111e-38
-0.3162303567 -0.7544876337 -0.1276500821 2.192767111e-38
-0.2053771317 -0.201761499 -0.1264095604 2.211062324e-38
-0.1464921534 -0.1641862392 -0.3823587894 2.211062324e-38
-0.002667801455 -0.1284414381 0.3511145711 2.211062324e-38
-0.2262771428 -0.09810273349 0.1693979651 2.211062324e-38
-0.1832367927 -0.04906534404 0.1552792192 2.211062324e-38
-0.2506937087 -0.3939768076 0.2134746462 2.211062324e-38
0.07008209825 -0.249830991 0.4839904904 2.211062324e-38
0.09431429207 -0.1680783927 0.4190601408 2.211062324e-38
0.005321294069 -0.1676226705 0.3800832629 2.229357396e-38
-0.3011717498 -0.7596718073 -0.0830674246 2.229357396e-38
-0.1567623615 -0.1694534272 -0.3472867608 2.229357396e-38
0.04096611962 -0.4923740625 0.5426459908 2.229357396e-38
0.02854342945 -0.4241687059 0.4960691333 2.229357396e-38
-0.2067452669 -0.1987754107 -0.1491680592 2.229357396e-38
-0.157446444 -0.1679603904 -0.3586660028 2.229357396e-38
0.02910921164 -0.4318526685 0.4867661595 2.229357396e-38
-0.1656644344 -0.1777066886 -0.2894562185 2.247652609e-38
-0.2303778529 -0.1644719839 -0.08514273167 2.247652609e-38
0.09818209708 -0.1894185394 0.4459712207 2.247652609e-38
0.221783489 -0.2205466926 0.1841358393 2.247652609e-38
0.1841323078 -0.2214178294 0.1755594462 2.247652609e-38
-0.02727767639 -0.06371603161 0.2599363327 2.247652609e-38
-0.005067175254 -0.1790808141 0.3944731057 2.247652609e-38
0.02797764726 -0.4164847136 0.5053720474 2.247652609e-38
-0.2373496741 -0.1080678105 0.1724085659 2.265947681e-38
0.04668719694 -0.2605841458 0.487935394 2.265947681e-38
-0.008469516411 -0.09643124044 0.3107479811 2.265947681e-38
-0.1697873771 -0.224074021 0.05378979445 2.265947681e-38
-0.2494438589 -0.4031538069 0.2155509591 2.265947681e-38
0.06883226335 -0.2406539619 0.4819141924 2.265947681e-38
0.0007345415652 -0.2110910118 0.4348397851 2.265947681e-38
0.07990479469 -0.23068887 0.4789035916 2.265947681e-38
-0.1985272169 -0.1890291125 -0.2183778286 2.284242894e-38
0.2094611228 -0.2213347554 0.1850701421 2.284242894e-38
-0.3299208581 -0.7522896528 -0.149474293 2.284242894e-38
-0.3449795246 -0.7471055388 -0.1940569729 2.284242894e-38
