# .PCD v0.7 - Point Cloud Data file format
VERSION 0.7
FIELDS x y z rgb
SIZE 4 4 4 4
TYPE F F F F
COUNT 1 1 1 1
WIDTH 834
HEIGHT 1
VIEWPOINT 0 0 0 1 0 0 0
POINTS 834
DATA ascii
-0.1178290024 -0.4622562826 -0.002870708704 1.075048997e-38
-0.08140771836 -0.2534816265 -0.02492740005 1.075048997e-38
-0.1103739962 -0.3172540069 -0.05303326994 1.075048997e-38
-0.09309820086 -0.2311183661 -0.05931344628 1.056789517e-38
-0.07893065363 -0.2054845542 -0.04570727795 1.056789517e-38
0.02864161506 -0.3638118207 0.1821017563 1.056789517e-38
-0.1116363332 -0.3422635496 -0.05482038856 1.056789517e-38
-0.09249084443 -0.2196245641 -0.07059693336 1.038530038e-38
-0.1085280851 -0.2817617059 -0.07470670342 1.038530038e-38
-0.0801929906 -0.230494082 -0.04749439657 1.038530038e-38
-0.09312201291 -0.2321293503 -0.0714904964 1.038530038e-38
-0.06913369149 -0.2653621137 -0.01400193572 1.020306431e-38
-0.04079861194 -0.21409446 0.01321036741 1.020306431e-38
-0.06602545828 -0.2048602551 -0.03388825804 1.020306431e-38
-0.09499170631 -0.2686326504 -0.06199412793 1.020306431e-38
-0.1110289618 -0.3307697773 -0.06610390544 1.002046952e-38
-0.05559734255 -0.2522330284 -0.001289360225 1.002046952e-38
-0.09251464158 -0.2206355333 -0.08277396858 1.002046952e-38
-0.08456357569 -0.3160054386 -0.02939520031 1.002046952e-38
-0.1185077801 -0.4767830372 -0.02811837941 9.837874723e-39
-0.09501551837 -0.2696436346 -0.07417117059 9.837874723e-39
-0.09688522667 -0.3061469197 -0.06467479467 9.837874723e-39
-0.09377697855 -0.245645076 -0.08456109464 9.837874723e-39
-0.08271766454 -0.2805131078 -0.05106863379 9.655279928e-39
-0.06855013222 -0.2548792958 -0.03746249527 9.655279928e-39
-0.02728606015 -0.2019764036 0.01374590397 9.655279928e-39
-0.09751639515 -0.3186516762 -0.06556835771 9.655279928e-39
-0.05749086291 -0.2897473276 -0.00397003442 9.472685133e-39
-0.05812203139 -0.302252084 -0.004863597453 9.472685133e-39
-0.08708824962 -0.3660244942 -0.03296943754 9.472685133e-39
-0.1160545275 -0.4297968745 -0.06107529998 9.472685133e-39
-0.014380835 -0.2013521045 0.02556492388 9.290090338e-39
-0.01625053585 -0.2378554046 0.03506131843 9.290090338e-39
-0.1135774478 -0.3817997873 -0.08185517788 9.290090338e-39
0.04149922729 -0.3652094603 0.1695666909 9.290090338e-39
-0.112338908 -0.3578012884 -0.09224510193 9.107495543e-39
-0.05627612025 -0.266759783 -0.02653700858 9.107495543e-39
-0.1185553893 -0.4788050056 -0.05247249454 9.107495543e-39
-0.03104927391 -0.2759940028 0.02056159452 9.107495543e-39
-0.01688170433 -0.2503601611 0.03416775912 8.924899347e-39
0.01145335287 -0.1990925223 0.0613800399 8.924899347e-39
-0.004583887756 -0.2612296641 0.05727026612 8.924899347e-39
-0.06001553684 -0.3397663832 -0.007544271648 8.924899347e-39
-0.09880254418 -0.3446722031 -0.07953251898 8.742304551e-39
-0.03168044239 -0.2884987593 0.01966803148 8.742304551e-39
-0.09943371266 -0.3571769893 -0.08042608202 8.742304551e-39
-0.03231161088 -0.3010035157 0.0187744759 8.742304551e-39
-0.1173406616 -0.4558174014 -0.07503949106 8.560068489e-39
-0.1185792014 -0.4798159599 -0.06464953721 8.560068489e-39
-0.09024410695 -0.4285483062 -0.03743723035 8.560068489e-39
-0.09087527543 -0.4410530627 -0.03833079338 8.560068489e-39
-0.01629814506 -0.2398773432 0.0107072033 8.377473694e-39
-0.1013272181 -0.3946912587 -0.08310675621 8.377473694e-39
-0.1186029986 -0.4808269441 -0.07682661712 8.377473694e-39
-0.0921376124 -0.4660626054 -0.04011791199 8.377473694e-39
0.0414516218 -0.3672314286 0.1452125907 8.194878899e-39
-0.006501197815 -0.2997549176 0.04241254181 8.194878899e-39
-0.06069431454 -0.354293108 -0.03279192001 8.194878899e-39
-0.10258957 -0.4197008014 -0.08489388227 8.194878899e-39
-0.0071323663 -0.3122596741 0.04151898623 8.012284103e-39
-0.1013510153 -0.3957022429 -0.09528380632 8.012284103e-39
-0.06132548302 -0.3667978644 -0.03368548304 8.012284103e-39
-0.07612416893 -0.4049364626 -0.04818520695 8.012284103e-39
-0.09216140956 -0.4670735896 -0.05229497701 7.829687907e-39
0.06789316982 -0.3534780741 0.1697441936 7.829687907e-39
-0.007763542235 -0.3247644603 0.04062542319 7.829687907e-39
0.008881062269 -0.2511335313 0.03345171735 7.829687907e-39
0.06663083285 -0.3784876168 0.1679570824 7.647093112e-39
-0.06321898848 -0.4043121636 -0.03636615723 7.647093112e-39
-0.02319341153 -0.3754077852 0.02523216605 7.647093112e-39
0.02117891982 -0.2620030344 0.05655422062 7.647093112e-39
0.005141653121 -0.3241401613 0.05244444311 7.464498317e-39
-0.09218522161 -0.4680845439 -0.06447201967 7.464498317e-39
-0.0490514338 -0.3786783218 -0.02276001871 7.464498317e-39
-0.06385017186 -0.41681692 -0.03725972027 7.464498317e-39
-0.009657047689 -0.3622787297 0.037944749 7.281903522e-39
-0.05279082805 -0.4516849518 -0.003767259419 7.281903522e-39
0.07953602076 -0.3778633475 0.1797761023 7.281903522e-39
0.0076187253 -0.276143074 0.03166459873 7.281903522e-39
-0.02134750783 -0.3399154544 0.003558728844 7.099307325e-39
-0.06635103375 -0.4658249915 -0.02865691483 7.099307325e-39
0.08077456057 -0.3538647592 0.1693861783 7.099307325e-39
0.006987549365 -0.2886478305 0.0307710357 7.099307325e-39
-0.01091939211 -0.3872882724 0.03615763038 6.91671253e-39
0.003248140216 -0.3616544306 0.04976376891 6.91671253e-39
-0.1051380411 -0.4707308114 -0.1006451547 6.91671253e-39
-0.007811151445 -0.3267864287 0.01627131179 6.91671253e-39
-0.02571808547 -0.4254268408 0.02165792882 6.734117735e-39
0.08014339209 -0.3663695157 0.1684926152 6.734117735e-39
-0.01218172908 -0.4122977853 0.03437050804 6.734117735e-39
-0.05220726877 -0.4412021339 -0.02722781152 6.734117735e-39
0.08075075597 -0.3548757434 0.1572091281 6.55152294e-39
0.01926160231 -0.3005282879 0.04169649631 6.55152294e-39
-0.01281289756 -0.4248025417 0.03347694874 6.55152294e-39
0.01739189774 -0.3370315731 0.05119286478 6.55152294e-39
-0.0134440735 -0.4373072982 0.03258339316 6.368926744e-39
0.0007234588265 -0.4116734862 0.04618953168 6.368926744e-39
-0.02513452619 -0.4149440229 -0.001802630723 6.368926744e-39
-0.02700423449 -0.4514473677 0.007693737745 6.368926744e-39
-0.01222933829 -0.4143197536 0.01001639292 6.186331949e-39
-0.001801222563 -0.4616925418 0.04261529446 6.186331949e-39
0.08133431524 -0.3443929553 0.1337486058 6.186331949e-39
0.07946460694 -0.3808962703 0.1432449818 6.186331949e-39
-0.01349168271 -0.4393292665 0.008229278028 6.003737154e-39
0.01421224326 -0.4005663693 0.03454802185 6.003737154e-39
-0.0005864873528 -0.4387049675 0.02004832774 6.003737154e-39
-0.0957005024 -0.3024874628 0.4990685582 6.003737154e-39
-0.09640309215 -0.3180251718 0.461643815 5.820783626e-39
-0.09761781991 -0.3410127461 0.4842107594 5.820783626e-39
0.09944613278 -0.3822649419 0.3225913048 5.820783626e-39
0.112934947 -0.371157825 0.3109498024 5.820783626e-39
-0.2408050001 -0.2241950035 0.3111094236 5.63818743e-39
-0.2408288121 -0.2252059877 0.2989323735 5.63818743e-39
-0.2291859388 -0.2495911717 0.3089642823 5.63818743e-39
-0.227971226 -0.226603657 0.2863973081 5.63818743e-39
-0.2427223027 -0.262720257 0.2962516844 5.455592635e-39
-0.215089798 -0.2269903421 0.2860392928 5.455592635e-39
-0.2415314019 -0.2407436669 0.2615076303 5.455592635e-39
-0.2027919888 -0.2378597856 0.3091417849 5.455592635e-39
-0.1892794371 -0.2257417142 0.3096773326 5.272997839e-39
-0.21511361 -0.2280013263 0.2738622427 5.272997839e-39
-0.2440084517 -0.2887407839 0.2822875381 5.272997839e-39
-0.2151374221 -0.2290123105 0.261685133 5.272997839e-39
-0.2421863675 -0.2542593777 0.2484370023 5.090401643e-39
-0.2409716249 -0.231271863 0.225870043 5.090401643e-39
-0.1893270314 -0.2277636826 0.2853232324 5.090401643e-39
-0.2434248924 -0.278257966 0.2588269413 5.090401643e-39
-0.1917802989 -0.2747498155 0.3182801306 4.907806848e-39
-0.1635166109 -0.2265150845 0.3089612722 4.907806848e-39
-0.2434487045 -0.2792689204 0.2466498911 4.907806848e-39
-0.1893746555 -0.229785651 0.2609690726 4.907806848e-39
-0.2059478164 -0.3003835976 0.3046739995 4.725212053e-39
-0.2287452221 -0.2451742589 0.2124414146 4.725212053e-39
-0.1795300543 -0.287641257 0.3170285523 4.725212053e-39
-0.2428889573 -0.2697971165 0.2110123187 4.725212053e-39
-0.247164309 -0.351264596 0.2778197229 4.542257124e-39
-0.2072101533 -0.3253931403 0.3028868735 4.542257124e-39
-0.2447348535 -0.3052894175 0.2326857299 4.542257124e-39
-0.2435201108 -0.282301873 0.2101187557 4.542257124e-39
-0.1765170097 -0.2311832905 0.2484340072 4.359662329e-39
-0.1636118293 -0.2305590212 0.260253042 4.359662329e-39
-0.18018502 -0.3011569679 0.3039579391 4.359662329e-39
-0.2490340173 -0.3877678812 0.2873160839 4.359662329e-39
0.08397252858 -0.3362084329 0.1530987024 4.177066133e-39
-0.1531598866 -0.2769208252 0.3050290048 4.177066133e-39
-0.2453898191 -0.3188051581 0.2196151167 4.177066133e-39
-0.01926840842 -0.2068941891 -0.3031283021 4.177066133e-39
-0.1765646338 -0.2332052588 0.2240799218 3.994471337e-39
-0.1760564595 -0.3642506301 0.4352917373 3.994471337e-39
-0.2478430867 -0.365791291 0.2525720298 3.994471337e-39
-0.02053074911 -0.231903702 -0.3049154282 3.994471337e-39
-0.1901010275 -0.2463343143 0.2113673389 3.81151781e-39
-0.1679348052 -0.3140484095 0.3027063608 3.81151781e-39
-0.2502963543 -0.4127774239 0.2855289876 3.81151781e-39
-0.2490816116 -0.3897898495 0.2629620135 3.81151781e-39
-0.09910962731 -0.2284485102 0.3071711659 3.628921614e-39
-0.2466521561 -0.3438147008 0.2178280056 3.628921614e-39
-0.1907322109 -0.2588390708 0.2104737908 3.628921614e-39
-0.169173345 -0.3380469978 0.3130962849 3.628921614e-39
-0.113253355 -0.2530713379 0.305742085 3.446326818e-39
-0.1685659885 -0.3265531957 0.3018127978 3.446326818e-39
-0.1637824476 -0.3761311173 0.4462172091 3.446326818e-39
-0.1273971051 -0.2776941955 0.3043129742 3.446326818e-39
-0.02431776933 -0.3069323003 -0.3102767766 3.26337189e-39
0.08144785464 -0.3862274885 0.1495244503 3.26337189e-39
-0.1637070477 -0.2346029282 0.2115448564 3.26337189e-39
-0.2466759682 -0.344825685 0.2056509554 3.26337189e-39
-0.1138845235 -0.2655761242 0.3048485219 3.080777095e-39
-0.1767352372 -0.378777355 0.4100440443 3.080777095e-39
0.1091041863 -0.3494865596 0.151489079 3.080777095e-39
-0.1003719643 -0.2534580231 0.3053840399 3.080777095e-39
-0.2491292357 -0.3918117881 0.2386078537 2.898180898e-39
-0.1378966272 -0.2333543301 0.2351828963 2.898180898e-39
-0.09915722907 -0.2304704785 0.2828170657 2.898180898e-39
-0.1643382162 -0.2471076846 0.2106513083 2.898180898e-39
-0.1767590493 -0.3797883391 0.3978669941 2.715227371e-39
-0.01080515049 -0.2948141992 -0.3097412288 2.715227371e-39
-0.2239261866 -0.4020569921 0.2735294402 2.715227371e-39
-0.23379457 -0.3452123702 0.2052929401 2.715227371e-39
-0.1010031402 -0.2659628093 0.3044904768 2.532632576e-39
0.1219855845 -0.3498732448 0.1511310637 2.532632576e-39
-0.176151678 -0.3682945371 0.3865835071 2.532632576e-39
-0.1632226855 -0.3666592538 0.4105795622 2.532632576e-39
-0.2202819884 -0.3330942988 0.205828473 2.349677647e-39
-0.009566612542 -0.2708156705 -0.3201311529 2.349677647e-39
-0.1704594791 -0.3640674651 0.2991321385 2.349677647e-39
-0.02999829873 -0.4194751382 -0.318318814 2.349677647e-39
-0.17617549 -0.3693055212 0.3744064569 2.167082852e-39
-0.1632464975 -0.367670238 0.3984025121 2.167082852e-39
-0.1710906625 -0.3765722215 0.2982385755 2.167082852e-39
-0.1373884827 -0.3643997014 0.4463947117 2.167082852e-39
-0.009590417147 -0.2718266547 -0.332308203 1.984127923e-39
-0.163877666 -0.3801750243 0.3975089788 1.984127923e-39
-0.1299217939 -0.3277132511 0.3007387221 1.984127923e-39
-0.07339443266 -0.2312438488 0.2821010351 1.984127923e-39
-0.1761992872 -0.3703165054 0.362229377 1.801533128e-39
-0.01085275784 -0.2968361676 -0.334095329 1.801533128e-39
-0.1938880384 -0.3213628829 0.2060059905 1.801533128e-39
-0.2110686004 -0.4034546614 0.2609943748 1.801533128e-39
0.1342357993 -0.3627646863 0.1498794854 1.618578199e-39
-0.1768304557 -0.3828212917 0.361335814 1.618578199e-39
-0.009614221752 -0.2728376091 -0.3444852829 1.618578199e-39
-0.1170403734 -0.3280999362 0.3003807068 1.618578199e-39
-0.09925244749 -0.2345143855 0.2341088355 1.435982003e-39
-0.06051304564 -0.2316305339 0.2817430198 1.435982003e-39
-0.2363192439 -0.3952314258 0.2017187029 1.435982003e-39
-0.04821521789 -0.2425000072 0.3048455119 1.435982003e-39
0.002659793943 -0.2847180963 -0.3335597813 1.253028475e-39
-0.06235894561 -0.2671228647 0.303416431 1.253028475e-39
-0.1723768115 -0.4025927484 0.2842743993 1.253028475e-39
0.01556498557 -0.2840937972 -0.3217407763 1.253028475e-39
0.1606297344 -0.3510333002 0.150056988 1.070432279e-39
-0.01090036705 -0.2988581061 -0.3584494591 1.070432279e-39
-0.06299011409 -0.2796275914 0.3025228679 1.070432279e-39
0.1747735292 -0.3264104724 0.1514860988 1.070432279e-39
-0.1687564105 -0.3346410394 0.204396382 8.874787512e-40
0.1593673974 -0.3760428429 0.1482698768 8.874787512e-40
0.1741423607 -0.338915199 0.1505925357 8.874787512e-40
0.1452236623 -0.4006656408 0.146840781 8.874787512e-40
-0.1504365206 -0.3710898757 0.3615133166 7.045238224e-40
-0.07837237418 -0.3282490373 0.3114836812 7.045238224e-40
0.02781520039 -0.2969852388 -0.3229923546 7.045238224e-40
-0.1375074983 -0.3694545925 0.3855094314 7.045238224e-40
0.1735111922 -0.3514199853 0.1496989727 5.219290273e-40
-0.1535447687 -0.4315917194 0.3813996613 5.219290273e-40
-0.1982586384 -0.4068742692 0.2241051644 5.219290273e-40
0.1587362289 -0.3885475993 0.1473763287 5.219290273e-40
0.001981016248 -0.2992447913 -0.3588074744 3.389740985e-40
-0.1140749529 -0.2736639678 0.2074320912 3.389740985e-40
0.188286081 -0.3142924011 0.1520216167 3.389740985e-40
0.01551737636 -0.2861157358 -0.3460948765 3.389740985e-40
0.1728800237 -0.3639247417 0.1488054097 1.56020571e-40
0.01488620788 -0.2986204922 -0.3469884396 1.56020571e-40
-0.2111876309 -0.4085095525 0.2001090944 1.56020571e-40
-0.1724482179 -0.405625701 0.2477432042 1.56020571e-40
-0.1664975733 -0.434237957 0.3452264965 6.490113838e-41
0.1876549125 -0.3267971575 0.1511280686 6.490113838e-41
-0.08704981208 -0.2494277954 0.2085031718 6.490113838e-41
-0.009571004659 -0.2436600626 0.3037714362 6.490113838e-41
0.002588380128 -0.287751019 -0.3700909913 2.496469266e-40
0.187023744 -0.3393018842 0.1502345204 2.496469266e-40
-0.1658902019 -0.4227441847 0.3339430094 2.496469266e-40
-0.09874430299 -0.3655597568 0.445320636 2.496469266e-40
-0.1841624677 -0.38427338 0.2011801749 4.340353837e-40
-0.05137107149 -0.3050238192 0.3003777266 4.340353837e-40
0.01549357176 -0.28712672 -0.3582719266 4.340353837e-40
-0.09937547147 -0.378064543 0.444427073 4.340353837e-40
-0.1375551075 -0.3714765608 0.3611553013 6.184224396e-40
-0.02189262956 -0.2338015735 0.268491894 6.184224396e-40
-0.124626115 -0.3698412776 0.3851514161 6.184224396e-40
-0.01020217314 -0.256164819 0.302877903 6.184224396e-40
-0.06551479548 -0.3296466768 0.2989486158 8.028094954e-40
-0.04772687703 -0.236061126 0.2326767445 8.028094954e-40
-0.010971779 -0.3018910587 -0.3949806094 8.028094954e-40
0.185761407 -0.3643114269 0.1484473944 8.028094954e-40
-0.1252572834 -0.3823460639 0.384257853 9.871979525e-40
-0.1294810474 -0.3232963085 0.2042158842 9.871979525e-40
-0.1466616094 -0.405388087 0.2592042685 9.871979525e-40
-0.0796585232 -0.3542695045 0.2975195348 9.871979525e-40
-0.1123282611 -0.3807107806 0.4082539082 1.171585008e-39
-0.0232696645 -0.2910215855 -0.4180831313 1.171585008e-39
0.0168229416 -0.2319286764 0.3039489686 1.171585008e-39
-0.01083334535 -0.2686695755 0.30198434 1.171585008e-39
-0.1406871527 -0.4329893887 0.3688645959 1.355972064e-39
-0.009733242914 -0.2778925002 -0.4053705633 1.355972064e-39
-0.1208511889 -0.4041394591 0.2828423083 1.355972064e-39
-0.04775067791 -0.2370721102 0.2204996943 1.355972064e-39
0.18449907 -0.3893209696 0.1466602683 1.540360521e-39
-0.1577684879 -0.3725419939 0.2013576776 1.540360521e-39
-0.1530088186 -0.4231308699 0.3335849941 1.540360521e-39
-0.1466854215 -0.4063990712 0.2470271587 1.540360521e-39
0.02837495506 -0.2875134051 -0.3586299419 1.724747577e-39
-0.1388412565 -0.3974970579 0.3471911252 1.724747577e-39
-0.08894331753 -0.2869420648 0.2058224827 1.724747577e-39
0.002540774643 -0.2897729874 -0.3944450617 1.724747577e-39
-0.02194023877 -0.2358235121 0.2441377491 1.909134633e-39
-0.03912079334 -0.3179152608 0.2991261482 1.909134633e-39
-0.0667771399 -0.3546561897 0.2971615195 1.909134633e-39
-0.1596143991 -0.4080343246 0.2230310887 1.909134633e-39
-0.120875001 -0.4051504433 0.2706652582 2.09352309e-39
-0.009035047144 -0.2351992428 0.255956769 2.09352309e-39
-0.1307433844 -0.3483058512 0.2024287581 2.09352309e-39
-0.1583996713 -0.3850467503 0.2004641294 2.09352309e-39
0.04064898565 -0.2993938625 -0.3477045 2.277910146e-39
-0.009757045656 -0.2789034843 -0.4175475836 2.277910146e-39
-0.1467092037 -0.4074100256 0.2348501235 2.277910146e-39
0.0541853942 -0.2862648368 -0.3349918723 2.277910146e-39
-0.06191821024 -0.2627059221 0.2068935633 2.462297202e-39
-0.1172308028 -0.3361877799 0.202964291 2.462297202e-39
-0.1448871195 -0.372928679 0.2009996623 2.462297202e-39
-0.1338040233 -0.4067857563 0.2466691434 2.462297202e-39
0.02835115045 -0.2885243893 -0.3708070219 2.646685659e-39
-0.02268610336 -0.2805387676 -0.4415436983 2.646685659e-39
0.0296805799 -0.2333263457 0.2914139032 2.646685659e-39
0.001416869462 -0.281561017 0.3007327616 2.646685659e-39
-0.08155203611 -0.3917838037 0.2948388457 2.830713982e-39
-0.009780850261 -0.2799144685 -0.4297246635 2.830713982e-39
-0.01272685453 -0.3061838746 0.2993036509 2.830713982e-39
-0.1259598732 -0.397883743 0.3468331099 2.830713982e-39
0.01479099318 -0.3026644289 -0.39569664 3.015101038e-39
0.05416159704 -0.2872757912 -0.3471689522 3.015101038e-39
-0.1043494195 -0.336574465 0.2026062757 3.015101038e-39
0.0007857009768 -0.2940658033 0.2998391986 3.015101038e-39
0.003822535276 -0.2365968823 0.2434217036 3.199488094e-39
-0.1253525019 -0.3863899708 0.3355496228 3.199488094e-39
-0.02201164886 -0.2388564646 0.2076066136 3.199488094e-39
-0.1019715518 -0.4311164916 0.4043216705 3.199488094e-39
0.06706678867 -0.2866515219 -0.3353499174 3.383517819e-39
-0.0227099061 -0.2815497518 -0.4537207186 3.383517819e-39
-0.1184931397 -0.3611972928 0.2011771798 3.383517819e-39
-0.1461494565 -0.3979382217 0.1992125362 3.383517819e-39
0.04123254493 -0.2889110744 -0.3711650372 3.567904875e-39
-0.0951121971 -0.4059238136 0.2699492276 3.567904875e-39
-0.009804654866 -0.2809254527 -0.4419017136 3.567904875e-39
-0.03615537286 -0.2634792924 0.2061775178 3.567904875e-39
-0.0822070092 -0.4052995145 0.2817682326 3.75229193e-39
0.07934080064 -0.2985319793 -0.3244244456 3.75229193e-39
-0.009130261838 -0.2392431498 0.2072485983 3.75229193e-39
-0.0995182842 -0.3841304183 0.3713647723 3.75229193e-39
-0.06930181384 -0.4046752155 0.2935872674 3.936320254e-39
-0.1338754296 -0.4098186791 0.210138008 3.936320254e-39
-0.05029916391 -0.2881021202 0.2047484219 3.936320254e-39
-0.09513600171 -0.4069347978 0.2577721775 3.936320254e-39
-0.1056117564 -0.3615839779 0.2008191496 4.120708711e-39
-0.1332680583 -0.3983249068 0.1988545209 4.120708711e-39
0.001838192344 -0.3053106666 -0.4318698049 4.120708711e-39
0.01537455246 -0.2921816111 -0.419157207 4.120708711e-39
-0.09209917486 -0.3494658768 0.2013546973 4.304737034e-39
-0.102019161 -0.4331384599 0.3799675703 4.304737034e-39
0.05541954935 -0.2351107001 0.2785208225 4.304737034e-39
-0.1197554767 -0.3862068057 0.1993900537 4.304737034e-39
-0.09954209626 -0.3851414025 0.3591876626 4.48912409e-39
-0.108065024 -0.4085700512 0.2337760478 4.48912409e-39
0.05411398783 -0.2892977595 -0.3715230823 4.48912409e-39
-0.07858661562 -0.3373478353 0.2018902302 4.48912409e-39
-0.02876408957 -0.3683210015 0.2951938808 4.673152414e-39
0.08122991771 -0.233862102 0.3021588624 4.673152414e-39
0.09222218394 -0.2989186645 -0.3247824609 4.673152414e-39
-0.1149719656 -0.4357846975 0.3437944055 4.673152414e-39
-0.09273034334 -0.3619706631 0.2004611343 4.857539469e-39
0.04118493572 -0.2909330428 -0.3955191374 4.857539469e-39
0.07992437482 -0.2880491614 -0.3478849828 4.857539469e-39
0.07929320633 -0.3005539179 -0.3487785459 4.857539469e-39
0.05537194014 -0.2371326685 0.2541666627 5.041567793e-39
-0.004219342023 -0.1724265069 -0.4825679064 5.041567793e-39
0.05345901474 -0.3028135002 -0.3845936656 5.041567793e-39
-0.01111460291 -0.3079569042 -0.4680429399 5.041567793e-39
0.09282955527 -0.2874248922 -0.336065948 5.225597518e-39
-0.01588270441 -0.3687076867 0.2948358655 5.225597518e-39
-0.1008282304 -0.4111618698 0.3452235162 5.225597518e-39
0.009317018092 -0.1592974216 -0.4698553085 5.225597518e-39
-0.02278131992 -0.2845826745 -0.4902519286 5.409984573e-39
-0.1993735433 -0.192787528 -0.1960395873 5.409984573e-39
-0.1075052619 -0.3990982771 0.1981384754 5.409984573e-39
-0.03002643026 -0.3933305144 0.2934067547 5.409984573e-39
-0.1014593989 -0.4236666262 0.3443299532 5.594012897e-39
-0.1999809146 -0.2042813301 -0.1847561002 5.594012897e-39
-0.05646803975 -0.407083869 0.2688751519 5.594012897e-39
0.0387987569 -0.3077306151 0.2978715599 5.594012897e-39
-0.01651387289 -0.3812124431 0.2939423025 5.77804122e-39
0.07926939428 -0.3015649021 -0.360955596 5.77804122e-39
-0.02516749874 -0.3013802767 0.2031388134 5.77804122e-39
-0.007375191897 -0.2349503338 -0.4870356917 5.77804122e-39
0.09280575812 -0.2884358466 -0.3482430279 5.962428276e-39
-0.03065759875 -0.4058352709 0.2925131917 5.962428276e-39
-0.1014832109 -0.4246776104 0.3321529031 5.962428276e-39
0.002397947013 -0.2958388329 -0.467507422 5.962428276e-39
-0.005505483598 -0.1984470189 -0.4965320826 6.1464566e-39
0.07933641225 -0.2713763714 0.2994781733 6.1464566e-39
-0.0946238488 -0.3994849622 0.1977804601 6.1464566e-39
0.1057109386 -0.2878115773 -0.3364239633 6.1464566e-39
0.008030872792 -0.1853179634 -0.4838194847 6.330484923e-39
0.08113469929 -0.2379060388 0.2534506023 6.330484923e-39
-0.05345501378 -0.3506259322 0.2002806216 6.330484923e-39
-0.006767824292 -0.2234565318 -0.4983191788 6.330484923e-39
-0.2282683849 -0.2535270154 -0.1876142919 6.514514648e-39
0.1186162084 -0.2871872783 -0.3246049583 6.514514648e-39
-0.003632489592 -0.3815991282 0.2935842872 6.514514648e-39
-0.2147558033 -0.2414089441 -0.1870787591 6.514514648e-39
0.1179850399 -0.2996920347 -0.3254985213 6.698542971e-39
-0.2252791822 -0.1980800331 -0.2683858573 6.698542971e-39
-0.2012432516 -0.229290843 -0.1865432113 6.698542971e-39
-0.03994239494 -0.3385078907 0.2008161545 6.698542971e-39
0.02757715806 -0.307095021 -0.4447628856 6.882571295e-39
0.04176417738 -0.2532946467 0.2049229443 6.882571295e-39
0.009269408882 -0.1613193899 -0.4942094088 6.882571295e-39
-0.1742181182 -0.2050547004 -0.1854721457 6.882571295e-39
-0.02642983943 -0.3263897896 0.2013517022 7.066599618e-39
0.05527672917 -0.2411765754 0.2054584771 7.066599618e-39
0.01527933404 -0.296225518 -0.4678654373 7.066599618e-39
-0.04057356715 -0.3510126173 0.1999226063 7.066599618e-39
0.009248897433 -0.3819858134 0.2932262421 7.250627941e-39
-0.2123977542 -0.1984667182 -0.2687439024 7.250627941e-39
-0.1865635812 -0.1962071359 -0.2329287976 7.250627941e-39
-0.01118601486 -0.3109898567 -0.50457412 7.250627941e-39
0.09158670157 -0.284267813 0.2982265949 7.434656265e-39
-0.08237363398 -0.412376374 0.1965288669 7.434656265e-39
0.02276151627 -0.3698677421 0.2937617898 7.434656265e-39
-0.215410769 -0.2549246848 -0.2001493573 7.434656265e-39
0.06692396104 -0.2927173674 -0.4084122479 7.618684588e-39
0.06815809757 -0.2415632606 0.2051004618 7.618684588e-39
-0.2295307517 -0.2785365283 -0.1894014031 7.618684588e-39
-0.01307952404 -0.3485041559 -0.5072547793 7.618684588e-39
0.1050321609 -0.3023382723 -0.3616716564 7.802712912e-39
0.09156290442 -0.2852787971 0.2860495448 7.802712912e-39
-0.01371069439 -0.3610089421 -0.5081483126 7.802712912e-39
0.04796117917 -0.160457477 -0.4709293544 7.802712912e-39
0.01462436467 -0.3097412586 -0.4809360206 7.986382503e-39
-0.01434186473 -0.3735136688 -0.5090419054 7.986382503e-39
0.1179374307 -0.3017139733 -0.3498526216 7.986382503e-39
0.1314737797 -0.2885849476 -0.3371400237 7.986382503e-39
-0.2301619053 -0.2910412848 -0.1902949661 8.170410826e-39
-0.1866112053 -0.1982291043 -0.2572828531 8.170410826e-39
-0.06949225068 -0.4127630591 0.1961708516 8.170410826e-39
0.01284549385 -0.3150450885 0.2011711895 8.170410826e-39
0.09210316837 -0.3039735556 -0.3856677413 8.35443915e-39
0.02752954885 -0.3091169596 -0.4691170156 8.35443915e-39
-0.2253744006 -0.20212394 -0.3170940578 8.35443915e-39
0.09394475073 -0.2413256466 0.2165614516 8.35443915e-39
0.0903243646 -0.3092773557 0.2964394689 8.538467473e-39
-0.2160657644 -0.2684404552 -0.2132199854 8.538467473e-39
0.03316247091 -0.1985960901 -0.4854291081 8.538467473e-39
-0.1608007848 -0.1969805062 -0.2336448431 8.538467473e-39
-0.0148107931 -0.3517859876 0.1992065609 8.722137064e-39
-0.001298241317 -0.3396679163 0.1997420937 8.722137064e-39
-0.2253982127 -0.2031349242 -0.3292711377 8.722137064e-39
0.09151529521 -0.2873007655 0.2616954744 8.722137064e-39
0.0737478137 -0.160219878 -0.4594683647 8.906165387e-39
-0.1737297773 -0.1986157894 -0.2576408982 8.906165387e-39
0.007962755859 -0.4080063105 0.2792620957 8.906165387e-39
0.0927105397 -0.2924797833 -0.3969512284 8.906165387e-39
0.09030056745 -0.3102883399 0.2842624187 9.089834978e-39
0.06687635183 -0.2947393358 -0.4327663481 9.089834978e-39
-0.01787142828 -0.4102658927 0.2434469312 9.089834978e-39
0.05275204778 -0.2911956012 0.2018842399 9.089834978e-39
0.06624518335 -0.3072440922 -0.4336599112 9.273863302e-39
0.1056157202 -0.2918554842 -0.3851321936 9.273863302e-39
0.04104210809 -0.2969988883 -0.4685814679 9.273863302e-39
-0.1995877922 -0.2018863261 -0.3056330681 9.273863302e-39
0.06626459211 -0.2790775299 0.2024197727 9.457532893e-39
0.04791356996 -0.1624794453 -0.4952834845 9.457532893e-39
-0.004966240376 -0.4096415937 0.2552660108 9.457532893e-39
0.09328977019 -0.2548413873 0.2034908533 9.457532893e-39
0.0791503787 -0.3066197932 -0.4218408763 9.641561216e-39
0.08966939896 -0.3227930665 0.2833688557 9.641561216e-39
-0.213124156 -0.2150154114 -0.3183456659 9.641561216e-39
-0.225445807 -0.2051568627 -0.3536252677 9.641561216e-39
0.09268672764 -0.2934907377 -0.4091282785 9.825230807e-39
-0.1737773716 -0.200637728 -0.2819949985 9.825230807e-39
-0.1638614237 -0.2554604411 -0.1894043982 9.825230807e-39
0.06685255468 -0.29575032 -0.4449433982 9.825230807e-39
-0.2161371708 -0.2714733779 -0.2497511357 1.000925913e-38
-0.2320554256 -0.3285556138 -0.1929756552 1.000925913e-38
0.03374939412 -0.4077686965 0.2907230854 1.000925913e-38
0.07914597541 -0.279464215 0.2020617574 1.000925913e-38
0.04101830348 -0.2980098724 -0.480758518 1.019292872e-38
-0.2272678912 -0.2396382391 -0.3197747469 1.019292872e-38
0.02446459234 -0.3404412866 0.1990260482 1.019292872e-38
0.08903823048 -0.3352978528 0.2824753225 1.019292872e-38
0.0472619459 -0.3956506252 0.2912586331 1.037659831e-38
-0.1897194386 -0.2587309778 -0.237396583 1.037659831e-38
-0.01791903749 -0.4122878313 0.2190928459 1.037659831e-38
-0.2161609828 -0.2724843621 -0.2619281709 1.037659831e-38
-0.2125644088 -0.2055435777 -0.353983283 1.056062664e-38
0.1307712048 -0.3041226268 -0.3745647669 1.056062664e-38
-0.1644925773 -0.2679651976 -0.1902979612 1.056062664e-38
0.06500226259 -0.3040870726 0.2006326616 1.056062664e-38
0.09266293049 -0.2945017219 -0.4213053286 1.074429623e-38
0.03372558951 -0.4087796807 0.2785460353 1.074429623e-38
0.092031762 -0.3070064783 -0.4221988916 1.074429623e-38
-0.1738249958 -0.2026596963 -0.3063491285 1.074429623e-38
-0.2155774236 -0.2620015144 -0.2853887379 1.092796582e-38
0.02745813876 -0.3121499121 -0.5056481361 1.092796582e-38
-0.2296973765 -0.285613358 -0.2746407688 1.092796582e-38
0.1184733808 -0.2932531536 -0.397667259 1.092796582e-38
0.09142007679 -0.2913446724 0.2129872143 1.111163541e-38
0.1313785613 -0.2926288545 -0.385848254 1.111163541e-38
-0.1903506219 -0.2712357342 -0.238290146 1.111163541e-38
-0.23210302 -0.3305775821 -0.2173297703 1.111163541e-38
0.05890149996 -0.2003804445 -0.4983221889 1.1295305e-38
0.1049369425 -0.3063821793 -0.4103798866 1.1295305e-38
-0.1768380105 -0.2591176629 -0.2377546132 1.1295305e-38
0.08658158779 -0.1626285166 -0.48418051 1.1295305e-38
0.05085853487 -0.3287099004 0.1992035657 1.147897319e-38
0.07973393798 -0.2961370051 -0.4453014135 1.147897319e-38
-0.1873613894 -0.2157887816 -0.3190616965 1.147897319e-38
0.09948678315 -0.1620042175 -0.4723614454 1.147897319e-38
-0.2255172133 -0.2081898153 -0.3901564181 1.166264278e-38
0.0895979777 -0.325826019 0.2468376756 1.166264278e-38
-0.1774453819 -0.2706114352 -0.2264710963 1.166264278e-38
-0.005037654191 -0.4126745164 0.2187348306 1.166264278e-38
-0.2333177626 -0.3535650969 -0.1947627664 1.184631237e-38
-0.1639328301 -0.2584933639 -0.2259355634 1.184631237e-38
0.1436525881 -0.3045093119 -0.3749227822 1.184631237e-38
-0.2062926292 -0.3293289542 -0.1936917007 1.184631237e-38
-0.1927800775 -0.3172108829 -0.193156153 1.202998196e-38
-0.2150176466 -0.2525297105 -0.3210263252 1.202998196e-38
-0.2291376293 -0.2761415839 -0.3102783859 1.202998196e-38
-0.2015050948 -0.2404116094 -0.3204907775 1.202998196e-38
-0.1738725901 -0.2046816647 -0.3307032287 1.221365155e-38
0.1442599446 -0.2930155396 -0.3862062693 1.221365155e-38
-0.1897908449 -0.2617639005 -0.2739277184 1.221365155e-38
0.08655779064 -0.1636395007 -0.4963575602 1.221365155e-38
0.08468808234 -0.2001428306 -0.4868611693 1.239732115e-38
-0.1903982162 -0.2732577026 -0.2626442313 1.239732115e-38
0.1307235956 -0.3061445951 -0.3989188373 1.239732115e-38
-0.1868016422 -0.2063169479 -0.3546993136 1.239732115e-38
-0.1609674096 -0.2040573657 -0.3188841939 1.258099074e-38
-0.2291614115 -0.2771525681 -0.322455436 1.258099074e-38
-0.2174471319 -0.2985047996 -0.2758923769 1.258099074e-38
0.1381786168 -0.1611423194 -0.4490814209 1.258099074e-38
-0.1738964021 -0.2056926489 -0.3428802788 1.276466033e-38
0.02074898779 -0.4124369025 0.2301958203 1.276466033e-38
0.131330952 -0.2946507931 -0.4102023542 1.276466033e-38
-0.1663860977 -0.3054794967 -0.1929786354 1.276466033e-38
0.08833564073 -0.3508355618 0.2450505495 1.294832852e-38
0.06678113341 -0.2987832427 -0.4814745784 1.294832852e-38
-0.1769094169 -0.2621505857 -0.2742857635 1.294832852e-38
0.07662130147 -0.3294832408 0.1984875202 1.294832852e-38
0.0336541757 -0.4118126333 0.2420148402 1.313163938e-38
0.1571413279 -0.2934022248 -0.3865642846 1.313163938e-38
-0.2069475949 -0.3428446949 -0.2067622989 1.313163938e-38
-0.2033510208 -0.2759039402 -0.2988173962 1.313163938e-38
-0.2174709439 -0.2995157838 -0.2880693972 1.331530897e-38
0.08712089807 -0.3738231361 0.2676175833 1.331530897e-38
0.007819935679 -0.4140721858 0.2061997652 1.331530897e-38
-0.2198765874 -0.3444799483 -0.2307583839 1.331530897e-38
0.03545247763 -0.3783422709 0.1959873438 1.349897856e-38
0.1958569735 -0.2915293276 -0.3511072099 1.349897856e-38
0.1381548047 -0.1621533036 -0.461258471 1.349897856e-38
-0.2045657337 -0.2988914847 -0.2762503922 1.349897856e-38
0.07905516028 -0.3106637001 -0.4705491066 1.368228942e-38
0.08831184357 -0.3518465161 0.2328735143 1.368228942e-38
0.1510600001 -0.1615290046 -0.4494394362 1.368228942e-38
-0.1856583059 -0.1863622963 -0.4137974679 1.368228942e-38
-0.18925488 -0.2533030808 -0.3217423856 1.386595901e-38
-0.2069714069 -0.343855679 -0.218939364 1.386595901e-38
-0.1934588552 -0.3317376077 -0.2184038311 1.386595901e-38
0.1442123353 -0.2950374782 -0.4105603695 1.386595901e-38
0.007796131074 -0.4150831699 0.1940227151 1.404926846e-38
0.2081309855 -0.3034098148 -0.3401817083 1.404926846e-38
0.02130874246 -0.4029650986 0.1945582479 1.404926846e-38
0.08889540285 -0.341363728 0.2094129771 1.404926846e-38
0.0348213017 -0.3908470273 0.1950937957 1.423293806e-38
-0.2328294218 -0.3471262157 -0.266931504 1.423293806e-38
0.1252258122 -0.163788572 -0.4852545857 1.423293806e-38
0.1958331615 -0.2925403118 -0.3632842302 1.423293806e-38
-0.2193168402 -0.3350081742 -0.2663959861 1.441624891e-38
0.09193654358 -0.3110503852 -0.4709071219 1.441624891e-38
-0.1940900087 -0.3442423642 -0.2192973942 1.441624891e-38
0.1312833428 -0.2966727614 -0.4345564842 1.441624891e-38
0.08646593243 -0.3873388469 0.2545469701 1.459991851e-38
0.1048417389 -0.310426116 -0.4590880871 1.459991851e-38
-0.1769808382 -0.2651835382 -0.3108169138 1.459991851e-38
0.02067757398 -0.4154698551 0.1936646998 1.459991851e-38
-0.2070190012 -0.3458776176 -0.2432934791 1.478322936e-38
-0.2052207291 -0.3124072552 -0.2893210053 1.478322936e-38
0.08464383334 -0.4218202233 0.2883974314 1.478322936e-38
-0.2139457464 -0.2356080115 -0.4166556597 1.478322936e-38
0.125202015 -0.1647995561 -0.4974316061 1.496689755e-38
0.0870494917 -0.3768560588 0.2310863882 1.496689755e-38
-0.1781955659 -0.2881710827 -0.2882499099 1.496689755e-38
0.08644212037 -0.3883498311 0.2423698753 1.496689755e-38
-0.1806012392 -0.3331352472 -0.2309388965 1.515020841e-38
-0.1770046353 -0.2661945224 -0.322993964 1.515020841e-38
-0.1634920835 -0.2540764511 -0.3224584162 1.515020841e-38
0.1048179269 -0.3114370704 -0.4712651372 1.515020841e-38
-0.2094484866 -0.3918527663 -0.1981594861 1.533351927e-38
-0.2058518827 -0.3249120116 -0.2902145386 1.533351927e-38
0.1570699215 -0.2964351475 -0.4230954349 1.533351927e-38
0.1897280216 -0.1616780907 -0.4383364618 1.533351927e-38
-0.2322934568 -0.338665396 -0.3147461712 1.551683013e-38
0.1699751019 -0.2958108485 -0.4112764299 1.551683013e-38
-0.1647068262 -0.2770639956 -0.2998914421 1.551683013e-38
-0.1611102372 -0.2101232409 -0.3919465244 1.551683013e-38
-0.201064378 -0.2359946966 -0.4170137048 1.570049832e-38
0.09252010286 -0.3005675972 -0.4943676889 1.570049832e-38
-0.1875518262 -0.2238766253 -0.416478157 1.570049832e-38
-0.1794341058 -0.3121696413 -0.2778599858 1.570049832e-38
0.08520359546 -0.4123483896 0.2527598739 1.588380918e-38
-0.167719841 -0.3335219324 -0.2312969267 1.588380918e-38
0.1183305532 -0.2993189991 -0.4707296193 1.588380918e-38
-0.1641232669 -0.2665812075 -0.3233519793 1.588380918e-38
0.221595943 -0.2933136821 -0.3640002906 1.606712004e-38
-0.1941614151 -0.3472752869 -0.2558285296 1.606712004e-38
-0.1683272123 -0.3450157344 -0.2200134397 1.606712004e-38
-0.2100796402 -0.4043575227 -0.1990530491 1.606712004e-38
-0.2329246402 -0.3511701226 -0.3156397343 1.625043089e-38
-0.1830545068 -0.3801213801 -0.1979819685 1.625043089e-38
0.08578715473 -0.4018655717 0.2292992771 1.625043089e-38
-0.1659453511 -0.3010625243 -0.2895014882 1.625043089e-38
0.2467752397 -0.3045698702 -0.341255784 1.643374035e-38
-0.235937655 -0.4076280594 -0.2470452338 1.643374035e-38
-0.2323410809 -0.3406873345 -0.3391003013 1.643374035e-38
0.1312119365 -0.2997056842 -0.4710876346 1.643374035e-38
0.1638699621 -0.1649486274 -0.4863286316 1.661705121e-38
0.08576334268 -0.4028765559 0.217122227 1.661705121e-38
0.1047703177 -0.3134590387 -0.4956192672 1.661705121e-38
0.1441171318 -0.2990814149 -0.4592685699 1.661705121e-38
-0.2158392668 -0.2731222808 -0.4193363488 1.680036207e-38
0.1176755875 -0.3128347397 -0.4838002026 1.680036207e-38
0.2080357671 -0.3074537218 -0.3888899386 1.680036207e-38
0.1570223123 -0.2984571159 -0.4474495649 1.680036207e-38
-0.2200432122 -0.3515568078 -0.3159977496 1.698367293e-38
-0.1942090392 -0.3492972255 -0.2801826596 1.698367293e-38
-0.1683748215 -0.347037673 -0.2443675548 1.698367293e-38
0.08454861492 -0.4258641601 0.2396892011 1.698367293e-38
-0.2323648632 -0.3416983187 -0.3512773514 1.716698239e-38
0.1434859633 -0.3115861714 -0.460162133 1.716698239e-38
0.2154907882 -0.1624514461 -0.4390524924 1.716698239e-38
-0.1671838909 -0.3250610828 -0.2791115642 1.716698239e-38
0.1497024447 -0.1905824542 -0.4999347925 1.735029324e-38
-0.1777072251 -0.2817322016 -0.3604187071 1.735029324e-38
0.1626076251 -0.1899581552 -0.4881157577 1.735029324e-38
-0.2335796058 -0.3646858633 -0.3287103474 1.735029324e-38
0.3433280885 -0.1791960895 -0.2982951999 1.75336041e-38
0.1047465205 -0.3144700229 -0.5077962875 1.75336041e-38
0.1440933198 -0.3000923693 -0.4714456499 1.75336041e-38
0.1767513454 -0.1653353125 -0.4866866469 1.75336041e-38
0.1619764566 -0.2024629414 -0.4890093207 1.771655483e-38
-0.2029578686 -0.273508966 -0.4196943641 1.771655483e-38
0.2473587692 -0.2940870523 -0.3647163212 1.771655483e-38
0.1896566153 -0.1647110134 -0.4748676121 1.771655483e-38
0.2209171951 -0.3078404069 -0.3892479539 1.789986569e-38
0.2602639496 -0.2934627533 -0.3528973162 1.789986569e-38
-0.2035652399 -0.2850027382 -0.4084108472 1.789986569e-38
-0.193649292 -0.3398254216 -0.3158202469 1.789986569e-38
0.2338223457 -0.3072161078 -0.3774289489 1.808317654e-38
0.3402198255 -0.239697963 -0.278408885 1.808317654e-38
-0.2342107594 -0.3771906495 -0.3296039104 1.808317654e-38
-0.2065782845 -0.341460675 -0.3398163319 1.808317654e-38
0.1692725271 -0.3113485575 -0.4487011433 1.826612727e-38
-0.2206981778 -0.3650725484 -0.3290683627 1.826612727e-38
0.1821777821 -0.3107242584 -0.4368821084 1.826612727e-38
0.2215245366 -0.2963466346 -0.400531441 1.826612727e-38
0.1968531013 -0.250485003 0.140634954 1.844943813e-38
-0.1972696781 -0.4077771306 -0.2359422296 1.844943813e-38
0.1962457001 -0.2619787455 0.1519184411 1.844943813e-38
0.2079881579 -0.3094756603 -0.4132440388 1.844943813e-38
0.220893383 -0.3088513911 -0.401425004 1.863274899e-38
-0.1843644381 -0.4071528614 -0.2241232097 1.863274899e-38
-0.2066020668 -0.3424716592 -0.351993382 1.863274899e-38
0.1434383541 -0.31360811 -0.484516263 1.863274899e-38
-0.1630513519 -0.2496594787 -0.4189813137 1.881569971e-38
-0.2348419428 -0.389695406 -0.3304974735 1.881569971e-38
-0.2213293612 -0.3775773346 -0.3299619257 1.881569971e-38
0.1692487299 -0.3123595417 -0.4608781934 1.881569971e-38
-0.1936968863 -0.3418473601 -0.3401743472 1.899901057e-38
0.259608984 -0.3069784939 -0.3659678996 1.899901057e-38
0.2085955292 -0.2979818881 -0.4245275259 1.899901057e-38
0.2215007246 -0.297357589 -0.4127085209 1.899901057e-38
-0.1943042576 -0.3533411622 -0.3288908601 1.91819627e-38
-0.2360566854 -0.4126829505 -0.3079304993 1.91819627e-38
-0.2066258788 -0.3434826434 -0.3641704619 1.91819627e-38
-0.1907076836 -0.2864004076 -0.4209459424 1.91819627e-38
-0.1813990176 -0.3527168632 -0.3170718253 1.936527215e-38
0.182685554 -0.2761187851 0.1270287633 1.936527215e-38
0.1968054771 -0.2525069416 0.1162808239 1.936527215e-38
-0.2354731262 -0.4022001922 -0.3313910067 1.936527215e-38
-0.1678864658 -0.3405987918 -0.3165362775 1.954822428e-38
0.1827613562 -0.3002414703 -0.4603426456 1.954822428e-38
0.2731215358 -0.2948604226 -0.3654323816 1.954822428e-38
-0.2318765223 -0.3352594078 -0.4234461188 1.954822428e-38
-0.1862103641 -0.4426451921 -0.2024497688 1.973153514e-38
0.2097106576 -0.2518826723 0.1280998439 1.973153514e-38
0.2412297428 -0.1642357856 -0.4519455731 1.973153514e-38
-0.2048513889 -0.3110232353 -0.4223750532 1.973153514e-38
-0.1913388371 -0.298905164 -0.4218395054 1.991448586e-38
-0.1937445104 -0.3438693285 -0.3645284772 1.991448586e-38
-0.1643137038 -0.2746690214 -0.4207684398 1.991448586e-38
0.2601925433 -0.2964957058 -0.3894284666 1.991448586e-38
0.1433907449 -0.3156300783 -0.5088703632 2.009743799e-38
0.1838526726 -0.255153209 0.08010771871 2.009743799e-38
0.286002934 -0.2952471077 -0.3657903969 2.009743799e-38
0.1692011207 -0.3143814802 -0.4852322936 2.009743799e-38
0.1826379299 -0.2781407237 0.1026746854 2.028074885e-38
0.3364328146 -0.3147265315 -0.2837702036 2.028074885e-38
-0.2379263937 -0.4491862655 -0.2984341085 2.028074885e-38
-0.210293889 -0.4134563208 -0.3086465299 2.028074885e-38
0.2472635508 -0.2981309593 -0.4134245515 2.046369957e-38
-0.1973887086 -0.4128320217 -0.2968274951 2.046369957e-38
-0.1739601344 -0.4555366039 -0.203701362 2.046369957e-38
0.1956189275 -0.3016391098 -0.4728777409 2.046369957e-38
-0.1844834685 -0.4122077227 -0.2850084603 2.06466517e-38
0.2988843024 -0.2956337929 -0.3661484122 2.06466517e-38
0.3345631063 -0.3512298465 -0.2742738724 2.06466517e-38
0.1820825785 -0.3147681653 -0.4855903387 2.06466517e-38
0.2214293182 -0.3003905416 -0.4492396712 2.082996116e-38
0.194987759 -0.3141438663 -0.4737713039 2.082996116e-38
0.1936972439 -0.3130088151 0.1361671686 2.082996116e-38
0.227014631 -0.1918915808 -0.489905864 2.082996116e-38
-0.2385813594 -0.4627020359 -0.3115047216 2.101291328e-38
0.1837812364 -0.2581861317 0.04357653111 2.101291328e-38
0.2066023946 -0.312384516 0.1479861885 2.101291328e-38
-0.2367830575 -0.4292316139 -0.3575322628 2.101291328e-38
0.2282531559 -0.1678930223 -0.5002957582 2.119586541e-38
0.2595137656 -0.3110224009 -0.4146761298 2.119586541e-38
-0.2232704759 -0.4171135426 -0.3569967151 2.119586541e-38
0.2348423004 -0.2651607692 0.1264902353 2.119586541e-38
-0.1980436742 -0.4263477623 -0.3098981082 2.137881613e-38
-0.1680054963 -0.3456536829 -0.3774215579 2.137881613e-38
0.3333007693 -0.3762393594 -0.2760609686 2.137881613e-38
-0.2121635973 -0.4499596357 -0.2991501391 2.137881613e-38
0.1949639618 -0.3151548505 -0.485948354 2.156176826e-38
0.1825665236 -0.2811736763 0.06614349782 2.156176826e-38
-0.1845310628 -0.414229691 -0.3093625903 2.156176826e-38
0.2343106866 -0.3007772267 -0.4495976865 2.156176826e-38
-0.2103652954 -0.4164892435 -0.3451776803 2.174471899e-38
0.3246709406 -0.295396179 -0.3546874225 2.174471899e-38
0.2601211071 -0.2995286286 -0.4259596169 2.174471899e-38
0.2354258597 -0.2546779811 0.103029713 2.174471899e-38
-0.2208886147 -0.3731603622 -0.4264848232 2.192767111e-38
0.2730263174 -0.2989043295 -0.4141406119 2.192767111e-38
0.1955713183 -0.3036610782 -0.4972318709 2.192767111e-38
0.2483310699 -0.2540536523 0.1148487329 2.192767111e-38
0.2411345243 -0.1682797074 -0.5006538033 2.211062324e-38
0.2723951638 -0.311409086 -0.4150341749 2.211062324e-38
-0.2362233102 -0.41975981 -0.3931698501 2.211062324e-38
0.2329964042 -0.3006531 0.1481637061 2.211062324e-38
0.2342868745 -0.3017882109 -0.4617747366 2.229357396e-38
-0.2368306816 -0.4312535822 -0.381886363 2.229357396e-38
0.2207505703 -0.3149172366 -0.4744873345 2.229357396e-38
0.2927553654 -0.1657825261 -0.4533776641 2.229357396e-38
0.2730025053 -0.2999153137 -0.426317662 2.247652609e-38
0.196031481 -0.2710775435 0.04232494906 2.247652609e-38
0.2095440328 -0.258959502 0.04286048561 2.247652609e-38
0.2527774572 -0.1926649511 -0.4906219244 2.247652609e-38
0.4212476611 -0.1690114439 -0.2995497584 2.265947681e-38
-0.1716734916 -0.4156273603 -0.3218976557 2.265947681e-38
-0.1999133825 -0.4628511071 -0.3004017174 2.265947681e-38
-0.2233418822 -0.4201464951 -0.3935278654 2.265947681e-38
-0.1722808629 -0.4271211326 -0.3106141686 2.284242894e-38
0.2224492729 -0.2583352029 0.05467950553 2.284242894e-38
0.2669211626 -0.1680420935 -0.4891928136 2.284242894e-38
0.2482834756 -0.2560756207 0.09049464762 2.284242894e-38
-0.212842375 -0.4644863605 -0.3243978322 2.302537966e-38
0.2927315831 -0.1667935103 -0.465554744 2.302537966e-38
0.2353544533 -0.2577109337 0.06649852544 2.302537966e-38
-0.2386765778 -0.4667459726 -0.3602129221 2.302537966e-38
-0.1852098405 -0.4287564158 -0.3346102238 2.320833179e-38
0.247068733 -0.2790631652 0.1130616218 2.320833179e-38
-0.1951258481 -0.3739337325 -0.4272008538 2.320833179e-38
-0.1975315213 -0.418897897 -0.3698898256 2.320833179e-38
0.4335216582 -0.1808919013 -0.2886242867 2.339092378e-38
-0.1999371648 -0.4638620615 -0.3125787973 2.339092378e-38
0.4175082147 -0.242018044 -0.2805569768 2.339092378e-38
-0.1681007147 -0.3496975899 -0.4261297882 2.339092378e-38
0.1935782135 -0.3180637062 0.0752818957 2.348204041e-38
0.350433737 -0.2961695492 -0.3554034531 2.348204041e-38
0.2668973505 -0.1690530777 -0.5013698339 2.348204041e-38
0.2040777206 -0.3624035418 0.1444119513 2.348204041e-38
0.2798025608 -0.1684287786 -0.4895508289 2.348132155e-38
0.1923634708 -0.3410512209 0.09784886986 2.348132155e-38
-0.1741267592 -0.4626134634 -0.2889407277 2.348132155e-38
0.1917560995 -0.352545023 0.1091323495 2.348132155e-38
-0.1981627047 -0.4314026535 -0.3707833886 2.348060128e-38
-0.1687318832 -0.3622023463 -0.4270233512 2.348060128e-38
0.1929470301 -0.3305684328 0.07438834012 2.348060128e-38
0.3116705418 -0.3000643849 -0.4152146578 2.348060128e-38
-0.2110916674 -0.4330379367 -0.3947794437 2.347952368e-38
0.4162458777 -0.2670275867 -0.2823441029 2.347952368e-38
-0.1999847889 -0.4658840299 -0.3369328976 2.347952368e-38
0.247120738 -0.3041968346 -0.486486882 2.347952368e-38
-0.1723522842 -0.4301540554 -0.347145319 2.347880341e-38
0.292683959 -0.1688154638 -0.489908874 2.347880341e-38
0.2335843146 -0.3173258901 -0.4991994798 2.347880341e-38
-0.1693630517 -0.3747071028 -0.4279169142 2.347880341e-38
0.001163329929 -0.4449577332 0.1222788393 2.347808455e-38
0.1893028617 -0.399531126 0.1420892924 2.347808455e-38
-0.17176871 -0.4196712673 -0.370605886 2.347808455e-38
0.4297584295 -0.2549095154 -0.2818085849 2.347808455e-38
0.01530705392 -0.4203348756 0.1237079352 2.347700555e-38
-0.198210299 -0.4334246218 -0.3951374888 2.347700555e-38
0.2852051556 -0.3148287237 -0.4519233406 2.347700555e-38
0.2740224302 -0.2578599751 0.07760155946 2.347700555e-38
0.4322116971 -0.2079233825 -0.3147655129 2.347628668e-38
0.2586877942 -0.304459393 0.1109164804 2.347628668e-38
0.247096926 -0.3052078187 -0.4986639619 2.347628668e-38
-0.2105319202 -0.423566103 -0.4304170907 2.347628668e-38
0.3842190206 -0.3892798722 -0.2662095726 2.347520768e-38
-0.2111392915 -0.4350598752 -0.4191335738 2.347520768e-38
0.002354258671 -0.4229811132 0.08753477037 2.347520768e-38
0.002961626276 -0.4114873707 0.07625128329 2.347520768e-38
-0.169994235 -0.387211889 -0.4288104773 2.347448882e-38
0.2858124971 -0.3033349514 -0.4632068276 2.347448882e-38
0.02881960943 -0.4082168043 0.124243468 2.347448882e-38
-0.1982341111 -0.4344355762 -0.407314539 2.347448882e-38
0.2593709528 -0.3170882761 -0.4877384603 2.347340982e-38
0.2610696554 -0.2605062127 0.04142839462 2.347340982e-38
0.4309493601 -0.2329328954 -0.316552639 2.347340982e-38
0.2580566108 -0.3169641495 0.1100229174 2.347340982e-38
0.1898626089 -0.3900592923 0.1064516753 2.347269095e-38
0.01404471323 -0.4453444183 0.1219208091 2.347269095e-38
0.3245280981 -0.3014620543 -0.427749753 2.347269095e-38
0.01465208083 -0.433850646 0.1106372699 2.347269095e-38
0.29139781 -0.1948359609 -0.5038729906 2.347161195e-38
0.1892552376 -0.4015530944 0.1177351624 2.347161195e-38
0.02879580483 -0.4092277884 0.1120663658 2.347161195e-38
0.3043029904 -0.1942116916 -0.4920540154 2.347161195e-38
-0.2258903682 -0.4711765647 -0.4092791975 2.347089308e-38
0.3238969445 -0.3139668107 -0.4286432862 2.347089308e-38
0.1910535395 -0.368082732 0.07170765847 2.347089308e-38
-0.1706253886 -0.3997166455 -0.4297040403 2.347089308e-38
0.3626363277 -0.3110829294 -0.3810091615 2.346981408e-38
0.2464419603 -0.3187235594 -0.5117345452 2.346981408e-38
-0.1847453117 -0.4233284891 -0.4189560711 2.346981408e-38
-0.187150985 -0.4682926536 -0.3616450131 2.346981408e-38
0.3036718071 -0.2067164779 -0.4929475486 2.346909522e-38
-0.2129851878 -0.470552206 -0.3974601328 2.346909522e-38
-0.2388193905 -0.4728118181 -0.4332752824 2.346909522e-38
-0.1853526831 -0.4348222613 -0.4076725841 2.346909522e-38
0.2150656581 -0.4003044963 0.1413732469 2.346801622e-38
0.3313519657 -0.168964535 -0.4788058698 2.346801622e-38
0.272252351 -0.3174749613 -0.4880964756 2.346801622e-38
-0.1718401313 -0.42270419 -0.4071370363 2.346801622e-38
0.02877200022 -0.4102387428 0.09988932312 2.346693862e-38
0.349707365 -0.3127182126 -0.4050052166 2.346693862e-38
0.2739510238 -0.2608928978 0.04107037559 2.346693862e-38
0.3245043159 -0.3024730384 -0.4399268031 2.346693862e-38
0.3571623564 -0.1677159518 -0.4551678002 2.346621835e-38
-0.1724475026 -0.4341979921 -0.3958535194 2.346621835e-38
0.05523735657 -0.3954744339 0.1365980208 2.346621835e-38
-0.1982817054 -0.4364575446 -0.431668669 2.346621835e-38
0.001675480977 -0.4375078678 0.06228712201 2.346514075e-38
0.3171844482 -0.1945983768 -0.4924120307 2.346514075e-38
-0.171256572 -0.4122214019 -0.4305976033 2.346514075e-38
0.4106129706 -0.377548486 -0.2660320401 2.346514075e-38
0.02935556695 -0.3997559547 0.07642880082 2.346406175e-38
0.4290558398 -0.2704471946 -0.3192333281 2.346406175e-38
0.2561869025 -0.3534674942 0.1195192859 2.346406175e-38
0.3890541196 -0.2983405888 -0.3686545789 2.346406175e-38
0.1879929006 -0.4265626371 0.1159480363 2.346334289e-38
0.2851337492 -0.3178616464 -0.4884544909 2.346334289e-38
0.1903985441 -0.3815985024 0.05863700062 2.346334289e-38
