# .PCD v0.7 - Point Cloud Data file format
VERSION 0.7
FIELDS x y z rgb
SIZE 4 4 4 4
TYPE F F F F
COUNT 1 1 1 1
WIDTH 835
HEIGHT 1
VIEWPOINT 0 0 0 1 0 0 0
POINTS 835
DATA ascii
-0.09613145888 -0.4972992241 -0.2806791365 1.147897319e-38
0.4424056113 -0.486710161 -0.4575836658 1.166264278e-38
-0.1694528759 -0.2284399718 -0.4242172539 1.166264278e-38
0.4009710252 -0.5091392398 -0.1012529135 1.166264278e-38
-0.07431124151 -0.3240995109 -0.3137696683 1.166264278e-38
0.3654423654 -0.5031817555 -0.3503183722 1.166264278e-38
-0.1834915429 -0.242160663 -0.1371182799 1.166264278e-38
-0.1756936461 -0.4017861187 0.1066233516 1.166264278e-38
-0.1837580055 -0.2548776269 -0.1249762997 1.166264278e-38
0.3632208407 -0.5096021891 -0.0519223772 1.184631237e-38
0.354563117 -0.4154121578 -0.2329777926 1.184631237e-38
0.1115532592 -0.3859579265 0.0832272023 1.184631237e-38
-0.1708889306 -0.2803778946 -0.3259167075 1.184631237e-38
0.2215889692 -0.4601998627 0.209213376 1.184631237e-38
0.09011998773 -0.5022073984 -0.1916362792 1.184631237e-38
-0.1776711941 -0.3716607392 0.4431923926 1.184631237e-38
-0.08659730852 -0.3114477098 -0.3136125207 1.184631237e-38
-0.07422991097 -0.3119175732 -0.3010453284 1.202998196e-38
0.438813746 -0.5084087253 -0.1630166024 1.202998196e-38
0.3083123565 -0.4125601649 0.03676727414 1.202998196e-38
-0.1115423739 -0.382796973 -0.4523926377 1.202998196e-38
-0.111292541 -0.3821914792 -0.05248500407 1.202998196e-38
0.4197452366 -0.4522648752 0.06196642295 1.202998196e-38
-0.09925629199 -0.3954488039 -0.4525497854 1.202998196e-38
0.1240132079 -0.3861602843 0.08336123824 1.202998196e-38
0.4282774031 -0.2630525231 -0.4183653593 1.221365155e-38
0.09946355969 -0.3846854568 0.03336052969 1.221365155e-38
0.4266314209 -0.507403791 -0.2004501373 1.221365155e-38
-0.08651596308 -0.2992657423 -0.3008881509 1.221365155e-38
0.4450139701 -0.2999683619 -0.4532156885 1.221365155e-38
0.1148547679 -0.5031471252 -0.166501835 1.221365155e-38
-0.09882450104 -0.2627851069 -0.250415951 1.221365155e-38
0.4454542994 -0.2748019397 -0.4650664628 1.221365155e-38
-0.09997431934 -0.4214177728 -0.4033994973 1.239732115e-38
-0.1122604012 -0.4087659717 -0.4032423496 1.239732115e-38
0.2017968297 -0.5053662658 -0.12826401 1.239732115e-38
0.3756808639 -0.5098045468 -0.05178832635 1.239732115e-38
0.3902019262 -0.312243253 -0.419932276 1.239732115e-38
-0.07400840521 -0.2515429556 -0.2125571519 1.239732115e-38
-0.107719332 -0.3823578954 0.4895174801 1.239732115e-38
0.3882333636 -0.509739399 -0.06408746541 1.239732115e-38
-0.0786280036 -0.372416079 0.1951165646 1.258099074e-38
0.432472676 -0.3119479418 -0.4660741091 1.258099074e-38
-0.1447068304 -0.2412941456 -0.4242403507 1.258099074e-38
0.4322987795 -0.3243974149 -0.4663653076 1.258099074e-38
0.1948656738 -0.4025696814 0.2347826958 1.258099074e-38
0.136473164 -0.386362642 0.08349528909 1.258099074e-38
0.444666177 -0.3248672783 -0.4537980855 1.258099074e-38
0.03689731658 -0.3963905871 0.04483224824 1.258099074e-38
0.3531675637 -0.5024443269 -0.3753187358 1.276466033e-38
-0.06219903752 -0.349200815 -0.3142180145 1.276466033e-38
0.0904673934 -0.3571842313 -0.4243142307 1.276466033e-38
0.3284327984 -0.5015045404 -0.4004531801 1.276466033e-38
0.4428459406 -0.4615437388 -0.4694344103 1.276466033e-38
0.036712192 -0.3969256282 0.06969855726 1.276466033e-38
-0.04142199084 -0.3854726553 0.1952275187 1.276466033e-38
0.182509467 -0.4140142202 0.1970579773 1.276466033e-38
0.413430959 -0.5093415976 -0.1011188626 1.294832852e-38
0.04926469922 -0.3968604803 0.05739944801 1.294832852e-38
0.3560467958 -0.3155490458 -0.2430814058 1.294832852e-38
-0.1019296274 -0.4297718704 0.1938773692 1.294832852e-38
-0.05011202767 -0.4460560977 -0.453178376 1.294832852e-38
-0.1777749807 -0.3600138426 0.4807831049 1.294832852e-38
0.1946693212 -0.3911902905 0.2848065495 1.294832852e-38
0.08479589969 -0.4452568293 0.1955969036 1.294832852e-38
0.3655349314 -0.5029141903 -0.3627515137 1.313163938e-38
-0.08653844893 -0.2754369378 -0.2505730987 1.313163938e-38
-0.02097669058 -0.305565089 -0.4243558645 1.313163938e-38
0.1490256786 -0.386297524 0.07119618356 1.313163938e-38
0.2896528542 -0.3728715777 -0.4224606454 1.313163938e-38
0.04185371846 -0.4968501031 -0.4035362899 1.313163938e-38
0.007677327842 -0.3884223104 0.2952289879 1.313163938e-38
0.1120160744 -0.3846203387 0.02106136456 1.313163938e-38
0.1491182446 -0.3860299885 0.05876303092 1.331530897e-38
0.109623231 -0.4459291101 0.2082981467 1.331530897e-38
0.09002742916 -0.5024749041 -0.1792030931 1.331530897e-38
0.03652706742 -0.3974606395 0.0945649296 1.331530897e-38
0.4279204905 -0.5043076277 -0.2093455791 1.331530897e-38
0.1023948193 -0.5029447675 -0.1666358858 1.331530897e-38
0.02053002827 -0.4113834202 0.195315361 1.331530897e-38
0.2150669694 -0.3592079282 -0.422973752 1.331530897e-38
0.4281035364 -0.2755019963 -0.4186565578 1.349897856e-38
0.124476023 -0.3848226964 0.02119540796 1.349897856e-38
0.0452760309 -0.4242376089 0.1952922642 1.349897856e-38
0.4438780546 -0.3749325871 -0.4425297081 1.349897856e-38
0.3505758047 -0.5099348426 -0.0271901153 1.349897856e-38
0.4319424331 -0.2417990267 -0.2529630959 1.349897856e-38
0.1864055842 -0.3869046271 0.0715983361 1.349897856e-38
0.07766003907 -0.502004981 -0.1917703301 1.349897856e-38
0.189336881 -0.505163908 -0.1283980608 1.368228942e-38
0.4191432893 -0.3739928305 -0.4676641226 1.368228942e-38
0.3008285165 -0.5088578463 -0.04015946016 1.368228942e-38
-0.0996966362 -0.4206151962 -0.4406990111 1.368228942e-38
0.02809788287 -0.5003929734 -0.2296060175 1.368228942e-38
0.1861279011 -0.3877071738 0.1088978499 1.368228942e-38
-0.1761452407 -0.4150381386 0.1436316073 1.368228942e-38
-0.170970276 -0.2925598323 -0.3386410773 1.368228942e-38
0.4511811435 -0.5088785887 -0.1504493952 1.386595901e-38
0.3630357385 -0.5101372004 -0.02705606818 1.386595901e-38
0.3824354708 -0.4275614023 0.09944619238 1.386595901e-38
-0.06296469271 -0.4230949283 -0.3532646894 1.386595901e-38
0.4512737095 -0.508611083 -0.1628825516 1.386595901e-38
0.1966690123 -0.4597951174 0.2089452893 1.386595901e-38
-0.1835728735 -0.2543425858 -0.1498426348 1.386595901e-38
0.4280943871 -0.4918581545 -0.2090543956 1.386595901e-38
0.2263464332 -0.5068411231 -0.07826323807 1.404926846e-38
-0.1777637601 -0.3719282746 0.4556255639 1.404926846e-38
-0.1285716146 -0.3599597514 0.2321710289 1.404926846e-38
0.2140716463 -0.5061036944 -0.1032636315 1.404926846e-38
0.1147622019 -0.5034146309 -0.1540686935 1.404926846e-38
-0.1710264534 -0.2329877764 -0.2128534168 1.404926846e-38
0.3544705808 -0.4156796932 -0.2205446512 1.404926846e-38
-0.1075008437 -0.254350692 -0.4241293967 1.404926846e-38
0.1992357671 -0.3860369027 0.02199969813 1.423293806e-38
-0.09108793736 -0.3722137213 0.1949825138 1.423293806e-38
0.2139790803 -0.5063712001 -0.09083047509 1.423293806e-38
-0.09947511554 -0.3602405787 -0.3522108495 1.423293806e-38
0.3328845501 -0.4378637969 0.03645297512 1.423293806e-38
-0.126849547 -0.429367125 0.1936092824 1.423293806e-38
0.4148194194 -0.5053288341 -0.2876163423 1.423293806e-38
0.004473876208 -0.496243 -0.4039384127 1.423293806e-38
0.4443184137 -0.349766165 -0.4543804824 1.441624891e-38
-0.08668985963 -0.3117152154 -0.3011793494 1.441624891e-38
0.2635412216 -0.5079832673 -0.05299475417 1.441624891e-38
0.1742233336 -0.385899663 0.03416481242 1.441624891e-38
-0.07037846744 -0.4952962995 -0.3923095167 1.441624891e-38
-0.1710489243 -0.2091589272 -0.1625383794 1.441624891e-38
0.4026619494 -0.3124456406 -0.4197982252 1.441624891e-38
0.4423242807 -0.4988920987 -0.4703080058 1.441624891e-38
0.4509960115 -0.5094136596 -0.1255830526 1.459991851e-38
0.1743158847 -0.3856321573 0.02173160389 1.459991851e-38
-0.01497636177 -0.4439054132 0.2069576681 1.459991851e-38
0.2836335599 -0.4858430922 0.1968680769 1.459991851e-38
0.1574156731 -0.4260589182 0.196498692 1.459991851e-38
-0.09622401744 -0.4975667596 -0.2682459652 1.459991851e-38
-0.1289418638 -0.3610298038 0.2819037139 1.459991851e-38
0.1842090636 -0.4595927596 0.2088112384 1.459991851e-38
-0.1078932211 -0.3948073685 0.4892262816 1.478322936e-38
0.4384434819 -0.5094788074 -0.1132839173 1.478322936e-38
0.2759086192 -0.5084531307 -0.0404275544 1.478322936e-38
-0.1759601086 -0.4145030975 0.1187653095 1.478322936e-38
0.2016116977 -0.5059013367 -0.1033976823 1.478322936e-38
0.1946805567 -0.4031046927 0.2596490681 1.478322936e-38
0.2894789875 -0.3853210211 -0.4227518439 1.478322936e-38
0.04488330707 -0.4014788568 0.295339942 1.478322936e-38
-0.05226366967 -0.4430307746 0.1941223741 1.496689755e-38
0.4403804541 -0.5045099854 -0.2092115432 1.496689755e-38
-0.1703335643 -0.2787727714 -0.4005157053 1.496689755e-38
0.1023022532 -0.5032122731 -0.1542027295 1.496689755e-38
0.4270942509 -0.5060662031 -0.2626159489 1.496689755e-38
0.2770190239 -0.3851186633 -0.4228858948 1.496689755e-38
0.4421503842 -0.5113415718 -0.4705992043 1.496689755e-38
0.1945767552 -0.3914578259 0.2972397208 1.496689755e-38
0.4436228275 -0.399563998 -0.4555452764 1.515020841e-38
0.4129681587 -0.5106791854 -0.03895303234 1.515020841e-38
-0.03343666717 -0.3053627312 -0.4244899154 1.515020841e-38
-0.1642294377 -0.4287600219 0.1932071447 1.515020841e-38
0.46635288 -0.213861838 -0.4167984128 1.515020841e-38
-0.07046875358 -0.2798567116 -0.4243096709 1.515020841e-38
-0.1768745184 -0.4290927052 0.2179393917 1.515020841e-38
-0.1765968204 -0.4282901585 0.1806399375 1.515020841e-38
0.3809666634 -0.3159537613 -0.2428133041 1.533351927e-38
0.2634486854 -0.508250773 -0.04056160524 1.533351927e-38
-0.062210273 -0.3372863829 -0.2890604734 1.533351927e-38
0.102753453 -0.3698360622 -0.4244713783 1.533351927e-38
0.3533526957 -0.5019093156 -0.4001850784 1.533351927e-38
-0.0505159907 -0.4113829136 -0.3279731274 1.533351927e-38
-0.103547886 -0.3720113635 0.1948484778 1.533351927e-38
0.2014265656 -0.506436348 -0.07853133976 1.533351927e-38
0.1717491299 -0.4593904018 0.2086771876 1.551683013e-38
0.4065821767 -0.2665607035 -0.2413804233 1.551683013e-38
-0.1076747328 -0.2668001652 -0.4244205952 1.551683013e-38
-0.07880188525 -0.3848655522 0.1948253661 1.551683013e-38
-0.09931246936 -0.3358767331 -0.3267621398 1.551683013e-38
0.04037270695 -0.5011304021 -0.2046056241 1.551683013e-38
-0.1079745442 -0.4069893062 0.4765019417 1.551683013e-38
-0.1711890996 -0.2573516071 -0.2383021414 1.551683013e-38
0.02035613731 -0.4238328636 0.1950241625 1.570049832e-38
-0.1124455333 -0.409300983 -0.3783760071 1.570049832e-38
-0.04993546382 -0.3380237818 -0.2640601397 1.570049832e-38
0.03663086891 -0.4091075659 0.05697420612 1.570049832e-38
0.0365383029 -0.4093751013 0.06940735877 1.570049832e-38
0.2509887218 -0.5080483556 -0.04069564864 1.570049832e-38
0.189151749 -0.5056989193 -0.1035317183 1.570049832e-38
-0.09914980829 -0.3115128577 -0.3013134003 1.570049832e-38
0.382284075 -0.46383968 0.04883992299 1.588380918e-38
-0.111935094 -0.3600381911 -0.3523449004 1.588380918e-38
0.2953082621 -0.4258773327 0.08607470989 1.588380918e-38
0.2757234871 -0.508988142 -0.01556121558 1.588380918e-38
0.2261613011 -0.5073761344 -0.05339689925 1.588380918e-38
0.189059183 -0.5059664249 -0.09109856188 1.588380918e-38
-0.09900961816 -0.2633201182 -0.2255496085 1.588380918e-38
0.2214150876 -0.4726493359 0.2089221776 1.588380918e-38
0.3130108416 -0.5098627806 -0.002725917846 1.606712004e-38
-0.08803603053 -0.4589685202 -0.4041390419 1.606712004e-38
0.4514588118 -0.5080760717 -0.1877488941 1.606712004e-38
-0.08664223552 -0.2637900114 -0.2129824013 1.606712004e-38
-0.1764117032 -0.4277551174 0.1557735652 1.606712004e-38
-0.1776374727 -0.4074040055 0.3677198291 1.606712004e-38
-0.05782595277 -0.4952311516 -0.4046086669 1.606712004e-38
-0.1118537635 -0.3478562832 -0.3396205306 1.606712004e-38
0.3780875206 -0.502849102 -0.3750506639 1.625043089e-38
0.4407282472 -0.4796110392 -0.2086291462 1.625043089e-38
0.3394927084 -0.3736810386 -0.4219244719 1.625043089e-38
0.3698240519 -0.4636373222 0.0487058796 1.625043089e-38
0.3327106535 -0.4503132701 0.03616177663 1.625043089e-38
-0.06277371943 -0.4585002363 -0.01639650762 1.625043089e-38
-0.111388281 -0.2509358525 -0.2129593045 1.625043089e-38
0.2137013972 -0.5071737766 -0.0535309501 1.625043089e-38
0.3821690381 -0.4402783811 0.1115881503 1.643374035e-38
0.4392765462 -0.5070711374 -0.225182429 1.643374035e-38
0.1989693195 -0.3987538517 0.03414171562 1.643374035e-38
-0.07503195107 -0.4456513524 -0.4534464777 1.643374035e-38
0.2384361625 -0.5081135035 -0.02839654684 1.643374035e-38
0.4434516132 -0.3164305687 -0.2670094073 1.643374035e-38
-0.1712254882 -0.3171912134 -0.3516566455 1.643374035e-38
-0.1236599162 -0.3817216158 -0.06505221128 1.643374035e-38
0.4501629472 -0.5118213296 -0.01368454844 1.661705121e-38
0.1945992112 -0.4152866602 0.2469246387 1.661705121e-38
0.4284421504 -0.4669592381 -0.2084719986 1.661705121e-38
-0.08672356606 -0.2759719491 -0.2257067561 1.661705121e-38
-0.05002802238 -0.3382913172 -0.2516269386 1.661705121e-38
-0.03361055627 -0.3178121746 -0.4247811139 1.661705121e-38
-0.1712367088 -0.3052768111 -0.3264991045 1.661705121e-38
0.4058866203 -0.3163585067 -0.2425452173 1.661705121e-38
0.0571693629 -0.4141306877 0.2951827943 1.680036207e-38
0.3548183441 -0.3907808065 -0.2199622542 1.680036207e-38
0.06501496583 -0.5023376942 -0.1670380384 1.680036207e-38
0.3793904483 -0.4160844386 -0.2202765495 1.680036207e-38
-0.1288380772 -0.3726767004 0.2443130016 1.680036207e-38
-0.08711896837 -0.3487960696 -0.3144861162 1.680036207e-38
0.3627580404 -0.5109397769 0.01024345495 1.680036207e-38
0.1985065043 -0.4000914395 0.0963075459 1.680036207e-38
0.3502981067 -0.5107374191 0.01010940783 1.698367293e-38
0.35543257 -0.3531648815 -0.2315218151 1.698367293e-38
-0.1289306283 -0.372944206 0.2567462027 1.698367293e-38
0.3378381729 -0.5105350614 0.009975358844 1.698367293e-38
-0.1285603791 -0.3718741536 0.2070135325 1.698367293e-38
0.2012414485 -0.5069714189 -0.05366499349 1.698367293e-38
-0.1078486219 -0.2792496085 -0.4247117937 1.698367293e-38
-0.1121089756 -0.3724876642 -0.3526360989 1.698367293e-38
-0.08742718399 -0.4453785121 -0.02880655974 1.716698239e-38
0.3119926453 -0.5128054619 0.1340389252 1.716698239e-38
-0.1713041365 -0.233790338 -0.1755539328 1.716698239e-38
0.3253782094 -0.510332644 0.009841311723 1.716698239e-38
-0.1762265712 -0.4272200763 0.1309072673 1.716698239e-38
0.4150970876 -0.5045262575 -0.3249158263 1.716698239e-38
0.3752180636 -0.5111421347 0.01037750393 1.716698239e-38
0.4376104176 -0.5118864775 -0.00138544105 1.716698239e-38
0.4432777166 -0.3288800418 -0.2673006058 1.735029324e-38
0.2383435965 -0.5083810687 -0.01596336067 1.735029324e-38
-0.1203086004 -0.2790472507 -0.4248458445 1.735029324e-38
-0.004563786089 -0.4234281182 0.1947560608 1.735029324e-38
0.1444704384 -0.403365314 0.3088454902 1.735029324e-38
0.3552586734 -0.3656143546 -0.2318130136 1.735029324e-38
0.3622026443 -0.5125448704 0.08484244347 1.735029324e-38
0.127037093 -0.5041520596 -0.1290683001 1.735029324e-38
0.2873503864 -0.5115981698 0.09647130966 1.75336041e-38
0.1145770848 -0.5039497018 -0.129202351 1.75336041e-38
-0.1713629961 -0.2698010802 -0.2385933399 1.75336041e-38
0.3497427106 -0.5123425126 0.08470839262 1.75336041e-38
0.1344617903 -0.4585157335 0.1958418936 1.75336041e-38
0.3248228133 -0.5119377375 0.08444029093 1.75336041e-38
0.3746626675 -0.5127472281 0.08497648686 1.75336041e-38
0.05970205739 -0.4573015273 0.1950376034 1.75336041e-38
-0.07523369044 -0.4582978785 -0.01653055474 1.771655483e-38
0.2959195971 -0.4984949231 0.1967109144 1.771655483e-38
-0.1717271656 -0.2921608686 -0.1381490231 1.771655483e-38
0.1274994463 -0.3826902211 -0.4244944751 1.771655483e-38
-0.05835659057 -0.3049579859 -0.4247580171 1.771655483e-38
0.1343692243 -0.4587832689 0.2082750499 1.771655483e-38
0.4070188403 -0.4647794664 0.07397438586 1.771655483e-38
0.1572417915 -0.4385083616 0.1962074935 1.771655483e-38
-0.009038414806 -0.3431158364 -0.4250954092 1.789986569e-38
-0.04666185752 -0.499178797 -0.2304102927 1.789986569e-38
0.3373753428 -0.5118726492 0.0721411854 1.789986569e-38
-0.171315372 -0.2218758911 -0.1503963917 1.789986569e-38
0.1150395051 -0.3824878633 -0.424628526 1.789986569e-38
0.1887814999 -0.5067690015 -0.05379904434 1.789986569e-38
-0.1707738936 -0.3039392233 -0.3886649311 1.789986569e-38
0.264385134 -0.3973657489 -0.4233111441 1.789986569e-38
0.2875354886 -0.5110631585 0.07160499692 1.808317654e-38
0.2747978568 -0.5116633177 0.1087704152 1.808317654e-38
0.1764140576 -0.5062991381 -0.06636627018 1.808317654e-38
-0.1576884836 -0.2784401476 -0.425247997 1.808317654e-38
0.4250578582 -0.5119516253 0.01091369428 1.808317654e-38
-0.1751097292 -0.445299536 0.03242093697 1.808317654e-38
-0.08780328929 -0.4105083048 -0.3408084214 1.808317654e-38
-0.07954239845 -0.3870057166 0.2942906618 1.808317654e-38
-0.03429447487 -0.4996486604 -0.2178430855 1.826612727e-38
0.3377456069 -0.510802567 0.02240851335 1.826612727e-38
-0.1003445685 -0.4224878252 -0.353666842 1.826612727e-38
0.3446852863 -0.4280243814 0.1487767249 1.826612727e-38
0.03627185151 -0.4220920503 0.08154931664 1.826612727e-38
0.03617928922 -0.422359556 0.09398253262 1.826612727e-38
-0.1714218408 -0.3058118522 -0.301632762 1.826612727e-38
-0.1701484323 -0.2782377601 -0.4253820479 1.826612727e-38
0.3375604749 -0.5113375783 0.04727482051 1.844943813e-38
0.03608672321 -0.4226270914 0.106415689 1.844943813e-38
-0.0542297475 -0.410169214 0.1945110708 1.844943813e-38
0.2751680911 -0.5105932355 0.05903779715 1.844943813e-38
0.3391449451 -0.3985799551 -0.4225068688 1.844943813e-38
-0.06248796359 -0.3380889595 -0.2517609894 1.844943813e-38
0.3501129746 -0.5112724304 0.03497571498 1.844943813e-38
0.07728978992 -0.5030750632 -0.142037645 1.844943813e-38
-0.02786790207 -0.3945762813 0.4582131505 1.863274899e-38
-0.02192709036 -0.5001185536 -0.2052758634 1.863274899e-38
0.04009501636 -0.501932919 -0.1673061252 1.863274899e-38
-0.1713967025 -0.2340578437 -0.1631207764 1.863274899e-38
0.4029148519 -0.5035213232 -0.3623493612 1.863274899e-38
0.332536757 -0.4627627134 0.03587057814 1.863274899e-38
0.1945178956 -0.4274685979 0.2342002988 1.863274899e-38
-0.03997761384 -0.4556825757 0.1939652264 1.863274899e-38
-0.08721151948 -0.3490635753 -0.3020529449 1.881569971e-38
0.4311542809 -0.2918643355 -0.2416947186 1.881569971e-38
0.3874002993 -0.512147069 0.04781101644 1.881569971e-38
-0.1715031713 -0.3179937601 -0.3143571317 1.881569971e-38
-0.02948370948 -0.4230233729 0.194487974 1.881569971e-38
0.1821616888 -0.4389130771 0.1964755803 1.881569971e-38
-0.1713068187 -0.3293731809 -0.3643810153 1.881569971e-38
0.07765960693 -0.3818807602 -0.4250306487 1.881569971e-38
0.06945548207 -0.4267824888 0.2950256467 1.899901057e-38
0.2745201588 -0.5124658942 0.146069929 1.899901057e-38
0.1762289256 -0.5068341494 -0.04149993882 1.899901057e-38
0.2270052582 -0.3967586458 -0.4237132967 1.899901057e-38
-0.0214983616 -0.3429134488 -0.42522946 1.899901057e-38
-0.06294760853 -0.4709496796 -0.01668770425 1.899901057e-38
0.3819951415 -0.4527278543 0.1112969518 1.899901057e-38
-0.1129559577 -0.4585638046 -0.4044071436 1.899901057e-38
0.2376956344 -0.5102536678 0.07106880844 1.91819627e-38
0.1072280407 -0.450148344 0.1953801066 1.91819627e-38
-0.1719010472 -0.3046102822 -0.1384402215 1.91819627e-38
-0.1127708256 -0.4580287635 -0.4292734861 1.91819627e-38
0.2505258918 -0.5093859434 0.02147017978 1.91819627e-38
-0.04995793477 -0.3141949475 -0.2137450427 1.91819627e-38
0.2378807664 -0.5097186565 0.04620243981 1.91819627e-38
0.4124127626 -0.5122842789 0.03564595431 1.91819627e-38
-0.176955834 -0.4412746429 0.2052150518 1.936527215e-38
0.126851961 -0.5046871305 -0.1042019576 1.936527215e-38
-0.1711688787 -0.4968875647 -0.2441839129 1.936527215e-38
0.08230815083 -0.4497436285 0.1951120049 1.936527215e-38
0.4030074179 -0.5032538176 -0.3747825623 1.936527215e-38
0.1143919528 -0.5044847131 -0.1043360084 1.936527215e-38
0.2585397065 -0.49788782 0.1963087767 1.936527215e-38
0.364238739 -0.3865352273 -0.4219475687 1.936527215e-38
-0.1002182961 -0.4579635859 -0.4415726066 1.954822428e-38
-0.1288268268 -0.3845911324 0.2191554904 1.954822428e-38
-0.05111898854 -0.4609132409 -0.3415710926 1.954822428e-38
0.2947641313 -0.4393968284 0.1355161816 1.954822428e-38
-0.1715732664 -0.3420901299 -0.3522390425 1.954822428e-38
-0.05286914855 -0.4063535333 0.4452207088 1.954822428e-38
0.299162358 -0.5136731863 0.1836375445 1.954822428e-38
0.004744676873 -0.4960894883 -0.2760690451 1.954822428e-38
0.2496002614 -0.5120611191 0.1458018422 1.973153514e-38
0.2255133688 -0.5092487335 0.03363523632 1.973153514e-38
-0.08722276986 -0.337149173 -0.2768954039 1.973153514e-38
0.3323516548 -0.4632977545 0.06073689088 1.973153514e-38
-0.09967146814 -0.3488612175 -0.3021869957 1.973153514e-38
0.1018394381 -0.504549861 -0.0920369029 1.973153514e-38
0.3770464361 -0.3618387282 -0.4212311208 1.973153514e-38
0.1513090432 -0.5064294338 -0.04176803306 1.973153514e-38
-0.009652268142 -0.5008559227 -0.18027547 1.991448586e-38
0.0771972239 -0.5033425689 -0.1296044886 1.991448586e-38
0.06129553914 -0.4341436923 0.04422674701 1.991448586e-38
-0.1119575649 -0.3362093866 -0.3020298481 1.991448586e-38
0.1390342265 -0.5056920052 -0.06676842272 1.991448586e-38
0.04865046591 -0.4344763756 0.06895901263 1.991448586e-38
0.2946715653 -0.4396643639 0.147949338 1.991448586e-38
0.1321479976 -0.4505530894 0.1956481934 1.991448586e-38
0.1693090051 -0.415951997 0.2963892221 2.009743799e-38
0.4153747857 -0.503723681 -0.3622153103 2.009743799e-38
0.2950643003 -0.462423116 0.04790158942 2.009743799e-38
-0.04624439776 -0.3300592899 -0.4252063632 2.009743799e-38
0.1273255646 -0.3951396942 -0.4247856736 2.009743799e-38
0.1522455215 -0.3955444396 -0.4245175719 2.009743799e-38
0.05236984044 -0.5026703477 -0.1423057467 2.009743799e-38
0.3570864201 -0.4642375112 0.08587135375 2.009743799e-38
0.2000381202 -0.5104491115 0.107966125 2.028074885e-38
0.07338523865 -0.4354161024 0.09409347177 2.028074885e-38
-0.07735747844 -0.4550754726 0.1935630739 2.028074885e-38
-0.1878361255 -0.457814157 0.044428844 2.028074885e-38
0.2642112374 -0.4098151922 -0.4236023426 2.028074885e-38
0.1317552775 -0.4277943373 0.2956958711 2.028074885e-38
0.07375549525 -0.43434605 0.04436079785 2.028074885e-38
-0.1712142527 -0.3291056454 -0.3768141568 2.028074885e-38
0.07357036322 -0.4348810911 0.06922711432 2.046369957e-38
0.2583546042 -0.4984228611 0.2211750895 2.046369957e-38
0.199853003 -0.5109841824 0.1328324974 2.046369957e-38
0.07366292924 -0.4346135557 0.05679395422 2.046369957e-38
0.1984364092 -0.4241878092 0.05842563137 2.046369957e-38
0.429056406 -0.4293433726 -0.2200315595 2.046369957e-38
0.06148067117 -0.4336086512 0.01936038211 2.046369957e-38
0.08584518731 -0.43561849 0.09422752261 2.046369957e-38
0.1859764755 -0.4239854515 0.05829158053 2.06466517e-38
-0.08831371367 -0.4597710669 -0.3668395579 2.06466517e-38
0.0861228779 -0.4348159432 0.05692799762 2.06466517e-38
-0.1718898118 -0.3165246844 -0.1635977328 2.06466517e-38
0.199760437 -0.511251688 0.1452656537 2.06466517e-38
0.2949717343 -0.4626906514 0.06033474579 2.06466517e-38
-0.0898174271 -0.4548731148 0.193429023 2.06466517e-38
0.1112279519 -0.4346856177 0.03232978657 2.06466517e-38
0.0969080627 -0.4703581035 0.1951485574 2.082996116e-38
0.08640056849 -0.4340133965 0.01962847635 2.082996116e-38
0.3766986728 -0.3867375851 -0.4218135178 2.082996116e-38
0.1386639625 -0.5067620873 -0.01703574136 2.082996116e-38
0.2004083842 -0.5093790293 0.05823350698 2.082996116e-38
0.1750256121 -0.5103119016 0.1201312393 2.082996116e-38
0.2121278197 -0.5117215514 0.157832846 2.082996116e-38
0.09830518812 -0.4358208477 0.09436157346 2.082996116e-38
-0.1717920899 -0.3068819046 -0.2519001067 2.101291328e-38
-0.06357893348 -0.4607108533 -0.3417051136 2.101291328e-38
0.2268313617 -0.4092080891 -0.4240044951 2.101291328e-38
0.1570678949 -0.4509578347 0.1959162951 2.101291328e-38
-0.1705887765 -0.3034041822 -0.4135312736 2.101291328e-38
0.1137440056 -0.5063573718 -0.01730383933 2.101291328e-38
0.1982512772 -0.4247228503 0.08329193294 2.101291328e-38
0.08435554802 -0.4704232812 0.2074476629 2.101291328e-38
-0.1463415623 -0.4975598454 -0.2314826697 2.119586541e-38
-0.1338815689 -0.4977622032 -0.2313486189 2.119586541e-38
-0.1022774056 -0.4546707571 0.1932949871 2.119586541e-38
-0.1782041043 -0.397094667 0.4674763083 2.119586541e-38
0.07691953331 -0.5041451454 -0.0923049897 2.119586541e-38
0.199575305 -0.5117866993 0.1701319516 2.119586541e-38
-0.1755500734 -0.4704659581 0.04427169636 2.119586541e-38
-0.03457216173 -0.5004512072 -0.1805435717 2.119586541e-38
0.1753032953 -0.509509325 0.08283172548 2.137881613e-38
0.4781172574 -0.2638620138 -0.4178291559 2.137881613e-38
0.3765247762 -0.3991870582 -0.4221047163 2.137881613e-38
-0.08413432539 -0.4988391995 -0.2183792889 2.137881613e-38
-0.005304288119 -0.4255682826 0.2942213714 2.137881613e-38
0.1136514544 -0.5066248775 -0.00487068668 2.137881613e-38
0.08789847791 -0.5086278319 0.1067596972 2.137881613e-38
-0.1720248461 -0.3553421497 -0.3152307272 2.137881613e-38
-0.02220477909 -0.5009210706 -0.1679763645 2.156176826e-38
0.03460826725 -0.4693462849 0.1944783181 2.156176826e-38
0.4429186881 -0.3418645263 -0.2427254617 2.156176826e-38
0.2119427025 -0.5122565627 0.1826992184 2.156176826e-38
-0.07487785816 -0.3137902021 -0.2140131444 2.156176826e-38
-0.07932356 -0.422213912 0.1939517856 2.156176826e-38
-0.1720360816 -0.3434277177 -0.290073216 2.156176826e-38
-0.09977528453 -0.3372143209 -0.2645963132 2.156176826e-38
0.233434692 -0.4980181158 0.2209069878 2.174471899e-38
-0.07512183487 -0.3503360152 -0.2521862388 2.174471899e-38
-0.1147373468 -0.4544683695 0.1931609362 2.174471899e-38
0.1746553481 -0.5113819838 0.1698638648 2.174471899e-38
-0.1331163347 -0.3037437797 -0.4255622923 2.174471899e-38
0.1251858324 -0.5095024109 0.1195950508 2.174471899e-38
0.1005435586 -0.5082951188 0.0820274353 2.174471899e-38
0.1622879654 -0.5109121203 0.1572966576 2.174471899e-38
-0.06333494186 -0.4241650105 -0.3035320342 2.192767111e-38
0.1755809784 -0.5087068081 0.04553220049 2.192767111e-38
-0.04211754724 -0.4352704585 0.1940627247 2.192767111e-38
0.07654928416 -0.5052152276 -0.04257232323 2.192767111e-38
0.07562365383 -0.5078904033 0.08175934106 2.192767111e-38
0.1500131637 -0.5101746917 0.1322963089 2.192767111e-38
0.3693612218 -0.4649749398 0.1108717173 2.192767111e-38
0.2889572978 -0.4226694107 -0.4236254394 2.192767111e-38
-0.1717444807 -0.2589567006 -0.1637031734 2.211062324e-38
-0.1718145609 -0.2830530703 -0.2015850544 2.211062324e-38
0.150938794 -0.507499516 0.007964642718 2.211062324e-38
0.174562797 -0.5116494894 0.1822970659 2.211062324e-38
0.1869302392 -0.5121193528 0.1948642731 2.211062324e-38
0.137553215 -0.5099723339 0.132162258 2.211062324e-38
0.08826872706 -0.5075577497 0.05702707916 2.211062324e-38
-0.02769152634 -0.4683344364 0.1938080788 2.211062324e-38
0.4294967055 -0.4041769207 -0.2318823189 2.229357396e-38
0.1630284786 -0.508771956 0.05783136562 2.229357396e-38
-0.08957604319 -0.375888437 0.3424701691 2.229357396e-38
-0.0028641955 -0.4690066874 0.2065093219 2.229357396e-38
0.194251433 -0.4401855469 0.2463422418 2.229357396e-38
0.1384788454 -0.5072971582 0.007830595598 2.229357396e-38
-0.1779852659 -0.432302922 0.3671374321 2.229357396e-38
0.01498999447 -0.5020632148 -0.1427078843 2.229357396e-38
0.03981732577 -0.5027354956 -0.1300066411 2.247652609e-38
-0.07116431743 -0.3296545446 -0.4254744351 2.247652609e-38
-0.03466472775 -0.5007187128 -0.1681104153 2.247652609e-38
0.1606975496 -0.4365651906 0.08259859681 2.247652609e-38
-0.01532414183 -0.4688043296 0.2063752711 2.247652609e-38
0.1632135957 -0.5082368851 0.03296499699 2.247652609e-38
0.1769915223 -0.4083986282 -0.4245406687 2.247652609e-38
0.1858025789 -0.4364348948 0.05800038204 2.247652609e-38
-0.09962385893 -0.3009360135 -0.2139900476 2.265947681e-38
0.007548380643 -0.4485293925 0.1943077147 2.265947681e-38
0.4430000186 -0.3296825886 -0.2300010771 2.265947681e-38
0.1941476464 -0.4285386503 0.2839329839 2.265947681e-38
0.1256486475 -0.5081648231 0.05742922425 2.265947681e-38
-0.1722488403 -0.3295091987 -0.1390226185 2.265947681e-38
-0.06464488059 -0.3882076144 0.3175806999 2.265947681e-38
-0.1132336408 -0.4593663514 -0.3671076596 2.265947681e-38
-0.08422688395 -0.499106735 -0.2059461027 2.284242894e-38
-0.0894722417 -0.3875353336 0.3048794568 2.284242894e-38
-0.1521172374 -0.4538612664 0.1927587986 2.284242894e-38
0.2085147947 -0.4976133704 0.220638901 2.284242894e-38
-0.07720863074 -0.3763583004 0.3550373614 2.284242894e-38
-0.1781816185 -0.4209235311 0.4171612859 2.284242894e-38
0.1505685449 -0.5085695386 0.05769731849 2.284242894e-38
-0.0526114516 -0.4679296911 0.1935399771 2.284242894e-38
0.1248155683 -0.5105724931 0.1693276614 2.302537966e-38
0.1465740204 -0.4836170375 0.1953935474 2.302537966e-38
-0.03022421524 -0.4251635373 0.2939532697 2.302537966e-38
0.07617903501 -0.5062853098 0.007160356268 2.302537966e-38
0.152071625 -0.4079938829 -0.4248087704 2.302537966e-38
-0.1645772159 -0.4536589086 0.1926247478 2.302537966e-38
0.4416902661 -0.417096287 -0.2196063101 2.302537966e-38
0.05061113834 -0.5077531934 0.09392440319 2.302537966e-38
0.1857100129 -0.4367024302 0.07043354213 2.320833179e-38
0.05209214985 -0.5034729242 -0.1050062478 2.320833179e-38
-0.1771297306 -0.4537240863 0.2049238533 2.320833179e-38
-0.1767594814 -0.4526540041 0.1551911682 2.320833179e-38
-0.1769445986 -0.4531890452 0.1800575405 2.320833179e-38
0.1464814544 -0.483884573 0.2078267038 2.320833179e-38
0.2391174138 -0.42185992 -0.4241616428 2.320833179e-38
0.1382937133 -0.5078321695 0.03269690275 2.320833179e-38
-0.1763892174 -0.4515839219 0.1054585651 2.339092378e-38
-0.1722912937 -0.3680591285 -0.3030887544 2.339092378e-38
-0.07579492033 -0.4239626527 -0.303666085 2.339092378e-38
-0.004911568016 -0.4483270347 0.1941736639 2.339092378e-38
0.06353395432 -0.5066179633 0.0318926163 2.339092378e-38
-0.1720585525 -0.3195988834 -0.2397581339 2.339092378e-38
-0.1083702967 -0.3165979683 -0.4255853891 2.339092378e-38
-0.06507142633 -0.4677273333 0.1934059262 2.339092378e-38
0.1960547864 -0.4974110126 0.2205048501 2.348204041e-38
0.442826122 -0.3421320319 -0.2302922755 2.348204041e-38
-0.1715620309 -0.3540045619 -0.3773965538 2.348204041e-38
0.1729723811 -0.4373025894 0.10759902 2.348204041e-38
-0.1465266794 -0.4980948865 -0.2066163421 2.348204041e-38
-0.184616223 -0.3290393353 -0.1515898257 2.348204041e-38
-0.1712955683 -0.3412875831 -0.3895385265 2.348204041e-38
0.0517219007 -0.5045430064 -0.05527357385 2.348204041e-38
-0.0675227493 -0.4123744965 0.3062754571 2.348132155e-38
0.07731182873 -0.4067796767 -0.4256130457 2.348132155e-38
-0.0627656579 -0.3388915062 -0.2144614905 2.348132155e-38
-0.1144959629 -0.3754836917 0.3422020674 2.348132155e-38
0.1194215417 -0.4630677104 0.2076561004 2.348132155e-38
-0.06473743916 -0.3884751201 0.3300138414 2.348132155e-38
0.3071652353 -0.475609988 0.0726108104 2.348132155e-38
0.1246304512 -0.511107564 0.1941940337 2.348132155e-38
0.03842888027 -0.5067482591 0.05649088696 2.348060128e-38
-0.01737154275 -0.4481246769 0.1940396279 2.348060128e-38
0.1836874038 -0.4969411492 0.2079376429 2.348060128e-38
0.02569124475 -0.5073484182 0.0936563015 2.348060128e-38
0.05125908554 -0.5058805943 0.006892260164 2.348060128e-38
-0.1123358831 -0.4568882287 -0.05423219129 2.348060128e-38
0.05116651952 -0.5061480999 0.01932541281 2.348060128e-38
0.06485188007 -0.4065772891 -0.4257470965 2.348060128e-38
-0.1724876612 -0.3566797376 -0.2530649006 2.347952368e-38
-0.09979775548 -0.3133854866 -0.2142812461 2.347952368e-38
0.1942626834 -0.4520999789 0.2211847454 2.347952368e-38
-0.175631389 -0.4826479256 0.03154734522 2.347952368e-38
-0.1720810235 -0.2957700491 -0.1894430667 2.347952368e-38
-0.07753137499 -0.4675249457 0.1932718754 2.347952368e-38
-0.03430612013 -0.3676100075 -0.4259459078 2.347952368e-38
0.3761769831 -0.4240859747 -0.4226871133 2.347952368e-38
0.2945089042 -0.4640282393 0.1225005835 2.347880341e-38
0.05712174624 -0.4620558619 0.2069858611 2.347880341e-38
0.1568939984 -0.4634072781 0.1956250966 2.347880341e-38
-0.1000417322 -0.3499312997 -0.2524543405 2.347880341e-38
-0.1457501799 -0.3159908652 -0.4259875417 2.347880341e-38
0.2487671971 -0.5144687891 0.2577003539 2.347880341e-38
0.2887834013 -0.435118854 -0.4239166379 2.347880341e-38
-0.1726390719 -0.392958045 -0.3036711514 2.347880341e-38
-0.09608424455 -0.3292497993 -0.4257425368 2.347808455e-38
-0.09677939862 -0.4991718531 -0.1936469972 2.347808455e-38
0.01341642067 -0.5066110492 0.06865594536 2.347808455e-38
0.2363072038 -0.5142664313 0.257566303 2.347808455e-38
-0.08851009607 -0.4483917058 -0.3168156743 2.347808455e-38
-0.1868404001 -0.4310426414 -0.04202089831 2.347808455e-38
0.03879913688 -0.5056781769 0.006758211181 2.347808455e-38
0.3510831892 -0.4361307025 -0.4232464135 2.347808455e-38
0.1106950417 -0.4601195753 0.05661370233 2.347700555e-38
0.02661687508 -0.5046732426 -0.03067535907 2.347700555e-38
-0.1602292061 -0.3548780382 -0.1270377934 2.347700555e-38
0.07479058951 -0.5102980733 0.1936578453 2.347700555e-38
-0.187732324 -0.4694610238 0.006838185713 2.347700555e-38
0.4423044622 -0.3794803917 -0.231165871 2.347700555e-38
0.106776461 -0.4634003639 0.2323883772 2.347700555e-38
-0.1360161006 -0.3931661546 -0.1027769446 2.347700555e-38
-0.1092393473 -0.4989694953 -0.1937810481 2.347628668e-38
-0.1849752367 -0.3420238197 -0.1270146817 2.347628668e-38
-0.06385661662 -0.4615134001 -0.3044056296 2.347628668e-38
0.0131387338 -0.5074135661 0.105955407 2.347628668e-38
0.03778094053 -0.5086208582 0.1435230225 2.347628668e-38
-0.1720109433 -0.2716737092 -0.1515611857 2.347628668e-38
0.4142524302 -0.3748952746 -0.4211201668 2.347628668e-38
-0.07622402906 -0.4610435367 -0.3169728518 2.347628668e-38
0.04689432681 -0.481998086 0.1943211555 2.347520768e-38
-0.01793815568 -0.4378153682 0.2937961221 2.347520768e-38
-0.08379815519 -0.3419016004 -0.4258996844 2.347520768e-38
0.03993197903 -0.4061725736 -0.4260151982 2.347520768e-38
-0.1394158453 -0.3750789762 0.3419339657 2.347520768e-38
0.1568014473 -0.4636748135 0.2080582529 2.347520768e-38
0.1939737499 -0.4409880936 0.2836417854 2.347520768e-38
0.1643576771 -0.4206457138 -0.4249659181 2.347520768e-38
-0.07614271343 -0.4488615692 -0.304248482 2.347448882e-38
0.02541355416 -0.5081509948 0.1309558302 2.347448882e-38
-0.08842875063 -0.4362097681 -0.3040913343 2.347448882e-38
-0.1085441858 -0.3290474415 -0.4258765876 2.347448882e-38
0.08185657859 -0.4629956484 0.2321202755 2.347448882e-38
0.1818139106 -0.4638119936 0.1958931983 2.347448882e-38
-0.1729981005 -0.4059425294 -0.2790960073 2.347448882e-38
-0.1021173075 -0.387868017 0.3296117187 2.347448882e-38
-0.1125017107 -0.3497289121 -0.2525883913 2.347340982e-38
-0.172986865 -0.4178569615 -0.3042535484 2.347340982e-38
0.1616400331 -0.5127847195 0.2443288565 2.347340982e-38
0.01406436414 -0.5047383904 -0.01837622002 2.347340982e-38
0.0499631986 -0.5096257925 0.1809565872 2.347340982e-38
0.1692613959 -0.4638771713 0.2081923038 2.347340982e-38
0.01443461329 -0.5036683083 -0.06810890138 2.347340982e-38
-0.1293485016 -0.4219394922 0.2182818949 2.347340982e-38
0.014342051 -0.5039358735 -0.05567571148 2.347269095e-38
0.001696983352 -0.504268527 -0.03094345331 2.347269095e-38
0.01378667355 -0.505540967 0.01892327145 2.347269095e-38
0.03759581596 -0.5091559291 0.1683893353 2.347269095e-38
0.1567088813 -0.4639423192 0.2204914093 2.347269095e-38
-0.1607621014 -0.3803119659 -0.1027538404 2.347269095e-38
0.07713793963 -0.4192291498 -0.4259042442 2.347269095e-38
-0.1361899823 -0.405615598 -0.1030681431 2.347269095e-38
0.4528472722 -0.5040633082 -0.3742463589 2.347161195e-38
0.3760030866 -0.436535418 -0.4229783118 2.347161195e-38
-0.1467117965 -0.4986298978 -0.1817499995 2.347161195e-38
-0.07151209563 -0.3545534611 -0.4260568321 2.347161195e-38
0.2236621082 -0.5145991445 0.2822985649 2.347161195e-38
-0.09625813365 -0.3416992426 -0.4260337353 2.347161195e-38
-0.1145772859 -0.3876656294 0.3294776678 2.347161195e-38
-0.04730980098 -0.5010514259 -0.1433781236 2.347161195e-38
-0.01549803279 -0.481253773 0.2060840726 2.347089308e-38
0.001974672079 -0.5034659505 -0.06824295223 2.347089308e-38
-0.08860264719 -0.4486592114 -0.3043825328 2.347089308e-38
0.001326730475 -0.5053386092 0.01878922246 2.347089308e-38
-0.1125097722 -0.469337672 -0.05452338979 2.347089308e-38
-0.1367228925 -0.4310495257 -0.07878422737 2.347089308e-38
-0.1767482311 -0.4645684361 0.1300336719 2.347089308e-38
-0.1722661555 -0.2963050902 -0.1645767689 2.347089308e-38
-0.02387091517 -0.5057364106 0.05582064763 2.346981408e-38
0.3010694683 -0.4477706552 -0.4240737855 2.346981408e-38
-0.0898424983 -0.3886054158 0.354612112 2.346981408e-38
-0.1768407971 -0.4648359716 0.1424668282 2.346981408e-38
0.09413139522 -0.4637330174 0.2571206987 2.346981408e-38
0.0251358673 -0.5089535713 0.1682552844 2.346981408e-38
-0.1134300232 -0.4479869604 -0.317083776 2.346981408e-38
0.1339401305 -0.4958641231 0.1949682981 2.346981408e-38
0.1939850003 -0.4529025257 0.2584842741 2.346909522e-38
-0.1459240764 -0.3284403384 -0.4262787402 2.346909522e-38
-0.0527853407 -0.4803791344 0.1932487786 2.346909522e-38
0.4267123938 -0.3750976324 -0.4209861159 2.346909522e-38
-0.1773961782 -0.4664410651 0.2170658112 2.346909522e-38
-0.05107136443 -0.4129880369 -0.2533741295 2.346909522e-38
0.1566163152 -0.4642098546 0.2329245508 2.346909522e-38
-0.08768558502 -0.3384867609 -0.2147295922 2.346909522e-38
-0.01094815135 -0.5046011806 -0.006211165339 2.346801622e-38
0.4393462241 -0.3628505468 -0.4205608666 2.346801622e-38
-0.02322297171 -0.5038637519 -0.03121155128 2.346801622e-38
0.1229811013 -0.472771436 0.05645654723 2.346801622e-38
0.1614549011 -0.5133197308 0.2691951692 2.346801622e-38
0.02504330128 -0.509221077 0.1806885004 2.346801622e-38
0.09924767911 -0.5120403767 0.2560917735 2.346801622e-38
0.1479935795 -0.4729086459 0.04429149255 2.346801622e-38
-0.0774750784 -0.3890752792 0.3671793342 2.346693862e-38
-0.1733458787 -0.4308414459 -0.2796784043 2.346693862e-38
0.007281929255 -0.4612463713 0.2064496726 2.346693862e-38
0.01267591864 -0.5087511539 0.1681212336 2.346693862e-38
0.0692114979 -0.4633282721 0.256852597 2.346693862e-38
0.1438674331 -0.4528956115 0.295247525 2.346693862e-38
-0.0969645232 -0.4997068942 -0.1687806547 2.346693862e-38
-0.1396009773 -0.3756139874 0.3668002784 2.346693862e-38
0.3884630203 -0.4367378056 -0.4228442609 2.346621835e-38
0.1489949673 -0.513117373 0.2690611184 2.346621835e-38
-0.1725966185 -0.3544081151 -0.1396050155 2.346621835e-38
-0.05976977944 -0.5008490086 -0.1435121745 2.346621835e-38
-0.1010625958 -0.4484568238 -0.3045165837 2.346621835e-38
0.1189587265 -0.4644052982 0.2698219419 2.346621835e-38
-0.1734384298 -0.4311089516 -0.2672452629 2.346621835e-38
0.2636895776 -0.447163552 -0.4244759381 2.346621835e-38
-0.1094244719 -0.4995045364 -0.1689147055 2.346514075e-38
0.01926785335 -0.4508719444 0.2939070463 2.346514075e-38
-0.02359322459 -0.5049338341 0.01852112636 2.346514075e-38
0.04950038344 -0.5109633803 0.2431224287 2.346514075e-38
-0.0235006623 -0.5046663284 0.006087971851 2.346514075e-38
0.1641837955 -0.4330951571 -0.4252571166 2.346514075e-38
-0.1124172062 -0.4690701663 -0.06695654243 2.346514075e-38
-0.1723587215 -0.2965726256 -0.1521435827 2.346514075e-38
0.1090202332 -0.4954594076 0.1947001964 2.346406175e-38
-0.1049839556 -0.423949331 0.2931489646 2.346406175e-38
0.1563273817 -0.4530979991 0.2953815758 2.346406175e-38
-0.178540647 -0.4339080155 0.4417364001 2.346406175e-38
0.1228885353 -0.4730389714 0.06888970733 2.346406175e-38
-0.1368967891 -0.4434989691 -0.07907542586 2.346406175e-38
-0.1001455337 -0.3382844031 -0.2148636281 2.346406175e-38
0.1064062119 -0.4644704163 0.2821210325 2.346406175e-38
-0.1724427193 -0.4043374062 -0.353695035 2.346334289e-38
-0.03531266749 -0.5025913715 -0.08107824624 2.346334289e-38
3.084726632e-05 -0.5090838671 0.1928535551 2.346334289e-38
0.007096804678 -0.4617814124 0.2313159853 2.346334289e-38
-0.1243442371 -0.4434338212 -0.09137453139 2.346334289e-38
-0.1336380094 -0.3410921395 -0.4264358878 2.346334289e-38
0.03183159977 -0.462721169 0.2564504445 2.346334289e-38
-0.1007260531 -0.4116435051 -0.2787766457 2.346334289e-38
-0.07770526409 -0.4799743891 0.1929806769 2.346226389e-38
-0.04916106164 -0.5064017773 0.1052851677 2.346226389e-38
0.1353484988 -0.4732413292 0.06902375817 2.346226389e-38
0.09394627064 -0.4642680585 0.2819869816 2.346226389e-38
0.08942405134 -0.4318809509 -0.4260613918 2.346226389e-38
-0.1023949981 -0.3886705637 0.3669112325 2.346226389e-38
-0.1298113167 -0.4232770801 0.2804477215 2.346226389e-38
-0.012429161 -0.5088815093 0.1927195042 2.346226389e-38
-0.03596060723 -0.5044639707 0.00595392473 2.346118629e-38
0.06177525967 -0.511700809 0.2681227922 2.346118629e-38
0.1364424527 -0.5131825209 0.2813602388 2.346118629e-38
0.1188661605 -0.4646728039 0.2822550833 2.346118629e-38
-0.04869824648 -0.5050641894 0.04311934114 2.346118629e-38
0.1860971749 -0.5145270228 0.3067627847 2.346118629e-38
0.01483813673 -0.4182173014 -0.4265744984 2.346118629e-38
-0.1248771474 -0.4688677788 -0.06709058583 2.346118629e-38
0.1088351086 -0.4959944487 0.2195665091 2.346010729e-38
-0.1123246476 -0.4688026309 -0.07938972116 2.346010729e-38
-0.08785946667 -0.3509362042 -0.2150207907 2.346010729e-38
-0.1726139337 -0.3212039769 -0.165159151 2.346010729e-38
0.02458048612 -0.5105586648 0.242854327 2.346010729e-38
-0.0614359118 -0.5056643486 0.08028481901 2.346010729e-38
-0.1715507954 -0.3659189641 -0.4025540948 2.346010729e-38
-0.173031792 -0.3701992631 -0.2036234438 2.346010729e-38
-0.04860568047 -0.5047966242 0.03068618476 2.345938842e-38
-0.1724512726 -0.2968401313 -0.1397104263 2.345938842e-38
0.1812472939 -0.4535027146 0.2956496775 2.345938842e-38
-0.1733683497 -0.4070125818 -0.229363367 2.345938842e-38
0.3882891536 -0.4491872489 -0.4231354594 2.345938842e-38
-0.06152847409 -0.5059318542 0.09271796048 2.345938842e-38
0.03173903748 -0.4629887044 0.2688836157 2.345938842e-38
0.1688911468 -0.4649472237 0.257924974 2.345938842e-38
0.4261907339 -0.4124459922 -0.4218597114 2.345830942e-38
-0.05116393045 -0.4132555425 -0.2409409732 2.345830942e-38
0.110243462 -0.4733715951 0.09362202883 2.345830942e-38
-0.05986233801 -0.5011165142 -0.1310790181 2.345830942e-38
-0.1219770163 -0.4995696843 -0.1566156 2.345830942e-38
-0.06162103638 -0.5061993599 0.1051511168 2.345830942e-38
0.04922269285 -0.5117659569 0.2804219127 2.345830942e-38
-0.1024875641 -0.3889380991 0.3793443739 2.345830942e-38
0.09385371208 -0.464535594 0.2944201529 2.345723183e-38
-0.003119413275 -0.4936380684 0.1934937686 2.345723183e-38
-0.06051028147 -0.5029891729 -0.04404684529 2.345723183e-38
0.1941000372 -0.4764638543 0.1957360357 2.345723183e-38
-0.1727705002 -0.3668575585 -0.139896214 2.345723183e-38
-0.06171360239 -0.5064668655 0.1175843328 2.345723183e-38
0.3631953895 -0.4612319767 -0.4236947596 2.345723183e-38
0.03416792303 -0.494512707 0.2063290775 2.345723183e-38
-0.1784256101 -0.4574693143 0.3789881766 2.345615283e-38
0.03676274419 -0.5115635991 0.2802878618 2.345615283e-38
-0.1727878302 -0.33365345 -0.1654503495 2.345615283e-38
0.002378190402 -0.4180149436 -0.4267085493 2.345615283e-38
-0.01557935961 -0.4934357107 0.1933597326 2.345615283e-38
0.1227034107 -0.4735739827 0.09375607967 2.345615283e-38
0.08139376342 -0.4643332362 0.2942861021 2.345615283e-38
-0.1245181337 -0.4558832943 -0.09166572988 2.345615283e-38
-0.06180616468 -0.5067344308 0.1300174892 2.345507523e-38
-0.1150851324 -0.479367286 0.1925785393 2.345507523e-38
-0.1786219627 -0.4460899532 0.4290120602 2.345507523e-38
-0.1003194153 -0.3507338464 -0.2151548266 2.345507523e-38
-0.1843693703 -0.4988253713 -0.1448526531 2.345507523e-38
0.02430279925 -0.5113612413 0.280153811 2.345507523e-38
-0.06328733265 -0.376239866 -0.215335086 2.345507523e-38
0.03958420083 -0.43107149 -0.4265975952 2.345507523e-38
0.04913013428 -0.5120334625 0.2928550541 2.345399623e-38
-0.0601400286 -0.5019190907 -0.0937795192 2.345399623e-38
-0.07380329818 -0.5051944852 0.06771761179 2.345399623e-38
0.0118428506 -0.511158824 0.2800197601 2.345399623e-38
-0.07389585674 -0.5054619908 0.08015076816 2.345399623e-38
-0.1275451183 -0.4791649282 0.1924444884 2.345399623e-38
-0.1729617119 -0.3461028934 -0.1657415479 2.345399623e-38
-0.1213519424 -0.3537439704 -0.4265930355 2.345399623e-38
-0.140005067 -0.4789625704 0.1923104376 2.345291723e-38
-0.1735085249 -0.4552053213 -0.3051271439 2.345291723e-38
-0.1732982546 -0.3829162121 -0.1914814562 2.345291723e-38
-0.07398842275 -0.5057294965 0.09258392453 2.345291723e-38
-0.1866834462 -0.5055133104 0.1659764647 2.345291723e-38
-0.02236781269 -0.4051607251 -0.4266854525 2.345291723e-38
0.4260168374 -0.4248954654 -0.4221509099 2.345291723e-38
-0.06529282033 -0.3900802433 0.4046128988 2.345291723e-38
0.4007491767 -0.4493896067 -0.4230014086 2.345219836e-38
0.1938111037 -0.465351969 0.2581930757 2.345219836e-38
-0.04303194955 -0.449860096 0.2932368219 2.345219836e-38
-0.07417355478 -0.5062645078 0.117450282 2.345219836e-38
-0.1741309017 -0.5054481626 0.1536773741 2.345219836e-38
-0.173786208 -0.4560078681 -0.2678276598 2.345219836e-38
0.01918652654 -0.4630538523 0.2811827064 2.345219836e-38
-0.1740383357 -0.5051805973 0.1412442178 2.345219836e-38
-0.1742234677 -0.5057156682 0.1661105156 2.345111936e-38
-0.1734159589 -0.4549377859 -0.3175602853 2.345111936e-38
-0.1770146936 -0.4772853851 0.1421756297 2.345111936e-38
-0.1738900244 -0.4443609416 -0.2302369624 2.345111936e-38
-0.1739457697 -0.5049130917 0.1288110614 2.345111936e-38
0.01175028831 -0.5114263296 0.2924529016 2.345111936e-38
-0.08803336322 -0.3633856475 -0.2153119892 2.345111936e-38
0.1436935514 -0.4653450549 0.2949563265 2.345111936e-38
-0.06362387538 -0.4130531549 -0.2410750091 2.345004176e-38
-0.1733908206 -0.3831837475 -0.1790482998 2.345004176e-38
-0.1771998107 -0.4778203964 0.1670419872 2.345004176e-38
-0.1744085848 -0.5062506795 0.1909768879 2.345004176e-38
-0.0743586719 -0.5067995787 0.1423165947 2.345004176e-38
-0.07269254327 -0.5019842386 -0.08148038387 2.345004176e-38
-0.1734721363 -0.3953656852 -0.1917726547 2.345004176e-38
0.2510557175 -0.4594106674 -0.4249011874 2.345004176e-38
0.08925016224 -0.4443303943 -0.4263525903 2.344896276e-38
-0.161763519 -0.505918026 0.1662445664 2.344896276e-38
0.03657761961 -0.5120986104 0.3051542342 2.344896276e-38
-0.02562961169 -0.5108192563 0.2920507789 2.344896276e-38
-0.1787145287 -0.4463574588 0.4414452016 2.344896276e-38
-0.1730542779 -0.3463704288 -0.1533083618 2.344896276e-38
-0.1469894946 -0.4994324744 -0.1444505155 2.344896276e-38
-0.171724692 -0.3783684075 -0.4028452933 2.344896276e-38
0.1687060148 -0.4654822648 0.2827912867 2.344788516e-38
-0.1150401011 -0.3890032172 0.3916434944 2.344788516e-38
-0.07259997725 -0.501716733 -0.09391357005 2.344788516e-38
0.1939149052 -0.4769988954 0.2206023484 2.344788516e-38
0.02411767095 -0.5118962526 0.3050201833 2.344788516e-38
-0.1619486362 -0.5064530373 0.1911109388 2.344788516e-38
-0.08663352579 -0.50606215 0.117316246 2.344788516e-38
-0.1739713401 -0.4565429091 -0.2429613173 2.344788516e-38
-0.1399712265 -0.3766840696 0.4165329635 2.344680616e-38
-0.08552277088 -0.502851963 -0.03188179061 2.344680616e-38
-0.1851098686 -0.500965476 -0.04538732395 2.344680616e-38
-0.03808955848 -0.5106168985 0.291916728 2.344680616e-38
-0.1493961364 -0.5063878894 0.1788118333 2.344680616e-38
-0.1734833866 -0.3834512532 -0.1666151434 2.344680616e-38
-0.1853875518 -0.5017680526 -0.008087832481 2.344680616e-38
-0.08681865036 -0.5065972209 0.1421825439 2.344680616e-38
-0.1722575873 -0.4038023651 -0.3785613477 2.344572857e-38
-0.1295111477 -0.4463033676 0.1928331852 2.344572857e-38
-0.1728350222 -0.5017029047 -0.02038693801 2.344572857e-38
-0.06795187294 -0.4494553506 0.2929687202 2.344572857e-38
-0.02572217584 -0.511086762 0.3044839799 2.344572857e-38
-0.08561532944 -0.5031194687 -0.01944860443 2.344572857e-38
-0.1587318331 -0.3531368673 -0.426995188 2.344572857e-38
-0.1857578158 -0.5028381348 0.04164481163 2.344572857e-38
-0.1856652498 -0.5025705695 0.02921165898 2.344464957e-38
-0.08700377494 -0.5071322322 0.1670488566 2.344464957e-38
