# .PCD v0.7 - Point Cloud Data file format
VERSION 0.7
FIELDS x y z rgb
SIZE 4 4 4 4
TYPE F F F F
COUNT 1 1 1 1
WIDTH 828
HEIGHT 1
VIEWPOINT 0 0 0 1 0 0 0
POINTS 828
DATA ascii
0.05492298678 -0.3640744686 -0.2588006854 3.26337189e-39
0.152188167 -0.1303525567 -0.2511456311 3.080777095e-39
0.1879446357 -0.4569035769 -0.2643617988 3.080777095e-39
0.05648843199 -0.3390669227 -0.246413365 3.080777095e-39
0.216351375 -0.08290690184 -0.2540729046 3.080777095e-39
0.2495656908 -0.4587521255 -0.08059185743 2.898180898e-39
0.3148264885 -0.3355062604 0.2075727582 2.898180898e-39
0.1521677971 -0.1179152578 -0.2636998296 2.898180898e-39
0.1680677831 -0.3557648957 0.001158542931 2.898180898e-39
0.2016126662 -0.4032614827 -0.06130181998 2.715227371e-39
0.2760131061 -0.4596115351 -0.04417802393 2.715227371e-39
0.04355274141 -0.3510524035 -0.2458167821 2.715227371e-39
0.1785744727 -0.09390003234 -0.252394408 2.715227371e-39
0.06009360403 -0.2516956031 -0.2468027323 2.532632576e-39
0.1397471875 -0.1174190938 -0.2631588578 2.532632576e-39
0.3267524242 -0.3609213233 0.219641611 2.532632576e-39
0.08851961792 -0.1528792977 -0.260828197 2.532632576e-39
0.1442566067 -0.3298093379 0.002129198983 2.349677647e-39
0.04919763282 -0.2013172954 -0.2589828372 2.349677647e-39
0.3137964308 -0.3604694903 0.2076839954 2.349677647e-39
0.2963016629 -0.4946906865 -0.09023724496 2.349677647e-39
0.04765256122 -0.2387621403 -0.258815974 2.167082852e-39
0.2489755899 -0.3333355784 0.1227874011 2.167082852e-39
0.1387771666 -0.4424372911 -0.2622536123 2.167082852e-39
0.1426911652 -0.354816854 -0.01025812328 2.167082852e-39
0.04921800643 -0.2137546092 -0.2464286387 1.984127923e-39
0.04870298132 -0.2262362093 -0.2463730276 1.984127923e-39
0.1879650205 -0.4693408608 -0.2518076003 1.984127923e-39
0.07609900832 -0.1523831487 -0.2602872252 1.984127923e-39
0.2117684484 -0.4573079348 -0.09146759659 1.801533128e-39
0.1437415928 -0.3422909379 0.002184823155 1.801533128e-39
0.05389294028 -0.3890377283 -0.2586894333 1.801533128e-39
0.01920617186 -0.3251411915 -0.2573446929 1.801533128e-39
0.04715790972 -0.2636810839 -0.2462061495 1.618578199e-39
0.2900399268 -0.4599747658 -0.007223233581 1.618578199e-39
0.1853209734 -0.4564485252 -0.1278814375 1.618578199e-39
0.03061710671 -0.3630378246 -0.2452202141 1.618578199e-39
0.2764937878 -0.3341063559 0.1841984093 1.435982003e-39
0.1750090122 -0.468888998 -0.2637652159 1.435982003e-39
0.1020303071 -0.4284672141 -0.2606863976 1.435982003e-39
0.05442833528 -0.3889933825 -0.2461908758 1.435982003e-39
0.2479876578 -0.509310782 -0.266844064 1.253028475e-39
0.1858563721 -0.4564042091 -0.1153828278 1.253028475e-39
0.09008506685 -0.1278717667 -0.2484408617 1.253028475e-39
0.01766109839 -0.3625860214 -0.2571778297 1.253028475e-39
0.07770410925 -0.4149932265 -0.259660095 1.070432279e-39
0.02332636714 -0.2252881974 -0.2577896714 1.070432279e-39
0.1993477792 -0.4568117857 -0.09092664719 1.070432279e-39
0.1928787231 -0.3651432693 -0.0109333992 1.070432279e-39
0.1025657058 -0.4284228683 -0.2481878102 8.874787512e-40
0.05127810314 -0.1638281345 -0.2466511428 8.874787512e-40
0.07823950797 -0.4149489403 -0.2471615225 8.874787512e-40
0.186914593 -0.4818667769 -0.2642505467 8.874787512e-40
0.06472882628 -0.1393610835 -0.2473033369 7.045238224e-40
0.2517072856 -0.4585748911 -0.03059754521 7.045238224e-40
0.1869271696 -0.4563156068 -0.09038569033 7.045238224e-40
0.01090575568 -0.2247920334 -0.2572487295 7.045238224e-40
0.009875707328 -0.2497552782 -0.2571374774 5.219290273e-40
0.1412922591 -0.07997425646 -0.2633257508 5.219290273e-40
0.1594089568 -0.4555448294 -0.1517966986 5.219290273e-40
0.06581889838 -0.4144527912 -0.2466205806 5.219290273e-40
0.1988201737 -0.4948445559 -0.2647358775 3.389740985e-40
0.2001275271 -0.3821988702 0.08255158365 3.389740985e-40
0.07718908787 -0.4274748564 -0.259604454 3.389740985e-40
0.1976868808 -0.3314838409 0.08745549619 3.389740985e-40
0.2236817777 -0.508274138 -0.2532635927 1.56020571e-40
-0.002029906958 -0.2367775142 -0.2566521764 1.56020571e-40
0.02641651221 -0.1503985077 -0.2581234276 1.56020571e-40
0.1863995641 -0.4943484068 -0.2641949356 1.56020571e-40
-0.002544932067 -0.2492591143 -0.2565965354 6.490113838e-41
0.2775849402 -0.3464550674 0.2217497975 6.490113838e-41
0.03988754377 -0.1383687556 -0.2462214381 6.490113838e-41
0.1423426867 -0.067448318 -0.2508828044 6.490113838e-41
0.02853663638 -0.4005270004 -0.2575519085 2.496469266e-40
0.06573849916 -0.10196051 -0.2599687874 2.496469266e-40
0.00526086241 -0.3745271564 -0.2440826893 2.496469266e-40
-0.004605028778 -0.2991856337 -0.2563740611 2.496469266e-40
0.01401627623 -0.1623396575 -0.2450282872 4.340353837e-40
0.2712916434 -0.3590518832 0.2672142982 4.340353837e-40
0.2797608972 -0.4593014121 0.04331202805 4.340353837e-40
-0.002009533346 -0.2492148131 -0.244097963 4.340353837e-40
0.001080609858 -0.1743251234 -0.2444317043 6.184224396e-40
0.2651643455 -0.3459588885 0.2222907543 6.184224396e-40
0.1194357723 -0.3412543237 0.01576535776 6.184224396e-40
0.1334968805 -0.4546411037 -0.1757119298 6.184224396e-40
0.1501881033 -0.4803339839 -0.2501291037 8.028094954e-40
0.269726187 -0.3840593994 0.2548269629 8.028094954e-40
0.09352369606 -0.3403505981 -0.008149936795 8.028094954e-40
-0.01857070997 -0.3361343145 -0.2556661963 8.028094954e-40
0.1988405585 -0.5072818398 -0.2521817088 9.871979525e-40
0.107530117 -0.3282765448 0.01625068858 9.871979525e-40
-0.01239041984 -0.1863548756 -0.2563337088 9.871979525e-40
0.01504632458 -0.1373764426 -0.2451395243 9.871979525e-40
0.2641343176 -0.3709221482 0.2224020064 1.171585008e-39
0.1858845502 -0.506829977 -0.2641392946 1.171585008e-39
0.04089722037 -0.1009681895 -0.2588868737 1.171585008e-39
-0.03099134937 -0.3356381059 -0.2551252842 1.171585008e-39
0.2684110403 -0.4587166309 0.06885018945 1.355972064e-39
0.1221470684 -0.4540563524 -0.1501738429 1.355972064e-39
-0.01906536147 -0.3610532284 -0.2430564016 1.355972064e-39
0.1733810008 -0.3304472268 0.1010359824 1.355972064e-39
0.2155162245 -0.4569978118 -0.003977518529 1.540360521e-39
0.09263981134 -0.05302637815 -0.2612731755 1.540360521e-39
0.1210215837 -0.3286840916 0.04070687294 1.540360521e-39
0.1157898456 -0.4037509859 -0.008953725919 1.540360521e-39
0.1080655158 -0.3282322586 0.02874925733 1.724747577e-39
0.05434787646 -0.07650114596 -0.2595390677 1.724747577e-39
-0.04392698035 -0.3476235867 -0.2545287013 1.724747577e-39
0.197790131 -0.5198078156 -0.2646246552 1.724747577e-39
0.1739993393 -0.5062895417 -0.2510997653 1.909134633e-39
0.1118680537 -0.4533829689 -0.09963854402 1.909134633e-39
0.1913743913 -0.4274627566 0.01434188895 1.909134633e-39
-0.02685078606 -0.2482225001 -0.2430160642 1.909134633e-39
-0.04236153886 -0.3226160407 -0.242141366 2.09352309e-39
0.1647629291 -0.455101788 -0.02681087703 2.09352309e-39
0.1345129758 -0.3290916681 0.06516306102 2.09352309e-39
0.2149464637 -0.3440185785 0.2119559944 2.09352309e-39
0.1163252443 -0.4037066996 0.003544844687 2.277910146e-39
0.02699156478 -0.4379718304 -0.2573850453 2.277910146e-39
0.01659139805 -0.09993156791 -0.2453064024 2.277910146e-39
-0.04081646726 -0.2851711512 -0.2423082292 2.277910146e-39
0.1264302582 -0.4537019432 -0.05018515885 2.462297202e-39
0.09677045047 -0.4531083405 -0.1615905166 2.462297202e-39
0.09891204536 -0.4529311061 -0.1115961596 2.462297202e-39
0.1485397816 -0.3294548988 0.1021178812 2.462297202e-39
0.2268724293 -0.3694336712 0.2240248621 2.646685659e-39
0.2451760173 -0.4575914145 0.1074277982 2.646685659e-39
0.06322340667 -0.4644235969 -0.2588966489 2.646685659e-39
-0.0372316651 -0.1853625625 -0.2552517951 2.646685659e-39
0.1220923662 -0.3285954893 0.06570401788 2.830713982e-39
0.1917457432 -0.4559168816 0.02210155874 2.830713982e-39
0.01457095332 -0.4374756813 -0.2568441033 2.830713982e-39
0.213916406 -0.3689818084 0.2120672464 2.830713982e-39
-0.05583256856 -0.3346458077 -0.2540433407 3.015101038e-39
0.2322200239 -0.4571395218 0.0954701826 3.015101038e-39
0.1124112457 -0.491327107 -0.2484506518 3.015101038e-39
0.1010536402 -0.4527539015 -0.06160185486 3.015101038e-39
-0.05686261132 -0.3596090674 -0.2539321184 3.199488094e-39
0.08434984088 -0.4526121914 -0.1610495448 3.199488094e-39
0.2332908064 -0.4570509195 0.1204673797 3.199488094e-39
0.08702683449 -0.4523906708 -0.09855664521 3.199488094e-39
0.004170756787 -0.09943541139 -0.2447654456 3.383517819e-39
0.01708604768 -0.07501266897 -0.2579162121 3.383517819e-39
0.149610579 -0.3293662965 0.1271150261 3.383517819e-39
0.1715600938 -0.4897733927 -0.09732628614 3.383517819e-39
-0.05737764016 -0.3720906377 -0.2538765073 3.567904875e-39
-0.05375210568 -0.2971566319 -0.2417116612 3.567904875e-39
0.3072347939 -0.3678720295 0.3346992731 3.567904875e-39
0.148107633 -0.5178231597 -0.2624608278 3.567904875e-39
-0.05684224889 -0.3720463514 -0.2413779199 3.75229193e-39
0.07353536785 -0.4519830942 -0.1230128631 3.75229193e-39
0.2354324013 -0.4568737149 0.1704616547 3.75229193e-39
0.06936404109 -0.02702652104 -0.2478039563 3.75229193e-39
-0.05014693365 -0.2097853273 -0.2421010286 3.936320254e-39
0.1687550098 -0.3802230358 0.2216588408 3.936320254e-39
-0.06876823306 -0.3466312885 -0.2534467876 3.936320254e-39
0.0897038281 -0.4521691501 -0.03606373072 3.936320254e-39
0.30671978 -0.3803536296 0.3347548842 4.120708711e-39
-0.007734827697 -0.08645764738 -0.2442801148 4.120708711e-39
0.05694337189 -0.02653035894 -0.2472629994 4.120708711e-39
0.09778650105 -0.3275588751 0.07928454876 4.120708711e-39
0.2230117917 -0.4563775659 0.1710026264 4.304737034e-39
0.1647489369 -0.3545155823 0.2141754329 4.304737034e-39
-0.05735727027 -0.3845279813 -0.2413222939 4.304737034e-39
-0.06619310379 -0.2842231989 -0.2537249029 4.304737034e-39
-0.00775520131 -0.07402034849 -0.2568343282 4.48912409e-39
-0.01027029753 -0.4364833832 -0.2557621598 4.48912409e-39
0.1685107201 -0.4547916651 0.06067923456 4.48912409e-39
0.09096895158 -0.4151960313 0.004682375118 4.48912409e-39
0.03786709905 -0.475912869 -0.257759124 4.673152414e-39
0.09201936424 -0.4026700854 0.01712537929 4.673152414e-39
0.09947555512 -0.5033125877 -0.2478540689 4.673152414e-39
0.1253047585 -0.3283296525 0.140695557 4.673152414e-39
0.03840249777 -0.4758685231 -0.2452605516 4.857539469e-39
-0.06514269114 -0.271697253 -0.2412819564 4.857539469e-39
0.2370385975 -0.4567407966 0.2079574466 4.857539469e-39
0.1269109547 -0.328196764 0.1781912744 4.857539469e-39
0.2916833162 -0.4173909128 0.3104655743 5.041567793e-39
-0.06207291409 -0.1843702346 -0.2541698813 5.041567793e-39
-0.04759218171 -0.1349399388 -0.2549333572 5.041567793e-39
0.1044603437 -0.4156035781 0.02913862467 5.041567793e-39
-0.03459651396 -0.4230094552 -0.2547358871 5.225597518e-39
-0.007240176201 -0.06153871492 -0.2568899393 5.225597518e-39
0.0915043503 -0.4151517153 0.01718100533 5.225597518e-39
0.1695815176 -0.4547030628 0.08567637205 5.225597518e-39
0.03573814034 -0.4505389333 -0.1338885725 5.409984573e-39
-0.01964044198 -0.07347988337 -0.2437947839 5.409984573e-39
-0.0578722991 -0.3970095515 -0.2412666678 5.409984573e-39
0.07463434339 -0.50232023 -0.2467721552 5.409984573e-39
0.01302587986 -0.4749205112 -0.2566772103 5.594012897e-39
-0.07912874222 -0.2962086797 -0.25312832 5.594012897e-39
0.06539794058 -0.4511325061 -0.02248325571 5.594012897e-39
0.01914614439 -0.02508618683 -0.2581387162 5.594012897e-39
0.09887766838 -0.3399075866 0.1168358922 5.77804122e-39
0.1393926889 -0.3660048544 0.2153129578 5.77804122e-39
-0.07756330073 -0.2712011039 -0.2407409996 5.77804122e-39
0.1259012818 -0.3655973077 0.1908567101 5.77804122e-39
-0.01912541687 -0.0609982498 -0.24385041 5.962428276e-39
0.1638967693 -0.09300415218 0.1209317595 5.962428276e-39
0.02493146621 -0.4878983498 -0.2571625412 5.962428276e-39
0.1992413104 -0.4552966356 0.1970817149 5.962428276e-39
0.1399280876 -0.3659605384 0.2278115302 6.1464566e-39
-0.04701712355 -0.4225133061 -0.2541949451 6.1464566e-39
-0.07552357018 -0.2088373154 -0.2535176873 6.1464566e-39
0.09889803827 -0.3523449004 0.1293900758 6.1464566e-39
-0.03206105903 -0.07298372686 -0.243253842 6.330484923e-39
-0.01130034402 -0.4614466429 -0.2556509376 6.330484923e-39
-0.07449352741 -0.1838740855 -0.2536289394 6.330484923e-39
0.2678925097 -0.4038726985 0.3239904344 6.330484923e-39
0.1644525379 -0.1053971425 0.1459845901 6.514514648e-39
0.02019656636 -0.01256027911 -0.2456957698 6.514514648e-39
0.1137501299 -0.4661147892 0.003822961822 6.514514648e-39
-0.03208142146 -0.06054639444 -0.2558080256 6.514514648e-39
0.1520319283 -0.104900986 0.146525532 6.698542971e-39
0.09945380688 -0.3647378981 0.1544429064 6.698542971e-39
0.02017619275 -0.0001229774207 -0.2582499385 6.698542971e-39
0.09047429264 -0.4401149154 0.01729224995 6.698542971e-39
-0.058962401 -0.1219178513 -0.241949439 6.882571295e-39
0.1126997024 -0.4786407053 -0.008619984612 6.882571295e-39
0.1598378867 -0.4539853632 0.148710236 6.882571295e-39
-0.09049895406 -0.2831865549 -0.2401444316 6.882571295e-39
0.06116330624 -0.5143500566 -0.2586741447 7.066599618e-39
0.1269924641 -0.3779459894 0.2284080982 7.066599618e-39
0.08942387998 -0.4526408613 0.004849245772 7.066599618e-39
0.1390351653 -0.07957452536 0.1094594747 7.066599618e-39
0.1254066378 -0.3905162215 0.2034665942 7.250627941e-39
0.1609086841 -0.4538967609 0.173707366 7.250627941e-39
0.05404812843 -0.4505477548 0.003054866567 7.250627941e-39
0.2420007885 -0.4154062867 0.3126293719 7.250627941e-39
0.2148743123 -0.4555269778 0.2715322375 7.434656265e-39
-0.03103100881 -0.04802048579 -0.2433650792 7.434656265e-39
-0.04448166862 -0.07248756289 -0.2427128851 7.434656265e-39
0.1243562102 -0.4030421376 0.1910235733 7.434656265e-39
0.04874269664 -0.5138539076 -0.2581332028 7.618684588e-39
0.1474172175 -0.4534892142 0.1492511928 7.618684588e-39
-0.01340895891 -0.4485099912 -0.1192261949 7.618684588e-39
-0.1050000489 -0.3201795816 -0.251935184 7.618684588e-39
0.2565426826 -0.4032879472 0.3495285213 7.802712912e-39
-0.02743576095 -0.4481467605 -0.1561809778 7.802712912e-39
0.0119958315 -0.4998837709 -0.2565659881 7.802712912e-39
0.1137704998 -0.478552103 0.01637721434 7.802712912e-39
0.1530823559 -0.09237506986 0.1589684784 7.986382503e-39
0.1619794816 -0.4538081586 0.1987045705 7.986382503e-39
-0.0263649635 -0.4480581582 -0.1311838031 7.986382503e-39
0.1008144319 -0.47810027 0.004419540986 7.986382503e-39
-0.1044646502 -0.3201352358 -0.2394365966 8.170410826e-39
-0.1029195786 -0.2826904058 -0.2396034747 8.170410826e-39
0.1346049011 -0.4121015668 0.1294782758 8.170410826e-39
0.1490234137 -0.4533562958 0.1867469549 8.170410826e-39
0.1238615662 -0.4279610813 0.2036334574 8.35443915e-39
0.1142142713 -0.09101951122 0.123095572 8.35443915e-39
0.1536177546 -0.0923307687 0.1714670509 8.35443915e-39
-0.03932100162 -0.4476062655 -0.1431414485 8.35443915e-39
-0.1019098908 -0.2452898473 -0.2522689104 8.538467473e-39
0.1351402998 -0.4120572805 0.1419768482 8.538467473e-39
0.2035244852 -0.4549421966 0.2970703542 8.538467473e-39
0.1377969086 -0.3993984461 0.1919155717 8.538467473e-39
0.1372615099 -0.3994427621 0.1794169247 8.722137064e-39
0.1225760132 -0.4524968863 0.1503330916 8.722137064e-39
0.01571544074 -0.4491478503 -0.02031944692 8.722137064e-39
0.1000503302 -0.4020055234 0.2046041191 8.722137064e-39
-0.01126736775 -0.4483327866 -0.06923185289 8.906165387e-39
0.08839382231 -0.477604121 0.004960492253 8.906165387e-39
-0.0382502079 -0.4475176632 -0.1181442812 8.906165387e-39
0.1130267084 -0.4148947001 0.2291159332 8.906165387e-39
-0.02421560511 -0.4858694077 -0.2425001711 9.089834978e-39
-0.02422337607 -0.4478809237 -0.08118949831 9.089834978e-39
0.1206188351 -0.4366129637 0.1176318452 9.089834978e-39
-0.06983794272 -0.08397684991 -0.2415753603 9.089834978e-39
0.1417529136 -0.1042276099 0.1970608383 9.273863302e-39
-0.06523305178 -0.4467025399 -0.1670566797 9.273863302e-39
-0.1070397645 -0.3825433254 -0.2391584814 9.273863302e-39
0.1314740032 -0.4621166587 0.1047035754 9.273863302e-39
0.1382090002 -0.4527272582 0.2247836292 9.457532893e-39
-0.01657066867 0.01384716481 -0.2566827238 9.457532893e-39
-0.05067081377 -0.4470215142 -0.1176033393 9.457532893e-39
-0.05640764907 -0.04707247019 -0.2547817528 9.457532893e-39
-0.09669962525 -0.4205286503 -0.2520311475 9.641561216e-39
0.09732263535 -0.3981758058 0.1185468882 9.641561216e-39
0.1662626565 -0.4534537196 0.2986932099 9.641561216e-39
-0.06416225433 -0.4466139376 -0.1420595646 9.641561216e-39
-0.04244193807 -0.01012378745 -0.2554895878 9.825230807e-39
0.1292915493 -0.07885684818 0.1724933386 9.825230807e-39
-0.06096244231 -0.471899271 -0.2409329265 9.825230807e-39
0.1802894622 -0.4538169801 0.33564803 9.825230807e-39
-0.09772968292 -0.44549191 -0.2519198954 1.000925913e-38
-0.07711826265 -0.4461621046 -0.1540171802 1.000925913e-38
-0.082278952 -0.07104338706 -0.2535886168 1.000925913e-38
-0.08528865874 -0.458425343 -0.2399066538 1.000925913e-38
0.1362925917 -0.4617179334 0.2171908319 1.019292872e-38
0.1093604267 -0.4649540782 0.1918426603 1.019292872e-38
-0.04192690924 0.002357818186 -0.2555451989 1.019292872e-38
0.1303827167 -0.09120554477 0.2100447267 1.019292872e-38
0.101070419 -0.3978656828 0.2060369849 1.037659831e-38
-0.04139151797 0.002402121201 -0.2430466264 1.037659831e-38
-0.1340519786 -0.3702290952 -0.1658538878 1.037659831e-38
0.1009471714 -0.4512387812 0.2264064848 1.037659831e-38
-0.1319511384 -0.345177263 -0.1409679651 1.056062664e-38
0.08282155544 -0.4351687729 0.1067561358 1.056062664e-38
0.1284653842 -0.4520095587 0.287817508 1.056062664e-38
0.04483989999 -0.449785769 0.07858732343 1.056062664e-38
0.1549127847 -0.4528689682 0.3242313564 1.074429623e-38
-0.0350378193 -0.4472518563 -0.04315277934 1.074429623e-38
-0.0257810466 -0.5108769536 -0.2548874915 1.074429623e-38
-0.1449275464 -0.3322881162 -0.165479809 1.074429623e-38
0.1109666228 -0.4648211598 0.2293384224 1.092796582e-38
0.04537529871 -0.4497414529 0.0910858959 1.092796582e-38
-0.1444125324 -0.3198065162 -0.1655354351 1.092796582e-38
0.07830967009 -0.3593842089 0.219450593 1.092796582e-38
0.1818956584 -0.4536840916 0.3731437922 1.111163541e-38
0.1044502705 -0.0778645277 0.1735752374 1.111163541e-38
0.1554481834 -0.4528246522 0.3367299438 1.111163541e-38
-0.06779821217 -0.0216130726 -0.2543520331 1.111163541e-38
-0.08124889433 -0.04608014971 -0.2536998391 1.1295305e-38
0.0615436919 -0.4499275088 0.178034991 1.1295305e-38
0.03295468912 -0.4492453039 0.09162685275 1.1295305e-38
-0.07551206648 -0.4460291862 -0.1165214255 1.1295305e-38
0.01999862306 -0.4487934411 0.07966923714 1.147897319e-38
-0.1298706681 -0.307688117 -0.1286362708 1.147897319e-38
-0.09416416287 -0.07050292939 -0.2405490726 1.147897319e-38
-0.1106653064 -0.4574773312 -0.2513233125 1.147897319e-38
0.02053401992 -0.448749125 0.09216780216 1.166264278e-38
-0.03289622813 -0.4470746219 0.006841534749 1.166264278e-38
-0.0807338655 -0.03359851986 -0.2537554502 1.166264278e-38
-0.1284070909 -0.2204940021 -0.1790199429 1.166264278e-38
-0.07443349063 -0.483929038 -0.2528349161 1.184631237e-38
-0.06094986573 -0.4463481307 -0.06706804037 1.184631237e-38
0.03835042194 -0.3456799388 0.1460263431 1.184631237e-38
-0.06674779952 -0.009087165818 -0.2419091016 1.184631237e-38
-0.09418453276 -0.05806560069 -0.2531032562 1.202998196e-38
0.04912308231 -0.44943133 0.1785759628 1.202998196e-38
0.03839116544 -0.3705545664 0.1711347401 1.202998196e-38
0.03888581693 -0.3456356227 0.1585249305 1.202998196e-38
-0.1293963939 -0.2703318894 -0.1538002789 1.221365155e-38
-0.128386721 -0.2329313457 -0.1664657593 1.221365155e-38
-0.1428267062 -0.3072362542 -0.1405938864 1.221365155e-38
-0.03129003569 -0.4469417036 0.04433727264 1.221365155e-38
0.03616707399 -0.448979497 0.1666183472 1.239732115e-38
0.1041595638 -0.4509729445 0.3013979793 1.239732115e-38
0.02588906512 -0.3203091323 0.1214588583 1.239732115e-38
0.01239659358 -0.4478985369 0.1926974356 1.239732115e-38
0.03787614405 -0.3830361664 0.1711903512 1.258099074e-38
-0.1273566633 -0.2079681009 -0.1665769964 1.258099074e-38
0.02541478723 -0.3576653898 0.146622926 1.258099074e-38
0.03946196288 -0.3704659343 0.1961319447 1.258099074e-38
-0.1438363791 -0.3446367979 -0.1279284507 1.276466033e-38
0.03723787144 -0.4488908648 0.1916155219 1.276466033e-38
-0.1433213502 -0.3321551979 -0.1279840767 1.276466033e-38
0.09254468977 -0.06488673389 0.1740605682 1.276466033e-38
0.0357549265 -0.3956506848 0.1337502748 1.294832852e-38
-0.1288406253 -0.2827248573 -0.1287475228 1.294832852e-38
-0.08793267608 -0.4455330372 -0.1159804836 1.294832852e-38
-0.0005594165996 -0.4474467039 0.1807397604 1.294832852e-38
0.05126467347 -0.4492541254 0.2285702825 1.313163938e-38
-0.13349621 -0.3826221526 -0.1408011019 1.313163938e-38
0.0134673873 -0.4478099346 0.2176945806 1.313163938e-38
-0.04371064529 -0.4464455545 0.0448782295 1.313163938e-38
-0.1319103837 -0.3700518906 -0.1158595532 1.331530897e-38
0.01398347691 -0.3073313534 0.1219441891 1.331530897e-38
-0.04317525029 -0.4464012682 0.05737679452 1.331530897e-38
-0.125770852 -0.1953978986 -0.1416354477 1.331530897e-38
-0.1417559087 -0.3071476519 -0.1155967116 1.349897856e-38
0.06582687795 -0.4495730698 0.27802369 1.349897856e-38
0.02123347297 -0.420206368 0.1094052792 1.349897856e-38
-0.1119851768 -0.3689895868 -0.07619158924 1.349897856e-38
0.02809177525 -0.3574438691 0.209115833 1.368228942e-38
-0.1109347641 -0.3564636707 -0.06374862045 1.368228942e-38
0.02858642675 -0.3325249255 0.1965060234 1.368228942e-38
-0.1021793485 -0.1442762017 -0.06469421834 1.368228942e-38
0.002117571421 -0.4472251832 0.2432326674 1.386595901e-38
0.07931828499 -0.4499806166 0.3024798632 1.386595901e-38
-0.131374985 -0.3700075746 -0.1033609807 1.386595901e-38
-0.08736912906 -0.4959145188 -0.2522383332 1.386595901e-38
-0.07865341008 0.003890600055 -0.2414237708 1.404926846e-38
-0.1109143794 -0.3689009547 -0.05119442195 1.404926846e-38
-0.1262653619 -0.4441331625 -0.1393547952 1.404926846e-38
-0.1111599654 -0.482396245 -0.2387135029 1.404926846e-38
-0.1099250913 -0.319063127 -0.07641409338 1.423293806e-38
-0.03996286169 -0.4461354315 0.1323683411 1.423293806e-38
-0.14122051 -0.3071033359 -0.1030981541 1.423293806e-38
0.02912182361 -0.3324806392 0.209004581 1.423293806e-38
-0.1127739251 -0.4445407093 -0.1148985699 1.441624891e-38
-0.05666668341 -0.4459936917 0.03292061016 1.441624891e-38
0.06281928718 -0.4462150335 0.2328794897 1.441624891e-38
-0.1262451261 -0.2327541262 -0.1164714098 1.441624891e-38
-0.1063199192 -0.2316918373 -0.07680345327 1.459991851e-38
-0.05559588596 -0.4459050894 0.05791775137 1.459991851e-38
-0.1114294082 -0.3813826442 -0.05113880336 1.459991851e-38
-0.1098435819 -0.3688123822 -0.02619725466 1.459991851e-38
-0.03835666925 -0.446002543 0.1698640585 1.478322936e-38
-0.1068349332 -0.2441734374 -0.07674783468 1.478322936e-38
-0.1272140443 -0.2950293124 -0.07869756222 1.478322936e-38
-0.111944437 -0.3938642144 -0.05108317733 1.478322936e-38
-0.1078649908 -0.2691366673 -0.07663658261 1.496689755e-38
-0.0372858718 -0.4459139109 0.194861263 1.496689755e-38
-0.1257299632 -0.4440888762 -0.126856178 1.496689755e-38
0.02761749551 -0.3948001266 0.2342798412 1.496689755e-38
0.1327485591 -0.4516551197 0.3878061771 1.515020841e-38
-0.1182458997 -0.2062767297 -0.0888723135 1.515020841e-38
-0.1041986942 -0.2190772742 -0.03936330602 1.515020841e-38
-0.05398969725 -0.445772171 0.09541352093 1.515020841e-38
-0.1406851113 -0.3070590198 -0.0905995518 1.533351927e-38
-0.03675047681 -0.4458696246 0.2073598206 1.533351927e-38
-0.114579618 -0.1562173367 -0.05159907043 1.533351927e-38
-0.1146203578 -0.1313427389 -0.07670748234 1.533351927e-38
-0.1233554035 -0.3559675217 -0.0632076636 1.551683013e-38
-0.128738746 -0.3449114263 -0.06597650051 1.551683013e-38
-0.1233757734 -0.3435301781 -0.07576188445 1.551683013e-38
-0.0529188998 -0.4456835687 0.1204106584 1.551683013e-38
-0.1000173837 -0.156536296 -0.002145711333 1.570049832e-38
-0.1480176896 -0.4071778059 -0.1651460677 1.570049832e-38
-0.1225991994 -0.1702574342 -0.09175236523 1.570049832e-38
-0.1228200048 -0.3559232354 -0.05070909485 1.570049832e-38
-0.1266786456 -0.2949849963 -0.06619898975 1.588380918e-38
-0.1228403747 -0.3434858918 -0.06326328963 1.588380918e-38
-0.1228607446 -0.3310486078 -0.07581751049 1.588380918e-38
-0.1246592999 -0.2201838791 -0.09152986109 1.588380918e-38
-0.1221045554 -0.1453384906 -0.1043622047 1.606712004e-38
-0.1113886535 -0.4062572122 -0.026030384 1.606712004e-38
-0.1292537749 -0.3573930562 -0.06592087448 1.606712004e-38
-0.05131270364 -0.4455506504 0.1579064429 1.606712004e-38
-0.1000988781 -0.1067870557 -0.05236251652 1.625043089e-38
-0.1135088205 -0.1561287344 -0.02660189942 1.625043089e-38
-0.1073092222 -0.281529665 -0.05158378929 1.625043089e-38
-0.1072684675 -0.3064042926 -0.02647537179 1.625043089e-38
-0.1031075269 -0.2314260155 -0.001811973751 1.643374035e-38
-0.1000581235 -0.1316616833 -0.02725410089 1.643374035e-38
-0.12279962 -0.3683605194 -0.03815487027 1.643374035e-38
-0.1220638007 -0.1702131331 -0.07925379276 1.643374035e-38
-0.1145388633 -0.1810919791 -0.02649065293 1.661705121e-38
-0.1427452117 -0.3569855094 -0.09037704766 1.661705121e-38
0.01721623912 -0.3195028603 0.2094899118 1.661705121e-38
-0.1119036824 -0.418738842 -0.02597475983 1.661705121e-38
-0.1192555726 -0.2436772734 -0.07620687783 1.680036207e-38
-0.1072888374 -0.2939670086 -0.03902956471 1.680036207e-38
-0.1129734218 -0.1560844332 -0.01410333067 1.680036207e-38
-0.1004916579 -0.1938925534 0.02301835641 1.680036207e-38
-0.008696842939 -0.4465961158 0.2812694013 1.698367293e-38
0.04205644876 -0.4484921396 0.3041027188 1.698367293e-38
-0.1212138087 -0.3557903171 -0.01321335509 1.698367293e-38
-0.1474822909 -0.4071334898 -0.1526474655 1.698367293e-38
-0.06908729672 -0.4454975426 0.03346156329 1.716698239e-38
-0.1160839349 -0.218536824 -0.02632378228 1.716698239e-38
-0.09898732603 -0.131573081 -0.002256959677 1.716698239e-38
-0.121528402 -0.1701688319 -0.06675522029 1.716698239e-38
-0.08734875917 -0.5083518028 -0.2396841496 1.735029324e-38
0.02963577956 -0.4479959607 0.3046436906 1.735029324e-38
-0.1210337579 -0.1452498883 -0.07936504483 1.735029324e-38
-0.1243650764 -0.3933680654 -0.0505422242 1.735029324e-38
-0.0984519273 -0.1315287799 0.01024166867 1.75336041e-38
-0.1192352027 -0.2561146021 -0.06365264952 1.75336041e-38
-0.1051676273 -0.2813524604 -0.001589477062 1.75336041e-38
-0.121315673 -0.2936037183 -0.07598438114 1.75336041e-38
-0.1215080321 -0.1826061159 -0.05420099571 1.771655483e-38
-0.1108328849 -0.4186502695 -0.0009776204824 1.771655483e-38
-0.1355552375 -0.1698055714 -0.1037100106 1.771655483e-38
-0.1036021709 -0.2563449144 0.01079790667 1.771655483e-38
-0.1230531037 -0.2200509608 -0.05403412506 1.789986569e-38
-0.1139627099 -0.2059222907 0.01111636311 1.789986569e-38
-0.125133574 -0.2575401366 -0.06636585295 1.789986569e-38
-0.149583146 -0.4321853518 -0.1775333881 1.789986569e-38
-0.1386453807 -0.2446952611 -0.1033762693 1.808317654e-38
-0.1029184759 -0.01994737983 -0.2027348727 1.808317654e-38
-0.1350402236 -0.1573239416 -0.1037656367 1.808317654e-38
-0.0990280807 -0.106698446 -0.02736534737 1.808317654e-38
-0.1371003091 -0.2072504163 -0.1035431325 1.826612727e-38
-0.1411593854 -0.3444152772 -0.06543554366 1.826612727e-38
-0.1144777387 -0.2184039056 0.01117198914 1.826612727e-38
-0.1376571506 -0.4576004446 -0.1654645354 1.826612727e-38
-0.1204576194 -0.1700802147 -0.04175804928 1.844943813e-38
-0.06373330951 -0.4450545013 0.1584473848 1.844943813e-38
-0.1355563104 -0.4325485826 -0.1405786127 1.844943813e-38
-0.1469468921 -0.4070892036 -0.140148893 1.844943813e-38
-0.1225177199 -0.2200066596 -0.04153556004 1.863274899e-38
-0.1251132041 -0.2699774504 -0.05381163582 1.863274899e-38
-0.09976939857 -0.5078556538 -0.2391432077 1.863274899e-38
-0.1479973197 -0.4196151197 -0.1525918394 1.863274899e-38
-0.1196483523 -0.3307827711 -0.0008260309696 1.881569971e-38
-0.09968572855 -0.03211886063 -0.1151891723 1.881569971e-38
-0.1114079654 -0.1310769171 -0.001716006547 1.881569971e-38
-0.1217084527 -0.3807092309 -0.0006035380065 1.881569971e-38
-0.108196646 -0.3935540915 0.03640690446 1.899901057e-38
-0.1199222207 -0.1700359136 -0.02925945446 1.899901057e-38
-0.1194275767 -0.1451169699 -0.04186930135 1.899901057e-38
-0.1390789151 -0.3069261312 -0.05310380831 1.899901057e-38
-0.1194072068 -0.1575542837 -0.02931507304 1.91819627e-38
-0.1271121949 -0.3572158515 -0.01592652872 1.91819627e-38
-0.1196279824 -0.3432200551 0.01172822341 1.91819627e-38
-0.09714092314 -0.4447710514 -0.04044800997 1.91819627e-38
-0.1385638863 -0.2944445312 -0.05315943435 1.936527215e-38
-0.1191129535 -0.3307384849 0.01167259738 1.936527215e-38
-0.1018680483 -0.007421471179 -0.1902918965 1.936527215e-38
-0.1175882667 -0.2808563113 -0.001048523933 1.936527215e-38
-0.1365445405 -0.2196434289 -0.07849034667 1.954822428e-38
-0.1360713392 -0.4450302124 -0.1405229867 1.954822428e-38
-0.1281626076 -0.3697417676 -0.02836947516 1.954822428e-38
-0.1114487201 -0.1062022895 -0.02682439424 1.954822428e-38
-0.1103167981 -0.1434256136 0.03583538532 1.973153514e-38
-0.09744225442 -0.09412820637 -0.00242383033 1.973153514e-38
-0.1128919125 -0.2058336884 0.0361135006 1.973153514e-38
-0.1227384955 -0.4056724906 -0.0004922896624 1.973153514e-38
-0.1024238318 0.004971524701 -0.2153446972 1.991448586e-38
0.006752766669 -0.4696366489 0.1101687253 1.991448586e-38
-0.07722471654 -0.4446469545 0.1339911968 1.991448586e-38
-0.1339490414 -0.169672668 -0.06621426344 1.991448586e-38
-0.1007972509 -0.007332863286 -0.1652947217 2.009743799e-38
-0.1102964282 -0.1558629125 0.04838958383 2.009743799e-38
0.01313679107 -0.4442304075 0.2350432873 2.009743799e-38
-0.121671021 -0.08310762793 -0.1546346396 2.009743799e-38
-0.1102567464 -0.4434805512 0.0366293937 2.028074885e-38
-0.1359887719 -0.2320364416 -0.05343754962 2.028074885e-38
-0.1040764451 -0.2937011719 0.03596191853 2.028074885e-38
0.04366264492 -0.4483592212 0.3415985107 2.028074885e-38
-0.1190722138 -0.3556131124 0.03678098321 2.046369957e-38
-0.0980591476 -0.04442327842 -0.06513920426 2.046369957e-38
-0.1095615327 -0.4442749023 -0.03990706056 2.046369957e-38
-0.1416540295 -0.3693342209 -0.05282569304 2.046369957e-38
-0.1024442017 0.01740888506 -0.2278988808 2.06466517e-38
-0.1222268045 -0.07071463764 -0.1796874255 2.06466517e-38
-0.1183567792 -0.1450283676 -0.01687212661 2.06466517e-38
-0.1201022565 -0.3805763125 0.03689223528 2.06466517e-38
-0.1008176357 0.005104435608 -0.17784895 2.082996116e-38
-0.1183771491 -0.1325910687 -0.02942632511 2.082996116e-38
-0.101460591 -0.2561677098 0.06079218537 2.082996116e-38
-0.09178695083 -0.4443280101 0.08453780413 2.082996116e-38
-0.09989514947 -0.2311601937 0.07317956537 2.101291328e-38
-0.1334350854 -0.4199340641 -0.1031384915 2.101291328e-38
-0.1121063679 -0.03162270039 -0.1146482155 2.101291328e-38
-0.1134283841 -0.4686210155 -0.01325369626 2.101291328e-38
-0.1221827269 -0.4180654883 0.02456053346 2.119586541e-38
-0.1034391969 -0.3558434248 0.1112315208 2.119586541e-38
-0.1123575866 -0.4685323834 0.01174350455 2.119586541e-38
-0.1490273774 -0.4445783496 -0.1524806023 2.119586541e-38
-0.1200648248 -0.08297471702 -0.1171388924 2.137881613e-38
-0.09921143949 0.005237346515 -0.1403532028 2.137881613e-38
-0.1133865714 -0.230752632 0.04872332513 2.137881613e-38
-0.1318278462 -0.1570581198 -0.02877412364 2.137881613e-38
-0.1205969006 -0.4054952264 0.04950205237 2.156176826e-38
-0.09694761038 -0.06920929998 -0.01503364742 2.156176826e-38
-0.1405832469 -0.3692456186 -0.02782852575 2.156176826e-38
-0.1118221879 -0.4684880972 0.0242420733 2.156176826e-38
-0.1126621217 -0.01922970265 -0.1397010088 2.174471899e-38
-0.1351624578 -0.08270008117 -0.1790908575 2.174471899e-38
-0.1200852096 -0.07053741813 -0.1296931207 2.174471899e-38
-0.09532102942 -0.08151368797 0.0350163132 2.174471899e-38
-0.136463061 -0.2693926692 -0.02827351168 2.192767111e-38
-0.1128511876 -0.2307083309 0.06122189015 2.192767111e-38
-0.1049842685 -0.3932883143 0.111398384 2.192767111e-38
-0.1115913391 -0.01914109476 -0.1147038415 2.192767111e-38
-0.1160850078 -0.48127985 -0.06319238245 2.211062324e-38
-0.1148444712 0.00546768494 -0.2148037404 2.211062324e-38
-0.114931643 -0.2681974769 0.04889019579 2.211062324e-38
-0.1400478482 -0.3692013025 -0.01532995328 2.211062324e-38
-0.102449894 -0.3060055971 0.08601187915 2.229357396e-38
-0.1123157889 -0.2306640297 0.07372052222 2.229357396e-38
-0.1364426911 -0.281829983 -0.0157193169 2.229357396e-38
-0.1184586287 -0.08284180611 -0.0796431601 2.229357396e-38
-0.1102353185 -0.1931748688 0.08605222404 2.247652609e-38
-0.1018737406 -0.3308358788 0.1236188412 2.247652609e-38
-0.1437548846 -0.3943860531 -0.07771161199 2.247652609e-38
-0.09702910483 -0.01946003921 -0.06525045633 2.247652609e-38
-0.09760525823 0.005370259285 -0.1028574407 2.265947681e-38
-0.1014141589 0.0423720926 -0.2280101329 2.265947681e-38
-0.1159616858 -0.293160677 0.04900144041 2.265947681e-38
-0.1474415511 -0.4320081174 -0.1275390834 2.265947681e-38
-0.1313535571 -0.1197018921 -0.05393816158 2.284242894e-38
-0.1042075604 -0.443831861 0.08507876098 2.284242894e-38
-0.1184757054 -0.3928807378 0.08694219589 2.284242894e-38
-0.1063491553 -0.4440090656 0.03508441895 2.284242894e-38
-0.1307784617 -0.4072752297 -0.05319977924 2.302537966e-38
-0.1097009778 -0.4558736086 0.06168216467 2.302537966e-38
-0.1019348651 -0.2935239673 0.08595625311 2.302537966e-38
-0.1082363278 -0.1059364676 0.04816708714 2.302537966e-38
-0.1012772173 -0.3681035042 0.1737800539 2.320833179e-38
-0.0967438817 -0.1935824305 0.1105084121 2.320833179e-38
-0.1158394516 -0.3677845597 0.1243266612 2.320833179e-38
-0.09591755271 -0.04424606264 -0.0151448939 2.320833179e-38
-0.1117803901 -0.2306197137 0.08621909469 2.339092378e-38
-0.1105409116 -0.00661518611 -0.1022608653 2.339092378e-38
-0.1324854642 -0.08247856051 -0.1165979356 2.339092378e-38
-0.1137940437 0.01799365133 -0.2023607939 2.339092378e-38
-0.1179436147 -0.07036020607 -0.07969878614 2.348204041e-38
-0.09980796278 0.04250500351 -0.1905143857 2.348204041e-38
-0.1143758893 -0.2805904746 0.07394301891 2.348204041e-38
-0.108195588 -0.1308110952 0.0732755363 2.348204041e-38
-0.1099851429 -0.01900818385 -0.07720810175 2.348132155e-38
-0.1308385283 -0.1072202846 -0.05399378762 2.348132155e-38
0.006936151069 -0.446826458 0.355719924 2.348132155e-38
0.04473343492 -0.4482706189 0.3665956557 2.348132155e-38
-0.1013994664 -0.293479681 0.09845483303 2.348060128e-38
-0.1070647389 -0.4307774305 0.09906668961 2.348060128e-38
-0.1132586449 0.01803795621 -0.1898621917 2.348060128e-38
-0.1148501635 -0.317946732 0.09910702705 2.348060128e-38
-0.1490069926 -0.4570156634 -0.1399264038 2.347952368e-38
-0.09538215399 -0.04420176148 -0.002646325156 2.347952368e-38
-0.0982889533 -0.2310272753 0.1106752753 2.347952368e-38
-0.1442698985 -0.4068676829 -0.07765598595 2.347952368e-38
-0.1160928011 -0.4432913959 0.09811828285 2.347880341e-38
-0.118234396 -0.4434686005 0.04812394083 2.347880341e-38
-0.1121878475 0.01812656224 -0.1648650169 2.347880341e-38
-0.1003490537 -0.2809537053 0.1108977795 2.347880341e-38
-0.1077620536 -0.06858022511 0.02300307527 2.347808455e-38
-0.1176989973 -0.4434243143 0.06062251329 2.347808455e-38
-0.1386668235 -0.4950009584 -0.152799055 2.347808455e-38
-0.1138144135 0.03043095022 -0.2149149925 2.347808455e-38
-0.09672349691 -0.2060197294 0.1230625957 2.347700555e-38
-0.1112449914 -0.2305754125 0.09871765971 2.347700555e-38
-0.1179843545 -0.04548557475 -0.104807198 2.347700555e-38
-0.1137589812 -0.3302954435 0.1366584152 2.347700555e-38
-0.1303234994 -0.09473864734 -0.05404941365 2.347628668e-38
0.02401232719 -0.4821714461 0.2346692085 2.347628668e-38
-0.09655483067 0.01789622381 -0.09041449428 2.347628668e-38
-0.09775355458 -0.2309829742 0.1231738478 2.347628668e-38
-0.120020777 -0.4303255677 0.08710906655 2.347520768e-38
-0.113779366 -0.3178581595 0.124104172 2.347520768e-38
-0.1075797677 -0.4432590604 0.09912230074 2.347520768e-38
-0.09466341138 -0.1560932547 0.1228401065 2.347520768e-38
-0.1126881838 -0.3302068114 0.1616555601 2.347448882e-38
-0.09979327023 -0.2933467627 0.1359505951 2.347448882e-38
-0.1086301804 -0.4557849765 0.08667936176 2.347448882e-38
-0.1174489558 -0.04544126987 -0.09230859578 2.347448882e-38
-0.1323439181 -0.4322827458 -0.06558713317 2.347340982e-38
-0.1325465888 -0.0451666303 -0.154260546 2.347340982e-38
-0.1081344634 -0.1681230217 0.1109381169 2.347340982e-38
-0.1163341105 -0.3927034736 0.1369365305 2.347340982e-38
-0.1121527851 -0.3301625252 0.1741541326 2.347269095e-38
-0.1426637173 -0.4067347646 -0.04016024992 2.347269095e-38
-0.1121324152 -0.3425998092 0.1867083311 2.347269095e-38
-0.09724739194 -0.4432559013 0.2475602925 2.347269095e-38
-0.09810557961 -0.3429630399 0.2236631364 2.347161195e-38
-0.112647444 -0.355081439 0.1867639422 2.347161195e-38
-0.1066912562 -0.06849162281 0.04800021648 2.347161195e-38
-0.09319983423 -0.06889916956 0.07245646417 2.347161195e-38
-0.09767206013 -0.2807322145 0.1733906865 2.347089308e-38
-0.1298084706 -0.0822570473 -0.05410503224 2.347089308e-38
-0.1091441363 -0.2055235654 0.1236035526 2.347089308e-38
-0.1072673947 -0.04366129637 0.01039325818 2.347089308e-38
-0.1066505164 -0.09336622059 0.07310866565 2.346981408e-38
-0.09671199322 -0.4432115853 0.2600589097 2.346981408e-38
-0.1236870587 -0.4803849459 0.04983579367 2.346981408e-38
-0.1110819876 -0.3300738931 0.1991513371 2.346981408e-38
-0.1298288554 -0.06981974095 -0.06665925682 2.346909522e-38
-0.1066301465 -0.1058035567 0.0856628567 2.346909522e-38
-0.1171150506 -0.5062431097 -0.06308113784 2.346909522e-38
-0.1127493083 -0.2928948998 0.1239929199 2.346909522e-38
-0.1287173182 -0.09460573643 -0.01655367017 2.346801622e-38
-0.1083993167 -0.006437972188 -0.05226655304 2.346801622e-38
-0.09666237235 -0.2433316559 0.1607252508 2.346801622e-38
-0.09268480539 -0.05641753972 0.07240083814 2.346801622e-38
0.04580423236 -0.4481820166 0.3915928304 2.346693862e-38
-0.1067523807 -0.03117966093 0.01033763587 2.346693862e-38
-0.1061151177 -0.09332191944 0.08560723066 2.346693862e-38
-0.1116988957 -0.2803689241 0.136435926 2.346693862e-38
-0.09754982591 -0.3553560972 0.2487158924 2.346621835e-38
-0.09703479707 -0.3428744674 0.2486602813 2.346621835e-38
-0.1065690219 -0.1431154907 0.1233254373 2.346621835e-38
-0.0965808779 -0.2930809259 0.2109420747 2.346621835e-38
-0.148451224 -0.4694086611 -0.1148736179 2.346514075e-38
-0.1060947478 -0.1057592481 0.09816142917 2.346514075e-38
-0.1106280982 -0.2802803516 0.1614330709 2.346514075e-38
-0.09309795499 -0.1310857385 0.1352274865 2.346514075e-38
-0.1236948371 -0.4423964918 0.2111464739 2.346406175e-38
-0.1505520642 -0.4944605231 -0.1397595406 2.346406175e-38
-0.09219016135 -0.03149860725 0.05979096144 2.346406175e-38
-0.1075583249 -0.1929533631 0.1485451311 2.346406175e-38
-0.1056815833 -0.03109105304 0.03533477336 2.346334289e-38
-0.09357222915 -0.1684419662 0.1603915095 2.346334289e-38
-0.1091326326 -0.4427154362 0.2605998814 2.346334289e-38
-0.1056000888 -0.0808403194 0.08555161208 2.346334289e-38
-0.03032570705 -0.445337981 0.3573427796 2.346226389e-38
-0.09223088622 -0.006624003872 0.03468257189 2.346226389e-38
-0.1273940951 -0.5055696964 -0.01254587248 2.346226389e-38
-0.1126066893 -0.3799560666 0.2118723989 2.346226389e-38
-0.09752944112 -0.3677933812 0.2612701654 2.346118629e-38
-0.09406688809 -0.1933609098 0.1730013192 2.346118629e-38
-0.1442088038 -0.4441796243 -0.03999337927 2.346118629e-38
-0.1479158252 -0.4693643451 -0.1023750454 2.346118629e-38
-0.09604547918 -0.2930366397 0.223440662 2.346010729e-38
-0.09564119577 -0.443122983 0.2850560844 2.346010729e-38
-0.09260331094 -0.1061668023 0.1226176172 2.346010729e-38
-0.146329999 -0.4567941427 -0.07743349671 2.346010729e-38
-0.1055593491 -0.105714947 0.1106600016 2.345938842e-38
-0.1090626419 -0.2552728355 0.1738203913 2.345938842e-38
-0.1090015173 -0.2925847769 0.2114830315 2.345938842e-38
-0.09258294106 -0.1186041012 0.1351718605 2.345938842e-38
-0.09303683043 -0.168397665 0.1728900671 2.345830942e-38
-0.09647902846 -0.3552674651 0.2737131119 2.345830942e-38
-0.107539013 -0.468133688 0.1242306978 2.345830942e-38
-0.09225127101 0.005813296884 0.02212838084 2.345830942e-38
-0.1073692739 0.01852529868 -0.05237779766 2.345723183e-38
-0.1473804265 -0.469320029 -0.08987644315 2.345723183e-38
0.03391896188 -0.4476415217 0.4046323597 2.345723183e-38
-0.1152429283 -0.4050522447 0.1744878739 2.345723183e-38
-0.1050646901 -0.08079601824 0.0980501771 2.345615283e-38
-0.09254218638 -0.1434787363 0.1602802575 2.345615283e-38
0.02149835229 -0.4471453726 0.4051733315 2.345615283e-38
-0.1064875275 -0.1928647459 0.173542276 2.345615283e-38
-0.1046311557 -0.01856514439 0.0477777198 2.345507523e-38
-0.1038523465 -0.4305115938 0.1740581691 2.345507523e-38
-0.1074972004 -0.2302652895 0.1862077117 2.345507523e-38
-0.1068338752 0.01856959984 -0.03987919912 2.345507523e-38
-0.09499508142 -0.280510664 0.2358836085 2.345399623e-38
-0.1059531868 -0.4555634856 0.1491722763 2.345399623e-38
-0.1096398532 -0.4931855202 0.09934480488 2.345399623e-38
-0.1064671427 -0.2053020447 0.1860964596 2.345399623e-38
-0.09206791222 -0.1061224937 0.1351162493 2.345291723e-38
-0.1354544312 -0.4947351515 -0.07780757546 2.345291723e-38
-0.1338686198 -0.4821649492 -0.05286603794 2.345291723e-38
-0.09398537874 -0.2431101352 0.2232181579 2.345291723e-38
-0.1199596524 -0.4676374793 0.1247716546 2.345219836e-38
-0.1189092249 -0.4551115632 0.1372146606 2.345219836e-38
-0.09202715755 -0.1309971362 0.1602246314 2.345219836e-38
-0.09295533597 -0.2181468904 0.2231069058 2.345219836e-38
-0.09396502376 -0.2555474639 0.2357723564 2.345111936e-38
-0.105227679 0.01870251074 -0.002383489162 2.345111936e-38
-0.1120509356 -0.3923490644 0.2369251698 2.345111936e-38
-0.107889995 -0.3173707724 0.2615886331 2.345111936e-38
-0.1441680491 -0.4690542221 -0.01488496363 2.345004176e-38
-0.1059113741 -0.2176950574 0.2111492902 2.345004176e-38
-0.1162729859 -0.4300154448 0.174599126 2.345004176e-38
-0.1101548821 -0.50566715 0.09940043092 2.345004176e-38
-0.1078492403 -0.3422454 0.2866970301 2.344896276e-38
-0.09143063426 -0.1682647616 0.2103858441 2.344896276e-38
-0.1073545963 -0.3173264861 0.2740871906 2.344896276e-38
-0.09239958227 -0.2305399328 0.2481596619 2.344896276e-38
-0.1035196185 -0.04335116968 0.09788331389 2.344788516e-38
-0.09008930624 -0.006446788087 0.08467691392 2.344788516e-38
-0.1039735228 -0.09314469993 0.1356015801 2.344788516e-38
-0.1109801382 -0.3922604322 0.2619223595 2.344788516e-38
-0.1048405915 -0.2176064402 0.2361464351 2.344680616e-38
-0.09087488055 -0.1806577444 0.2354386002 2.344680616e-38
-0.06758756936 -0.443849504 0.3589656353 2.344680616e-38
-0.1030046046 -0.0308695361 0.09782768786 2.344680616e-38
-0.1058502644 -0.2550070286 0.2488118857 2.344572857e-38
-0.1173030287 -0.4549787045 0.1747103631 2.344572857e-38
-0.0895742923 0.006034815684 0.08462129533 2.344572857e-38
-0.09085451066 -0.193095088 0.2479927987 2.344572857e-38
-0.08955390751 -0.006402485073 0.09717549384 2.344464957e-38
-0.09002818167 -0.04375872016 0.122339502 2.344464957e-38
-0.1067784429 -0.3421567678 0.3116941452 2.344464957e-38
-0.1032761931 -0.4553419352 0.2116651833 2.344464957e-38
-0.1072934717 -0.3546383977 0.3117497563 2.344357197e-38
-0.09035985172 -0.1681761444 0.235382989 2.344357197e-38
-0.09000781178 -0.05619602278 0.1348937452 2.344357197e-38
-0.1053148657 -0.2549627125 0.2613105178 2.344357197e-38
-0.09033948183 -0.1806134433 0.2479371876 2.344249297e-38
-0.1047998369 -0.2424810678 0.2612549067 2.344249297e-38
-0.0899874419 -0.06863334775 0.1474479437 2.344249297e-38
-0.1038105488 -0.1926432252 0.2360351831 2.344249297e-38
-0.08990594745 -0.118382588 0.1976647824 2.344141397e-38
-0.08992631733 -0.1059452817 0.1851105243 2.344141397e-38
-0.1027407944 -0.4552976489 0.2241637558 2.344141397e-38
-0.05356075987 -0.4442127347 0.3959204555 2.344141397e-38
-0.103790164 -0.2050805241 0.2485893816 2.344033637e-38
-0.08901850879 -0.006358182058 0.1096740514 2.344033637e-38
-0.1172826588 -0.4674159884 0.1872645617 2.344033637e-38
-0.08978371322 -0.1930064857 0.2729899883 2.344033637e-38
-0.09027835727 -0.2179253846 0.2855998278 2.343925737e-38
-0.1146464199 -0.44231987 0.2246490866 2.343925737e-38
-0.02711331844 -0.4450721443 0.4323342741 2.343925737e-38
-0.09223657846 -0.3300384283 0.3485933542 2.343925737e-38
-0.1057076454 -0.3420681953 0.3366913199 2.343817977e-38
-0.07947281003 -0.4433090091 0.3720051646 2.343817977e-38
-0.1037290394 -0.2423924655 0.2862520218 2.343817977e-38
-0.09172156453 -0.3175567985 0.3485377431 2.343817977e-38
-0.1151614338 -0.4548014402 0.2247046977 2.343710077e-38
-0.1022858322 -0.1427610517 0.2233141214 2.343710077e-38
-0.09693291783 -0.4050610065 0.3114312887 2.343710077e-38
-0.1046776026 -0.3171049953 0.3365800977 2.343710077e-38
-0.08842198551 -0.04362580925 0.1598352641 2.343566444e-38
-0.1135756373 -0.4422312379 0.2496462315 2.343566444e-38
-0.09903377295 -0.4301128387 0.2865453959 2.343566444e-38
-0.1048212647 -0.4927867651 0.2118320465 2.343566444e-38
-0.08871291578 -0.1929178685 0.2979871631 2.343458544e-38
-0.0942966789 -0.3799648881 0.3488158584 2.343458544e-38
-0.09019686282 -0.2676746547 0.3358166814 2.343458544e-38
-0.1119898111 -0.4296610355 0.27458781 2.343458544e-38
-0.1016893238 -0.1800286919 0.2734753489 2.343350644e-38
-0.103647545 -0.2921417356 0.3364688754 2.343350644e-38
-0.09954880178 -0.4425944686 0.2866010666 2.343350644e-38
-0.1140906513 -0.4547128677 0.2497018427 2.343350644e-38
-0.08739194274 -0.01866257191 0.1597240269 2.343242884e-38
-0.1008426249 -0.04312965274 0.1603762209 2.343242884e-38
-0.08733081818 -0.05597450584 0.1973866671 2.343242884e-38
-0.08768285811 -0.1679546237 0.2978758812 2.343242884e-38
-0.104314059 -0.4423167109 0.3730870783 2.343134984e-38
-0.09065076709 -0.317468226 0.3735348582 2.343134984e-38
-0.1007000208 -0.1301908493 0.2482556254 2.343134984e-38
-0.1011131704 -0.2048590034 0.3110823035 2.343134984e-38
-0.1156561077 -0.4797204137 0.2373145372 2.343027224e-38
-0.1002461016 -0.08039727807 0.2105374336 2.343027224e-38
-0.08630077541 -0.03101126477 0.1972754151 2.343027224e-38
-0.1167346686 -0.4418205321 0.3736280203 2.343027224e-38
-0.08667318523 -0.1305540949 0.2852104306 2.342919324e-38
-0.1061819196 -0.3794244528 0.3618553281 2.342919324e-38
-0.0921754539 -0.3673503399 0.3862559795 2.342919324e-38
-0.1016292721 -0.4800836444 0.2742693424 2.342919324e-38
-0.1151207089 -0.4796760678 0.2498130947 2.342811565e-38
-0.1161992699 -0.4417762458 0.3861266673 2.342811565e-38
-0.09374091029 -0.3923578858 0.3738685846 2.342811565e-38
-0.0857449919 -0.04340429232 0.2223281711 2.342811565e-38
-0.1040810794 -0.3543726206 0.3867412806 2.342703665e-38
-0.1156357229 -0.4921576977 0.2498687059 2.342703665e-38
-0.1031947136 -0.5050911903 0.2618820071 2.342703665e-38
-0.08564314246 -0.1055908501 0.2850992084 2.342703665e-38
-0.09425592422 -0.4048395157 0.3739241958 2.342559891e-38
-0.09816563129 -0.04290813208 0.2228691429 2.342559891e-38
-0.1114136577 -0.4544913173 0.3121947646 2.342559891e-38
-0.09635677934 -0.4298913479 0.3490383029 2.342559891e-38
-0.09946623445 -0.2296007276 0.3736864328 2.342452132e-38
-0.0841999203 -0.005959447473 0.2221613079 2.342452132e-38
-0.105626151 -0.3918174505 0.3869081736 2.342452132e-38
-0.08366453648 -0.005915142596 0.2346598655 2.342452132e-38
-0.08409807086 -0.06814600527 0.2849323153 2.342344232e-38
-0.09657983482 -0.03033788875 0.2478106469 2.342344232e-38
-0.09528598189 -0.4298027158 0.3740354776 2.342344232e-38
-0.09699298441 -0.1050060838 0.3106372952 2.342344232e-38
-0.0974265039 -0.167236954 0.36090976 2.342236472e-38
-0.09651871026 -0.06764984876 0.2854732871 2.342236472e-38
-0.08308839798 -0.03074544296 0.2722669244 2.342236472e-38
-0.09649832547 -0.0800871551 0.2980274558 2.342236472e-38
-0.0830476433 -0.05562007427 0.2973752618 2.342128572e-38
-0.09691148996 -0.1547553241 0.3608541489 2.342128572e-38
-0.09586106241 -0.142229408 0.3732970953 2.342128572e-38
-0.1087366641 -0.4542698264 0.3746876717 2.342128572e-38
-0.09491251409 -0.06751693785 0.322969079 2.342020812e-38
-0.08144144714 -0.05548716336 0.3348710537 2.342020812e-38
-0.09441785514 -0.04259800538 0.31035918 2.342020812e-38
