# .PCD v0.7 - Point Cloud Data file format
VERSION 0.7
FIELDS x y z rgb
SIZE 4 4 4 4
TYPE F F F F
COUNT 1 1 1 1
WIDTH 834
HEIGHT 1
VIEWPOINT 0 0 0 1 0 0 0
POINTS 834
DATA ascii
0.2047159225 -0.363869518 -0.1487466097 1.984127923e-39
0.2809011936 -0.316840589 0.0523439087 1.984127923e-39
0.1960571259 -0.5203272104 -0.08091223985 1.984127923e-39
-0.1143165901 -0.4426707327 0.3098252416 1.984127923e-39
0.2785643041 -0.4872797132 -0.0936812833 1.801533128e-39
0.3135763705 -0.3831353486 0.2782774866 1.801533128e-39
0.1697030962 -0.3800784647 0.1313216984 1.801533128e-39
0.1930776238 -0.3661506176 -0.1364330798 1.801533128e-39
0.2778590024 -0.3946765661 0.283156693 1.801533128e-39
0.279345423 -0.391471684 0.3265973926 1.801533128e-39
0.2945758104 -0.26883775 -0.1127060726 1.801533128e-39
0.1953730732 -0.5188341737 -0.09229147434 1.801533128e-39
0.3012751341 -0.4750335217 -0.1090054289 1.618578199e-39
-0.09913965315 -0.4416638911 0.3750901222 1.618578199e-39
0.1931011528 -0.7034726143 -0.3034417927 1.618578199e-39
0.2287949473 -0.3546094 -0.1413123012 1.618578199e-39
0.2748147845 -0.4597486258 -0.09991019964 1.618578199e-39
0.2649647593 -0.7495906949 0.06833614409 1.618578199e-39
-0.04581621662 -0.4350240529 -0.06612661481 1.618578199e-39
-0.1230911016 -0.4170702696 0.1825772375 1.618578199e-39
-0.1136325225 -0.4441637993 0.3212044835 1.435982003e-39
0.05002096295 -0.7233806252 -0.2125754356 1.435982003e-39
-0.1114527509 -0.41478917 0.1702636927 1.435982003e-39
0.3365237713 -0.3585072756 0.3043177128 1.435982003e-39
0.09930120409 -0.7478911877 -0.01055191457 1.435982003e-39
-0.04650027677 -0.4335310161 -0.07750587165 1.435982003e-39
0.1202952564 -0.3894217014 0.1143767163 1.435982003e-39
-0.1121368185 -0.4132961333 0.1588844061 1.435982003e-39
0.09725834429 -0.7157492638 -0.2504503727 1.253028475e-39
0.1328573525 -0.7103990316 -0.276011765 1.253028475e-39
0.1573602706 -0.3776918352 -0.1315538585 1.253028475e-39
-0.09925793111 -0.4478548467 0.3544079065 1.253028475e-39
0.07329759002 -0.7188184261 -0.2372025251 1.253028475e-39
0.2877029181 -0.4666445255 -0.1101474315 1.253028475e-39
0.2631764412 -0.4620297253 -0.08759660274 1.253028475e-39
0.1216429994 -0.3892330527 -0.1266746521 1.253028475e-39
0.01579001918 -0.7317169905 -0.1642555445 1.070432279e-39
0.005519827828 -0.7369841337 -0.1291834712 1.070432279e-39
0.2521898746 -0.3438562453 -0.1452572048 1.070432279e-39
0.2108699232 -0.5655559897 0.1280668229 1.070432279e-39
0.3019380569 -0.3854164481 0.2905910909 1.070432279e-39
-0.03132334724 -0.4325241148 -0.01224098913 1.070432279e-39
0.2909837961 -0.3891905844 0.3142838478 1.070432279e-39
-0.1217229813 -0.4200563431 0.2053357065 1.070432279e-39
0.1807552427 -0.3669386804 -0.135498777 8.874787512e-40
0.2916616797 -0.7524937391 0.1006052345 8.874787512e-40
-0.1006260514 -0.4448687732 0.3316494226 8.874787512e-40
-0.0320074074 -0.4310310781 -0.02362025157 8.874787512e-40
0.1769912094 -0.4088838398 0.2151290476 8.874787512e-40
0.2760646045 -0.4689256549 -0.09783389419 8.874787512e-40
-0.1176093072 -0.4013518095 0.06785046309 8.874787512e-40
0.2946618199 -0.475383997 0.02432724833 8.874787512e-40
0.2945461869 -0.2933258116 -0.1707551926 7.045238224e-40
0.2632624209 -0.3338911831 -0.1482678205 7.045238224e-40
0.2624923885 -0.4605366588 -0.09897589684 7.045238224e-40
0.07465644181 -0.7494672537 -0.008683308959 7.045238224e-40
0.1205349714 -0.7111870646 -0.2750774622 7.045238224e-40
-0.04626372084 -0.421149075 -0.0361414887 7.045238224e-40
0.2854075134 -0.3139609694 -0.154289037 7.045238224e-40
-0.04923652485 -0.4275588393 -0.1230228394 7.045238224e-40
0.275380522 -0.4674326181 -0.1092131287 5.219290273e-40
0.1436901391 -0.3786685169 0.1104317978 5.219290273e-40
-0.1292476654 -0.4036329091 0.08016400784 5.219290273e-40
-0.04911825433 -0.4213678539 -0.1023406833 5.219290273e-40
-0.04557966068 -0.4226421118 -0.02476225421 5.219290273e-40
0.02674430236 -0.7279428244 -0.1879483312 5.219290273e-40
-0.1059802622 -0.4267334938 0.2612976432 5.219290273e-40
0.1714123189 -0.521903336 -0.07904363424 5.219290273e-40
0.2656488121 -0.7510837317 0.07971538603 3.389740985e-40
-0.1285635978 -0.4051259458 0.09154324234 3.389740985e-40
-0.1258273572 -0.4110981226 0.1370602399 3.389740985e-40
0.2637422383 -0.4697136879 -0.09689959139 3.389740985e-40
0.3135882616 -0.5019082427 0.09582103789 3.389740985e-40
-0.03530943766 -0.4173749387 -0.0598342903 3.389740985e-40
0.2625783682 -0.3323981464 -0.1596470475 3.389740985e-40
-0.1001529396 -0.4201049805 0.4143781662 3.389740985e-40
0.3142723143 -0.5034012794 0.1072002798 1.56020571e-40
-0.105296202 -0.4282265306 0.2726768851 1.56020571e-40
0.2114679664 -0.3605028093 0.002412769943 1.56020571e-40
-0.1325496882 -0.3899767697 0.04394996911 1.56020571e-40
0.1327155232 -0.379267931 -0.1296852529 1.56020571e-40
0.2412678748 -0.4695780277 -0.0402110517 1.56020571e-40
-0.03382303193 -0.4141700566 -0.01639360748 1.56020571e-40
0.1985474974 -0.5663440824 0.1290011257 1.56020571e-40
0.2075679004 -0.5518998504 0.09185276926 6.490113838e-41
-0.03623005375 -0.4282638133 -0.1125779152 6.490113838e-41
0.2649920881 -0.478890717 -0.09482328594 6.490113838e-41
0.2882969379 -0.247440666 -0.1811367273 6.490113838e-41
-0.04614544287 -0.4149581194 -0.01545929722 6.490113838e-41
0.3130224645 -0.4942242503 0.105123952 6.490113838e-41
-0.03611177579 -0.4220728278 -0.0918957144 6.490113838e-41
-0.04751356319 -0.4119720459 -0.03821779415 6.490113838e-41
0.05001166463 -0.7510434389 -0.006814703345 2.496469266e-40
0.2532354891 -0.487362802 -0.1031919122 2.496469266e-40
0.1198509037 -0.7096940279 -0.2864567339 2.496469266e-40
0.2889316082 -0.3847114742 0.2801460922 2.496469266e-40
0.2834736109 -0.3032909036 -0.1677445769 2.496469266e-40
0.1636493653 -0.7499230504 0.03029356897 2.496469266e-40
0.1203931496 -0.3800559938 -0.1287509501 2.496469266e-40
0.3299034238 -0.3421708941 -0.08658499271 2.496469266e-40
-0.002698179334 -0.7467304468 -0.05997370183 4.340353837e-40
0.3166860044 -0.3152090907 -0.02568044513 4.340353837e-40
0.2019846737 -0.7505449057 0.05024914443 4.340353837e-40
0.02468281984 -0.7511265278 -0.01632532477 4.340353837e-40
-0.1137322336 -0.3950291574 -0.1109991819 4.340353837e-40
-0.1141726971 -0.3978410661 0.4432213306 4.340353837e-40
-0.00885473378 -0.7332930565 -0.1623869389 4.340353837e-40
0.251419872 -0.4705017805 -0.09596528858 4.340353837e-40
-0.0511704348 -0.4168887436 -0.1364784092 6.184224396e-40
-0.124340944 -0.4078932405 0.1805009246 6.184224396e-40
0.3269562423 -0.3099418879 -0.06075248495 6.184224396e-40
-0.03519115224 -0.4111839831 -0.03915210441 6.184224396e-40
0.2895467877 -0.2566176951 -0.1790604144 6.184224396e-40
0.3515242338 -0.3261188865 0.2162847817 6.184224396e-40
0.2091792226 -0.3684055805 -0.07308934629 6.184224396e-40
0.33025828 -0.3235980272 -0.02453844622 6.184224396e-40
-0.1263931394 -0.4034141302 0.146363169 8.028094954e-40
0.002783581614 -0.7310119867 -0.1747004688 8.028094954e-40
0.3186199069 -0.3258791566 -0.01222487539 8.028094954e-40
0.1954913437 -0.512643218 -0.0716092512 8.028094954e-40
-0.03736161813 -0.4128957987 -0.0939720273 8.028094954e-40
0.1197090819 -0.378562957 -0.140130192 8.028094954e-40
-0.001330059022 -0.7497165203 -0.03721523285 8.028094954e-40
0.2864813209 -0.2305796444 -0.1739100963 8.028094954e-40
0.1431275308 -0.7051318288 -0.3110838234 9.871979525e-40
0.2478693128 -0.3504546285 0.008912794292 9.871979525e-40
0.2700170577 -0.4769601226 0.02619585395 9.871979525e-40
0.2845474184 -0.2199095786 -0.1873656362 9.871979525e-40
0.03538624942 -0.3947494626 -0.1201345176 9.871979525e-40
-0.05161793903 -0.4030137956 -0.1064932942 9.871979525e-40
0.2296295613 -0.4718590975 -0.02789746225 9.871979525e-40
0.2433200479 -0.474057138 -0.00607329607 9.871979525e-40
-0.03804568574 -0.4114027619 -0.1053512841 1.171585008e-39
0.1896623075 -0.7513329983 0.05118344724 1.171585008e-39
0.2282614261 -0.468873024 -0.05065598339 1.171585008e-39
-0.1008369997 -0.4186119437 0.4029989243 1.171585008e-39
0.0363304317 -0.7211825848 -0.2343996167 1.171585008e-39
0.1941232234 -0.5096571445 -0.09436777979 1.171585008e-39
0.2766091824 -0.385499537 0.281080395 1.171585008e-39
0.05934699625 -0.39168033 -0.1333823651 1.171585008e-39
0.2852314711 -0.2214026153 -0.1759864092 1.355972064e-39
0.2724010348 -0.3132560253 -0.1647339612 1.355972064e-39
-0.02117713913 -0.7340811491 -0.1614526361 1.355972064e-39
-0.10140986 -0.3942410946 -0.1119334847 1.355972064e-39
0.2670169473 -0.7540698051 0.1024738401 1.355972064e-39
0.01236044243 -0.7519145608 -0.01539102197 1.355972064e-39
-0.04739528522 -0.4057810903 -0.01753560081 1.355972064e-39
0.2807074487 -0.7562678456 0.1242980808 1.355972064e-39
0.2268933058 -0.4658869505 -0.07341445982 1.540360521e-39
0.1314656734 -0.3700909317 -0.1317615509 1.540360521e-39
0.2096200883 -0.5563789606 0.1259905249 1.540360521e-39
-0.12912938 -0.3974419534 0.1008461714 1.540360521e-39
-0.1009552702 -0.4248028994 0.3823167086 1.540360521e-39
0.09506428242 -0.3801390827 -0.1382615864 1.540360521e-39
0.2540104985 -0.7533648014 0.09202890098 1.540360521e-39
-0.03861146048 -0.4037187696 -0.0960483402 1.540360521e-39
0.3000160456 -0.4935192466 0.09467901289 1.724747577e-39
0.2718352377 -0.3055720031 -0.1554310322 1.724747577e-39
0.1184827834 -0.7067079544 -0.3092152178 1.724747577e-39
0.3139497638 -0.3092369437 -0.07119741291 1.724747577e-39
0.2901933491 -0.5126613975 0.0997659415 1.724747577e-39
0.2306216955 -0.4023079276 0.3210316598 1.724747577e-39
-0.03575693443 -0.4034999907 -0.02984916791 1.724747577e-39
-0.03941380605 -0.4084166884 -0.1281097531 1.724747577e-39
0.237933591 -0.3339742422 -0.1577784419 1.909134633e-39
0.2718649507 -0.2810839415 -0.09738192707 1.909134633e-39
0.2741589248 -0.2313677073 -0.1729757935 1.909134633e-39
-0.05013153329 -0.3998089433 -0.06305259466 1.909134633e-39
-0.04876340553 -0.4027950168 -0.0402940996 1.909134633e-39
-0.1020939201 -0.3927480578 -0.1233127192 1.909134633e-39
0.01005743258 -0.3948325515 -0.129645139 1.909134633e-39
0.3125816286 -0.3062508702 -0.0939559117 1.909134633e-39
-0.1019685715 -0.403243959 0.4216048121 2.09352309e-39
0.2582927346 -0.2726949751 -0.09852392226 2.09352309e-39
0.1191433147 -0.3708789945 -0.1308272481 2.09352309e-39
0.280408144 -0.2772528529 -0.1625942588 2.09352309e-39
0.2734748721 -0.2298746705 -0.1843550354 2.09352309e-39
-0.1269589216 -0.3957301676 0.155666098 2.09352309e-39
0.267701 -0.7555629015 0.1138530821 2.09352309e-39
0.2850756943 -0.4821442366 0.07077850401 2.09352309e-39
0.2607627213 -0.3155370951 -0.1524204314 2.277910146e-39
0.2834683955 -0.3451043367 -0.01664861478 2.277910146e-39
0.3268379569 -0.3161328435 -0.08143468201 2.277910146e-39
0.2446881831 -0.4770432115 0.01668517292 2.277910146e-39
0.271151185 -0.3040789664 -0.1668102741 2.277910146e-39
-0.05367011949 -0.3985346854 -0.1406310201 2.277910146e-39
-0.1139524356 -0.3964351416 0.1661110818 2.277910146e-39
0.2063180506 -0.5427228212 0.08977645636 2.277910146e-39
0.1903463751 -0.752826035 0.06256265938 2.462297202e-39
0.2173071951 -0.4726471901 -0.02696315944 2.462297202e-39
0.2772243917 -0.2574057579 -0.1781261116 2.462297202e-39
0.1664989442 -0.3570566475 -0.1480200142 2.462297202e-39
0.1829230934 -0.553475976 0.09372137487 2.462297202e-39
-0.08977150917 -0.391959995 -0.1242470294 2.462297202e-39
0.2583787441 -0.4792412519 0.0385093987 2.462297202e-39
0.2260909826 -0.4705848694 -0.1054759175 2.462297202e-39
0.1548605859 -0.3593377471 -0.1357064694 2.646685659e-39
-0.1132683754 -0.3979281783 0.1774903238 2.646685659e-39
0.06987728179 -0.7113531828 -0.2940987647 2.646685659e-39
0.1942415088 -0.5034661889 -0.0736855641 2.646685659e-39
-0.1160046235 -0.3919560313 0.1319733262 2.646685659e-39
-0.1015210599 -0.417118907 0.3916196823 2.646685659e-39
0.2179912478 -0.4741402268 -0.0155839175 2.646685659e-39
0.02400805429 -0.7219706774 -0.2334653139 2.646685659e-39
0.269335568 -0.2872179449 -0.1595836431 2.830713982e-39
-0.1249067262 -0.4002092779 0.1898038536 2.830713982e-39
0.1935574412 -0.5019731522 -0.08506485075 2.830713982e-39
0.2600786686 -0.3140440583 -0.1637996584 2.830713982e-39
-0.03849318251 -0.3975278437 -0.07536613941 2.830713982e-39
0.2720692456 -0.4814392328 0.06033356488 2.830713982e-39
-0.1058619842 -0.4205425382 0.2819798589 2.830713982e-39
-0.04796106741 -0.3980971277 -0.008232671767 2.830713982e-39
0.1826031357 -0.5057473183 -0.06137201935 3.015101038e-39
-0.1149750426 -0.402538985 0.411159873 3.015101038e-39
-0.1156661361 -0.3843591213 -0.1244547218 3.015101038e-39
0.02181402035 -0.3863604963 -0.1212765202 3.015101038e-39
-0.02254525945 -0.7310950756 -0.1842111051 3.015101038e-39
0.1020374447 -0.7538633347 0.034965083 3.015101038e-39
-0.1020868421 -0.4094349146 0.4009226561 3.015101038e-39
-0.1235386059 -0.4031953514 0.2125623375 3.015101038e-39
-0.1112161949 -0.4024072886 0.2116280347 3.199488094e-39
0.1782555431 -0.3485846221 -0.1396513879 3.199488094e-39
0.01372856461 -0.7549006343 0.00736746192 3.199488094e-39
-0.1147640869 -0.4287958145 0.3398103714 3.199488094e-39
-0.1187408715 -0.3859838545 0.08645632863 3.199488094e-39
-0.05355184153 -0.3923437297 -0.1199488342 3.199488094e-39
0.009491646662 -0.3871485591 -0.1203422174 3.199488094e-39
0.03345233947 -0.3840793967 -0.1335900575 3.199488094e-39
0.08217611909 -0.3732431829 -0.1280243397 3.383517819e-39
0.2778709829 -0.5134494305 0.1007002443 3.383517819e-39
0.1526951194 -0.7536971569 0.05398635566 3.383517819e-39
0.3164494336 -0.3275909722 -0.06704480201 3.383517819e-39
-0.04932918772 -0.3951110542 -0.03099117056 3.383517819e-39
0.2460563183 -0.480029285 0.03944370151 3.383517819e-39
-0.02747551352 -0.3895127475 -0.117539309 3.383517819e-39
-0.1105321348 -0.4039003551 0.2230073214 3.383517819e-39
0.02112996019 -0.3848674595 -0.1326557547 3.567904875e-39
-0.002830730751 -0.3879366219 -0.1194079146 3.567904875e-39
-0.1155408248 -0.3948549926 0.4204627872 3.567904875e-39
-0.1031257361 -0.426514715 0.3274968266 3.567904875e-39
-0.02734295651 -0.748306632 -0.05810509622 3.567904875e-39
0.2366837412 -0.3247972131 -0.1598547548 3.567904875e-39
0.1411904544 -0.3603144586 0.1062791869 3.567904875e-39
0.1936757118 -0.4957822561 -0.06438263506 3.567904875e-39
0.2785550356 -0.5149424672 0.1120794863 3.75229193e-39
0.02332399413 -0.7204776406 -0.2448445559 3.75229193e-39
0.0698537454 -0.3740312159 -0.1270900369 3.75229193e-39
0.008807586506 -0.3856555223 -0.1317214519 3.75229193e-39
0.2193593681 -0.4771263003 0.007174551487 3.75229193e-39
-0.04376973584 -0.740136385 -0.12544626 3.75229193e-39
0.2330498695 -0.4793243408 0.02899877727 3.75229193e-39
0.1150439382 -0.7545683384 0.04541002214 3.75229193e-39
0.2403261065 -0.3893567622 0.295262605 3.936320254e-39
-0.05491996184 -0.3893576562 -0.142707333 3.936320254e-39
0.141874522 -0.3618074954 0.1176584139 3.936320254e-39
0.2930545509 -0.3383441269 -0.06309989095 3.936320254e-39
-0.1150933132 -0.4087299407 0.3904777169 3.936320254e-39
0.2697531879 -0.7600419521 0.1479908377 3.936320254e-39
-0.01583719626 -0.387231648 -0.1298528463 3.936320254e-39
0.2507639825 -0.242120862 -0.169030875 3.936320254e-39
0.07739268988 -0.7554394603 0.03683368862 4.120708711e-39
-0.1282087713 -0.3865531087 0.1535897851 4.120708711e-39
-0.055604022 -0.3878646195 -0.15408656 4.120708711e-39
0.2495141178 -0.2329438329 -0.1711071879 4.120708711e-39
-0.04034942761 -0.7476016283 -0.06855003536 4.120708711e-39
-0.09102135152 -0.3827829957 -0.1263233274 4.120708711e-39
-0.0259748362 -0.7512927055 -0.03534662724 4.120708711e-39
-0.04650598392 -0.734164238 -0.1709632576 4.120708711e-39
0.2923704684 -0.3368510902 -0.07447914779 4.304737034e-39
0.2083702385 -0.5472019315 0.1239142269 4.304737034e-39
-0.0390589647 -0.3898438811 -0.06606321037 4.304737034e-39
-0.04122943059 -0.3915556669 -0.120883137 4.304737034e-39
-0.1172544733 -0.3827789724 0.1298970133 4.304737034e-39
0.2207248807 -0.3336766958 0.006628785282 4.304737034e-39
0.03288655728 -0.3763954043 -0.1242871284 4.304737034e-39
-0.1268406361 -0.3895391822 0.1763483137 4.304737034e-39
-0.1153298691 -0.4211118519 0.3491133451 4.48912409e-39
-0.04191349074 -0.3900626302 -0.132262364 4.48912409e-39
0.1697149724 -0.4988514185 -0.0511347875 4.48912409e-39
0.2773051858 -0.5057654381 0.1100031883 4.48912409e-39
0.1581830382 -0.3761686385 0.1643174291 4.48912409e-39
-0.07869897783 -0.3819949329 -0.1272576302 4.48912409e-39
0.2532636523 -0.2604749203 -0.1648782641 4.48912409e-39
-0.04042708501 -0.3868578076 -0.08882170916 4.48912409e-39
-0.1179385334 -0.3812859356 0.1185177788 4.673152414e-39
0.2465064377 -0.305655092 -0.1649416685 4.673152414e-39
-0.05337013677 -0.381911844 -0.1177470088 4.673152414e-39
-0.03555169702 -0.7303900719 -0.1946560591 4.673152414e-39
0.05687084794 -0.7106482387 -0.3045437038 4.673152414e-39
-0.1323131323 -0.3775948584 0.08531431854 4.673152414e-39
0.2474244237 -0.4830153584 0.06220217049 4.673152414e-39
0.2753712833 -0.4950953722 0.09654761851 4.673152414e-39
-0.1302609444 -0.3820739985 0.1194520742 4.857539469e-39
0.1451765597 -0.3754636645 0.1538724899 4.857539469e-39
-0.1316290796 -0.3790878952 0.09669355303 4.857539469e-39
-0.1160139292 -0.4196188152 0.3377341032 4.857539469e-39
-0.05472398922 -0.7439105511 -0.1017534956 4.857539469e-39
0.2574554682 -0.3436943889 -0.03753847629 4.857539469e-39
0.2525795996 -0.2589818835 -0.176257506 4.857539469e-39
0.2451330721 -0.3444824517 -0.03660417348 4.857539469e-39
-0.05335586146 -0.7468966246 -0.07899496704 5.041567793e-39
-0.1247884557 -0.3940182924 0.2104860246 5.041567793e-39
0.2690938413 -0.3414132893 -0.04985204712 5.041567793e-39
0.2800480723 -0.337639153 -0.07354484499 5.041567793e-39
0.1048870161 -0.3609969616 -0.1433485001 5.041567793e-39
-0.05405419692 -0.3804188073 -0.1291262507 5.041567793e-39
-0.1180661097 -0.4151396751 0.3035963178 5.041567793e-39
-0.0389813073 -0.7505877018 -0.04579156637 5.041567793e-39
0.2050682008 -0.5335457921 0.08770015836 5.225597518e-39
0.1917418242 -0.4851121306 -0.077838175 5.225597518e-39
-0.004080573097 -0.3787595928 -0.12148422 5.225597518e-39
0.2004006058 -0.3286544383 -0.1456726044 5.225597518e-39
0.1410568058 -0.7559782863 0.06629990041 5.225597518e-39
-0.1028891876 -0.4141328037 0.3688611984 5.225597518e-39
0.2550792992 -0.2773359418 -0.1721048951 5.225597518e-39
-0.0006367266178 -0.723546803 -0.2315967083 5.225597518e-39
0.1394582391 -0.4035640359 0.2272348702 5.409984573e-39
0.2047209293 -0.7565170527 0.09576611221 5.409984573e-39
0.2396914214 -0.252085954 -0.1660202742 5.409984573e-39
0.2397603244 -0.3816727698 0.3045655191 5.409984573e-39
0.0657543689 -0.7577205896 0.04914723337 5.409984573e-39
-0.05882835761 -0.7349523306 -0.1700289547 5.409984573e-39
0.1821556389 -0.4918723702 -0.03138692677 5.409984573e-39
0.2444490045 -0.3429894149 -0.04798343778 5.409984573e-39
0.1807875186 -0.4888862967 -0.05414539576 5.594012897e-39
0.1458606124 -0.3769567013 0.1652517319 5.594012897e-39
-0.02392264828 -0.7557717562 -0.001208871603 5.594012897e-39
0.1283023059 -0.353418529 0.1165164188 5.594012897e-39
-0.1117819846 -0.3947232962 0.2209310085 5.594012897e-39
0.1789718717 -0.4720252752 -0.04691877216 5.594012897e-39
0.2231115103 -0.3164082468 -0.16099675 5.594012897e-39
0.1646833271 -0.3401956558 -0.1407933831 5.594012897e-39
-0.05685386434 -0.3786876202 -0.1561628729 5.77804122e-39
0.2351020426 -0.4838034511 0.0631364733 5.77804122e-39
0.1755515784 -0.4645600915 -0.1038150042 5.77804122e-39
-0.06019647792 -0.7319662571 -0.1927874535 5.77804122e-39
0.1802217215 -0.4812023044 -0.04484246671 5.77804122e-39
0.1809057891 -0.4826953411 -0.03346323967 5.77804122e-39
-0.0369291231 -0.755066812 -0.01165381074 5.77804122e-39
-0.03813834861 -0.3789549768 -0.01331959292 5.77804122e-39
0.1595511734 -0.3791547418 0.1870759428 5.962428276e-39
-0.1158956587 -0.4134278297 0.3584162593 5.962428276e-39
-0.111097917 -0.3962163329 0.2323102355 5.962428276e-39
0.2630489171 -0.4958834648 0.09748192132 5.962428276e-39
0.1068413183 -0.3748417497 0.1339169145 5.962428276e-39
0.1815898567 -0.4841883779 -0.02208393812 5.962428276e-39
0.2437649369 -0.3414963782 -0.05936267227 5.962428276e-39
0.2677257061 -0.3384272158 -0.07261054218 5.962428276e-39
-0.1280904859 -0.3803621531 0.1742720157 6.1464566e-39
-0.03882240877 -0.3774619401 -0.02469882742 6.1464566e-39
0.2457924783 -0.7631111145 0.1612386853 6.1464566e-39
-0.04099287465 -0.3791737854 -0.07951875031 6.1464566e-39
0.2114731371 -0.3186893463 -0.1486832052 6.1464566e-39
0.2494766116 -0.4874944687 0.09633992612 6.1464566e-39
-0.1356151551 -0.363938719 0.04910028726 6.1464566e-39
-0.06694236398 -0.3735228479 -0.1188890114 6.1464566e-39
0.04395914823 -0.3664303124 -0.1272977442 6.330484923e-39
-0.001320786774 -0.7220537663 -0.2429759502 6.330484923e-39
0.243440941 -0.2796170413 -0.1597913504 6.330484923e-39
-0.07994882762 -0.372817874 -0.1293339431 6.330484923e-39
0.1757558584 -0.3302305639 -0.1438039988 6.330484923e-39
0.06791983545 -0.36336115 -0.1405455917 6.330484923e-39
0.2107890695 -0.3171963096 -0.1600624472 6.330484923e-39
0.1282819211 -0.3502438366 -0.1472934037 6.330484923e-39
0.2402572185 -0.2597699463 -0.1753232032 6.514514648e-39
0.2225457281 -0.3087242544 -0.151693821 6.514514648e-39
-0.1169089451 -0.3918689191 0.3977043033 6.514514648e-39
0.1670696735 -0.7573882341 0.08718980849 6.514514648e-39
0.2218616605 -0.3072312176 -0.1630730629 6.514514648e-39
0.178051278 -0.4829141498 -0.09966239333 6.514514648e-39
0.1745034009 -0.5093026757 0.02851991355 6.514514648e-39
0.2554032803 -0.3392152786 -0.07167623937 6.514514648e-39
-0.1349311024 -0.3654317558 0.06047955155 6.698542971e-39
-0.1165797189 -0.411934793 0.3470370173 6.698542971e-39
0.2261192054 -0.2436969876 -0.1671622694 6.698542971e-39
0.1658471674 -0.4775112271 -0.07804587483 6.698542971e-39
-0.06088053808 -0.7304731607 -0.2041666955 6.698542971e-39
0.1712013781 -0.4956465364 -0.007694095373 6.698542971e-39
-0.05536747351 -0.3754827082 -0.112722218 6.698542971e-39
0.09451894462 -0.3756298125 0.1348512173 6.698542971e-39
0.2341541201 -0.7653922439 0.17355223 6.882571295e-39
0.2064363211 -0.5365318656 0.1104586869 6.882571295e-39
-0.1198724359 -0.37061584 0.1050622389 6.882571295e-39
-0.1342470348 -0.3669247925 0.07185878605 6.882571295e-39
0.2323684245 -0.2895821333 -0.1567807347 6.882571295e-39
0.009633467533 -0.7182796001 -0.2666687369 6.882571295e-39
-0.05605153367 -0.3739896715 -0.1241014451 6.882571295e-39
0.2054296881 -0.3408744931 -0.07931826264 6.882571295e-39
0.1505307555 -0.3935989141 0.2242242694 7.066599618e-39
-0.1206840873 -0.4029765427 0.2787615657 7.066599618e-39
-0.04236099496 -0.3761876822 -0.1022772491 7.066599618e-39
-0.1190701053 -0.3659179509 0.1371236444 7.066599618e-39
0.1700697988 -0.4802785516 0.01091176271 7.066599618e-39
0.2664758563 -0.3292501867 -0.07468685508 7.066599618e-39
-0.01765282452 -0.3703706264 -0.1226262227 7.066599618e-39
0.01863027178 -0.3665134013 -0.1368083805 7.066599618e-39
0.2371542305 -0.4882825613 0.09727422893 7.250627941e-39
-0.1177019775 -0.3689040244 0.159882158 7.250627941e-39
0.2095392346 -0.3080192804 -0.1621387601 7.250627941e-39
-0.1193159595 -0.4059626162 0.30151999 7.250627941e-39
0.1881939024 -0.5115007162 0.05034413934 7.250627941e-39
-0.04925149307 -0.755854845 -0.01071950793 7.250627941e-39
-0.1313925236 -0.3667060137 0.1380579472 7.250627941e-39
-0.10413903 -0.4049557745 0.3667848706 7.250627941e-39
-0.02255452797 -0.7587578297 0.02154959738 7.434656265e-39
-0.04007225856 -0.3682849109 -0.02677513286 7.434656265e-39
0.2038183659 -0.524368763 0.08562384546 7.434656265e-39
0.06987413019 -0.3772059381 0.1367198229 7.434656265e-39
0.1843260974 -0.4901605248 0.02343299985 7.434656265e-39
0.1837603152 -0.4824765921 0.0327359885 7.434656265e-39
-0.04075631872 -0.3667918742 -0.03815439716 7.434656265e-39
0.2378382981 -0.489775598 0.1086534709 7.434656265e-39
0.1479128003 -0.3814358413 0.1993894875 7.618684588e-39
-0.1076776162 -0.4036815166 0.2892064452 7.618684588e-39
0.2229354382 -0.2238498926 -0.1826941222 7.618684588e-39
0.06735405326 -0.3556771576 -0.1312426478 7.618684588e-39
0.2241478115 -0.4875775576 0.0868293047 7.618684588e-39
0.21537067 -0.3155414164 -0.063722983 7.618684588e-39
0.1088934988 -0.3793208599 0.1680546403 7.618684588e-39
0.1979009211 -0.31030038 -0.1498252153 7.618684588e-39
-0.1375490725 -0.3532686532 0.03564473987 7.802712912e-39
-0.05364451185 -0.3598959446 -0.02791713551 7.802712912e-39
-0.1204219162 -0.3519559503 0.4328398108 7.802712912e-39
0.2827317715 -0.203048557 -0.1801390201 7.802712912e-39
0.2089734524 -0.300335288 -0.152835831 7.802712912e-39
-0.1171455011 -0.4042508006 0.3563399315 7.802712912e-39
-0.1052705944 -0.3895878196 0.3853907585 7.802712912e-39
0.08356463164 -0.3794039488 0.158544004 7.802712912e-39
0.2193619907 -0.2888771594 -0.1672256738 7.986382503e-39
0.0712422505 -0.3801920116 0.1594783068 7.986382503e-39
-0.02596556768 -0.7236298919 -0.2411073446 7.986382503e-39
0.1914959401 -0.525156796 0.08655814826 7.986382503e-39
-0.1080995053 -0.3511678874 0.431905508 7.986382503e-39
0.2082893848 -0.2988422513 -0.1642150581 7.986382503e-39
-0.08119866997 -0.3636408746 -0.131410256 7.986382503e-39
0.1153937802 -0.3433479071 -0.1370561719 7.986382503e-39
0.01990368776 -0.7130124569 -0.3017407954 8.170410826e-39
-0.1239861101 -0.3893204033 0.2425474823 8.170410826e-39
0.2023642361 -0.3148364425 -0.07416795194 8.170410826e-39
0.1817915142 -0.5381079912 0.1123272926 8.170410826e-39
0.04270930588 -0.3572532833 -0.1293740571 8.170410826e-39
-0.1178295612 -0.4027577639 0.3449606895 8.170410826e-39
0.2405811995 -0.3216492832 -0.07489454746 8.170410826e-39
0.2403379977 -0.5081296563 0.1128060967 8.170410826e-39
0.219779551 -0.7617012262 0.140348807 8.35443915e-39
0.2255159318 -0.4905636311 0.1095877737 8.35443915e-39
-0.05581497774 -0.36160779 -0.0827370584 8.35443915e-39
0.2390881479 -0.4989526272 0.1107297689 8.35443915e-39
-0.1361809522 -0.3562547266 0.05840323865 8.35443915e-39
0.1614995599 -0.3203485608 -0.156325236 8.35443915e-39
0.2002245486 -0.2360960841 -0.1673699766 8.35443915e-39
-0.05626247451 -0.3477328718 -0.05275193974 8.35443915e-39
0.2162965089 -0.2628390789 -0.1620753556 8.538467473e-39
-0.05730137601 -0.3648126423 -0.1261777431 8.538467473e-39
0.2211476713 -0.7646872997 0.1631072909 8.538467473e-39
0.1387886703 -0.3325947523 -0.1410010904 8.538467473e-39
-0.04325600341 -0.3484378457 -0.04230700806 8.538467473e-39
-0.1055071503 -0.4019697011 0.3440263867 8.538467473e-39
0.1966510713 -0.3011233509 -0.1519015282 8.538467473e-39
-0.05649903789 -0.3601147532 -0.09411633015 8.538467473e-39
-0.1216717586 -0.3427789211 0.430763483 8.722137064e-39
0.1895620227 -0.5144867897 0.07310260832 8.722137064e-39
0.2187962085 -0.281193167 -0.1579227448 8.722137064e-39
0.2020401657 -0.2529571056 -0.1745965928 8.722137064e-39
-0.05798543617 -0.3633196056 -0.137556985 8.722137064e-39
0.1765555888 -0.513781786 0.06265766919 8.722137064e-39
0.1726877838 -0.4924416542 0.0357465893 8.722137064e-39
0.2067731172 -0.7609962225 0.1299038976 8.722137064e-39
-0.02664962783 -0.7221368551 -0.2524865866 8.906165387e-39
-0.0568282567 -0.3400488496 -0.0434490107 8.906165387e-39
0.09074895829 -0.3449240327 -0.1351875663 8.906165387e-39
-0.1348128319 -0.3592408001 0.08116170764 8.906165387e-39
-0.1266040951 -0.3771573007 0.2177127004 8.906165387e-39
-0.1231744736 -0.3569597006 0.06884817034 8.906165387e-39
-0.03122504428 -0.3619816601 -0.1237682253 8.906165387e-39
0.1872180998 -0.2353911102 -0.1778149009 8.906165387e-39
-0.05718309805 -0.3586216867 -0.1054955572 9.089834978e-39
0.2340079993 -0.2138848007 -0.1857047379 9.089834978e-39
0.2032525837 -0.5166847706 0.09492681921 9.089834978e-39
-0.01890266873 -0.3611935973 -0.1247025281 9.089834978e-39
-0.1224904135 -0.3584527373 0.08022740483 9.089834978e-39
0.2267657816 -0.4997406602 0.1116640717 9.089834978e-39
-0.1096115187 -0.3930114508 0.2757509351 9.089834978e-39
-0.03190910816 -0.3604886234 -0.1351474673 9.089834978e-39
0.2058705539 -0.5288478732 0.1197616011 9.273863302e-39
-0.1333264261 -0.3560359478 0.1246023923 9.273863302e-39
0.0979392454 -0.383095026 0.1917474568 9.273863302e-39
0.1978710592 -0.7692494988 0.1877344102 9.273863302e-39
0.09006489813 -0.3434309959 -0.1465668082 9.273863302e-39
0.05548415706 -0.7629877329 0.08421929181 9.273863302e-39
0.1858124882 -0.4869557023 0.06687369943 9.273863302e-39
-0.04566302523 -0.3625315428 -0.1384912878 9.273863302e-39
-0.1387989074 -0.344091624 0.03356843442 9.457532893e-39
-0.1340104789 -0.3545429111 0.1132231653 9.457532893e-39
0.1755798012 -0.2376721799 -0.165501371 9.457532893e-39
0.2088252902 -0.7654753327 0.1640415937 9.457532893e-39
0.1805416793 -0.5289309621 0.1102509648 9.457532893e-39
0.193548128 -0.5296359062 0.1206959039 9.457532893e-39
-0.04632147774 -0.3223997951 -0.03715666756 9.457532893e-39
0.1486113667 -0.3134526014 -0.1460880041 9.457532893e-39
-0.1381148547 -0.3455846608 0.04494766891 9.641561216e-39
-0.1248555183 -0.3229317963 0.4152315855 9.641561216e-39
-0.1070862189 -0.3727267981 0.3926174045 9.641561216e-39
-0.06399810314 -0.3050525784 -0.1065741628 9.641561216e-39
0.08630087972 -0.3853761256 0.2040610015 9.641561216e-39
0.1368547529 -0.3219246864 -0.1544566303 9.641561216e-39
-0.04655803367 -0.3347816765 -0.07852104306 9.641561216e-39
-0.1189611331 -0.3873897791 0.3635665774 9.641561216e-39
-0.04712381586 -0.3270976841 -0.06921811402 9.825230807e-39
-0.04768959805 -0.3194136918 -0.05991516635 9.825230807e-39
0.2081412375 -0.763982296 0.1526623517 9.825230807e-39
0.2008711696 -0.4921397567 0.1114563793 9.825230807e-39
0.1134598628 -0.3326778114 -0.1505117267 9.825230807e-39
-0.06013028696 -0.3263927102 -0.07966305315 9.825230807e-39
0.1830788702 -0.2927343845 -0.1530435234 9.825230807e-39
0.1734901071 -0.4877437353 0.06780800223 9.825230807e-39
-0.02050234377 -0.7632369995 0.05568735301 1.000925913e-38
-0.06194591895 -0.3095317185 -0.07243642211 1.000925913e-38
0.03083937429 -0.7645638585 0.08608789742 1.000925913e-38
0.1786077768 -0.5182608962 0.09679542482 1.000925913e-38
0.1061418056 -0.7628215551 0.1032405645 1.000925913e-38
-0.04825538024 -0.3117297292 -0.05061223358 1.000925913e-38
-0.04611052945 -0.3486565948 -0.1085061729 1.000925913e-38
-0.06411638856 -0.3112435043 -0.1272563487 1.000925913e-38
0.06669037044 -0.3573588431 0.1211879328 1.019292872e-38
0.2814819515 -0.1938715279 -0.1822153181 1.019292872e-38
-0.1212242618 -0.3566538393 0.4007783532 1.019292872e-38
0.1871806234 -0.4899417758 0.08963221312 1.019292872e-38
-0.01637940854 -0.7168696523 -0.287558645 1.019292872e-38
-0.06045951322 -0.3063268363 -0.02899573371 1.019292872e-38
0.05061846226 -0.3306158185 0.1158933267 1.019292872e-38
0.1011374816 -0.3334658742 -0.1495774239 1.019292872e-38
-0.1155315191 -0.3671922088 0.2147020847 1.037659831e-38
-0.06218246743 -0.3219136 -0.113800779 1.037659831e-38
0.1821283698 -0.7625723481 0.1317725033 1.037659831e-38
0.06487474591 -0.3404978216 0.1284146011 1.037659831e-38
-0.1367467344 -0.3485707343 0.0677061677 1.037659831e-38
-0.06161669269 -0.3295975626 -0.1231037378 1.037659831e-38
-0.05980106816 -0.3464585841 -0.1303303689 1.037659831e-38
-0.04554475471 -0.3563405871 -0.1178091317 1.037659831e-38
0.02913702093 -0.3488643169 -0.1305160522 1.056062664e-38
0.07136052102 -0.374001056 0.1801604629 1.056062664e-38
-0.1206584722 -0.3643378317 0.3914753795 1.056062664e-38
-0.05304381624 -0.3012784421 -0.1302669644 1.056062664e-38
-0.05155741051 -0.2980735898 -0.08682627231 1.056062664e-38
0.01851699688 -0.7653518915 0.08702220023 1.056062664e-38
-0.06182763353 -0.3033407629 -0.0517542325 1.056062664e-38
-0.06548450887 -0.3082574308 -0.1500148177 1.056062664e-38
-0.05087335035 -0.2995666265 -0.07544703782 1.074429623e-38
-0.1325240731 -0.3513380587 0.1566638499 1.074429623e-38
-0.1360626668 -0.350063771 0.07908540219 1.074429623e-38
-0.0473603718 -0.3394795954 -0.1105824709 1.074429623e-38
-0.1083360612 -0.3635497689 0.3905410767 1.074429623e-38
0.1337748021 -0.3653628528 0.2075504065 1.074429623e-38
-0.1271698624 -0.3694733083 0.2270156294 1.074429623e-38
-0.1188335419 -0.3535360694 0.178488031 1.074429623e-38
0.06624287367 -0.3434838951 0.151173085 1.092796582e-38
0.08881504834 -0.334253937 -0.1486431062 1.092796582e-38
-0.04861021414 -0.3303025663 -0.1126587838 1.092796582e-38
-0.1088091806 -0.3883135617 0.3078123331 1.092796582e-38
-0.05497771874 -0.2906083763 -0.1437225044 1.092796582e-38
-0.06581373513 -0.2881915569 -0.09934751689 1.092796582e-38
-0.045481354 -0.3520996571 -0.1362894624 1.092796582e-38
-0.06185324863 -0.3419794738 -0.1644680947 1.092796582e-38
0.1786452532 -0.2637102306 -0.1706516892 1.111163541e-38
-0.0556617789 -0.2891153395 -0.1551017463 1.111163541e-38
-0.06423465908 -0.3174344599 -0.1479385197 1.111163541e-38
0.1743299514 -0.2284951806 -0.167577669 1.111163541e-38
-0.1419826597 -0.3242444992 0.01803656109 1.111163541e-38
-0.06366887689 -0.3251184523 -0.1572414786 1.111163541e-38
-0.06491872668 -0.3159414232 -0.1593177766 1.111163541e-38
-0.06241903082 -0.3342955112 -0.1551651657 1.111163541e-38
0.03579639643 -0.313049823 0.1126750037 1.1295305e-38
-0.1132171676 -0.3206506968 0.4029180408 1.1295305e-38
-0.06560277939 -0.3144483864 -0.1706970185 1.1295305e-38
-0.03247489035 -0.352804631 -0.1258445382 1.1295305e-38
-0.04929428175 -0.3288094997 -0.1240380406 1.1295305e-38
0.05267065018 -0.3350949287 0.1500310898 1.1295305e-38
-0.07060216367 -0.2777402699 -0.1790022403 1.1295305e-38
0.1005716994 -0.3257819116 -0.14027448 1.1295305e-38
-0.1432325095 -0.3150674701 0.01596025564 1.147897319e-38
-0.1235036924 -0.3368938267 0.1195154935 1.147897319e-38
-0.04828099534 -0.3503684402 -0.1633260995 1.147897319e-38
-0.1141633913 -0.3701782823 0.2374605685 1.147897319e-38
-0.06718185544 -0.2852054834 -0.1221060157 1.147897319e-38
-0.05075507239 -0.2933756411 -0.0547648482 1.147897319e-38
0.03773030639 -0.3237198889 0.1261306107 1.147897319e-38
0.1239666119 -0.3150287271 -0.1442193985 1.147897319e-38
-0.1224741042 -0.3474768102 0.3987020254 1.166264278e-38
-0.1246352643 -0.321525842 0.1381213367 1.166264278e-38
-0.1444823593 -0.3058904409 0.01388395019 1.166264278e-38
-0.05143913254 -0.2918826044 -0.06614407897 1.166264278e-38
0.01613058709 -0.348159343 -0.1409609765 1.166264278e-38
0.06749271601 -0.3526609242 0.153249383 1.166264278e-38
-0.007830105722 -0.3512285054 -0.1277131438 1.166264278e-38
-0.1296602488 -0.3234564364 0.01710225828 1.166264278e-38
0.2100472897 -0.2169539332 -0.1724568903 1.184631237e-38
-0.1236219704 -0.3430847824 0.09883332253 1.184631237e-38
0.09988763183 -0.3242888749 -0.1516537219 1.184631237e-38
-0.04884677753 -0.3426844478 -0.1540231705 1.184631237e-38
0.1068258733 -0.7643146515 0.1146198064 1.184631237e-38
0.1615879238 -0.7731066942 0.2019165605 1.184631237e-38
0.166322872 -0.2644982934 -0.1697173864 1.184631237e-38
-0.04514712468 -0.7648131251 0.05755595863 1.184631237e-38
-0.1330898553 -0.3436540365 0.165966779 1.202998196e-38
-0.1278190166 -0.3016787469 0.1225894988 1.202998196e-38
0.1152177081 -0.2507895529 -0.1587535441 1.202998196e-38
-0.08369835466 -0.3452867866 -0.1355628669 1.202998196e-38
-0.1251176894 -0.3739524186 0.2611533403 1.202998196e-38
-0.127134949 -0.3031717837 0.1339687258 1.202998196e-38
-0.05417538062 -0.2859104574 -0.1116610765 1.202998196e-38
0.05253198743 -0.3381111622 -0.1344609559 1.202998196e-38
-0.07069189101 -0.3459917605 -0.1251179278 1.221365155e-38
-0.05134646222 -0.3243303895 -0.1581757665 1.221365155e-38
-0.1386806369 -0.3379006982 0.05425062776 1.221365155e-38
-0.1462979764 -0.2890294492 0.02111060172 1.221365155e-38
-0.1332914978 -0.2897344232 0.03155552968 1.221365155e-38
-0.05203052238 -0.3228373528 -0.1695550084 1.221365155e-38
0.1897985935 -0.5021048784 0.1144669801 1.221365155e-38
-0.05485944077 -0.2844174206 -0.1230403185 1.221365155e-38
-0.05622756854 -0.2814313173 -0.1457988173 1.239732115e-38
-0.05078068003 -0.3320144117 -0.1674787104 1.239732115e-38
-0.136391893 -0.3299978971 0.1297527254 1.239732115e-38
0.0390984267 -0.3267059624 0.1488890648 1.239732115e-38
-0.05328036472 -0.3136603236 -0.1716313213 1.239732115e-38
0.1116442457 -0.3158167899 -0.1432850957 1.239732115e-38
-0.1286213547 -0.3063766658 0.09052809328 1.239732115e-38
0.0371645242 -0.3160358965 0.1354335248 1.239732115e-38
-0.07137595117 -0.3444987237 -0.1364971697 1.258099074e-38
0.1682567894 -0.2751683891 -0.1562618315 1.258099074e-38
0.05448627472 -0.3519559503 0.1428044438 1.258099074e-38
0.1688225716 -0.2828523517 -0.1655647755 1.258099074e-38
-0.1126513854 -0.3283346891 0.3936151266 1.258099074e-38
-0.136628449 -0.3423798084 0.08838833123 1.258099074e-38
-0.1248718128 -0.3339077234 0.09675701708 1.258099074e-38
-0.01913421974 -0.766223073 0.0784458369 1.258099074e-38
0.07079474628 -0.3663170934 0.1894634664 1.276466033e-38
0.08863905072 -0.2416955829 -0.1703404784 1.276466033e-38
-0.1314758807 -0.3065954149 0.02432890236 1.276466033e-38
0.1704899818 -0.7648534775 0.144086048 1.276466033e-38
-0.1093749627 -0.3806295693 0.3171152472 1.276466033e-38
-0.1232671365 -0.3245119154 0.1608798653 1.276466033e-38
-0.1343397051 -0.3344770074 0.163890481 1.276466033e-38
-0.1409437656 -0.3071647286 0.09146240354 1.276466033e-38
0.06592814624 -0.2539417744 -0.155016318 1.294832852e-38
0.06360451877 -0.3281460702 -0.1374715716 1.294832852e-38
-0.123065494 -0.3784315288 0.2952911258 1.294832852e-38
-0.1231652051 -0.3292969167 -0.1369125694 1.294832852e-38
-0.1387732923 -0.3054528832 0.1462823302 1.294832852e-38
-0.05905357748 -0.3437106907 -0.1374314725 1.294832852e-38
-0.1373125166 -0.3408867717 0.07700909674 1.294832852e-38
0.1725421697 -0.7693325281 0.178223744 1.294832852e-38
-0.1282921284 -0.3264425397 0.03986075521 1.313163938e-38
-0.04170824587 -0.7169527411 -0.2970692515 1.313163938e-38
-0.07185201347 -0.2685632706 -0.1810785383 1.313163938e-38
-0.1399304718 -0.3287236392 0.05217432231 1.313163938e-38
-0.1255558878 -0.3324146867 0.08537772298 1.313163938e-38
-0.1435617357 -0.2950015962 0.0666275695 1.313163938e-38
-0.1287396401 -0.3125675917 0.06984587014 1.313163938e-38
-0.1359094828 -0.2775712907 0.006720722653 1.313163938e-38
0.1490011215 -0.2285782695 -0.1770883054 1.331530897e-38
-0.0972705707 -0.33689785 -0.1367048621 1.331530897e-38
0.05128214508 -0.3289341331 -0.1365372688 1.331530897e-38
0.1157834753 -0.2584735155 -0.1680564731 1.331530897e-38
-0.1482318938 -0.2783593535 0.007655029185 1.331530897e-38
-0.1413912773 -0.2932897508 0.1214474887 1.331530897e-38
-0.05063679442 -0.2871847153 -0.03408265114 1.331530897e-38
0.1565001905 -0.2836404145 -0.1646304727 1.331530897e-38
-0.1378782988 -0.3332027495 0.08631202579 1.349897856e-38
-0.06774763763 -0.2775214911 -0.1128030717 1.349897856e-38
-0.1427593976 -0.2903036773 0.09868901968 1.349897856e-38
-0.1277356446 -0.3617893457 0.2363185585 1.349897856e-38
-0.04673119634 -0.3429226279 -0.1383657753 1.349897856e-38
-0.1101587713 -0.3300018907 -0.1264676303 1.349897856e-38
-0.1225923821 -0.3536677659 0.3780198693 1.349897856e-38
0.07950036228 -0.2623307407 -0.1538743228 1.349897856e-38
-0.1454956383 -0.2843315303 0.05317202583 1.368228942e-38
0.03921670467 -0.3205150366 0.1695712507 1.368228942e-38
0.05665674061 -0.3502441347 0.1976243854 1.368228942e-38
-0.1238329187 -0.3168279529 0.1701827943 1.368228942e-38
-0.05337304249 -0.2812125683 -0.07959964871 1.368228942e-38
0.1103943959 -0.3066397905 -0.1453613937 1.368228942e-38
-0.1206491664 -0.3366750181 0.1857146472 1.368228942e-38
-0.05403066054 -0.7177407742 -0.2961349487 1.368228942e-38
0.1581676155 -0.7656415105 0.1450203508 1.386595901e-38
-0.1102699712 -0.352879703 0.3770855665 1.386595901e-38
-0.05405710265 -0.2797195315 -0.09097888321 1.386595901e-38
0.1373627633 -0.230859369 -0.1647747606 1.386595901e-38
0.04058483243 -0.3235011101 0.1923297644 1.386595901e-38
-0.06979982555 -0.2730423808 -0.1469408125 1.386595901e-38
-0.1173471361 -0.3503311872 0.2219287157 1.386595901e-38
0.003066355363 -0.2487050593 -0.1524211168 1.386595901e-38
0.0572225228 -0.3579281271 0.1883214414 1.404926846e-38
-0.1296695471 -0.3511192501 0.2228630185 1.404926846e-38
-0.02140235715 -0.3428395391 -0.128855139 1.404926846e-38
-0.1322875172 -0.3389561176 0.1980281919 1.404926846e-38
-0.1218990162 -0.3274979889 0.1836383343 1.404926846e-38
0.03021085821 -0.2654829919 -0.1501371115 1.404926846e-38
0.05753633752 -0.7674669027 0.1183570176 1.404926846e-38
0.09518755972 -0.7665957212 0.1269333214 1.404926846e-38
0.1718581021 -0.767839551 0.1668445021 1.423293806e-38
-0.1097041816 -0.3605636656 0.3677825928 1.423293806e-38
0.01595451869 -0.2556009889 -0.1626583487 1.423293806e-38
-0.05474116281 -0.278226465 -0.1023581177 1.423293806e-38
-0.1342214346 -0.3282860518 0.184572652 1.423293806e-38
-0.05952959135 -0.2677752078 -0.1820128411 1.423293806e-38
-0.1306642741 -0.2742347419 -0.1493704021 1.423293806e-38
-0.1192810461 -0.3396611214 0.2084731758 1.423293806e-38
0.1177173927 -0.2691435814 -0.1546009332 1.441624891e-38
0.1485814899 -0.7724017501 0.1914716512 1.441624891e-38
0.07399298996 -0.3166879416 -0.1518614143 1.441624891e-38
-0.1256834716 -0.366268456 0.2704563141 1.441624891e-38
-0.1351071298 -0.2728734016 0.03878218308 1.441624891e-38
0.06649392843 -0.2616257668 -0.1643192619 1.441624891e-38
-0.116663076 -0.351824224 0.2333079427 1.441624891e-38
0.1325394511 -0.2867095768 -0.1513826251 1.441624891e-38
-0.0215783976 -0.2502811849 -0.1505525112 1.459991851e-38
-0.09551274031 -0.255009532 -0.1449466795 1.459991851e-38
-0.1238422245 -0.3444907367 0.3759435415 1.459991851e-38
-0.1289854944 -0.3526122868 0.2342422456 1.459991851e-38
-0.1185969785 -0.3411541581 0.2198524028 1.459991851e-38
-0.09852042049 -0.3277207911 -0.138781175 1.459991851e-38
0.08286517859 -0.7673838139 0.1278676242 1.459991851e-38
-0.03283401951 -0.7916878462 0.2623824477 1.459991851e-38
-0.1091384068 -0.368247658 0.3584796786 1.478322936e-38
0.09307263047 -0.270719707 -0.1527323276 1.478322936e-38
0.07342720777 -0.3090039492 -0.1425584853 1.478322936e-38
0.007562741637 -0.7691260576 0.1107149869 1.478322936e-38
-0.1106248051 -0.37145257 0.3150389791 1.478322936e-38
-0.05747741088 -0.272254318 -0.1478751153 1.478322936e-38
-0.1115198135 -0.3437026739 0.3750092387 1.478322936e-38
0.1207828596 -0.2951816618 -0.1597512513 1.478322936e-38
-0.08551398665 -0.328425765 -0.1283362359 1.496689755e-38
0.02538748644 -0.3213332295 -0.1367449611 1.496689755e-38
-0.1220914274 -0.2459155917 -0.1565336138 1.496689755e-38
-0.06030341983 -0.3345336616 -0.1395077705 1.496689755e-38
-0.1205308959 -0.3304840922 0.2063968629 1.496689755e-38
-0.1316868216 -0.2803386152 0.09567841142 1.496689755e-38
-0.010329796 -0.3328744471 -0.1318657547 1.496689755e-38
-0.1179129183 -0.3426471949 0.2312316447 1.496689755e-38
-0.1296346486 -0.2848177254 0.1298161149 1.515020841e-38
0.2555872798 -0.1862706244 -0.1824230254 1.515020841e-38
-0.1159790158 -0.3533172607 0.2446871847 1.515020841e-38
-0.1294144243 -0.2834117711 -0.1472941041 1.515020841e-38
-0.1090849563 -0.2466205657 -0.1460886896 1.515020841e-38
-0.1426411122 -0.2841127515 0.1193711907 1.515020841e-38
0.1478974223 -0.7709087133 0.1800923496 1.515020841e-38
-0.07310184836 -0.2593862116 -0.1831548512 1.515020841e-38
0.04378307611 -0.2738719583 -0.1489951015 1.533351927e-38
-0.1281575412 -0.3092756271 0.3790175915 1.533351927e-38
-0.1227106601 -0.3598586917 0.3573376536 1.533351927e-38
-0.1109540313 -0.3513866365 0.365706265 1.533351927e-38
-0.07319158316 -0.3276377022 -0.1292705536 1.533351927e-38
-0.1440092325 -0.281126678 0.09661271423 1.533351927e-38
-0.1097690165 -0.2451275289 -0.1574679315 1.533351927e-38
0.01306510903 -0.3221212924 -0.1358106583 1.533351927e-38
-0.05922964215 -0.2511523068 -0.1591288298 1.551683013e-38
0.1129824221 -0.7777519822 0.2170330137 1.551683013e-38
0.07274314761 -0.3075109124 -0.1539377272 1.551683013e-38
-0.109822467 -0.3667546213 0.3471004367 1.551683013e-38
0.0961381197 -0.2967577875 -0.1578826457 1.551683013e-38
-0.127591759 -0.3169596493 0.3697146177 1.551683013e-38
0.001308521256 -0.3305933475 -0.1441792995 1.551683013e-38
-0.02333626151 -0.3321694732 -0.142310679 1.551683013e-38
-0.01101385709 -0.3313814104 -0.1432449967 1.570049832e-38
0.2081133872 -0.2062838972 -0.1859124303 1.570049832e-38
-0.004759661853 -0.7699141502 0.1116492897 1.570049832e-38
-0.09176320583 -0.2825406194 -0.1387177706 1.570049832e-38
0.06774377078 -0.2708027959 -0.162242949 1.570049832e-38
-0.03140111268 -0.269423306 -0.1454655826 1.570049832e-38
-0.1150327921 -0.3037896752 0.4101446867 1.570049832e-38
-0.1341031492 -0.3220951259 0.2052548677 1.570049832e-38
0.1600736529 -0.2186131477 -0.1800989062 1.588380918e-38
-0.1151581407 -0.2932938039 -0.1347728521 1.588380918e-38
-0.08137470484 -0.2710824907 -0.1531076133 1.588380918e-38
0.1355750561 -0.7716967463 0.1810266525 1.588380918e-38
-0.05604588985 -0.2709994316 -0.143596977 1.588380918e-38
0.1239367425 -0.7739778757 0.1933402568 1.588380918e-38
0.05985499173 -0.3006150126 -0.1437004954 1.588380918e-38
-0.1314851791 -0.3342582285 0.2300896496 1.588380918e-38
-0.1281645745 -0.29258883 -0.1452177912 1.606712004e-38
-0.1282665133 -0.2878037989 0.1525746435 1.606712004e-38
-0.07944080234 -0.2817525566 -0.1396520734 1.606712004e-38
-0.1262492537 -0.3585844338 0.2797592282 1.606712004e-38
0.01845420338 -0.2739550471 -0.1585057378 1.606712004e-38
-0.1122038737 -0.3422096372 0.3636299372 1.606712004e-38
-0.06905233115 -0.2702944279 -0.1540419161 1.606712004e-38
-0.03420214355 -0.7887017727 0.2396238893 1.606712004e-38
-0.1133425161 -0.3101548254 -0.1419994831 1.625043089e-38
-0.08444017917 -0.2450444698 -0.1479572952 1.625043089e-38
0.0475326106 -0.3014030755 -0.1427661926 1.625043089e-38
-0.125776127 -0.3338206708 0.3624879718 1.625043089e-38
-0.06711842865 -0.2809644938 -0.1405863762 1.625043089e-38
-0.1241970584 -0.3630635738 0.3138969541 1.625043089e-38
-0.1280392706 -0.3030847013 0.3996997476 1.625043089e-38
0.08131599426 -0.2791917622 -0.1611009389 1.625043089e-38
0.1348909885 -0.7702037096 0.1696474105 1.643374035e-38
-0.1139082983 -0.3024708033 -0.1326965392 1.643374035e-38
-0.1118746474 -0.362275511 0.3129626513 1.643374035e-38
0.06899362057 -0.279979825 -0.1601666361 1.643374035e-38
-0.06211905181 -0.3176726401 -0.1322811395 1.643374035e-38
-0.1275824606 -0.2892968357 0.1639538854 1.643374035e-38
-0.1242804304 -0.302952975 0.2001679391 1.643374035e-38
-0.1288416088 -0.3077825904 0.3676383495 1.643374035e-38
-0.03515064344 -0.2418922186 -0.1516945064 1.661705121e-38
-0.036908485 -0.3237805068 -0.1434526891 1.661705121e-38
0.1964750141 -0.2085649967 -0.1735988855 1.661705121e-38
-0.02458610758 -0.322992444 -0.1443869919 1.661705121e-38
-0.1327350289 -0.3250811994 0.2280133367 1.661705121e-38
-0.0604794845 -0.2419753075 -0.1612051427 1.661705121e-38
-0.1132427678 -0.3592894077 0.2902041674 1.661705121e-38
0.0842332989 -0.7703698874 0.1506261677 1.661705121e-38
0.2198699862 -0.197811842 -0.177543804 1.680036207e-38
-0.03583470732 -0.2403991818 -0.1630737484 1.680036207e-38
0.01577147841 -0.7870425582 0.24726592 1.680036207e-38
-0.1035197899 -0.2910127044 -0.1470863968 1.680036207e-38
0.01113120653 -0.3114512265 -0.1492662132 1.680036207e-38
-0.03747426718 -0.3160965145 -0.13414976 1.680036207e-38
-0.1158607379 -0.3471263051 0.2653694153 1.680036207e-38
0.2191859186 -0.1963188052 -0.1889230311 1.680036207e-38
0.0222037416 -0.3014861345 -0.152276814 1.698367293e-38
0.01056542434 -0.3037672341 -0.1399632692 1.698367293e-38
-0.01118992362 -0.2388230562 -0.164942354 1.698367293e-38
-0.04315770417 -0.2778953314 -0.1538342237 1.698367293e-38
-0.06586857885 -0.2901415527 -0.1385100633 1.698367293e-38
-0.1124404296 -0.3545915186 0.322265625 1.698367293e-38
0.009614927694 -0.7736052275 0.1448527426 1.698367293e-38
0.04559870809 -0.2907329798 -0.1562217325 1.698367293e-38
-0.076375328 -0.307790637 -0.1448023915 1.716698239e-38
-0.1128879413 -0.3407166004 0.3522507548 1.716698239e-38
-0.07435169816 -0.2502092123 -0.1852311641 1.716698239e-38
-0.05354620516 -0.2893534899 -0.1394443661 1.716698239e-38
-0.1326167434 -0.3188902438 0.2486955076 1.716698239e-38
-0.1261309683 -0.352393508 0.3004414439 1.716698239e-38
