# .PCD v0.7 - Point Cloud Data file format
VERSION 0.7
FIELDS x y z rgb
SIZE 4 4 4 4
TYPE F F F F
COUNT 1 1 1 1
WIDTH 835
HEIGHT 1
VIEWPOINT 0 0 0 1 0 0 0
POINTS 835
DATA ascii
0.1060133129 -0.3142816424 -0.02401251718 1.349897856e-38
0.1327325404 -0.2540146112 0.2565943003 1.349897856e-38
0.04886903614 -0.3796852827 -0.09386538714 1.349897856e-38
0.04357971251 -0.3229176104 -0.05141796917 1.349897856e-38
0.09274285287 -0.3923008442 0.01714472473 1.349897856e-38
0.2010763735 -0.3327060342 0.1552481651 1.349897856e-38
0.06822382659 -0.3213368952 -0.05328720063 1.349897856e-38
0.1380042583 -0.2412408292 -0.2201815844 1.368228942e-38
0.1741619855 -0.3762776554 -0.06906735897 1.368228942e-38
0.1758948117 -0.2926560938 -0.01866945624 1.368228942e-38
0.2210875005 -0.2853907943 0.1920918077 1.368228942e-38
0.1778345853 -0.3033348918 -0.005222423933 1.368228942e-38
-0.009446594864 -0.1934090257 0.3016755879 1.368228942e-38
-0.06572456658 -0.4192650318 0.35779351 1.368228942e-38
0.1844698042 -0.2643252909 -0.02580102533 1.368228942e-38
0.1713452637 -0.235850662 -0.2420475632 1.386595901e-38
-0.019863341 -0.2079881728 -0.2590537071 1.386595901e-38
0.163744092 -0.2889722288 -0.05557968467 1.386595901e-38
0.1584649533 -0.2289595306 -0.2317971885 1.386595901e-38
0.277150929 -0.3033988178 0.2814702094 1.386595901e-38
0.1924657375 -0.2622621655 0.1614857167 1.386595901e-38
-0.201465264 -0.4744459093 0.1760336906 1.386595901e-38
0.2087654471 -0.2861811519 0.1930264235 1.386595901e-38
0.1217919588 -0.2578023076 0.2802916765 1.404926846e-38
-0.2325131744 -0.7426601648 -0.1794802994 1.404926846e-38
0.07167765498 -0.3288302124 0.003619780764 1.404926846e-38
-0.07217226923 -0.2838824689 -0.2492368519 1.404926846e-38
-0.0230176989 -0.1850192547 0.30054456 1.404926846e-38
0.1866820306 -0.3290003836 0.122038573 1.404926846e-38
0.0935587585 -0.3212548196 -0.04377504438 1.404926846e-38
0.1908474118 -0.3040432036 0.00522437226 1.404926846e-38
0.08747438341 -0.3015840054 -0.1255104691 1.423293806e-38
0.09979642928 -0.3007936478 -0.1264450848 1.423293806e-38
0.04219818115 -0.3199202716 -0.07418076694 1.423293806e-38
-0.1926721931 -0.7740501165 0.06904119253 1.423293806e-38
0.08330894262 -0.3265411854 -0.008696243167 1.423293806e-38
0.07444348186 -0.2652179897 -0.2625178397 1.423293806e-38
0.1895983964 -0.294863075 0.003158725332 1.423293806e-38
-0.2241041362 -0.4464013577 0.362693429 1.423293806e-38
0.1808344573 -0.2645511925 0.1738017797 1.441624891e-38
0.01894457638 -0.2193687558 0.3060033023 1.441624891e-38
-0.01388550922 -0.1768530607 -0.4029210806 1.441624891e-38
0.1742200404 -0.2696116567 0.00927777309 1.441624891e-38
-0.02370846272 -0.1835206002 0.2891631722 1.441624891e-38
-0.1571777314 -0.2985951602 -0.2406288832 1.441624891e-38
0.08399970829 -0.3280398548 0.002685168758 1.441624891e-38
0.2123517692 -0.2874916792 0.2706305981 1.441624891e-38
-0.2283685654 -0.7516521215 -0.1111919135 1.459991851e-38
0.07778282464 -0.3145518601 -0.09974740446 1.459991851e-38
0.1038085073 -0.3159684837 -0.0788538456 1.459991851e-38
0.1866745949 -0.2626384795 0.02904029936 1.459991851e-38
0.1902891546 -0.2963617444 0.01454010978 1.459991851e-38
0.1615925282 -0.4589751363 0.3248013854 1.459991851e-38
0.04334291071 -0.3676959574 -0.1849165708 1.459991851e-38
0.184609741 -0.3245043755 0.0878944248 1.459991851e-38
0.1760273129 -0.2864732742 0.00202768622 1.478322936e-38
0.1755435169 -0.3792749941 -0.0463045612 1.478322936e-38
-0.006054021418 -0.4046344161 0.3396733999 1.478322936e-38
0.2641381025 -0.302690506 0.2710234225 1.478322936e-38
0.05428344011 -0.3639082909 -0.2086139619 1.478322936e-38
0.1799068898 -0.3078309 0.0289217867 1.478322936e-38
-0.1870709062 -0.4781515598 0.2092432827 1.478322936e-38
0.1665071398 -0.2949668765 -0.01005408913 1.478322936e-38
0.03887686878 -0.3062441051 -0.1103906035 1.496689755e-38
0.1767180711 -0.2879719436 0.01340907067 1.496689755e-38
-0.02676584199 -0.1699619442 -0.392670691 1.496689755e-38
0.1409071833 -0.3074145615 -0.06096053869 1.496689755e-38
-0.1694997847 -0.2993855178 -0.2396942675 1.496689755e-38
0.04979936779 -0.2667987049 -0.260648638 1.496689755e-38
-0.1905999035 -0.7785460949 0.1031853855 1.496689755e-38
0.04759179801 -0.3380923867 -0.00382675603 1.496689755e-38
0.1929197013 -0.3085391819 0.03936855495 1.515020841e-38
0.05715078861 -0.3313073814 -0.05028693378 1.515020841e-38
0.1928989142 -0.3424883783 0.2244711518 1.515020841e-38
0.2907219827 -0.3117886186 0.2826012373 1.515020841e-38
-0.2364262342 -0.4471917152 0.3636280298 1.515020841e-38
0.1608485132 -0.2891603708 -0.1218024045 1.515020841e-38
-0.1892183721 -0.7815433741 0.1259481609 1.515020841e-38
0.1660053283 -0.3521108329 -0.1849469692 1.515020841e-38
0.1778063625 -0.270922184 0.08688189089 1.533351927e-38
0.1304994673 -0.2168641388 -0.2661377788 1.533351927e-38
0.1884818822 -0.279500097 0.02179021947 1.533351927e-38
0.004123397171 -0.2142819464 -0.3842116892 1.533351927e-38
0.1666960865 -0.3536095023 -0.1735655814 1.533351927e-38
0.1342465281 -0.2444045544 -0.2599408329 1.533351927e-38
0.1230590045 -0.2962155938 -0.1510771215 1.533351927e-38
-0.2939366102 -0.4664904773 0.08014342189 1.533351927e-38
0.1793204099 -0.2677367032 0.1303418428 1.551683013e-38
0.1568364352 -0.2739855647 -0.1693936437 1.551683013e-38
0.1133674979 -0.3091834486 -0.125314042 1.551683013e-38
-0.1878368407 -0.7845407724 0.1487109363 1.551683013e-38
0.1453196257 -0.2344340682 -0.2629410923 1.551683013e-38
0.04081665725 -0.3169229329 -0.09694356471 1.551683013e-38
0.1886143833 -0.2733173072 0.04248733819 1.551683013e-38
0.234658584 -0.2937805653 0.1932228506 1.551683013e-38
0.2525067627 -0.3049795628 0.2833394408 1.570049832e-38
0.1812884063 -0.3108282387 0.05168455467 1.570049832e-38
0.1936104596 -0.3100378513 0.05074993894 1.570049832e-38
0.1563926488 -0.2244635522 -0.2659413517 1.570049832e-38
0.1769831032 -0.2756063044 0.05480334163 1.570049832e-38
-0.1871460825 -0.786039412 0.1600923836 1.570049832e-38
0.1501937956 -0.2466332912 -0.2418133169 1.570049832e-38
0.01283314824 -0.2691698074 -0.2578447759 1.570049832e-38
0.08317642659 -0.3327239752 -0.02939339355 1.588380918e-38
0.04267597198 -0.3937914968 0.3452506661 1.588380918e-38
0.1440705955 -0.2252539098 -0.2650067508 1.588380918e-38
-0.1811310947 -0.3016745448 -0.2273782492 1.588380918e-38
-0.009447678924 -0.2058921456 -0.3853427172 1.588380918e-38
0.1748272926 -0.2821812928 0.2827501893 1.588380918e-38
0.191112414 -0.2916775644 0.0466186367 1.588380918e-38
0.1791878939 -0.273919493 0.1096446663 1.588380918e-38
0.1096024215 -0.2459852695 -0.2580716014 1.606712004e-38
0.1775413454 -0.2832877934 0.04548760131 1.606712004e-38
0.1918031871 -0.2931762338 0.05800002441 1.606712004e-38
0.143670246 -0.3134092093 -0.01543497294 1.606712004e-38
0.1212337166 -0.2436962426 -0.2703876197 1.606712004e-38
0.1305249333 -0.3188837469 -0.04657888412 1.606712004e-38
0.1497754753 -0.299130857 -0.1188021451 1.606712004e-38
0.1670653969 -0.3026483655 -0.01936985552 1.606712004e-38
0.1815534234 -0.2984625995 0.0930788517 1.625043089e-38
0.1938754767 -0.2976722419 0.09214423597 1.625043089e-38
0.1847422421 -0.3183215559 0.1085915416 1.625043089e-38
0.1490847021 -0.2976321876 -0.1301835477 1.625043089e-38
0.1083533913 -0.236805141 -0.2601372302 1.625043089e-38
0.1834932268 -0.3091413975 0.1065258831 1.625043089e-38
0.09690828621 -0.3673436642 -0.09966950864 1.625043089e-38
0.195124507 -0.3068524003 0.09420987964 1.625043089e-38
0.1970642954 -0.3175311983 0.1076569259 1.643374035e-38
0.107104376 -0.2276249826 -0.2622028887 1.643374035e-38
0.00662143901 -0.2326422334 -0.3800803721 1.643374035e-38
-0.1993929595 -0.4789419174 0.2101778984 1.643374035e-38
0.1215523928 -0.365762949 -0.1015387326 1.643374035e-38
0.1483939439 -0.2961335182 -0.1415649354 1.643374035e-38
-0.01768534072 -0.4069234431 0.3519893885 1.643374035e-38
-0.1157036051 -0.4209278226 0.3501505852 1.643374035e-38
0.0947823301 -0.2284153402 -0.2612682879 1.661705121e-38
0.09603134543 -0.2375954986 -0.2592026293 1.661705121e-38
0.04424503446 -0.2223966718 -0.2595954835 1.661705121e-38
0.09783862531 -0.2544571161 -0.2664527297 1.661705121e-38
0.1965060383 -0.3098497093 0.1169726551 1.661705121e-38
0.1822441965 -0.2999612391 0.1044602394 1.661705121e-38
0.09966391325 -0.3069764674 -0.1471422315 1.661705121e-38
0.06339588761 -0.3772081137 -0.03995868191 1.661705121e-38
-0.2029219419 -0.7793364525 0.1041200161 1.680036207e-38
-0.02413301729 -0.2715408802 -0.2550409436 1.680036207e-38
0.07138718665 -0.2391762435 -0.2573333979 1.680036207e-38
0.1338744611 -0.3649725914 -0.1024733484 1.680036207e-38
0.07263620198 -0.2483563721 -0.2552677393 1.680036207e-38
0.06477741897 -0.3802054226 -0.01719591394 1.680036207e-38
-0.0347815007 -0.1934911013 0.2921634316 1.680036207e-38
0.2394939363 -0.3042712212 0.2728926539 1.680036207e-38
0.1848747581 -0.3121387362 0.1292887032 1.698367293e-38
0.1934497505 -0.2838079631 0.1221571416 1.698367293e-38
0.1553015858 -0.3111201823 -0.02775097638 1.698367293e-38
0.1319064498 -0.3218810558 -0.02381609008 1.698367293e-38
0.1940079927 -0.2914894223 0.1128413528 1.698367293e-38
-0.3062586784 -0.4672808647 0.08107803762 1.698367293e-38
0.06201435626 -0.3742107749 -0.06272148341 1.698367293e-38
0.03192298114 -0.2231870294 -0.2586608529 1.698367293e-38
0.2693022788 -0.432002902 0.3008771837 1.716698239e-38
0.1641698182 -0.3028365076 -0.08559256792 1.716698239e-38
0.1946987659 -0.2929880917 0.1242227852 1.716698239e-38
0.1380116194 -0.3076027334 -0.1271832734 1.716698239e-38
-0.04835260287 -0.1851013303 0.2910324037 1.716698239e-38
0.02269163728 -0.2469091713 0.3122002482 1.716698239e-38
0.1662421227 -0.3073324859 -0.05144838989 1.716698239e-38
0.01734109968 -0.3938735425 0.3357385099 1.716698239e-38
0.1820834726 -0.2737313509 0.1758674383 1.735029324e-38
0.09534057975 -0.2360968292 -0.2705840468 1.735029324e-38
0.1543531716 -0.3883490562 0.01247165259 1.735029324e-38
0.1855655164 -0.3136374056 0.1406700909 1.735029324e-38
-0.005141275004 -0.22863096 0.2985568047 1.735029324e-38
0.1325972229 -0.3233797252 -0.01243470609 1.735029324e-38
-0.04877715558 -0.2731215954 -0.2531717122 1.735029324e-38
0.1818184555 -0.2860969901 0.134473145 1.735029324e-38
0.08301852643 -0.2368871868 -0.2696494162 1.75336041e-38
0.1366300881 -0.3046053946 -0.1499460787 1.75336041e-38
0.04969230294 -0.3750011325 -0.06178686768 1.75336041e-38
0.1646755636 -0.2843948007 -0.2365848571 1.75336041e-38
-0.1454139054 -0.2901232839 -0.2322477549 1.75336041e-38
0.06006715447 -0.2971700728 -0.1691668183 1.75336041e-38
0.04674307257 -0.2407569587 -0.2554641664 1.75336041e-38
0.2012787461 -0.2974621952 0.2736308575 1.75336041e-38
-0.005700614303 -0.233432591 -0.3791457713 1.771655483e-38
0.1567039192 -0.2801683843 -0.1900907904 1.771655483e-38
-0.07273052633 -0.2762009799 -0.2399210781 1.771655483e-38
0.05327864736 -0.3763116598 0.01581726596 1.771655483e-38
0.06158861518 -0.3603464365 -0.03270859644 1.771655483e-38
0.1153073013 -0.3198622465 -0.1118669957 1.771655483e-38
0.0513388589 -0.3656328321 0.002370197326 1.771655483e-38
0.06241188943 -0.3556623161 -0.0006300657988 1.771655483e-38
0.07917177677 -0.3839110434 0.01601368934 1.789986569e-38
0.1463216543 -0.2916375399 -0.1757091135 1.789986569e-38
0.06297014654 -0.3633437753 -0.009945798665 1.789986569e-38
-0.2918643057 -0.4709864557 0.1142876297 1.789986569e-38
0.0507806018 -0.3579513431 0.01168596279 1.789986569e-38
0.06366091222 -0.3648424447 0.00143558532 1.789986569e-38
0.06560070068 -0.3755212724 0.01488265302 1.789986569e-38
0.05051558465 -0.3703169823 -0.02970832959 1.789986569e-38
-0.0526589714 -0.1623625308 -0.3928671181 1.808317654e-38
-0.02246052399 -0.2051838636 -0.3957895041 1.808317654e-38
-0.01871238276 -0.2202411592 0.2974257767 1.808317654e-38
0.0614561066 -0.3665292859 -0.05340573937 1.808317654e-38
0.009677734226 -0.2586839795 -0.3852648437 1.808317654e-38
0.1537875682 -0.3143056631 -0.07121091336 1.808317654e-38
0.2352168262 -0.3014620841 0.1839071214 1.808317654e-38
-0.08574335277 -0.275492698 -0.2503678799 1.808317654e-38
0.1964778155 -0.2774370015 0.2090769708 1.826612727e-38
0.120986715 -0.2917195857 -0.1852212995 1.826612727e-38
0.1503337324 -0.306812346 -0.1281178892 1.826612727e-38
0.1523535103 -0.2851851583 -0.2356502414 1.826612727e-38
-0.1577359885 -0.2909136713 -0.2313131392 1.826612727e-38
0.1789973378 -0.3867683113 0.01060242113 1.826612727e-38
0.04788503051 -0.3581395149 -0.05453678221 1.826612727e-38
0.08596033603 -0.304769516 -0.1689703912 1.826612727e-38
0.07542471588 -0.3563706279 0.009816735052 1.844943813e-38
0.05563675612 -0.3344928622 -0.09374687076 1.844943813e-38
-0.09737467021 -0.2777817249 -0.2380518466 1.844943813e-38
-0.1584267467 -0.2894150019 -0.2426945418 1.844943813e-38
-0.006391379982 -0.2319339216 -0.390527159 1.844943813e-38
0.02334798872 -0.2515178025 -0.2515293062 1.844943813e-38
-0.005043247715 -0.2255581021 -0.2558570206 1.844943813e-38
-0.05465153605 -0.4092945158 0.3547932506 1.844943813e-38
0.1165563166 -0.3290423751 -0.1098013371 1.863274899e-38
-0.1841337234 -0.4100650847 -0.09473920614 1.863274899e-38
-0.05210072175 -0.1700440049 -0.4021828771 1.863274899e-38
0.05882555246 -0.3543517888 -0.07823418826 1.863274899e-38
-0.001952471212 -0.2484898865 0.3140694797 1.863274899e-38
0.006588045508 -0.2232690752 -0.268173039 1.863274899e-38
0.191649884 -0.3333082199 0.2224054933 1.863274899e-38
-0.02121150494 -0.2143639922 -0.3937238455 1.863274899e-38
-0.2965463698 -0.4203638434 -0.129787609 1.881569971e-38
0.04692924768 -0.3690064549 -0.1073124558 1.881569971e-38
0.08083911985 -0.3405936062 -0.1049318463 1.881569971e-38
0.223585546 -0.303751111 0.1962231249 1.881569971e-38
0.172222212 -0.3655988276 -0.08251442015 1.881569971e-38
0.0557974726 -0.3607227802 -0.1651540548 1.881569971e-38
0.04400546104 -0.3367818892 -0.08143087476 1.881569971e-38
0.01092784107 -0.2553810179 0.3038191497 1.881569971e-38
0.1475706846 -0.3008176982 -0.1736434698 1.899901057e-38
0.1630634964 -0.2906531394 0.274369061 1.899901057e-38
0.1956545413 -0.2821211219 0.1769984663 1.899901057e-38
0.1553223878 -0.2771710455 -0.2128535956 1.899901057e-38
0.046238482 -0.3675077856 -0.1186938435 1.899901057e-38
0.1668003798 -0.3150139749 -0.06076411903 1.899901057e-38
0.08208813518 -0.3497737348 -0.1028661877 1.899901057e-38
-0.1519790441 -0.4247975647 0.3643358052 1.899901057e-38
0.07294746488 -0.3040612042 -0.179417178 1.91819627e-38
-0.1787609011 -0.4621863663 0.1607174277 1.91819627e-38
0.08859089762 -0.3169469833 -0.1441419721 1.91819627e-38
0.1178053319 -0.3382225335 -0.1077356935 1.91819627e-38
0.1345577985 -0.3001093864 -0.1840902567 1.91819627e-38
0.1626557857 -0.3060219884 -0.1290525049 1.91819627e-38
0.08526957035 -0.3032708466 -0.1803517938 1.91819627e-38
0.1897101104 -0.3226293921 0.2089584619 1.91819627e-38
-0.0192717202 -0.2250427902 -0.3802767992 1.936527215e-38
0.2446581572 -0.4335836172 0.3027463853 1.936527215e-38
0.1870795488 -0.3104519248 0.1841300279 1.936527215e-38
0.05813479424 -0.3528531194 -0.08961557597 1.936527215e-38
0.109913677 -0.3016901016 -0.1822210252 1.936527215e-38
0.1572621763 -0.2878498435 -0.1994065344 1.936527215e-38
0.215540573 -0.3073506355 0.2861432731 1.936527215e-38
0.1842968464 -0.4467155933 0.3094851077 1.936527215e-38
-0.0489119105 -0.1899029613 -0.3866701722 1.954822428e-38
-0.182926327 -0.4871435463 0.2775316238 1.954822428e-38
0.007837064564 -0.2324492037 -0.2661073804 1.954822428e-38
0.1729129702 -0.367097497 -0.07113301009 1.954822428e-38
0.1190543622 -0.347402662 -0.1056700349 1.954822428e-38
0.04416618496 -0.3630118072 -0.1528380215 1.954822428e-38
0.03542304039 -0.298750788 -0.1672975868 1.954822428e-38
-0.1103874817 -0.2770734131 -0.2484986484 1.954822428e-38
-0.03103443794 -0.2210315168 0.2983603776 1.973153514e-38
0.1025669128 -0.3731501997 0.01207880583 1.973153514e-38
0.2673268914 -0.3225494623 0.2865361273 1.973153514e-38
-0.1966299117 -0.4849365652 0.2557034492 1.973153514e-38
0.1539408565 -0.2741737068 -0.235616371 1.973153514e-38
0.1000688672 -0.3547899127 0.007947503589 1.973153514e-38
-0.01621542126 -0.2510845661 -0.385461241 1.973153514e-38
0.08126486093 -0.3544579148 -0.134944737 1.973153514e-38
0.1387098134 -0.3754632473 -0.02280359715 1.991448586e-38
0.1891518384 -0.3149479032 0.218274191 1.991448586e-38
0.01161752082 -0.2693627775 -0.3718177676 1.991448586e-38
-0.1649918556 -0.4240892828 0.3538890481 1.991448586e-38
0.2414337099 -0.3149500489 0.2863397002 1.991448586e-38
-0.006612278521 -0.3969529569 0.3489891291 1.991448586e-38
-0.06373204291 -0.1723330319 -0.3898668587 1.991448586e-38
0.198843345 -0.3019800782 0.1925111562 1.991448586e-38
0.1461891532 -0.2978203595 -0.1964062601 2.009743799e-38
0.1268060803 -0.3237560391 -0.1448801607 2.009743799e-38
0.05372518301 -0.3562267721 -0.1992982328 2.009743799e-38
0.1514322013 -0.2929421663 0.2866850495 2.009743799e-38
-0.04835366085 -0.1975844204 -0.3959859312 2.009743799e-38
0.1736037433 -0.3685961664 -0.05975162238 2.009743799e-38
-0.2253531516 -0.4372212291 0.3606277704 2.009743799e-38
-0.3513815403 -0.4454851151 -0.03199773282 2.009743799e-38
-0.1227095649 -0.2778637707 -0.2475640327 2.028074885e-38
-0.289792031 -0.4754824638 0.1484317929 2.028074885e-38
0.05731151998 -0.3575372696 -0.1216941029 2.028074885e-38
-0.01680704579 -0.2340299487 -0.2642381489 2.028074885e-38
-0.2986394465 -0.4498170018 0.0211707931 2.028074885e-38
0.1766345799 -0.2990429103 0.2755000889 2.028074885e-38
0.1654470712 -0.3444293737 -0.1756312251 2.028074885e-38
0.08001583815 -0.3452777565 -0.1370103955 2.028074885e-38
0.1645955741 -0.3167007864 -0.1156054437 2.046369957e-38
0.1377286315 -0.2907352149 0.2648569047 2.046369957e-38
0.1085321456 -0.2986927927 -0.2049838305 2.046369957e-38
0.1263278723 -0.2837685645 -0.2565438151 2.046369957e-38
0.1673586369 -0.3226954639 -0.07007987797 2.046369957e-38
0.1535225511 -0.3266713023 -0.1126051843 2.046369957e-38
0.05093390495 -0.3178193867 -0.1527195126 2.046369957e-38
0.04512197524 -0.3521448374 -0.1000623479 2.046369957e-38
0.07156593353 -0.3010638654 -0.2021799833 2.06466517e-38
0.04071236402 -0.3555184901 -0.2097450048 2.06466517e-38
-0.04710463807 -0.2067645788 -0.3939202726 2.06466517e-38
0.1680493951 -0.3241941333 -0.05869846791 2.06466517e-38
-0.08656781912 -0.1782922596 0.2917705774 2.06466517e-38
0.05481347442 -0.3391770124 -0.1258254051 2.06466517e-38
0.2550047934 -0.3233398199 0.287470758 2.06466517e-38
-0.01246727817 -0.2661418617 0.30775401 2.06466517e-38
-0.1773139387 -0.4248796403 0.3548236489 2.082996116e-38
-0.02853747457 -0.2518749237 -0.3845266402 2.082996116e-38
-0.2924017906 -0.42935583 -0.06149922311 2.082996116e-38
-0.05998497829 -0.1998734474 -0.3836699128 2.082996116e-38
-0.02538204007 -0.2623607218 -0.2571066022 2.082996116e-38
0.1468590498 -0.3332681656 7.774122059e-05 2.082996116e-38
0.1305457056 -0.2849345803 -0.231681481 2.082996116e-38
0.08811262995 -0.2769595385 -0.2558056116 2.082996116e-38
0.1589619815 -0.4467976093 0.2999729812 2.101291328e-38
0.1636397988 -0.3275677562 -0.1683811247 2.101291328e-38
-0.07730311155 -0.1639432609 -0.3909978867 2.101291328e-38
0.1630815417 -0.319886297 -0.1590653807 2.101291328e-38
0.2364658415 -0.3106422424 0.1859727651 2.101291328e-38
0.1547715664 -0.3358514309 -0.1105395257 2.101291328e-38
0.114005819 -0.2845589221 -0.2556091845 2.101291328e-38
-0.0319471769 -0.3970350027 0.3394769728 2.101291328e-38
0.2284208983 -0.3142417669 0.2758929431 2.119586541e-38
0.05592998862 -0.3545399606 -0.1444569081 2.119586541e-38
0.1622582674 -0.3245704174 -0.19114393 2.119586541e-38
-0.07799386978 -0.1624445915 -0.4023793042 2.119586541e-38
-0.1953929365 -0.2917860746 -0.2398906946 2.119586541e-38
0.04318218678 -0.3414660394 -0.1135094017 2.119586541e-38
0.1694309264 -0.3271914423 -0.03593569994 2.119586541e-38
-0.04141673073 -0.2325007021 0.3127420247 2.119586541e-38
-0.0260383524 -0.2577520907 0.306622982 2.137881613e-38
0.1651538312 -0.3243823051 -0.1249212027 2.137881613e-38
0.1749852747 -0.3715934753 -0.03698882833 2.137881613e-38
-0.05002617836 -0.263941437 -0.2552373707 2.137881613e-38
-0.2753976882 -0.4791880846 0.181641385 2.137881613e-38
0.1610092521 -0.3153902888 -0.1932095736 2.137881613e-38
0.156438902 -0.2925339937 -0.2314850539 2.137881613e-38
0.126788035 -0.2945228815 0.288554281 2.137881613e-38
-0.1039397866 -0.412455976 0.3585317135 2.156176826e-38
0.2937783003 -0.3378303647 0.2774168253 2.156176826e-38
-0.01302661747 -0.2709435225 -0.3699485362 2.156176826e-38
-0.04085847735 -0.2401821613 0.3034262955 2.156176826e-38
0.05412270874 -0.3376783431 -0.1372068226 2.156176826e-38
-0.02534758858 -0.2592507601 0.3180043697 2.156176826e-38
0.04124240577 -0.3307872415 -0.126956448 2.156176826e-38
0.1380398422 -0.3400154412 -0.2192875743 2.156176826e-38
-0.04426923394 -0.3978253603 0.3404116035 2.174471899e-38
-0.05567857251 -0.222612232 0.300229609 2.174471899e-38
0.01286654267 -0.2785429358 -0.3697521389 2.174471899e-38
0.1407821029 -0.3799592555 0.01134061348 2.174471899e-38
0.1716639549 -0.3579173684 -0.07319866121 2.174471899e-38
0.2426827252 -0.3241302073 0.2884053588 2.174471899e-38
0.1698566824 -0.3410557508 -0.06594857574 2.174471899e-38
0.168342635 -0.3442412019 -0.1094084978 2.174471899e-38
-0.02478933334 -0.2669322491 0.3086886406 2.192767111e-38
-0.0869923681 -0.2663125396 -0.2524335384 2.192767111e-38
-0.05942672119 -0.2075549513 -0.3929856718 2.192767111e-38
0.1395330876 -0.3707791269 0.009274962358 2.192767111e-38
-0.04335757717 -0.2343050092 -0.3877233267 2.192767111e-38
-0.29725793 -0.4528143406 0.04393358901 2.192767111e-38
0.05218292773 -0.3269995451 -0.150653854 2.192767111e-38
-0.1162618697 -0.4132463336 0.3594663143 2.192767111e-38
0.0005444865674 -0.2793332934 -0.3688175082 2.211062324e-38
0.07018440962 -0.2980665267 -0.2249427438 2.211062324e-38
0.1614349782 -0.3292545676 -0.2232224494 2.211062324e-38
-0.05373878777 -0.2332910597 0.3136766553 2.211062324e-38
0.1010736674 -0.3423865438 -0.2164837271 2.211062324e-38
0.05399020016 -0.3438611329 -0.1579039395 2.211062324e-38
0.08867088705 -0.2846409678 -0.2651213408 2.211062324e-38
-0.02534867078 -0.27173388 -0.3690139353 2.211062324e-38
-0.03961051628 -0.2618454397 -0.3815263808 2.229357396e-38
0.171796456 -0.3517345488 -0.05250151455 2.229357396e-38
0.1589369476 -0.3108943105 -0.2273537517 2.229357396e-38
-0.2505794168 -0.4035262465 -0.1697359085 2.229357396e-38
0.1518551409 -0.3699887395 0.008340350352 2.229357396e-38
0.05149216205 -0.3255008757 -0.1620352417 2.229357396e-38
-0.0001462791115 -0.2778346241 -0.3801989257 2.229357396e-38
0.2687440217 -0.4243214726 0.3101929128 2.229357396e-38
-0.2740161419 -0.4821854234 0.2044041455 2.247652609e-38
-0.08906693757 -0.1724150777 -0.3993790448 2.247652609e-38
0.2008812129 -0.3160106242 0.2115394324 2.247652609e-38
-0.05567966029 -0.2350953668 -0.3867886961 2.247652609e-38
0.1654262692 -0.3783785105 0.009471378289 2.247652609e-38
-0.05124074966 -0.2516513467 0.3178079426 2.247652609e-38
0.1727522463 -0.3408676088 0.0002741646022 2.247652609e-38
0.08375554532 -0.3064563274 -0.2238117158 2.247652609e-38
0.04153563827 -0.3508343399 -0.1776664704 2.265947681e-38
-0.1105211899 -0.1813716441 0.3050211966 2.265947681e-38
0.09607759118 -0.30566594 -0.2247463316 2.265947681e-38
0.2377148718 -0.319822371 0.1880384237 2.265947681e-38
0.09982465208 -0.3332063854 -0.2185493857 2.265947681e-38
-0.05692868307 -0.2259152234 -0.3888543546 2.265947681e-38
0.0520504117 -0.3331823349 -0.1713510007 2.265947681e-38
-0.01246836036 -0.2786250114 -0.3792642951 2.265947681e-38
0.05247616768 -0.3470466137 -0.2013638765 2.284242894e-38
-0.008552065119 -0.3862741292 0.3355420828 2.284242894e-38
-0.06481182575 -0.2432615757 0.3166769147 2.284242894e-38
0.1777483225 -0.3775881529 0.008536766283 2.284242894e-38
0.03917010874 -0.3262912333 -0.161100626 2.284242894e-38
-0.2958763838 -0.4558116794 0.06669639051 2.284242894e-38
0.09857562184 -0.3240262568 -0.2206150293 2.284242894e-38
-0.0519325994 -0.2626357973 -0.3805917501 2.284242894e-38
-0.08531987667 -0.1999555081 -0.3931820989 2.302537966e-38
-0.008030533791 -0.3076640964 -0.3616859317 2.302537966e-38
-0.1860735118 -0.3993863165 -0.1081862748 2.302537966e-38
-0.07963195443 -0.2256916463 0.3134802282 2.302537966e-38
-0.07049974799 -0.2175254375 -0.3899854124 2.302537966e-38
0.047480084 -0.3103260696 -0.2096264809 2.302537966e-38
-0.01121934131 -0.28780514 -0.3771986365 2.302537966e-38
-0.04943346977 -0.2685129642 0.3105578721 2.302537966e-38
0.2267743349 -0.3236100674 0.2117358595 2.320833179e-38
0.1662523001 -0.3105120659 0.289881736 2.320833179e-38
-0.0783829242 -0.2348718047 0.3155458868 2.320833179e-38
-0.06800171733 -0.2358857393 -0.3858540952 2.320833179e-38
0.03946334869 -0.3463383615 -0.2118106484 2.320833179e-38
0.1764993072 -0.3684080243 0.00647111889 2.320833179e-38
-0.09286674857 -0.4024854898 0.3555314541 2.320833179e-38
-0.008721299469 -0.306165427 -0.3730673492 2.320833179e-38
-0.3553936183 -0.4303103089 -0.07958894223 2.339092378e-38
-0.166240871 -0.4149091244 0.3518233895 2.339092378e-38
0.2568120658 -0.3402014971 0.2802206576 2.339092378e-38
0.2440999001 -0.4259021878 0.3120621443 2.339092378e-38
0.2144522816 -0.324400425 0.2126704752 2.339092378e-38
-0.06300454587 -0.2601231933 0.3094268441 2.339092378e-38
-0.0778246671 -0.2425532639 0.3062301278 2.339092378e-38
-0.02087414637 -0.3870644867 0.3364767134 2.339092378e-38
-0.3349148929 -0.453686744 0.03535604477 2.348204041e-38
-0.09820018709 -0.1930643916 -0.3829317093 2.348204041e-38
-0.09889094532 -0.1915657371 -0.3943131268 2.348204041e-38
-0.03267464414 -0.3092448115 -0.35981673 2.348204041e-38
-0.2719438672 -0.4866814315 0.2385483533 2.348204041e-38
-0.03517268971 -0.2908845246 -0.3639480174 2.348204041e-38
-0.02018338256 -0.3885631561 0.3478581011 2.348204041e-38
-0.05068357661 -0.2718159258 -0.3785261214 2.348204041e-38
-0.08088205755 -0.2289946079 -0.3756037354 2.348132155e-38
-0.03711247072 -0.2802057266 -0.3773950636 2.348132155e-38
-0.04551825672 -0.3886452019 0.3383459449 2.348132155e-38
-0.1778721958 -0.4171981514 0.3641394079 2.348132155e-38
-0.1486026943 -0.2702643573 -0.2477604598 2.348132155e-38
0.2389638871 -0.3290024996 0.1901040673 2.348132155e-38
-0.08032380044 -0.2366760969 -0.3849194944 2.348132155e-38
-0.09570214152 -0.2114247084 -0.378800422 2.348132155e-38
0.2444900125 -0.3409918547 0.2811552882 2.348060128e-38
-0.2403712273 -0.4661381841 0.1653904915 2.348060128e-38
-0.03586345538 -0.2893858552 -0.3753294349 2.348060128e-38
-0.1175108925 -0.404066205 0.3574006855 2.348060128e-38
-0.04874378815 -0.2824947536 -0.3650790453 2.348060128e-38
-0.3019607663 -0.4361408651 -0.01503904164 2.348060128e-38
-0.1718532592 -0.4771730304 0.2745313644 2.348060128e-38
0.1899406314 -0.3197983503 0.2352368087 2.348060128e-38
-0.1602340192 -0.2725533843 -0.2354444414 2.347952368e-38
0.2192876339 -0.3348910809 0.2923402488 2.347952368e-38
-0.2568587065 -0.4918857217 0.283139348 2.347952368e-38
-0.2705623507 -0.4896787405 0.2613111138 2.347952368e-38
0.300714165 -0.3852297664 0.2991264462 2.347952368e-38
-0.2086453438 -0.4054630101 -0.07217282802 2.347952368e-38
0.2839542925 -0.356981039 0.2824827433 2.347952368e-38
-0.3335333467 -0.4566840827 0.05811884254 2.347952368e-38
0.2328587174 -0.3432808518 0.2934712768 2.347880341e-38
-0.08820694685 -0.2540224195 0.3206117749 2.347880341e-38
0.290199399 -0.4028817415 0.2928109765 2.347880341e-38
-0.06106584147 -0.2832851112 -0.3641444445 2.347880341e-38
0.1577129662 -0.4376174808 0.2979073226 2.347880341e-38
-0.09389486909 -0.2282862961 -0.3860505223 2.347880341e-38
-0.08248448372 -0.3910163045 0.3411497772 2.347880341e-38
0.2723229825 -0.3592700362 0.2947987318 2.347880341e-38
0.1927036941 -0.3257929683 0.280762434 2.347808455e-38
-0.05981681868 -0.2924652398 -0.3620787859 2.347808455e-38
-0.3210579753 -0.4157617688 -0.1072212458 2.347808455e-38
0.003211734816 -0.3778022826 0.3439232111 2.347808455e-38
-0.3328425884 -0.4581827521 0.0695002228 2.347808455e-38
-0.1017791033 -0.2581157684 -0.3675375581 2.347808455e-38
-0.155167833 -0.4049386084 0.3488231301 2.347808455e-38
-0.06964085996 -0.3116159141 -0.3570128679 2.347808455e-38
-0.1178471595 -0.2188825905 0.3142184317 2.347700555e-38
-0.2025163323 -0.4187788665 0.3660086393 2.347700555e-38
0.004292631522 -0.2943906188 0.3243977427 2.347700555e-38
-0.3663341701 -0.4340980053 -0.05589153618 2.347700555e-38
-0.1228443384 -0.1946451366 -0.3810624778 2.347700555e-38
0.266245991 -0.4059611559 0.3060615957 2.347700555e-38
0.2544821799 -0.4144330025 0.2976804972 2.347700555e-38
-0.3321518302 -0.4596814215 0.08088161051 2.347700555e-38
-0.1848781705 -0.2741340995 -0.23357521 2.347628668e-38
-0.08127215505 -0.3139049411 -0.3446968794 2.347628668e-38
-0.2821936011 -0.4919677675 0.273627162 2.347628668e-38
-0.09411577135 -0.3933053315 0.3534657955 2.347628668e-38
0.2864523232 -0.3753413558 0.2866140306 2.347628668e-38
0.2766283154 -0.3944919705 0.2916799486 2.347628668e-38
-0.1172889024 -0.2265640497 0.3049026728 2.347628668e-38
0.2409036756 -0.3396813273 0.2035510987 2.347628668e-38
0.1790001094 -0.3235860169 0.2589342296 2.347520768e-38
0.1803816408 -0.3265833259 0.2816970348 2.347520768e-38
0.2285816222 -0.3404716849 0.2044857144 2.347520768e-38
0.2341077328 -0.3524609804 0.2955369353 2.347520768e-38
-0.02035150677 -0.295971334 0.3262669742 2.347520768e-38
-0.05925748497 -0.2876636088 0.31562379 2.347520768e-38
0.2753793001 -0.385311842 0.28961429 2.347520768e-38
-0.2773374617 -0.4685092568 0.1681943387 2.347520768e-38
-0.2148383856 -0.4195692241 0.3669432402 2.347448882e-38
0.2334169745 -0.3509623408 0.2841555476 2.347448882e-38
-0.03444521874 -0.3786747158 0.3353456855 2.347448882e-38
-0.1190972775 -0.2221855521 -0.3748655319 2.347448882e-38
-0.05856671929 -0.2891622782 0.3270051777 2.347448882e-38
-0.08446095884 -0.2940459847 -0.3602095544 2.347448882e-38
-0.1893948317 -0.38571015 -0.1443960965 2.347448882e-38
-0.09928105772 -0.2764760554 -0.3634062409 2.347448882e-38
-0.1321090013 -0.2089941204 0.3017059863 2.347340982e-38
-0.09997183084 -0.274977386 -0.3747876585 2.347340982e-38
-0.3649526238 -0.4370953441 -0.03312876821 2.347340982e-38
-0.1859410107 -0.3932034671 -0.08748912066 2.347340982e-38
0.2414619327 -0.3473628163 0.1942353696 2.347340982e-38
-0.07072064281 -0.3825444579 0.3495309055 2.347340982e-38
-0.1635432988 -0.4612078965 0.2260055244 2.347340982e-38
-0.3300795257 -0.4641773999 0.1150258183 2.347340982e-38
0.1672363132 -0.3320578635 0.2505531013 2.347269095e-38
-0.1434040517 -0.3964667618 0.3572042584 2.347269095e-38
-0.1078560799 -0.3048068583 -0.3562746644 2.347269095e-38
-0.1301703006 -0.2321560383 -0.3718652725 2.347269095e-38
0.0171729438 -0.3012817204 0.314147383 2.347269095e-38
-0.1283619404 -0.2365345657 0.307902962 2.347269095e-38
-0.1628525257 -0.4627065361 0.2373869121 2.347269095e-38
0.2489278316 -0.3700309396 0.2987336218 2.347269095e-38
-0.2985069454 -0.4436341822 0.04186793789 2.347161195e-38
0.01428480074 -0.3678317964 0.3409229517 2.347161195e-38
0.155046761 -0.3266654015 0.2721848786 2.347161195e-38
-0.1264221668 -0.2472133636 0.3213499784 2.347161195e-38
0.2403528392 -0.3983617425 0.3058651686 2.347161195e-38
-0.1251742244 -0.268876642 -0.363602668 2.347161195e-38
0.239662081 -0.3968630433 0.2944837809 2.347161195e-38
0.182489574 -0.4298539758 0.316735208 2.347161195e-38
-0.1564168632 -0.39575845 0.3467574716 2.347089308e-38
-0.1258639097 -0.2548948526 0.3120342493 2.347089308e-38
-0.01105010323 -0.3679138422 0.3314107955 2.347089308e-38
-0.1614709944 -0.4657038748 0.2601497173 2.347089308e-38
-0.1097958684 -0.2941280305 -0.3697217405 2.347089308e-38
-0.1196198761 -0.3132786751 -0.3646558225 2.347089308e-38
-0.3143036366 -0.4708803594 0.1709981859 2.347089308e-38
-0.01035933942 -0.3694125116 0.3427921832 2.347089308e-38
0.2366057783 -0.3708212972 0.2996682227 2.346981408e-38
0.2439599782 -0.3657230735 0.1983666867 2.346981408e-38
-0.209894374 -0.3962828815 -0.07423847914 2.346981408e-38
-0.3039005697 -0.4254620373 -0.02848607674 2.346981408e-38
0.2335776985 -0.3771922588 0.2127483189 2.346981408e-38
0.2378547937 -0.3800014257 0.3017338812 2.346981408e-38
0.2371640354 -0.3785027862 0.2903524935 2.346981408e-38
-0.2971253991 -0.446631521 0.06463073194 2.346981408e-38
-0.2292982042 -0.4561676979 0.1623902321 2.346909522e-38
0.03698912263 -0.3555722535 0.325606674 2.346909522e-38
-0.3628803194 -0.4415913522 0.001015441492 2.346909522e-38
0.2058846503 -0.4190930724 0.312800318 2.346909522e-38
0.196450755 -0.3533334136 0.2869593799 2.346909522e-38
-0.07033054531 -0.2976341248 0.3186240494 2.346909522e-38
-0.1406840235 -0.2373249233 0.3088375628 2.346909522e-38
0.1310933679 -0.329744786 0.2854354978 2.346909522e-38
0.01842196286 -0.3104618788 0.3162130415 2.346801622e-38
-0.04732553661 -0.3717836142 0.3455960155 2.346801622e-38
-0.1362472773 -0.2788471282 -0.3606024086 2.346801622e-38
-0.059647616 -0.3725739717 0.3465306461 2.346801622e-38
-0.2457856834 -0.4819152057 0.2801390886 2.346801622e-38
-0.07266043127 -0.37186566 0.3360838592 2.346801622e-38
-0.3122313321 -0.4753763676 0.205142349 2.346801622e-38
0.1568540335 -0.343527019 0.2649347484 2.346801622e-38
-0.006222173572 -0.312042594 0.318082273 2.346693862e-38
-0.1078549922 -0.2923237383 0.3307436407 2.346693862e-38
0.1935626119 -0.41988343 0.3137349486 2.346693862e-38
-0.144653067 -0.3872866333 0.3551385999 2.346693862e-38
-0.1428824812 -0.317856729 -0.3400237858 2.346693862e-38
-0.1453438252 -0.3857879639 0.3437572122 2.346693862e-38
-0.04374662042 -0.3067322075 0.3302018642 2.346693862e-38
0.1575448066 -0.3450257182 0.2763161957 2.346693862e-38
-0.1356879473 -0.2740454972 0.3171001673 2.346621835e-38
-0.1920253783 -0.3735326827 -0.1692245454 2.346621835e-38
0.02341804653 -0.3471824527 0.324475646 2.346621835e-38
-0.167555362 -0.4460330606 0.1784142852 2.346621835e-38
-0.190643847 -0.3765300214 -0.146461755 2.346621835e-38
-0.1899530739 -0.3780286908 -0.1350803375 2.346621835e-38
-0.05675944313 -0.3060238957 0.3197550774 2.346621835e-38
0.03518184647 -0.3387106061 0.3328567743 2.346621835e-38
-0.2640179694 -0.388953656 -0.1501697898 2.346514075e-38
-0.01229912601 -0.3587336838 0.3293451369 2.346514075e-38
0.03393282369 -0.3295304775 0.3307911158 2.346514075e-38
0.02410881221 -0.3486811221 0.3358570337 2.346514075e-38
-0.1552045345 -0.3186471164 -0.339089185 2.346514075e-38
-0.0116083622 -0.3602323532 0.3407265246 2.346514075e-38
-0.1208678186 -0.2916154265 0.3202968538 2.346514075e-38
0.008039698005 -0.3219310641 0.3305946887 2.346514075e-38
-0.001226089895 -0.3487631977 0.3263448775 2.346406175e-38
-0.1505080312 -0.2564755678 0.3139034808 2.346406175e-38
0.1923135817 -0.4107033014 0.3116692901 2.346406175e-38
0.009846970439 -0.3387926817 0.3233446181 2.346406175e-38
-0.06839075685 -0.3083129227 0.3320710957 2.346406175e-38
0.2021376044 -0.3915526867 0.3066033721 2.346406175e-38
-0.1492590159 -0.2656557262 0.3159691393 2.346406175e-38
-0.2936715782 -0.4541248381 0.1215377152 2.346406175e-38
-0.1485682577 -0.2671543956 0.327350527 2.346334289e-38
-0.3608080447 -0.4460873306 0.03515962511 2.346334289e-38
-0.1692971736 -0.3888673484 0.3570078313 2.346334289e-38
0.1996395588 -0.3731923699 0.3024720848 2.346334289e-38
-0.01354814507 -0.3495535553 0.3272795081 2.346334289e-38
-0.266264379 -0.4585387707 0.1651940793 2.346334289e-38
-0.04926532134 -0.3611047864 0.332148999 2.346334289e-38
0.1601753533 -0.3572031856 0.3011445999 2.346334289e-38
0.1689184904 -0.4214642048 0.3156041801 2.346226389e-38
-0.00178434886 -0.3410817087 0.3356606066 2.346226389e-38
-0.08071281016 -0.3091033101 0.3330056965 2.346226389e-38
0.1793007702 -0.4099950194 0.301222533 2.346226389e-38
-0.1324991435 -0.2939044535 0.3326128721 2.346226389e-38
0.1737464219 -0.3655929565 0.3022756577 2.346226389e-38
0.189815551 -0.3923430443 0.3075380027 2.346226389e-38
0.1565964371 -0.4222545624 0.3165387809 2.346226389e-38
-0.3004467487 -0.4329553545 0.02842090279 2.346118629e-38
-0.1465928406 -0.3766078353 0.3416915536 2.346118629e-38
-0.2111433893 -0.3871027231 -0.07630413026 2.346118629e-38
-0.19394131 -0.3904480934 0.3588770628 2.346118629e-38
0.143583566 -0.4215462208 0.3060920238 2.346118629e-38
-0.1891297996 -0.3733445108 -0.1030018106 2.346118629e-38
-0.04124857858 -0.3250925243 0.3343331516 2.346118629e-38
-0.09855359048 -0.3642662168 0.3358874619 2.346118629e-38
0.1355311871 -0.3587839007 0.3030138314 2.346010729e-38
-0.0542614013 -0.3243842125 0.3238863945 2.346010729e-38
-0.1108756512 -0.3650565743 0.3368220627 2.346010729e-38
-0.06283642352 -0.3527150154 0.331017971 2.346010729e-38
-0.2347126156 -0.4719447196 0.2771388292 2.346010729e-38
0.1664204597 -0.403103888 0.311472863 2.346010729e-38
-0.1932743937 -0.3643525243 -0.1712902039 2.346010729e-38
-0.2357875258 -0.3886834383 -0.07443489879 2.346010729e-38
0.1527168751 -0.4008969069 0.2896447182 2.345938842e-38
0.1360894442 -0.3664653897 0.2936981022 2.345938842e-38
0.1626733989 -0.3755634427 0.3052759171 2.345938842e-38
0.1651714295 -0.3939237595 0.3094072342 2.345938842e-38
-0.1688043773 -0.436852932 0.1763486266 2.345938842e-38
-0.06533446908 -0.3343546987 0.3268866539 2.345938842e-38
-0.182507962 -0.4346459508 0.1545204669 2.345938842e-38
-0.06339468062 -0.3450335264 0.3403337002 2.345938842e-38
-0.2983744442 -0.4374513626 0.06256508827 2.345830942e-38
-0.191069603 -0.3626657128 -0.1164488792 2.345830942e-38
-0.06464369595 -0.335853368 0.3382680416 2.345830942e-38
0.1430253088 -0.4138647914 0.315407753 2.345830942e-38
0.1503513455 -0.3763538003 0.3062105179 2.345830942e-38
-0.07640749216 -0.3443252146 0.3298869133 2.345830942e-38
-0.3077801168 -0.4041044414 -0.05538018048 2.345830942e-38
-0.1924511194 -0.3596683741 -0.1392116398 2.345830942e-38
-0.1578340381 -0.2939864993 0.3231007159 2.345723183e-38
-0.1939933747 -0.3304411471 -0.09056726843 2.345723183e-38
0.1502188444 -0.3825366497 0.285513401 2.345723183e-38
-0.1478418708 -0.3674276769 0.339625895 2.345723183e-38
-0.1948300451 -0.4354363084 0.1554550827 2.345723183e-38
-0.1916278452 -0.3549842238 -0.1071331203 2.345723183e-38
-0.3468186259 -0.401979506 -0.08672051132 2.345723183e-38
-0.08997859806 -0.3359354436 0.3287558854 2.345723183e-38
-0.1930093765 -0.3519869149 -0.1298959106 2.345615283e-38
-0.3070893586 -0.4056031108 -0.04399879277 2.345615283e-38
-0.1967564374 -0.3244464993 -0.1360928565 2.345615283e-38
0.1385874897 -0.3848257065 0.2978294194 2.345615283e-38
-0.1937001348 -0.3504882455 -0.1412772983 2.345615283e-38
-0.2727537155 -0.3910545409 -0.07163105905 2.345615283e-38
-0.1306918561 -0.3107660711 0.3253627717 2.345615283e-38
-0.1955074221 -0.3336266279 -0.1340272129 2.345615283e-38
-0.1968889534 -0.3306292892 -0.1567900032 2.345507523e-38
-0.1956399232 -0.3398094475 -0.1547243595 2.345507523e-38
-0.2038173825 -0.3495917916 -0.08550135046 2.345507523e-38
-0.1003608704 -0.3474045992 0.3431375325 2.345507523e-38
-0.210327521 -0.3160566986 -0.1372238994 2.345507523e-38
-0.1646597981 -0.4458449185 0.2446369976 2.345507523e-38
-0.1977122128 -0.3353134692 -0.1888685375 2.345507523e-38
-0.1565850079 -0.3031666577 0.3251663446 2.345507523e-38
-0.1717952192 -0.3705070615 0.3528765142 2.345399623e-38
-0.1724859774 -0.3690083921 0.3414951265 2.345399623e-38
-0.163969025 -0.4473435879 0.25601843 2.345399623e-38
-0.2212680727 -0.3198443949 -0.1135264933 2.345399623e-38
-0.1423231512 -0.3130550981 0.3376787901 2.345399623e-38
-0.1287520826 -0.3214448988 0.338809818 2.345399623e-38
-0.2840008736 -0.4751061499 0.2808772922 2.345399623e-38
-0.1430139095 -0.3115564287 0.3262974024 2.345399623e-38
-0.2432534248 -0.3660153151 -0.1789331287 2.345291723e-38
-0.3057078421 -0.4086004496 -0.02123599499 2.345291723e-38
-0.1841173023 -0.3712974191 0.3538111448 2.345291723e-38
-0.3100265265 -0.4736895561 0.2599836588 2.345291723e-38
-0.2342808992 -0.3191360831 -0.1239732951 2.345291723e-38
-0.2297105491 -0.3419923484 -0.08569777012 2.345291723e-38
-0.1837569922 -0.4254658222 0.1524548233 2.345291723e-38
-0.3364363313 -0.3905103505 -0.1011021882 2.345291723e-38
-0.1410741359 -0.3222352564 0.3397444189 2.345219836e-38
-0.3606755435 -0.439904511 0.05585677177 2.345219836e-38
-0.2236053795 -0.327714026 -0.1890649647 2.345219836e-38
-0.2616806626 -0.3810840249 -0.0746313259 2.345219836e-38
-0.2223563492 -0.3368941844 -0.1869993061 2.345219836e-38
-0.266516 -0.370593369 -0.1543011069 2.345219836e-38
-0.2359616309 -0.4627645612 0.2750731707 2.345219836e-38
-0.1380178332 -0.3482770026 0.3345599771 2.345219836e-38
-0.137327075 -0.349775672 0.3459413648 2.345111936e-38
-0.3090291321 -0.394924283 -0.05744582415 2.345111936e-38
-0.2996234596 -0.428271234 0.06049943343 2.345111936e-38
-0.2781473398 -0.372882396 -0.1419851035 2.345111936e-38
-0.2352366745 -0.3300030529 -0.1767489612 2.345111936e-38
-0.2989327013 -0.4297699034 0.07188081741 2.345111936e-38
-0.2486752719 -0.3154304624 -0.1571828574 2.345111936e-38
-0.1669672877 -0.314635843 0.3395479918 2.345111936e-38
-0.28977862 -0.3751714528 -0.1296690702 2.345004176e-38
-0.2493660301 -0.313931793 -0.1685642451 2.345004176e-38
-0.1496491581 -0.3505660594 0.3468759954 2.345004176e-38
-0.1508981735 -0.341385901 0.3448103368 2.345004176e-38
-0.2677650452 -0.3614132106 -0.1563667506 2.345004176e-38
-0.2975511551 -0.4327672124 0.09464361519 2.345004176e-38
-0.1659088284 -0.4366647601 0.242571339 2.345004176e-38
-0.1853663176 -0.3621172905 0.3517454863 2.345004176e-38
-0.2564404011 -0.4393881261 0.1601281613 2.344896276e-38
-0.2793963552 -0.3637022376 -0.1440507472 2.344896276e-38
-0.2604390383 -0.3239023089 -0.1655639708 2.344896276e-38
-0.2579410076 -0.3422625959 -0.1614326686 2.344896276e-38
-0.163910985 -0.3406775892 0.3343635798 2.344896276e-38
-0.2726286054 -0.3185098469 -0.1439322084 2.344896276e-38
-0.2986468971 -0.3834551275 -0.07182747871 2.344896276e-38
-0.389331758 -0.42631042 0.01013475657 2.344896276e-38
-0.2875738144 -0.3734846115 -0.07482774556 2.344788516e-38
-0.3940345943 -0.4096369743 -0.04883787036 2.344788516e-38
-0.3421365917 -0.4526021481 0.1573547274 2.344788516e-38
-0.2802478671 -0.33597368 -0.08402496576 2.344788516e-38
-0.1930584013 -0.353523314 0.147311002 2.344788516e-38
-0.2842599452 -0.3207988739 -0.1316162199 2.344788516e-38
-0.1762330383 -0.3414679766 0.3352981806 2.344788516e-38
-0.2818943858 -0.3453419805 -0.1481820494 2.344788516e-38
-0.3414458334 -0.4541007876 0.1687361151 2.344680616e-38
-0.1767912954 -0.3337864876 0.3446139097 2.344680616e-38
-0.3062660694 -0.4009189606 -0.01192023233 2.344680616e-38
-0.1706116647 -0.4199913144 0.1835987121 2.344680616e-38
-0.1744912416 -0.3986336589 0.1567046344 2.344680616e-38
-0.3407550752 -0.455599457 0.1801175028 2.344680616e-38
-0.1781057864 -0.3649104536 0.1712048054 2.344680616e-38
-0.2940973341 -0.4402605593 0.1515506208 2.344680616e-38
-0.2900718451 -0.3551243246 -0.07895904779 2.344572857e-38
-0.2925699055 -0.3367640376 -0.08309035003 2.344572857e-38
-0.2958911955 -0.3230879009 -0.1193002164 2.344572857e-38
-0.1692301333 -0.4229886532 0.2063615322 2.344572857e-38
-0.1891714334 -0.4412428439 0.2672033906 2.344572857e-38
-0.191251114 -0.3703849316 0.1400609165 2.344572857e-38
-0.308896631 -0.3887414932 -0.03674868122 2.344572857e-38
-0.1750494838 -0.3909521997 0.1660203785 2.344572857e-38
-0.3249791861 -0.4623024464 0.2360898703 2.344464957e-38
-0.3742465973 -0.43151474 0.05472573638 2.344464957e-38
-0.3036429882 -0.3467345238 -0.08009008318 2.344464957e-38
-0.3266122937 -0.3713597059 -0.1061681211 2.344464957e-38
-0.1902953386 -0.3595179915 0.1928365976 2.344464957e-38
-0.2014934868 -0.4420332015 0.2681379914 2.344464957e-38
-0.316788286 -0.3522090614 -0.1112340242 2.344464957e-38
-0.3184630573 -0.3291645944 -0.08328676969 2.344464957e-38
-0.317081511 -0.3321619332 -0.06052400172 2.344357197e-38
-0.3235976398 -0.4652997553 0.2588526309 2.344357197e-38
-0.3163907528 -0.3336606026 -0.04914259166 2.344357197e-38
-0.3127762079 -0.3673838675 -0.06364278495 2.344357197e-38
-0.2576894164 -0.4302079976 0.1580625176 2.344357197e-38
-0.1747844815 -0.3785865903 0.2074146718 2.344357197e-38
-0.1749169677 -0.3847694099 0.18671754 2.344357197e-38
-0.332166642 -0.3269576728 -0.1051149666 2.344357197e-38
-0.1497952789 -0.33233428 0.12596035 2.344249297e-38
-0.3137601912 -0.3458380997 -0.02431413904 2.344249297e-38
-0.3296686113 -0.34531793 -0.1009836495 2.344249297e-38
-0.1492370367 -0.3400157094 0.1166445464 2.344249297e-38
-0.2700114548 -0.4309983552 0.1589971185 2.344249297e-38
-0.3132019639 -0.3535195887 -0.03362990171 2.344249297e-38
-0.3714835346 -0.4375093877 0.1002513021 2.344249297e-38
-0.3080733418 -0.3840573132 -0.004670150578 2.344249297e-38
-0.2023241669 -0.3803554475 0.1430611908 2.344141397e-38
-0.3280220628 -0.3359496593 -0.03682659566 2.344141397e-38
-0.3129369318 -0.3411539197 0.00776439067 2.344141397e-38
-0.2019266635 -0.3618070185 0.2051525861 2.344141397e-38
-0.1348426938 -0.3437213898 0.1498541534 2.344141397e-38
-0.3707927763 -0.4390080571 0.1116327122 2.344141397e-38
-0.3259497583 -0.3404456377 -0.002682412043 2.344141397e-38
-0.3111296594 -0.3580155671 0.0005142819136 2.344141397e-38
-0.3511239588 -0.3667576015 -0.08360173553 2.344033637e-38
-0.16155909 -0.340806067 0.1175791621 2.344033637e-38
-0.1702141315 -0.4014428556 0.2456901819 2.344033637e-38
-0.179347381 -0.4220921695 0.2621374726 2.344033637e-38
-0.3523729742 -0.3575774729 -0.0856673792 2.344033637e-38
-0.3621969819 -0.3767281175 -0.08060146868 2.344033637e-38
-0.3554292619 -0.331535697 -0.08048292994 2.344033637e-38
-0.2384596765 -0.4444042742 0.2709418535 2.344033637e-38
-0.2142487168 -0.3625973761 0.2060872018 2.343925737e-38
-0.1471647471 -0.3445117474 0.1507887691 2.343925737e-38
-0.2417884022 -0.3643662632 0.1417337358 2.343925737e-38
-0.1608683169 -0.3423047662 0.1289606094 2.343925737e-38
-0.3091898859 -0.368694365 0.01396134496 2.343925737e-38
-0.2135579437 -0.3640960157 0.2174685895 2.343925737e-38
-0.2966028154 -0.355538398 0.05442099273 2.343925737e-38
-0.3108646274 -0.3456499279 0.04190857336 2.343925737e-38
-0.1601775587 -0.3438034058 0.1403419971 2.343817977e-38
-0.1744394302 -0.3339149952 0.1278295815 2.343817977e-38
-0.3007399738 -0.4129082561 0.07913093269 2.343817977e-38
-0.2988210022 -0.4575362206 0.2776805758 2.343817977e-38
-0.3536354005 -0.4487083554 0.1903678477 2.343817977e-38
-0.3084991276 -0.3701930344 0.02534272894 2.343817977e-38
-0.2128671855 -0.3655946851 0.2288499773 2.343817977e-38
-0.3665023148 -0.3415062129 -0.07748265564 2.343817977e-38
-0.3738282919 -0.3790171444 -0.06828544289 2.343710077e-38
-0.1843434721 -0.3853715956 0.2538748682 2.343710077e-38
-0.3238774538 -0.3449416459 0.03146179765 2.343710077e-38
-0.3090573549 -0.3625115752 0.03465849161 2.343710077e-38
-0.2539779544 -0.3589738011 0.1633654535 2.343710077e-38
-0.3000491858 -0.4144069254 0.09051231295 2.343710077e-38
-0.3363320529 -0.3519148231 0.01169927325 2.343710077e-38
-0.2258800268 -0.3648864031 0.2184032053 2.343710077e-38
-0.1830944419 -0.394551754 0.2559405267 2.343566444e-38
-0.3500356376 -0.3497078419 -0.01012890786 2.343566444e-38
-0.351563096 -0.4532043636 0.2245120555 2.343566444e-38
-0.1724996567 -0.344593823 0.1412766129 2.343566444e-38
-0.3756355643 -0.3621555269 -0.06103534997 2.343566444e-38
-0.3768845797 -0.3529753685 -0.06310100853 2.343566444e-38
-0.2251892686 -0.3663850725 0.229784593 2.343566444e-38
-0.3854595423 -0.3813061714 -0.0559694469 2.343566444e-38
-0.2656092942 -0.3612628281 0.1756814569 2.343458544e-38
-0.2979769111 -0.4189029336 0.1246564984 2.343458544e-38
-0.3357872069 -0.4599073231 0.2804844379 2.343458544e-38
-0.2614364624 -0.4026675224 0.1518655568 2.343458544e-38
-0.3062942922 -0.368506223 0.08018405735 2.343458544e-38
-0.2512149215 -0.3649684787 0.208891049 2.343458544e-38
-0.2649185061 -0.3627614975 0.1870628893 2.343458544e-38
-0.3850546479 -0.4291196167 0.09912026674 2.343458544e-38
-0.184130922 -0.3468828201 0.1535926014 2.343350644e-38
-0.3050452769 -0.3776863515 0.08224970847 2.343350644e-38
-0.3890741169 -0.3475829363 -0.0414692536 2.343350644e-38
-0.30602929 -0.3561405838 0.1215783209 2.343350644e-38
