# .PCD v0.7 - Point Cloud Data file format
VERSION 0.7
FIELDS x y z rgb
SIZE 4 4 4 4
TYPE F F F F
COUNT 1 1 1 1
WIDTH 843
HEIGHT 1
VIEWPOINT 0 0 0 1 0 0 0
POINTS 843
DATA ascii
0.2150447071 -0.1535886228 0.08086468279 9.871979525e-40
0.08957565576 -0.2138122171 0.07806821167 9.871979525e-40
0.1026862264 -0.1165590957 0.1799971312 9.871979525e-40
0.1021645516 -0.1539074481 0.1791235358 9.871979525e-40
0.1011324525 -0.2405185997 0.1522188485 9.871979525e-40
0.2293248773 -0.01711450517 0.09663505107 9.871979525e-40
0.06447058171 -0.213942498 0.1026664227 1.171585008e-39
0.1142291129 -0.2269338965 0.0904782638 1.171585008e-39
0.1518754661 -0.2148240507 0.078738451 1.171585008e-39
0.05189560354 -0.1901788116 0.1652806103 1.171585008e-39
0.2173866034 0.02043618821 0.0973745957 1.171585008e-39
0.06451820582 -0.1660173088 0.190863356 1.171585008e-39
0.05181428045 -0.2023607492 0.1525562555 1.171585008e-39
0.1014689952 -0.2037052512 0.1779587567 1.171585008e-39
0.07675669342 -0.226594314 0.1025092751 1.355972064e-39
0.1896030754 -0.1905322522 0.07972299308 1.355972064e-39
0.07702314854 -0.2138773501 0.0903673172 1.355972064e-39
0.1267816275 -0.2268687636 0.07817915827 1.355972064e-39
0.2277598679 -0.1291595846 0.09401427954 1.355972064e-39
0.06408909708 -0.2030981332 0.1775566041 1.355972064e-39
0.05257993191 -0.1284665763 0.1916029006 1.355972064e-39
0.0893092081 -0.2265291661 0.09021016955 1.355972064e-39
0.1015952677 -0.239180997 0.09005302191 1.540360521e-39
0.06473704427 -0.2012255043 0.0905244723 1.540360521e-39
0.2297652364 0.008051894605 0.08478429168 1.540360521e-39
0.05262487382 -0.1761242598 0.09097281843 1.540360521e-39
0.06500349194 -0.1885085553 0.07838251442 1.540360521e-39
0.1018617153 -0.2264640182 0.07791106403 1.540360521e-39
0.06400776654 -0.2152800858 0.1648322493 1.540360521e-39
0.0642041266 -0.2266594619 0.1148083806 1.540360521e-39
0.0521845296 -0.2012906671 0.1028235778 1.724747577e-39
0.07802154869 -0.09152296931 0.1927445829 1.724747577e-39
0.1770505607 -0.1905973852 0.0920220986 1.724747577e-39
0.2408340275 -0.09174609184 0.08258876204 1.724747577e-39
0.1644167453 -0.2028444558 0.09159685671 1.724747577e-39
0.2410079241 -0.07929662615 0.08287996054 1.724747577e-39
0.05240603536 -0.1409160197 0.1913117021 1.724747577e-39
0.1896844059 -0.1783503145 0.09244734049 1.724747577e-39
0.05292771012 -0.1035676748 0.1921852976 1.909134633e-39
0.1012950987 -0.2161547095 0.1776675582 1.909134633e-39
0.1517829001 -0.2150915563 0.09117160738 1.909134633e-39
0.05191806704 -0.2140076607 0.1149655282 1.909134633e-39
0.1643354148 -0.2150264233 0.07887250185 1.909134633e-39
0.2411818206 -0.06684718281 0.08317115903 1.909134633e-39
0.06434431672 -0.178466782 0.1905721575 1.909134633e-39
0.2022369802 -0.1782851666 0.08014823496 1.909134633e-39
0.101051122 -0.2527005374 0.1394944936 2.09352309e-39
0.101143688 -0.2524330318 0.1270612925 2.09352309e-39
0.1012362465 -0.2521655262 0.1146281362 2.09352309e-39
0.05172171444 -0.2026282549 0.1649894118 2.09352309e-39
0.2413557172 -0.05439773947 0.08346235752 2.09352309e-39
0.1017242149 -0.1790738851 0.1909742951 2.09352309e-39
0.05245098472 -0.1885737032 0.09068161994 2.09352309e-39
0.1013288125 -0.2518979907 0.1021949798 2.09352309e-39
0.1140552163 -0.2393833697 0.0901870653 2.277910146e-39
0.2294987738 -0.004665064625 0.09692624956 2.277910146e-39
0.1011212096 -0.2286041528 0.1773763597 2.277910146e-39
0.05271743238 -0.1758567542 0.07853966206 2.277910146e-39
0.06392644346 -0.2274620235 0.1521079093 2.277910146e-39
0.2407414615 -0.09201361239 0.09502191842 2.277910146e-39
0.101898104 -0.1666244119 0.1912654936 2.277910146e-39
0.06456314772 -0.2136749774 0.0902332738 2.277910146e-39
0.05201063305 -0.2137401402 0.1025323793 2.462297202e-39
0.2023183107 -0.166103214 0.09287258983 2.462297202e-39
0.07658280432 -0.2390437871 0.1022180766 2.462297202e-39
0.06391520053 -0.2155476063 0.1772654057 2.462297202e-39
0.0516403839 -0.2148102224 0.152265057 2.462297202e-39
0.06417042762 -0.1909162104 0.190280959 2.462297202e-39
0.06393767893 -0.2393764555 0.1269503385 2.462297202e-39
0.1894291937 -0.2029816806 0.07943179458 2.462297202e-39
0.2148708254 -0.1660380661 0.0805734843 2.646685659e-39
0.1141477823 -0.239115864 0.07775391638 2.646685659e-39
0.1014213786 -0.2516304851 0.08976182342 2.646685659e-39
0.1020719931 -0.1541749686 0.1915566921 2.646685659e-39
0.2410892546 -0.06711470336 0.0956043154 2.646685659e-39
0.05174417794 -0.2264570892 0.1146743298 2.646685659e-39
0.07684925944 -0.2263267934 0.09007612616 2.646685659e-39
0.05493305624 0.03364385292 0.1829553097 2.646685659e-39
0.09048149735 -0.09172533453 0.1928786337 2.830713982e-39
0.1391490698 -0.227338627 0.09074636549 2.830713982e-39
0.05362326652 -0.05376987532 0.1933500916 2.830713982e-39
0.05379716307 -0.0413204059 0.1936412752 2.830713982e-39
0.08940176666 -0.2262616605 0.07777702063 2.830713982e-39
0.1016878262 -0.2389134914 0.07761986554 2.830713982e-39
0.05165161937 -0.2267246097 0.1271074861 2.830713982e-39
0.06494731456 -0.1289364696 0.2041701674 2.830713982e-39
0.06383387744 -0.2277295291 0.1645410657 3.015101038e-39
0.1009473205 -0.2410536259 0.1770851612 3.015101038e-39
0.1517015845 -0.227273494 0.07844725996 3.015101038e-39
0.05227709562 -0.2010231465 0.09039042145 3.015101038e-39
0.2403936982 -0.1169125289 0.09443952143 3.015101038e-39
0.05397105217 -0.02887096442 0.1939324737 3.015101038e-39
0.2275859863 -0.141609028 0.09372308105 3.015101038e-39
0.2417034805 -0.02949882671 0.08404474705 3.015101038e-39
0.06512120366 -0.1164870337 0.204461351 3.199488094e-39
0.05205825716 -0.1658149362 0.1907293051 3.199488094e-39
0.05154781789 -0.215077728 0.1646982133 3.199488094e-39
0.05155905336 -0.2269921303 0.1395407021 3.199488094e-39
0.05162914842 -0.2028957754 0.1774225682 3.199488094e-39
0.1010623574 -0.2646149695 0.1143369377 3.199488094e-39
0.126607731 -0.2393182367 0.07788795978 3.199488094e-39
0.229939118 0.02050133608 0.08507549018 3.199488094e-39
0.1009697989 -0.2648824751 0.126770094 3.383517819e-39
0.05414494127 -0.01642149128 0.1942236722 3.383517819e-39
0.08896142989 -0.2514280975 0.08962777257 3.383517819e-39
0.05183674395 -0.2261895686 0.1022411808 3.383517819e-39
0.06529509276 -0.1040375605 0.2047525495 3.383517819e-39
0.1641615331 -0.2274758667 0.07858130336 3.383517819e-39
0.1008772328 -0.2651499808 0.13920331 3.383517819e-39
0.06375255436 -0.2399114966 0.1518167108 3.383517819e-39
0.05210319906 -0.2134726197 0.09009922296 3.567904875e-39
0.2414370477 -0.0422157906 0.09618670493 3.567904875e-39
0.2296726704 0.007784376852 0.09721744806 3.567904875e-39
0.1007734314 -0.253503114 0.1767939627 3.567904875e-39
0.07667537034 -0.2387762666 0.08978492767 3.567904875e-39
0.1012474895 -0.2640799284 0.08947062492 3.567904875e-39
0.06459952891 -0.153835386 0.2035877705 3.567904875e-39
0.1015139371 -0.2513629496 0.07732866704 3.567904875e-39
0.2021444142 -0.1785526723 0.09258139133 3.75229193e-39
0.101028651 -0.2288716733 0.1898095161 3.75229193e-39
0.1025936678 -0.1168266162 0.1924302876 3.75229193e-39
0.05147773027 -0.2391740829 0.1268162876 3.75229193e-39
0.05431883037 -0.003972049337 0.1945148706 3.75229193e-39
0.0514664948 -0.2272596508 0.1519738585 3.75229193e-39
0.05188436806 -0.1782644093 0.1904381067 3.75229193e-39
0.08922787756 -0.2387111336 0.07748582214 3.75229193e-39
0.05157028884 -0.2389065623 0.1143831313 3.936320254e-39
0.06546898186 -0.09158812463 0.205043748 3.936320254e-39
0.2146969289 -0.1784875393 0.08028228581 3.936320254e-39
0.076941818 -0.2260592878 0.07764296979 3.936320254e-39
0.06465570629 -0.2134074718 0.07780011743 3.936320254e-39
0.052661255 -0.1162846684 0.2043273151 3.936320254e-39
0.1027675569 -0.1043771505 0.1927214861 3.936320254e-39
0.1139739007 -0.2515653074 0.07746271789 3.936320254e-39
0.06382264197 -0.2158151269 0.189698562 4.120708711e-39
0.06365998834 -0.2401790023 0.1642498672 4.120708711e-39
0.1390677392 -0.2395205945 0.07802201062 4.120708711e-39
0.06376378983 -0.2518258989 0.12665914 4.120708711e-39
0.08869497478 -0.2641450465 0.1017697304 4.120708711e-39
0.0524873659 -0.1287340969 0.2040361166 4.120708711e-39
0.05145525187 -0.2153452486 0.1771313697 4.120708711e-39
0.1893366277 -0.2032491863 0.09186495095 4.120708711e-39
0.06367122382 -0.2520934045 0.139092356 4.304737034e-39
0.05138516426 -0.2394416034 0.1392495036 4.304737034e-39
0.05137392879 -0.2275271565 0.1644070148 4.304737034e-39
0.07650148124 -0.2512257397 0.08949372917 4.304737034e-39
0.05231346935 -0.1411835402 0.2037449181 4.304737034e-39
0.06394891441 -0.2512908578 0.1017928347 4.304737034e-39
0.1016316488 -0.1793414056 0.2034075111 4.304737034e-39
0.06357866526 -0.25236094 0.1515255123 4.304737034e-39
0.1138000041 -0.2640147507 0.0771715194 4.48912409e-39
0.08905398846 -0.251160562 0.07719462365 4.48912409e-39
0.05166285485 -0.2386390418 0.1019499823 4.48912409e-39
0.2274120897 -0.1540585011 0.09343188256 4.48912409e-39
0.2273307741 -0.1662404388 0.0807075277 4.48912409e-39
0.101340048 -0.263812393 0.077037476 4.48912409e-39
0.1640689671 -0.2277433723 0.09101445973 4.48912409e-39
0.2019705176 -0.1910021156 0.09229019284 4.48912409e-39
0.0530090332 -0.09138575196 0.2049097121 4.673152414e-39
0.101979427 -0.1544424891 0.2039899081 4.673152414e-39
0.1008884683 -0.2770644128 0.1140457392 4.673152414e-39
0.2420512736 -0.004599914886 0.08462714404 4.673152414e-39
0.1014577597 -0.191790849 0.2031163126 4.673152414e-39
0.06364875287 -0.2282645702 0.1894073635 4.673152414e-39
0.1021533161 -0.141993016 0.2042811066 4.673152414e-39
0.0512926057 -0.239709124 0.15168266 4.673152414e-39
0.1135335416 -0.2767317593 0.08931347728 4.857539469e-39
0.06348609924 -0.2526284456 0.1639586687 4.857539469e-39
0.0767679289 -0.2385087609 0.0773517713 4.857539469e-39
0.1010736004 -0.2765293717 0.08917942643 4.857539469e-39
0.06448181719 -0.2258569151 0.07750891894 4.857539469e-39
0.05466660857 0.02092683315 0.1950972676 4.857539469e-39
0.05219575763 -0.213205114 0.07766607404 4.857539469e-39
0.1263412833 -0.2520352006 0.09002991766 4.857539469e-39
0.05139639974 -0.2513560355 0.1140919477 5.041567793e-39
0.1264338493 -0.2517676651 0.07759676874 5.041567793e-39
0.05213958025 -0.1536330134 0.2034537196 5.041567793e-39
0.06407786161 -0.191183731 0.202714175 5.041567793e-39
0.05128136277 -0.227794677 0.1768401712 5.041567793e-39
0.0531829223 -0.07893627882 0.2052009106 5.041567793e-39
0.1006808728 -0.2537706196 0.1892271191 5.041567793e-39
0.1023272127 -0.1295435727 0.2045723051 5.041567793e-39
0.06339353323 -0.2528959811 0.1763918251 5.225597518e-39
0.2145230323 -0.1909369826 0.07999108732 5.225597518e-39
0.05130384117 -0.2516235411 0.1265250891 5.225597518e-39
0.2531201243 -0.1043979079 0.0824316144 5.225597518e-39
0.1639876366 -0.2399253398 0.07829010487 5.225597518e-39
0.2532939911 -0.09194846451 0.08272281289 5.225597518e-39
0.2400459051 -0.1418114007 0.09385712445 5.225597518e-39
0.2529462278 -0.116847381 0.08214041591 5.225597518e-39
0.1007033437 -0.2775994241 0.1389121115 5.409984573e-39
0.2534678876 -0.07949899137 0.08301401138 5.409984573e-39
0.1891627312 -0.2156986594 0.09157375246 5.409984573e-39
0.2017153054 -0.2156335264 0.07927464694 5.409984573e-39
0.05121127516 -0.2518910468 0.1389583051 5.409984573e-39
0.07632759213 -0.2636751831 0.08920253068 5.409984573e-39
0.064854756 -0.1292039901 0.2166033089 5.409984573e-39
0.08852108568 -0.2765945196 0.101478532 5.409984573e-39
0.09056282043 -0.07954338938 0.2056030482 5.594012897e-39
0.2536417842 -0.06704954803 0.08330520242 5.594012897e-39
0.06331221014 -0.265077889 0.1636674702 5.594012897e-39
0.1006107852 -0.2778669596 0.151345253 5.594012897e-39
0.1011099741 -0.2166897506 0.2025339156 5.594012897e-39
0.08888009936 -0.2636100054 0.07690342516 5.594012897e-39
0.241784811 -0.01731687412 0.09676910192 5.594012897e-39
0.06404148042 -0.2510233521 0.08935967833 5.594012897e-39
0.06377502531 -0.2637403011 0.1015016362 5.77804122e-39
0.0765940398 -0.2509582043 0.0770605728 5.77804122e-39
0.1514351219 -0.2399904728 0.09058921039 5.77804122e-39
0.06340477616 -0.2648103833 0.1512343138 5.77804122e-39
0.06347486377 -0.2407140434 0.189116165 5.77804122e-39
0.0883359611 -0.2771295607 0.1263448447 5.77804122e-39
0.06358990073 -0.2642753422 0.1263679415 5.77804122e-39
0.05196569115 -0.1660824567 0.2031625211 5.77804122e-39
0.06349733472 -0.2645428479 0.1388011575 5.962428276e-39
0.05148896575 -0.2510885 0.1016587839 5.962428276e-39
0.05136269331 -0.2156127691 0.1895645112 5.962428276e-39
0.0650286451 -0.1167545468 0.2168945074 5.962428276e-39
0.1388938576 -0.2519700527 0.07773081213 5.962428276e-39
0.08815083653 -0.2776646018 0.151211217 5.962428276e-39
0.08824339509 -0.2773970664 0.1387780607 5.962428276e-39
0.201796636 -0.2034515589 0.09199899435 5.962428276e-39
0.1011661589 -0.2762618363 0.07674627751 6.1464566e-39
0.08805827051 -0.2779321074 0.1636443585 6.1464566e-39
0.05175542086 -0.2383715212 0.08951682597 6.1464566e-39
0.0535307005 -0.05403739214 0.2057832927 6.1464566e-39
0.1005182192 -0.2781344652 0.1637784094 6.1464566e-39
0.1261673868 -0.2644846439 0.08973871917 6.1464566e-39
0.06430792809 -0.2383063883 0.07721772045 6.1464566e-39
0.05110747367 -0.2402441502 0.1765489727 6.1464566e-39
0.0652025342 -0.1043050736 0.2171857059 6.330484923e-39
0.2533753216 -0.07976651192 0.0954471603 6.330484923e-39
0.05484049767 0.0333763361 0.1953884661 6.330484923e-39
0.05202186853 -0.2256545424 0.07737487555 6.330484923e-39
0.2538156807 -0.05460010841 0.08359640092 6.330484923e-39
0.1133596599 -0.2891812027 0.08902227879 6.330484923e-39
0.1764475703 -0.2401276976 0.07842415571 6.330484923e-39
0.05387848616 -0.02913848311 0.2063656896 6.330484923e-39
0.1008997113 -0.2889788151 0.08888823539 6.514514648e-39
0.2530275583 -0.1046654284 0.09486477077 6.514514648e-39
0.06450697035 -0.1541029066 0.2160209268 6.514514648e-39
0.2535492182 -0.06731706858 0.0957383588 6.514514648e-39
0.1262599528 -0.2642171085 0.07730557024 6.514514648e-39
0.2143491507 -0.203386426 0.07969988883 6.514514648e-39
0.05405237526 -0.01668900996 0.2066568881 6.514514648e-39
0.06373007596 -0.2160826474 0.202131778 6.514514648e-39
0.2272382081 -0.1665079445 0.09314068407 6.698542971e-39
0.1513538063 -0.2521724105 0.07786486298 6.698542971e-39
0.1004256532 -0.2784020007 0.1762115657 6.698542971e-39
0.07569088787 -0.277462244 0.1510771662 6.698542971e-39
0.06433308125 -0.1665523499 0.2157297283 6.698542971e-39
0.06330097467 -0.2531634867 0.1888249665 6.698542971e-39
0.1030227691 -0.0797457546 0.2057370991 6.698542971e-39
0.07578344643 -0.2771947086 0.1386440098 6.698542971e-39
0.07587601244 -0.2769272029 0.1262107939 6.882571295e-39
0.05239480734 -0.1290016174 0.216469273 6.882571295e-39
0.07615370303 -0.2761246562 0.08891133219 6.882571295e-39
0.2397907078 -0.1664428115 0.08084157854 6.882571295e-39
0.0879657045 -0.2781996429 0.1760775149 6.882571295e-39
0.1026749909 -0.1046446711 0.2051547021 6.882571295e-39
0.2525984347 -0.1417462677 0.08155801892 6.882571295e-39
0.0764201507 -0.2634076476 0.07676937431 6.882571295e-39
0.05093358457 -0.2526936233 0.1762577742 7.066599618e-39
0.08870621026 -0.2760594785 0.07661222667 7.066599618e-39
0.05131507665 -0.2635379434 0.1013675928 7.066599618e-39
0.2144304663 -0.1912044883 0.09242424369 7.066599618e-39
0.05112995207 -0.2640729845 0.1262338907 7.066599618e-39
0.2537231147 -0.05486762896 0.09602955729 7.066599618e-39
0.2016227394 -0.2159010321 0.09170779586 7.066599618e-39
0.2398720384 -0.1542608738 0.09356592596 7.066599618e-39
0.07559832186 -0.2777297497 0.1635103226 7.250627941e-39
0.05103738606 -0.2643404901 0.1386671066 7.250627941e-39
0.05222091079 -0.1414510608 0.2161780745 7.250627941e-39
0.05274258554 -0.1041027084 0.2170516551 7.250627941e-39
0.2015414238 -0.2280829698 0.07898344845 7.250627941e-39
0.1005069837 -0.266220063 0.1889359206 7.250627941e-39
0.0509448275 -0.2646080256 0.151100263 7.250627941e-39
0.1018868685 -0.1547100097 0.2164230645 7.250627941e-39
0.06415919214 -0.1790018231 0.2154385298 7.434656265e-39
0.05440015346 0.008209873922 0.2072392851 7.434656265e-39
0.05158153176 -0.2508209944 0.08922563493 7.434656265e-39
0.1017129794 -0.167159453 0.216131866 7.434656265e-39
0.1638137549 -0.2523747683 0.07799890637 7.434656265e-39
0.1020607576 -0.1422605366 0.216714263 7.434656265e-39
0.05184797943 -0.2381040156 0.07708367705 7.434656265e-39
0.138719961 -0.2644194961 0.07743961364 7.434656265e-39
0.05101491511 -0.2405116707 0.1889821291 7.618684588e-39
0.05291647464 -0.09165326506 0.2173428535 7.618684588e-39
0.226982981 -0.1911393553 0.08012513816 7.618684588e-39
0.2141752541 -0.2158358991 0.07940869033 7.618684588e-39
0.1512612402 -0.2524399459 0.0902980119 7.618684588e-39
0.1022346541 -0.1298110932 0.2170054615 7.618684588e-39
0.254163444 -0.02970119566 0.0841787979 7.618684588e-39
0.188907519 -0.2403300703 0.07855819911 7.618684588e-39
0.2526797652 -0.12956433 0.09428237379 7.802712912e-39
0.1013652012 -0.1920583695 0.215549469 7.802712912e-39
0.1129305512 -0.326262027 0.07571553439 7.802712912e-39
0.1130118817 -0.3140801191 0.0884398818 7.802712912e-39
0.1008183733 -0.3011607528 0.07616388053 7.802712912e-39
0.06355618685 -0.2285320908 0.2018405795 7.802712912e-39
0.06398530304 -0.1914512515 0.2151473314 7.802712912e-39
0.06350857019 -0.2764573097 0.1136435866 7.802712912e-39
0.05309036374 -0.07920379192 0.217634052 7.986382503e-39
0.06341601163 -0.2767248154 0.126076743 7.986382503e-39
0.2270643115 -0.1789574176 0.09284948558 7.986382503e-39
0.1258196086 -0.2893835604 0.08915632963 7.986382503e-39
0.138627395 -0.2646870315 0.08987277001 7.986382503e-39
0.07704829425 -0.1421233118 0.2288793176 7.986382503e-39
0.05085226148 -0.2648755312 0.1635334194 7.986382503e-39
0.1252166033 -0.3389138579 0.07555837929 7.986382503e-39
0.2538970113 -0.04241815582 0.09632075578 8.170410826e-39
0.0772221908 -0.1296738684 0.2291705161 8.170410826e-39
0.125738278 -0.3015654981 0.07643197477 8.170410826e-39
0.0762462616 -0.2758571208 0.07647817582 8.170410826e-39
0.1511799097 -0.2646218538 0.07757366449 8.170410826e-39
0.2142565846 -0.2036539316 0.0921330452 8.170410826e-39
0.1253904998 -0.3264643848 0.07584957778 8.170410826e-39
0.1005519256 -0.3138777316 0.08830583841 8.170410826e-39
0.08826586604 -0.3012259305 0.08846298605 8.35443915e-39
0.1004705951 -0.3260596395 0.07558148354 8.35443915e-39
0.05457404256 0.02065931447 0.2075304836 8.35443915e-39
0.2421326041 0.007582008839 0.0973514989 8.35443915e-39
0.1762736887 -0.2525771558 0.07813295722 8.35443915e-39
0.08853232116 -0.2885089219 0.07632102817 8.35443915e-39
0.125645712 -0.3018330336 0.08886513114 8.35443915e-39
0.1128379852 -0.3265295625 0.08814869076 8.35443915e-39
0.06476218998 -0.1294714957 0.2290364653 8.538467473e-39
0.1024085432 -0.1173616499 0.2172966599 8.538467473e-39
0.2543373406 -0.01725172438 0.08446999639 8.538467473e-39
0.05187313259 -0.1663499773 0.2155956775 8.538467473e-39
0.05140764266 -0.2632704377 0.08893443644 8.538467473e-39
0.1127566546 -0.3387115002 0.0754243359 8.538467473e-39
0.07687440515 -0.1545727849 0.2285881191 8.538467473e-39
0.1637211889 -0.2526423037 0.09043206275 8.538467473e-39
0.2268090993 -0.2035887986 0.07983393967 8.722137064e-39
0.2014488578 -0.2283504754 0.09141660482 8.722137064e-39
0.1254718304 -0.3142824769 0.08857393265 8.722137064e-39
0.06493607908 -0.1170220673 0.2293276638 8.722137064e-39
0.09047026187 -0.07981090248 0.2180362046 8.722137064e-39
0.2396981418 -0.1667103171 0.09327473491 8.722137064e-39
0.2140013725 -0.2282853425 0.07911749184 8.722137064e-39
0.1252979338 -0.3267319202 0.08828273416 8.722137064e-39
0.08950824291 -0.1423256695 0.2290133685 8.906165387e-39
0.05114118755 -0.2759874165 0.1010763943 8.906165387e-39
0.1384534985 -0.2771365047 0.08958157152 8.906165387e-39
0.2013675272 -0.2405324429 0.07869224995 8.906165387e-39
0.06510996819 -0.1045725942 0.2296188623 8.906165387e-39
0.1250427216 -0.3513633013 0.07526718825 8.906165387e-39
0.2525058687 -0.1420137733 0.09399117529 8.906165387e-39
0.05104862154 -0.276254952 0.1135095507 8.906165387e-39
0.1025824323 -0.1049121842 0.2175878584 9.089834978e-39
0.188814953 -0.2405975759 0.09099135548 9.089834978e-39
0.226890415 -0.1914068609 0.09255828708 9.089834978e-39
0.05474793166 0.03310881928 0.2078216821 9.089834978e-39
0.254070878 -0.0299687162 0.09661195427 9.089834978e-39
0.2140826881 -0.2161034048 0.0918418467 9.089834978e-39
0.1510873437 -0.2648893893 0.09000682086 9.089834978e-39
0.1005883068 -0.2540381253 0.2016603351 9.089834978e-39
0.2657539845 -0.09215082973 0.08285685629 9.273863302e-39
0.05075969547 -0.2651430666 0.1759665757 9.273863302e-39
0.07580591738 -0.3010235727 0.08832893521 9.273863302e-39
0.0891604647 -0.167224586 0.2284309715 9.273863302e-39
0.265927881 -0.07970136404 0.08314805478 9.273863302e-39
0.06338229775 -0.2409815639 0.201549381 9.273863302e-39
0.1003780365 -0.3263271749 0.08801463991 9.273863302e-39
0.2545112371 -0.004802283365 0.08476119488 9.273863302e-39
0.1003330946 -0.2786695063 0.1886447221 9.457532893e-39
0.2394429147 -0.1913417131 0.08025918156 9.457532893e-39
0.06378626078 -0.2756547332 0.07634413242 9.457532893e-39
0.2266352028 -0.2160382718 0.07954274118 9.457532893e-39
0.2654062212 -0.1170497462 0.08227446675 9.457532893e-39
0.0760723725 -0.2883065641 0.07618698478 9.457532893e-39
0.0510962382 -0.2283297181 0.2017065287 9.457532893e-39
0.05247613043 -0.1168197021 0.2291936129 9.457532893e-39
0.2661017776 -0.0672519207 0.08343925327 9.641561216e-39
0.06312708557 -0.2656129301 0.188533783 9.641561216e-39
0.1383721828 -0.2893183827 0.07685722411 9.641561216e-39
0.06545774639 -0.07967368513 0.2302012593 9.641561216e-39
0.1510060132 -0.277071327 0.07728246599 9.641561216e-39
0.05152535439 -0.1912488937 0.2150132805 9.641561216e-39
0.05212834477 -0.1417185664 0.2286112309 9.641561216e-39
0.1761811227 -0.2528446913 0.09056611359 9.641561216e-39
0.05150020123 -0.2630029023 0.07650128007 9.825230807e-39
0.05395981669 -0.01695652865 0.2190900445 9.825230807e-39
0.1378505081 -0.3266667426 0.07598362863 9.825230807e-39
0.1382796168 -0.2895859182 0.08929037303 9.825230807e-39
0.05123375356 -0.2757199109 0.08864323795 9.825230807e-39
0.05265001953 -0.1043702289 0.2294848114 9.825230807e-39
0.1010174155 -0.2169572711 0.214967072 9.825230807e-39
0.06304575503 -0.2777948976 0.1758094281 9.825230807e-39
0.05086349696 -0.2767899632 0.1383759081 1.000925913e-38
0.2395242453 -0.1791597903 0.09298353642 1.000925913e-38
0.1375840455 -0.3393837512 0.08812558651 1.000925913e-38
0.265835315 -0.07996888459 0.09558121115 1.000925913e-38
0.1760997921 -0.2650265992 0.07784175873 1.000925913e-38
0.05282390863 -0.09192078561 0.2297760099 1.000925913e-38
0.2138274759 -0.2407348156 0.0788263008 1.000925913e-38
0.2654875517 -0.1048677936 0.09499881417 1.000925913e-38
0.08787314594 -0.2784671485 0.1885106713 1.019292872e-38
0.2267165333 -0.2038563043 0.09226709604 1.019292872e-38
0.0543075949 0.007942356169 0.2196724415 1.019292872e-38
0.1377579421 -0.326934278 0.088416785 1.019292872e-38
0.1249501556 -0.3516308367 0.08770033717 1.019292872e-38
0.1021420881 -0.1300785989 0.2294386178 1.019292872e-38
0.05299779773 -0.07947131246 0.2300672084 1.019292872e-38
0.2012749612 -0.2407999486 0.09112540632 1.019292872e-38
0.1509134471 -0.2773388624 0.08971562237 1.037659831e-38
0.2523320019 -0.1544632316 0.0936999768 1.037659831e-38
0.149788782 -0.3642175198 0.075244084 1.037659831e-38
0.2546851337 0.007647158578 0.08505238593 1.037659831e-38
0.2264613211 -0.2284877002 0.07925154269 1.037659831e-38
0.1016204134 -0.1674269587 0.2285650223 1.037659831e-38
0.2011936456 -0.2529818714 0.07840105146 1.037659831e-38
0.1634659618 -0.2772736847 0.07741651684 1.037659831e-38
0.07635273784 -0.1919211298 0.2277145237 1.056062664e-38
0.1622487307 -0.3644198775 0.07537813485 1.056062664e-38
0.06361237168 -0.2881041765 0.07605293393 1.056062664e-38
0.07563202828 -0.313473016 0.08803774416 1.056062664e-38
0.2653136551 -0.1173172668 0.09470761567 1.056062664e-38
0.0888126865 -0.1921235025 0.2278485745 1.056062664e-38
0.1023159772 -0.1176291704 0.2297298163 1.056062664e-38
0.1886410713 -0.253047049 0.09070015699 1.056062664e-38
0.05132631212 -0.2754523754 0.07621008158 1.074429623e-38
0.1624226272 -0.3519704044 0.07566932589 1.074429623e-38
0.0509223491 -0.2407791913 0.2014153302 1.074429623e-38
0.1498701125 -0.3520355821 0.08796843886 1.074429623e-38
0.07572458684 -0.3132054806 0.07560458779 1.074429623e-38
0.1002041474 -0.338776648 0.08772344142 1.074429623e-38
0.05096729845 -0.2884368598 0.1007851958 1.074429623e-38
0.1248688251 -0.3638127744 0.07497598976 1.074429623e-38
0.1885597408 -0.2652289569 0.07797580957 1.092796582e-38
0.1496149004 -0.3766669333 0.07495288551 1.092796582e-38
0.1001228169 -0.3509585559 0.07499909401 1.092796582e-38
0.05334557593 -0.05457242951 0.2306496054 1.092796582e-38
0.07541319728 -0.2782647908 0.1883766204 1.092796582e-38
0.1014465243 -0.1798764318 0.2282738239 1.092796582e-38
0.07730351388 -0.1174919605 0.2418948561 1.092796582e-38
0.09037769586 -0.08007842302 0.2304693609 1.092796582e-38
0.2544186711 -0.005069801118 0.09719434381 1.111163541e-38
0.2390951514 -0.2162406296 0.07967678457 1.111163541e-38
0.06484351307 -0.1172895879 0.2417608351 1.111163541e-38
0.2265426368 -0.2163057774 0.09197589755 1.111163541e-38
0.2664495707 -0.04235300422 0.08402165025 1.111163541e-38
0.05178056657 -0.1666174829 0.2280288339 1.111163541e-38
0.05105986446 -0.2881693542 0.08835203946 1.111163541e-38
0.06343847513 -0.3005536497 0.07576173544 1.111163541e-38
0.1633733958 -0.2775412202 0.08984966576 1.1295305e-38
0.2136535943 -0.2531842589 0.07853510231 1.1295305e-38
0.06346362829 -0.2287996113 0.2142737359 1.1295305e-38
0.1504843533 -0.3144196868 0.07640887052 1.1295305e-38
0.06519129127 -0.09239067882 0.2423432022 1.1295305e-38
0.1623300612 -0.3522379398 0.08810248226 1.1295305e-38
0.06389273703 -0.1917187572 0.2275804877 1.1295305e-38
0.2521581054 -0.1669126749 0.09340877831 1.1295305e-38
0.0878367573 -0.3383067548 0.07515624166 1.147897319e-38
0.05066713691 -0.2654105723 0.1883997321 1.147897319e-38
0.1012726352 -0.1923258752 0.2279826254 1.147897319e-38
0.1006696373 -0.2418561876 0.214384675 1.147897319e-38
0.2666234374 -0.0299035646 0.08431284875 1.147897319e-38
0.162074849 -0.3768693209 0.07508693635 1.147897319e-38
0.174882561 -0.3521727622 0.07580337673 1.147897319e-38
0.149696216 -0.3644850552 0.08767724037 1.147897319e-38
0.05238356441 -0.1170872226 0.2416267842 1.166264278e-38
0.1502178907 -0.3271366656 0.0885508284 1.166264278e-38
0.2519028783 -0.1915440857 0.08039323241 1.166264278e-38
0.07765129209 -0.09259304404 0.2424772531 1.166264278e-38
0.2389212549 -0.2286900729 0.07938559353 1.166264278e-38
0.2263687551 -0.2287552059 0.09168469906 1.166264278e-38
0.1632920802 -0.2897231281 0.07712531835 1.166264278e-38
0.1028376445 -0.08028078824 0.2306033969 1.166264278e-38
0.1621561646 -0.364687413 0.08781128377 1.184631237e-38
0.2663570046 -0.04262052476 0.09645479918 1.184631237e-38
0.05115242302 -0.2879018188 0.07591888309 1.184631237e-38
0.05369336158 -0.02967351675 0.2312320024 1.184631237e-38
0.1000302583 -0.3512260914 0.08743224293 1.184631237e-38
0.05160667747 -0.179066956 0.2277376354 1.184631237e-38
0.1871686131 -0.3648246229 0.07564622909 1.184631237e-38
0.1370623857 -0.376732111 0.08725199103 1.184631237e-38
0.1884671748 -0.2654964924 0.09040895849 1.202998196e-38
0.1247762591 -0.3640803099 0.08740913868 1.202998196e-38
0.2545925677 0.007379640825 0.0974855423 1.202998196e-38
0.05273134261 -0.09218830615 0.2422091812 1.202998196e-38
0.0546553731 0.03284130245 0.2202548385 1.202998196e-38
0.1873425096 -0.3523751497 0.07593742758 1.202998196e-38
0.264965862 -0.1422161311 0.09412522614 1.202998196e-38
0.05290523171 -0.07973883301 0.2425003797 1.202998196e-38
0.07555069774 -0.3256549239 0.0753133893 1.221365155e-38
0.1745347828 -0.3770716786 0.07522097975 1.221365155e-38
0.1627704054 -0.3270714879 0.07625172287 1.221365155e-38
0.08846490085 -0.217022419 0.2272661775 1.221365155e-38
0.1010987461 -0.2047753185 0.2276914269 1.221365155e-38
0.2783878446 -0.07990372926 0.08328210562 1.221365155e-38
0.06295319647 -0.2780624032 0.1882425845 1.221365155e-38
0.1625039428 -0.3397884965 0.08839368075 1.221365155e-38
0.1757520139 -0.2899255157 0.07725936174 1.239732115e-38
0.07545813918 -0.3259224594 0.08774654567 1.239732115e-38
0.05404113978 -0.004774603993 0.2318143994 1.239732115e-38
0.2390025854 -0.2165081352 0.09210994095 1.239732115e-38
0.1746160984 -0.3648897707 0.08794533461 1.239732115e-38
0.05203577876 -0.141986087 0.2410443872 1.239732115e-38
0.0876628682 -0.3507561982 0.07486504316 1.239732115e-38
0.1750564426 -0.3397233188 0.07609457523 1.239732115e-38
0.2780400813 -0.1048026457 0.08269970864 1.258099074e-38
0.06328973919 -0.2412490845 0.2139825374 1.258099074e-38
0.09994892776 -0.3634080291 0.07470789552 1.258099074e-38
0.06317202747 -0.3132706285 0.08790369332 1.258099074e-38
0.05307912081 -0.06728939712 0.2427915484 1.258099074e-38
0.1631181836 -0.3021726012 0.07683411986 1.258099074e-38
0.2134796977 -0.2656337023 0.07824390382 1.258099074e-38
0.07600495219 -0.2168200463 0.2271321416 1.258099074e-38
0.2261135429 -0.2533866167 0.0786691457 1.276466033e-38
0.1245210469 -0.3887116611 0.07439359277 1.276466033e-38
0.09011124074 -0.09279540926 0.2426113039 1.276466033e-38
0.06326458603 -0.313003093 0.07547053695 1.276466033e-38
0.2647106647 -0.1668475419 0.08110967278 1.276466033e-38
0.2785617411 -0.06745428592 0.08357330412 1.276466033e-38
0.1996286213 -0.3650269806 0.07578027248 1.276466033e-38
0.2008458525 -0.2778807878 0.07781865448 1.276466033e-38
0.2387473583 -0.241139546 0.07909439504 1.294832852e-38
0.2261948586 -0.241204679 0.09139350057 1.294832852e-38
0.05143278837 -0.1915163994 0.2274464369 1.294832852e-38
0.05088596791 -0.3006188273 0.08806084096 1.294832852e-38
0.1002405286 -0.278937012 0.2010779381 1.294832852e-38
0.0507934019 -0.300886333 0.1004939973 1.294832852e-38
0.05325300992 -0.05483994633 0.2430827469 1.294832852e-38
0.1619009525 -0.3893187642 0.07479573786 1.294832852e-38
0.200927183 -0.2656988502 0.09054300934 1.313163938e-38
0.1626778394 -0.3273390234 0.08868487924 1.313163938e-38
0.09028512985 -0.08034594357 0.2429025024 1.313163938e-38
0.05097852647 -0.3003512919 0.07562768459 1.313163938e-38
0.1869947314 -0.3772740662 0.0753550306 1.313163938e-38
0.278121382 -0.09262072295 0.0954240635 1.313163938e-38
0.1875163913 -0.3399257064 0.07622861862 1.313163938e-38
0.251555115 -0.2164430022 0.07981083542 1.313163938e-38
0.1872499436 -0.3526426852 0.0883705765 1.331530897e-38
0.1870760471 -0.3650921583 0.08807937801 1.331530897e-38
0.1752303392 -0.3272738457 0.07638577372 1.331530897e-38
0.1749638766 -0.3399908543 0.0885277316 1.331530897e-38
0.161982283 -0.3771368563 0.08752008528 1.331530897e-38
0.06303451955 -0.2658804357 0.200966984 1.331530897e-38
0.1122349948 -0.3760598302 0.07455074042 1.331530897e-38
0.1628517359 -0.31488958 0.08897607774 1.331530897e-38
0.1630256176 -0.3024401367 0.08926727623 1.349897856e-38
0.2779475152 -0.1050701663 0.09513286501 1.349897856e-38
0.0505970493 -0.289506942 0.150517866 1.349897856e-38
0.1246023774 -0.3765297532 0.08711794764 1.349897856e-38
0.08829101175 -0.2294718623 0.226974979 1.349897856e-38
0.05342690647 -0.04239047691 0.2433739454 1.349897856e-38
0.1368884891 -0.3891815543 0.08696079254 1.349897856e-38
0.05186188966 -0.1544355601 0.2407531887 1.349897856e-38
0.1490932256 -0.4140152931 0.07407929748 1.368228942e-38
0.07537680864 -0.3381043971 0.07502219081 1.368228942e-38
0.1025711894 -0.09299778193 0.2427453548 1.368228942e-38
0.2667047679 -0.01772161014 0.09703719616 1.368228942e-38
0.2259396464 -0.26583606 0.07837795466 1.368228942e-38
0.1994547397 -0.377476424 0.07548908144 1.368228942e-38
0.05070083588 -0.3011538684 0.1129271537 1.368228942e-38
0.1754042357 -0.3148244023 0.07667697221 1.368228942e-38
0.1999763995 -0.3401280642 0.07636266947 1.386595901e-38
0.1743608862 -0.389521122 0.07492978871 1.386595901e-38
0.2671451271 0.007444789633 0.08518643677 1.386595901e-38
0.05125889927 -0.2039658427 0.2271552384 1.386595901e-38
0.21208857 -0.3652293384 0.07591432333 1.386595901e-38
0.07583106309 -0.2292694896 0.2268409431 1.386595901e-38
0.1366332769 -0.4138129354 0.07394524664 1.386595901e-38
0.1493484378 -0.3893839121 0.08709484339 1.386595901e-38
0.1003218591 -0.2667551041 0.2138022929 1.404926846e-38
0.1615531743 -0.4142176807 0.07421334088 1.404926846e-38
0.2133871317 -0.2659012377 0.09067706019 1.404926846e-38
0.2513812184 -0.2288924456 0.07951963693 1.404926846e-38
0.1876902878 -0.3274762332 0.07651981711 1.404926846e-38
0.05050448328 -0.2897744477 0.1629510224 1.404926846e-38
0.1027450785 -0.08054830879 0.2430365533 1.404926846e-38
0.1243471652 -0.4011611342 0.07410239428 1.404926846e-38
0.1744422168 -0.3773392141 0.08765413612 1.423293806e-38
0.1007509604 -0.2296742201 0.2271090299 1.423293806e-38
0.05438891798 0.02012427896 0.2323967963 1.423293806e-38
0.2777736187 -0.117519632 0.09484166652 1.423293806e-38
0.05360079557 -0.0299410373 0.2436651438 1.423293806e-38
0.1874238253 -0.3401932418 0.08866177499 1.423293806e-38
0.2007532865 -0.2781483233 0.09025181085 1.423293806e-38
0.2122624665 -0.3527798653 0.07620552182 1.423293806e-38
0.1120610982 -0.3885092735 0.07425954938 1.441624891e-38
0.06299813837 -0.3257200718 0.08761249483 1.441624891e-38
0.188038066 -0.3025773466 0.0771022141 1.441624891e-38
0.2386547923 -0.2414070517 0.09152754396 1.441624891e-38
0.05168800056 -0.1668850034 0.2404619902 1.441624891e-38
0.07532063127 -0.2785322964 0.2008098364 1.441624891e-38
0.2786430717 -0.05527236685 0.09629765153 1.441624891e-38
0.2668786645 -0.005272170063 0.09732839465 1.441624891e-38
0.174013108 -0.4144200385 0.07434739172 1.459991851e-38
0.1868208349 -0.3897234797 0.0750638321 1.459991851e-38
0.05060827732 -0.3014213741 0.1253603101 1.459991851e-38
0.2789095342 -0.04255537316 0.08415569365 1.459991851e-38
0.05298656225 -0.06755691022 0.2552247047 1.459991851e-38
0.148919329 -0.4264647663 0.07378809899 1.459991851e-38
0.2646180987 -0.1671150476 0.09354282916 1.459991851e-38
0.1878641844 -0.3150267899 0.07681101561 1.459991851e-38
0.05082979053 -0.2410467118 0.2138484865 1.478322936e-38
0.1121424288 -0.3763273656 0.08698389679 1.478322936e-38
0.1618083864 -0.3895862997 0.08722889423 1.478322936e-38
0.1741870046 -0.4019705951 0.07463859022 1.478322936e-38
0.1241732687 -0.4136105776 0.07381119579 1.478322936e-38
0.2643628716 -0.1917464584 0.0805272758 1.478322936e-38
0.1753116697 -0.3150919378 0.08911012113 1.478322936e-38
0.2775997221 -0.1299690604 0.09455046803 1.478322936e-38
0.1869021654 -0.3775416017 0.08778818697 1.496689755e-38
0.224374637 -0.3778811693 0.07575717568 1.496689755e-38
0.2257657498 -0.2782855332 0.07808675617 1.496689755e-38
0.1998838335 -0.3403955996 0.08879582584 1.496689755e-38
0.09977503866 -0.3758574724 0.07441669703 1.496689755e-38
0.1875977218 -0.3277437687 0.08895297348 1.496689755e-38
0.05229100585 -0.1173547357 0.2540599108 1.496689755e-38
0.1005770713 -0.2421236932 0.2268178314 1.496689755e-38
0.05377468467 -0.01749156415 0.2439563423 1.515020841e-38
0.2245485187 -0.365431726 0.07604837418 1.515020841e-38
0.1491745561 -0.4018333852 0.0868036449 1.515020841e-38
0.05041191727 -0.2900419831 0.1753841788 1.515020841e-38
0.2003241926 -0.3152291477 0.07694506645 1.515020841e-38
0.07565717399 -0.2417189628 0.2265497446 1.515020841e-38
0.2132132351 -0.2783507109 0.09038586169 1.515020841e-38
0.2383995652 -0.2660384178 0.07851199806 1.515020841e-38
0.05211711675 -0.1298041642 0.2537687421 1.533351927e-38
0.2004980743 -0.3027797043 0.07723626494 1.533351927e-38
0.05051571131 -0.3016888797 0.1377935112 1.533351927e-38
0.279083401 -0.03010593355 0.08444689214 1.533351927e-38
0.07511036098 -0.350821346 0.08716414869 1.533351927e-38
0.05151411146 -0.1793344766 0.2401707917 1.533351927e-38
0.211996004 -0.3654968739 0.0883474797 1.533351927e-38
0.08739642054 -0.3634732068 0.08700700104 1.533351927e-38
0.1490006596 -0.4142828286 0.0865124464 1.551683013e-38
0.2121699005 -0.3530474007 0.08863867819 1.551683013e-38
0.2384808958 -0.2538565099 0.09123635292 1.551683013e-38
0.1993621737 -0.3777439594 0.08792223036 1.551683013e-38
0.2000577301 -0.3279461265 0.08908702433 1.551683013e-38
0.1742683202 -0.3897886574 0.08736293763 1.551683013e-38
0.1364593804 -0.4262624085 0.07365404814 1.551683013e-38
0.1877716184 -0.3152943254 0.08924417198 1.551683013e-38
0.1866469532 -0.4021729529 0.07477263361 1.570049832e-38
0.1879455 -0.302844882 0.08953537047 1.570049832e-38
0.2368345559 -0.3780835271 0.07589121908 1.570049832e-38
0.2774258256 -0.1424185038 0.09425926954 1.570049832e-38
0.2906738818 -0.09255556762 0.08312495053 1.570049832e-38
0.2644442022 -0.1795645207 0.09325163066 1.570049832e-38
0.2788169682 -0.04282289371 0.09658885002 1.570049832e-38
0.1616345048 -0.4020357728 0.08693769574 1.570049832e-38
0.2512886524 -0.2291599512 0.0919527933 1.588380918e-38
0.1365407109 -0.4140804708 0.08637840301 1.588380918e-38
0.1242545992 -0.4014286697 0.08653555065 1.588380918e-38
0.290500015 -0.105005011 0.08283375949 1.588380918e-38
0.267052561 0.00717727188 0.09761959314 1.588380918e-38
0.0519432202 -0.1422536075 0.2534775138 1.588380918e-38
0.2370084524 -0.3656340837 0.07618241757 1.588380918e-38
0.2117407918 -0.3901282251 0.07533192635 1.588380918e-38
0.2771706283 -0.1670499146 0.08124372363 1.606712004e-38
0.2792572975 -0.01765646227 0.08473809063 1.606712004e-38
0.2254179716 -0.3031844497 0.07750435919 1.606712004e-38
0.06282424927 -0.3381695449 0.08732129633 1.606712004e-38
0.05091111362 -0.2288647443 0.2265728414 1.606712004e-38
0.2510334253 -0.253791362 0.07893723994 1.606712004e-38
0.09960114211 -0.3883069158 0.07412549853 1.606712004e-38
0.2002316266 -0.3154966831 0.08937822282 1.606712004e-38
0.2244559526 -0.3656992614 0.0884815231 1.625043089e-38
0.06291680783 -0.3379020095 0.07488814741 1.625043089e-38
0.237182349 -0.3531846106 0.07647361606 1.625043089e-38
0.11171332 -0.41340819 0.0736771524 1.625043089e-38
0.2640151083 -0.2166453749 0.07994488627 1.625043089e-38
0.1991069615 -0.4023753405 0.07490668446 1.625043089e-38
0.06319717318 -0.2415165901 0.2264156938 1.625043089e-38
0.1240807027 -0.413878113 0.08624435216 1.625043089e-38
0.2125176787 -0.3281484842 0.08922106773 1.643374035e-38
0.1239993721 -0.4260600507 0.0735199973 1.643374035e-38
0.2242007405 -0.3903306127 0.07546597719 1.643374035e-38
0.2004055083 -0.3030472398 0.08966941386 1.643374035e-38
0.2642703056 -0.1920139641 0.09296043217 1.643374035e-38
0.05412246287 0.007407320198 0.2445387393 1.643374035e-38
0.1363668144 -0.4265299439 0.08608720452 1.643374035e-38
0.10014797 -0.2792045474 0.2135110945 1.643374035e-38
0.224282071 -0.3781487048 0.0881903246 1.661705121e-38
0.2383069992 -0.2663059533 0.09094515443 1.661705121e-38
0.2246298492 -0.3532497883 0.08877272159 1.661705121e-38
0.2910216749 -0.06765665859 0.08370734751 1.661705121e-38
0.2492945194 -0.3782858849 0.07602526993 1.661705121e-38
0.2126915753 -0.3156990707 0.08951226622 1.661705121e-38
0.2901522219 -0.1299039274 0.0822513625 1.661705121e-38
0.2772519588 -0.1548679769 0.09396807104 1.661705121e-38
0.278990835 -0.03037345037 0.09688004851 1.680036207e-38
0.2794311941 -0.005207020789 0.08502928913 1.680036207e-38
0.2380518019 -0.2909373343 0.07792960107 1.680036207e-38
0.053508237 -0.03020855412 0.25609833 1.680036207e-38
0.2907552123 -0.08037361503 0.09584930539 1.680036207e-38
0.05053818971 -0.325517714 0.08747845143 1.680036207e-38
0.05065590143 -0.25349617 0.2135572881 1.680036207e-38
0.2769967318 -0.1794993877 0.08095252514 1.680036207e-38
0.2375301421 -0.3282856941 0.07705601305 1.698367293e-38
0.290407449 -0.1052725315 0.09526690841 1.698367293e-38
0.1117946506 -0.4012262821 0.08640149981 1.698367293e-38
0.1991882771 -0.3901934028 0.08763103187 1.698367293e-38
0.2377040088 -0.3158362508 0.07734721154 1.698367293e-38
0.249468416 -0.3658364415 0.07631646842 1.698367293e-38
0.2254993021 -0.291002512 0.0902287066 1.698367293e-38
0.05116633326 -0.2042333633 0.2395883948 1.698367293e-38
0.2508595288 -0.2662408054 0.0786460489 1.716698239e-38
0.2248037308 -0.3408003449 0.08906392008 1.716698239e-38
0.0504456237 -0.3257852197 0.09991160035 1.716698239e-38
0.07548328489 -0.254168421 0.2262585461 1.716698239e-38
0.2369158864 -0.3659016192 0.08861557394 1.716698239e-38
0.05031935871 -0.2903094888 0.1878173351 1.716698239e-38
0.05063074827 -0.3252501786 0.07504529506 1.716698239e-38
0.2640964091 -0.2044634074 0.09266923368 1.716698239e-38
0.09950858355 -0.3885744512 0.0865586549 1.735029324e-38
0.05034182221 -0.3141383231 0.1375023276 1.735029324e-38
0.2899783254 -0.1423533708 0.08196016401 1.735029324e-38
0.07493647188 -0.3632708192 0.0868729502 1.735029324e-38
0.2249776274 -0.3283508718 0.08935511857 1.735029324e-38
0.2251515239 -0.3159014285 0.08964631706 1.735029324e-38
0.2253254056 -0.3034519851 0.08993751556 1.735029324e-38
0.2791647315 -0.01792397909 0.09717124701 1.735029324e-38
0.2911955714 -0.05520721525 0.083998546 1.75336041e-38
0.05023802072 -0.3024914563 0.1750929803 1.75336041e-38
0.05289399624 -0.06782443076 0.2676579356 1.75336041e-38
0.2902335525 -0.1177220047 0.09497570992 1.75336041e-38
0.1002292931 -0.2670226097 0.2262354344 1.75336041e-38
0.06274291873 -0.3503514528 0.07459694892 1.75336041e-38
0.051595442 -0.167152524 0.2528951168 1.75336041e-38
0.237089783 -0.3534521461 0.08890677243 1.75336041e-38
0.2381331325 -0.2787554264 0.09065395594 1.771655483e-38
0.2491206527 -0.3907353282 0.07573407143 1.771655483e-38
0.2509408593 -0.2540588975 0.09137039632 1.771655483e-38
0.111620754 -0.4136757255 0.08611030877 1.771655483e-38
0.2768228352 -0.1919488311 0.08066132665 1.771655483e-38
0.05040068179 -0.2781275511 0.2005417496 1.771655483e-38
0.05024926364 -0.3144058585 0.149935469 1.771655483e-38
0.2499901056 -0.3284880817 0.07719005644 1.771655483e-38
0.09925336391 -0.4132058322 0.07354310155 1.789986569e-38
0.05099243671 -0.2166828364 0.2392971963 1.789986569e-38
0.08722253144 -0.3759226501 0.08671580255 1.789986569e-38
0.2639225423 -0.2169128805 0.09237803519 1.789986569e-38
0.2501639724 -0.3160386384 0.07748125494 1.789986569e-38
0.2505117655 -0.2911397219 0.07806365192 1.789986569e-38
0.1115394235 -0.4258576632 0.0733859539 1.789986569e-38
0.2900596559 -0.1301714331 0.09468451887 1.789986569e-38
0.2372636795 -0.3410027027 0.08919797093 1.808317654e-38
0.1990143955 -0.4026428759 0.08733984083 1.808317654e-38
0.05219843984 -0.1176222563 0.2664931417 1.808317654e-38
0.2503378689 -0.303589195 0.07777245343 1.808317654e-38
0.2379592359 -0.2912048697 0.09036275744 1.808317654e-38
0.0752280727 -0.2787998319 0.2132429928 1.808317654e-38
0.09933469445 -0.4010239244 0.08626745641 1.808317654e-38
0.2376114428 -0.3161037862 0.08978036046 1.808317654e-38
0.05015669763 -0.3146733642 0.1623686254 1.826612727e-38
0.2793386281 -0.005474538542 0.0974624455 1.826612727e-38
0.291369468 -0.04275774211 0.0842897445 1.826612727e-38
0.08714119345 -0.388104558 0.07399144769 1.826612727e-38
0.24937585 -0.366103977 0.08874961734 1.826612727e-38
0.05073722452 -0.2413142174 0.2262816429 1.826612727e-38
0.2911030054 -0.0554747358 0.09643170238 1.826612727e-38
0.0514215529 -0.1796019971 0.2526039481 1.826612727e-38
0.05202455074 -0.1300716847 0.266201973 1.844943813e-38
0.2377853394 -0.3036543429 0.09007155895 1.844943813e-38
0.05036430061 -0.3379671872 0.08718725294 1.844943813e-38
0.08696730435 -0.4005540311 0.0737002492 1.844943813e-38
0.06302328408 -0.2539660335 0.2261244953 1.844943813e-38
0.2495497465 -0.3536545038 0.08904081583 1.844943813e-38
0.05385601521 -0.005309639033 0.256680727 1.844943813e-38
0.2769041657 -0.1797668934 0.09338568151 1.844943813e-38
0.05324178189 -0.04292551428 0.2682403326 1.863274899e-38
0.0502717346 -0.3382346928 0.09962040186 1.863274899e-38
0.2621023059 -0.3535893559 0.07674171031 1.863274899e-38
0.2617545128 -0.3784882724 0.07615932077 1.863274899e-38
0.2619284093 -0.3660388291 0.07645051181 1.863274899e-38
0.05045685917 -0.3376996517 0.07475409657 1.863274899e-38
0.2915433347 -0.03030830249 0.08458094299 1.863274899e-38
0.3029599786 -0.1052073762 0.08296780288 1.863274899e-38
0.07485514134 -0.3754527271 0.07414860278 1.881569971e-38
0.05185065418 -0.1425211281 0.2659107447 1.881569971e-38
0.09916080534 -0.4134733677 0.08597625792 1.881569971e-38
0.2622762024 -0.3411399126 0.0770329088 1.881569971e-38
0.3031338453 -0.09275794029 0.08325900137 1.881569971e-38
0.06256902963 -0.362800926 0.07430575043 1.881569971e-38
0.0512476638 -0.1920514405 0.2523127198 1.881569971e-38
0.2764750719 -0.2168477327 0.08007892966 1.881569971e-38
0.05017916858 -0.3385022283 0.1120535582 1.899901057e-38
0.302786082 -0.1176568493 0.08267660439 1.899901057e-38
0.05341567099 -0.03047607094 0.2685315013 1.899901057e-38
0.250593096 -0.278957814 0.09078799933 1.899901057e-38
0.2500714064 -0.3163061738 0.08991441131 1.899901057e-38
0.2767302692 -0.1922163367 0.09309448302 1.899901057e-38
0.2375188768 -0.3163712919 0.1022135168 1.899901057e-38
0.06276807189 -0.2785974443 0.2131089419 1.899901057e-38
0.05014546216 -0.3027589619 0.1875261366 1.91819627e-38
0.2897118926 -0.1550703496 0.09410212189 1.91819627e-38
0.2504191995 -0.2914072573 0.09049680829 1.91819627e-38
0.05402990431 0.007139802445 0.2569718957 1.91819627e-38
0.3033077419 -0.08030846715 0.08355019987 1.91819627e-38
0.09907947481 -0.4256553054 0.07325190306 1.91819627e-38
0.08687474579 -0.4008215666 0.08613340557 1.91819627e-38
0.2894566655 -0.1797017455 0.08108656853 1.91819627e-38
0.1113655418 -0.4383071065 0.07309475541 1.936527215e-38
0.262450099 -0.3286904395 0.07732410729 1.936527215e-38
0.05167676508 -0.1549706012 0.265619576 1.936527215e-38
0.3026121855 -0.1301063001 0.0823854059 1.936527215e-38
0.07476258278 -0.3757202625 0.0865817517 1.936527215e-38
0.05006413162 -0.3149408996 0.1748017818 1.936527215e-38
0.2502453029 -0.3038567305 0.0902056098 1.936527215e-38
0.05008661002 -0.3387697339 0.1244867146 1.936527215e-38
0.2631456554 -0.2788926363 0.07848889381 1.954822428e-38
0.2616619468 -0.3787558079 0.08859246969 1.954822428e-38
0.05009784549 -0.3506841362 0.09932920337 1.954822428e-38
0.3030412793 -0.09302546084 0.09569215775 1.954822428e-38
0.04998280853 -0.3271228075 0.1620774269 1.954822428e-38
0.2914507687 -0.03057581931 0.09701409191 1.954822428e-38
0.05028297007 -0.3501490951 0.07446289808 1.954822428e-38
0.3034816384 -0.06785902381 0.08384139836 1.954822428e-38
0.2620097399 -0.3538568914 0.08917486668 1.973153514e-38
0.2918911278 -0.005409388803 0.08516333997 1.973153514e-38
0.07468124479 -0.3879021704 0.07385740429 1.973153514e-38
0.2634008527 -0.2542612553 0.09150444716 1.973153514e-38
0.05420379341 0.01958924346 0.257263124 1.973153514e-38
0.289282769 -0.1921511889 0.08079537749 1.973153514e-38
0.04999404401 -0.3390372396 0.1369199306 1.973153514e-38
0.2742144763 -0.3786906302 0.07629336417 1.973153514e-38
0.05150287598 -0.1674200445 0.2653283477 1.991448586e-38
0.2621836364 -0.3414074481 0.08946606517 1.991448586e-38
0.08759545535 -0.2792696953 0.2258102 1.991448586e-38
0.2761272788 -0.2417466491 0.07949654013 1.991448586e-38
0.09898691624 -0.4259228408 0.08568505943 1.991448586e-38
0.05000527948 -0.3509516716 0.1117623597 1.991448586e-38
0.3032151759 -0.0805759877 0.09598335624 1.991448586e-38
0.2743883729 -0.3662411869 0.07658456266 1.991448586e-38
0.2499788404 -0.3165736794 0.1023475677 2.009743799e-38
0.04990148544 -0.339304775 0.1493530869 2.009743799e-38
0.2916246653 -0.01812634803 0.0973052904 2.009743799e-38
0.3022644222 -0.1550052017 0.08180301636 2.009743799e-38
0.06491360813 -0.09319323301 0.2796427608 2.009743799e-38
0.07754749805 -0.08094612509 0.2800679803 2.009743799e-38
0.09890558571 -0.4381047487 0.07296070457 2.009743799e-38
0.262357533 -0.3289579749 0.08975726366 2.009743799e-38
0.05030812323 -0.2783950865 0.2129748911 2.028074885e-38
0.2891088724 -0.2046006322 0.080504179 2.028074885e-38
0.07458868623 -0.3881697059 0.08629056066 2.028074885e-38
0.05132898688 -0.1798695177 0.265037179 2.028074885e-38
0.05262754858 -0.0805413872 0.2797998786 2.028074885e-38
