# .PCD v0.7 - Point Cloud Data file format
VERSION 0.7
FIELDS x y z rgb
SIZE 4 4 4 4
TYPE F F F F
COUNT 1 1 1 1
WIDTH 824
HEIGHT 1
VIEWPOINT 0 0 0 1 0 0 0
POINTS 824
DATA ascii
0.03918524832 -0.7841466665 0.2342278212 1.588380918e-38
0.2294294685 -0.2498694658 -0.1220823824 1.588380918e-38
-0.05169374123 -0.7517275214 -0.04476344585 1.588380918e-38
-0.05938640982 -0.3759740591 0.0357253924 1.588380918e-38
0.2967487574 -0.7372351885 -0.0137616843 1.588380918e-38
0.1995167583 -0.7464659214 0.01640370488 1.606712004e-38
0.2249513268 -0.3679877818 -0.03968230635 1.606712004e-38
0.1146081984 -0.7549140453 0.04564379156 1.606712004e-38
0.03056184575 -0.324685812 0.01446697116 1.606712004e-38
-0.2968063056 -0.7703505754 -0.003495141864 1.606712004e-38
-0.275547266 -0.761362195 -0.06225417554 1.606712004e-38
-0.07105340809 -0.31825158 -0.06575808674 1.606712004e-38
-0.1516359001 -0.7550198436 -0.06012490392 1.606712004e-38
-0.5015679598 -0.1760670841 -0.09553584456 1.625043089e-38
-0.06133446097 -0.3053305149 -0.09153272212 1.625043089e-38
-0.06537856907 -0.3564126492 -0.04603254423 1.625043089e-38
-0.05123410001 -0.3724835813 -0.05416755378 1.625043089e-38
-0.0648497045 -0.3254131675 0.05735472962 1.625043089e-38
0.1946296692 -0.3313921094 -0.05755736306 1.625043089e-38
0.2269314677 -0.2568882406 -0.1461865157 1.625043089e-38
0.2481327504 -0.7418506145 0.00132098794 1.625043089e-38
-0.04945591092 -0.3506532311 0.05130568147 1.643374035e-38
-0.4176331162 -0.2447238714 -0.08439959586 1.643374035e-38
-0.306419462 -0.7770717144 0.04295688868 1.643374035e-38
-0.3792437613 -0.3440187871 -0.06330449134 1.643374035e-38
0.06450956315 -0.7840658426 0.243759051 1.643374035e-38
0.2097799629 -0.2881112993 -0.1118880436 1.643374035e-38
-0.4172933996 -0.4296716452 -0.04082985222 1.643374035e-38
0.02563428693 -0.7544544339 0.006593644619 1.643374035e-38
-0.05813708901 -0.3851431608 0.0378113538 1.661705121e-38
-0.1020518839 -0.3055282831 -0.1149470806 1.661705121e-38
-0.3018945456 -0.2072392553 -0.1261000037 1.661705121e-38
-0.05688776076 -0.3943122625 0.03989730775 1.661705121e-38
-0.09955392033 -0.2985094786 -0.09084295481 1.661705121e-38
0.2256288528 -0.3694724143 -0.02830060944 1.661705121e-38
0.3556554914 -0.727383256 -0.06391474605 1.661705121e-38
0.3323637843 -0.7319178581 -0.03930079937 1.661705121e-38
-0.05438911915 -0.4126505256 0.04406923801 1.680036207e-38
-0.2974838614 -0.7688660026 -0.0148769021 1.680036207e-38
-0.04816368222 -0.3985063434 -0.05929139629 1.680036207e-38
-0.06230814755 -0.3824353814 -0.05115635693 1.680036207e-38
-0.08972850442 -0.3047455847 -0.1158723235 1.680036207e-38
-0.1118773222 -0.2992922068 -0.08991771191 1.680036207e-38
-0.4447785318 -0.22795102 -0.08672103286 1.680036207e-38
-0.05127701163 -0.3337996006 0.05851545557 1.680036207e-38
0.2255230844 -0.3756723106 -0.04897804186 1.698367293e-38
-0.0518058762 -0.3647990823 -0.04487181827 1.698367293e-38
0.196450755 -0.3482457101 -0.06476716697 1.698367293e-38
-0.3043868244 -0.7815255523 0.07710205019 1.698367293e-38
-0.2269313037 -0.756746769 -0.07733689249 1.698367293e-38
-0.05184878781 -0.3261150718 0.06781119108 1.698367293e-38
-0.07037585974 -0.3197361827 -0.05437638983 1.698367293e-38
-0.05563843995 -0.4034813941 0.04198327661 1.698367293e-38
-0.2871931195 -0.7636294365 -0.04994723201 1.716698239e-38
-0.3006452024 -0.2164083719 -0.1240140349 1.716698239e-38
-0.2743197083 -0.7918370962 0.1663052589 1.716698239e-38
-0.05680316687 -0.328122586 -0.05321567133 1.716698239e-38
-0.3037092686 -0.7830101252 0.08848373592 1.716698239e-38
-0.283896327 -0.244617641 -0.1072996855 1.716698239e-38
-0.4583512247 -0.2195645869 -0.08788175881 1.716698239e-38
-0.0767275691 -0.3054475188 -0.1054158658 1.716698239e-38
-0.07865511626 -0.2694367766 -0.09895132482 1.735029324e-38
-0.06065691262 -0.3068151474 -0.08015102148 1.735029324e-38
-0.06470102072 -0.3578972816 -0.03465084359 1.735029324e-38
-0.05881463736 -0.3836585581 0.02642962709 1.735029324e-38
0.07763803005 -0.7572621107 0.04841952026 1.735029324e-38
-0.1033018902 -0.2710021734 -0.09710083902 1.735029324e-38
0.3083945811 -0.734967947 -0.02606862783 1.735029324e-38
-0.2999676466 -0.2178930044 -0.1126323342 1.735029324e-38
-0.06074150652 -0.3730048537 0.01296196878 1.75336041e-38
-0.1269891262 -0.7534544468 -0.06197538972 1.75336041e-38
-0.4096820951 -0.3558596075 0.01775270328 1.75336041e-38
-0.06345169246 -0.3670664132 -0.03256487474 1.75336041e-38
-0.04691435397 -0.4076754749 -0.05720542744 1.75336041e-38
0.2262006402 -0.3771569133 -0.03759634122 1.75336041e-38
-0.1156252921 -0.271784842 -0.09617559612 1.75336041e-38
-0.4001425803 -0.3730915189 -0.05519612134 1.75336041e-38
-0.2878706753 -0.7621448636 -0.06132893264 1.771655483e-38
-0.07230272889 -0.3090824485 -0.06784405559 1.771655483e-38
-0.08780163527 -0.3153993189 -0.1024046689 1.771655483e-38
-0.06105881929 -0.3916045129 -0.04907038808 1.771655483e-38
-0.0550666675 -0.4111659229 0.0326875113 1.771655483e-38
-0.06506124884 -0.3378129601 0.0159998145 1.771655483e-38
0.1139306426 -0.7534294128 0.03426209092 1.771655483e-38
-0.06652211398 -0.3410436511 -0.02744104341 1.771655483e-38
-0.05138278753 -0.3399994671 0.03783799335 1.789986569e-38
-0.06469465792 -0.7510256171 -0.05521990359 1.789986569e-38
-0.2833245397 -0.25230214 -0.1165954322 1.789986569e-38
-0.0477405861 -0.373706758 0.02341842465 1.789986569e-38
-0.05949218571 -0.3821739554 0.01504793018 1.789986569e-38
-0.05487629771 -0.33877635 -0.03974801302 1.789986569e-38
-0.05023923516 -0.3553685248 0.0192464944 1.789986569e-38
0.3549779356 -0.7258986235 -0.07529644668 1.789986569e-38
0.06463710964 -0.7565602064 0.03796306252 1.808317654e-38
-0.05112832785 -0.3662837148 -0.03349011764 1.808317654e-38
-0.06766566634 -0.3256746531 -0.008849543519 1.808317654e-38
0.368783921 -0.700579524 -0.259254247 1.808317654e-38
-0.07797756791 -0.2709214091 -0.08756962419 1.808317654e-38
-0.06631056964 -0.3286438584 0.01391385309 1.808317654e-38
-0.41228652 -0.3437212706 -0.007096681744 1.808317654e-38
0.3659462035 -0.7221467495 -0.09898507595 1.808317654e-38
0.1823063046 -0.332174778 -0.05663212016 1.826612727e-38
-0.04081642255 -0.4210369587 0.04522996396 1.826612727e-38
-0.05612562224 -0.3296072185 -0.04183397442 1.826612727e-38
0.1835556179 -0.3413438797 -0.05454615876 1.826612727e-38
-0.05263210833 -0.3308303654 0.03575203195 1.826612727e-38
0.1988392174 -0.7449813485 0.005021959543 1.826612727e-38
0.2268781662 -0.3786415458 -0.02621464431 1.826612727e-38
-0.3098072112 -0.7696486712 -0.0139516592 1.826612727e-38
-0.1402720362 -0.2733502388 -0.09432511032 1.844943813e-38
-0.1023423821 -0.7518891096 -0.06382587552 1.844943813e-38
-0.06084727496 -0.3792047203 -0.007715492509 1.844943813e-38
-0.301676631 -0.7874640226 0.1226288825 1.844943813e-38
0.1016072184 -0.754212141 0.03518733382 1.844943813e-38
-0.1008032486 -0.2893403769 -0.09292891622 1.844943813e-38
-0.06152482331 -0.3777201176 -0.01909719035 1.844943813e-38
0.3701390028 -0.703548789 -0.2364908308 1.844943813e-38
-0.07162518054 -0.310567081 -0.05646235868 1.863274899e-38
-0.05419874936 -0.3402609527 -0.02836628631 1.863274899e-38
-0.1525954306 -0.2741329074 -0.09339986742 1.863274899e-38
0.03475464135 -0.3060877621 -0.1230387837 1.863274899e-38
0.227555722 -0.3801261485 -0.0148329176 1.863274899e-38
-0.0656542033 -0.2701386809 -0.08849486709 1.863274899e-38
-0.05206033215 -0.3385148644 0.02645629644 1.863274899e-38
-0.04987900704 -0.3754528165 -0.03140415624 1.863274899e-38
-0.07422959805 -0.2984287441 -0.08131173253 1.881569971e-38
-0.152313441 -0.7535352707 -0.07150658965 1.881569971e-38
0.2960712016 -0.735750556 -0.02514338493 1.881569971e-38
-0.05892040581 -0.3898584545 0.005752186757 1.881569971e-38
-0.06688234955 -0.3209593296 0.02320960909 1.881569971e-38
0.3433320522 -0.7281659842 -0.06298950315 1.881569971e-38
-0.04966745898 -0.3630530238 0.009950757027 1.881569971e-38
-0.1254500151 -0.2909057736 -0.09107843041 1.881569971e-38
0.2267723978 -0.3848414123 -0.04689208046 1.899901057e-38
-0.4110371768 -0.3528903723 -0.005010720342 1.899901057e-38
-0.4419401884 -0.4312370121 -0.03897936642 1.899901057e-38
-0.310484767 -0.7681640387 -0.02533334494 1.899901057e-38
0.08928383887 -0.7549948096 0.03611257672 1.899901057e-38
-0.05642176047 -0.4081967175 0.009924115613 1.899901057e-38
-0.05148855969 -0.3461993933 0.017160533 1.899901057e-38
-0.4321154356 -0.4121160805 -0.04407653958 1.899901057e-38
-0.04623680562 -0.4091600776 -0.04582370073 1.91819627e-38
-0.2885482311 -0.7606602311 -0.07271067798 1.91819627e-38
-0.4124659896 -0.3738742173 -0.05427087843 1.91819627e-38
-0.0503450036 -0.3615684211 -0.001430940349 1.91819627e-38
-0.06095305085 -0.3854046166 -0.02839296125 1.91819627e-38
0.0341828689 -0.2984032929 -0.1137430519 1.91819627e-38
-0.04149397463 -0.419552356 0.03384823725 1.91819627e-38
0.1848049462 -0.3505130112 -0.05246019736 1.91819627e-38
-0.0602755025 -0.3868892193 -0.0170112364 1.936527215e-38
-0.3167102337 -0.7823082209 0.07802729309 1.936527215e-38
-0.05216610432 -0.3447147906 0.005778834689 1.936527215e-38
-0.04716881365 -0.381391257 0.01412268728 1.936527215e-38
-0.07094763219 -0.3120516539 -0.04508066177 1.936527215e-38
-0.4063892066 -0.3272459507 -0.06562593579 1.936527215e-38
-0.04920145869 -0.3769374192 -0.02002243325 1.936527215e-38
-0.06891498715 -0.3165055215 -0.01093551144 1.936527215e-38
-0.1399900764 -0.7527525425 -0.07243183255 1.954822428e-38
0.06395955384 -0.7550755739 0.02658137679 1.954822428e-38
-0.2962197065 -0.2454003394 -0.1063744426 1.954822428e-38
-0.470674634 -0.2203472704 -0.08695651591 1.954822428e-38
-0.04862968624 -0.384621948 -0.0293181967 1.954822428e-38
-0.4137153327 -0.3647051156 -0.05635683984 1.954822428e-38
-0.05477052554 -0.3325764239 -0.01907054894 1.954822428e-38
0.2146605253 -0.3732242882 -0.004611939192 1.954822428e-38
-0.3214530647 -0.7719159722 -0.001644656062 1.973153514e-38
-0.07323473692 -0.2813136578 -0.007897660136 1.973153514e-38
-0.07615647465 -0.2877749801 -0.09477940202 1.973153514e-38
0.2274499536 -0.386326015 -0.03551037982 1.973153514e-38
-0.05388142914 -0.3216612339 0.0336660631 1.973153514e-38
-0.04852391034 -0.3784220219 -0.00864073541 1.973153514e-38
-0.07662247121 -0.2738906145 -0.06480620056 1.973153514e-38
0.05815209076 -0.2953532934 -0.1269752234 1.973153514e-38
0.1132531017 -0.7519447803 0.02288040519 1.991448586e-38
-0.07027008384 -0.3135362864 -0.03369893506 1.991448586e-38
0.3645910919 -0.7191774845 -0.1217485294 1.991448586e-38
0.04650627077 -0.2976205945 -0.1146682948 1.991448586e-38
-0.40763852 -0.3180768192 -0.06771189719 1.991448586e-38
-0.433364749 -0.402946949 -0.04616250843 1.991448586e-38
0.2010878325 -0.3648378849 -0.005772657692 1.991448586e-38
0.3077170551 -0.7334833145 -0.03745032847 1.991448586e-38
-0.1276666671 -0.7519698739 -0.07335707545 2.009743799e-38
-0.04467016459 -0.3997294903 0.01829461008 2.009743799e-38
-0.4842473269 -0.2119608521 -0.08811723441 2.009743799e-38
-0.4542635679 -0.4320197105 -0.03805413097 2.009743799e-38
-0.05862426758 -0.3112689853 -0.04600590467 2.009743799e-38
-0.280825913 -0.2706403732 -0.1124234945 2.009743799e-38
-0.2859655321 -0.7941043377 0.1786121875 2.009743799e-38
-0.4088878632 -0.3089076877 -0.0697978586 2.009743799e-38
-0.3008716106 -0.7614428997 -0.07178543508 2.028074885e-38
-0.05466474965 -0.3263765574 0.001606911886 2.028074885e-38
-0.3146775961 -0.7867621183 0.1121724397 2.028074885e-38
-0.08598053455 -0.3322529197 -0.1096144319 2.028074885e-38
-0.05377565697 -0.3154613674 0.05434352905 2.028074885e-38
-0.05652753264 -0.4143966138 -0.01075333729 2.028074885e-38
-0.2949703634 -0.2545694709 -0.1042884886 2.028074885e-38
-0.07526737452 -0.2768598199 -0.04204278067 2.028074885e-38
0.07628293335 -0.7542928457 0.02565613389 2.046369957e-38
-0.05455897748 -0.3201766312 0.02228436619 2.046369957e-38
-0.1820689589 -0.35685274 -0.09804056585 2.046369957e-38
-0.2892257571 -0.7591756582 -0.08409237862 2.046369957e-38
-0.07115849853 -0.3498085141 -0.106367752 2.046369957e-38
0.1495456547 -0.7481120825 0.008722931147 2.046369957e-38
-0.08972919732 -0.2793885767 -0.09594012052 2.046369957e-38
-0.04555925727 -0.4106446803 -0.03444200382 2.046369957e-38
-0.04738035798 -0.3937910497 -0.0272322353 2.06466517e-38
-0.1153433025 -0.7511872053 -0.07428231835 2.06466517e-38
0.050281059 -0.7528890371 0.004743158817 2.06466517e-38
0.1981616616 -0.7434967756 -0.006359741092 2.06466517e-38
0.1989493966 -0.3665839434 -0.06059524044 2.06466517e-38
0.1838838905 -0.2805075645 -0.1121235266 2.06466517e-38
-0.278899014 -0.2812941074 -0.09895583987 2.06466517e-38
0.06328200549 -0.7535909414 0.01519961655 2.06466517e-38
-0.08348189294 -0.3505912125 -0.1054425091 2.082996116e-38
-0.1513461024 -0.2833020389 -0.09131391346 2.082996116e-38
-0.4039014876 -0.3878208101 0.05815571547 2.082996116e-38
-0.04602526128 -0.3967602551 -0.004468812607 2.082996116e-38
-0.04613103718 -0.4029601812 -0.0251462739 2.082996116e-38
-0.329711169 -0.7816063166 0.06757082045 2.082996116e-38
0.13722229 -0.7488948107 0.009648159146 2.082996116e-38
-0.1906386912 -0.7529140711 -0.09149432182 2.082996116e-38
-0.04670280963 -0.3952756524 -0.01585051045 2.101291328e-38
-0.06990917027 -0.3589776158 -0.104281798 2.101291328e-38
0.3632360101 -0.7162083387 -0.1445119232 2.101291328e-38
0.2953936756 -0.7342659235 -0.03652508557 2.101291328e-38
-0.072196953 -0.3028825521 -0.04716661945 2.101291328e-38
-0.3290336132 -0.7830909491 0.07895253599 2.101291328e-38
-0.5113927126 -0.1951880008 -0.09043867886 2.101291328e-38
-0.4128371477 -0.3960265517 0.1159895062 2.101291328e-38
0.2159098387 -0.3823934197 -0.002525974065 2.119586541e-38
-0.0708418563 -0.3058517873 -0.02440319583 2.119586541e-38
0.2280217409 -0.394010514 -0.04480611905 2.119586541e-38
-0.06091136485 -0.2805309594 -0.008822903037 2.119586541e-38
-0.3330988884 -0.7741832733 0.01066228747 2.119586541e-38
-0.4479015768 -0.3490385711 0.01844246313 2.119586541e-38
-0.08280435205 -0.3520758152 -0.09406080842 2.119586541e-38
-0.05659162253 -0.3157228231 -0.01186075434 2.119586541e-38
-0.06948676705 -0.3088210225 -0.001639771741 2.137881613e-38
-0.1406676322 -0.75126791 -0.08381359279 2.137881613e-38
-0.3241632581 -0.7659775019 -0.04717150331 2.137881613e-38
-0.4371127188 -0.3754396141 -0.05242039263 2.137881613e-38
-0.4678362906 -0.4236332774 -0.03921484947 2.137881613e-38
0.1735149175 -0.7450621128 -0.004509270191 2.137881613e-38
-0.4071834683 -0.3741978705 0.02192463353 2.137881613e-38
0.06007895991 -0.3060069978 -0.1135075688 2.137881613e-38
-0.01540114358 -0.7478948236 -0.05892086029 2.156176826e-38
0.07560537755 -0.7528082728 0.01427437365 2.156176826e-38
-0.412635833 -0.2814003229 -0.07605575025 2.156176826e-38
0.3419769704 -0.7251967192 -0.08575288951 2.156176826e-38
-0.4262085557 -0.2730139196 -0.07721646875 2.156176826e-38
-0.06226646155 -0.2775617242 -0.03158632666 2.156176826e-38
-0.2764003873 -0.2996323705 -0.09478391707 2.156176826e-38
-0.4376108348 -0.3438020349 -0.01662789285 2.156176826e-38
0.3571380675 -0.7028468251 -0.2469473183 2.174471899e-38
0.03660259396 -0.7507025003 -0.01709498465 2.174471899e-38
-0.07672824711 -0.2800905108 -0.08548366278 2.174471899e-38
-0.06923162937 -0.3604622185 -0.09290009737 2.174471899e-38
-0.2924717367 -0.2729077041 -0.1001165658 2.174471899e-38
0.2023371458 -0.3740069866 -0.003686696291 2.174471899e-38
-0.2931492925 -0.2714230716 -0.1114982665 2.174471899e-38
0.03668151423 -0.3167415261 -0.1095711142 2.174471899e-38
0.20165959 -0.3725223839 -0.0150683932 2.192767111e-38
-0.2659341097 -0.7546410561 -0.1087062657 2.192767111e-38
-0.06247800589 -0.2899615169 -0.0729412213 2.192767111e-38
-0.2770779431 -0.298147738 -0.1061656177 2.192767111e-38
0.1887644678 -0.3656205833 -0.004847414792 2.192767111e-38
0.06065073982 -0.3136915267 -0.1228033006 2.192767111e-38
-0.2745792866 -0.3164859712 -0.1019936949 2.192767111e-38
0.3598482609 -0.7087852955 -0.2014204711 2.192767111e-38
-0.4481868148 -0.385391444 -0.04940918088 2.211062324e-38
-0.3358090818 -0.7682448626 -0.03486455977 2.211062324e-38
0.3605258167 -0.7102698684 -0.1900387704 2.211062324e-38
-0.08155502379 -0.3612449169 -0.09197485447 2.211062324e-38
-0.3270009756 -0.7875447869 0.1130976826 2.211062324e-38
-0.2912223935 -0.2820768058 -0.09803059697 2.211062324e-38
0.2151265293 -0.3871087134 -0.03458513319 2.211062324e-38
-0.478910327 -0.4335851073 -0.03620364517 2.211062324e-38
-0.4162248969 -0.3886035085 0.05908095837 2.229357396e-38
-0.386739701 -0.2890040874 -0.0758202672 2.229357396e-38
-0.4239111841 -0.4059783518 0.1190007031 2.229357396e-38
0.0490049161 -0.3159588277 -0.1104963571 2.229357396e-38
-0.5101433992 -0.2043571323 -0.08835271001 2.229357396e-38
-0.2899730802 -0.2912459373 -0.09594462812 2.229357396e-38
-0.4078610241 -0.3727132678 0.01054290775 2.229357396e-38
-0.4090891778 -0.4235338867 0.122247383 2.229357396e-38
-0.3119674027 -0.7927005291 0.1576992124 2.247652609e-38
-0.4001535177 -0.415328145 0.06441359967 2.247652609e-38
-0.4681759775 -0.2386855185 -0.08278458565 2.247652609e-38
-0.2751510441 -0.3088014722 -0.09269794822 2.247652609e-38
-0.290650636 -0.2897613049 -0.1073263288 2.247652609e-38
-0.4433593452 -0.3295940161 -0.06285020709 2.247652609e-38
-0.2676551044 -0.3638162017 -0.08018217981 2.247652609e-38
0.1365447491 -0.7474101782 -0.001733541489 2.247652609e-38
-0.4494361281 -0.3762223125 -0.05149514973 2.265947681e-38
-0.07344628125 -0.2937134504 -0.0492525883 2.265947681e-38
0.2442522049 -0.2927820086 -0.138767913 2.265947681e-38
-0.2166405618 -0.7515102625 -0.1124072373 2.265947681e-38
-0.2683326602 -0.362331599 -0.09156387299 2.265947681e-38
0.03725329041 -0.3244259953 -0.1188668609 2.265947681e-38
-0.3982266486 -0.4259818792 0.07788126171 2.265947681e-38
-0.4381825924 -0.3361175656 -0.007332157344 2.265947681e-38
-0.2419648468 -0.7515910268 -0.1219384745 2.284242894e-38
-0.4195068777 -0.3749805391 0.02284987643 2.284242894e-38
-0.4249592423 -0.2821830511 -0.07513050735 2.284242894e-38
0.216481626 -0.3900779486 -0.01182170957 2.284242894e-38
-0.4385319054 -0.273796618 -0.07629122585 2.284242894e-38
-0.4499342144 -0.3445847332 -0.0157026574 2.284242894e-38
0.1851607412 -0.7427948713 -0.01681619883 2.284242894e-38
-0.05784094334 -0.3065537214 -0.01394671202 2.284242894e-38
0.1744084358 -0.3619494438 -0.03806729615 2.302537966e-38
-0.3112898469 -0.7941851616 0.1690809876 2.302537966e-38
0.2584234774 -0.7366140485 -0.03374935687 2.302537966e-38
-0.4388601482 -0.3346329331 -0.01871385425 2.302537966e-38
-0.4589756429 -0.358990401 0.02145367488 2.302537966e-38
-0.2869026661 -0.3172686696 -0.101068452 2.302537966e-38
-0.2787291706 -0.3737680018 -0.07717096806 2.302537966e-38
-0.4519347847 -0.3578840494 -0.05566707253 2.302537966e-38
0.06132828444 -0.3151761293 -0.1114216 2.320833179e-38
0.08725120127 -0.7505409718 0.001967430115 2.320833179e-38
-0.4814089835 -0.4152468443 -0.04037556797 2.320833179e-38
0.03975193202 -0.3427642882 -0.1146949381 2.320833179e-38
-0.2695820034 -0.3531624675 -0.09364983439 2.320833179e-38
-0.2666116357 -0.7531564236 -0.1200879887 2.320833179e-38
0.2029089183 -0.3816915154 -0.01298242807 2.320833179e-38
-0.08098323643 -0.3689294457 -0.1012705863 2.320833179e-38
-0.3481324911 -0.7690275311 -0.03393931687 2.339092378e-38
-0.415081352 -0.4039725065 0.04048945755 2.339092378e-38
-0.4091949463 -0.429733783 0.1015699357 2.339092378e-38
0.2467508465 -0.3111202419 -0.1345959753 2.339092378e-38
-0.4617595077 -0.377004981 -0.05056990683 2.339092378e-38
-0.4066962898 -0.4480720162 0.1057418585 2.339092378e-38
0.1757635325 -0.364918679 -0.01530387253 2.339092378e-38
-0.09330661595 -0.3697121441 -0.1003453434 2.339092378e-38
0.2823926806 -0.7335640192 -0.0469815284 2.348204041e-38
0.05082601309 -0.3328124583 -0.1177061349 2.348204041e-38
-0.4157589078 -0.4024879038 0.02910776064 2.348204041e-38
-0.3106122911 -0.7956697345 0.1804626733 2.348204041e-38
-0.2720806301 -0.3348242342 -0.0978217572 2.348204041e-38
0.3180077374 -0.7282467484 -0.07252070308 2.348204041e-38
-0.06798230112 -0.36963135 -0.09081412852 2.348204041e-38
0.3509126604 -0.7169910073 -0.1435866803 2.348204041e-38
0.343459636 -0.7006602883 -0.2687854767 2.348132155e-38
0.04100125656 -0.3519333899 -0.1126089692 2.348132155e-38
-0.4073738456 -0.4465874135 0.09436015785 2.348132155e-38
-0.07198541611 -0.2904827595 -0.005811698269 2.348132155e-38
-0.4292257726 -0.3879015744 0.04862450063 2.348132155e-38
-0.4086231887 -0.437418282 0.092274189 2.348132155e-38
0.05207533762 -0.3419815898 -0.115620181 2.348132155e-38
-0.2173181176 -0.75002563 -0.1237889603 2.348132155e-38
-0.07401805371 -0.2860289216 -0.03995681927 2.348060128e-38
0.148190558 -0.7451429367 -0.01404047012 2.348060128e-38
-0.4347839355 -0.3013039827 -0.0700333342 2.348060128e-38
-0.07905070484 -0.7473544478 -0.0884398073 2.348060128e-38
-0.08030569553 -0.3704140484 -0.08988888562 2.348060128e-38
-0.4728335738 -0.386956811 -0.04755870253 2.348060128e-38
0.236926049 -0.3302411735 -0.1294988096 2.348060128e-38
-0.480499357 -0.239468202 -0.0818593502 2.348060128e-38
0.1813852489 -0.2621693611 -0.1162954494 2.347952368e-38
-0.04140301049 -0.746491015 -0.07983377576 2.347952368e-38
-0.4656773508 -0.2570237517 -0.07861266285 2.347952368e-38
-0.4642581642 -0.3586667478 -0.05474183708 2.347952368e-38
-0.4080514014 -0.4451028109 0.08297842741 2.347952368e-38
0.2653208077 -0.3561831713 -0.1250914037 2.347952368e-38
0.3502351046 -0.7155064344 -0.1549683809 2.347952368e-38
0.1358671933 -0.7459256053 -0.01311524212 2.347952368e-38
-0.276230514 -0.392106235 -0.07299904525 2.347880341e-38
-0.3563905656 -0.7787178755 0.03527615964 2.347880341e-38
-0.4655074775 -0.3494976461 -0.05682779849 2.347880341e-38
0.1749802083 -0.3696339428 -0.04736303166 2.347880341e-38
-0.1166984141 -0.7482179403 -0.09704577178 2.347880341e-38
-0.05841272324 -0.2988691926 -0.004650979768 2.347880341e-38
-0.2837264538 -0.3370915353 -0.08551481366 2.347880341e-38
-0.05976781994 -0.2958999574 -0.02741440386 2.347880341e-38
0.05025423691 -0.3251279593 -0.1084104031 2.347808455e-38
-0.1796704084 -0.7491621971 -0.1151829585 2.347808455e-38
-0.354357928 -0.783171773 0.06942130625 2.347808455e-38
0.2524256706 -0.3492813408 -0.114870429 2.347808455e-38
0.1235438287 -0.7467082739 -0.01218999922 2.347808455e-38
-0.4511835277 -0.3354156017 -0.0177886188 2.347808455e-38
-0.3570681214 -0.7772333026 0.02389447391 2.347808455e-38
-0.3385192752 -0.7623063922 -0.08039140701 2.347808455e-38
-0.4395165145 -0.3931380808 0.08369486034 2.347700555e-38
-0.3530028164 -0.7861409187 0.09218470752 2.347700555e-38
-0.4940720797 -0.2310817838 -0.08302006871 2.347700555e-38
-0.315227598 -0.75777179 -0.1050052941 2.347700555e-38
-0.4712990224 -0.3597730696 0.02237891778 2.347700555e-38
-0.3379692733 -0.7912967205 0.1367863268 2.347700555e-38
0.1112204492 -0.7474910021 -0.01126475632 2.347700555e-38
0.2170533985 -0.3977624476 -0.02111747488 2.347700555e-38
0.3468473852 -0.7080833912 -0.2118769288 2.347628668e-38
-0.4621518552 -0.3391675353 0.00590002723 2.347628668e-38
-0.06741052866 -0.3773158491 -0.1001098603 2.347628668e-38
0.3454922736 -0.7051141262 -0.234640345 2.347628668e-38
-0.3035817742 -0.7555044889 -0.11731226 2.347628668e-38
0.3488800228 -0.7125371695 -0.177731812 2.347628668e-38
-0.4215395153 -0.3705267012 -0.0112952441 2.347628668e-38
0.03524749726 -0.747733295 -0.03985844553 2.347628668e-38
-0.2769080698 -0.3906216323 -0.08438074589 2.347520768e-38
-0.230319038 -0.7493237257 -0.1342454255 2.347520768e-38
-0.4474355578 -0.3629229665 -0.01153072715 2.347520768e-38
0.339944303 -0.7207429409 -0.1198980436 2.347520768e-38
-0.4401940703 -0.3916534781 0.0723131299 2.347520768e-38
0.2177309394 -0.3992470503 -0.009735748172 2.347520768e-38
0.348202467 -0.711052537 -0.1891135275 2.347520768e-38
-0.4125826955 -0.4223107398 0.0446613878 2.347520768e-38
-0.4692554474 -0.3219902813 -0.06308568269 2.347448882e-38
-0.4202689826 -0.4396855831 0.1045811325 2.347448882e-38
-0.4753322303 -0.3686185777 -0.05173062533 2.347448882e-38
-0.4337359071 -0.4250992835 0.1240978688 2.347448882e-38
-0.3604558408 -0.7698101997 -0.03301407397 2.347448882e-38
-0.4851569533 -0.3877395093 -0.04663345963 2.347448882e-38
0.1844831854 -0.7413102388 -0.02819789946 2.347448882e-38
-0.4074796438 -0.4527873397 0.07368269563 2.347448882e-38
0.3173302114 -0.7267621756 -0.08390240371 2.347340982e-38
-0.1673470438 -0.7483794689 -0.1161082014 2.347340982e-38
0.2577459514 -0.7351294756 -0.0451310575 2.347340982e-38
-0.4765815437 -0.3594494462 -0.05381659418 2.347340982e-38
-0.4644280076 -0.2661928535 -0.07652670145 2.347340982e-38
0.1912631094 -0.3839588165 -0.0006754882634 2.347340982e-38
-0.4504848421 -0.3968900144 0.1073835343 2.347340982e-38
-0.477830857 -0.3502803445 -0.05590255558 2.347340982e-38
-0.2919359505 -0.7532371879 -0.129619211 2.347269095e-38
0.2026973665 -0.3940913081 -0.05433734879 2.347269095e-38
-0.3275510073 -0.7585544586 -0.1040800512 2.347269095e-38
-0.4473086596 -0.4167128503 0.1229371578 2.347269095e-38
-0.05966204405 -0.2897000909 -0.00673694117 2.347269095e-38
-0.4511623681 -0.3954053819 0.09600180387 2.347269095e-38
-0.4294373393 -0.400301367 0.007269579917 2.347269095e-38
-0.4313642085 -0.3896476328 -0.006198080257 2.347269095e-38
-0.4496059716 -0.2837484181 -0.07328002155 2.347161195e-38
0.339266777 -0.7192583084 -0.1312797368 2.347161195e-38
-0.3366141915 -0.7942658663 0.1595496982 2.347161195e-38
-0.1803479642 -0.7476775646 -0.1265646815 2.347161195e-38
-0.205672279 -0.7477583289 -0.1360958964 2.347161195e-38
-0.4331641495 -0.4327838123 0.114802137 2.347161195e-38
0.05400220677 -0.3526352942 -0.1021525115 2.347161195e-38
-0.2756587565 -0.3997907639 -0.08229477704 2.347161195e-38
-0.4803295135 -0.3319421113 -0.06007447839 2.347089308e-38
0.1762295365 -0.3788030744 -0.04527707025 2.347089308e-38
-0.3687139452 -0.7795006037 0.03620140254 2.347089308e-38
-0.433862865 -0.3713093996 -0.0103700012 2.347089308e-38
-0.4055527747 -0.4634410441 0.08715035021 2.347089308e-38
0.1351896524 -0.7444409728 -0.02449692786 2.347089308e-38
-0.4700497091 -0.3689422011 0.02446487918 2.347089308e-38
-0.4876556098 -0.3694012761 -0.05080538243 2.347089308e-38
0.07357273996 -0.748354435 -0.01987071335 2.346981408e-38
-0.4594307244 -0.3028693199 -0.06818284839 2.346981408e-38
-0.2679667473 -0.7501871586 -0.1428514123 2.346981408e-38
-0.3666813076 -0.7839543819 0.07034654915 2.346981408e-38
-0.2614085078 -0.4096617699 -0.06975236535 2.346981408e-38
-0.4217298329 -0.4429163039 0.06114028022 2.346981408e-38
-0.4597589672 -0.3637056649 -0.01060548425 2.346981408e-38
0.1228662878 -0.7452236414 -0.02357168496 2.346981408e-38
-0.04208056256 -0.7450063825 -0.09121552855 2.346909522e-38
-0.3660037518 -0.7854390144 0.08172823489 2.346909522e-38
-0.4889049232 -0.3602321446 -0.05289135128 2.346909522e-38
-0.2737318873 -0.4104444683 -0.06882712245 2.346909522e-38
-0.365326196 -0.7869236469 0.09310995042 2.346909522e-38
-0.4525174797 -0.3924361765 0.0732383877 2.346909522e-38
-0.4815788269 -0.3227729797 -0.06216043979 2.346909522e-38
-0.4707272649 -0.3674575984 0.0130831534 2.346909522e-38
0.1105429083 -0.7460063696 -0.02264644206 2.346801622e-38
-0.4249060452 -0.4230934381 0.0455866307 2.346801622e-38
-0.3359366357 -0.7957504988 0.1709314734 2.346801622e-38
-0.3282285333 -0.7570698261 -0.1154617742 2.346801622e-38
0.1918348819 -0.3916433156 -0.009971227497 2.346801622e-38
-0.3714241385 -0.7735621333 -0.009325444698 2.346801622e-38
-0.4628082216 -0.3976727128 0.1083087623 2.346801622e-38
0.2054075599 -0.4000297487 -0.008810505271 2.346801622e-38
0.2084523886 -0.7382602096 -0.0414300859 2.346693862e-38
0.3050068617 -0.7275448442 -0.08297717571 2.346693862e-38
-0.1050525755 -0.7459506392 -0.1093527153 2.346693862e-38
0.2175194025 -0.411646843 -0.05109066889 2.346693862e-38
-0.4622364342 -0.405357182 0.09901300073 2.346693862e-38
-0.4828281701 -0.3136038184 -0.06424640864 2.346693862e-38
-0.3727792203 -0.7705929279 -0.03208884597 2.346693862e-38
-0.3437984586 -0.3528802097 0.2097031921 2.346693862e-38
-0.4036258757 -0.4740947783 0.1006180495 2.346621835e-38
0.3276209235 -0.7215256095 -0.1189728007 2.346621835e-38
-0.4069078565 -0.4604718387 0.06438696384 2.346621835e-38
0.196129024 -0.7390428782 -0.040504843 2.346621835e-38
-0.2744094431 -0.4089598656 -0.08020881563 2.346621835e-38
0.0475708656 -0.7469506264 -0.04078368843 2.346621835e-38
-0.09080797434 -0.3880503774 -0.09617342055 2.346621835e-38
-0.4564770162 -0.3773286343 0.02562560514 2.346621835e-38
0.06057181954 -0.7476525307 -0.03032717109 2.346514075e-38
-0.4417607188 -0.4010840356 0.008194822818 2.346514075e-38
-0.443687588 -0.3904303312 -0.005272844806 2.346514075e-38
-0.4545501173 -0.3879823387 0.03909326345 2.346514075e-38
-0.4758303165 -0.3369809985 -0.015938133 2.346514075e-38
-0.2563208938 -0.7479199171 -0.1551583558 2.346514075e-38
-0.2601591647 -0.4188309014 -0.0676663965 2.346514075e-38
-0.4424382746 -0.3995994329 -0.003186875954 2.346514075e-38
-0.1810255051 -0.7461929321 -0.1379463822 2.346406175e-38
-0.3431209028 -0.3543648124 0.2210848927 2.346406175e-38
-0.5051460862 -0.2410335988 -0.0800088644 2.346406175e-38
-0.4641633034 -0.3947034776 0.08554534614 2.346406175e-38
0.04349990189 -0.3702716231 -0.1084370464 2.346406175e-38
-0.3405519128 -0.7578525543 -0.1145365313 2.346406175e-38
-0.3632935584 -0.7913774252 0.127255097 2.346406175e-38
-0.1557011902 -0.7461121678 -0.1284151673 2.346406175e-38
-0.3289060891 -0.7555852532 -0.1268434823 2.346334289e-38
-0.2932910621 -0.7502679825 -0.1523826271 2.346334289e-38
0.3269433975 -0.7200410366 -0.1303544939 2.346334289e-38
-0.3796822429 -0.7832524776 0.05989010632 2.346334289e-38
-0.442417115 -0.4595892131 0.1106035411 2.346334289e-38
0.334523946 -0.7088660598 -0.2109516859 2.346334289e-38
0.3159750998 -0.7237929106 -0.106665805 2.346334289e-38
-0.3817149103 -0.7787986994 0.02574495971 2.346334289e-38
0.335201472 -0.7103506327 -0.1995699853 2.346226389e-38
0.2926834822 -0.7283275127 -0.08205193281 2.346226389e-38
0.1345121115 -0.7429563999 -0.03587862849 2.346226389e-38
-0.3482599854 -0.796533227 0.1718567163 2.346226389e-38
-0.4642691016 -0.400903374 0.06486788392 2.346226389e-38
0.07289519161 -0.7468698025 -0.03125241399 2.346226389e-38
-0.4527290463 -0.4048359692 0.03188348934 2.346226389e-38
-0.3776496053 -0.7877063155 0.09403519332 2.346226389e-38
-0.3541949987 -0.3643166125 0.2240960896 2.346118629e-38
0.2678194642 -0.3745214045 -0.1209194809 2.346118629e-38
-0.5038967729 -0.2502027154 -0.07792289555 2.346118629e-38
-0.341765821 -0.3573340178 0.243848294 2.346118629e-38
0.2549243271 -0.3676196039 -0.1106985062 2.346118629e-38
-0.3837475479 -0.7743448019 -0.008400201797 2.346118629e-38
-0.4534066021 -0.4033513665 0.02050176449 2.346118629e-38
-0.2446750402 -0.745652616 -0.1674652994 2.346118629e-38
-0.4450215399 -0.4474508762 0.08575415611 2.346010729e-38
-0.1057301164 -0.7444660664 -0.1207344159 2.346010729e-38
-0.466195941 -0.3902496696 0.05140022188 2.346010729e-38
-0.4056585133 -0.4696409702 0.0664729327 2.346010729e-38
0.2066568881 -0.4091988802 -0.006724540144 2.346010729e-38
0.2687142193 -0.7313774824 -0.06881974638 2.346010729e-38
-0.4540841281 -0.401866734 0.009120065719 2.346010729e-38
0.1098653674 -0.7445217371 -0.03402814269 2.346010729e-38
-0.4585096538 -0.3728747964 -0.008519517258 2.345938842e-38
-0.4572603106 -0.3820438981 -0.006433555856 2.345938842e-38
-0.3535174429 -0.3658012152 0.2354778051 2.345938842e-38
-0.3761669695 -0.7631698847 -0.0889973864 2.345938842e-38
0.04417745024 -0.3717562258 -0.09705534577 2.345938842e-38
-0.3857801855 -0.7698910236 -0.0425452888 2.345938842e-38
-0.4840774834 -0.3044347167 -0.06633237004 2.345938842e-38
-0.4547616839 -0.4003821313 -0.002261633053 2.345938842e-38
0.03389240056 -0.7447640896 -0.06262183189 2.345830942e-38
-0.3561218679 -0.3536629081 0.210628435 2.345830942e-38
-0.209044531 -0.4325537682 -0.07857713848 2.345830942e-38
-0.2595874071 -0.4265154302 -0.07696212828 2.345830942e-38
0.1954514682 -0.7375583053 -0.05188658834 2.345830942e-38
-0.3528399169 -0.3672858179 0.2468594909 2.345830942e-38
-0.2939685881 -0.74878335 -0.1637643278 2.345830942e-38
-0.443200469 -0.4643045068 0.07854438573 2.345830942e-38
-0.4591660202 -0.4313799441 0.09388919175 2.345723183e-38
-0.4682286084 -0.3857958317 0.01725507528 2.345723183e-38
-0.4610928893 -0.4207262099 0.08042150736 2.345723183e-38
-0.466979295 -0.3949649334 0.01934103854 2.345723183e-38
-0.3926831782 -0.7825505733 0.04943357408 2.345723183e-38
-0.3920056224 -0.7840352058 0.06081534922 2.345723183e-38
0.314620018 -0.7208237052 -0.129429251 2.345723183e-38
0.3188128173 -0.7022256851 -0.2669349909 2.345723183e-38
-0.08830933273 -0.4063886106 -0.09200149029 2.345615283e-38
-0.3419070244 -0.7548833489 -0.1372999549 2.345615283e-38
-0.3521623611 -0.3687704504 0.2582412362 2.345615283e-38
0.05707262829 -0.3786580563 -0.1072763205 2.345615283e-38
0.2065511048 -0.4153987467 -0.02740200236 2.345615283e-38
-0.233013764 -0.4356037378 -0.0653449595 2.345615283e-38
-0.4445555508 -0.4613352716 0.05578096211 2.345615283e-38
-0.08108334243 -0.74290061 -0.1225849018 2.345615283e-38
-0.3913280964 -0.7855198383 0.07219703496 2.345507523e-38
-0.1720743775 -0.430205673 -0.08135286719 2.345507523e-38
0.2419233471 -0.3669176698 -0.1211549491 2.345507523e-38
-0.1693796962 -0.7439256907 -0.1502533555 2.345507523e-38
-0.3302612007 -0.7526160479 -0.1496068984 2.345507523e-38
-0.467656821 -0.3934803009 0.007959339768 2.345507523e-38
-0.1837202162 -0.4324729741 -0.0690459311 2.345507523e-38
0.06882422417 -0.3701908588 -0.09890583158 2.345507523e-38
-0.4419511259 -0.4734736383 0.08063035458 2.345399623e-38
0.2554961145 -0.3753041029 -0.119994238 2.345399623e-38
-0.4193369746 -0.4674544334 0.04463474825 2.345399623e-38
0.1928726435 -0.4132122397 -0.04924018309 2.345399623e-38
-0.5013981462 -0.2685409486 -0.0737509802 2.345399623e-38
0.07221764326 -0.7453852296 -0.04263417423 2.345399623e-38
-0.4865761399 -0.2860965133 -0.07050429285 2.345399623e-38
0.2440674603 -0.7329429388 -0.06696926057 2.345399623e-38
-0.3994586766 -0.7677044868 -0.06438350677 2.345291723e-38
-0.4541687369 -0.4680564106 0.1022330523 2.345291723e-38
-0.3974260092 -0.7721582651 -0.03023836017 2.345291723e-38
-0.2576759756 -0.7449506521 -0.177921772 2.345291723e-38
-0.3987811208 -0.7691891193 -0.05300174654 2.345291723e-38
0.3029741943 -0.7230910063 -0.1171223223 2.345291723e-38
0.04542677477 -0.3809253573 -0.09496937692 2.345291723e-38
-0.0629850179 -0.4063078165 -0.08247028291 2.345291723e-38
0.2680366635 -0.7298929095 -0.08020144701 2.345219836e-38
-0.4426286519 -0.4719890356 0.0692486614 2.345219836e-38
0.3139424622 -0.7193391323 -0.1408109516 2.345219836e-38
-0.1823806018 -0.7432237864 -0.1607097983 2.345219836e-38
0.02021390572 -0.7425775528 -0.08445999026 2.345219836e-38
0.08454100788 -0.744602561 -0.04355941713 2.345219836e-38
0.1935501993 -0.4146968424 -0.03785845637 2.345219836e-38
-0.09408427775 -0.7421987057 -0.1330413818 2.345219836e-38
-0.2583380938 -0.4356845319 -0.07487616688 2.345111936e-38
-0.3069695234 -0.7480814457 -0.1742208004 2.345111936e-38
0.09686437249 -0.7438198328 -0.04448466003 2.345111936e-38
-0.3309387267 -0.7511314154 -0.1609885991 2.345111936e-38
-0.1947942525 -0.442424804 -0.06603471935 2.345111936e-38
-0.1831484288 -0.4401575029 -0.07834166288 2.345111936e-38
0.05775017664 -0.3801426589 -0.09589461982 2.345111936e-38
-0.2194410115 -0.443990171 -0.06418423355 2.345111936e-38
-0.3651632965 -0.3680685163 0.2477847338 2.345004176e-38
0.3215230107 -0.7081640959 -0.2214081585 2.345004176e-38
-0.2201185673 -0.4425055683 -0.07556593418 2.345004176e-38
0.3222005665 -0.7096487284 -0.210026443 2.345004176e-38
-0.3539834619 -0.3519168198 0.265451014 2.345004176e-38
-0.4043290019 -0.7848178744 0.06174059212 2.345004176e-38
-0.3639139831 -0.377237618 0.2498706877 2.345004176e-38
-0.1700572371 -0.7424410582 -0.1616350412 2.345004176e-38
0.3132649064 -0.7178544998 -0.1521926522 2.344896276e-38
-0.2440877706 -0.4455555677 -0.06233375147 2.344896276e-38
0.255713284 -0.7306755781 -0.07927620411 2.344896276e-38
-0.3865852654 -0.7959120274 0.1518689841 2.344896276e-38
-0.2083824724 -0.7418198586 -0.1816227436 2.344896276e-38
-0.1227808297 -0.4270749092 -0.08505383879 2.344896276e-38
-0.3432621062 -0.7519141436 -0.1600633562 2.344896276e-38
-0.2687345743 -0.4471209645 -0.06048326567 2.344896276e-38
0.2438502163 -0.377571404 -0.1076872945 2.344788516e-38
-0.15850164 -0.4385921061 -0.08019214869 2.344788516e-38
-0.4104269445 -0.7714563608 -0.0406948179 2.344788516e-38
-0.132409513 -0.7415776253 -0.1530290842 2.344788516e-38
0.2906508148 -0.7238736749 -0.1161970794 2.344788516e-38
-0.06173568591 -0.415476948 -0.08038431406 2.344788516e-38
-0.2830002904 -0.745031476 -0.1874529868 2.344788516e-38
-0.3859077096 -0.7973966599 0.1632506698 2.344788516e-38
-0.3076470792 -0.7465968132 -0.185602501 2.344680616e-38
-0.3625588715 -0.3802068532 0.2726341486 2.344680616e-38
0.07154008746 -0.7439005971 -0.05401585996 2.344680616e-38
-0.1200861484 -0.7407948971 -0.1539543271 2.344680616e-38
-0.08581069112 -0.4247268438 -0.08782956749 2.344680616e-38
-0.1707347929 -0.7409564257 -0.1730167419 2.344680616e-38
-0.05711412802 -0.7398506403 -0.1358171105 2.344680616e-38
-0.4976501763 -0.2960482836 -0.06749308854 2.344680616e-38
-0.2090600282 -0.7403352857 -0.1930044442 2.344572857e-38
-0.0734873116 -0.4239441454 -0.08875480294 2.344572857e-38
0.2703181207 -0.3928596377 -0.1167475581 2.344572857e-38
0.03253730759 -0.7417948246 -0.08538523316 2.344572857e-38
-0.4138146937 -0.7640333176 -0.09760335833 2.344572857e-38
-0.2473852336 -0.7397141457 -0.2129921317 2.344572857e-38
0.2899732888 -0.722389102 -0.1275787652 2.344572857e-38
-0.4159748554 -0.7870851755 0.07404752076 2.344572857e-38
0.3112322688 -0.7134006619 -0.1863377988 2.344464957e-38
-0.4193625748 -0.7796621323 0.01713897288 2.344464957e-38
-0.3762373626 -0.3780203164 0.2507959306 2.344464957e-38
-0.1455007344 -0.4392940402 -0.06973569095 2.344464957e-38
0.04553822428 -0.7424967289 -0.07492877543 2.344464957e-38
-0.4247829616 -0.7677852511 -0.07391472161 2.344464957e-38
0.3085220754 -0.7074621916 -0.2318646163 2.344464957e-38
0.309877187 -0.7104314566 -0.2091012001 2.344464957e-38
-0.4146197438 -0.7900544405 0.09681092203 2.344357197e-38
-0.1967366189 -0.7395526171 -0.1939296871 2.344357197e-38
-0.4213952422 -0.7752082944 -0.01700617373 2.344357197e-38
0.2709956467 -0.3943442404 -0.1053658575 2.344357197e-38
-0.1215315014 -0.4362440407 -0.08296786994 2.344357197e-38
-0.4220727682 -0.7737237215 -0.02838787436 2.344357197e-38
0.09618683159 -0.7423352003 -0.05586634576 2.344357197e-38
0.1331570148 -0.7399871349 -0.05864207447 2.344357197e-38
-0.2720320225 -0.7412794828 -0.2111416459 2.344249297e-38
-0.308324635 -0.7451122403 -0.1969842315 2.344249297e-38
-0.3982310891 -0.798179388 0.1641759127 2.344249297e-38
-0.1714123338 -0.7394717932 -0.1843984723 2.344249297e-38
0.06082059816 -0.406165421 -0.1010184437 2.344249297e-38
0.1085102707 -0.7415524721 -0.05679158866 2.344249297e-38
-0.3206479847 -0.7458949089 -0.1960589886 2.344249297e-38
-0.2480627894 -0.7382295132 -0.2243738323 2.344249297e-38
0.289295733 -0.7209044695 -0.1389604807 2.344141397e-38
-0.1207636893 -0.7393102646 -0.1653360128 2.344141397e-38
-0.413264662 -0.7930236459 0.1195743531 2.344141397e-38
-0.3904875815 -0.3681493104 0.2382535338 2.344141397e-38
-0.03246735036 -0.7382852435 -0.1376675963 2.344141397e-38
-0.08456136286 -0.4338959754 -0.08574359864 2.344141397e-38
-0.2973563373 -0.7413603067 -0.2206728607 2.344141397e-38
-0.2104151249 -0.7373660803 -0.2157678604 2.344141397e-38
-0.1337646097 -0.7386083603 -0.1757924706 2.344033637e-38
-0.1720898896 -0.7379872203 -0.1957801729 2.344033637e-38
0.2886181772 -0.719419837 -0.1503421664 2.344033637e-38
-0.4112320244 -0.7974774837 0.1537194699 2.344033637e-38
0.07086254656 -0.7424160242 -0.0653975606 2.344033637e-38
0.2948436439 -0.7052756548 -0.2537028193 2.344033637e-38
0.01885880716 -0.7396082878 -0.1072234362 2.344033637e-38
-0.1850907952 -0.737285316 -0.2062366456 2.344033637e-38
-0.08388382196 -0.435380578 -0.07436190546 2.343925737e-38
-0.1467655599 -0.737906456 -0.1862489581 2.343925737e-38
0.1940963715 -0.7345890999 -0.0746499896 2.343925737e-38
0.2543582022 -0.7277064323 -0.1020395979 2.343925737e-38
-0.05991459265 -0.4323305786 -0.08759408444 2.343925737e-38
0.2660040259 -0.7254390717 -0.1143465936 2.343925737e-38
-0.4042015076 -0.7573121786 -0.144055441 2.343925737e-38
0.05786162615 -0.7417141199 -0.07585401833 2.343925737e-38
-0.1091178656 -0.7370430231 -0.1776429564 2.343817977e-38
-0.0201439783 -0.7375025749 -0.1385928392 2.343817977e-38
0.07382151484 -0.4068673253 -0.09056197107 2.343817977e-38
-0.185768351 -0.7358006835 -0.2176183462 2.343817977e-38
-0.09679447114 -0.7362602949 -0.1785681993 2.343817977e-38
0.2592440546 -0.4028114378 -0.1137363613 2.343817977e-38
0.2865855396 -0.7149660587 -0.184487313 2.343817977e-38
0.2180655599 -0.7315390706 -0.08788216859 2.343817977e-38
0.1571261883 -0.7369371653 -0.0718742609 2.343710077e-38
-0.07147014141 -0.7361795306 -0.1690369844 2.343710077e-38
0.08671668917 -0.4137691557 -0.1007829607 2.343710077e-38
0.2811651528 -0.703089118 -0.2755409777 2.343710077e-38
0.2420348227 -0.7284891009 -0.101114355 2.343710077e-38
0.05099584162 -0.4252863526 -0.0959212631 2.343710077e-38
-0.1097954065 -0.7355583906 -0.1890246868 2.343710077e-38
0.1575865597 -0.3830502331 -0.1012105942 2.343710077e-38
0.01818126068 -0.7381237149 -0.1186051369 2.343566444e-38
0.1078327149 -0.7400678992 -0.0681732893 2.343566444e-38
-0.3582957089 -0.7467583418 -0.2046649456 2.343566444e-38
0.2831977904 -0.7075430155 -0.2413958609 2.343566444e-38
0.2852304578 -0.7119967937 -0.2072507143 2.343566444e-38
0.2646489143 -0.7224698663 -0.1371099949 2.343566444e-38
0.2734943032 -0.4126825035 -0.1011939347 2.343566444e-38
-0.3866338432 -0.3894567788 0.2651889026 2.343566444e-38
0.07507083565 -0.416036427 -0.08847601712 2.343458544e-38
0.2469206303 -0.4035941362 -0.1128111035 2.343458544e-38
-0.4055565894 -0.7543429732 -0.1668188721 2.343458544e-38
-0.3822649121 -0.7498083711 -0.1914327741 2.343458544e-38
-0.07214769721 -0.7346949577 -0.1804186851 2.343458544e-38
-0.02082152665 -0.7360179424 -0.149974525 2.343458544e-38
-0.3706190586 -0.74754107 -0.2037397027 2.343458544e-38
-0.1617991179 -0.7327506542 -0.2308505327 2.343458544e-38
-0.3859562874 -0.3909413815 0.2765705884 2.343350644e-38
0.2604933977 -0.4119805694 -0.1116503924 2.343350644e-38
-0.08514863253 -0.7339929342 -0.1908751726 2.343350644e-38
0.2530030906 -0.7247371674 -0.1248030439 2.343350644e-38
0.05167338997 -0.4267709553 -0.08453956246 2.343350644e-38
-0.1494757533 -0.7319679856 -0.2317757756 2.343350644e-38
-0.04682339355 -0.7346141338 -0.1708874702 2.343350644e-38
-0.09814956784 -0.7332910299 -0.2013316303 2.343350644e-38
0.2345972657 -0.4043768346 -0.1118858606 2.343242884e-38
-0.3945883214 -0.7505910397 -0.1905075312 2.343242884e-38
0.01750371233 -0.736639142 -0.1299868375 2.343242884e-38
-0.4295257926 -0.7573930025 -0.1535866559 2.343242884e-38
-0.3829424381 -0.7483237386 -0.2028144747 2.343242884e-38
-0.05982432142 -0.7339122295 -0.181343928 2.343242884e-38
0.2715519071 -0.709810257 -0.2290888876 2.343242884e-38
-0.137152344 -0.731185317 -0.2327010185 2.343242884e-38
0.2722294629 -0.7112948895 -0.2177071869 2.343134984e-38
0.1564486474 -0.7354525328 -0.08325595409 2.343134984e-38
-0.111828059 -0.7311044931 -0.2231698036 2.343134984e-38
0.2222739011 -0.405159533 -0.1109606326 2.343134984e-38
-0.3842975497 -0.7453545332 -0.2255778909 2.343134984e-38
0.107155174 -0.7385833263 -0.07955498993 2.343134984e-38
0.2406797111 -0.7255198956 -0.123877801 2.343134984e-38
-0.021499075 -0.7345333099 -0.1613562554 2.343134984e-38
-0.0475009419 -0.7331295013 -0.1822691709 2.343027224e-38
-0.09950466454 -0.7303218246 -0.2240950465 2.343027224e-38
0.1483336091 -0.4098556936 -0.1054091752 2.343027224e-38
-0.08650372922 -0.7310237885 -0.2136385888 2.343027224e-38
0.2605836391 -0.7135622501 -0.2054002285 2.343027224e-38
0.250970453 -0.7202833295 -0.1589481682 2.343027224e-38
-0.07350279391 -0.7317256927 -0.2031821162 2.343027224e-38
-0.4308809042 -0.7544237375 -0.1763500869 2.343027224e-38
-0.08853636682 -0.726569891 -0.2477837205 2.342919324e-38
-0.06388960779 -0.7250045538 -0.2496342063 2.342919324e-38
-0.0762129724 -0.725787282 -0.2487089634 2.342919324e-38
0.01682616398 -0.7351545095 -0.1413685679 2.342919324e-38
0.2167104632 -0.7285698652 -0.110645622 2.342919324e-38
0.250292927 -0.7187987566 -0.1703298688 2.342919324e-38
0.1804179102 -0.7324025631 -0.09648814052 2.342919324e-38
-0.051566232 -0.7242218256 -0.2505594492 2.342919324e-38
-0.07485789061 -0.7287564278 -0.2259455323 2.342811565e-38
-0.0755354315 -0.7272718549 -0.237327233 2.342811565e-38
0.1009669304 -0.4236401916 -0.08824053407 2.342811565e-38
0.2283563465 -0.7263025045 -0.1229525581 2.342811565e-38
0.1249361336 -0.4205901921 -0.1014727205 2.342811565e-38
-0.4199126065 -0.7506718636 -0.200038746 2.342811565e-38
0.2235232294 -0.4143286645 -0.1088746637 2.342811565e-38
-0.03517754003 -0.7323468328 -0.1831944138 2.342811565e-38
0.1372595578 -0.4198074937 -0.1023979634 2.342703665e-38
0.2482602596 -0.7143449187 -0.2044749856 2.342703665e-38
0.1736578941 -0.4097748995 -0.09587796032 2.342703665e-38
0.1132903025 -0.4228574932 -0.08916577697 2.342703665e-38
0.2276788056 -0.7248179317 -0.1343342662 2.342703665e-38
0.2111998498 -0.4151113629 -0.1079494208 2.342703665e-38
-0.02624190971 -0.7241410613 -0.2410281897 2.342703665e-38
0.01614861563 -0.7336698771 -0.1527502537 2.342703665e-38
0.1256136745 -0.4220747948 -0.09009101987 2.342559891e-38
0.1188009977 -0.7363160253 -0.09186193347 2.342559891e-38
0.2372919768 -0.7180968523 -0.1807863414 2.342559891e-38
-0.03653263673 -0.7293776274 -0.2059578449 2.342559891e-38
0.04215048254 -0.7350736856 -0.1318373233 2.342559891e-38
0.1797403544 -0.7309179306 -0.1078698933 2.342559891e-38
-0.4212677181 -0.7477025986 -0.2228021622 2.342559891e-38
0.1865530461 -0.4166767299 -0.106098935 2.342559891e-38
-0.02556436136 -0.7256256342 -0.2296465039 2.342452132e-38
-0.02353171632 -0.7300795317 -0.1955013722 2.342452132e-38
0.1674169898 -0.7317005992 -0.1069446579 2.342452132e-38
0.1502604783 -0.4205094278 -0.09194150567 2.342452132e-38
0.06815235317 -0.7364775538 -0.1109244078 2.342452132e-38
0.187230587 -0.4181613326 -0.09471723437 2.342452132e-38
0.1625838578 -0.4197267294 -0.09286674857 2.342452132e-38
-0.4335910976 -0.7484853268 -0.2218769193 2.342452132e-38
0.1749072224 -0.418944031 -0.09379199147 2.342344232e-38
0.02372918278 -0.7224949002 -0.2333474755 2.342344232e-38
0.0934766382 -0.7363967896 -0.1013932005 2.342344232e-38
0.1304468215 -0.7340487242 -0.1041689292 2.342344232e-38
0.03605255112 -0.7217122316 -0.2342727184 2.342344232e-38
0.01276087575 -0.7262468338 -0.2096588016 2.342344232e-38
0.2209033221 -0.7099717855 -0.248151347 2.342344232e-38
0.03673009574 -0.7231968641 -0.2228910178 2.342344232e-38
0.0271169208 -0.7299180031 -0.1764389277 2.342236472e-38
0.2079023421 -0.7092698812 -0.2586078048 2.342236472e-38
0.2016769052 -0.7234140635 -0.1552471966 2.342236472e-38
0.208579883 -0.7107545137 -0.2472261041 2.342236472e-38
0.03740764782 -0.724681437 -0.2115092874 2.342236472e-38
0.07234514505 -0.7178795338 -0.2484301329 2.342236472e-38
0.1420926303 -0.7317813635 -0.1164758578 2.342236472e-38
0.04011783749 -0.7306199074 -0.1659824699 2.342236472e-38
0.1051225215 -0.7341294289 -0.1137001365 2.342128572e-38
0.04973104969 -0.7238987684 -0.2124345303 2.342128572e-38
0.1969340742 -0.7130218744 -0.2349191606 2.342128572e-38
0.07979817688 -0.7342102528 -0.1232313514 2.342128572e-38
0.0613768734 -0.7216314673 -0.2247415036 2.342128572e-38
0.1777077168 -0.7264641523 -0.1420149803 2.342128572e-38
0.05244123936 -0.7298371792 -0.1669077128 2.342128572e-38
0.06205442175 -0.7231160402 -0.2133597732 2.342128572e-38
0.05176369473 -0.7283526063 -0.1782894135 2.342020812e-38
0.1852882504 -0.7152891159 -0.2226122022 2.342020812e-38
0.07370024174 -0.7208487988 -0.2256667465 2.342020812e-38
