# .PCD v0.7 - Point Cloud Data file format
VERSION 0.7
FIELDS x y z rgb
SIZE 4 4 4 4
TYPE F F F F
COUNT 1 1 1 1
WIDTH 834
HEIGHT 1
VIEWPOINT 0 0 0 1 0 0 0
POINTS 834
DATA ascii
0.2444914579 -0.1703230441 0.3358343244 8.924899347e-39
0.205685243 -0.1762401909 0.2516748309 8.742304551e-39
0.1536914259 -0.1801212877 0.3374483585 8.742304551e-39
0.2052166015 -0.1816680431 0.3360152841 8.742304551e-39
0.1921730042 -0.1883585751 0.2511392236 8.742304551e-39
0.2438604981 -0.1828281134 0.3349404335 8.560068489e-39
0.1015121713 -0.1920906007 0.3258113265 8.560068489e-39
0.1530836672 -0.1916152984 0.3487308025 8.560068489e-39
0.1659418344 -0.1930130124 0.3361961842 8.560068489e-39
0.2046088427 -0.1931620538 0.3472976685 8.377473694e-39
0.256110847 -0.1957198381 0.3336882591 8.377473694e-39
0.1009275988 -0.2025735974 0.3492700458 8.377473694e-39
0.204400152 -0.2022613287 0.2377107292 8.377473694e-39
0.1910734326 -0.2062914521 0.3345857859 8.194878899e-39
0.2297405154 -0.2064404935 0.3456872106 8.194878899e-39
0.1002966538 -0.2150786221 0.3483761549 8.194878899e-39
0.203769207 -0.2147663832 0.2368168384 8.194878899e-39
0.1517985761 -0.2176364213 0.3347667456 8.012284103e-39
0.1646799296 -0.2180231065 0.334408462 8.012284103e-39
0.1775612086 -0.2184097916 0.3340501785 8.012284103e-39
0.1773988903 -0.2254870087 0.2488158345 8.012284103e-39
0.2548489571 -0.2207299322 0.3319004774 7.829687907e-39
0.203138262 -0.2272714078 0.2359229624 7.829687907e-39
0.09961932898 -0.2296057343 0.3231296539 7.829687907e-39
0.1511908174 -0.2291304171 0.34604913 7.829687907e-39
0.1382863522 -0.2297547609 0.3342311382 7.647093112e-39
0.2155741006 -0.2320749015 0.3320814371 7.647093112e-39
0.2284786254 -0.2314505577 0.3438994288 7.647093112e-39
0.2284554392 -0.2324615866 0.3317231536 7.647093112e-39
0.1767911315 -0.2369810045 0.2600983381 7.464498317e-39
0.17632249 -0.2424088717 0.3444386721 7.464498317e-39
0.2407057732 -0.2453533411 0.3304709792 7.464498317e-39
0.09840381145 -0.2525937557 0.3456944823 7.464498317e-39
0.1112850904 -0.2529804409 0.3453361988 7.281903522e-39
0.1370244622 -0.2547648847 0.3324433565 7.281903522e-39
0.124119997 -0.2553892136 0.3206253052 7.281903522e-39
-0.2240459323 -0.2611250877 0.1354776323 7.281903522e-39
-0.1982601285 -0.260887444 0.1469374448 7.099307325e-39
0.1369780898 -0.2567869425 0.308090657 7.099307325e-39
0.1369549036 -0.2577979565 0.2959143519 7.099307325e-39
0.2143353969 -0.2560739517 0.3424699903 7.099307325e-39
0.04448052123 -0.3255975842 -0.2513001561 6.91671253e-39
0.1498129964 -0.2591956854 0.2833797336 6.91671253e-39
0.162694335 -0.2595823705 0.28302145 6.91671253e-39
0.1497898102 -0.2602066994 0.2712034285 6.91671253e-39
0.1884105206 -0.2623777986 0.2579522729 6.734117735e-39
0.08489152044 -0.2647121251 0.345158875 6.734117735e-39
0.1106541455 -0.2654855251 0.3444423079 6.734117735e-39
0.1364167035 -0.2662588954 0.3437257409 6.734117735e-39
0.1210909411 -0.3424448073 -0.2786963582 6.55152294e-39
0.1234890521 -0.267894268 0.3197314143 6.55152294e-39
0.1082328483 -0.3410471082 -0.2661617994 6.55152294e-39
0.0953515619 -0.340660423 -0.2658035159 6.55152294e-39
0.08247022331 -0.3402737379 -0.2654452324 6.368926744e-39
0.1597812176 -0.3415828347 -0.2554185987 6.368926744e-39
0.146899879 -0.3411961496 -0.2550603151 6.368926744e-39
0.1340186 -0.3408094645 -0.2547020316 6.368926744e-39
0.09537475556 -0.3396493793 -0.2536271811 6.186331949e-39
0.1363471448 -0.269291997 0.3071967661 6.186331949e-39
0.200823158 -0.2681923509 0.3419343829 6.186331949e-39
0.1211605072 -0.3394117355 -0.2421673983 6.186331949e-39
0.16206339 -0.272087425 0.2821275592 6.003737154e-39
0.2523251772 -0.2707501352 0.328324914 6.003737154e-39
0.1877795756 -0.274882853 0.257058382 6.003737154e-39
-0.2510240078 -0.2833397388 0.1587591171 6.003737154e-39
-0.251047194 -0.2843507826 0.1465827972 5.820783626e-39
-0.199475646 -0.2838754654 0.169502303 5.820783626e-39
0.1357857585 -0.2787639201 0.3428318501 5.820783626e-39
-0.1608317941 -0.2850355208 0.1684274524 5.820783626e-39
0.1228581071 -0.2803992927 0.3188375235 5.63818743e-39
-0.1866639555 -0.2872952521 0.1326150149 5.63818743e-39
0.2001690269 -0.2817084193 0.3288641572 5.63818743e-39
0.2130503058 -0.2820951045 0.3285058737 5.63818743e-39
0.2388361096 -0.2818574309 0.3399656415 5.455592635e-39
0.2516942024 -0.2832551599 0.3274310231 5.455592635e-39
0.1480360925 -0.2916556597 0.3415797353 5.455592635e-39
0.1995380819 -0.294213444 0.3279702663 5.455592635e-39
0.2253006995 -0.2949868143 0.3272536993 5.272997839e-39
0.2510864735 -0.2947491705 0.3387134671 5.272997839e-39
0.09588001668 -0.3026139736 0.3421189189 5.272997839e-39
0.1602864861 -0.3045473993 0.3403275609 5.272997839e-39
0.1473819613 -0.3051717579 0.3285095096 5.090401643e-39
0.1731677651 -0.3049340844 0.3399692774 5.090401643e-39
0.2246929407 -0.3064808547 0.3385361433 5.090401643e-39
0.2117884159 -0.3071052134 0.326718092 5.090401643e-39
0.2375742197 -0.3068675399 0.3381778598 4.907806848e-39
0.2504323125 -0.3082652688 0.3256432414 4.907806848e-39
0.2240388095 -0.3199969232 0.3254659176 4.907806848e-39
0.2498245686 -0.3197592497 0.3369256854 4.907806848e-39
0.1332619637 -0.3287841082 0.3392563462 4.725212053e-39
0.1461200565 -0.3301818669 0.3267217278 4.725212053e-39
0.15900141 -0.330568552 0.3263634443 4.725212053e-39
0.2234310508 -0.3314909339 0.3367483616 4.725212053e-39
0.1455122977 -0.3416758478 0.3380041718 4.542257124e-39
0.1970374882 -0.3432225883 0.3365710378 4.542257124e-39
0.197014302 -0.3442336321 0.3243947029 4.542257124e-39
0.2098955661 -0.3446203172 0.3240364194 4.542257124e-39
0.2485626787 -0.3447693586 0.3351379037 4.359662329e-39
0.09335623682 -0.3526341319 0.3385434151 4.359662329e-39
0.08045170456 -0.3532584906 0.3267253637 4.359662329e-39
0.1062375158 -0.353020817 0.3381851315 4.359662329e-39
0.1448813528 -0.3541808724 0.337110281 4.177066133e-39
0.2221691459 -0.356501013 0.3349605799 4.177066133e-39
0.09267890453 -0.3671612442 0.3132968545 4.177066133e-39
0.1442272067 -0.3676969707 0.3240400553 4.177066133e-39
0.09209433943 -0.3776442111 0.3367556334 3.994471337e-39
0.07918980718 -0.3782685697 0.324937582 3.994471337e-39
0.1178337112 -0.3794286549 0.3238627315 3.994471337e-39
0.1307149827 -0.37981534 0.3235044479 3.994471337e-39
0.1564776152 -0.3805887103 0.3227878809 3.81151781e-39
0.1693588942 -0.3809753954 0.3224295974 3.81151781e-39
0.1951446384 -0.3807377219 0.3338893652 3.81151781e-39
0.2466698289 -0.3822844923 0.3324562311 3.81151781e-39
0.1043446735 -0.3905359805 0.335503459 3.628921614e-39
0.1558466703 -0.3930937648 0.32189399 3.628921614e-39
0.220276311 -0.3940161765 0.3322789073 3.628921614e-39
0.2202531248 -0.3950272202 0.320102632 3.628921614e-39
0.1814469099 -0.4009443521 0.2359431237 3.446326818e-39
-0.4999277294 -0.2663972974 -0.1331218034 3.446326818e-39
0.1165950075 -0.4034276903 0.3342512846 3.446326818e-39
0.2318541855 -0.4362277687 -0.02208673209 3.446326818e-39
0.1552157253 -0.4055988193 0.3210000992 3.26337189e-39
-0.4870696366 -0.2677950263 -0.1456564367 3.26337189e-39
0.1809782833 -0.4063721895 0.3202835917 3.26337189e-39
-0.5125771761 -0.2559003234 -0.01100025792 3.26337189e-39
0.2325266451 -0.4069078863 0.3310267329 3.080777095e-39
-0.5134167671 -0.2775046527 -0.1214811057 3.080777095e-39
-0.5262053013 -0.2730737925 -0.07241749763 3.080777095e-39
0.2183187753 -0.449357152 -0.03479865193 3.080777095e-39
-0.5269058347 -0.2886119783 -0.1098403931 2.898180898e-39
0.1030827761 -0.4155460298 0.3337156773 2.898180898e-39
-0.5133240223 -0.2734605074 -0.07277578115 2.898180898e-39
0.1546079516 -0.4170928001 0.3322825432 2.898180898e-39
-0.4877005816 -0.2803000808 -0.1465503275 2.715227371e-39
-0.5004891157 -0.2758692503 -0.09748671949 2.715227371e-39
-0.5268594027 -0.2865899205 -0.0854877308 2.715227371e-39
0.1545847654 -0.4181038439 0.3201062679 2.715227371e-39
0.1803705096 -0.4178661704 0.3315659761 2.532632576e-39
0.1932517886 -0.4182528555 0.3312076926 2.532632576e-39
-0.4876773953 -0.279289037 -0.1343739778 2.532632576e-39
0.2190144211 -0.4190262258 0.3304911256 2.532632576e-39
-0.4868377447 -0.2576847076 -0.02389316633 2.349677647e-39
0.2318957001 -0.4194129407 0.3301328421 2.349677647e-39
0.244776994 -0.4197996259 0.3297745585 2.349677647e-39
-0.5131153464 -0.2643612325 0.03681117296 2.349677647e-39
-0.5004194975 -0.2728361785 -0.06095774099 2.167082852e-39
-0.4876310229 -0.2772669792 -0.1100213453 2.167082852e-39
-0.5130457878 -0.2613281608 0.07334011793 2.167082852e-39
-0.4747960865 -0.2796757221 -0.1347322613 2.167082852e-39
0.18018502 -0.4259544313 0.2341553569 1.984127923e-39
-0.5129761696 -0.2582950592 0.1098691225 1.984127923e-39
-0.4883547127 -0.2938161492 -0.1596205235 1.984127923e-39
-0.5002803802 -0.2667699754 0.01210020296 1.984127923e-39
0.08957055211 -0.4276644289 0.3331800699 1.801533128e-39
-0.5128602982 -0.2532398999 0.1707507521 1.801533128e-39
0.07666601986 -0.4282887578 0.3213620186 1.801533128e-39
0.204829663 -0.4604645073 -0.02315794677 1.801533128e-39
-0.4747497141 -0.2776536644 -0.1103796288 1.618578199e-39
0.06324656308 -0.1035374925 -0.2325302511 1.618578199e-39
0.1024054587 -0.4300731719 0.3084691763 1.618578199e-39
0.2306154817 -0.4602268636 -0.01169816405 1.618578199e-39
0.1281912029 -0.4298355281 0.3199289441 1.435982003e-39
0.1539770067 -0.4295978546 0.3313886523 1.435982003e-39
0.1152867377 -0.430459857 0.3081108928 1.435982003e-39
0.06249967963 -0.1210976765 -0.2943057716 1.435982003e-39
-0.4754965901 -0.2952138782 -0.1721551567 1.253028475e-39
-0.4754734039 -0.2942028344 -0.159978807 1.253028475e-39
-0.5000717044 -0.2576707006 0.1216871515 1.253028475e-39
0.218360275 -0.4325423539 0.3174209595 1.253028475e-39
-0.4746801257 -0.2746205628 -0.07385062426 1.070432279e-39
-0.5000485182 -0.2566596866 0.133863464 1.070432279e-39
0.06254605204 -0.1190756038 -0.2699531019 1.070432279e-39
0.07535776496 -0.1224953905 -0.3068403602 1.070432279e-39
-0.500025332 -0.2556486428 0.146039784 8.874787512e-40
-0.4746569395 -0.2736095488 -0.06167430803 8.874787512e-40
-0.4873295724 -0.2641235888 0.04827092588 8.874787512e-40
-0.4999789596 -0.253626585 0.1703924686 8.874787512e-40
-0.5281677246 -0.3136220574 -0.1116281673 7.045238224e-40
-0.5135375857 -0.2677670121 0.1455041766 7.045238224e-40
-0.5135607719 -0.2687780559 0.1333278567 7.045238224e-40
-0.4745873809 -0.2705764472 -0.02514533326 7.045238224e-40
-0.4754038453 -0.2911697626 -0.1234498322 5.219290273e-40
-0.5281444788 -0.3126110137 -0.09945182502 5.219290273e-40
0.07603507489 -0.4407938123 0.3204681277 5.219290273e-40
0.1404647231 -0.4417161942 0.330853045 5.219290273e-40
-0.5024979115 -0.318439573 -0.1610500216 3.389740985e-40
-0.5288681984 -0.3291602135 -0.1490510255 3.389740985e-40
0.07470363379 -0.1360114813 -0.3199105561 3.389740985e-40
0.07547369599 -0.1174402311 -0.2459587157 3.389740985e-40
0.1662041545 -0.443500638 0.3179602027 1.56020571e-40
-0.3976474404 -0.288062036 -0.2099399269 1.56020571e-40
0.1403719783 -0.4457603097 0.2821477652 1.56020571e-40
-0.4743323028 -0.2594551146 0.1087942719 1.56020571e-40
-0.5142844915 -0.2853271961 0.08372865617 6.490113838e-41
-0.4496876299 -0.2939651906 -0.1485190541 6.490113838e-41
-0.5141453743 -0.2792610228 0.1567866653 6.490113838e-41
0.07552008331 -0.1154181734 -0.2216060758 6.490113838e-41
-0.4488943517 -0.2743829191 -0.06239086762 2.496469266e-40
-0.4752415121 -0.2840925455 -0.03821553662 2.496469266e-40
0.06196147949 -0.1295586228 -0.246494323 2.496469266e-40
0.07477319241 -0.1329783797 -0.2833815813 2.496469266e-40
-0.3847661614 -0.2884487212 -0.2102982104 4.340353837e-40
-0.4742163718 -0.2543999553 0.1696759015 4.340353837e-40
-0.4504113197 -0.3105143607 -0.1981182247 4.340353837e-40
-0.515100956 -0.3059205115 -0.01457580831 4.340353837e-40
-0.4104359746 -0.2836312354 -0.1608763337 6.184224396e-40
0.07542731613 -0.452287823 0.3317505717 6.184224396e-40
-0.4767816663 -0.3212350011 -0.1861192435 6.184224396e-40
-0.3462150097 -0.2936529219 -0.2600783408 6.184224396e-40
0.07481956482 -0.130956322 -0.2590289414 8.028094954e-40
-0.3590499461 -0.291244179 -0.2353674322 8.028094954e-40
-0.4495948553 -0.2899210453 -0.09981373698 8.028094954e-40
-0.4246951044 -0.3133097887 -0.2231874466 8.028094954e-40
-0.4367831349 -0.2933408618 -0.1367009878 9.871979525e-40
0.0634784475 -0.09342718869 -0.1107669771 9.871979525e-40
-0.3333337307 -0.294039607 -0.2604366243 9.871979525e-40
-0.5147994757 -0.2927770913 0.1437163949 9.871979525e-40
0.1913357675 -0.4567790627 0.3163497448 1.171585008e-39
-0.5148690343 -0.2958101928 0.1071874574 1.171585008e-39
-0.5148922205 -0.2968212366 0.09501113743 1.171585008e-39
0.2171215713 -0.4565413892 0.327809453 1.171585008e-39
0.04991984367 -0.107567586 -0.1356552094 1.355972064e-39
0.2042170465 -0.4571657479 0.3159914613 1.355972064e-39
-0.5166410804 -0.3430629373 -0.1624795049 1.355972064e-39
0.2170983851 -0.457552433 0.3156331778 1.355972064e-39
-0.5158014297 -0.3214586377 -0.05199870095 1.540360521e-39
-0.4103432298 -0.2795871198 -0.112171039 1.540360521e-39
-0.2947826385 -0.2992438078 -0.3102167845 1.540360521e-39
-0.5157782435 -0.3204476237 -0.03982235491 1.540360521e-39
-0.5294064283 -0.3376210928 -0.1012395993 1.724747577e-39
-0.4748473167 -0.2669050097 0.1687820107 1.724747577e-39
0.07491232455 -0.1269122064 -0.2103236467 1.724747577e-39
0.07563601434 -0.110363014 -0.1607244313 1.724747577e-39
-0.5293600559 -0.335599035 -0.07688693702 1.909134633e-39
-0.3332873583 -0.2920175493 -0.2360839993 1.909134633e-39
-0.4102968276 -0.277565062 -0.08781837672 1.909134633e-39
-0.3853739202 -0.2999427617 -0.1990157515 1.909134633e-39
-0.4381841421 -0.3244171143 -0.2115467489 2.09352309e-39
-0.4883595705 -0.2790233493 0.1682464182 2.09352309e-39
-0.3204292655 -0.2934152484 -0.2486186028 2.09352309e-39
-0.5156159401 -0.3133704066 0.04541194066 2.09352309e-39
-0.5018718243 -0.2911417484 0.1677108109 2.277910146e-39
-0.43566522 -0.2596041262 0.1198957413 2.277910146e-39
-0.5154304504 -0.3052821457 0.1428225189 2.277910146e-39
-0.5154768229 -0.3073042035 0.1184698865 2.277910146e-39
-0.5300837755 -0.3521482348 -0.1264861375 2.462297202e-39
-0.4365744293 -0.2842415869 -0.02711406723 2.462297202e-39
-0.4355956614 -0.2565710545 0.1564247459 2.462297202e-39
-0.3082716465 -0.3103511333 -0.2985760868 2.462297202e-39
-0.4355724752 -0.2555600107 0.1686010659 2.646685659e-39
-0.5164324045 -0.3339636624 -0.05289258435 2.646685659e-39
0.06069958955 -0.154568702 -0.2482821047 2.646685659e-39
-0.5164091587 -0.3329526484 -0.04071623832 2.646685659e-39
0.08709308505 -0.1428370178 -0.2481047809 2.830713982e-39
0.07428137958 -0.1394172609 -0.2112175226 2.830713982e-39
-0.4228071272 -0.2610018551 0.1073611453 2.830713982e-39
-0.3973691761 -0.2759296894 -0.06382399797 2.830713982e-39
-0.3596113324 -0.3007161319 -0.1997323185 3.015101038e-39
0.06217017025 -0.1204593405 -0.1369073838 3.015101038e-39
-0.4100881517 -0.2684657872 0.02176854573 3.015101038e-39
-0.4237163365 -0.2856393158 -0.03964866325 3.015101038e-39
-0.4227143824 -0.2569577396 0.1560664624 3.199488094e-39
-0.3075015843 -0.2917799056 -0.2246242166 3.199488094e-39
-0.5162236691 -0.3248643875 0.05669436976 3.199488094e-39
0.0629170686 -0.1028991267 -0.07513186336 3.199488094e-39
-0.5160845518 -0.3187982142 0.129752323 3.383517819e-39
-0.5161541104 -0.3218313158 0.09322337061 3.383517819e-39
-0.5161772966 -0.3228423297 0.08104699105 3.383517819e-39
-0.4236004055 -0.2805841565 0.02123294026 3.383517819e-39
0.07432775199 -0.1373952031 -0.1868648678 3.567904875e-39
-0.4099490047 -0.2623996139 0.09482654929 3.567904875e-39
-0.3731235564 -0.3128345013 -0.2002679259 3.567904875e-39
-0.5170865059 -0.3474797606 -0.06596279144 3.567904875e-39
-0.409879446 -0.2593665123 0.1313554943 3.75229193e-39
-0.4002407789 -0.3411153257 -0.2500444353 3.75229193e-39
-0.3971836865 -0.2678414285 0.03358663991 3.75229193e-39
-0.5178797841 -0.3670620322 -0.1520909667 3.75229193e-39
0.07579833269 -0.1032858118 -0.07549014688 3.936320254e-39
0.08569207788 -0.1739133 -0.3229505122 3.936320254e-39
-0.2817621827 -0.2935643196 -0.2375171185 3.936320254e-39
-0.4098098874 -0.2563334107 0.1678844988 3.936320254e-39
-0.3971373141 -0.2658193707 0.05793926865 4.120708711e-39
-0.5178565979 -0.3660509884 -0.1399146318 4.120708711e-39
-0.3971141279 -0.2648083568 0.07011558115 4.120708711e-39
0.08571526408 -0.1729022861 -0.3107742071 4.120708711e-39
-0.2696278095 -0.3115111887 -0.2996509373 4.304737034e-39
-0.3994939029 -0.3235551417 -0.1882689297 4.304737034e-39
-0.5169242024 -0.3404025435 0.01927147433 4.304737034e-39
-0.2817389965 -0.2925532758 -0.2253407836 4.304737034e-39
-0.3970213532 -0.2607642114 0.1188208982 4.48912409e-39
-0.4233221412 -0.2684517801 0.1673488915 4.48912409e-39
-0.3994707167 -0.3225441277 -0.1760926098 4.48912409e-39
-0.322414875 -0.3349745274 -0.300005585 4.48912409e-39
-0.2688809037 -0.2939510047 -0.237875402 4.673152414e-39
-0.3209674656 -0.3018762171 -0.2008071542 4.673152414e-39
0.06156241894 -0.1319533288 -0.1256249547 4.673152414e-39
-0.2817158103 -0.291542232 -0.2131644636 4.673152414e-39
0.07297311723 -0.1664493978 -0.2373579592 4.857539469e-39
0.09936667979 -0.1547177434 -0.2371806353 4.857539469e-39
-0.3842328489 -0.2651950419 0.06975729764 4.857539469e-39
-0.4137298167 -0.3522226512 -0.2384037375 4.857539469e-39
0.0608619079 -0.1474914849 -0.1630478203 5.041567793e-39
-0.3737545013 -0.3253395557 -0.2011618167 5.041567793e-39
0.08655489981 -0.1512979567 -0.2002933621 5.041567793e-39
-0.3841864467 -0.2631729841 0.0941099897 5.041567793e-39
-0.348785162 -0.3456951678 -0.2880065441 5.225597518e-39
-0.4008717239 -0.3536203504 -0.2509383261 5.225597518e-39
0.07299630344 -0.1654383838 -0.2251816243 5.225597518e-39
-0.4767401516 -0.3044201434 0.166100353 5.225597518e-39
-0.3080861568 -0.3022629023 -0.2011654377 5.409984573e-39
-0.5039964914 -0.3387671709 0.04326588288 5.409984573e-39
0.07516738772 -0.1157908812 -0.07638403028 5.409984573e-39
-0.3850724697 -0.2867993712 -0.04072351009 5.409984573e-39
-0.4793286324 -0.3722662032 -0.201871112 5.594012897e-39
0.06088509411 -0.1464804709 -0.1508715004 5.594012897e-39
0.06160879135 -0.1299312711 -0.1012722999 5.594012897e-39
-0.2966754436 -0.3367589712 -0.3128984571 5.594012897e-39
-0.4503466189 -0.292688489 0.1662776768 5.77804122e-39
-0.2695350349 -0.3074670732 -0.2509455979 5.77804122e-39
-0.5038805604 -0.3337120116 0.1041475087 5.77804122e-39
-0.5048593283 -0.3613825142 -0.07939127833 5.77804122e-39
-0.3993779719 -0.3185000122 -0.1273873001 5.962428276e-39
0.08587758243 -0.165825069 -0.2255399078 5.962428276e-39
-0.2952048779 -0.3026495874 -0.2015237212 5.962428276e-39
0.08513069153 -0.183385253 -0.2873154283 5.962428276e-39
0.07449007034 -0.130317986 -0.101630576 6.1464566e-39
-0.2837941647 -0.3371456563 -0.3132567406 6.1464566e-39
-0.3215984106 -0.3143812418 -0.201701045 6.1464566e-39
0.06093147397 -0.1444584131 -0.1265188456 6.1464566e-39
-0.5047433972 -0.3563273847 -0.01850963756 6.330484923e-39
-0.3993315697 -0.3164779246 -0.1030346379 6.330484923e-39
-0.3984919488 -0.2948735654 0.007446175441 6.330484923e-39
-0.4000784755 -0.3340381086 -0.1648101509 6.330484923e-39
-0.3585166335 -0.2679904699 0.04468810931 6.514514648e-39
0.06095466018 -0.1434473693 -0.1143425256 6.514514648e-39
0.08664764464 -0.1472538412 -0.1515880674 6.514514648e-39
-0.4000552893 -0.3330270946 -0.1526338458 6.514514648e-39
-0.4799596071 -0.3847712576 -0.2027649879 6.698542971e-39
0.1130644083 -0.1345111132 -0.1392343938 6.698542971e-39
0.07164163888 -0.1944925785 -0.2756747007 6.698542971e-39
0.08594714105 -0.1627919674 -0.189010933 6.698542971e-39
-0.5055134892 -0.3748986125 -0.09246151149 6.882571295e-39
-0.2694422901 -0.3034229577 -0.2022402883 6.882571295e-39
0.08447654545 -0.1969013512 -0.300385654 6.882571295e-39
-0.4245840311 -0.2934618592 0.1655611098 6.882571295e-39
-0.3583079278 -0.2588911951 0.1542750597 7.066599618e-39
-0.4671015143 -0.3861689568 -0.2152996212 7.066599618e-39
-0.2708665133 -0.3355102837 -0.2892623544 7.066599618e-39
-0.4917693734 -0.3526699245 0.029837396 7.066599618e-39
-0.3991924524 -0.3104117513 -0.02997668833 7.250627941e-39
-0.3222293556 -0.3268862963 -0.2025949359 7.250627941e-39
-0.39914608 -0.3083896935 -0.005624028854 7.250627941e-39
0.08526982367 -0.1773190796 -0.2142574787 7.250627941e-39
0.08599351346 -0.1607699096 -0.1646582633 7.434656265e-39
-0.3108186424 -0.3613823354 -0.3143279552 7.434656265e-39
0.08671721816 -0.1442207396 -0.1150590926 7.434656265e-39
-0.4380962551 -0.3055801988 0.1650255173 7.434656265e-39
-0.4916766286 -0.348625809 0.0785426572 7.618684588e-39
-0.2701196074 -0.3179500699 -0.2274868339 7.618684588e-39
-0.4149917066 -0.3772327602 -0.2401915193 7.618684588e-39
0.07388231158 -0.1418119967 -0.09034815431 7.618684588e-39
-0.3454729915 -0.261299938 0.1295640916 7.802712912e-39
-0.4916302264 -0.3466037512 0.1028953418 7.802712912e-39
0.08379922807 -0.2114284337 -0.3256321847 7.802712912e-39
-0.4805905521 -0.3972763121 -0.2036588788 7.802712912e-39
-0.2708201408 -0.3334882259 -0.2649096847 7.986382503e-39
-0.3327308595 -0.2677527964 0.05614786223 7.986382503e-39
-0.4516085088 -0.3176985681 0.16448991 7.986382503e-39
-0.399892956 -0.3259498775 -0.0673995465 7.986382503e-39
-0.3327076733 -0.2667417824 0.06832417101 8.170410826e-39
0.1109860688 -0.1801145077 -0.2393266857 8.170410826e-39
0.09959855676 -0.1446074545 -0.1154173762 8.170410826e-39
-0.3357415795 -0.3390046358 -0.2031305432 8.170410826e-39
-0.4933559299 -0.3918344378 -0.1424189657 8.35443915e-39
-0.441362083 -0.3879534006 -0.2281924933 8.35443915e-39
0.0732049942 -0.1563391089 -0.1155947 8.35443915e-39
0.08386878669 -0.2083953619 -0.28910321 8.35443915e-39
-0.4651207626 -0.3298169374 0.1639543027 8.538467473e-39
0.07105708122 -0.2049755752 -0.2522159517 8.538467473e-39
-0.4933095574 -0.3898123801 -0.1180663407 8.538467473e-39
-0.3861720562 -0.3047322631 0.0427230075 8.538467473e-39
-0.3988214433 -0.2942352593 0.1648445576 8.722137064e-39
0.1124798357 -0.1449941397 -0.1157756597 8.722137064e-39
-0.4387272 -0.3180852532 0.1641316265 8.722137064e-39
-0.4786329865 -0.341935277 0.1634186953 8.722137064e-39
0.09749701619 -0.191221863 -0.2276859581 8.906165387e-39
-0.3333849907 -0.2812689245 0.04307765886 8.906165387e-39
-0.4812214971 -0.4097813368 -0.2045527697 8.906165387e-39
-0.400523901 -0.3384549022 -0.06829343736 8.906165387e-39
0.07327455282 -0.1533060074 -0.07906569541 9.089834978e-39
0.0975202024 -0.1902108192 -0.2155096382 9.089834978e-39
0.110355109 -0.1926195621 -0.2402205765 9.089834978e-39
0.08468523622 -0.1878020763 -0.1907986999 9.089834978e-39
-0.425845921 -0.3184719384 0.163773343 9.273863302e-39
-0.27070418 -0.3284330666 -0.20402807 9.273863302e-39
-0.3770483732 -0.3939309418 -0.2786892354 9.273863302e-39
-0.3595466316 -0.2828902602 0.1646635979 9.273863302e-39
-0.4657517076 -0.3423219621 0.1630604118 9.457532893e-39
0.0982670933 -0.1726506054 -0.1537341177 9.457532893e-39
0.08398473263 -0.2033402026 -0.2282215655 9.457532893e-39
0.07042613626 -0.2174806297 -0.2531098425 9.457532893e-39
-0.4004311562 -0.3344107866 -0.01958811656 9.641561216e-39
-0.3641902804 -0.3953286707 -0.291223824 9.641561216e-39
-0.4803122878 -0.3851439357 -0.05754298344 9.641561216e-39
-0.3068523407 -0.2634710371 0.1163129285 9.641561216e-39
-0.2856869996 -0.37466079 -0.3159383833 9.825230807e-39
-0.3234912455 -0.3518963754 -0.2043827027 9.825230807e-39
-0.4003847837 -0.3323886991 0.004764513578 9.825230807e-39
-0.3068059683 -0.2614489794 0.140665561 9.825230807e-39
-0.3730588555 -0.2950086296 0.1641279906 1.000925913e-38
-0.4802427292 -0.3821108639 -0.02101397887 1.000925913e-38
-0.4012012184 -0.3529820144 -0.09353998303 1.000925913e-38
-0.3067827523 -0.2604379654 0.1528419256 1.000925913e-38
0.1096777767 -0.2071466744 -0.2654671073 1.019292872e-38
-0.2941101789 -0.2699239254 0.04289670289 1.019292872e-38
-0.4011780322 -0.3519709706 -0.08136364073 1.019292872e-38
-0.284216404 -0.3405514061 -0.2045636624 1.019292872e-38
0.09611918032 -0.2212871015 -0.2903553545 1.037659831e-38
-0.2940406203 -0.2668908238 0.0794256404 1.037659831e-38
-0.401924938 -0.3695311844 -0.1431391686 1.037659831e-38
-0.3076223731 -0.2820422947 0.04236109555 1.037659831e-38
0.09833666682 -0.1696175039 -0.117205143 1.056062664e-38
-0.4664058685 -0.3558380604 0.1499902159 1.056062664e-38
0.07121938467 -0.1978983581 -0.1669816524 1.056062664e-38
-0.3255928159 -0.3985108137 -0.3166513145 1.056062664e-38
-0.2720588446 -0.3574872315 -0.2545211613 1.074429623e-38
-0.3633970022 -0.3757463992 -0.2050956339 1.074429623e-38
-0.3874571323 -0.3307533264 0.02875892073 1.074429623e-38
0.1111947596 -0.1710152328 -0.1297397465 1.074429623e-38
0.09541867673 -0.2368252277 -0.3277782202 1.092796582e-38
-0.2938782871 -0.2598136067 0.1646599621 1.092796582e-38
-0.4673150778 -0.3804754615 0.002980371937 1.092796582e-38
-0.468971163 -0.4226730764 -0.205804944 1.092796582e-38
-0.2811824679 -0.2682885528 0.06689104438 1.111163541e-38
-0.4672918916 -0.3794644475 0.01515668631 1.111163541e-38
-0.2811592817 -0.267277509 0.07906735688 1.111163541e-38
-0.4018553495 -0.3664980829 -0.1066101864 1.111163541e-38
-0.4169077575 -0.4157589078 -0.2550494969 1.1295305e-38
-0.3736898005 -0.3075136542 0.1632340997 1.1295305e-38
-0.2848473787 -0.3530564308 -0.2054575533 1.1295305e-38
-0.4681083262 -0.4000577033 -0.08314777911 1.1295305e-38
0.09551142156 -0.2327811122 -0.2790729403 1.147897319e-38
-0.2727129757 -0.3710033596 -0.2675913572 1.147897319e-38
-0.2683011889 -0.2686752379 0.06653276831 1.147897319e-38
0.09625831246 -0.2152209282 -0.2172974199 1.147897319e-38
-0.2682780027 -0.2676641941 0.07870908082 1.166264278e-38
-0.4680387676 -0.3970246315 -0.04661880434 1.166264278e-38
-0.427107811 -0.3434820175 0.1619855613 1.166264278e-38
-0.2682548165 -0.2666531801 0.09088545293 1.166264278e-38
-0.3481591046 -0.3183973432 0.04075427726 1.184631237e-38
-0.4680155814 -0.3960135877 -0.0344424881 1.184631237e-38
-0.4017394185 -0.3614429533 -0.04572854936 1.184631237e-38
-0.3262237608 -0.4110158384 -0.3175452054 1.184631237e-38
-0.4696252942 -0.4361891448 -0.2188751698 1.202998196e-38
-0.4017162323 -0.3604319096 -0.03355223686 1.202998196e-38
0.09555780888 -0.2307590544 -0.2547202706 1.202998196e-38
-0.3217656016 -0.3066656888 0.04093160108 1.202998196e-38
-0.2681620717 -0.2626090348 0.1395907104 1.221365155e-38
-0.3904215097 -0.399983108 -0.2061668485 1.221365155e-38
-0.2733902931 -0.385530442 -0.2928379178 1.221365155e-38
0.09558099508 -0.2297480404 -0.2425439656 1.221365155e-38
-0.4542250633 -0.3717628717 0.1122090369 1.239732115e-38
-0.4016003013 -0.3553767502 0.02732942626 1.239732115e-38
-0.2953720689 -0.2949340045 0.0411089249 1.239732115e-38
-0.4024631381 -0.3779921234 -0.0953277573 1.239732115e-38
0.08346971869 -0.2107900977 -0.1682338119 1.258099074e-38
0.07063482702 -0.2083813548 -0.1435228735 1.258099074e-38
-0.3775402009 -0.400369823 -0.2065251321 1.258099074e-38
-0.3918225169 -0.4310593903 -0.2810125947 1.258099074e-38
-0.2689553499 -0.2821913064 0.05346256495 1.276466033e-38
-0.3878329992 -0.332137078 0.1618046165 1.276466033e-38
0.0834929049 -0.2097790837 -0.1560575068 1.276466033e-38
-0.3088842928 -0.3070523739 0.04057331756 1.276466033e-38
-0.3789643943 -0.4324571192 -0.2935472131 1.294832852e-38
-0.4550183415 -0.3913451135 0.02608089149 1.294832852e-38
0.0956273675 -0.2277259529 -0.2181913108 1.294832852e-38
-0.456697613 -0.4345537722 -0.1948807836 1.294832852e-38
-0.3004611433 -0.4117892087 -0.3182617724 1.313163938e-38
-0.4023703933 -0.3739480078 -0.04662243649 1.313163938e-38
-0.3614394665 -0.3204053938 0.1619819403 1.313163938e-38
-0.2688626051 -0.2781471908 0.102167882 1.313163938e-38
-0.2740444243 -0.3990465105 -0.3059081435 1.331530897e-38
-0.2733207345 -0.3824973404 -0.256308943 1.331530897e-38
-0.364658922 -0.4007565081 -0.2068834156 1.331530897e-38
-0.2688162327 -0.276125133 0.1265205145 1.331530897e-38
-0.4023008347 -0.3709149063 -0.01009346452 1.349897856e-38
-0.3350459337 -0.3086737096 0.1621592641 1.349897856e-38
-0.4566512406 -0.4325317144 -0.1705281287 1.349897856e-38
-0.4022776484 -0.3699038625 0.002082850784 1.349897856e-38
-0.4412510097 -0.3681054413 0.160556078 1.368228942e-38
-0.4558579624 -0.4129494429 -0.08439995348 1.368228942e-38
-0.4031172693 -0.391508162 -0.1083979607 1.368228942e-38
-0.4022544622 -0.3688928485 0.01425916515 1.368228942e-38
-0.3749516904 -0.3325237632 0.1614463329 1.386595901e-38
-0.4566280544 -0.4315207005 -0.1583518088 1.386595901e-38
-0.2875798345 -0.4121759236 -0.3186200559 1.386595901e-38
-0.296002984 -0.3074390888 0.04021503776 1.386595901e-38
0.109956041 -0.195014298 -0.1193512082 1.404926846e-38
-0.4573981166 -0.4500919282 -0.2323036492 1.404926846e-38
-0.3532250226 -0.4342415035 -0.306440115 1.404926846e-38
-0.3359087706 -0.3312890828 0.03950211033 1.404926846e-38
-0.2732743621 -0.3804752827 -0.2319562733 1.423293806e-38
0.1070380658 -0.262221992 -0.3299242854 1.423293806e-38
-0.2696094513 -0.2957074046 0.04039236158 1.423293806e-38
-0.3403669298 -0.4356392622 -0.3189747036 1.423293806e-38
-0.2822588682 -0.285210371 0.1625139117 1.441624891e-38
0.107061252 -0.261210978 -0.3177479804 1.441624891e-38
-0.2746985555 -0.4125626087 -0.3189783394 1.441624891e-38
-0.4565584958 -0.4284875989 -0.121822834 1.441624891e-38
-0.2732511759 -0.3794642389 -0.2197799534 1.459991851e-38
-0.2695167065 -0.2916632891 0.08909767866 1.459991851e-38
-0.3795953393 -0.4449621737 -0.2944410741 1.459991851e-38
-0.4030013382 -0.3864530325 -0.04751632363 1.459991851e-38
-0.3388963342 -0.4015298784 -0.2075999826 1.478322936e-38
-0.2831217051 -0.307825774 0.03985675424 1.478322936e-38
-0.4445168078 -0.4504786134 -0.2326619327 1.478322936e-38
-0.3893268108 -0.3672574759 0.03825357184 1.478322936e-38
-0.401976198 -0.3567604721 0.1603751183 1.496689755e-38
-0.4037714303 -0.4050242603 -0.1214681864 1.496689755e-38
0.1071076244 -0.2591889203 -0.2933953106 1.496689755e-38
-0.3230274916 -0.3316757679 0.03914382681 1.496689755e-38
-0.4188237786 -0.4542850852 -0.2699074745 1.515020841e-38
-0.3652898669 -0.4132615328 -0.2077773064 1.515020841e-38
-0.2694239616 -0.2876191437 0.1378029436 1.515020841e-38
-0.3356768787 -0.3211787641 0.1612653732 1.515020841e-38
-0.4418819547 -0.380610466 0.1596621871 1.533351927e-38
0.09646700323 -0.2061216533 -0.1077104658 1.533351927e-38
-0.2996215224 -0.3901849091 -0.2077809423 1.533351927e-38
-0.02415951714 -0.3023090959 -0.2568590641 1.533351927e-38
-0.2746521831 -0.4105405509 -0.2946256697 1.551683013e-38
-0.4188005924 -0.4532740414 -0.2577311695 1.551683013e-38
0.09431910515 -0.2547581196 -0.2443317473 1.551683013e-38
0.109325096 -0.2075193822 -0.1202450991 1.551683013e-38
-0.3260150552 -0.4019165635 -0.2079582661 1.570049832e-38
-0.4444472492 -0.4474455118 -0.1961329579 1.570049832e-38
0.09649018943 -0.2051106095 -0.09553415328 1.570049832e-38
-0.3538559675 -0.446746558 -0.3073340058 1.570049832e-38
0.02722653747 -0.3099220395 -0.3313501477 1.588380918e-38
-0.4059424996 -0.4546718001 -0.270265758 1.588380918e-38
-0.2702404261 -0.3082124591 0.03949847445 1.588380918e-38
-0.2739052773 -0.3929803371 -0.2328501642 1.588380918e-38
-0.389094919 -0.3571471572 0.1600168347 1.606712004e-38
0.09434229136 -0.2537470758 -0.2321553975 1.606712004e-38
-0.3409978747 -0.4481442869 -0.3198685944 1.606712004e-38
0.09506598115 -0.2371979058 -0.1825562119 1.606712004e-38
-0.3101461828 -0.332062453 0.03878554702 1.625043089e-38
-0.4316123426 -0.4498542547 -0.2208438963 1.625043089e-38
-0.2867401838 -0.3905715942 -0.2081392109 1.625043089e-38
-0.3227955997 -0.3215654492 0.1609070897 1.625043089e-38
-0.4044487476 -0.4195513725 -0.1467147171 1.643374035e-38
-0.02483684197 -0.3168362379 -0.2821056247 1.643374035e-38
-0.4059193134 -0.4536607563 -0.258089453 1.643374035e-38
0.1072003841 -0.2551448047 -0.2446900308 1.643374035e-38
-0.4036322832 -0.398958087 -0.04841021076 1.661705121e-38
-0.273882091 -0.3919692934 -0.2206738442 1.661705121e-38
-0.41875422 -0.4512519836 -0.2333784997 1.661705121e-38
-0.2964020669 -0.3098337948 0.1610844135 1.661705121e-38
-0.3395272791 -0.414034903 -0.2084938586 1.680036207e-38
-0.4035859108 -0.3969360292 -0.02405755222 1.680036207e-38
-0.02553735673 -0.3323743641 -0.3195284903 1.680036207e-38
-0.02481365204 -0.3158252239 -0.26992926 1.680036207e-38
-0.3236584365 -0.3441808224 0.03824993968 1.698367293e-38
-0.4058961272 -0.4526497424 -0.2459131181 1.698367293e-38
0.1072235703 -0.2541337609 -0.2325136811 1.698367293e-38
-0.3281165957 -0.448530972 -0.3202268779 1.698367293e-38
0.04013100266 -0.3092977107 -0.3195320964 1.716698239e-38
-0.4035163522 -0.3939029276 0.01247139089 1.716698239e-38
-0.4043791592 -0.416518271 -0.1101857349 1.716698239e-38
-0.4051492512 -0.4350894988 -0.1841375977 1.716698239e-38
-0.4315195978 -0.4458101392 -0.1721385866 1.735029324e-38
0.01373743266 -0.3210293949 -0.3197094202 1.735029324e-38
-0.3673450053 -0.4578538835 -0.2956932485 1.735029324e-38
-0.3099142909 -0.3219521344 0.1605488062 1.735029324e-38
-0.404355973 -0.415507257 -0.09800942242 1.75336041e-38
-0.2745594382 -0.4064964354 -0.2459203899 1.75336041e-38
0.0009025298059 -0.318620652 -0.2949984968 1.75336041e-38
-0.4314964116 -0.4447991252 -0.1599622667 1.75336041e-38
-0.3498200476 -0.3458021581 0.159835875 1.771655483e-38
-0.02476727962 -0.3138031662 -0.2455766499 1.771655483e-38
0.105776161 -0.287232101 -0.3317120671 1.771655483e-38
-0.4314732254 -0.4437880814 -0.1477859169 1.771655483e-38
-0.2752599418 -0.4220345318 -0.2833432555 1.789986569e-38
-0.4043096006 -0.4134851992 -0.07365676016 1.789986569e-38
0.02661877871 -0.32141608 -0.3200677037 1.789986569e-38
-0.4314500391 -0.4427770674 -0.1356096119 1.789986569e-38
-0.02619149163 -0.3458904326 -0.3325986862 1.808317654e-38
-0.3544636965 -0.4582405984 -0.296051532 1.808317654e-38
-0.4050565064 -0.4310453832 -0.1354322881 1.808317654e-38
0.107293129 -0.2511006594 -0.1959847063 1.808317654e-38
-0.2745130658 -0.4044743478 -0.2215677351 1.826612727e-38
-0.3905887008 -0.392267555 0.03646579757 1.826612727e-38
-0.3416056335 -0.4596383274 -0.3085861504 1.826612727e-38
-0.3023539782 -0.4493043423 -0.320943445 1.826612727e-38
-0.0261683017 -0.3448794186 -0.3204223514 1.844943813e-38
-0.02544460073 -0.3283302486 -0.2708231509 1.844943813e-38
-0.4304944575 -0.4161175787 0.03575287014 1.844943813e-38
0.01308330148 -0.3345454335 -0.3327796459 1.844943813e-38
-0.02472090349 -0.3117810786 -0.2212239802 1.863274899e-38
-0.2706626654 -0.3116182089 0.1481915414 1.863274899e-38
-0.3672754467 -0.4548208117 -0.2591642737 1.863274899e-38
-0.364195168 -0.3805359006 0.03664312139 1.863274899e-38
-0.4041472971 -0.4064079821 0.01157750376 1.881569971e-38
0.1073163152 -0.2500896454 -0.1838083863 1.881569971e-38
0.06589356065 -0.3100710809 -0.3202486634 1.881569971e-38
0.0395000577 -0.3218027651 -0.3204259872 1.881569971e-38
-0.01258651167 -0.3297279477 -0.2833577693 1.899901057e-38
0.01383018494 -0.3169852793 -0.2710041106 1.899901057e-38
0.01455388218 -0.3004360795 -0.2214049399 1.899901057e-38
-0.3672522604 -0.4538097978 -0.2469879687 1.899901057e-38
-0.4313340783 -0.4377219081 -0.07472797483 1.91819627e-38
-0.3504510224 -0.3583072424 0.1589419842 1.91819627e-38
0.0395232439 -0.3207917213 -0.3082496822 1.91819627e-38
0.001718983054 -0.2980273366 -0.1966940016 1.91819627e-38
0.02668833733 -0.3183829784 -0.283538729 1.936527215e-38
-0.02612192556 -0.3428573608 -0.2960697114 1.936527215e-38
-0.4185223281 -0.441141665 -0.1116152331 1.936527215e-38
-0.2758908868 -0.4345395863 -0.2842371464 1.936527215e-38
-0.02395082265 -0.293209821 -0.14727211 1.954822428e-38
-0.0004289336503 -0.3466638029 -0.3333152533 1.954822428e-38
-0.3240574896 -0.3465755284 0.1591193229 1.954822428e-38
-0.0132638365 -0.34425506 -0.3086043298 1.954822428e-38
0.04027012736 -0.3032315373 -0.2464741468 1.973153514e-38
-0.3639632761 -0.3704255819 0.1584063917 1.973153514e-38
-0.02609873936 -0.3418463171 -0.2838933766 1.973153514e-38
0.02743522823 -0.3008227646 -0.2217632234 1.973153514e-38
-0.3158430457 -0.4604116976 -0.3093027174 1.991448586e-38
-0.02465133741 -0.3087480068 -0.1846950054 1.991448586e-38
0.0146002546 -0.2984140217 -0.1970522851 1.991448586e-38
0.05312822014 -0.3046292365 -0.2590087652 1.991448586e-38
-0.367205888 -0.4517877102 -0.2226353139 2.009743799e-38
-0.275143981 -0.4169793725 -0.222461611 2.009743799e-38
0.1073858887 -0.2470565438 -0.1472793818 2.009743799e-38
-0.3249203563 -0.3691909313 0.03646216542 2.009743799e-38
-0.4048246145 -0.4209350646 -0.01366901305 2.028074885e-38
0.001765359193 -0.2960052788 -0.1723413318 2.028074885e-38
-0.2713168263 -0.3251342475 0.1351212859 2.028074885e-38
-0.02679924667 -0.3573844731 -0.3213162422 2.028074885e-38
0.06598631293 -0.3060269654 -0.2715433538 2.046369957e-38
0.01245234907 -0.3470505178 -0.3336735368 2.046369957e-38
-0.364826113 -0.3930409253 0.03574923426 2.046369957e-38
0.01389975101 -0.3139521778 -0.2344751358 2.046369957e-38
-0.4174276292 -0.408416003 0.1328051686 2.06466517e-38
0.1052379608 -0.2956930101 -0.2839006484 2.06466517e-38
-0.3111761808 -0.3469622433 0.1587610394 2.06466517e-38
-0.01249375939 -0.3256838322 -0.2346524596 2.06466517e-38
-0.4183600247 -0.4340644777 -0.02638093382 2.082996116e-38
-0.4183368385 -0.4330534339 -0.01420462038 2.082996116e-38
0.06600949913 -0.3050159216 -0.2593670487 2.082996116e-38
-0.02532866225 -0.3232750893 -0.2099415213 2.082996116e-38
-0.02460496128 -0.306725949 -0.1603423506 2.101291328e-38
0.001088030636 -0.3105323911 -0.1975878924 2.101291328e-38
-0.2847826481 -0.3352305889 0.1589383632 2.101291328e-38
0.04033969343 -0.3001984358 -0.2099451572 2.101291328e-38
-0.3909877539 -0.3946622908 0.1573351771 2.119586541e-38
-0.4182672799 -0.4300203323 0.02232438326 2.119586541e-38
0.02678109705 -0.3143388629 -0.2348334193 2.119586541e-38
-0.3120390475 -0.3695776165 0.0361038819 2.119586541e-38
-0.02602917701 -0.3388132453 -0.2473644018 2.137881613e-38
-0.01102317125 -0.2915744483 -0.1232777685 2.137881613e-38
-0.2720637023 -0.3426944911 0.07334575802 2.137881613e-38
-0.2765218616 -0.4470446408 -0.2851310372 2.137881613e-38
0.09172573686 -0.3078113496 -0.2844362557 2.156176826e-38
0.001111220568 -0.3095213771 -0.1854115725 2.156176826e-38
-0.01389478147 -0.3567601144 -0.3094982207 2.156176826e-38
-0.3645942211 -0.3829306066 0.1575125009 2.156176826e-38
-0.01317108423 -0.3402109444 -0.2598990202 2.174471899e-38
-0.418174535 -0.4259762168 0.07102964073 2.174471899e-38
-0.4055019319 -0.4354622066 -0.03891555965 2.174471899e-38
-0.2719941437 -0.3396613896 0.1098747551 2.174471899e-38
-0.2982949018 -0.3473489285 0.1584027559 2.192767111e-38
-0.2719709575 -0.3386503756 0.1220510751 2.192767111e-38
0.1053075343 -0.2926599383 -0.2473716736 2.192767111e-38
-0.02455858514 -0.3047038913 -0.1359896958 2.192767111e-38
-0.4054555595 -0.4334401488 -0.01456290204 2.211062324e-38
-0.2719477713 -0.3376393318 0.1342273951 2.211062324e-38
0.1074786335 -0.2430124283 -0.09857409447 2.211062324e-38
-0.4054323733 -0.432429105 -0.002386586741 2.211062324e-38
-0.2719245553 -0.3366283178 0.1464037597 2.229357396e-38
0.04038606584 -0.298176378 -0.1855925322 2.229357396e-38
-0.02743019164 -0.3698894978 -0.3222101331 2.229357396e-38
-0.2719013691 -0.335617274 0.1585800797 2.229357396e-38
-0.3781064451 -0.3950489759 0.1569768935 2.247652609e-38
-0.02598280087 -0.3367911577 -0.2230117619 2.247652609e-38
-0.01097679511 -0.2895523906 -0.09892510623 2.247652609e-38
0.02755116671 -0.2957676351 -0.1608815938 2.247652609e-38
0.0660790652 -0.30198282 -0.2228380591 2.265947681e-38
0.01399249583 -0.3099080622 -0.185769856 2.265947681e-38
0.01471619308 -0.2933588922 -0.1361706406 2.265947681e-38
0.1075018197 -0.2420013845 -0.08639775217 2.265947681e-38
-0.01384840533 -0.3547380567 -0.285145551 2.284242894e-38
0.03968556225 -0.3137145042 -0.2230153978 2.284242894e-38
-0.3390635252 -0.3938142955 0.03503267094 2.284242894e-38
-0.3028689921 -0.456754297 -0.2609556913 2.284242894e-38
0.02612695843 -0.3278549314 -0.247903645 2.302537966e-38
0.06537855417 -0.3175209761 -0.2602609396 2.302537966e-38
0.02757435292 -0.2947565913 -0.1487052441 2.302537966e-38
-0.405293256 -0.4263629317 0.07067135721 2.302537966e-38
0.1046302021 -0.3071870506 -0.2726182044 2.320833179e-38
-0.2771759629 -0.4605607092 -0.2982012331 2.320833179e-38
0.1053539068 -0.2906378508 -0.2230190188 2.320833179e-38
-0.2854136229 -0.3477356136 0.1580444723 2.320833179e-38
-0.3916186988 -0.4071673155 0.1564412862 2.339092378e-38
-0.01454891264 -0.3702761829 -0.3225684166 2.339092378e-38
0.1038833261 -0.3247472346 -0.3343937099 2.339092378e-38
-0.3126699924 -0.3820826411 0.03520999476 2.339092378e-38
0.02687384188 -0.3102947474 -0.1861281395 2.348204041e-38
-0.4052004814 -0.4223188162 0.1193766743 2.348204041e-38
-0.2726714611 -0.3541885018 0.08462823927 2.348204041e-38
-0.001690823585 -0.371673882 -0.3351030052 2.348204041e-38
-0.2726482749 -0.353177458 0.09680455178 2.348132155e-38
-0.2862764299 -0.3703509867 0.03538731858 2.348132155e-38
-0.01452572644 -0.3692651391 -0.3103921115 2.348132155e-38
-0.02663693205 -0.350307256 -0.2360819578 2.348132155e-38
-0.3261822462 -0.3942009807 0.03467439115 2.348060128e-38
0.02762073278 -0.2927345335 -0.1243526191 2.348060128e-38
-0.2725787163 -0.3501443565 0.1333335042 2.348060128e-38
-0.02518953383 -0.3172089159 -0.1368835717 2.348060128e-38
-0.3388316333 -0.3837039769 0.1567959338 2.347952368e-38
-0.3924119771 -0.4267496169 0.07031308115 2.347952368e-38
0.1039528847 -0.3217141628 -0.2978647351 2.347952368e-38
0.09184168279 -0.3027561903 -0.2235546261 2.347952368e-38
-0.01377884299 -0.3517049849 -0.2486165762 2.347880341e-38
0.0261965245 -0.3248218298 -0.2113746554 2.347880341e-38
-0.3923655748 -0.4247275591 0.09466576576 2.347880341e-38
-0.2997886837 -0.3824693263 0.03485171497 2.347880341e-38
-0.2771064043 -0.4575276673 -0.2616722584 2.347808455e-38
-0.2763827145 -0.4409784675 -0.212073043 2.347808455e-38
0.05261321366 -0.3120791316 -0.1990210116 2.347808455e-38
-0.3396944702 -0.4063193798 0.03413878381 2.347808455e-38
-0.0001970529556 -0.336553514 -0.2115519792 2.347700555e-38
0.001250348985 -0.303455174 -0.1123535931 2.347700555e-38
-0.02803795412 -0.3813835084 -0.3109277189 2.347700555e-38
-0.39227283 -0.4206834435 0.1433710903 2.347700555e-38
-0.01158455387 -0.3010464311 -0.08764265478 2.347628668e-38
-0.286044538 -0.3602406681 0.1571505815 2.347628668e-38
0.0276671052 -0.2907124758 -0.09999995679 2.347628668e-38
-0.3795770407 -0.4291583598 0.04560216889 2.347628668e-38
0.1032523811 -0.3372522593 -0.3352876008 2.347520768e-38
-0.3795538545 -0.4281473458 0.05777848512 2.347520768e-38
0.05336010456 -0.2945189476 -0.1372454911 2.347520768e-38
-0.2899181247 -0.4541078508 -0.2247850001 2.347520768e-38
-0.01445616037 -0.3662320673 -0.273863107 2.347448882e-38
0.02407180518 -0.3724472523 -0.3358195722 2.347448882e-38
-0.01373246685 -0.3496828973 -0.2242639214 2.347448882e-38
0.07832939923 -0.3148745894 -0.2240902334 2.347448882e-38
0.1032755673 -0.3362412453 -0.3231112957 2.347340982e-38
0.02696660161 -0.3062506318 -0.137422815 2.347340982e-38
0.06549449265 -0.3124658167 -0.1993792951 2.347340982e-38
0.01268422604 -0.3369402289 -0.2119102627 2.347340982e-38
0.1061935425 -0.2690335512 -0.1125381887 2.347269095e-38
-0.2995567918 -0.3723590076 0.1566149741 2.347269095e-38
-0.3794610798 -0.4241032004 0.1064838022 2.347269095e-38
-0.01515667513 -0.3817701936 -0.3112860024 2.347269095e-38
0.09191124141 -0.2997231185 -0.1870256513 2.347161195e-38
0.1032987535 -0.3352302015 -0.3109349906 2.347161195e-38
0.03982468694 -0.3076483309 -0.1499574184 2.347161195e-38
0.011983715 -0.3524783552 -0.2493331432 2.347161195e-38
-0.3793915212 -0.4210701287 0.1430128068 2.347089308e-38
0.03695308417 -0.3728339374 -0.3361778557 2.347089308e-38
0.09121073782 -0.3152612746 -0.224448517 2.347089308e-38
-0.3004196286 -0.3949743807 0.03395782784 2.347089308e-38
-0.3666725755 -0.4285340309 0.0574202016 2.346981408e-38
-0.02724469081 -0.3618012369 -0.2247995287 2.346981408e-38
0.1033451259 -0.3332081437 -0.2865823209 2.346981408e-38
-0.3666261733 -0.4265119731 0.08177288622 2.346981408e-38
0.1055162251 -0.2835606635 -0.1377847344 2.346909522e-38
-0.0008279979229 -0.3490585685 -0.21244587 2.346909522e-38
0.05342966318 -0.291485846 -0.1007165164 2.346909522e-38
-0.2740260959 -0.3832427263 0.03413515165 2.346909522e-38
0.02486506104 -0.3528650403 -0.2496914268 2.346801622e-38
0.03987106681 -0.3056262732 -0.1256047785 2.346801622e-38
0.07912266254 -0.2952923179 -0.1379620582 2.346801622e-38
-0.01221550256 -0.3135514557 -0.08853653818 2.346801622e-38
0.1040920168 -0.3156479597 -0.2248068005 2.346693862e-38
0.05272915959 -0.3070240021 -0.138139382 2.346693862e-38
-0.01581081003 -0.3952862918 -0.3243561983 2.346693862e-38
-0.01436341181 -0.362187922 -0.2251578122 2.346693862e-38
-0.02864571288 -0.3928775191 -0.2996452451 2.346621835e-38
-0.2739101648 -0.378187567 0.09501677752 2.346621835e-38
-0.02792201377 -0.3763283789 -0.2500460744 2.346621835e-38
-0.3537680805 -0.4279096723 0.06923823059 2.346621835e-38
0.0527523458 -0.3060129583 -0.125963062 2.346514075e-38
-0.3274441361 -0.4192110896 0.03288661689 2.346514075e-38
-0.2738406062 -0.3751544654 0.1315457225 2.346514075e-38
-0.3537216783 -0.4258876145 0.09359092265 2.346514075e-38
-0.02717512473 -0.3587681651 -0.1882705539 2.346406175e-38
-0.2737942338 -0.3731324077 0.1558984071 2.346406175e-38
0.06561043859 -0.3074106872 -0.1384976655 2.346406175e-38
0.1048620939 -0.2970767319 -0.1508549303 2.346406175e-38
-0.0135933347 -0.343616724 -0.151205942 2.346334289e-38
0.009928561747 -0.3970706761 -0.3372490704 2.346334289e-38
-0.02787563764 -0.3743062913 -0.2256934196 2.346334289e-38
0.09132666886 -0.310206145 -0.1635668874 2.346334289e-38
0.02423411608 -0.365370065 -0.2505853176 2.346226389e-38
-0.02857614867 -0.3898444176 -0.2631162703 2.346226389e-38
-0.0135701485 -0.34260571 -0.139029637 2.346226389e-38
-0.3408635855 -0.4272853434 0.08105632663 2.346226389e-38
-0.0271287486 -0.3567461073 -0.1639178991 2.346118629e-38
-0.3408403993 -0.4262742996 0.09323263913 2.346118629e-38
-0.274564296 -0.3917036355 0.0819465816 2.346118629e-38
0.05282191187 -0.3029798567 -0.08943406492 2.346118629e-38
-0.01499436051 -0.3746929765 -0.2260517031 2.346010729e-38
-0.2745179236 -0.3896815479 0.1062992066 2.346010729e-38
-0.3008187115 -0.3973691165 0.1548272073 2.346010729e-38
0.1020368487 -0.3602403104 -0.3127227426 2.346010729e-38
-0.3407244682 -0.4212191403 0.1541142762 2.345938842e-38
-0.01641857252 -0.4067803025 -0.3130737543 2.345938842e-38
0.06208468974 -0.3861123919 -0.3377883136 2.345938842e-38
0.08847825229 -0.3743807077 -0.3376109898 2.345938842e-38
0.0506971851 -0.350605309 -0.2138789892 2.345830942e-38
0.104231149 -0.3095817864 -0.1517488211 2.345830942e-38
-0.3279591203 -0.4266609848 0.09287435561 2.345830942e-38
-0.01639538258 -0.4057692885 -0.3008974195 2.345830942e-38
-0.01494798064 -0.3726709187 -0.2016990483 2.345723183e-38
-0.3279359341 -0.425649941 0.1050506681 2.345723183e-38
0.1035306305 -0.3251199126 -0.1891717166 2.345723183e-38
-0.2879374027 -0.3977558017 0.1544689238 2.345723183e-38
-0.3278895617 -0.4236278832 0.129403308 2.345615283e-38
-0.2752416134 -0.4062307477 0.05670000613 2.345615283e-38
-0.01492479444 -0.3716599047 -0.1895227283 2.345615283e-38
0.07496596873 -0.3864990771 -0.3381465971 2.345615283e-38
-0.3151705861 -0.4310917854 0.04381075874 2.345507523e-38
-0.0284833964 -0.385800302 -0.2144109607 2.345507523e-38
-0.01347739622 -0.3385615647 -0.09032431245 2.345507523e-38
0.04857246578 -0.3982307315 -0.338323921 2.345507523e-38
-0.3151242137 -0.4290697277 0.06816338748 2.345399623e-38
-0.2888002396 -0.420371145 0.03181177005 2.345399623e-38
-0.01634900644 -0.4037472308 -0.2765447497 2.345399623e-38
-0.0156253092 -0.3871980309 -0.226945594 2.345399623e-38
-0.2751256824 -0.4011755884 0.1175816357 2.345291723e-38
0.06287795305 -0.3665301502 -0.2516601682 2.345291723e-38
-0.02773650922 -0.368240118 -0.1526354402 2.345291723e-38
0.1014059037 -0.3727453351 -0.3136166334 2.345291723e-38
-0.00421461463 -0.4216940701 -0.3386785686 2.345219836e-38
