# .PCD v0.7 - Point Cloud Data file format
VERSION 0.7
FIELDS x y z rgb
SIZE 4 4 4 4
TYPE F F F F
COUNT 1 1 1 1
WIDTH 837
HEIGHT 1
VIEWPOINT 0 0 0 1 0 0 0
POINTS 837
DATA ascii
-0.08980207145 -0.300614655 -0.1340803206 1.441624891e-38
-0.1133007556 -0.4116250277 0.1479468495 1.441624891e-38
-0.140813753 -0.276034534 0.1953925341 1.441624891e-38
-0.1046233922 -0.283046633 -0.1372900754 1.441624891e-38
-0.09837438166 -0.3289394379 -0.1269330531 1.441624891e-38
-0.1406203508 -0.1649047434 0.2358069718 1.441624891e-38
-0.1337027997 -0.2555924058 -0.1530174464 1.459991851e-38
-0.04445668682 -0.4381614923 -0.04363299161 1.459991851e-38
0.1732550263 -0.4137976766 0.1166949645 1.459991851e-38
-0.1405673176 -0.2636644542 0.236766845 1.459991851e-38
-0.08923877776 -0.3082964718 -0.1433881819 1.459991851e-38
-0.03875361755 -0.4100347161 -0.1169845909 1.459991851e-38
0.1962174177 -0.5203911066 -0.08119061589 1.459991851e-38
-0.1187928766 -0.3996509314 0.05691252276 1.459991851e-38
0.1931545436 -0.4943521619 -0.07602548599 1.478322936e-38
-0.1336848289 -0.2122942805 0.2575432658 1.478322936e-38
-0.1053099036 -0.281549871 -0.1486693472 1.478322936e-38
-0.1033735871 -0.2922252119 -0.135218665 1.478322936e-38
-0.118669644 -0.3934659064 0.07759970427 1.478322936e-38
-0.1201658994 -0.3966574073 0.03415393084 1.478322936e-38
0.1735102236 -0.5326446295 -0.065873757 1.478322936e-38
0.06383652985 -0.7253162265 -0.1907244921 1.478322936e-38
-0.1080550849 -0.4359691739 0.1976068318 1.496689755e-38
-0.1318011433 -0.3989432454 0.0464662984 1.496689755e-38
-0.1618139595 -0.1076289564 0.2015529871 1.496689755e-38
0.09932459146 -0.4185322523 0.1222933158 1.496689755e-38
-0.1223131716 -0.4260829687 0.1850892007 1.496689755e-38
-0.1316779107 -0.3927582204 0.06715348363 1.496689755e-38
0.3273206353 -0.4826785624 -0.1090477407 1.496689755e-38
-0.1003106982 -0.3182641268 -0.1403837353 1.496689755e-38
0.3267573118 -0.4749967754 -0.09973986447 1.515020841e-38
-0.1374342442 -0.1847586185 0.2513290644 1.515020841e-38
-0.03806710616 -0.4115314484 -0.1056053191 1.515020841e-38
-0.1327343136 -0.2724498808 0.1054965183 1.515020841e-38
-0.152942121 -0.1656938493 0.2367400378 1.515020841e-38
-0.1488056779 -0.10833662 0.2119992673 1.515020841e-38
0.3322042823 -0.7296998501 -0.05100861192 1.515020841e-38
-0.1163809896 -0.4519239068 0.2461284697 1.515020841e-38
-0.1145505607 -0.4024464786 0.145875439 1.533351927e-38
-0.1008739918 -0.3105823398 -0.1310758591 1.533351927e-38
-0.05244840309 -0.4078302979 -0.138810128 1.533351927e-38
-0.159877643 -0.1183042899 0.2150037289 1.533351927e-38
-0.1554417312 -0.1473367214 0.2325972319 1.533351927e-38
0.3630360067 -0.4711327255 -0.1139183193 1.533351927e-38
0.0524841547 -0.3412860334 0.1292084754 1.533351927e-38
-0.1196903288 -0.4382550418 0.2099191695 1.533351927e-38
0.1812024117 -0.476586163 -0.01303090155 1.551683013e-38
-0.1376631409 -0.2681576014 0.005154286046 1.551683013e-38
0.02549829148 -0.7246899605 -0.210683912 1.551683013e-38
-0.1416938752 -0.2483008504 0.2553826571 1.551683013e-38
0.1042343453 -0.7304327488 -0.1366272122 1.551683013e-38
-0.1015605032 -0.3090855777 -0.1424551308 1.551683013e-38
-0.130516693 -0.2754462957 -0.1374953538 1.551683013e-38
0.2185625285 -0.7308146954 -0.08812827617 1.551683013e-38
-0.1320478022 -0.2739466429 0.1168757975 1.570049832e-38
-0.1460065842 -0.2130833864 0.2584763169 1.570049832e-38
-0.1206059605 -0.3827905953 0.0641490221 1.570049832e-38
-0.1468693614 -0.1190119535 0.2254499495 1.570049832e-38
-0.10930489 -0.4267906249 0.1955354214 1.570049832e-38
-0.05176189169 -0.40932706 -0.1274308264 1.570049832e-38
-0.1138640493 -0.4039432406 0.1572547257 1.570049832e-38
-0.1308681667 -0.3880699575 0.09921991825 1.570049832e-38
-0.1497559845 -0.1855477095 0.2522621155 1.588380918e-38
-0.1286856234 -0.2490085065 0.2658288777 1.588380918e-38
-0.06332695484 -0.3066681623 -0.09539119899 1.588380918e-38
0.1944043338 -0.5035307407 -0.07395408303 1.588380918e-38
-0.1369766295 -0.2696543634 0.01653359458 1.588380918e-38
0.2900385559 -0.4649940133 -0.05556631833 1.588380918e-38
-0.03338472918 -0.4281938076 -0.04663745314 1.588380918e-38
-0.1301816553 -0.3895667195 0.1105992571 1.588380918e-38
0.2822307944 -0.7313594818 -0.05865572393 1.606712004e-38
0.142572552 -0.7310589552 -0.116667822 1.606712004e-38
-0.1481191665 -0.1098333821 0.223378554 1.606712004e-38
-0.1212924719 -0.3812938333 0.05276971683 1.606712004e-38
-0.1204827428 -0.3766055405 0.08483617753 1.606712004e-38
-0.1341775209 -0.3744011223 0.0630106777 1.606712004e-38
0.2058459371 -0.4750079811 -0.01489701867 1.606712004e-38
-0.1059955508 -0.44045946 0.2317447364 1.606712004e-38
0.05398040265 -0.3380945027 0.1726541966 1.625043089e-38
-0.1328044981 -0.3773946464 0.08576923609 1.625043089e-38
-0.1356035918 -0.2726478875 0.0392921865 1.625043089e-38
0.4370280802 -0.3676030636 0.01236986555 1.625043089e-38
-0.1191097051 -0.3795990646 0.1075947955 1.625043089e-38
-0.06264044344 -0.3081649244 -0.08401191235 1.625043089e-38
-0.04000342265 -0.4008561671 -0.1190560013 1.625043089e-38
-0.1131957471 -0.3113714457 -0.1301427931 1.625043089e-38
-0.1391942799 -0.2666579783 0.2595254779 1.643374035e-38
0.03919304907 -0.7268943787 -0.188858375 1.643374035e-38
-0.1292668879 -0.2846248448 -0.1354239434 1.643374035e-38
-0.1300584376 -0.3833816946 0.1312864125 1.643374035e-38
-0.1184231937 -0.3810958266 0.1189740747 1.643374035e-38
-0.137997523 -0.1770768166 0.2606369257 1.643374035e-38
-0.06482321024 -0.3098596632 -0.138836965 1.643374035e-38
0.3023602664 -0.4642049074 -0.05649936944 1.643374035e-38
-0.1231055707 -0.3644334674 0.06000621989 1.661705121e-38
-0.06418647617 -0.7227298617 -0.2610489726 1.661705121e-38
-0.05438471958 -0.3971549571 -0.1522608101 1.661705121e-38
-0.1604409367 -0.1106224805 0.2243116051 1.661705121e-38
-0.03669407591 -0.4145249724 -0.08284673095 1.661705121e-38
-0.05117823184 -0.7234375477 -0.2506027222 1.661705121e-38
0.2952390909 -0.7320671082 -0.04820944369 1.661705121e-38
0.01386304572 -0.7269758582 -0.1983715743 1.661705121e-38
-0.04331276193 -0.3871873319 -0.1552652717 1.680036207e-38
0.1694439799 -0.485057056 -0.02140571177 1.680036207e-38
-0.1177366823 -0.3825925887 0.1303533614 1.680036207e-38
-0.1387542188 -0.2805248201 0.2295303792 1.680036207e-38
-0.1150079668 -0.4549174011 0.268887043 1.680036207e-38
-0.06413669884 -0.3113564253 -0.1274576932 1.680036207e-38
0.1693207473 -0.4912421107 -0.0420929268 1.680036207e-38
-0.1326812655 -0.3712096214 0.1064564511 1.680036207e-38
-0.1490694731 -0.1870444715 0.2636413872 1.698367293e-38
-0.1453200728 -0.2145801485 0.2698556185 1.698367293e-38
-0.1280170828 -0.2938034236 -0.1333525479 1.698367293e-38
-0.1169442832 -0.4442420602 0.2554363608 1.698367293e-38
0.4668113291 -0.3302162886 -0.05353997648 1.698367293e-38
0.4319056571 -0.3370738626 -0.01660293341 1.698367293e-38
-0.1616907418 -0.1014439315 0.2222402096 1.698367293e-38
-0.1124910116 -0.4069367647 0.1800133437 1.698367293e-38
0.1817657053 -0.4842679501 -0.02233877778 1.716698239e-38
-0.1249541789 -0.3198423088 -0.1385176182 1.716698239e-38
-0.1242676675 -0.3213390708 -0.1271383315 1.716698239e-38
0.170253709 -0.480368793 0.01066072285 1.716698239e-38
0.117929101 -0.732637167 -0.1148017123 1.716698239e-38
-0.1239153147 -0.3691217303 0.02793972008 1.716698239e-38
-0.1335615963 -0.2061092257 0.2782304287 1.716698239e-38
0.06589607894 -0.7298065424 -0.1565866321 1.716698239e-38
0.1685891151 -0.7324743271 -0.09577532113 1.735029324e-38
-0.06195392832 -0.3096616864 -0.0726326406 1.735029324e-38
0.03987956047 -0.7283911705 -0.1774791032 1.735029324e-38
0.2575873137 -0.7329376936 -0.05678960681 1.735029324e-38
-0.1465523243 -0.2764305174 0.06298380345 1.735029324e-38
-0.1585046053 -0.1212978065 0.2377623022 1.735029324e-38
-0.1515690833 -0.1686873585 0.2594985962 1.735029324e-38
0.3403288722 -0.4833862484 -0.09860152006 1.735029324e-38
0.05288783088 -0.7290988564 -0.1670328826 1.75336041e-38
0.398188144 -0.4519050717 -0.1094810218 1.75336041e-38
0.2428111136 -0.4726406932 -0.0176961869 1.75336041e-38
-0.1486824602 -0.1021515876 0.2326864302 1.75336041e-38
0.01454956084 -0.7284725904 -0.1869922578 1.75336041e-38
-0.1368003488 -0.3622290492 0.03818068653 1.75336041e-38
0.420270443 -0.3393597305 -0.004290598445 1.75336041e-38
0.1262913495 -0.3427365124 0.1029229164 1.75336041e-38
-0.1553184986 -0.1411516964 0.2532843947 1.771655483e-38
-0.05049171299 -0.7249343395 -0.2392234206 1.771655483e-38
-0.1332445443 -0.3635278046 0.1157643273 1.771655483e-38
0.2452655882 -0.7337267399 -0.0558565557 1.771655483e-38
-0.125605166 -0.3460763395 0.05586341396 1.771655483e-38
-0.1111179888 -0.4099302888 0.2027719021 1.771655483e-38
-0.1298121959 -0.2336449325 0.2844446301 1.771655483e-38
0.1975904554 -0.5233845711 -0.0584319979 1.771655483e-38
0.2199355513 -0.7338081598 -0.06536971033 1.789986569e-38
0.3760443032 -0.4718403816 -0.1034720987 1.789986569e-38
-0.1398106217 -0.1602164507 0.2678734064 1.789986569e-38
-0.1487350911 -0.2781252563 0.008158747107 1.789986569e-38
-0.135040313 -0.2803296745 0.0299842786 1.789986569e-38
0.4558626711 -0.3339988887 -0.02984836325 1.789986569e-38
-0.1423102319 -0.1418593526 0.2637306154 1.789986569e-38
-0.1458833665 -0.2068983316 0.2791634798 1.789986569e-38
0.1709402204 -0.4818655252 0.0220400095 1.808317654e-38
-0.1285623908 -0.2428234816 0.2865160406 1.808317654e-38
0.04056607187 -0.7298879623 -0.1660998166 1.808317654e-38
0.1963406503 -0.5142060518 -0.06050340086 1.808317654e-38
-0.1343537867 -0.2818264365 0.04136358947 1.808317654e-38
-0.12641491 -0.3507646024 0.02379691601 1.808317654e-38
0.09511774778 -0.4434674978 0.239090696 1.808317654e-38
0.08932616562 -0.3451038003 0.1057220921 1.808317654e-38
0.3212555647 -0.73348248 -0.02731700242 1.826612727e-38
-0.1622540206 -0.09376214445 0.2315480858 1.826612727e-38
-0.1051858068 -0.4357711673 0.2638111711 1.826612727e-38
-0.1228591204 -0.3520633876 0.1013805866 1.826612727e-38
0.1186156198 -0.7341339588 -0.1034224331 1.826612727e-38
0.1392996013 -0.3434441686 0.1133691445 1.826612727e-38
-0.13412489 -0.1984274685 0.2875383496 1.826612727e-38
-0.1318715215 -0.3665213287 0.1385228932 1.826612727e-38
0.1269778609 -0.3442332745 0.1143021956 1.844943813e-38
-0.1344943494 -0.3543492556 0.1136929244 1.844943813e-38
-0.1387366652 -0.3515537083 0.02472997457 1.844943813e-38
-0.152132377 -0.1610055566 0.2688064575 1.844943813e-38
0.2914115787 -0.4679875374 -0.03280769289 1.844943813e-38
-0.1269782037 -0.3430828154 0.03310482204 1.844943813e-38
-0.1273125857 -0.2520020306 0.288587451 1.844943813e-38
0.4222067297 -0.3500350416 0.00916011259 1.844943813e-38
-0.06425991654 -0.3175414801 -0.1481448561 1.863274899e-38
-0.1316252947 -0.2167845666 0.2916811705 1.863274899e-38
-0.1221725941 -0.3535601497 0.1127598658 1.863274899e-38
-0.04359105229 -0.7676327229 0.08032974601 1.863274899e-38
0.06686542183 -0.3449872434 0.1624132544 1.863274899e-38
-0.1136349291 -0.4579109251 0.2916456461 1.863274899e-38
-0.1273123771 -0.3893687427 0.1768035889 1.863274899e-38
-0.1381909251 -0.2882066071 0.2202225029 1.863274899e-38
-0.1448624581 -0.2994759083 0.03506014869 1.881569971e-38
0.1146561354 -0.3450223505 0.1152352616 1.881569971e-38
-0.1378743052 -0.1708917916 0.2813241482 1.881569971e-38
0.06605568528 -0.3496755064 0.1303468198 1.881569971e-38
-0.1276647151 -0.3415860534 0.02172551304 1.881569971e-38
-0.1384902149 -0.3391836584 0.06610434502 1.881569971e-38
-0.1469220072 -0.2949856222 0.0009222761728 1.881569971e-38
-0.04565059394 -0.7631424665 0.04619191587 1.881569971e-38
-0.1319774091 -0.3063685894 0.02481920272 1.899901057e-38
0.05442047119 -0.3519613743 0.1426591575 1.899901057e-38
-0.04850559309 -0.3242361844 -0.09218144417 1.899901057e-38
0.4209569395 -0.3408564925 0.007088709623 1.899901057e-38
-0.1311850101 -0.3680180907 0.1499021649 1.899901057e-38
0.4798195958 -0.3309239447 -0.04309375584 1.899901057e-38
-0.1318541914 -0.3001835644 0.0455063954 1.899901057e-38
0.4681843817 -0.3332098126 -0.03078141809 1.899901057e-38
-0.13974002 -0.3300050795 0.06403294206 1.91819627e-38
-0.0483293198 -0.4168108404 -0.07053436339 1.91819627e-38
-0.1116812825 -0.402248472 0.2120797783 1.91819627e-38
0.04878781736 -0.4125100672 0.1239541396 1.91819627e-38
-0.01009389386 -0.7300508022 -0.1851261407 1.91819627e-38
-0.1403739154 -0.1525346637 0.2771813571 1.91819627e-38
-0.03126932308 -0.766843617 0.0793966949 1.91819627e-38
-0.1266258657 -0.3908655047 0.1881828755 1.91819627e-38
-0.1383669823 -0.3329986036 0.08679150045 1.936527215e-38
0.2712820768 -0.7351421118 -0.03496403992 1.936527215e-38
-0.1391767263 -0.3376868963 0.05472506955 1.936527215e-38
-0.1285448372 -0.3138523698 0.0817156285 1.936527215e-38
0.1708170027 -0.48805058 0.001352846622 1.936527215e-38
0.09001267701 -0.3466005623 0.1171013638 1.936527215e-38
-0.03313828632 -0.4158237576 -0.005263082683 1.936527215e-38
0.1316238642 -0.7348415852 -0.09297614545 1.936527215e-38
0.0542608574 -0.7320923805 -0.1442742944 1.954822428e-38
-0.1571315825 -0.1242913306 0.2605208457 1.954822428e-38
-0.13116768 -0.3016803265 0.0568856746 1.954822428e-38
-0.1331213266 -0.3573427796 0.1364514828 1.954822428e-38
-0.1451968551 -0.2083950937 0.2905428112 1.954822428e-38
0.2209137082 -0.4802059233 0.02968710661 1.954822428e-38
-0.04764280841 -0.4183076024 -0.05915508047 1.954822428e-38
-0.1357441545 -0.3451707065 0.1116215214 1.954822428e-38
-0.1423628479 -0.3178330064 0.03920295462 1.973153514e-38
-0.113617599 -0.3915731609 0.1986290962 1.973153514e-38
-0.1306043863 -0.3093621135 0.04757779464 1.973153514e-38
-0.139634341 -0.2527911365 0.2895205021 1.973153514e-38
-0.04911869019 -0.727927804 -0.2164648622 1.973153514e-38
-0.1253587157 -0.3337062597 0.09723778069 1.973153514e-38
-0.1440527141 -0.2947876453 0.06712660939 1.973153514e-38
0.1830155104 -0.4934465289 -0.02026736736 1.973153514e-38
-0.140549764 -0.3346933722 0.03196647763 1.991448586e-38
-0.1162404269 -0.3794010878 0.1737991273 1.991448586e-38
-0.1424860805 -0.3240180314 0.01851576567 1.991448586e-38
-0.1473094374 -0.1051451117 0.2554450035 1.991448586e-38
-0.06220037863 -0.3220317662 -0.1140069813 1.991448586e-38
-0.1251826584 -0.2889142632 0.2306687236 1.991448586e-38
-0.1148847342 -0.4487323463 0.2895742357 1.991448586e-38
0.2448706627 -0.4771309495 0.01644165814 1.991448586e-38
-0.1441233158 -0.1249990016 0.2709671259 2.009743799e-38
-0.1417467296 -0.2869078517 0.142638877 2.009743799e-38
-0.14394705 -0.2175736725 0.2926142216 2.009743799e-38
0.4332786798 -0.3400673866 0.006155654788 2.009743799e-38
-0.1200071722 -0.4182031453 0.2606014311 2.009743799e-38
-0.1266085207 -0.3245277107 0.09516637772 2.009743799e-38
-0.1260627806 -0.2611806095 0.2906588316 2.009743799e-38
-0.04614655301 -0.4151160717 -0.01570930518 2.009743799e-38
-0.06070412323 -0.3188402355 -0.07056123018 2.028074885e-38
-0.1583813876 -0.1151127592 0.258449465 2.028074885e-38
-0.04221802205 -0.7706261873 0.1030883789 2.028074885e-38
-0.1207995713 -0.3565536737 0.1355184317 2.028074885e-38
-0.1324348152 -0.3588395417 0.1478307694 2.028074885e-38
0.003600858152 -0.7322552204 -0.1633006483 2.028074885e-38
0.3400120139 -0.4633343816 -0.04791926593 2.028074885e-38
0.08096386492 -0.735004425 -0.1120025367 2.028074885e-38
-0.0502656363 -0.4061354995 -0.08398507535 2.046369957e-38
0.209278509 -0.4824917912 0.04199944437 2.046369957e-38
-0.1298119873 -0.3710116148 0.1726607829 2.046369957e-38
-0.1371877789 -0.1723885536 0.2927034199 2.046369957e-38
-0.04931532964 -0.3289244473 -0.1242479384 2.046369957e-38
0.0598597452 -0.4025424421 0.1209496781 2.046369957e-38
-0.02989629284 -0.769837141 0.1021553278 2.046369957e-38
-0.138437584 -0.1632099748 0.2906320393 2.046369957e-38
-0.1596311927 -0.1059342101 0.2563780546 2.06466517e-38
-0.0463228263 -0.3225414157 -0.037356399 2.06466517e-38
-0.09994015098 -0.4601153433 0.3134711683 2.06466517e-38
-0.1453731209 -0.1158204228 0.2688957155 2.06466517e-38
0.1571838856 -0.3870511055 0.1114138141 2.06466517e-38
0.04334765673 -0.7636057734 0.08517768979 2.06466517e-38
-0.05081158504 -0.332115978 -0.1676936895 2.06466517e-38
0.128227666 -0.3534118235 0.116373606 2.06466517e-38
0.05494737253 -0.7335891724 -0.1328949779 2.082996116e-38
0.2455571592 -0.4786277413 0.02782098949 2.082996116e-38
-0.1212569773 -0.4090245962 0.2585300207 2.082996116e-38
-0.1317483038 -0.3603363037 0.1592101008 2.082996116e-38
-0.05619781092 -0.380294621 -0.1450243443 2.082996116e-38
0.05498286709 -0.7613198757 0.07286530733 2.082996116e-38
-0.1421869844 -0.1356742978 0.2844178081 2.082996116e-38
-0.1266789138 -0.292105794 0.1872229427 2.082996116e-38
-0.05864458159 -0.3233305216 -0.03642333299 2.101291328e-38
-0.00593931973 -0.7667621374 0.08890992403 2.101291328e-38
0.2719686031 -0.736638844 -0.02358475327 2.101291328e-38
0.09386795014 -0.4342889488 0.2370192856 2.101291328e-38
0.1202186421 -0.3894183934 0.1142129824 2.101291328e-38
0.01939068176 -0.7666807175 0.09842309356 2.101291328e-38
-0.1069989055 -0.4189108312 0.2710476518 2.101291328e-38
-0.02920978144 -0.7713339329 0.1135345995 2.101291328e-38
0.05772892386 -0.7673069239 0.1183824837 2.119586541e-38
-0.1161171943 -0.373216033 0.1944862902 2.119586541e-38
-0.146622926 -0.1066418737 0.2668243349 2.119586541e-38
0.2927846014 -0.4709810615 -0.01004913449 2.119586541e-38
0.2343169004 -0.7375093699 -0.03216487169 2.119586541e-38
-0.1507593393 -0.1639990807 0.2915650904 2.119586541e-38
-0.04713256285 -0.3272297084 -0.06942288578 2.119586541e-38
-0.1445103288 -0.2098918557 0.3019221127 2.119586541e-38
0.01801765338 -0.763687253 0.07566446066 2.137881613e-38
-0.1368179023 -0.2912001312 0.2429810613 2.137881613e-38
-0.03473738208 -0.731629014 -0.1832600236 2.137881613e-38
-0.1239856929 -0.3366997838 0.1199963391 2.137881613e-38
0.03308543935 -0.7688851357 0.1202485859 2.137881613e-38
-0.1284391582 -0.2366384566 0.307203263 2.137881613e-38
0.2222867459 -0.4831994176 0.052445665 2.137881613e-38
-0.1244430989 -0.3891707361 0.2430079281 2.137881613e-38
-0.1356209368 -0.3389856517 0.1323086768 2.156176826e-38
0.08168590069 -0.7642320395 0.10513708 2.156176826e-38
-0.103812784 -0.4387646914 0.2865697742 2.156176826e-38
-0.1173669994 -0.3640374839 0.1924148947 2.156176826e-38
0.4591103494 -0.44646281 -0.1255255938 2.156176826e-38
0.04609370977 -0.7695928216 0.1306948066 2.156176826e-38
-0.06014083698 -0.3265220523 -0.07986910641 2.156176826e-38
0.006382443942 -0.7659730911 0.08797687292 2.156176826e-38
-0.04887526855 -0.3427912891 -0.1542430073 2.174471899e-38
0.05292332917 -0.7568296194 0.03872746229 2.174471899e-38
-0.04637566581 -0.361148417 -0.1501002014 2.174471899e-38
0.03991508484 -0.7561219931 0.02828124166 2.174471899e-38
-0.1011899561 -0.4509367645 0.3113997579 2.174471899e-38
-0.1545087546 -0.1364634037 0.285350889 2.174471899e-38
-0.1446865946 -0.1173171848 0.280275017 2.174471899e-38
0.2473251373 -0.7382170558 -0.02171865106 2.174471899e-38
0.03377195075 -0.7703819275 0.1316278875 2.192767111e-38
0.3103068471 -0.7372650504 -0.003625378013 2.192767111e-38
0.1460051239 -0.7385427952 -0.05977135897 2.192767111e-38
-0.1238096207 -0.2919077873 0.2534273267 2.192767111e-38
0.002263356 -0.7569924593 0.01970107853 2.192767111e-38
-0.02375315875 -0.7555772066 -0.00119137764 2.192767111e-38
0.4258945286 -0.4763658047 -0.1165122092 2.192767111e-38
0.1590133756 -0.7392504215 -0.04932513833 2.192767111e-38
0.08305892348 -0.7672255039 0.1278956532 2.211062324e-38
0.04678022861 -0.7710895538 0.1420741677 2.211062324e-38
-0.1283157319 -0.3678201139 0.2161065638 2.211062324e-38
-0.125692904 -0.3799921572 0.2409365326 2.211062324e-38
0.09400762618 -0.763442874 0.1042040288 2.211062324e-38
0.09263460338 -0.7604494095 0.08144545555 2.211062324e-38
0.2726550698 -0.7381355762 -0.01220548153 2.211062324e-38
0.0775668174 -0.7552514672 0.03686134517 2.211062324e-38
-0.048065532 -0.3381029963 -0.1221765429 2.229357396e-38
0.09538065642 -0.7664364576 0.1269625723 2.229357396e-38
-0.1133711487 -0.3792030513 0.2400034666 2.229357396e-38
-0.1159939766 -0.367031008 0.2151735127 2.229357396e-38
0.2508074343 -0.3343273997 0.1687691063 2.229357396e-38
-0.1271893531 -0.2458170056 0.3092746437 2.229357396e-38
0.0344584696 -0.7718787193 0.1430072188 2.229357396e-38
-0.1232991815 -0.3381965458 0.1313756257 2.229357396e-38
-0.1411834359 -0.2945896089 0.1333309412 2.247652609e-38
-0.1276292205 -0.3693168759 0.2274858505 2.247652609e-38
-0.04568915442 -0.362645179 -0.1387208998 2.247652609e-38
0.2585654557 -0.4793353975 0.03826721013 2.247652609e-38
-0.1153074652 -0.36852777 0.2265527844 2.247652609e-38
0.06786877662 -0.3665358424 0.1231102869 2.247652609e-38
0.3530202806 -0.4640420377 -0.03747298568 2.247652609e-38
0.01729561575 -0.7344596386 -0.1414751112 2.247652609e-38
0.02213674039 -0.7726677656 0.1439402699 2.265947681e-38
-0.02104263008 -0.7338334322 -0.1614345312 2.265947681e-38
-0.1302520484 -0.357144773 0.202655822 2.265947681e-38
-0.1250063777 -0.3814889193 0.2523158193 2.265947681e-38
-0.1179302931 -0.3563556671 0.2017227709 2.265947681e-38
-0.1288616806 -0.2938005328 0.1323978901 2.265947681e-38
0.2226816118 -0.739795208 -0.01985253394 2.265947681e-38
-0.1230700761 -0.3921642601 0.2657665014 2.265947681e-38
-0.139370352 -0.3114499748 0.1260944754 2.284242894e-38
0.1541209966 -0.3610121608 0.1165788844 2.284242894e-38
0.09606716782 -0.7679331899 0.1383419335 2.284242894e-38
0.1888071299 -0.5918102264 0.1131012291 2.284242894e-38
0.06387205422 -0.7530469894 0.01503577828 2.284242894e-38
0.1063293517 -0.7626538277 0.1032709777 2.284242894e-38
-0.1281751692 -0.2952972949 0.1437772214 2.284242894e-38
0.1049563289 -0.7596603036 0.08051240444 2.284242894e-38
-0.1146209538 -0.3700245023 0.2379320711 2.302537966e-38
-0.03576111421 -0.4036516845 -0.03009307384 2.302537966e-38
0.4462869167 -0.3407750428 0.01660187729 2.302537966e-38
-0.05945431814 -0.3280188143 -0.06848983467 2.302537966e-38
-0.1376980394 -0.2634664774 0.3029712439 2.302537966e-38
0.2103598863 -0.7405843735 -0.01891946793 2.302537966e-38
-0.1427502781 -0.1279925108 0.2937256992 2.302537966e-38
0.1035832986 -0.7566667795 0.05775380135 2.302537966e-38
-0.124865815 -0.30896613 0.1799864769 2.320833179e-38
-0.037134137 -0.4006581604 -0.05285166204 2.320833179e-38
-0.1371875703 -0.3097552359 0.180919528 2.320833179e-38
0.2037516981 -0.6031932235 0.1369981319 2.320833179e-38
-0.003879778087 -0.7712524533 0.1230477691 2.320833179e-38
0.2356899232 -0.7405028939 -0.0094063133 2.320833179e-38
-0.1290024519 -0.2289566398 0.3165111244 2.320833179e-38
0.3109933734 -0.7387618423 0.007753953338 2.320833179e-38
0.05736013502 -0.3841853142 0.1168068722 2.339092378e-38
0.06880173832 -0.3556625247 0.1758639365 2.339092378e-38
0.1207106784 -0.7663550377 0.1364758015 2.339092378e-38
-0.1255523264 -0.307469368 0.1686071903 2.339092378e-38
-0.1024397612 -0.4417582154 0.3093283474 2.339092378e-38
0.4598585069 -0.3491644859 0.01774021797 2.339092378e-38
-0.1361842304 -0.3313038647 0.1416165531 2.339092378e-38
-0.1211337447 -0.4028395712 0.2792172432 2.339092378e-38
-0.05082892254 -0.3984537125 -0.07467716932 2.348204041e-38
-0.120553121 -0.344183594 0.1768928021 2.348204041e-38
0.117278114 -0.7588711977 0.07957935333 2.348204041e-38
0.3653419912 -0.4632529616 -0.03840604424 2.348204041e-38
-0.0450730212 -0.3317199945 -0.03528498858 2.348204041e-38
-0.1378740817 -0.3082584739 0.1695402563 2.348204041e-38
-0.1219261438 -0.3411900699 0.1541342437 2.348204041e-38
-0.1043760777 -0.4310829043 0.2958776653 2.348204041e-38
0.1165915951 -0.7573744059 0.06819999218 2.348132155e-38
-0.1263620853 -0.3121576309 0.136540696 2.348132155e-38
0.1343699098 -0.7408286333 -0.04745902121 2.348132155e-38
-0.1374340355 -0.3221252859 0.1395451576 2.348132155e-38
0.2486981601 -0.7412105799 0.001039907336 2.348132155e-38
-0.03907046095 -0.3899828494 -0.0663023442 2.348132155e-38
-0.1538222432 -0.1379601657 0.2967301607 2.348132155e-38
0.2863498926 -0.740340054 0.009620085359 2.348132155e-38
-0.1382613033 -0.2557846606 0.3122791052 2.348060128e-38
-0.05251573026 -0.7481747866 -0.0676009953 2.348060128e-38
0.5014491081 -0.2936101556 0.0333105661 2.348060128e-38
-0.1352512687 -0.320430547 0.1943702102 2.348060128e-38
-0.1088119894 -0.4020504653 0.2782841623 2.348060128e-38
-0.1240560859 -0.3042778671 0.2120529562 2.348060128e-38
-0.134687975 -0.328112334 0.1850623339 2.348060128e-38
-0.1147615165 -0.4425473213 0.3102613986 2.348060128e-38
0.1316593885 -0.7625724077 0.1127841175 2.347952368e-38
0.2236597687 -0.4861929417 0.07520422339 2.347952368e-38
-0.1277526468 -0.2381352186 0.3185825348 2.347952368e-38
0.1330324113 -0.7655658722 0.1355427504 2.347952368e-38
0.2363764346 -0.7419996262 0.001972973347 2.347952368e-38
-0.04600599036 -0.3425932825 -0.08803863823 2.347952368e-38
-0.05320224911 -0.7466780543 -0.07898028195 2.347952368e-38
0.470243901 -0.3377000988 0.003356479108 2.347952368e-38
0.09603164345 -0.7402024269 -0.06741841137 2.347880341e-38
-0.1333151609 -0.1937391758 0.3196048141 2.347880341e-38
-0.04487941042 -0.3579568565 -0.1066544205 2.347880341e-38
0.1138455421 -0.7513874173 0.0226828903 2.347880341e-38
-0.1550720483 -0.1287816167 0.2946587503 2.347880341e-38
-0.1231759489 -0.3320115209 0.1520628333 2.347880341e-38
0.1735630631 -0.4940376282 0.04687002301 2.347880341e-38
-0.1056258678 -0.4219043553 0.2938062549 2.347880341e-38
-0.04795964435 -0.3982557356 -0.008472830057 2.347808455e-38
0.1337189376 -0.767062664 0.1469220221 2.347808455e-38
0.1131590232 -0.7498906255 0.01130354404 2.347808455e-38
-0.1452498883 -0.1096353978 0.2895828784 2.347808455e-38
0.1850750446 -0.497936815 0.01387047768 2.347808455e-38
0.05565295368 -0.4274776578 0.2377470583 2.347808455e-38
0.09376208484 -0.3741362095 0.1233155802 2.347808455e-38
0.09744019806 -0.7709267139 0.161100477 2.347808455e-38
-0.02649921551 -0.7495901585 -0.04670855403 2.347700555e-38
0.1001507267 -0.7491829991 0.0008573383093 2.347700555e-38
0.08370991796 -0.7409914732 -0.06648536026 2.347700555e-38
-0.007347838953 -0.7360378504 -0.1396089941 2.347700555e-38
-0.05014241114 -0.3999504745 -0.06329788268 2.347700555e-38
0.07482075691 -0.7492644191 -0.008655846119 2.347700555e-38
-0.05388876051 -0.7451813221 -0.09035962075 2.347700555e-38
0.1090399399 -0.7409100533 -0.05697219074 2.347700555e-38
-0.05957754329 -0.3342038095 -0.08917698264 2.347628668e-38
0.04883977026 -0.7755798697 0.176211983 2.347628668e-38
-0.04864615574 -0.3967589736 -0.01985211112 2.347628668e-38
-0.1413242072 -0.2297457457 0.3174441755 2.347628668e-38
-0.1036895663 -0.4325796664 0.307256937 2.347628668e-38
0.2599384785 -0.4823288918 0.06102576852 2.347628668e-38
0.06980509311 -0.3772111833 0.1365610212 2.347628668e-38
-0.05869436264 -0.734703958 -0.1700146347 2.347628668e-38
0.1117860004 -0.7468971014 -0.01145501435 2.347520768e-38
-0.1222429872 -0.3211382031 0.2048164904 2.347520768e-38
-0.03878545389 -0.7781100273 0.159984827 2.347520768e-38
0.1494376957 -0.7460266352 -0.00287489593 2.347520768e-38
0.07070167363 -0.7402838469 -0.0769315809 2.347520768e-38
-0.06051051244 -0.345077157 -0.1419306397 2.347520768e-38
0.1412350535 -0.7557961941 0.06633388996 2.347520768e-38
-0.1215564758 -0.3226349652 0.2161957622 2.347520768e-38
0.1508107185 -0.7490200996 0.01988372207 2.347448882e-38
0.1740812212 -0.7444484234 -0.00474101305 2.347448882e-38
0.2993581891 -0.74104774 0.02006629109 2.347448882e-38
-0.1265028417 -0.2473137677 0.3206539452 2.347448882e-38
-0.056634821 -0.7391942739 -0.1358767748 2.347448882e-38
0.1696288586 -0.3800769448 0.1311679631 2.347448882e-38
-0.1493863165 -0.1669925898 0.3143236339 2.347448882e-38
0.4837538004 -0.4448846281 -0.127391696 2.347448882e-38
0.02553378418 -0.752420783 -0.004923611879 2.347340982e-38
0.07138818502 -0.7417806387 -0.06555229425 2.347340982e-38
0.09809118509 -0.7446926832 -0.03328050673 2.347340982e-38
-0.1468867064 -0.1853497028 0.3184664547 2.347340982e-38
-0.002506749704 -0.7742459774 0.145806402 2.347340982e-38
-0.1224365979 -0.2949013114 0.2761859 2.347340982e-38
-0.04431308806 -0.7384051681 -0.1368098259 2.347340982e-38
-0.02855875716 -0.7450999022 -0.08084639162 2.347340982e-38
-0.1246897578 -0.2641741335 0.3134174645 2.347269095e-38
-0.108125478 -0.4035472274 0.2896634638 2.347269095e-38
0.2243462801 -0.4876897037 0.08658356965 2.347269095e-38
0.07348325104 -0.7740017176 0.1743458807 2.347269095e-38
-0.04294006154 -0.7413986921 -0.1140512303 2.347269095e-38
0.1747677326 -0.745945096 0.006638258696 2.347269095e-38
-0.1400744021 -0.2389243245 0.3195155859 2.347269095e-38
-0.05470156297 -0.3771030903 -0.1015785635 2.347269095e-38
-0.05970077589 -0.3403888643 -0.1098641753 2.347161195e-38
-0.1232463419 -0.2995896041 0.2441194057 2.347161195e-38
-0.1209931821 -0.3303167522 0.2068878859 2.347161195e-38
0.1994111836 -0.7443669438 0.004772141576 2.347161195e-38
0.1645054966 -0.7512245178 0.04170921445 2.347161195e-38
-0.03130481392 -0.739112854 -0.1263635755 2.347161195e-38
0.1991925389 -0.5803458095 0.09871743619 2.347161195e-38
-0.0306182988 -0.7406095862 -0.1149842888 2.347161195e-38
-0.09913040698 -0.4554270506 0.3455376625 2.347089308e-38
0.2747146487 -0.7426258922 0.02193242311 2.347089308e-38
0.1761407703 -0.7489386797 0.02939687669 2.347089308e-38
-0.04933267459 -0.3952622116 -0.03123141825 2.347089308e-38
0.3304363191 -0.4701105058 -0.001469030976 2.347089308e-38
0.07344773412 -0.746270895 -0.03141440451 2.347089308e-38
0.3188011348 -0.4723963737 0.01084330678 2.347089308e-38
0.212711066 -0.4899755716 0.0988958925 2.347089308e-38
-0.1319419146 -0.3340993822 0.2305795103 2.346981408e-38
-0.01829657331 -0.7398204803 -0.1159173474 2.346981408e-38
0.1884624958 -0.7481495738 0.02846382558 2.346981408e-38
-0.01414196193 -0.7765318155 0.1581187248 2.346981408e-38
0.1875573248 -0.5826317072 0.1110298187 2.346981408e-38
0.03099040315 -0.7366640568 -0.1196495816 2.346981408e-38
0.1563028395 -0.7609941959 0.1109180152 2.346981408e-38
-0.0591374822 -0.3480706513 -0.1191720814 2.346981408e-38
-0.1164340377 -0.3531641364 0.2451685369 2.346909522e-38
0.2124194205 -0.7450746298 0.01521842182 2.346909522e-38
0.2014707327 -0.7488572598 0.03891004622 2.346909522e-38
-0.1030030549 -0.4340764284 0.3186362386 2.346909522e-38
0.02488279343 -0.7786548138 0.1894573867 2.346909522e-38
0.1788868159 -0.7549257278 0.07491406798 2.346909522e-38
0.4488481283 -0.451742202 -0.09045463055 2.346909522e-38
0.12277022 -0.770845294 0.1706136465 2.346909522e-38
-0.0585741885 -0.3557524681 -0.1284799576 2.346801622e-38
-0.1196201593 -0.3333102763 0.2296464443 2.346801622e-38
0.01866864413 -0.7374532223 -0.1187165231 2.346801622e-38
0.1679380685 -0.7587083578 0.09860569239 2.346801622e-38
-0.04920944944 -0.3890771866 -0.01054423302 2.346801622e-38
0.275401175 -0.7441226244 0.03331169486 2.346801622e-38
0.2962171733 -0.4784648418 0.04684732854 2.346801622e-38
0.06184800714 -0.7762875557 0.1866582036 2.346801622e-38
0.2010758668 -0.4922614396 0.1112082452 2.346693862e-38
0.4845019579 -0.3475863039 0.01587410085 2.346693862e-38
0.437212944 -0.45402807 -0.07814230025 2.346693862e-38
0.1078265235 -0.3577855229 0.2072026581 2.346693862e-38
0.1925815791 -0.757130146 0.09673956037 2.346693862e-38
-0.1133884788 -0.4455408454 0.3330199718 2.346693862e-38
-0.1418875009 -0.2220639586 0.3267520666 2.346693862e-38
-0.003228753805 -0.7450184226 -0.07133322954 2.346693862e-38
-0.1225598305 -0.3010863662 0.2554987371 2.346621835e-38
0.120148249 -0.356996417 0.2062696069 2.346621835e-38
0.4610466659 -0.4571381211 -0.1120749116 2.346621835e-38
0.17031537 -0.3815737069 0.1425472349 2.346621835e-38
-0.04989596084 -0.3875804245 -0.02192351408 2.346621835e-38
-0.1189336479 -0.3348070383 0.241025731 2.346621835e-38
0.2133975923 -0.4914723337 0.110275194 2.346621835e-38
-0.1556353271 -0.1210997999 0.3039666414 2.346621835e-38
0.09513511509 -0.3771297336 0.1460741907 2.346514075e-38
-0.05776445195 -0.3510641754 -0.09641349316 2.346514075e-38
0.1111349463 -0.7731311321 0.1829259992 2.346514075e-38
0.2049033046 -0.7563410401 0.09580650926 2.346514075e-38
-0.05832774565 -0.3433823884 -0.08710558712 2.346514075e-38
-0.1338784397 -0.1860573739 0.3289126754 2.346514075e-38
0.1197785735 -0.3755515516 0.1442080736 2.346514075e-38
0.1324699819 -0.356207341 0.2053365558 2.346514075e-38
0.1567438394 -0.3731842637 0.1414089054 2.346406175e-38
0.1234567314 -0.7723420858 0.1819929183 2.346406175e-38
-0.09650757909 -0.4675991535 0.3703676164 2.346406175e-38
0.04674470052 -0.7433587909 -0.06368617713 2.346406175e-38
0.4255776703 -0.4563139081 -0.06582995504 2.346406175e-38
-0.1074389666 -0.4050439894 0.3010427356 2.346406175e-38
0.205589816 -0.7578377724 0.107185781 2.346406175e-38
0.4139424562 -0.458599776 -0.05351761729 2.346406175e-38
0.237354517 -0.4883973897 0.09702979028 2.346334289e-38
0.03236342967 -0.7396576405 -0.09689102322 2.346334289e-38
-0.104252845 -0.4248978794 0.3165648282 2.346334289e-38
-0.05295885727 -0.3615415096 -0.01675844193 2.346334289e-38
0.009779484943 -0.7457261086 -0.06088700891 2.346334289e-38
-0.05707794055 -0.3525609374 -0.08503417671 2.346334289e-38
0.4512245357 -0.4762843549 -0.1069990396 2.346334289e-38
0.2852684557 -0.4822474718 0.07053893805 2.346334289e-38
-0.1499496102 -0.1593108028 0.323631525 2.346226389e-38
-0.04088355228 -0.3731224835 -0.05906587094 2.346226389e-38
0.3318093717 -0.4731040299 0.02128958702 2.346226389e-38
0.4439595044 -0.3065362275 0.1062515974 2.346226389e-38
0.02347424068 -0.7479305267 -0.03906150162 2.346226389e-38
0.1713706255 -0.7661921382 0.1555021405 2.346226389e-38
-0.1213100255 -0.3102649152 0.2575701475 2.346226389e-38
-0.1449503899 -0.1960250437 0.3319171369 2.346226389e-38
0.2185980529 -0.7585454583 0.1176320016 2.346118629e-38
0.02625582367 -0.7816483974 0.2122160196 2.346118629e-38
0.1327868253 -0.3762592077 0.1546542943 2.346118629e-38
0.02278772742 -0.7464337349 -0.05044078827 2.346118629e-38
0.2897824645 -0.7478238344 0.0665165484 2.346118629e-38
-0.115061 -0.3561576605 0.2679271698 2.346118629e-38
-0.03951052949 -0.3761160076 -0.03630728275 2.346118629e-38
-0.1323819757 -0.3202325702 0.260574609 2.346118629e-38
0.08349984884 -0.3794156015 0.1583865285 2.346010729e-38
-0.1341950744 -0.3033722043 0.2678110898 2.346010729e-38
0.06322103739 -0.7792810202 0.2094168365 2.346010729e-38
0.1748128682 -0.503216207 0.04894143343 2.346010729e-38
0.1953276247 -0.7631171942 0.1422567368 2.346010729e-38
0.2380410433 -0.4898941517 0.108409062 2.346010729e-38
0.2781472206 -0.7501096725 0.07882887125 2.346010729e-38
0.5083973408 -0.4433064461 -0.129257828 2.346010729e-38
-0.0569547154 -0.3463759124 -0.06434702128 2.345938842e-38
0.01393409818 -0.7824374437 0.2131490707 2.345938842e-38
-0.05308208242 -0.3677265346 -0.03744562715 2.345938842e-38
-0.1146382838 -0.4363622665 0.3309485614 2.345938842e-38
0.07073806226 -0.3663378656 0.1893146783 2.345938842e-38
0.2904689312 -0.7493206263 0.07789582014 2.345938842e-38
-0.1127019674 -0.4470376074 0.3443993032 2.345938842e-38
-0.05514162406 -0.3632362485 -0.07158349454 2.345938842e-38
-0.1254464537 -0.3676221073 0.2823109031 2.345830942e-38
0.4262641668 -0.4578106999 -0.05445067585 2.345830942e-38
0.2076493502 -0.7623280883 0.1413236856 2.345830942e-38
0.1870113611 -0.5086120963 0.02732115984 2.345830942e-38
0.1863075346 -0.5734530687 0.108958438 2.345830942e-38
0.1836924106 -0.7654030323 0.1545690894 2.345830942e-38
-0.1276294291 -0.2319501638 0.3392696977 2.345830942e-38
0.1574303508 -0.3746810257 0.1527881771 2.345830942e-38
0.1334733367 -0.3777559698 0.1660335809 2.345723183e-38
-0.1412009895 -0.2235607207 0.3381313384 2.345723183e-38
0.2102645487 -0.5703781843 0.09571297467 2.345723183e-38
0.1960141361 -0.7646139264 0.1536360085 2.345723183e-38
-0.05389182642 -0.3724148273 -0.06951209903 2.345723183e-38
0.0009258221835 -0.7817298174 0.2027028501 2.345723183e-38
0.07130134106 -0.3740196228 0.1800067425 2.345723183e-38
-0.1291958541 -0.3400864303 0.2760967016 2.345723183e-38
0.3331823945 -0.476097554 0.04404814541 2.345615283e-38
0.1986292601 -0.5726640224 0.1080253571 2.345615283e-38
0.2795202136 -0.7531031966 0.1015874445 2.345615283e-38
-0.1319421232 -0.1967326999 0.3423634171 2.345615283e-38
0.4974485934 -0.447089076 -0.105566144 2.345615283e-38
-0.1235101372 -0.3782974184 0.2957615852 2.345615283e-38
0.3508776724 -0.3248231113 0.2047504187 2.345615283e-38
-0.09775738418 -0.4584205747 0.368296206 2.345615283e-38
-0.1399511844 -0.2327392697 0.3402027488 2.345507523e-38
0.0515858233 -0.7815669179 0.2217291594 2.345507523e-38
-0.1156242937 -0.3484758735 0.2772350311 2.345507523e-38
0.2918419838 -0.7523140907 0.1006543934 2.345507523e-38
0.1581168622 -0.3761777878 0.1641674638 2.345507523e-38
0.1885076165 -0.5054205656 0.07076692581 2.345507523e-38
0.1494732201 -0.7737573385 0.2028854191 2.345507523e-38
0.176185891 -0.5062097311 0.07169999182 2.345507523e-38
0.133719787 -0.36538589 0.2074079514 2.345399623e-38
0.2329793125 -0.7622466087 0.1508368552 2.345399623e-38
-0.02371766791 -0.7833080292 0.2045689523 2.345399623e-38
0.2262825966 -0.4983650446 0.1000342518 2.345399623e-38
0.1131944954 -0.777621448 0.2170639038 2.345399623e-38
0.4758680165 -0.4747061729 -0.1088651568 2.345399623e-38
0.1464815885 -0.3784636259 0.1764798015 2.345399623e-38
-0.1227534413 -0.2748494446 0.3268681467 2.345399623e-38
0.2866414785 -0.4852409959 0.09329755604 2.345291723e-38
0.1973871738 -0.7676074505 0.1763945818 2.345291723e-38
0.4869399071 -0.464738518 -0.1118696183 2.345291723e-38
0.0719878599 -0.3755164146 0.1913860887 2.345291723e-38
-0.1387013793 -0.2419178486 0.3422741592 2.345291723e-38
0.1617949456 -0.7729682922 0.201952368 2.345291723e-38
-0.1542623043 -0.1240933314 0.3267252445 2.345291723e-38
-0.1074563116 -0.4713817835 0.3940592408 2.345291723e-38
-0.1285093427 -0.3415831923 0.2874759734 2.345219836e-38
-0.09513455629 -0.4705926776 0.3931261599 2.345219836e-38
0.3461906314 -0.4768052101 0.05449436605 2.345219836e-38
-0.1350751966 -0.2756385207 0.3278011978 2.345219836e-38
0.1723749042 -0.3860639632 0.1766850799 2.345219836e-38
0.1501597315 -0.7752541304 0.2142647207 2.345219836e-38
-0.1375046372 -0.1523366868 0.3433856964 2.345219836e-38
0.4335739911 -0.3180006444 0.1206353456 2.345219836e-38
-0.1149377823 -0.3499726355 0.2886143029 2.345111936e-38
-0.1105018705 -0.3790050745 0.3062078059 2.345111936e-38
-0.1374515742 -0.2510963976 0.3443455696 2.345111936e-38
-0.1272595376 -0.3507617414 0.2895473838 2.345111936e-38
0.174116686 -0.7721791863 0.2010193169 2.345111936e-38
0.3638859093 -0.3255307674 0.2151966542 2.345111936e-38
-0.1260097325 -0.3599402905 0.2916187942 2.345111936e-38
0.4043667614 -0.4653759003 -0.007067382336 2.345111936e-38
0.3927315474 -0.467661798 0.00524495542 2.345004176e-38
0.0726743713 -0.3770131767 0.2027653605 2.345004176e-38
0.159489885 -0.3791713119 0.1869260818 2.345004176e-38
-0.1400042325 -0.1339795589 0.3392428756 2.345004176e-38
0.2466741502 -0.7644510269 0.1726623476 2.345004176e-38
0.1730614156 -0.387560755 0.1880644262 2.345004176e-38
0.09856768698 -0.3846135437 0.2029706538 2.345004176e-38
0.498821646 -0.4500826001 -0.0828075856 2.345004176e-38
0.06459406018 -0.7822746038 0.2321754098 2.344896276e-38
0.2706310749 -0.7613761425 0.1594169438 2.344896276e-38
0.1015592813 -0.7799072862 0.2293762267 2.344896276e-38
0.3236067295 -0.482873708 0.09049837291 2.344896276e-38
0.2589958906 -0.7636619806 0.1717292964 2.344896276e-38
-0.1215036362 -0.2840279937 0.3289395571 2.344896276e-38
0.4458957911 -0.3172115386 0.1197022796 2.344896276e-38
-0.035352882 -0.7855938673 0.216881305 2.344896276e-38
0.5103336573 -0.4539817572 -0.1158071384 2.344788516e-38
0.50488168 -0.3010939658 0.09020702541 2.344788516e-38
-0.1132652611 -0.4393557906 0.3537071943 2.344788516e-38
0.07392417639 -0.3861917555 0.2048367709 2.344788516e-38
-0.1208872944 -0.3904694915 0.3205915391 2.344788516e-38
-0.1256931126 -0.2426255047 0.3527204394 2.344788516e-38
0.1857442409 -0.5657713413 0.1182662994 2.344788516e-38
0.3817828596 -0.4714443982 0.02893662453 2.344788516e-38
-0.0944480449 -0.4720894396 0.4045055211 2.344680616e-38
-0.1303224415 -0.3247228563 0.2947124541 2.344680616e-38
-0.146640256 -0.172979638 0.3598408401 2.344680616e-38
0.364449203 -0.3332125545 0.2058887631 2.344680616e-38
0.5166400671 -0.2926230729 0.09858185053 2.344680616e-38
-0.1053794324 -0.4095342755 0.3351806402 2.344680616e-38
0.512146771 -0.470842123 -0.1230436116 2.344680616e-38
-0.1203770638 -0.2993915975 0.3103238046 2.344680616e-38
0.4995081723 -0.4515793324 -0.0714283064 2.344572857e-38
0.002985361964 -0.7862200737 0.2368406951 2.344572857e-38
-0.1209403425 -0.2917097807 0.3196316659 2.344572857e-38
0.1615494341 -0.3836615682 0.2210639268 2.344572857e-38
0.4938096702 -0.3110616207 0.09321150184 2.344572857e-38
-0.1405675113 -0.1262977421 0.3485507369 2.344572857e-38
0.2158972025 -0.5098294616 0.1144179851 2.344572857e-38
-0.1321355253 -0.3078624904 0.3019489348 2.344572857e-38
0.05295884982 -0.784560442 0.2444877326 2.344464957e-38
0.0406370908 -0.7853495479 0.2454207838 2.344464957e-38
-0.0346663706 -0.7870905995 0.2282605767 2.344464957e-38
0.2398541272 -0.5067545176 0.1011726111 2.344464957e-38
-0.1541390866 -0.117908299 0.3474124074 2.344464957e-38
0.0629754737 -0.3899743557 0.2285283804 2.344464957e-38
-0.1157648563 -0.4209986925 0.3495643735 2.344464957e-38
-0.1226302236 -0.2686644197 0.3475553095 2.344464957e-38
0.1987524927 -0.5664789677 0.12871252 2.344357197e-38
0.3831558824 -0.4744379222 0.05169519782 2.344357197e-38
-0.120200783 -0.3919662535 0.3319709003 2.344357197e-38
0.3489367068 -0.4827922583 0.1000115424 2.344357197e-38
0.3002130389 -0.493630439 0.09443591535 2.344357197e-38
-0.118563965 -0.3162519336 0.3030872643 2.344357197e-38
-0.1361315995 -0.1553302109 0.3661442399 2.344357197e-38
0.4946194291 -0.3063733578 0.1252779365 2.344357197e-38
-0.1323821843 -0.182865873 0.3723584414 2.344249297e-38
-0.1373813897 -0.1461516321 0.3640728295 2.344249297e-38
-0.1308857203 -0.3170410395 0.3040203154 2.344249297e-38
0.4829842448 -0.3086592257 0.1375903338 2.344249297e-38
0.4646024406 -0.4584369063 -0.03449122608 2.344249297e-38
0.4180615544 -0.4675803483 0.01475818455 2.344249297e-38
-0.09569783509 -0.4629108608 0.4024341106 2.344249297e-38
0.4885593951 -0.4553619623 -0.04773662984 2.344249297e-38
-0.1208171248 -0.2855247557 0.3403188288 2.344141397e-38
-0.1296359152 -0.3262196183 0.3060917258 2.344141397e-38
0.512516439 -0.4522869885 -0.06098207831 2.344141397e-38
-0.009336363524 -0.7870091796 0.2377737463 2.344141397e-38
0.384528935 -0.4774314463 0.07445381582 2.344141397e-38
-0.1118922383 -0.4423493147 0.3764657378 2.344141397e-38
-0.1360785514 -0.2540899217 0.3671041727 2.344141397e-38
0.4483954012 -0.3355686367 0.1238450855 2.344141397e-38
0.1916937232 -0.5252744555 0.08628901839 2.344033637e-38
-0.1059427112 -0.4018524885 0.3444885015 2.344033637e-38
0.2768193781 -0.5043871999 0.09837342799 2.344033637e-38
-0.1409545392 -0.2111906409 0.3795057237 2.344033637e-38
0.2171469927 -0.5190080404 0.1164893955 2.344033637e-38
-0.1273829788 -0.2195800841 0.3806440532 2.344033637e-38
0.3371782601 -0.4912631512 0.09163673222 2.344033637e-38
0.2072016448 -0.5443392396 0.1008781046 2.344033637e-38
0.2048252821 -0.5197970867 0.1174224466 2.343925737e-38
-0.1316956729 -0.1843626201 0.3837377429 2.343925737e-38
0.2098244876 -0.5565113425 0.1257080585 2.343925737e-38
0.4077993333 -0.4728597403 0.0498290807 2.343925737e-38
-0.1227003932 -0.3736091554 0.3278280795 2.343925737e-38
-0.1397047341 -0.22036919 0.3815771341 2.343925737e-38
-0.1239501983 -0.3644305766 0.325756669 2.343925737e-38
0.2417904437 -0.5174298286 0.1146232635 2.343925737e-38
0.2534256577 -0.5151439905 0.1023109406 2.343817977e-38
0.5076277256 -0.3070810139 0.1357242167 2.343817977e-38
-0.008649850264 -0.7885059118 0.249153018 2.343817977e-38
-0.1366418302 -0.2464081347 0.3764120638 2.343817977e-38
-0.1342654675 -0.2709502578 0.359867692 2.343817977e-38
-0.122506991 -0.2624793649 0.3682425022 2.343817977e-38
0.4310697615 -0.4682880044 0.02520440519 2.343817977e-38
0.3378647864 -0.4927599132 0.103016004 2.343817977e-38
-0.09694764018 -0.4537323117 0.4003627002 2.343710077e-38
0.2337726951 -0.4222193658 0.3364057839 2.343710077e-38
0.4084858596 -0.4743564725 0.06120835245 2.343710077e-38
-0.1348287463 -0.2632684708 0.3691755831 2.343710077e-38
-0.02097161487 -0.7892950773 0.2500860989 2.343710077e-38
-0.1230702698 -0.2547975779 0.3775503933 2.343710077e-38
0.2379090786 -0.3648621738 0.3116650283 2.343710077e-38
-0.1141280532 -0.3452843726 0.3206807971 2.343710077e-38
0.397537142 -0.4781391025 0.08490003645 2.343566444e-38
-0.1289494038 -0.3277163804 0.3174710572 2.343566444e-38
0.3618217409 -0.4896849394 0.0897706151 2.343566444e-38
0.5083142519 -0.308577776 0.1471034884 2.343566444e-38
0.4899324179 -0.4583554864 -0.02497807145 2.343566444e-38
-0.1402680278 -0.212687403 0.3908849955 2.343566444e-38
0.2344592065 -0.4237161279 0.3477850556 2.343566444e-38
0.3261063397 -0.5012308359 0.09464119375 2.343566444e-38
-0.1266964674 -0.2210768461 0.3920233548 2.343458544e-38
-0.1372051239 -0.2387263179 0.3857199252 2.343458544e-38
-0.1052561998 -0.4033492506 0.3558678031 2.343458544e-38
0.4433915615 -0.4674988985 0.02427133918 2.343458544e-38
0.4782972038 -0.4606413245 -0.0126657337 2.343458544e-38
0.2903909087 -0.5127766132 0.09951175749 2.343458544e-38
0.2060750723 -0.528975606 0.119493857 2.343458544e-38
0.4208076 -0.4735673964 0.06027530134 2.343458544e-38
0.3741434515 -0.4888958633 0.08883754909 2.343350644e-38
0.3982236683 -0.4796358645 0.0962793082 2.343350644e-38
0.3384280503 -0.50044173 0.09370814264 2.343350644e-38
0.2073248774 -0.5381542444 0.1215652674 2.343350644e-38
-0.09432481229 -0.4659043849 0.4251926839 2.343350644e-38
0.5206359625 -0.3077886701 0.1461704373 2.343350644e-38
-0.1212571859 -0.2716579437 0.3703139126 2.343350644e-38
-0.09626112878 -0.4552290738 0.411741972 2.343350644e-38
-0.131889075 -0.2954924107 0.3433232903 2.343242884e-38
-0.1218204796 -0.2639761269 0.3796218038 2.343242884e-38
0.2268371582 -0.3748297989 0.3146694899 2.343242884e-38
0.4331293106 -0.4727783203 0.05934225023 2.343242884e-38
-0.1013835669 -0.4246999025 0.3827691674 2.343242884e-38
0.4447645843 -0.4704924226 0.04702989757 2.343242884e-38
-0.1137053221 -0.4254889786 0.3837022185 2.343242884e-38
0.3273561597 -0.5104093552 0.09671257436 2.343242884e-38
-0.1229470521 -0.2486125529 0.3982375562 2.343134984e-38
0.4680350125 -0.4659207165 0.02240522206 2.343134984e-38
-0.10775581 -0.3849921227 0.3517249823 2.343134984e-38
0.315720886 -0.5126951933 0.109024927 2.343134984e-38
0.2785004377 -0.3962155581 0.2943928838 2.343134984e-38
0.4454511106 -0.4719892144 0.05840918422 2.343134984e-38
-0.1213273704 -0.3766026795 0.3505866528 2.343134984e-38
-0.09170198441 -0.4780764878 0.4500226378 2.343134984e-38
0.3753932416 -0.4980744123 0.09090895951 2.343027224e-38
-0.0936383009 -0.4674011469 0.4365719557 2.343027224e-38
0.5036273003 -0.4605599046 -0.003152564168 2.343027224e-38
0.5340842605 -0.322363168 0.1266215593 2.343027224e-38
0.5335209966 -0.314681381 0.1359294951 2.343027224e-38
0.2765640914 -0.385540247 0.280942142 2.343027224e-38
0.4803567529 -0.4651316404 0.02147217095 2.343027224e-38
-0.1026333719 -0.4155213237 0.380697757 2.343027224e-38
0.3760797679 -0.4995711744 0.1022882313 2.342919324e-38
0.4351888597 -0.4772685766 0.09348015487 2.342919324e-38
0.5159490108 -0.4597707987 -0.004085615277 2.342919324e-38
-0.1165044308 -0.3207422197 0.3372251689 2.342919324e-38
-0.1312025636 -0.2969891727 0.3547025621 2.342919324e-38
0.352686137 -0.5103279352 0.1062257439 2.342919324e-38
0.4117952287 -0.4880253375 0.09741766751 2.342919324e-38
-0.1110824943 -0.4376610518 0.408532232 2.342919324e-38
-0.1152546257 -0.3299207985 0.3392965794 2.342811565e-38
-0.1193910539 -0.3872779906 0.3640373349 2.342811565e-38
-0.1052735448 -0.4696870148 0.4488842785 2.342811565e-38
-0.09101547301 -0.4795732498 0.4614019692 2.342811565e-38
0.3766430616 -0.5072529316 0.09298036993 2.342811565e-38
-0.09488810599 -0.4582225978 0.4345005453 2.342811565e-38
0.4933649898 -0.4658392668 0.03191839159 2.342811565e-38
