# .PCD v0.7 - Point Cloud Data file format
VERSION 0.7
FIELDS x y z rgb
SIZE 4 4 4 4
TYPE F F F F
COUNT 1 1 1 1
WIDTH 838
HEIGHT 1
VIEWPOINT 0 0 0 1 0 0 0
POINTS 838
DATA ascii
0.04973461851 -0.4261254966 -0.02302804589 7.618684588e-39
-0.03686159849 -0.2582893968 -0.4065409899 7.618684588e-39
0.05109536275 -0.3969913423 -0.1193452626 7.618684588e-39
-0.4138005674 -0.4272405803 0.07570424676 7.618684588e-39
0.1626546979 -0.1298071593 -0.2513946295 7.802712912e-39
-0.1564943045 -0.4955773056 0.2467836589 7.802712912e-39
0.1515062451 -0.1318734884 -0.2386965156 7.802712912e-39
0.05187335238 -0.4285748899 -0.0002325177193 7.802712912e-39
0.1309323013 -0.2014125884 -0.2777455449 7.802712912e-39
-0.2905991077 -0.4744761884 0.1533724368 7.802712912e-39
0.2312432081 -0.430375278 0.1898161769 7.802712912e-39
0.2674077153 -0.4117729664 -0.04028485343 7.802712912e-39
-0.07244572043 -0.2620389462 -0.3912422061 7.986382503e-39
0.1745420694 -0.1106808186 0.06893650442 7.986382503e-39
-0.04685898125 -0.2696031332 -0.3919255137 7.986382503e-39
-0.3880040944 -0.3964232206 -0.02321365476 7.986382503e-39
-0.0002081021667 -0.255764544 -0.4104420543 7.986382503e-39
0.256259203 -0.4138392806 -0.02758675441 7.986382503e-39
0.1777003706 -0.2580464482 -0.2359489501 7.986382503e-39
0.055454541 -0.4099128842 -0.08323459327 7.986382503e-39
0.1752027571 -0.4294061959 -0.01131856441 8.170410826e-39
0.2029787749 -0.4725173116 0.3044877946 8.170410826e-39
0.1343855262 -0.229154855 -0.2719933689 8.170410826e-39
-0.1912042797 -0.4082502723 -0.06106250733 8.170410826e-39
-0.06137897819 -0.2519499063 -0.3944599628 8.170410826e-39
0.2817642689 -0.4133807719 -0.01878966577 8.170410826e-39
-0.3496312499 -0.473110944 0.1921500713 8.170410826e-39
0.09765035659 -0.2236569673 -0.2586119473 8.170410826e-39
0.1918303221 -0.4745836258 0.3171858788 8.35443915e-39
0.06516054273 -0.4289579988 0.009864892811 8.35443915e-39
0.1011640429 -0.3484452963 -0.2019031048 8.35443915e-39
0.1907609701 -0.4733589292 0.3057881296 8.35443915e-39
0.1525756121 -0.1330981851 -0.2272987366 8.35443915e-39
0.1657810956 -0.1254585832 -0.2077209502 8.35443915e-39
0.2200947553 -0.4324415922 0.2025142759 8.35443915e-39
0.1210166365 -0.2207490355 -0.2726104259 8.35443915e-39
-0.0480100587 -0.260355711 -0.393842876 8.538467473e-39
0.03994690999 -0.3990576267 -0.1066471636 8.538467473e-39
0.08779515326 -0.3400394917 -0.2025201321 8.538467473e-39
0.1431501806 -0.2005709708 -0.2790458798 8.538467473e-39
-0.4337490797 -0.3954410851 0.02566138469 8.538467473e-39
0.2092376798 -0.4041490555 0.1074974239 8.538467473e-39
0.188720867 -0.3023844063 -0.1598927975 8.538467473e-39
-0.3189745843 -0.3864746988 -0.07660676539 8.538467473e-39
-0.2188834697 -0.3438096642 -0.162448585 8.722137064e-39
0.05216472968 -0.3982160389 -0.1079475135 8.722137064e-39
-0.2756134868 -0.3609392643 -0.1198362112 8.722137064e-39
-0.4304592609 -0.4071379304 0.05037428066 8.722137064e-39
-0.3534893394 -0.3914489746 -0.04991021007 8.722137064e-39
0.1920106709 -0.3140812516 -0.1351798773 8.722137064e-39
0.1663252562 -0.4750421643 0.3083888292 8.722137064e-39
-0.2010736912 -0.3731597662 -0.1352012306 8.722137064e-39
0.1720338911 -0.1167614087 -0.1203736067 8.906165387e-39
-0.2058455199 -0.4786608517 0.3974975348 8.906165387e-39
0.1754799187 -0.2475742996 -0.2492640764 8.906165387e-39
0.08959618211 -0.4272747934 0.007264208049 8.906165387e-39
0.2214554995 -0.4033074379 0.106197089 8.906165387e-39
0.1320016682 -0.2026372999 -0.2663477659 8.906165387e-39
0.1332344562 -0.2199074179 -0.2739107609 8.906165387e-39
0.2103070468 -0.4053737521 0.118895188 8.906165387e-39
0.1668504626 -0.1266832948 -0.1963231713 9.089834978e-39
-0.3330542445 -0.4851908982 0.2269603759 9.089834978e-39
-0.2240813971 -0.4844143987 0.1943791807 9.089834978e-39
0.1784108579 -0.4330803454 0.02287472226 9.089834978e-39
0.1731032431 -0.1179861203 -0.1089758575 9.089834978e-39
0.03443666175 -0.3768886626 -0.144675225 9.089834978e-39
0.07660037279 -0.3965328038 -0.1105481982 9.089834978e-39
0.1794802248 -0.434305042 0.03427249938 9.089834978e-39
0.1865004152 -0.2919122577 -0.1732079685 9.273863302e-39
0.2333819419 -0.4328247011 0.2126117349 9.273863302e-39
-0.2866130173 -0.5097339153 0.3066785038 9.273863302e-39
-0.2044452131 -0.3534401953 -0.1504337937 9.273863302e-39
0.189790234 -0.303609103 -0.1484950483 9.273863302e-39
0.1110797226 -0.3291088343 -0.2070382237 9.273863302e-39
0.2051698864 -0.3608686328 -0.03632823378 9.273863302e-39
0.1254717261 -0.3931663632 -0.1157495677 9.273863302e-39
0.1547143459 -0.1355476081 -0.2045032233 9.457532893e-39
0.03772646561 -0.3885855377 -0.1199623048 9.457532893e-39
0.2543619275 -0.4492641091 0.2048865706 9.457532893e-39
0.1878292561 -0.1110639125 0.07903391123 9.457532893e-39
0.1651628911 -0.1237265691 -0.06208446249 9.457532893e-39
0.204878509 -0.3912274837 0.07138672471 9.457532893e-39
0.1334771514 -0.2898405194 -0.3017241657 9.457532893e-39
-0.3546404243 -0.3822015226 -0.05182760209 9.457532893e-39
0.1658627987 -0.1334812939 -0.2172013223 9.641561216e-39
0.1588354409 -0.3789446652 -0.1443634927 9.641561216e-39
0.02999578416 -0.3559443951 -0.1713055372 9.641561216e-39
-0.1977838874 -0.3848565817 -0.1104883254 9.641561216e-39
0.1488843113 -0.3358314037 -0.2090218663 9.641561216e-39
-0.4062332809 -0.4438363016 0.1460082233 9.641561216e-39
-0.2022247761 -0.3639122844 -0.1371186227 9.641561216e-39
0.1232975423 -0.3282672167 -0.2083385587 9.641561216e-39
0.1662322581 -0.1249512807 -0.05068670958 9.825230807e-39
0.2432134897 -0.4513304532 0.2175846696 9.825230807e-39
0.153726697 -0.1423456371 -0.2253813446 9.825230807e-39
0.1648751497 -0.1402793229 -0.2380794585 9.825230807e-39
0.1542666107 -0.4044047296 -0.08223955333 9.825230807e-39
-0.347492516 -0.4755603671 0.2149455845 9.825230807e-39
-0.3113256097 -0.4110931158 -0.01578319073 9.825230807e-39
0.2235942334 -0.405756861 0.1289925873 9.825230807e-39
-0.4095230997 -0.4321394265 0.1212953031 1.000925913e-38
0.1765492857 -0.2487990111 -0.2378663272 1.000925913e-38
0.1609671414 -0.126850456 -0.1171558797 1.000925913e-38
0.1868415922 -0.1178619117 0.05815580115 1.000925913e-38
0.188898623 -0.1122886315 0.09043172002 1.000925913e-38
-0.2917501926 -0.4652287662 0.1514550596 1.000925913e-38
-0.2157216668 -0.4019107819 -0.04898142815 1.000925913e-38
0.2290227711 -0.4199031293 0.1765010506 1.000925913e-38
0.1683709919 -0.1274006963 -0.02789117768 1.019292872e-38
0.08656236529 -0.3227693439 -0.1949571669 1.019292872e-38
0.2639862299 -0.4602864981 0.3074664474 1.019292872e-38
0.049652908 -0.418102771 -0.01354765147 1.019292872e-38
0.1547960639 -0.1435703486 -0.2139835954 1.019292872e-38
0.2233028561 -0.4361157417 0.2367075831 1.019292872e-38
0.2209165245 -0.4554631114 0.2429808974 1.019292872e-38
-0.3557914793 -0.3729541004 -0.05374498665 1.019292872e-38
0.2517684102 -0.4611281157 0.3087667823 1.037659831e-38
-0.1989349574 -0.3756091595 -0.1124057025 1.037659831e-38
-0.2035038024 -0.4010691643 -0.05028177798 1.037659831e-38
0.174051702 -0.4201587737 -0.01323594898 1.037659831e-38
0.1121490896 -0.3303335309 -0.1956404597 1.037659831e-38
0.1533252001 -0.356775701 -0.182391569 1.037659831e-38
0.06187073514 -0.4172611535 -0.01484799385 1.037659831e-38
0.1539718062 -0.1664137691 -0.2538225055 1.037659831e-38
0.05179164186 -0.4205521941 0.009247850627 1.056062664e-38
0.09878018498 -0.3219277263 -0.1962575018 1.056062664e-38
0.0310651511 -0.3571690917 -0.1599077582 1.056062664e-38
-0.4084537327 -0.4333641231 0.1326930523 1.056062664e-38
0.05286100879 -0.4217768908 0.02064562775 1.056062664e-38
0.1345465183 -0.2910652161 -0.2903263867 1.056062664e-38
0.0629401058 -0.4184858501 -0.003450244665 1.056062664e-38
0.1974392086 -0.32822752 -0.08767145872 1.056062664e-38
0.1101108789 -0.2927484512 -0.2877257168 1.074429623e-38
0.1700585634 -0.1303574294 -0.1621298939 1.074429623e-38
0.1743288487 -0.2383268625 -0.2511814833 1.074429623e-38
-0.3324251771 -0.3700461984 -0.06774342805 1.074429623e-38
0.2015887052 -0.3795306683 0.04667383432 1.074429623e-38
0.1680015326 -0.135930717 -0.1944057941 1.074429623e-38
0.1986196041 -0.4595957398 0.2683770955 1.074429623e-38
-0.2202837765 -0.4690303206 0.3854827583 1.074429623e-38
-0.1978655905 -0.3768338859 -0.1010079533 1.092796582e-38
-0.2901797295 -0.3977130353 -0.04309675843 1.092796582e-38
0.0299140811 -0.3479216695 -0.1618251503 1.092796582e-38
0.1558654308 -0.1447950602 -0.2025858313 1.092796582e-38
-0.3881675005 -0.3803777993 -0.004252899438 1.092796582e-38
0.1538934559 -0.4267408252 0.03495580703 1.092796582e-38
0.1551228911 -0.1756611913 -0.2519051135 1.092796582e-38
-0.4327614009 -0.388643086 0.04653950408 1.092796582e-38
0.05644219741 -0.4031148851 -0.06235644966 1.111163541e-38
0.1521741301 -0.3475282788 -0.184308961 1.111163541e-38
0.1488026083 -0.327808708 -0.1995414793 1.111163541e-38
-0.3091868758 -0.4135425389 0.007012341172 1.111163541e-38
-0.3792394996 -0.3678393066 -0.03026616573 1.111163541e-38
0.1641752273 -0.1305245906 -0.08296260238 1.111163541e-38
-0.3298461437 -0.4888650179 0.261153698 1.111163541e-38
0.2138065249 -0.3786890507 0.04537349567 1.111163541e-38
0.1778318733 -0.1223776639 0.09364944696 1.1295305e-38
0.08763173223 -0.3239940405 -0.1835594177 1.1295305e-38
-0.3124766946 -0.4018456936 -0.01770057529 1.1295305e-38
-0.3004685342 -0.4393856227 0.07923371345 1.1295305e-38
0.2257329673 -0.408206284 0.1517881453 1.1295305e-38
0.06187746674 -0.4589206874 0.3574922383 1.1295305e-38
-0.3048276901 -0.4264641106 0.043123018 1.1295305e-38
0.1972295344 -0.3666090965 0.01056314167 1.1295305e-38
0.1757748574 -0.1279509664 0.06137353182 1.147897319e-38
-0.3759496808 -0.3795361817 -0.005553241819 1.147897319e-38
-0.2278932333 -0.3483254015 -0.1269549727 1.147897319e-38
-0.3035486639 -0.3893072307 -0.04371380061 1.147897319e-38
-0.1645163894 -0.4932950437 0.3031554222 1.147897319e-38
-0.333576262 -0.3607987463 -0.06966082007 1.147897319e-38
0.03744179755 -0.4606039226 0.3600929379 1.147897319e-38
-0.3670216799 -0.366997689 -0.03156650811 1.147897319e-38
0.1620435417 -0.3826188147 -0.1101702005 1.166264278e-38
-0.2168727368 -0.3926633894 -0.05089882016 1.166264278e-38
0.06294683367 -0.4601453841 0.3688899875 1.166264278e-38
-0.1935064197 -0.3897554278 -0.06489728391 1.166264278e-38
-0.2885420918 -0.4689028859 0.1856483668 1.166264278e-38
0.0007883030921 -0.4631287456 0.3639939725 1.166264278e-38
0.1111802459 -0.2939731479 -0.2763279676 1.166264278e-38
0.1680832505 -0.1439534426 -0.2038861811 1.166264278e-38
0.1670955867 -0.1507514417 -0.2247642875 1.184631237e-38
0.1929983348 -0.3072832227 -0.1143017709 1.184631237e-38
0.203727439 -0.3819800615 0.06946934015 1.184631237e-38
0.1707618982 -0.4084619582 -0.03794886172 1.184631237e-38
-0.3102099895 -0.3578907847 -0.08365927637 1.184631237e-38
0.1721972972 -0.1328068376 -0.1393343657 1.184631237e-38
0.1589918137 -0.1404464543 -0.158912167 1.184631237e-38
0.1662435532 -0.4670194089 0.3178691864 1.184631237e-38
-0.2046548724 -0.3918217719 -0.05219916254 1.202998196e-38
-0.2069965899 -0.4694134295 0.3955801725 1.202998196e-38
0.1697245538 -0.2013371736 -0.2588510513 1.202998196e-38
0.03764476255 -0.3805627823 -0.1104819477 1.202998196e-38
-0.4128946066 -0.4124198854 0.106062755 1.202998196e-38
0.08674453199 -0.295656383 -0.273727268 1.202998196e-38
0.1621182114 -0.1360978782 -0.1152385026 1.202998196e-38
-0.2501901686 -0.35245803 -0.1015587449 1.202998196e-38
0.1672589928 -0.166796878 -0.2437250465 1.221365155e-38
0.190049693 -0.1215360463 0.09234911203 1.221365155e-38
-0.3442844152 -0.4792345166 0.2491388917 1.221365155e-38
0.2268023342 -0.4094309807 0.1631859094 1.221365155e-38
0.1718312651 -0.4096866548 -0.02655108273 1.221365155e-38
-0.1836302727 -0.4665054977 0.3815817237 1.221365155e-38
0.1642497629 -0.2416179031 -0.2270856053 1.221365155e-38
0.1419778764 -0.2803468704 -0.2205261886 1.221365155e-38
0.1695220619 -0.1366481483 -0.02597378567 1.239732115e-38
-0.399397701 -0.3744213879 0.0179255791 1.239732115e-38
0.1747871935 -0.1347489655 0.04049541429 1.239732115e-38
0.1020700037 -0.3336246014 -0.1715445817 1.239732115e-38
0.1995779276 -0.3306769133 -0.06487593055 1.239732115e-38
0.1785317808 -0.1321323961 -0.06146741286 1.239732115e-38
0.05965029076 -0.4067890346 -0.02816316485 1.239732115e-38
-0.3046997488 -0.3800598085 -0.04563119262 1.239732115e-38
0.1600611806 -0.1416711509 -0.1475144178 1.258099074e-38
0.1705914289 -0.1378728449 -0.01457603462 1.258099074e-38
0.1681649536 -0.1519761533 -0.2133665383 1.258099074e-38
-0.4216946661 -0.3785540462 0.04332176968 1.258099074e-38
-0.3158482015 -0.3821261227 -0.03293310106 1.258099074e-38
0.1475698352 -0.3105385602 -0.1919785142 1.258099074e-38
-0.2256055772 -0.4975031018 0.3096571565 1.258099074e-38
0.08464048803 -0.1788677573 -0.1813446581 1.258099074e-38
-0.2983298004 -0.4418350458 0.1020292193 1.276466033e-38
-0.4118252397 -0.4136446118 0.1174605265 1.276466033e-38
0.1366852522 -0.2935146391 -0.2675308883 1.276466033e-38
-0.3091406226 -0.3591155112 -0.07226150483 1.276466033e-38
-0.3597920239 -0.4683792889 0.2257262915 1.276466033e-38
0.1122496128 -0.2951978743 -0.2649301887 1.276466033e-38
0.2156538665 -0.4114973247 0.1758839935 1.276466033e-38
0.1405245662 -0.4183350205 0.0343387574 1.276466033e-38
0.1464187503 -0.3012911677 -0.1938959062 1.294832852e-38
-0.2369029522 -0.3528411388 -0.09146134555 1.294832852e-38
-0.3092685938 -0.4055198133 0.01649273559 1.294832852e-38
0.1565333009 -0.3604498506 -0.1481982619 1.294832852e-38
0.09611576796 -0.2088923156 -0.2319642603 1.294832852e-38
0.09087528288 -0.3901179135 -0.07957261801 1.294832852e-38
0.2872708142 -0.4493558705 0.3029483855 1.294832852e-38
-0.1703430861 -0.4668885767 0.3916791081 1.294832852e-38
-0.1990983784 -0.3595637679 -0.09344497323 1.313163938e-38
-0.1935881227 -0.3817327321 -0.05541688949 1.313163938e-38
0.1683283597 -0.1680215895 -0.2323272973 1.313163938e-38
-0.4094767869 -0.3777124286 0.0420214273 1.313163938e-38
0.1509413421 -0.330258131 -0.1767459661 1.313163938e-38
0.1030931175 -0.3892763257 -0.08087296784 1.313163938e-38
-0.3058508039 -0.3708123863 -0.04754857719 1.313163938e-38
-0.3950385153 -0.3873429596 0.05403625593 1.313163938e-38
0.158494398 -0.1953807622 -0.2366725355 1.331530897e-38
-0.2436105609 -0.3758517504 -0.05213291198 1.331530897e-38
0.08781389892 -0.2968811095 -0.2623295188 1.331530897e-38
0.1810399592 -0.1260517836 0.1278427094 1.331530897e-38
0.2739836276 -0.4489727914 0.2928509712 1.331530897e-38
0.1817398816 -0.1358065307 -0.02727412805 1.331530897e-38
0.09092155099 -0.3356909156 -0.1588464975 1.331530897e-38
0.03427324817 -0.3608432412 -0.125714466 1.331530897e-38
0.1702219844 -0.1464028656 -0.1810906529 1.349897856e-38
-0.2191748917 -0.3741685152 -0.05473359674 1.349897856e-38
-0.1581252366 -0.4660469592 0.3903787732 1.349897856e-38
-0.3392961919 -0.3770113289 -0.009454268962 1.349897856e-38
-0.3504446447 -0.379077673 0.003243822604 1.349897856e-38
0.1733387709 -0.2909898162 -0.2714319229 1.349897856e-38
0.2617658079 -0.4498143792 0.2941513062 1.349897856e-38
-0.4140456915 -0.4031724334 0.104145363 1.349897856e-38
0.1828092486 -0.1370312274 -0.01587637514 1.368228942e-38
0.1918472499 -0.2980358005 -0.116219148 1.368228942e-38
0.2126554549 -0.3694416285 0.04345610738 1.368228942e-38
0.2235125303 -0.3977341354 0.1384729594 1.368228942e-38
0.02975066379 -0.3318762481 -0.1428643912 1.368228942e-38
0.1951370686 -0.3097326756 -0.09150624275 1.368228942e-38
-0.1459074169 -0.4652053714 0.3890784383 1.368228942e-38
-0.2358335853 -0.3540658355 -0.08006356657 1.368228942e-38
0.153161779 -0.3407302499 -0.1634308249 1.386595901e-38
0.1685414463 -0.3979897797 -0.05126401037 1.386595901e-38
0.2343696058 -0.4260266721 0.2334898561 1.386595901e-38
0.2251122743 -0.452339232 0.2980523407 1.386595901e-38
0.1621999145 -0.144120574 -0.1247188896 1.386595901e-38
0.09702172875 -0.194071576 -0.201605767 1.386595901e-38
0.04871151224 -0.3704737425 -0.1136996746 1.386595901e-38
-0.1336895525 -0.4643637538 0.3877781034 1.386595901e-38
0.1863370091 -0.2758668065 -0.1542472094 1.404926846e-38
0.2069355398 -0.385654211 0.1036626548 1.404926846e-38
0.1601428986 -0.1496939063 -0.1569947749 1.404926846e-38
0.08784858882 -0.182541877 -0.1471513808 1.404926846e-38
0.1275750101 -0.3331660628 -0.1627475172 1.404926846e-38
0.2096863538 -0.4495067298 0.2651593685 1.404926846e-38
-0.3005502224 -0.4313629568 0.08871407807 1.404926846e-38
-0.1947392076 -0.37248528 -0.0573342815 1.404926846e-38
0.2219041735 -0.4486651123 0.2638590336 1.423293806e-38
0.09710343182 -0.2020942867 -0.211086154 1.423293806e-38
-0.4162661135 -0.3927003145 0.09083022177 1.423293806e-38
0.1652516425 -0.3862929344 -0.07597692311 1.423293806e-38
-0.3133508265 -0.4929222465 0.3054444194 1.423293806e-38
-0.3126401007 -0.3858002722 0.001260180026 1.423293806e-38
-0.2325437814 -0.3657627106 -0.05535063893 1.423293806e-38
-0.2203259617 -0.364921093 -0.05665098131 1.423293806e-38
0.2139638215 -0.4544055462 0.3107504249 1.441624891e-38
-0.1969596446 -0.3620131612 -0.07064944506 1.441624891e-38
0.1264239401 -0.3239186406 -0.1646649092 1.441624891e-38
-0.2947840393 -0.3607233167 -0.05076631159 1.441624891e-38
0.09199091792 -0.3369156122 -0.1474487185 1.441624891e-38
-0.4063967168 -0.4277908206 0.1649689525 1.441624891e-38
-0.2591998875 -0.3569737673 -0.06606512517 1.441624891e-38
-0.2347642183 -0.3552905321 -0.06866580993 1.441624891e-38
-0.1545190066 -0.4819812775 0.2885399461 1.459991851e-38
-0.2896931469 -0.4596554637 0.1837309748 1.459991851e-38
0.04303785041 -0.332259357 -0.132766977 1.459991851e-38
0.1539266109 -0.1774412543 0.2444317043 1.459991851e-38
-0.2081080973 -0.3640794754 -0.05795132369 1.459991851e-38
-0.1566577405 -0.4795318544 0.2657443881 1.459991851e-38
0.2245818973 -0.3989588618 0.1498707682 1.459991851e-38
0.08536504209 -0.3679489493 -0.1176007092 1.459991851e-38
0.1982171834 -0.3598110676 0.03144127876 1.478322936e-38
-0.1897300482 -0.4633947015 0.1866433769 1.478322936e-38
-0.3483059108 -0.3815270662 0.0260393545 1.478322936e-38
-0.3115707338 -0.3870249689 0.01265795901 1.478322936e-38
0.1663884968 -0.2440673262 -0.2042900771 1.478322936e-38
0.05849922076 -0.3975416124 -0.03008055687 1.478322936e-38
0.04640936479 -0.351978898 -0.1175344586 1.478322936e-38
0.1770076305 -0.1452211142 0.05381055549 1.478322936e-38
-0.3027706742 -0.4208907783 0.07539893687 1.496689755e-38
-0.1778853238 -0.4848892093 0.3025383949 1.496689755e-38
-0.01161037199 -0.1655278802 0.3000368476 1.496689755e-38
0.04735076055 -0.3996079266 -0.0173824355 1.496689755e-38
0.0341915451 -0.3528205156 -0.1162341088 1.496689755e-38
-0.308280915 -0.3987218142 0.03737085685 1.496689755e-38
0.1723607183 -0.1488522887 -0.1582951099 1.496689755e-38
-0.2703483701 -0.3590400815 -0.0533670038 1.496689755e-38
0.1663210094 -0.3875176609 -0.06457917392 1.515020841e-38
0.04978087917 -0.3716984689 -0.1023018956 1.515020841e-38
0.1285272688 -0.2639183402 -0.2116628587 1.515020841e-38
-0.4086171389 -0.4173187315 0.1516538113 1.515020841e-38
0.1773103625 -0.4569303691 0.3146514595 1.515020841e-38
0.08293485641 -0.3958583772 -0.03268123418 1.515020841e-38
-0.1969991922 -0.4580996931 0.3809646666 1.515020841e-38
0.1906961799 -0.2887883782 -0.1181365401 1.515020841e-38
-0.1981107146 -0.3527657092 -0.07256683707 1.533351927e-38
0.1429655403 -0.2735488415 -0.1996480823 1.533351927e-38
0.04842012748 -0.4008326232 -0.00598468259 1.533351927e-38
0.1728188992 -0.4028886259 -0.005672972649 1.533351927e-38
0.1105540246 -0.2185228169 -0.2199494541 1.533351927e-38
0.1807522178 -0.1426045299 -0.04815227166 1.533351927e-38
0.1922701448 -0.1320081949 0.1056642532 1.533351927e-38
-0.3049911261 -0.4104186594 0.06208376959 1.533351927e-38
-0.2459127009 -0.3573568463 -0.05596768856 1.551683013e-38
-0.03489497304 -0.1764585078 0.3045549095 1.551683013e-38
0.1753165126 -0.2315288633 -0.2303033322 1.551683013e-38
-0.03701626509 -0.4564061463 0.3659775853 1.551683013e-38
0.08421397209 -0.3587015271 -0.1195180863 1.551683013e-38
0.1650924683 -0.4577719867 0.3159517944 1.551683013e-38
0.2188619673 -0.4151714444 0.2100773007 1.551683013e-38
-0.08261524886 -0.1890724003 0.3116737008 1.551683013e-38
0.1818961203 -0.2549225688 -0.1808775216 1.570049832e-38
0.01185505092 -0.4530397058 0.3607762158 1.570049832e-38
0.0508502461 -0.3729231656 -0.09090414643 1.570049832e-38
-0.0003627724946 -0.4538813233 0.3620765805 1.570049832e-38
0.150777936 -0.3142126799 -0.157785207 1.570049832e-38
0.1884757429 -0.2783162594 -0.1314516813 1.570049832e-38
0.1664773673 -0.1490194201 -0.07912783325 1.570049832e-38
0.1541494429 -0.3339322805 -0.1425526738 1.570049832e-38
0.18424806 -0.1297259182 0.1620360166 1.588380918e-38
0.0685428679 -0.3318008184 -0.1239699125 1.588380918e-38
0.1641005725 -0.3770455122 -0.07789431512 1.588380918e-38
0.08426739275 -0.2012038827 -0.06414930522 1.588380918e-38
-0.2929829657 -0.4479585886 0.1590180248 1.588380918e-38
0.1902948171 -0.1456042081 0.06390796602 1.588380918e-38
0.176556468 -0.1457283944 -0.1032236964 1.588380918e-38
0.1585903317 -0.3548765481 -0.1159223765 1.588380918e-38
-0.2519702911 -0.4583553672 0.1912277043 1.606712004e-38
-0.1837119907 -0.4584827721 0.3910620809 1.606712004e-38
0.2082145661 -0.3484973609 0.01682580076 1.606712004e-38
0.08935105801 -0.4032066166 0.03570535779 1.606712004e-38
0.1715364605 -0.1716957092 -0.19813402 1.606712004e-38
0.2138647139 -0.163985759 0.2360126078 1.606712004e-38
0.1728509516 -0.1969885677 -0.2151773572 1.606712004e-38
0.170754835 -0.1539182663 -0.0335367918 1.606712004e-38
0.1970661134 -0.3505636454 0.02952389605 1.625043089e-38
0.04854809865 -0.3544283211 -0.09473891556 1.625043089e-38
-0.3339493573 -0.3831348717 0.04753454402 1.625043089e-38
0.1672137976 -0.1778243482 0.2545291185 1.625043089e-38
0.1552188098 -0.3351569772 -0.1311549246 1.625043089e-38
0.1129804999 -0.2044194937 -0.02115895599 1.625043089e-38
-0.04596172273 -0.1865475625 0.3077726662 1.625043089e-38
0.07635526359 -0.3724646866 -0.08210705221 1.625043089e-38
-0.08154588938 -0.1902971119 0.32307145 1.643374035e-38
0.1644203663 -0.1545927376 -0.1114037186 1.643374035e-38
0.2850503922 -0.4388837218 0.2896332145 1.643374035e-38
0.1964658797 -0.1288843006 0.1607356817 1.643374035e-38
0.183260411 -0.1365239322 0.1411578506 1.643374035e-38
0.1139255464 -0.2382423878 -0.2047169209 1.643374035e-38
0.06961223483 -0.3330255449 -0.1125721335 1.643374035e-38
0.1727692485 -0.1889658719 -0.2056969851 1.643374035e-38
0.1284455657 -0.2558956146 -0.2021825016 1.661705121e-38
-0.3128035069 -0.3697547913 0.02022093534 1.661705121e-38
0.1007909626 -0.3707814515 -0.08470773697 1.661705121e-38
-0.3854604661 -0.4527923465 0.2358899564 1.661705121e-38
0.1119111329 -0.2031947821 -0.03255670518 1.661705121e-38
0.191364184 -0.1468289196 0.0753057152 1.661705121e-38
0.1012174785 -0.1909476817 -0.1465343386 1.661705121e-38
0.1260045916 -0.4006817937 0.0318043232 1.661705121e-38
-0.2103681117 -0.4496938586 0.3803476393 1.680036207e-38
0.02504312433 -0.1630030274 0.296135813 1.680036207e-38
0.322773248 -0.4375835955 0.2971299589 1.680036207e-38
-0.3134325445 -0.4848995209 0.3149247766 1.680036207e-38
0.1740020216 -0.2062360197 -0.2132599652 1.680036207e-38
0.1981354803 -0.3517883718 0.04092167318 1.680036207e-38
0.04624595121 -0.3359334469 -0.09857369959 1.680036207e-38
0.1752348095 -0.2235061377 -0.220822975 1.680036207e-38
0.1272944957 -0.2466481924 -0.2040998936 1.698367293e-38
-0.1578088105 -0.470284462 0.2638269961 1.698367293e-38
0.1903765202 -0.1536269188 0.0544276014 1.698367293e-38
-0.1599475294 -0.4678350389 0.2410314977 1.698367293e-38
0.08178378642 -0.386610955 -0.0345986262 1.698367293e-38
-0.1908811182 -0.4541472793 0.1847259849 1.698367293e-38
0.09404793382 -0.3313423097 -0.1151728183 1.698367293e-38
0.1125293523 -0.2049268037 -0.1781931818 1.698367293e-38
-0.09925650805 -0.4513667822 0.3705619276 1.716698239e-38
0.1022868454 -0.1921723932 -0.1351365745 1.716698239e-38
0.1126927584 -0.22097224 -0.1971539259 1.716698239e-38
0.1062657535 -0.3305007219 -0.1164731681 1.716698239e-38
0.1529166698 -0.3166621327 -0.1349897087 1.716698239e-38
0.1727371961 -0.3948659003 0.003807421774 1.716698239e-38
0.2342878878 -0.4180039465 0.2429702133 1.716698239e-38
-0.3062238991 -0.3931485116 0.06964677572 1.716698239e-38
-0.3573973775 -0.3780200779 0.07101336867 1.735029324e-38
0.1012991965 -0.1989704072 -0.1560147256 1.735029324e-38
0.2190716565 -0.3767898679 0.111842677 1.735029324e-38
-0.3012147248 -0.4840579033 0.3136244416 1.735029324e-38
0.05183790252 -0.3661251962 -0.07002599537 1.735029324e-38
0.1994145215 -0.3146315217 -0.04591517523 1.735029324e-38
-0.05711020529 -0.1886138916 0.3204707503 1.735029324e-38
0.1771710366 -0.1612665206 0.03484977037 1.735029324e-38
0.1840420216 -0.1543013752 -0.02343935519 1.75336041e-38
0.1084862053 -0.3409728408 -0.1031580269 1.75336041e-38
0.1044255793 -0.1946218163 -0.1123410463 1.75336041e-38
0.1551371068 -0.3271342516 -0.1216745377 1.75336041e-38
-0.1981502622 -0.448852241 0.3790472746 1.75336041e-38
0.108703047 -0.1995206475 -0.06674998999 1.75336041e-38
-0.2767790556 -0.4823746979 0.311023742 1.75336041e-38
-0.2889968753 -0.4832163155 0.3123240769 1.75336041e-38
0.1015443057 -0.2230385542 -0.1844558418 1.771655483e-38
-0.310664773 -0.3722042143 0.04301646724 1.771655483e-38
0.08289948106 -0.3334086239 -0.1024747342 1.771655483e-38
-0.3051545322 -0.3943732381 0.08104452491 1.771655483e-38
0.09023243189 -0.2090594471 -0.1527969986 1.771655483e-38
0.122924462 -0.3506033421 -0.09114319086 1.771655483e-38
-0.06260301173 -0.4488419592 0.366660893 1.771655483e-38
0.1283638626 -0.2478729039 -0.1927021146 1.771655483e-38
0.05154652521 -0.3964840174 0.03768898919 1.789986569e-38
0.1782404035 -0.1624912322 0.04624757916 1.789986569e-38
0.1740205586 -0.4452335536 0.2899385691 1.789986569e-38
0.2201410234 -0.3780145943 0.1232404262 1.789986569e-38
-0.3833217323 -0.4552417696 0.2586855292 1.789986569e-38
0.2245001942 -0.3909361362 0.1593511254 1.789986569e-38
0.1023685634 -0.2001951337 -0.1446169466 1.789986569e-38
0.1853991449 -0.1389733553 0.1639534086 1.789986569e-38
0.06269498169 -0.3944177032 0.02499086969 1.808317654e-38
0.1763041764 -0.2247308493 -0.2094251961 1.808317654e-38
-0.3641866446 -0.3930079937 0.1198221371 1.808317654e-38
0.1944905818 -0.1424803138 0.1189793944 1.808317654e-38
0.2089925706 -0.3800809085 0.1359385252 1.808317654e-38
-0.05038519204 -0.4480003417 0.365360558 1.808317654e-38
0.169767186 -0.1607162952 -0.05441490188 1.808317654e-38
0.2157818377 -0.3650929928 0.08712978661 1.808317654e-38
0.06175358221 -0.3467887044 -0.07516111434 1.826612727e-38
0.1793097705 -0.1637159437 0.05764532834 1.826612727e-38
0.2124920338 -0.3533961773 0.06241683662 1.826612727e-38
0.1818144172 -0.2468998432 -0.1713971347 1.826612727e-38
0.04838467762 -0.3383828998 -0.07577817142 1.826612727e-38
-0.408780545 -0.4012732804 0.1706145406 1.826612727e-38
0.08396884799 -0.3346333504 -0.0910769552 1.826612727e-38
0.250518173 -0.1614609212 0.2321115732 1.826612727e-38
0.2177108973 -0.4059240222 0.2081599087 1.844943813e-38
-0.08039480448 -0.1995445341 0.324988842 1.844943813e-38
0.1026136726 -0.2242632657 -0.1730580628 1.844943813e-38
0.1639413983 -0.4485245645 0.3140344024 1.844943813e-38
0.1949736476 -0.2936872244 -0.07254548371 1.844943813e-38
0.1813668013 -0.1581426561 0.08992119133 1.844943813e-38
0.1969844103 -0.3425409496 0.03900428116 1.844943813e-38
0.1271310896 -0.2306027561 -0.1851391345 1.844943813e-38
0.1141315848 -0.2136669457 -0.01924156398 1.863274899e-38
-0.3390192688 -0.4773353338 0.3156080544 1.863274899e-38
0.1450580209 -0.3304252625 -0.09757865965 1.863274899e-38
0.0450486131 -0.3811130524 -0.02121721208 1.863274899e-38
-0.1848630607 -0.4492353499 0.3891446888 1.863274899e-38
0.2038673162 -0.1752995253 0.2506280839 1.863274899e-38
0.1635961086 -0.177436173 -0.1512426138 1.863274899e-38
-0.3085260391 -0.3746536374 0.06581199914 1.863274899e-38
0.22320126 -0.1915608943 0.1625974476 1.881569971e-38
0.05957531929 -0.440425843 0.3536574841 1.881569971e-38
0.1350605786 -0.3417390585 -0.08296316862 1.881569971e-38
-0.3408203423 -0.3901000619 0.1058236957 1.881569971e-38
0.08503821492 -0.335858047 -0.07967919111 1.881569971e-38
0.05282555893 -0.3593271673 -0.04914785922 1.881569971e-38
0.2135614008 -0.3546209037 0.0738145858 1.881569971e-38
0.07504075766 -0.3471718132 -0.06506370753 1.881569971e-38
0.2187802643 -0.4071487188 0.2195576727 1.899901057e-38
0.1748262793 -0.1833925545 -0.1734210998 1.899901057e-38
0.06167187169 -0.3387659788 -0.06568075716 1.899901057e-38
0.01070397906 -0.4437922835 0.3588588536 1.899901057e-38
0.1875378788 -0.1414227784 0.186748907 1.899901057e-38
-0.1492789388 -0.4454858005 0.3738459051 1.899901057e-38
-0.001513844356 -0.4446339011 0.3601591885 1.899901057e-38
0.1505328119 -0.2901445627 -0.1293440908 1.899901057e-38
0.2222797573 -0.3804640174 0.1460359842 1.91819627e-38
0.2354190797 -0.1907192767 0.1612971127 1.91819627e-38
-0.2787081003 -0.4415437281 0.189993605 1.91819627e-38
-0.2042500228 -0.4457414746 0.1841089427 1.91819627e-38
0.1098541319 -0.2087680995 -0.06483259797 1.91819627e-38
0.08610756695 -0.3370827436 -0.06828144938 1.91819627e-38
-0.3397509754 -0.3913247585 0.1172214523 1.91819627e-38
0.1391037852 -0.2056929916 -0.1579983681 1.91819627e-38
0.1438714862 -0.2587281466 -0.1692895293 1.936527215e-38
-0.06809524447 -0.2067256272 0.3142081201 1.936527215e-38
0.1884012073 -0.1672229469 0.01267131884 1.936527215e-38
0.1993328035 -0.3066087961 -0.03643481433 1.936527215e-38
0.1393843591 -0.2922108769 -0.1166459918 1.936527215e-38
-0.4011315703 -0.4258916974 0.2314381301 1.936527215e-38
0.1793914884 -0.1717386842 0.04816496745 1.936527215e-38
0.206981793 -0.3312271833 0.02438877523 1.936527215e-38
0.06261327863 -0.3863949776 0.03447125852 1.954822428e-38
-0.0437412858 -0.1970196962 0.3210878074 1.954822428e-38
0.1082873344 -0.2624776959 -0.1539907455 1.954822428e-38
0.1682963371 -0.3739216328 -0.02282288671 1.954822428e-38
0.1956416368 -0.1517277658 0.1208967865 1.954822428e-38
0.07495905459 -0.3391490877 -0.05558332056 1.954822428e-38
0.2849686742 -0.4308609962 0.2991136014 1.954822428e-38
0.2113409638 -0.3441487253 0.06049944833 1.954822428e-38
0.2472458333 -0.4321611524 0.2916168571 1.973153514e-38
0.2961171865 -0.4287947118 0.2864154875 1.973153514e-38
0.193666324 -0.1653237641 0.07914049923 1.973153514e-38
0.1638554484 -0.3529773653 -0.04945319891 1.973153514e-38
0.1835055351 -0.1605920792 0.1127167493 1.973153514e-38
0.1560430527 -0.3123135567 -0.09131602943 1.973153514e-38
0.2209189981 -0.4095981419 0.2423531711 1.973153514e-38
-0.2542724609 -0.4398604929 0.1873929203 1.973153514e-38
-0.4000622034 -0.4271164238 0.2428359389 1.991448586e-38
0.05159277841 -0.3420570195 -0.04158488661 1.991448586e-38
-0.3967724144 -0.4388132393 0.2675488293 1.991448586e-38
0.2078414857 -0.3708334565 0.1340211332 1.991448586e-38
0.05718473718 -0.372248739 -0.01303718984 1.991448586e-38
0.1660616696 -0.2119764537 -0.1663685888 1.991448586e-38
-0.2657123208 -0.4722856581 0.307806015 1.991448586e-38
0.04381584004 -0.3638429046 -0.01365423203 1.991448586e-38
0.171987623 -0.1711884141 -0.04109976813 2.009743799e-38
0.1071362644 -0.2532302737 -0.1559081376 2.009743799e-38
0.1730569899 -0.1724131256 -0.02970201522 2.009743799e-38
-0.008238859475 -0.1852474362 0.3152693808 2.009743799e-38
0.1768832952 -0.1778192669 -0.1411451995 2.009743799e-38
0.1449408531 -0.2599528432 -0.1578917801 2.009743799e-38
-0.3966443837 -0.3924089372 0.1787946075 2.009743799e-38
0.0471056439 -0.3755397499 0.01105868816 2.009743799e-38
0.2238795012 -0.4350690842 0.3056153059 2.028074885e-38
0.1627043784 -0.343729943 -0.05137058347 2.028074885e-38
-0.2420545965 -0.4390188754 0.1860925853 2.028074885e-38
0.1741263568 -0.1736378372 -0.01830423623 2.028074885e-38
-0.407792896 -0.3944752812 0.1914927065 2.028074885e-38
0.22435233 -0.2008083165 0.1645148396 2.028074885e-38
0.1414876431 -0.2322105616 -0.1636439562 2.028074885e-38
0.1026845872 -0.3491627276 -0.03347109258 2.028074885e-38
0.05603365973 -0.363001287 -0.01495458186 2.046369957e-38
0.2619754672 -0.4114328027 0.1959166676 2.046369957e-38
0.1892537177 -0.309899807 -0.01233894378 2.046369957e-38
0.1926786751 -0.1721217781 0.0582623817 2.046369957e-38
0.1142132878 -0.2216896415 -0.0287219286 2.046369957e-38
0.2124103308 -0.3453734517 0.07189719379 2.046369957e-38
0.04924437776 -0.3779891729 0.03385421634 2.046369957e-38
0.1957233548 -0.1597504765 0.1114164144 2.046369957e-38
0.2045516819 -0.3591366112 0.1093082428 2.06466517e-38
-0.1860141307 -0.4399879277 0.3872272968 2.06466517e-38
0.1291881055 -0.2250294685 -0.1528632492 2.06466517e-38
0.05266214535 -0.3432817459 -0.03018710762 2.06466517e-38
0.19837448 -0.4355275929 0.2968182266 2.06466517e-38
-0.2290587872 -0.4697608352 0.3039049804 2.06466517e-38
0.171504423 -0.3775957823 0.01137039438 2.06466517e-38
0.1876195818 -0.1494454741 0.1772685498 2.06466517e-38
-0.2176189423 -0.43733567 0.1834919006 2.082996116e-38
0.1437897831 -0.250705421 -0.1598091722 2.082996116e-38
0.1835872382 -0.1686147898 0.1032363921 2.082996116e-38
0.1784038246 -0.1785366833 0.02728679776 2.082996116e-38
0.08931566775 -0.3407568932 -0.03408813477 2.082996116e-38
0.0614622049 -0.3771475852 0.03255387396 2.082996116e-38
0.178940326 -0.1722459793 -0.1088692844 2.082996116e-38
-0.2987383306 -0.4017214775 0.1494310796 2.082996116e-38
0.1537409127 -0.2938186824 -0.09515081346 2.101291328e-38
0.185562551 -0.1550187916 0.1449926347 2.101291328e-38
-0.2820796371 -0.4218241274 0.1747610867 2.101291328e-38
-0.3042485714 -0.3795524836 0.1114030331 2.101291328e-38
0.1225513667 -0.3729394972 0.02605216019 2.101291328e-38
0.03948138654 -0.1726335585 0.3081506193 2.101291328e-38
0.17257379 -0.3788204789 0.02276817523 2.101291328e-38
-0.3955750167 -0.3936336637 0.1901923567 2.101291328e-38
0.1987680346 -0.1473791599 0.1645704508 2.119586541e-38
0.1068094373 -0.2211394012 -0.1179866344 2.119586541e-38
0.2630448341 -0.4126575291 0.2073144317 2.119586541e-38
-0.06694417447 -0.2159730643 0.3161255121 2.119586541e-38
0.0459545739 -0.3662923574 0.009141296148 2.119586541e-38
0.1526252925 -0.3470209837 -0.02727471292 2.119586541e-38
-0.03144175187 -0.2042007893 0.3103070855 2.119586541e-38
0.1026028693 -0.3411399722 -0.02399072796 2.119586541e-38
0.1270385087 -0.3394567668 -0.02659141272 2.137881613e-38
0.1068911403 -0.229162097 -0.1274670213 2.137881613e-38
0.1750082076 -0.4384355247 0.3108166754 2.137881613e-38
-0.349911809 -0.3865930438 0.15079768 2.137881613e-38
-0.2976689637 -0.4029462039 0.1608288437 2.137881613e-38
0.1617209613 -0.4380524457 0.3007192612 2.137881613e-38
0.1392563283 -0.3386151791 -0.0278917551 2.137881613e-38
0.1548102796 -0.2950434089 -0.08375304937 2.137881613e-38
0.1863441765 -0.1727962196 -0.01960457675 2.156176826e-38
0.04702394083 -0.3675170541 0.02053904533 2.156176826e-38
0.2883227766 -0.1681835204 0.2301279306 2.156176826e-38
0.1069728583 -0.2371848226 -0.1369473934 2.156176826e-38
0.1031465381 -0.2317786962 -0.0255041942 2.156176826e-38
-0.2432056665 -0.4297714531 0.1841751933 2.156176826e-38
0.20690009 -0.3232044876 0.03386916965 2.156176826e-38
-0.1024466008 -0.2277453244 0.3219439089 2.156176826e-38
0.2051001042 -0.1925696731 0.2430651188 2.174471899e-38
-0.3791259825 -0.4521178603 0.3137569427 2.174471899e-38
0.1957516372 -0.3252708018 0.04656726122 2.174471899e-38
-0.1615784615 -0.4383046925 0.384626627 2.174471899e-38
0.2023312449 -0.3486644924 0.0959931016 2.174471899e-38
0.2366518676 -0.2079894245 0.1537341326 2.174471899e-38
0.1836689562 -0.1766375154 0.09375597537 2.174471899e-38
0.1448591501 -0.2519301176 -0.148411423 2.174471899e-38
-0.323255688 -0.3953819871 0.1615121365 2.192767111e-38
0.1403256953 -0.3398398757 -0.01649400592 2.192767111e-38
0.1992511004 -0.2985860705 -0.02695442364 2.192767111e-38
0.1214002967 -0.3636921048 0.02413476817 2.192767111e-38
0.2143393904 -0.3862044513 0.1929273307 2.192767111e-38
0.06923913956 -0.3553617001 0.004623226821 2.192767111e-38
-0.287671566 -0.3916324377 0.1462133527 2.192767111e-38
-0.1493606418 -0.4374630749 0.383326292 2.192767111e-38
-0.01922392845 -0.2033591717 0.3090067506 2.211062324e-38
0.121492818 -0.2548380494 -0.1344129592 2.211062324e-38
0.2265572101 -0.3853628337 0.1916269958 2.211062324e-38
0.05842424929 -0.431178391 0.351740092 2.211062324e-38
0.2110495865 -0.374507606 0.1682144403 2.211062324e-38
0.04694223031 -0.3594943285 0.03001943789 2.211062324e-38
0.172069326 -0.1792111397 -0.05058012903 2.211062324e-38
-0.3934362829 -0.3960830867 0.21298787 2.211062324e-38
0.1458359361 -0.3620088696 0.02153408714 2.229357396e-38
0.1325596273 -0.2447490394 -0.1376306862 2.229357396e-38
0.1693514735 -0.223673299 -0.1416556686 2.229357396e-38
-0.3589215279 -0.3911088109 0.186291337 2.229357396e-38
-0.3132582903 -0.3840682209 0.1468966603 2.229357396e-38
0.1669818312 -0.3486287892 -0.005779519677 2.229357396e-38
0.1247826219 -0.2665349245 -0.109700039 2.229357396e-38
0.108031407 -0.3552863002 0.02351772226 2.229357396e-38
0.1818154752 -0.2035003006 0.2475831807 2.247652609e-38
0.1375796199 -0.2187817097 -0.0427203998 2.247652609e-38
0.1970306635 -0.2881139517 -0.04026959091 2.247652609e-38
0.08137525618 -0.3464973569 0.01280324161 2.247652609e-38
0.1091115922 -0.2396342456 -0.1141518652 2.247652609e-38
-0.4002256095 -0.4110709727 0.2617966533 2.247652609e-38
0.009552903473 -0.4345448315 0.3569414616 2.247652609e-38
-0.2321389019 -0.4196824133 0.1809574515 2.247652609e-38
0.07137787342 -0.3578111231 0.02741875686 2.265947681e-38
0.1692697704 -0.2156505883 -0.1321753114 2.265947681e-38
0.1111686081 -0.2340609431 -0.081875965 2.265947681e-38
-0.1871652007 -0.4307405055 0.3853099346 2.265947681e-38
-0.3969358206 -0.4227677882 0.2865095437 2.265947681e-38
0.2232674062 -0.3736659884 0.1669141054 2.265947681e-38
-0.02603122778 -0.4382943809 0.3722402453 2.265947681e-38
0.1832177788 -0.1771448255 -0.06327824295 2.265947681e-38
0.1468699276 -0.3007838428 -0.03686165065 2.284242894e-38
0.181160748 -0.1827181131 -0.09555414319 2.284242894e-38
0.2061694711 -0.1937943697 0.254462868 2.284242894e-38
0.2705304027 -0.421230495 0.2870987952 2.284242894e-38
0.2156184316 -0.3490475714 0.1060905159 2.284242894e-38
-0.257725656 -0.4121182263 0.1816407591 2.284242894e-38
-0.3546903133 -0.450434655 0.3111562431 2.284242894e-38
0.114376694 -0.2377350777 -0.04768268019 2.284242894e-38
0.08244462311 -0.3477220535 0.02420102246 2.302537966e-38
0.1101809591 -0.2408589423 -0.1027541012 2.302537966e-38
-0.3812184632 -0.3952414691 0.2116875201 2.302537966e-38
0.1347800642 -0.2552211583 -0.124315545 2.302537966e-38
-0.4024460614 -0.400598824 0.2484815121 2.302537966e-38
0.1978903711 -0.3277202249 0.06936275959 2.302537966e-38
0.1446848661 -0.3527614474 0.01961669698 2.302537966e-38
0.1806242615 -0.1890088171 0.04060193896 2.302537966e-38
0.1351645589 -0.2173388898 0.2660996914 2.320833179e-38
-0.08915941417 -0.2281284183 0.3320413232 2.320833179e-38
-0.3991562426 -0.4122956693 0.2731944323 2.320833179e-38
0.1803365201 -0.2055615336 -0.1353930384 2.320833179e-38
0.1948102266 -0.277641803 -0.05358472839 2.320833179e-38
0.1154460609 -0.2389597893 -0.036284931 2.320833179e-38
0.1258519888 -0.2677596211 -0.09830227494 2.320833179e-38
0.1887706518 -0.1586929262 0.1791859418 2.320833179e-38
0.1223170608 -0.2319946289 -0.09457407892 2.339092378e-38
-0.07712298632 -0.4311887026 0.3641264737 2.339092378e-38
0.1336289942 -0.245973736 -0.126232937 2.339092378e-38
-0.2455078065 -0.4112766087 0.1803404093 2.339092378e-38
0.1635286063 -0.3208865225 -0.01153168827 2.339092378e-38
0.04063245654 -0.1818809807 0.3100680113 2.339092378e-38
0.1165154278 -0.2401844859 -0.02488715202 2.339092378e-38
-0.1012955308 -0.2369927615 0.3238613009 2.339092378e-38
0.1940332949 -0.202658698 0.2462828457 2.348204041e-38
0.1446494907 -0.2903116941 -0.05017679185 2.348204041e-38
0.2011801749 -0.3394170702 0.09407570958 2.348204041e-38
0.1669001281 -0.3406060636 0.003700837493 2.348204041e-38
0.1959684789 -0.1838186085 0.08297526836 2.348204041e-38
-0.2057742178 -0.458830148 0.2993869185 2.348204041e-38
0.1816936284 -0.1902335286 0.05199974775 2.348204041e-38
-0.4013766944 -0.4018235505 0.2598792613 2.348204041e-38
0.1186541617 -0.242633909 -0.002091620117 2.348132155e-38
-0.3344858587 -0.3894256055 0.1836906523 2.348132155e-38
-0.3690006137 -0.3943998516 0.2103871852 2.348132155e-38
0.1828848422 -0.2047250271 0.2589809299 2.348132155e-38
0.1907033473 -0.1857177913 0.01650609635 2.348132155e-38
-0.3947970867 -0.4252172112 0.3093051016 2.348132155e-38
-0.2588767409 -0.4028707743 0.1797233671 2.348132155e-38
0.1234681457 -0.2412420511 -0.0926567018 2.348132155e-38
-0.01815456338 -0.2045838833 0.3204044998 2.348060128e-38
0.1490086466 -0.3032332659 -0.01406612247 2.348060128e-38
0.005211742595 -0.2016759515 0.3064060509 2.348060128e-38
-0.322268039 -0.388583988 0.1823903024 2.348060128e-38
-0.4003073275 -0.4030482471 0.2712770104 2.348060128e-38
-0.2466588914 -0.4020291567 0.1784230173 2.348060128e-38
0.1245375127 -0.2424667627 -0.08125892282 2.348060128e-38
-0.1271453947 -0.4253077507 0.3674104512 2.348060128e-38
0.1838323623 -0.1926829517 0.07479524612 2.347952368e-38
0.198959738 -0.3289449215 0.08076056838 2.347952368e-38
0.1176665127 -0.249431923 -0.02296976 2.347952368e-38
-0.356782794 -0.393558234 0.2090868354 2.347952368e-38
0.1980255097 -0.1782453358 0.1152511984 2.347952368e-38
0.1923801154 -0.3055512309 0.03133473545 2.347952368e-38
-0.1644701213 -0.4388680458 0.2238815874 2.347952368e-38
-0.3334164917 -0.3906503022 0.1950884014 2.347952368e-38
-0.1966364831 -0.4079101682 0.1751390398 2.347880341e-38
0.2131883055 -0.3769569993 0.1910099387 2.347880341e-38
0.114621833 -0.2618032098 -0.07612380385 2.347880341e-38
0.2210469693 -0.3631938696 0.1535989642 2.347880341e-38
0.1880209446 -0.2926296592 -0.00477596838 2.347880341e-38
-0.1677599251 -0.4271712005 0.1991686374 2.347880341e-38
-0.3679312468 -0.3956245482 0.2217849344 2.347880341e-38
0.1498791575 -0.2259628177 -0.05350109935 2.347880341e-38
-0.1844186187 -0.4070685506 0.1738387048 2.347808455e-38
-0.2222232372 -0.4003459513 0.1758223474 2.347808455e-38
-0.1699803621 -0.4166990519 0.1858534962 2.347808455e-38
0.1858893931 -0.1871096492 0.1070711613 2.347808455e-38
0.1860749573 -0.4283464849 0.3075989485 2.347808455e-38
0.182556957 -0.2160336971 -0.1220778674 2.347808455e-38
0.1488914937 -0.2327608168 -0.07437925041 2.347808455e-38
0.1849017292 -0.1939076632 0.08619299531 2.347808455e-38
0.1936591417 -0.2683943808 -0.05550211295 2.347700555e-38
-0.1883162856 -0.4214930534 0.3833925128 2.347700555e-38
0.1177482158 -0.2574546337 -0.03245015442 2.347700555e-38
0.1738571376 -0.4291881025 0.3088992834 2.347700555e-38
-0.3880894482 -0.4022066295 0.2699766755 2.347700555e-38
0.2002387643 -0.2917880416 -0.006076308899 2.347700555e-38
-0.2435787916 -0.4521075785 0.3013705611 2.347700555e-38
-0.3557134271 -0.3947829306 0.2204845846 2.347700555e-38
0.1854382157 -0.1876169443 -0.04996308312 2.347628668e-38
0.2306868285 -0.2001338601 0.2423818111 2.347628668e-38
0.2221163213 -0.364418596 0.1649967134 2.347628668e-38
0.139057532 -0.2601200044 -0.07872448862 2.347628668e-38
0.1489269435 -0.2952105403 -0.004585761577 2.347628668e-38
-0.2355921268 -0.3919401467 0.1752052903 2.347628668e-38
-0.3703613877 -0.4235339761 0.3067044318 2.347628668e-38
0.1188992858 -0.2667020559 -0.03053276241 2.347628668e-38
-0.1591233015 -0.4449915886 0.280870378 2.347520768e-38
0.1456371248 -0.283513695 -0.02929867804 2.347520768e-38
0.173302114 -0.1964812726 -0.05814313516 2.347520768e-38
-0.03940011561 -0.4298885763 0.3716231883 2.347520768e-38
-0.1855697036 -0.3978210986 0.1719213128 2.347520768e-38
0.1545651555 -0.2709752321 -0.05531191081 2.347520768e-38
0.2297653109 -0.3890369833 0.225820303 2.347520768e-38
-0.1702717543 -0.4470579028 0.2935684919 2.347520768e-38
-0.2191431075 -0.4504243433 0.2987698615 2.347448882e-38
0.2122469246 -0.3293280303 0.09085798264 2.347448882e-38
0.1718180925 -0.2148140371 0.2621986568 2.347448882e-38
0.2089571059 -0.3176311851 0.06614503264 2.347448882e-38
-0.3970992267 -0.4067223668 0.3054703176 2.347448882e-38
0.2010701746 -0.1658740342 0.1684052348 2.347448882e-38
0.2429046482 -0.1992922425 0.2410814762 2.347448882e-38
0.0296474155 -0.1999927163 0.3038053811 2.347448882e-38
-0.0402880609 -0.2247619629 0.3268399537 2.347340982e-38
0.1322681755 -0.2751079202 -0.02991572022 2.347340982e-38
0.1828446984 -0.1994809508 0.05391713232 2.347340982e-38
0.1467064917 -0.2847384214 -0.01790089905 2.347340982e-38
0.2023774981 -0.2942374945 0.01671922207 2.347340982e-38
0.1912290454 -0.2963038087 0.02941734158 2.347340982e-38
-0.1638806164 -0.4198098481 0.3807918429 2.347340982e-38
0.1870795488 -0.2450006753 -0.1049279571 2.347340982e-38
-0.2723273337 -0.3864422143 0.1885866821 2.347269095e-38
-0.2569476962 -0.4437017441 0.300753504 2.347269095e-38
-0.2367431968 -0.3826926947 0.1732878983 2.347269095e-38
0.2231856883 -0.3656432927 0.1763944626 2.347269095e-38
-0.06605623662 -0.4210996926 0.3609087467 2.347269095e-38
0.2551224828 -0.1984506398 0.2397811413 2.347269095e-38
-0.01603381336 -0.4269806445 0.3576247394 2.347269095e-38
0.1918544173 -0.1949652135 0.01842348278 2.347269095e-38
0.1840359122 -0.2139724493 0.2608983219 2.347161195e-38
-0.1700620651 -0.4086763561 0.1953338683 2.347161195e-38
0.1907850504 -0.193740502 0.007025730796 2.347161195e-38
0.1855199337 -0.1956396699 -0.05944347754 2.347161195e-38
0.1754408479 -0.1989306808 -0.03534760326 2.347161195e-38
0.3060328364 -0.40945822 0.2812803686 2.347161195e-38
0.1981889158 -0.1942907572 0.09629040956 2.347161195e-38
0.2001642287 -0.1806947589 0.1380466968 2.347161195e-38
0.1955882162 -0.3092253804 0.06552799046 2.347089308e-38
0.1544834375 -0.2629525065 -0.04583154619 2.347089308e-38
0.3193200231 -0.4098412991 0.2913777828 2.347089308e-38
0.1332558393 -0.2683098912 -0.009037576616 2.347089308e-38
-0.1783189029 -0.4101793468 0.3687770367 2.347089308e-38
-0.1624131054 -0.4332947433 0.2561574578 2.347089308e-38
-0.3737328947 -0.403814435 0.2914718986 2.347089308e-38
0.1961318851 -0.1998640597 0.06401453912 2.347089308e-38
-0.3525053263 -0.3984570801 0.2546778917 2.346981408e-38
0.1475458741 -0.2325427234 0.2458386421 2.346981408e-38
-0.200089708 -0.3801678717 0.1693868786 2.346981408e-38
-0.1657028943 -0.421597898 0.2314445525 2.346981408e-38
0.2205079794 -0.4153495133 0.2903827727 2.346981408e-38
0.2054576427 -0.3443159163 0.1396667808 2.346981408e-38
-0.3625844121 -0.401748091 0.278773725 2.346981408e-38
0.2473737895 -0.3857568502 0.2028626055 2.346981408e-38
-0.329139024 -0.3955491483 0.2406794578 2.346909522e-38
-0.3169212043 -0.3947075307 0.2393791229 2.346909522e-38
-0.2580987513 -0.4344543219 0.298836112 2.346909522e-38
-0.17121315 -0.3994289041 0.1934164762 2.346909522e-38
-0.3203389645 -0.4294149876 0.3034204543 2.346909522e-38
-0.06349094957 -0.2437153459 0.3218776584 2.346909522e-38
-0.2590401471 -0.3868253529 0.1986840963 2.346909522e-38
0.2110958397 -0.3200805783 0.08894059062 2.346909522e-38
-0.05276905 -0.4214827716 0.3710061312 2.346801622e-38
-0.04162055999 -0.4194164574 0.3583080471 2.346801622e-38
0.1465430856 -0.2686929703 0.001059856266 2.346801622e-38
0.1966575831 -0.3104500771 0.07692579925 2.346801622e-38
-0.1272271127 -0.4172849953 0.3768908083 2.346801622e-38
-0.1679233313 -0.4111257792 0.2181294262 2.346801622e-38
0.1992582828 -0.1955154687 0.1076882184 2.346801622e-38
0.2032089084 -0.1683234423 0.1912007332 2.346801622e-38
-0.1958585083 -0.439493686 0.2942517996 2.346693862e-38
0.1813596189 -0.2612132728 -0.0447214134 2.346693862e-38
-0.3615150452 -0.4029728174 0.2901715636 2.346693862e-38
-0.2701885998 -0.3888916373 0.2113821954 2.346693862e-38
0.2176754624 -0.3434742987 0.138366431 2.346693862e-38
-0.1538832337 -0.4084961116 0.3661763668 2.346693862e-38
-0.174584657 -0.3797093332 0.178183943 2.346693862e-38
0.1971417069 -0.4182574451 0.3043812215 2.346693862e-38
-0.3158518374 -0.3959322572 0.2507768869 2.346621835e-38
-0.1701437831 -0.4006536007 0.2048142254 2.346621835e-38
