# .PCD v0.7 - Point Cloud Data file format
VERSION 0.7
FIELDS x y z rgb
SIZE 4 4 4 4
TYPE F F F F
COUNT 1 1 1 1
WIDTH 851
HEIGHT 1
VIEWPOINT 0 0 0 1 0 0 0
POINTS 851
DATA ascii
0.1666736007 -0.3633901477 0.1500632316 4.304737034e-39
0.08435730636 -0.1270127594 0.3182795644 4.304737034e-39
0.09713277966 -0.2925288081 0.1819742471 4.304737034e-39
0.3413293362 -0.3406306505 -0.02507989854 4.304737034e-39
0.3649395704 -0.3373149037 -0.03865166754 4.304737034e-39
0.1802742779 -0.3715491295 0.1510223895 4.304737034e-39
0.1407974213 -0.3561222553 0.150249362 4.48912409e-39
0.4004408717 -0.3255914748 -0.04419202358 4.48912409e-39
0.1135960221 -0.3398042917 0.1483310312 4.48912409e-39
0.1828892231 -0.2997906804 0.1443225592 4.48912409e-39
0.1715899557 -0.3920739293 0.1676577926 4.48912409e-39
0.1334383041 -0.385697186 0.1689892113 4.48912409e-39
0.09234845638 -0.2158293277 0.2624603212 4.48912409e-39
0.2064993829 -0.2964749336 0.1307507902 4.48912409e-39
0.1938749999 -0.3797081113 0.1519815475 4.673152414e-39
0.3294382095 -0.3490383625 -0.0331113115 4.673152414e-39
0.0959797278 -0.2699790001 0.2095044404 4.673152414e-39
0.1543980986 -0.3642812371 0.1512085199 4.673152414e-39
0.1832735687 -0.3073072731 0.1351458579 4.673152414e-39
0.1026457101 -0.349745512 0.1515807956 4.673152414e-39
0.1774540246 -0.1824637055 0.2915341258 4.673152414e-39
0.1477722079 -0.3190307319 0.140686214 4.673152414e-39
0.1706136763 -0.3006817997 0.1454678625 4.857539469e-39
0.2529510558 -0.2748102546 0.1219606847 4.857539469e-39
0.1679987758 -0.3724402189 0.1521676928 4.857539469e-39
0.1039708927 -0.3587955832 0.1536852568 4.857539469e-39
0.09521102905 -0.2549458146 0.2278578728 4.857539469e-39
0.09790147841 -0.3075619936 0.1636208296 4.857539469e-39
0.1593144685 -0.3929650784 0.1688030809 4.857539469e-39
0.09828582406 -0.3150785863 0.1544441134 4.857539469e-39
0.1984893829 -0.2854223549 0.2162161767 5.041567793e-39
0.1897295117 -0.1815725863 0.2903888226 5.041567793e-39
0.1105613112 -0.3141874671 0.1532988101 5.041567793e-39
0.1354967058 -0.3199218512 0.1418315023 5.041567793e-39
0.09273281693 -0.2233459502 0.2532836199 5.041567793e-39
0.1583381742 -0.3015729189 0.1466131657 5.041567793e-39
0.3645552397 -0.3297983408 -0.02947495878 5.041567793e-39
0.4355578721 -0.3063514233 -0.04055567086 5.041567793e-39
0.2174497098 -0.2865337133 0.1275010407 5.225597518e-39
0.1815994531 -0.3805992603 0.1531268507 5.225597518e-39
0.3526640534 -0.338206023 -0.03750637174 5.225597518e-39
0.329053849 -0.3415217698 -0.02393460274 5.225597518e-39
0.3881653845 -0.326482594 -0.04304672778 5.225597518e-39
0.1470389664 -0.3938561678 0.1699483842 5.225597518e-39
0.19383955 -0.2898494601 0.1410728097 5.225597518e-39
0.08645118028 -0.151096046 0.3020305336 5.225597518e-39
0.195200175 -0.3887581825 0.1540860087 5.409984573e-39
0.2020050734 -0.1806814671 0.2892435491 5.409984573e-39
0.1298471093 -0.3660634756 0.1534991115 5.409984573e-39
0.1812574267 -0.2231136858 0.2682128549 5.409984573e-39
0.1988737285 -0.2929389477 0.2070394456 5.409984573e-39
0.2230404317 -0.2836401463 0.2139255702 5.409984573e-39
0.169323951 -0.3814903498 0.154272154 5.409984573e-39
0.1052960679 -0.3678457141 0.155789718 5.409984573e-39
0.1587225199 -0.3090894818 0.1374364495 5.594012897e-39
0.09025458992 -0.1917460412 0.2787093222 5.594012897e-39
0.1819483936 -0.2982571721 0.1330413967 5.594012897e-39
0.1109456718 -0.3217040896 0.1441221088 5.594012897e-39
0.1224879175 -0.3956384063 0.1722389758 5.594012897e-39
0.3522797227 -0.3306894302 -0.02832966298 5.594012897e-39
0.2406755686 -0.2757014036 0.123105973 5.594012897e-39
0.4346170425 -0.304817915 -0.05183684081 5.594012897e-39
0.3403885067 -0.3390971422 -0.03636106849 5.77804122e-39
0.2051742077 -0.2874248624 0.1286463439 5.77804122e-39
0.1311722845 -0.3751135468 0.1556035727 5.77804122e-39
0.08474165201 -0.1345293373 0.3091027737 5.77804122e-39
0.1795479059 -0.2065469921 0.2752851248 5.77804122e-39
0.133787185 -0.3033551574 0.1489037573 5.77804122e-39
0.1570484638 -0.3823814392 0.1554174572 5.77804122e-39
0.1606396437 -0.4020151496 0.1709075421 5.77804122e-39
0.1138036251 -0.4161632657 0.1888743788 5.962428276e-39
0.1992580742 -0.3004555702 0.1978627443 5.962428276e-39
0.2170653492 -0.2790171206 0.136677742 5.962428276e-39
0.09063892812 -0.199262619 0.2695325613 5.962428276e-39
0.4574585259 -0.2864689827 -0.04705519229 5.962428276e-39
0.1696728468 -0.2991482913 0.1341866851 5.962428276e-39
0.1447729617 -0.3832725883 0.1565627456 5.962428276e-39
0.1215116829 -0.3042462468 0.1500490606 5.962428276e-39
0.2115336359 -0.299564451 0.1967174411 6.1464566e-39
0.1066212505 -0.3768957853 0.1578941792 6.1464566e-39
0.4232823849 -0.3072425425 -0.03941037506 6.1464566e-39
0.1360886544 -0.4037973881 0.1731981337 6.1464566e-39
0.3400041759 -0.3315805793 -0.02718435973 6.1464566e-39
0.1928987205 -0.2883159518 0.1297916323 6.1464566e-39
0.08303212374 -0.1179626435 0.3161751032 6.1464566e-39
0.4455673993 -0.2948766947 -0.05508660525 6.1464566e-39
0.1692885011 -0.2916316986 0.1433634013 6.330484923e-39
0.09350150824 -0.2383791208 0.2349301726 6.330484923e-39
0.09657630324 -0.2985118926 0.1615163684 6.330484923e-39
0.1324974746 -0.3841636777 0.1577080488 6.330484923e-39
0.3636144102 -0.3282648325 -0.04075612873 6.330484923e-39
0.223809123 -0.2986733317 0.1955721378 6.330484923e-39
0.2284000069 -0.2765924931 0.1242512763 6.330484923e-39
0.2047898471 -0.2799082398 0.1378230453 6.330484923e-39
0.1238130927 -0.4046884775 0.174343437 6.514514648e-39
0.1096204817 -0.3126539588 0.1420176476 6.514514648e-39
0.1570129991 -0.2925228179 0.1445087045 6.514514648e-39
0.252566725 -0.2672936916 0.131137386 6.514514648e-39
0.4565176964 -0.2849354744 -0.05833636224 6.514514648e-39
0.09140762687 -0.2142958194 0.2511791289 6.514514648e-39
0.3991156816 -0.3165413737 -0.04629648477 6.514514648e-39
0.1761288494 -0.1734135896 0.2894296646 6.514514648e-39
0.09503889829 -0.2684454918 0.198223263 6.698542971e-39
0.09734499454 -0.313545078 0.143162936 6.698542971e-39
0.1806232184 -0.2892070711 0.1309369355 6.698542971e-39
0.3277286887 -0.3324716687 -0.02603906393 6.698542971e-39
0.1971641928 -0.2763722837 0.2141117156 6.698542971e-39
0.09465455264 -0.2609289289 0.2073999792 6.698542971e-39
0.09580760449 -0.2834787071 0.1798697859 6.698542971e-39
0.3513388932 -0.3291559219 -0.03961083293 6.698542971e-39
0.1328463554 -0.3018216491 0.1376225799 6.882571295e-39
0.19251436 -0.2807993591 0.1389683336 6.882571295e-39
0.09427019954 -0.2534123063 0.2165766954 6.882571295e-39
0.2639013827 -0.2648690641 0.1187109202 6.882571295e-39
0.2094397545 -0.2754811645 0.2129664123 6.882571295e-39
0.09179198742 -0.2218124419 0.2420024276 6.882571295e-39
0.2006798983 -0.171631366 0.2871390581 6.882571295e-39
0.1338226497 -0.3932138085 0.15981251 6.882571295e-39
0.1324620098 -0.2943050265 0.1467992961 7.066599618e-39
0.4110068977 -0.3081336617 -0.03826507926 7.066599618e-39
0.1799322516 -0.2140635848 0.2661083937 7.066599618e-39
0.2129554003 -0.1707402468 0.2859937847 7.066599618e-39
0.3868401945 -0.3174324632 -0.04515118897 7.066599618e-39
0.1205708534 -0.3027127385 0.1387678832 7.066599618e-39
0.197932899 -0.2914054394 0.1957582831 7.066599618e-39
0.3632300496 -0.32074821 -0.03157941997 7.066599618e-39
0.0889294073 -0.182695955 0.276604861 7.250627941e-39
0.3390633464 -0.330047071 -0.03846552968 7.250627941e-39
0.1983172446 -0.2989220619 0.1865814924 7.250627941e-39
0.2038490176 -0.2783747315 0.1265418679 7.250627941e-39
0.2339907438 -0.273698926 0.2106758058 7.250627941e-39
0.1128627956 -0.4146297574 0.1775932014 7.250627941e-39
0.08341647685 -0.1254792511 0.3069983125 7.250627941e-39
0.1782227159 -0.1974969059 0.2731806636 7.250627941e-39
0.1082953066 -0.3036038578 0.1399131864 7.434656265e-39
0.4342327118 -0.297301352 -0.04266013205 7.434656265e-39
0.09217633307 -0.2293290198 0.2328257114 7.434656265e-39
0.1474233121 -0.4013727903 0.160771668 7.434656265e-39
0.1079109609 -0.296087265 0.1490898877 7.434656265e-39
0.3745647073 -0.3183235824 -0.04400589317 7.434656265e-39
0.3509545326 -0.3216393292 -0.03043412417 7.434656265e-39
0.2105928063 -0.2980309427 0.185436219 7.434656265e-39
0.2280156612 -0.2690759301 0.1334279925 7.618684588e-39
0.0896980986 -0.1977291107 0.258251369 7.618684588e-39
0.1351478249 -0.4022638798 0.1619169563 7.618684588e-39
0.3267878592 -0.3309381604 -0.03732023388 7.618684588e-39
0.4451830387 -0.2873601019 -0.04590989649 7.618684588e-39
0.4100660682 -0.3066001534 -0.04954624921 7.618684588e-39
0.1437966675 -0.2918804288 0.1343728304 7.618684588e-39
0.0900824517 -0.2052457184 0.2490746677 7.618684588e-39
0.1887886822 -0.180039078 0.2791076601 7.802712912e-39
0.09256067127 -0.2368456125 0.2236489356 7.802712912e-39
0.2393504083 -0.2666512728 0.1210015118 7.802712912e-39
0.4561333656 -0.2774189115 -0.04915965348 7.802712912e-39
0.1315211803 -0.2927715182 0.1355181187 7.802712912e-39
0.3864558339 -0.3099159002 -0.03597447276 7.802712912e-39
0.1958390176 -0.2673221529 0.2120072544 7.802712912e-39
0.155687809 -0.2834727168 0.1424042434 7.802712912e-39
0.1803165972 -0.2215801775 0.2569316924 7.986382503e-39
0.2010642439 -0.1791479588 0.2779623568 7.986382503e-39
0.0904668048 -0.2127623111 0.2398979515 7.986382503e-39
0.4442422092 -0.2858265936 -0.05719106644 7.986382503e-39
0.1192456782 -0.2936626673 0.136663422 7.986382503e-39
0.213339746 -0.1782568544 0.2768170536 7.986382503e-39
0.1962233633 -0.2748387754 0.2028305233 7.986382503e-39
0.4670837224 -0.2674776614 -0.05240941793 7.986382503e-39
0.0838008225 -0.132995829 0.2978216112 8.170410826e-39
0.09294502437 -0.2443622202 0.2144722342 8.170410826e-39
0.09371372312 -0.2593954206 0.1961188018 8.170410826e-39
0.203464672 -0.2708581388 0.1357185841 8.170410826e-39
0.2270748317 -0.2675424218 0.1221468151 8.170410826e-39
0.4551925361 -0.2758854032 -0.06044082344 8.170410826e-39
0.0908511579 -0.2202789336 0.2307212502 8.170410826e-39
0.1311368197 -0.2852549255 0.1446948349 8.170410826e-39
0.1786070764 -0.2050134838 0.2640039325 8.35443915e-39
0.09332937002 -0.251878798 0.205295518 8.35443915e-39
0.3500137031 -0.3201058209 -0.04171530157 8.35443915e-39
0.1069701314 -0.2945537567 0.1378087252 8.35443915e-39
0.3264034986 -0.3234215379 -0.02814352512 8.35443915e-39
0.1973764151 -0.2973885536 0.1753003299 8.35443915e-39
0.1241974533 -0.4122051001 0.1651667356 8.35443915e-39
0.1670224816 -0.2810480595 0.1299777776 8.35443915e-39
0.1188613325 -0.2861460447 0.1458401233 8.538467473e-39
0.3855150044 -0.3083823919 -0.04725565016 8.538467473e-39
0.08209129423 -0.1164291203 0.3048938513 8.538467473e-39
0.08798857033 -0.1811624467 0.2653236389 8.538467473e-39
0.1911891848 -0.271749258 0.1368638873 8.538467473e-39
0.1119219661 -0.4130962491 0.166312024 8.538467473e-39
0.2096519768 -0.2964974344 0.1741550267 8.538467473e-39
0.0912354961 -0.2277955115 0.2215444744 8.538467473e-39
0.2334342599 -0.2796820104 0.1902179122 8.722137064e-39
0.3619048595 -0.3116981387 -0.03368388116 8.722137064e-39
0.1547469795 -0.2819392085 0.1311230659 8.722137064e-39
0.4210163951 -0.2966589332 -0.0527960062 8.722137064e-39
0.2512415349 -0.2582435608 0.1290329248 8.722137064e-39
0.2338186055 -0.2871986032 0.1810411513 8.722137064e-39
0.221927464 -0.2956063151 0.1730097234 8.722137064e-39
0.1424714923 -0.2828302979 0.1322683543 8.722137064e-39
0.3732395172 -0.3092734814 -0.04611035436 8.906165387e-39
0.1789136827 -0.2726403773 0.1380091757 8.906165387e-39
0.187463522 -0.170988977 0.2770031989 8.906165387e-39
0.0841851756 -0.1405124366 0.2886449099 8.906165387e-39
0.2389660478 -0.25913468 0.130178228 8.906165387e-39
0.3496293426 -0.3125892282 -0.03253858536 8.906165387e-39
0.1997390687 -0.1700978577 0.2758578956 8.906165387e-39
0.1948981881 -0.2657886446 0.2007260621 8.906165387e-39
0.3974061608 -0.2999746799 -0.0392242372 9.089834978e-39
0.2120145708 -0.1692067385 0.2747125924 9.089834978e-39
0.1789914221 -0.2125300765 0.2548272312 9.089834978e-39
0.1956668943 -0.28082183 0.18237257 9.089834978e-39
0.2313403934 -0.2555987239 0.2064668834 9.089834978e-39
0.08247564733 -0.1239457354 0.29571715 9.089834978e-39
0.1666381359 -0.2735314965 0.1391544789 9.089834978e-39
0.1952825338 -0.2733052671 0.1915493608 9.089834978e-39
0.09315723926 -0.2653784752 0.1756608635 9.273863302e-39
0.4548081756 -0.2683687806 -0.05126411468 9.273863302e-39
0.09354159236 -0.2728950977 0.1664841473 9.273863302e-39
0.08991032094 -0.2187454104 0.2194400281 9.273863302e-39
0.3373537958 -0.3134803474 -0.03139328212 9.273863302e-39
0.1964355856 -0.2958550453 0.1640191674 9.273863302e-39
0.2503007054 -0.2567100525 0.1177517623 9.273863302e-39
0.09200419486 -0.2428287119 0.2031910568 9.273863302e-39
0.2144149989 -0.2609169185 0.1324688196 9.457532893e-39
0.1056449562 -0.2855036557 0.1357042491 9.457532893e-39
0.4429170489 -0.2767764926 -0.05929552764 9.457532893e-39
0.3851306736 -0.3008657992 -0.03807893395 9.457532893e-39
0.2317247391 -0.2631152868 0.1972901523 9.457532893e-39
0.1779728532 -0.271106869 0.1267280132 9.457532893e-39
0.0933694616 -0.2863947749 0.1368495524 9.457532893e-39
0.3964653313 -0.2984411716 -0.05050540715 9.457532893e-39
0.1755723655 -0.1793966889 0.2689717412 9.641561216e-39
0.1420871466 -0.275313735 0.1414450705 9.641561216e-39
0.3250783086 -0.3143714666 -0.03024798632 9.641561216e-39
0.1878478527 -0.1785055697 0.267826438 9.641561216e-39
0.08743210137 -0.1871455163 0.2448657453 9.641561216e-39
0.1931886524 -0.2492219508 0.2077983022 9.641561216e-39
0.3728551865 -0.3017569184 -0.03693363816 9.641561216e-39
0.2324934304 -0.2781485021 0.1789366901 9.641561216e-39
0.1898640096 -0.2626991272 0.1347594112 9.825230807e-39
0.1656973064 -0.2719979882 0.1278733164 9.825230807e-39
0.2054642141 -0.2483308315 0.2066530287 9.825230807e-39
0.3841898441 -0.2993322909 -0.04936011136 9.825230807e-39
0.2123989016 -0.1767233461 0.2655358315 9.825230807e-39
0.08285999298 -0.1314623207 0.2865404487 9.825230807e-39
0.1175361574 -0.2770959437 0.1437356621 9.825230807e-39
0.232877776 -0.2856650949 0.169759959 9.825230807e-39
0.08781644702 -0.1946620941 0.2356890291 1.000925913e-38
0.2134741694 -0.2593834102 0.1211876571 1.000925913e-38
0.2177397162 -0.2474397123 0.2055076957 1.000925913e-38
0.2332621366 -0.2931816876 0.1605832577 1.000925913e-38
0.3364129663 -0.3119468391 -0.04267445952 1.000925913e-38
0.09298511595 -0.2788781822 0.1460262686 1.000925913e-38
0.2621918619 -0.2483023554 0.1257831752 1.000925913e-38
0.3605796993 -0.3026480079 -0.03578834236 1.000925913e-38
0.1939573586 -0.2642551363 0.1894448698 1.019292872e-38
0.09067901224 -0.2337785959 0.2010865957 1.019292872e-38
0.1947260648 -0.2792883217 0.1710914075 1.019292872e-38
0.1534218043 -0.2728890777 0.1290186048 1.019292872e-38
0.08115046471 -0.1148956195 0.2936126888 1.019292872e-38
0.419691205 -0.2876088023 -0.05490047485 1.019292872e-38
0.09260076284 -0.2713615894 0.1552029848 1.019292872e-38
0.1951104105 -0.2868049145 0.1619147062 1.019292872e-38
0.1943417042 -0.2717717588 0.1802681088 1.037659831e-38
0.2303995639 -0.2540652156 0.1951856911 1.037659831e-38
0.1653129607 -0.2644813657 0.1370500177 1.037659831e-38
0.08495387435 -0.1555456221 0.2702914774 1.037659831e-38
0.09221640974 -0.2638449669 0.1643796861 1.037659831e-38
0.4425326884 -0.2692598999 -0.05011881888 1.037659831e-38
0.1889231801 -0.2611656189 0.1234782487 1.037659831e-38
0.3483041823 -0.3035391569 -0.03464304656 1.037659831e-38
0.3960809708 -0.2909245491 -0.0413286984 1.056062664e-38
0.2077703178 -0.2934304178 0.1515926719 1.056062664e-38
0.128870815 -0.2746713161 0.1313091964 1.056062664e-38
0.2253653109 -0.2509756982 0.1292190701 1.056062664e-38
0.2307839096 -0.2615817785 0.1860089898 1.056062664e-38
0.2612510324 -0.2467688471 0.1145019978 1.056062664e-38
0.4534829855 -0.2593186796 -0.05336857587 1.056062664e-38
0.3596388698 -0.3011144996 -0.04706951976 1.056062664e-38
0.08324434608 -0.1389789283 0.2773637176 1.074429623e-38
0.1742471904 -0.170346573 0.2668672502 1.074429623e-38
0.1165953279 -0.2755624354 0.1324544996 1.074429623e-38
0.09144771099 -0.2488117814 0.1827331632 1.074429623e-38
0.220045805 -0.2925392985 0.1504473686 1.074429623e-38
0.1865226924 -0.1694554687 0.2657219768 1.074429623e-38
0.0861069113 -0.1780954301 0.2427612841 1.074429623e-38
0.2041390389 -0.2392807305 0.2045485377 1.074429623e-38
0.1043197811 -0.2764535546 0.133599788 1.092796582e-38
0.1922478229 -0.2476884425 0.1965171397 1.092796582e-38
0.1987982392 -0.1685643494 0.2645766735 1.092796582e-38
0.3838054836 -0.2918156683 -0.0401834026 1.092796582e-38
0.2489755154 -0.2476599663 0.1156473011 1.092796582e-38
0.08649127185 -0.185612008 0.2335845679 1.092796582e-38
0.08153481781 -0.1224122271 0.2844359875 1.092796582e-38
0.2008143216 -0.2527579367 0.1315096617 1.092796582e-38
0.09204428643 -0.2773446739 0.1347450912 1.111163541e-38
0.216414541 -0.2383896112 0.2034032643 1.111163541e-38
0.1643721312 -0.2629478574 0.1257688403 1.111163541e-38
0.1926321834 -0.2552050352 0.1873404086 1.111163541e-38
0.4193068743 -0.2800922394 -0.04572375864 1.111163541e-38
0.103935428 -0.2689369321 0.1427765042 1.111163541e-38
0.1885388345 -0.253649056 0.13265495 1.111163541e-38
0.523651123 -0.133769691 0.1546853483 1.111163541e-38
0.08725996315 -0.2006451935 0.2152310908 1.1295305e-38
0.09165993333 -0.2698280811 0.1439218074 1.1295305e-38
0.1945539266 -0.2927880287 0.1414568126 1.1295305e-38
0.1937852353 -0.2777548134 0.159810245 1.1295305e-38
0.2290743738 -0.2450150847 0.1930812299 1.1295305e-38
0.07982528955 -0.1058455259 0.2915082276 1.1295305e-38
0.1763410568 -0.1944298893 0.2506183088 1.1295305e-38
0.3715299964 -0.2927067876 -0.0390381068 1.1295305e-38
0.1941695809 -0.2852714062 0.1506335139 1.147897319e-38
0.1520966291 -0.2638389766 0.1269141436 1.147897319e-38
0.1762633324 -0.2545401454 0.1338002533 1.147897319e-38
0.2068294883 -0.2918969095 0.1403115094 1.147897319e-38
0.08362869173 -0.1464955211 0.2681870162 1.147897319e-38
0.09127558023 -0.2623114586 0.1530985236 1.147897319e-38
0.08973818272 -0.2322450876 0.1898054183 1.147897319e-38
0.3828646541 -0.29028216 -0.05146458 1.147897319e-38
0.2313804775 -0.290114671 0.1380209029 1.166264278e-38
0.2191049755 -0.2910057902 0.1391662061 1.166264278e-38
0.1639877856 -0.2554312944 0.1349455565 1.166264278e-38
0.1998734921 -0.2512244284 0.1202284843 1.166264278e-38
0.08802866191 -0.2156784087 0.1968776733 1.166264278e-38
0.4302571714 -0.2701510191 -0.04897352308 1.166264278e-38
0.1991825849 -0.1760809422 0.2553999424 1.166264278e-38
0.2114580721 -0.1751898378 0.254254669 1.166264278e-38
0.1905383021 -0.2311217487 0.2035893798 1.184631237e-38
0.3592545092 -0.2935979068 -0.037892811 1.184631237e-38
0.2485911846 -0.2401433736 0.1248240024 1.184631237e-38
0.1875980049 -0.2521155477 0.1213737875 1.184631237e-38
0.2304396331 -0.2885811627 0.1267396808 1.184631237e-38
0.1275456399 -0.2656211853 0.1292047352 1.184631237e-38
0.1936130971 -0.2912545204 0.1301755905 1.184631237e-38
0.3228123188 -0.3037878573 -0.04363362491 1.184631237e-38
0.22984308 -0.2600482702 0.1747277677 1.202998196e-38
0.1909226477 -0.2386383414 0.1944126785 1.202998196e-38
0.2028138638 -0.2302306294 0.2024440765 1.202998196e-38
0.2363156974 -0.2410344929 0.1259693056 1.202998196e-38
0.3947558105 -0.2818744779 -0.04343315959 1.202998196e-38
0.08401303738 -0.1540121138 0.2590102553 1.202998196e-38
0.1271612942 -0.2581046224 0.1383814514 1.202998196e-38
0.08478173614 -0.1690452993 0.2406568229 1.202998196e-38
0.0802096352 -0.1133621112 0.2823314965 1.221365155e-38
0.08516608924 -0.1765619218 0.2314801067 1.221365155e-38
0.218164131 -0.2894722819 0.127884984 1.221365155e-38
0.4521578252 -0.2502685785 -0.05547303706 1.221365155e-38
0.1753225029 -0.2530066371 0.1225190759 1.221365155e-38
0.2306117713 -0.2750814855 0.1563743353 1.221365155e-38
0.08555044234 -0.1840784997 0.2223033905 1.221365155e-38
0.2599258423 -0.237718761 0.1123975366 1.221365155e-38
0.2150893509 -0.2293395102 0.2012988031 1.239732115e-38
0.1029945984 -0.2674034238 0.1314953268 1.239732115e-38
0.1913070083 -0.2461549342 0.1852359474 1.239732115e-38
0.3469789922 -0.2944890261 -0.0367475152 1.239732115e-38
0.2294988036 -0.2870476544 0.1154585108 1.239732115e-38
0.08593478054 -0.1915950775 0.2131266296 1.239732115e-38
0.227364853 -0.228448391 0.2001534998 1.239732115e-38
0.1026102528 -0.2598868608 0.140672043 1.239732115e-38
0.1630469561 -0.2538977861 0.1236643791 1.258099074e-38
0.1928444058 -0.2762213051 0.1485290527 1.258099074e-38
0.2049478143 -0.2888298929 0.1177491024 1.258099074e-38
0.2476503551 -0.2386098653 0.1135428399 1.258099074e-38
0.08631913364 -0.1991116852 0.2039499134 1.258099074e-38
0.1920756996 -0.2611881196 0.1668824852 1.258099074e-38
0.1750158966 -0.1853797734 0.2485138476 1.258099074e-38
0.3347034454 -0.2953801155 -0.03560221195 1.258099074e-38
0.3824803233 -0.2827655673 -0.04228786379 1.276466033e-38
0.1924600452 -0.2687047422 0.1577057838 1.276466033e-38
0.08230351657 -0.13744542 0.2660825551 1.276466033e-38
0.216282472 -0.2864052653 0.1053226218 1.276466033e-38
0.08670347929 -0.2066282779 0.1947731972 1.276466033e-38
0.2285579741 -0.2855141461 0.1041773334 1.276466033e-38
0.1872136593 -0.2445989549 0.1305504888 1.276466033e-38
0.08995040506 -0.2532613873 0.1509940624 1.276466033e-38
0.3224279583 -0.2962712646 -0.03445691615 1.294832852e-38
0.08879735321 -0.2307115793 0.1785242409 1.294832852e-38
0.2230993062 -0.2403921038 0.1158334315 1.294832852e-38
0.191731438 -0.2881875038 0.1076132283 1.294832852e-38
0.1733063608 -0.1688130647 0.2555860877 1.294832852e-38
0.2101328969 -0.1661397219 0.2521502078 1.294832852e-38
0.1855818629 -0.1679219604 0.2544407845 1.294832852e-38
0.1749381572 -0.2454900593 0.1316957921 1.294832852e-38
0.2285179049 -0.250998199 0.1726233065 1.313163938e-38
0.210823819 -0.2412832081 0.1169787347 1.313163938e-38
0.1384959519 -0.2556799948 0.1259549707 1.313163938e-38
0.3702048361 -0.2836566865 -0.04114256799 1.313163938e-38
0.1895974874 -0.2295882404 0.1923082173 1.313163938e-38
0.4991000891 -0.1355519295 0.156975925 1.313163938e-38
0.08708783239 -0.2141449004 0.1855964959 1.313163938e-38
0.2296709418 -0.2735479772 0.1450931728 1.313163938e-38
0.5213850737 -0.1231860891 0.1412996948 1.331530897e-38
0.2014886737 -0.2211804986 0.2003396153 1.331530897e-38
0.08956605196 -0.2457447648 0.1601707637 1.331530897e-38
0.2291144431 -0.2795310616 0.1246352121 1.331530897e-38
0.4170408547 -0.2695086002 -0.05910939723 1.331530897e-38
0.2595415115 -0.2302021533 0.1215742528 1.331530897e-38
0.4289319813 -0.2611009181 -0.05107798427 1.331530897e-38
0.1626626104 -0.2463811785 0.1328410953 1.331530897e-38
0.07888446003 -0.1043120176 0.2802270353 1.349897856e-38
0.3337626159 -0.2938466072 -0.0468833819 1.349897856e-38
0.1899818182 -0.2371048331 0.1831314862 1.349897856e-38
0.08422525972 -0.1750284135 0.2201989293 1.349897856e-38
0.2289022505 -0.2585147619 0.1634465754 1.349897856e-38
0.2137641758 -0.2202894092 0.1991943121 1.349897856e-38
0.08345656097 -0.1599952132 0.2385523617 1.349897856e-38
0.08384091407 -0.167511791 0.2293756455 1.349897856e-38
0.192287907 -0.2822043896 0.1280710995 1.368228942e-38
0.1862728298 -0.2430654466 0.1192693263 1.368228942e-38
0.1258361191 -0.2490545213 0.1362769902 1.368228942e-38
0.439882338 -0.2511596978 -0.05432774127 1.368228942e-38
0.1903661638 -0.2446214259 0.1739547253 1.368228942e-38
0.08499395102 -0.1900615692 0.2018454522 1.368228942e-38
0.1907505095 -0.2521380186 0.164778024 1.368228942e-38
0.113560617 -0.2499456406 0.1374222785 1.368228942e-38
0.2281736135 -0.2779975533 0.1133540496 1.386595901e-38
0.3692640066 -0.2821231782 -0.05242373794 1.386595901e-38
0.08900957555 -0.251727879 0.139712885 1.386595901e-38
0.4508326352 -0.2412184775 -0.05757750571 1.386595901e-38
0.3934306204 -0.272824347 -0.04553762823 1.386595901e-38
0.2264240235 -0.2269149125 0.1888723075 1.386595901e-38
0.2227149457 -0.2328754961 0.1250101477 1.386595901e-38
0.1739973277 -0.243956551 0.1204146147 1.386595901e-38
0.08747217804 -0.2216614783 0.1764197797 1.404926846e-38
0.08537830412 -0.1975781769 0.1926687509 1.404926846e-38
0.2105172426 -0.1736563295 0.2429734766 1.404926846e-38
0.1981639564 -0.2346577197 0.1273007393 1.404926846e-38
0.4389415085 -0.2496261895 -0.06560891867 1.404926846e-38
0.2271927148 -0.2419480681 0.1705188453 1.404926846e-38
0.246325165 -0.2295597494 0.1114383638 1.404926846e-38
0.227232784 -0.276464045 0.1020728722 1.404926846e-38
0.4981592894 -0.1340184212 0.1456947625 1.423293806e-38
0.2149572968 -0.2773551345 0.1032181606 1.423293806e-38
0.1858884692 -0.235548839 0.1284460276 1.423293806e-38
0.08576264977 -0.2050947696 0.1834920347 1.423293806e-38
0.08785652369 -0.229178071 0.1672430187 1.423293806e-38
0.08862522244 -0.2442112565 0.1488895863 1.423293806e-38
0.3924897909 -0.2712908387 -0.05681879818 1.423293806e-38
0.4745490551 -0.1373341531 0.1592665315 1.423293806e-38
0.1886566579 -0.2280547321 0.181027025 1.441624891e-38
0.07755928487 -0.09526191652 0.2781226039 1.441624891e-38
0.2217741162 -0.2313419878 0.1137289703 1.441624891e-38
0.2001634985 -0.2121304274 0.1982351542 1.441624891e-38
0.08824087679 -0.2366946787 0.1580663025 1.441624891e-38
0.1371707767 -0.2466299087 0.1238505095 1.441624891e-38
0.227961421 -0.2569812536 0.1521654129 1.441624891e-38
0.1909627318 -0.2731542885 0.1259666681 1.441624891e-38
0.1890409887 -0.2355713248 0.1718502641 1.459991851e-38
0.4276068211 -0.252050817 -0.05318243802 1.459991851e-38
0.209498629 -0.2322330922 0.1148742586 1.459991851e-38
0.08614700288 -0.2126113921 0.1743153185 1.459991851e-38
0.1126197875 -0.2484121323 0.126141116 1.459991851e-38
0.2124390006 -0.2112393081 0.1970898509 1.459991851e-38
0.2582163215 -0.2211520523 0.1194697917 1.459991851e-38
0.08290008456 -0.1659782827 0.2180944681 1.459991851e-38
0.1613374203 -0.2373310626 0.1307366341 1.478322936e-38
0.321102798 -0.2872211337 -0.03656137735 1.478322936e-38
0.3447130024 -0.2839054167 -0.05013314635 1.478322936e-38
0.1003442407 -0.2493032515 0.1272864193 1.478322936e-38
0.0813626796 -0.1359119117 0.254801333 1.478322936e-38
0.485499382 -0.1273929477 0.156016767 1.478322936e-38
0.4157156646 -0.260458529 -0.06121385843 1.478322936e-38
0.0821313858 -0.1509450972 0.2364479005 1.478322936e-38
0.08174702525 -0.1434285045 0.2456246018 1.496689755e-38
0.3688796461 -0.2746065855 -0.04324702919 1.496689755e-38
0.2247144878 -0.2103481889 0.1959445775 1.496689755e-38
0.18980968 -0.2506045103 0.1534968317 1.496689755e-38
0.3802143037 -0.272181958 -0.05567350239 1.496689755e-38
0.1901940405 -0.258121103 0.1443201303 1.496689755e-38
0.1849476397 -0.2340153307 0.1171648502 1.496689755e-38
0.2250988483 -0.2178647816 0.1867678463 1.496689755e-38
0.2459408343 -0.2220431715 0.12061508 1.515020841e-38
0.1905783862 -0.2656377256 0.135143429 1.515020841e-38
0.438557148 -0.2421095818 -0.05643220991 1.515020841e-38
0.07965315878 -0.1193452179 0.2618736327 1.515020841e-38
0.225483194 -0.2253814042 0.177591145 1.515020841e-38
0.3324374557 -0.284796536 -0.0489878431 1.515020841e-38
0.2091920674 -0.1646062136 0.2408690155 1.515020841e-38
0.1122354418 -0.2408955246 0.1353178173 1.515020841e-38
0.1846410334 -0.1663884521 0.243159622 1.533351927e-38
0.08768439293 -0.2426777482 0.1376084089 1.533351927e-38
0.2274049371 -0.2629643679 0.1317075193 1.533351927e-38
0.508168757 -0.1225436926 0.1311638355 1.533351927e-38
0.08443747461 -0.1960446835 0.1813875735 1.533351927e-38
0.3566041589 -0.2754976749 -0.04210173339 1.533351927e-38
0.2258675396 -0.2328979671 0.1684143841 1.533351927e-38
0.1900219023 -0.2716207802 0.1146854833 1.533351927e-38
0.2213897705 -0.2238253951 0.1229056865 1.551683013e-38
0.3679388165 -0.2730730772 -0.05452820659 1.551683013e-38
0.2136321217 -0.2683050632 0.1011136994 1.551683013e-38
0.4736082554 -0.1358006448 0.147985369 1.551683013e-38
0.473223865 -0.128284052 0.1571620703 1.551683013e-38
0.2262518853 -0.2404145598 0.159237653 1.551683013e-38
0.1603965908 -0.2357975543 0.1194554567 1.551683013e-38
0.2013566196 -0.2691961527 0.1022590026 1.551683013e-38
0.2450000048 -0.2205096632 0.1093339026 1.570049832e-38
0.1968387812 -0.2256076187 0.1251962781 1.570049832e-38
0.1890810728 -0.2700872719 0.1034043059 1.570049832e-38
0.2270205915 -0.2554477453 0.1408842504 1.570049832e-38
0.08482182026 -0.2035612613 0.1722108573 1.570049832e-38
0.4485666156 -0.2306348681 -0.07096313685 1.570049832e-38
0.2266362458 -0.2479311824 0.1500609517 1.570049832e-38
0.1845632941 -0.2264987379 0.1263415664 1.570049832e-38
0.2264640927 -0.2614308596 0.1204263046 1.588380918e-38
0.3443286419 -0.276388824 -0.04095643759 1.588380918e-38
0.172287792 -0.2273898572 0.1274868697 1.588380918e-38
0.4845585227 -0.1258594394 0.1447356045 1.588380918e-38
0.3556633294 -0.2739641666 -0.05338291079 1.588380918e-38
0.1988383234 -0.2030802965 0.196130693 1.588380918e-38
0.2568911314 -0.2121019363 0.1173653156 1.588380918e-38
0.08157490194 -0.1569281965 0.2159900069 1.588380918e-38
0.49589324 -0.1234348118 0.132309109 1.606712004e-38
0.3911646008 -0.2622407377 -0.05892325938 1.606712004e-38
0.209576413 -0.1721228212 0.2316923141 1.606712004e-38
0.2111138254 -0.2021891922 0.1949853897 1.606712004e-38
0.1850253642 -0.1739050448 0.2339829206 1.606712004e-38
0.08119055629 -0.1494115889 0.2251667231 1.606712004e-38
0.426281631 -0.2430006862 -0.05528690666 1.606712004e-38
0.08080619574 -0.1418949962 0.2343434393 1.606712004e-38
0.220448941 -0.2222918868 0.1116245091 1.625043089e-38
0.3320530951 -0.2772799134 -0.03981113434 1.625043089e-38
0.4143905044 -0.251408428 -0.06331831962 1.625043089e-38
0.1358456016 -0.2375797778 0.1217460483 1.625043089e-38
0.08674356341 -0.2411442399 0.1263272464 1.625043089e-38
0.2237736583 -0.2088146806 0.1846633852 1.625043089e-38
0.09901905805 -0.2402531356 0.1251819432 1.625043089e-38
0.1112946123 -0.2393620163 0.1240366399 1.625043089e-38
0.226079762 -0.253914237 0.1296030581 1.643374035e-38
0.1235700995 -0.2384708971 0.1228913516 1.643374035e-38
0.1477367431 -0.2291720808 0.1297774613 1.643374035e-38
0.2081734538 -0.223183006 0.1127697974 1.643374035e-38
0.08311229199 -0.1869945526 0.1792830974 1.643374035e-38
0.2241580188 -0.2163312733 0.1754866838 1.643374035e-38
0.3433878124 -0.2748553157 -0.05223761499 1.643374035e-38
0.1958979517 -0.2240741104 0.1139151007 1.643374035e-38
0.367554456 -0.2655564845 -0.04535149038 1.661705121e-38
0.1354612559 -0.2300632 0.1309227645 1.661705121e-38
0.4372319579 -0.2330594957 -0.05853666365 1.661705121e-38
0.4030558467 -0.2538330555 -0.05089184642 1.661705121e-38
0.1109102666 -0.2318454236 0.1332133561 1.661705121e-38
0.4722830653 -0.1267505437 0.1458809078 1.661705121e-38
0.3788891137 -0.2631318569 -0.05777796358 1.661705121e-38
0.0986347124 -0.2327365428 0.1343586594 1.661705121e-38
0.2245423645 -0.2238478661 0.1663099229 1.680036207e-38
0.2559503019 -0.210568428 0.1060841382 1.680036207e-38
0.08635921776 -0.2336276621 0.1355039477 1.680036207e-38
0.1836224645 -0.2249652296 0.115060389 1.680036207e-38
0.08559051901 -0.2185944617 0.1538573802 1.680036207e-38
0.08597486466 -0.2261110544 0.1446806639 1.680036207e-38
0.07661845535 -0.09372841567 0.2668414116 1.680036207e-38
0.2200645953 -0.2147752792 0.1208012104 1.680036207e-38
0.08349664509 -0.1945111752 0.1701063961 1.698367293e-38
0.2253110558 -0.2388810515 0.1479564905 1.698367293e-38
0.2123069465 -0.2592549622 0.09900923818 1.698367293e-38
0.483617723 -0.1243259311 0.1334544122 1.698367293e-38
0.2251389176 -0.2523807287 0.1183218285 1.698367293e-38
0.3311122656 -0.2757464051 -0.05109231174 1.698367293e-38
0.2000314444 -0.2601460814 0.1001545414 1.698367293e-38
0.2436748147 -0.2114595324 0.1072294414 1.698367293e-38
0.1883123815 -0.2550540864 0.1217577234 1.716698239e-38
0.3552789688 -0.2664476037 -0.04420619458 1.716698239e-38
0.4949524403 -0.1219012961 0.1210278943 1.716698239e-38
0.1860062927 -0.20995453 0.1768181026 1.716698239e-38
0.3907802701 -0.2547241449 -0.04974654317 1.716698239e-38
0.187928021 -0.2475374937 0.1309345067 1.716698239e-38
0.1863906384 -0.2174710929 0.1676413417 1.716698239e-38
0.1832381189 -0.217448622 0.1242371053 1.716698239e-38
0.3666136265 -0.2640229762 -0.05663266778 1.735029324e-38
0.2555659711 -0.2030518353 0.1152608544 1.735029324e-38
0.1852375865 -0.1949213296 0.195171535 1.735029324e-38
0.1709626168 -0.2183397412 0.1253824085 1.735029324e-38
0.08388099074 -0.202027753 0.1609296203 1.735029324e-38
0.07871232182 -0.1178117022 0.2505924106 1.735029324e-38
0.2313993275 -0.2123506516 0.1083747447 1.735029324e-38
0.15868707 -0.2192308456 0.1265277117 1.735029324e-38
0.2247545868 -0.2448641658 0.1274985969 1.75336041e-38
0.1467959136 -0.2276385725 0.1184962988 1.75336041e-38
0.2082512379 -0.1630727053 0.229587853 1.75336041e-38
0.1714247018 -0.1657460481 0.2330237329 1.75336041e-38
0.1971287876 -0.1865136325 0.2032029331 1.75336041e-38
0.08024972677 -0.1478780806 0.2138855457 1.75336041e-38
0.1959757507 -0.1639638245 0.2307331562 1.75336041e-38
0.08140276372 -0.1704278886 0.1863553524 1.75336041e-38
0.2432904541 -0.2039429545 0.1164061576 1.771655483e-38
0.3430034518 -0.2673386931 -0.04306089878 1.771655483e-38
0.07986537367 -0.1403614879 0.2230622619 1.771655483e-38
0.2097886354 -0.193139106 0.1928809285 1.771655483e-38
0.1218605787 -0.2219041884 0.1299635917 1.771655483e-38
0.09730952978 -0.2236864269 0.1322541982 1.771655483e-38
0.077002801 -0.101245001 0.2576647103 1.771655483e-38
0.3785047829 -0.2556152642 -0.04860124737 1.771655483e-38
0.2191237658 -0.2132417709 0.1095200479 1.789986569e-38
0.1345204264 -0.2285296917 0.1196415871 1.789986569e-38
0.224198088 -0.2508472204 0.1070406511 1.789986569e-38
0.4249564409 -0.2339506 -0.05739136785 1.789986569e-38
0.2243702263 -0.2373475432 0.1366752982 1.789986569e-38
0.08503403515 -0.2245775461 0.1333994865 1.789986569e-38
0.4130653143 -0.2423582971 -0.06542278826 1.789986569e-38
0.07909666747 -0.1253282875 0.2414156795 1.789986569e-38
0.1341360658 -0.2210130841 0.1288183033 1.808317654e-38
0.08541838825 -0.2320941538 0.1242227852 1.808317654e-38
0.2220641375 -0.1922479868 0.1917356253 1.808317654e-38
0.09769388288 -0.2312030345 0.123077482 1.808317654e-38
0.3898394406 -0.2531906366 -0.06102772057 1.808317654e-38
0.0846496895 -0.2170609534 0.1425762028 1.808317654e-38
0.2546251416 -0.201518327 0.1039796919 1.808317654e-38
0.2228328288 -0.2072811723 0.1733822227 1.808317654e-38
0.2068482786 -0.2141328901 0.1106653363 1.826612727e-38
0.330727905 -0.2682298422 -0.04191559553 1.826612727e-38
0.4826768637 -0.1227924153 0.1221731976 1.826612727e-38
0.2232171893 -0.214797765 0.1642054617 1.826612727e-38
0.08217146248 -0.1854610443 0.1680019349 1.826612727e-38
0.2238137424 -0.2433306575 0.1162173674 1.826612727e-38
0.4359067976 -0.2240093648 -0.0606411323 1.826612727e-38
0.4940115809 -0.1203677952 0.1097467169 1.826612727e-38
0.223601535 -0.2223143578 0.1550287306 1.844943813e-38
0.4240156114 -0.2324170917 -0.06867254525 1.844943813e-38
0.4822925329 -0.11527583 0.131349951 1.844943813e-38
0.1869871914 -0.2460039854 0.1196532622 1.844943813e-38
0.206463933 -0.2066162974 0.1198420525 1.844943813e-38
0.4936272502 -0.1128512025 0.1189234331 1.844943813e-38
0.3662292957 -0.2565063834 -0.04745595157 1.844943813e-38
0.1822972894 -0.2159151137 0.1129559278 1.844943813e-38
0.2423496246 -0.2024094462 0.1051249802 1.863274899e-38
0.2109817564 -0.2502048314 0.09690477699 1.863274899e-38
0.3420626223 -0.2658051848 -0.05434207618 1.863274899e-38
0.3184524179 -0.2691209316 -0.04077029973 1.863274899e-38
0.3775639534 -0.2540817559 -0.05988242477 1.863274899e-38
0.1941884309 -0.2075074166 0.1209873557 1.863274899e-38
0.1866028458 -0.2384873927 0.1288300157 1.863274899e-38
0.1864307225 -0.2519870698 0.09919538349 1.863274899e-38
0.4468570948 -0.2140681595 -0.06389088929 1.881569971e-38
0.2234293967 -0.2358140349 0.1253941357 1.881569971e-38
0.4349659681 -0.2224758565 -0.0719223097 1.881569971e-38
0.08255581558 -0.1929776669 0.158825174 1.881569971e-38
0.1577462405 -0.2176973373 0.1152465343 1.881569971e-38
0.1846811175 -0.2009043992 0.1747136414 1.881569971e-38
0.1850654483 -0.2084210217 0.1655368805 1.881569971e-38
0.1854498088 -0.2159375846 0.1563601792 1.881569971e-38
0.0773871392 -0.1087615788 0.2484879345 1.899901057e-38
0.1696374416 -0.2092896402 0.1232779473 1.899901057e-38
0.2419652939 -0.1948928535 0.1143016964 1.899901057e-38
0.3539538085 -0.2573975027 -0.04631065577 1.899901057e-38
0.1082599014 -0.2137452066 0.1290044338 1.899901057e-38
0.1839124113 -0.1858712286 0.1930670738 1.899901057e-38
0.4459162652 -0.2125346512 -0.07517206669 1.899901057e-38
0.08409320563 -0.2230440378 0.122118324 1.899901057e-38
0.1573618948 -0.2101807594 0.1244232506 1.91819627e-38
0.09636870027 -0.2221529186 0.1209730208 1.91819627e-38
0.4126809537 -0.2348417044 -0.05624607205 1.91819627e-38
0.1086442471 -0.2212617993 0.1198277175 1.91819627e-38
0.2230450511 -0.2282974422 0.134570837 1.91819627e-38
0.08332451433 -0.2080108672 0.1404717416 1.91819627e-38
0.4007898271 -0.2432494164 -0.06427749246 1.91819627e-38
0.3652884662 -0.2549728751 -0.05873712897 1.91819627e-38
0.1450863928 -0.2110718638 0.1255685389 1.936527215e-38
0.1328108907 -0.211962983 0.1267138422 1.936527215e-38
0.08007758856 -0.1613777578 0.1842508912 1.936527215e-38
0.1958036125 -0.1774635017 0.2010984719 1.936527215e-38
0.4813517332 -0.1137423217 0.1200687364 1.936527215e-38
0.3175115883 -0.2675874233 -0.05205147713 1.936527215e-38
0.0785401985 -0.1313113868 0.2209578007 1.936527215e-38
0.2080791146 -0.1765723825 0.1999531984 1.936527215e-38
0.4926864505 -0.1113176942 0.1076422557 1.954822428e-38
0.2211233079 -0.1907144785 0.1804544628 1.954822428e-38
0.2219320834 -0.2402636409 0.09365502745 1.954822428e-38
0.4117401242 -0.2333081961 -0.06752724946 1.954822428e-38
0.08084628731 -0.1764109582 0.1658974737 1.954822428e-38
0.0781558454 -0.1237947792 0.2301345021 1.954822428e-38
0.2215076536 -0.1982310563 0.1712777615 1.954822428e-38
0.2174142301 -0.196675092 0.1165923029 1.954822428e-38
0.2207389623 -0.1831978858 0.1896311939 1.973153514e-38
0.1973810941 -0.2420458496 0.09594561905 1.973153514e-38
0.3771795928 -0.2465651631 -0.05070571601 1.973153514e-38
0.2222763598 -0.2132642567 0.1529242694 1.973153514e-38
0.1932476014 -0.2059739083 0.1097061783 1.973153514e-38
0.353012979 -0.2558639944 -0.05759183317 1.973153514e-38
0.1851055324 -0.2429369688 0.0970909223 1.973153514e-38
0.08123063296 -0.183927536 0.1567206979 1.973153514e-38
0.2221042216 -0.2267639339 0.1232896671 1.991448586e-38
0.1809721142 -0.2068650275 0.1108514667 1.991448586e-38
0.3294027448 -0.2591797411 -0.04402005672 1.991448586e-38
0.2287489623 -0.1942504644 0.1041658223 1.991448586e-38
0.1805877537 -0.1993484348 0.1200281829 1.991448586e-38
0.1686966121 -0.2077561319 0.1119967699 1.991448586e-38
0.2215477228 -0.2327470183 0.1028317288 1.991448586e-38
0.1069347262 -0.2046951205 0.1268999726 1.991448586e-38
0.4336407781 -0.2134257704 -0.07402677089 2.009743799e-38
0.444591105 -0.203484565 -0.07727652788 2.009743799e-38
0.184893325 -0.2219206989 0.1359022856 2.009743799e-38
0.1192102134 -0.2038040012 0.1257546693 2.009743799e-38
0.4004054666 -0.2357328236 -0.05510077626 2.009743799e-38
0.08276803046 -0.2139939368 0.1200138628 2.009743799e-38
0.3649041057 -0.2474562675 -0.04956042022 2.009743799e-38
0.0950435251 -0.2131028175 0.1188685596 2.009743799e-38
0.340737462 -0.2567551136 -0.05644653738 2.028074885e-38
0.1073190719 -0.2122116983 0.1177232563 2.028074885e-38
0.1845089793 -0.2144040763 0.1450789869 2.028074885e-38
0.1560367048 -0.2011306733 0.1223187894 2.028074885e-38
0.3762387633 -0.2450316548 -0.06198688596 2.028074885e-38
0.1841246188 -0.2068875134 0.154255718 2.028074885e-38
0.1833559275 -0.191854313 0.1726091802 2.028074885e-38
0.2164734006 -0.1951415837 0.1053111255 2.028074885e-38
0.1318700612 -0.2104294747 0.1154326648 2.046369957e-38
0.1847211868 -0.2354203761 0.1062676236 2.046369957e-38
0.119594574 -0.211320594 0.116577968 2.046369957e-38
0.1437612027 -0.2020217776 0.1234640777 2.046369957e-38
0.4113557935 -0.2257916033 -0.0583505407 2.046369957e-38
0.1825872362 -0.1768211126 0.1909626126 2.046369957e-38
0.399464637 -0.2341993153 -0.06638195366 2.046369957e-38
0.2160890549 -0.1876249611 0.1144878268 2.046369957e-38
0.2041979134 -0.1960327029 0.1064564139 2.06466517e-38
0.3526286185 -0.2483473867 -0.04841512442 2.06466517e-38
0.07836806029 -0.144811064 0.1913231462 2.06466517e-38
0.07798370719 -0.1372944713 0.2004998624 2.06466517e-38
0.1822028756 -0.1693045199 0.2001393139 2.06466517e-38
0.07875240594 -0.1523276716 0.18214643 2.06466517e-38
0.196055904 -0.2329957485 0.09384115785 2.06466517e-38
0.4223060906 -0.215850383 -0.06160029024 2.06466517e-38
0.38812989 -0.2366239429 -0.05395547301 2.082996116e-38
0.07759936899 -0.1297778785 0.2096766233 2.082996116e-38
0.1944784373 -0.1684134007 0.1989940107 2.082996116e-38
0.2213355303 -0.2117307484 0.1416431069 2.082996116e-38
0.3639632761 -0.2459227592 -0.06084159017 2.082996116e-38
0.4442067444 -0.1959679425 -0.06809981167 2.082996116e-38
0.07952110469 -0.167360872 0.1637930125 2.082996116e-38
0.2201824784 -0.1891809702 0.1691733003 2.082996116e-38
0.1843368411 -0.2279037833 0.1154443398 2.101291328e-38
0.2197981328 -0.1816643775 0.1783500016 2.101291328e-38
0.410414964 -0.224258095 -0.06963171065 2.101291328e-38
0.08028980345 -0.1823940277 0.1454395205 2.101291328e-38
0.07683067024 -0.1147446856 0.2280300409 2.101291328e-38
0.07644630969 -0.1072280779 0.2372067571 2.101291328e-38
0.08067415655 -0.1899106503 0.1362628192 2.101291328e-38
0.3161864281 -0.2585373521 -0.05415593833 2.101291328e-38
0.1915380657 -0.1894071996 0.1167784184 2.119586541e-38
0.0810585022 -0.1974272281 0.127086103 2.119586541e-38
0.2190294266 -0.1666311771 0.196703434 2.119586541e-38
0.2274237871 -0.1852003485 0.1020613462 2.119586541e-38
0.1796469241 -0.1978149265 0.1087470055 2.119586541e-38
0.4323156178 -0.2043756843 -0.07613123208 2.119586541e-38
0.1792625785 -0.1902983189 0.1179237217 2.119586541e-38
0.2207790464 -0.2177138627 0.1211852059 2.119586541e-38
0.09371834993 -0.2040527314 0.1167640984 2.137881613e-38
0.3403531015 -0.2492384911 -0.04726982862 2.137881613e-38
0.1839524955 -0.2203871906 0.1246211156 2.137881613e-38
0.1178850383 -0.1947538853 0.1236502081 2.137881613e-38
0.1059939042 -0.2031616122 0.1156187952 2.137881613e-38
0.3758544028 -0.2375150621 -0.05281017721 2.137881613e-38
0.351687789 -0.2468138784 -0.05969629437 2.137881613e-38
0.3871890604 -0.2350904346 -0.06523665041 2.137881613e-38
0.1301605403 -0.193862766 0.1225049198 2.156176826e-38
0.1424360275 -0.1929716617 0.1213596165 2.156176826e-38
0.1835681498 -0.2128705978 0.1337978244 2.156176826e-38
0.2506496012 -0.1743680239 0.09766629338 2.156176826e-38
0.07473678887 -0.09066139162 0.2442790121 2.156176826e-38
0.3280775547 -0.2501296103 -0.04612452537 2.156176826e-38
0.1833960116 -0.226370275 0.1041631624 2.156176826e-38
0.3990803063 -0.2266827077 -0.0572052449 2.156176826e-38
0.182415098 -0.1903208047 0.1613279581 2.174471899e-38
0.2502652407 -0.1668514162 0.1068430096 2.174471899e-38
0.2147638798 -0.178574875 0.1123833656 2.174471899e-38
0.4100306034 -0.2167415023 -0.06045499444 2.174471899e-38
0.4209809303 -0.2068002969 -0.06370475143 2.174471899e-38
0.238374114 -0.1752591431 0.09881159663 2.174471899e-38
0.2192817181 -0.222163409 0.08944609016 2.174471899e-38
0.207006231 -0.2230545282 0.09059139341 2.174471899e-38
0.219838202 -0.2161803246 0.1099039838 2.192767111e-38
0.2024883926 -0.1794659942 0.1135286689 2.192767111e-38
0.1947307289 -0.2239456475 0.09173669666 2.192767111e-38
0.07896462828 -0.1733439416 0.1433350593 2.192767111e-38
0.08011767268 -0.1958937198 0.1158049256 2.192767111e-38
0.09200882167 -0.1874860227 0.1238363534 2.192767111e-38
0.2379897535 -0.1677425206 0.1079883128 2.192767111e-38
0.09239316732 -0.1950026155 0.1146596372 2.192767111e-38
0.1830116659 -0.2188536823 0.1133398786 2.211062324e-38
0.2200103402 -0.2026806474 0.1395386457 2.211062324e-38
0.07858027518 -0.1658273637 0.1525117755 2.211062324e-38
0.4090897739 -0.215207994 -0.07173617184 2.211062324e-38
0.1902128905 -0.1803570986 0.1146739572 2.211062324e-38
0.4419407248 -0.185384348 -0.08148545027 2.211062324e-38
0.07781157643 -0.1507941633 0.1708652526 2.211062324e-38
0.3271367252 -0.248596102 -0.05740569532 2.211062324e-38
0.178321749 -0.1887648106 0.1066425443 2.229357396e-38
0.07819592953 -0.1583107412 0.1616885364 2.229357396e-38
0.2192416489 -0.1876474619 0.1578920484 2.229357396e-38
0.07627418637 -0.12072777 0.2075721622 2.229357396e-38
0.2188573033 -0.1801308692 0.1670688391 2.229357396e-38
0.1808777004 -0.1602544188 0.1980348527 2.229357396e-38
0.1779374033 -0.1812482178 0.1158192605 2.229357396e-38
0.2054287493 -0.1584721804 0.1957442462 2.229357396e-38
0.2257142663 -0.1686336398 0.1091336012 2.247652609e-38
0.1660462469 -0.1896559149 0.1077878475 2.247652609e-38
0.2138230503 -0.1770413667 0.1011021882 2.247652609e-38
0.07550548017 -0.1056945696 0.2259255797 2.247652609e-38
0.2194538713 -0.2086637318 0.1190807447 2.247652609e-38
0.1288353503 -0.1848126799 0.1204004586 2.247652609e-38
0.1656619012 -0.1821393371 0.1169645637 2.247652609e-38
0.07512113452 -0.09817798436 0.2351022959 2.247652609e-38
0.3868047297 -0.2275738269 -0.05605994165 2.265947681e-38
0.1537707001 -0.1905470341 0.1089331508 2.265947681e-38
0.1533863544 -0.1830304563 0.1181098521 2.265947681e-38
0.1169442087 -0.193220377 0.1123690307 2.265947681e-38
0.1292197108 -0.1923292577 0.1112237424 2.265947681e-38
0.141495198 -0.1914381534 0.1100784391 2.265947681e-38
0.2489400804 -0.1578013152 0.1047385484 2.265947681e-38
0.2134387046 -0.1695247591 0.1102789044 2.265947681e-38
0.2015475631 -0.1779324859 0.1022474915 2.284242894e-38
0.1822429597 -0.2038204968 0.1316933632 2.284242894e-38
0.3977551162 -0.2176326215 -0.05930969864 2.284242894e-38
0.4196557403 -0.197750181 -0.06580922008 2.284242894e-38
0.4306060672 -0.1878089607 -0.06905897707 2.284242894e-38
0.3390279114 -0.2401884049 -0.04937428236 2.284242894e-38
0.07802379876 -0.1718104333 0.1320538968 2.284242894e-38
0.2366645634 -0.1586924344 0.1058838516 2.284242894e-38
0.1814742684 -0.1887872964 0.1500467956 2.302537966e-38
0.3503625989 -0.2377637774 -0.06180075556 2.302537966e-38
0.3745292425 -0.2284649312 -0.0549146384 2.302537966e-38
0.189272061 -0.1788235903 0.1033927947 2.302537966e-38
0.07763944566 -0.1642938554 0.1412305981 2.302537966e-38
0.2185130268 -0.2071302235 0.1077995226 2.302537966e-38
0.1029591933 -0.1775447875 0.1205865741 2.302537966e-38
0.09106799215 -0.1859525144 0.112555176 2.302537966e-38
0.217956543 -0.213113308 0.08734162897 2.320833179e-38
0.2056810409 -0.2140044272 0.08848693222 2.320833179e-38
0.4187149107 -0.1962166727 -0.07709039748 2.320833179e-38
0.4296652377 -0.1862754673 -0.08034015447 2.320833179e-38
0.1811300069 -0.2157866657 0.09077753872 2.320833179e-38
0.3267523646 -0.2410795093 -0.04822897911 2.320833179e-38
0.4406155646 -0.1763342321 -0.08358991891 2.320833179e-38
0.1033435464 -0.1850613952 0.1114098728 2.320833179e-38
0.1807055771 -0.173754096 0.1684002578 2.339092378e-38
0.07725510001 -0.1567772329 0.1504073143 2.339092378e-38
0.1275101751 -0.1757625639 0.1182959825 2.339092378e-38
0.2124978751 -0.1679912508 0.09899772704 2.339092378e-38
0.3380870819 -0.2386548966 -0.06065545976 2.339092378e-38
0.1803212166 -0.1662375033 0.1775769591 2.339092378e-38
0.1647210717 -0.1806058288 0.1056833863 2.339092378e-38
0.3622537553 -0.2293560505 -0.0537693426 2.339092378e-38
0.373588413 -0.2269314229 -0.0661958158 2.348204041e-38
0.1643367261 -0.1730892062 0.1148600876 2.348204041e-38
0.2179164737 -0.1785973608 0.1557875872 2.348204041e-38
0.07687074691 -0.149260655 0.1595840752 2.348204041e-38
0.1524455249 -0.181496948 0.1068286896 2.348204041e-38
0.07610204816 -0.1342274547 0.1779375076 2.348204041e-38
0.2175321132 -0.1710807532 0.1649643779 2.348204041e-38
0.2479992509 -0.1562678069 0.093457371 2.348204041e-38
0.2181286812 -0.1996136308 0.1169762835 2.348132155e-38
0.2175721973 -0.2055967152 0.09651834518 2.348132155e-38
0.07494901121 -0.1116776764 0.205467701 2.348132155e-38
0.2002223879 -0.16888237 0.1001430303 2.348132155e-38
0.2167634219 -0.1560475528 0.1833177805 2.348132155e-38
