# .PCD v0.7 - Point Cloud Data file format
VERSION 0.7
FIELDS x y z rgb
SIZE 4 4 4 4
TYPE F F F F
COUNT 1 1 1 1
WIDTH 836
HEIGHT 1
VIEWPOINT 0 0 0 1 0 0 0
POINTS 836
DATA ascii
0.2117461711 -0.3661023378 -0.311560154 3.936320254e-39
0.08444295824 -0.4795310199 0.270883739 4.120708711e-39
-0.1988182664 -0.3218083084 -0.3275433183 4.120708711e-39
0.1101033539 -0.4777956307 0.1716864556 4.120708711e-39
0.1753366143 -0.4251283705 -0.2259012312 4.120708711e-39
0.2130334973 -0.2548598349 -0.2716398835 4.120708711e-39
0.09672901779 -0.4921828806 0.2707265615 4.120708711e-39
0.09891097248 -0.4140788615 -0.3139313757 4.120708711e-39
-0.149093464 -0.2990564406 -0.2642589211 4.120708711e-39
0.0850796625 -0.4657439888 0.2090090811 4.304737034e-39
-0.2033790052 -0.4066707492 0.1431698203 4.304737034e-39
-0.2235754728 -0.2970396876 -0.3023626804 4.304737034e-39
0.09663645178 -0.4924503863 0.2831597328 4.304737034e-39
-0.1909554005 -0.4667127132 0.02994937077 4.304737034e-39
-0.2025095522 -0.3444234729 0.1446258128 4.304737034e-39
-0.2037856281 -0.4675804079 0.07954800129 4.304737034e-39
0.09855462611 -0.3314804733 -0.1005291641 4.304737034e-39
-0.1500867307 -0.244895786 0.3220407963 4.48912409e-39
0.09873707592 -0.4265283048 -0.3142225742 4.48912409e-39
0.173474133 -0.4185642898 0.04791966453 4.48912409e-39
-0.1491747946 -0.3112384081 -0.2769832611 4.48912409e-39
-0.2111968696 -0.3094240427 -0.3149529994 4.48912409e-39
0.04741084576 -0.4540250003 0.2710639834 4.48912409e-39
-0.2010622472 -0.3043999076 0.0211677365 4.48912409e-39
0.1677680612 -0.1001701131 -0.2681967914 4.48912409e-39
0.08692774177 -0.3288704455 -0.2125617266 4.673152414e-39
0.09830796719 -0.463609159 -0.327529341 4.673152414e-39
-0.1251668334 -0.2453005314 0.322308898 4.673152414e-39
0.1241112351 -0.3180981576 -0.1621357054 4.673152414e-39
0.2123491764 -0.3165720701 -0.2979622185 4.673152414e-39
0.09934007376 -0.3769980073 -0.3006246388 4.673152414e-39
0.08638359606 -0.342389971 -0.16312024 4.673152414e-39
-0.2112081051 -0.2975095809 -0.2897954583 4.673152414e-39
0.1250368655 -0.315422982 -0.2864673734 4.857539469e-39
0.1244702488 -0.3051136732 -0.1867108494 4.857539469e-39
0.09985050559 -0.3277352154 -0.2745935023 4.857539469e-39
-0.1615533978 -0.2988540828 -0.264392972 4.857539469e-39
-0.06329613924 -0.2833931744 0.3096723855 4.857539469e-39
0.1491125077 -0.3063209653 -0.1491432488 4.857539469e-39
-0.2014100254 -0.3292988241 0.02058534324 4.857539469e-39
-0.002081232145 -0.4283166528 0.271110177 4.857539469e-39
0.1119289696 -0.3170932531 -0.19956927 5.041567793e-39
0.1736003906 -0.4540400207 -0.03998612612 5.041567793e-39
0.1110145748 -0.3316828609 -0.1003951281 5.041567793e-39
0.214332059 -0.1555317193 -0.2568771541 5.041567793e-39
0.150130704 -0.3033782542 -0.2859080732 5.041567793e-39
-0.1622802466 -0.2319764346 0.3097648025 5.041567793e-39
-0.1616459638 -0.2991216183 -0.2519597709 5.041567793e-39
0.1735190749 -0.4662219584 -0.05271047354 5.041567793e-39
0.1245627999 -0.3048461378 -0.1991440207 5.225597518e-39
0.1120215356 -0.3168257475 -0.2120024264 5.225597518e-39
0.1492050737 -0.3060534298 -0.1615764052 5.225597518e-39
-0.18344374 -0.4961501956 -0.2691842914 5.225597518e-39
0.09929513186 -0.3293403089 -0.1999945194 5.225597518e-39
-0.1739208102 -0.2983842194 -0.2769601643 5.225597518e-39
0.1091889739 -0.4923852384 0.2708606124 5.225597518e-39
0.1368376762 -0.3055835664 -0.1741436422 5.225597518e-39
0.08618456125 -0.4265934527 -0.3019234538 5.409984573e-39
-0.1127068475 -0.2455028892 0.3224429488 5.409984573e-39
0.0866612941 -0.3415874243 -0.2004197687 5.409984573e-39
-0.1499128342 -0.2324463129 0.3223319948 5.409984573e-39
0.2145059556 -0.1430822462 -0.2565859556 5.409984573e-39
0.1237522066 -0.3310826421 -0.1375605911 5.409984573e-39
-0.1872001737 -0.2315716892 0.3094967008 5.409984573e-39
-0.1374528855 -0.2326486856 0.3224660456 5.409984573e-39
0.1488348097 -0.307123512 -0.1118437648 5.594012897e-39
0.03512477875 -0.4413731992 0.2712211013 5.594012897e-39
-0.1493599266 -0.3117734492 -0.2521169186 5.594012897e-39
-0.3879616261 -0.301364392 0.01915701851 5.594012897e-39
-0.07139665633 -0.4982390106 -0.2555447221 5.594012897e-39
-0.2164307237 -0.4679130912 0.1042802632 5.594012897e-39
0.1616650224 -0.3062557876 -0.1614423692 5.594012897e-39
0.2111319453 -0.4037182331 -0.300000608 5.594012897e-39
-0.1249929368 -0.2328510582 0.3226000965 5.77804122e-39
0.2113058418 -0.39126876 -0.2997094095 5.77804122e-39
-0.2153172791 -0.369119972 0.1439093649 5.77804122e-39
0.03503222018 -0.4416407049 0.2836542726 5.77804122e-39
-0.08796081692 -0.258357048 0.322419852 5.77804122e-39
0.173939839 -0.3069932163 -0.1364420056 5.77804122e-39
0.09957282245 -0.3285377622 -0.2372940034 5.77804122e-39
0.18751055 -0.3039853573 -0.2855059206 5.77804122e-39
0.1735303104 -0.4781363606 -0.07786801457 5.962428276e-39
0.1743633747 -0.4757286906 -0.1897664964 5.962428276e-39
0.124933064 -0.3037760854 -0.248876676 5.962428276e-39
0.1748037189 -0.4505622983 -0.2016172856 5.962428276e-39
-0.1253092885 -0.5092003345 0.2909783721 5.962428276e-39
0.164747417 -0.1300908476 -0.2443977594 5.962428276e-39
0.1766856909 -0.1676415652 -0.2451373041 5.962428276e-39
-0.3887021244 -0.3035045266 0.1186223179 5.962428276e-39
0.1122066528 -0.3162907064 -0.2368687689 6.1464566e-39
0.1487422585 -0.3073910475 -0.09941057861 6.1464566e-39
0.1491237432 -0.3182353973 -0.1743007898 6.1464566e-39
0.1999705583 -0.3041877151 -0.2853718698 6.1464566e-39
0.1891456395 -0.1678439379 -0.2450032681 6.1464566e-39
0.1612947583 -0.3073258698 -0.1117097139 6.1464566e-39
-0.1371864378 -0.2199317217 0.3103241026 6.1464566e-39
0.08470354974 -0.4308737516 -0.1029928029 6.1464566e-39
-0.1905150563 -0.4415462911 0.01809861138 6.330484923e-39
0.1108406931 -0.344132334 -0.1006863266 6.330484923e-39
-0.3754090965 -0.3012992144 0.006857912987 6.330484923e-39
0.0859432593 -0.3675563931 -0.1512694806 6.330484923e-39
0.1493901908 -0.3055184186 -0.1864427477 6.330484923e-39
-0.1742910594 -0.2994542718 -0.2272274792 6.330484923e-39
-0.3753165305 -0.3010317087 -0.005575300194 6.330484923e-39
0.1738585085 -0.3191751838 -0.1491663605 6.330484923e-39
-0.1989333034 -0.2982469797 -0.2647950947 6.514514648e-39
0.09958405793 -0.3404521942 -0.2624515593 6.514514648e-39
0.174096927 -0.4884456992 -0.1776245385 6.514514648e-39
0.1093628556 -0.4799357653 0.2711517811 6.514514648e-39
-0.1627817005 -0.5088607073 0.3030094504 6.514514648e-39
-0.2260746956 -0.3042626679 0.0333327949 6.514514648e-39
-0.3635044992 -0.3031066954 0.08159095049 6.514514648e-39
0.1736228615 -0.477868855 -0.09030116349 6.514514648e-39
-0.1372790039 -0.2201992422 0.3227572441 6.698542971e-39
-0.2268151939 -0.3064028025 0.1327981502 6.698542971e-39
-0.2261560261 -0.3164446354 0.02060844377 6.698542971e-39
-0.3623124361 -0.287714541 -0.05488270149 6.698542971e-39
-0.1251241565 -0.5086652637 0.2661120594 6.698542971e-39
0.1864110231 -0.3191100061 -0.161465466 6.698542971e-39
0.1612134427 -0.3195078373 -0.1244340688 6.698542971e-39
-0.162198931 -0.2197945118 0.3224891424 6.698542971e-39
0.08676509559 -0.3532343209 -0.2380104512 6.882571295e-39
0.1769942045 -0.3128157556 -0.2357136011 6.882571295e-39
0.1733590961 -0.3950029612 0.1106678918 6.882571295e-39
-0.2261672318 -0.3045301735 0.04576594755 6.882571295e-39
-0.1496263593 -0.3244903982 -0.2399749607 6.882571295e-39
-0.1626891494 -0.5085932016 0.2905762494 6.882571295e-39
-0.3509519696 -0.3030415475 0.06929184496 6.882571295e-39
-0.3387697339 -0.3040464818 0.10672535 6.882571295e-39
-0.03401678428 -0.4988461137 -0.2551425695 7.066599618e-39
-0.3627640009 -0.300966531 -0.01787440665 7.066599618e-39
0.08586192876 -0.3797383308 -0.1639938354 7.066599618e-39
0.08435577154 -0.4557726681 -0.1035751849 7.066599618e-39
0.1863072217 -0.3074631095 -0.1238747835 7.066599618e-39
-0.186751008 -0.2992518842 -0.2273615301 7.066599618e-39
-0.3383994699 -0.3029763997 0.05699267611 7.066599618e-39
0.02283872105 -0.4287213981 0.2713782787 7.066599618e-39
-0.2266300619 -0.3058677912 0.1079317778 7.250627941e-39
-0.2274294496 -0.3440187275 0.1443577111 7.250627941e-39
-0.2263299227 -0.3288940787 0.02031724527 7.250627941e-39
0.1104511321 -0.4528967142 0.1722688526 7.250627941e-39
-0.2289944589 -0.456063807 0.1417369395 7.250627941e-39
-0.3259395063 -0.3031787574 0.0571267195 7.250627941e-39
0.1738780886 -0.453237474 -0.07728561759 7.250627941e-39
0.2006436586 -0.2305611074 -0.2338920534 7.250627941e-39
0.1737967581 -0.4654194117 -0.090009965 7.434656265e-39
0.1246666014 -0.3164930642 -0.2367347181 7.434656265e-39
-0.248773098 -0.2974375188 -0.2653312981 7.434656265e-39
-0.112571612 -0.5086001158 0.2538129687 7.434656265e-39
-0.2386160195 -0.3162422776 0.02047439665 7.434656265e-39
-0.2276033461 -0.3564681709 0.1440665126 7.434656265e-39
-0.3262172043 -0.3039813042 0.0944262445 7.434656265e-39
0.1987784654 -0.3195798993 -0.1488982588 7.434656265e-39
0.1243332475 -0.4848295748 -0.08956716955 7.618684588e-39
0.08462222666 -0.4430556893 -0.1157171726 7.618684588e-39
0.1369414777 -0.3172304928 -0.2117343247 7.618684588e-39
0.1613844335 -0.4172918499 -0.001947060227 7.618684588e-39
-0.08783684671 -0.5095399022 0.2789473534 7.618684588e-39
0.08558423817 -0.3805409074 -0.1266943514 7.618684588e-39
0.1738331467 -0.4055798054 0.0233444944 7.618684588e-39
-0.2386272252 -0.3043278158 0.04563190416 7.618684588e-39
0.1106667966 -0.3565817773 -0.1009775102 7.802712912e-39
0.1613956541 -0.4292062819 -0.02710459568 7.802712912e-39
0.1749776155 -0.438112855 -0.2013260871 7.802712912e-39
0.09698961675 -0.4435255826 -0.1031499505 7.802712912e-39
-0.3889685869 -0.3162215054 0.1307643354 7.802712912e-39
-0.3265874684 -0.3050513864 0.1441589296 7.802712912e-39
0.1987672299 -0.3076654673 -0.1237407327 7.802712912e-39
-0.3878578246 -0.3130112886 -0.01843369938 7.802712912e-39
0.06004468352 -0.4417779446 0.271489203 7.986382503e-39
-0.2509946227 -0.3038579524 0.03306470066 7.986382503e-39
-0.3888760209 -0.3159539998 0.1183311194 7.986382503e-39
0.1366081238 -0.4855670035 -0.06456678361 7.986382503e-39
-0.1499515176 -0.5079930425 0.2534108162 7.986382503e-39
-0.3135721087 -0.3036486506 0.0696939826 7.986382503e-39
0.161373198 -0.4053774178 0.02321044542 7.986382503e-39
0.1867700368 -0.3061255217 -0.1860406101 7.986382503e-39
-0.2239232659 -0.3219386041 -0.3029450774 8.170410826e-39
-0.1368386596 -0.1950328052 0.3109064996 8.170410826e-39
0.08668376505 -0.3654162586 -0.2507348061 8.170410826e-39
-0.3131093085 -0.3023110628 0.007528152317 8.170410826e-39
0.1861221045 -0.3079981506 -0.09900844097 8.170410826e-39
0.09877346456 -0.3666886687 -0.2008681148 8.170410826e-39
-0.1507986486 -0.4592942894 -0.3426434696 8.170410826e-39
0.1995553523 -0.2576001585 -0.1350091249 8.170410826e-39
-0.1742185354 -0.1944257021 0.3105043471 8.35443915e-39
0.1986858994 -0.319847405 -0.1364651173 8.35443915e-39
0.09922504425 -0.3534366786 -0.2378764004 8.35443915e-39
0.0985519439 -0.4270633161 -0.2893562317 8.35443915e-39
-0.2736930251 -0.2970327735 -0.2655993998 8.35443915e-39
0.2108654976 -0.4164351821 -0.2878586054 8.35443915e-39
0.1999256015 -0.2565301061 -0.1847417653 8.35443915e-39
0.1739706397 -0.4529699683 -0.08971877396 8.35443915e-39
-0.3877652586 -0.312743783 -0.03086685389 8.538467473e-39
0.2115749568 -0.2829689682 -0.1230242848 8.538467473e-39
-0.1000191048 -0.5085349679 0.2415138483 8.538467473e-39
0.1739931256 -0.4767987728 -0.140033856 8.538467473e-39
0.08591811359 -0.4393104315 -0.289781481 8.538467473e-39
0.1744026542 -0.3056556284 -0.1986078322 8.538467473e-39
-0.3010195792 -0.3035835028 0.0573948212 8.538467473e-39
-0.3140349388 -0.3049862385 0.1318598241 8.538467473e-39
-0.2393677533 -0.3064679801 0.1450972557 8.722137064e-39
0.1986746788 -0.3079329729 -0.1113075763 8.722137064e-39
0.09915494919 -0.3775330484 -0.2757582963 8.722137064e-39
0.211238414 -0.3197822869 -0.148764208 8.722137064e-39
0.2123379409 -0.3046576381 -0.2728046775 8.722137064e-39
0.212200433 -0.2572674751 -0.1597413868 8.722137064e-39
0.08652110398 -0.389780134 -0.2761835456 8.722137064e-39
-0.3516812623 -0.317096144 0.1435996294 8.722137064e-39
0.1248549074 -0.4474811852 -0.08869357407 8.906165387e-39
0.161768809 -0.317902714 -0.1990330815 8.906165387e-39
-0.3141275048 -0.3052537739 0.1442929655 8.906165387e-39
-0.1615846902 -0.1821786314 0.3109295964 8.906165387e-39
0.1620352715 -0.3051857352 -0.2111750394 8.906165387e-39
-0.325291574 -0.3013061285 -0.02990541607 8.906165387e-39
0.2000069469 -0.2443481386 -0.1720174104 8.906165387e-39
-0.2758219838 -0.3031857014 0.02036345005 8.906165387e-39
0.212130338 -0.2813638449 -0.1976232976 9.089834978e-39
0.1494014263 -0.3174328506 -0.2116002887 9.089834978e-39
0.1217302382 -0.4804056287 0.2837190032 9.089834978e-39
-0.2885596156 -0.3037858605 0.05752886459 9.089834978e-39
0.1739257127 -0.4053122997 0.01091133989 9.089834978e-39
-0.2512722909 -0.3046604991 0.07036422193 9.089834978e-39
-0.2613144219 -0.3094170988 -0.2781896889 9.089834978e-39
-0.1873090714 -0.3964399099 -0.3415896297 9.089834978e-39
-0.07537686825 -0.50974226 0.2790814042 9.273863302e-39
-0.1498589516 -0.5077254772 0.2409776598 9.273863302e-39
0.1357606351 -0.3445370495 -0.1004182249 9.273863302e-39
-0.2397155464 -0.3313668966 0.1445148587 9.273863302e-39
-0.3128316104 -0.3015085161 -0.02977136895 9.273863302e-39
0.212015301 -0.2578025162 -0.134875074 9.273863302e-39
0.09725606441 -0.430808574 -0.1152919382 9.273863302e-39
-0.3863992989 -0.2849021554 -0.1670492738 9.273863302e-39
0.2119088322 -0.3417384923 -0.2861114144 9.457532893e-39
0.08660243452 -0.3775981963 -0.2634592056 9.457532893e-39
-0.2757294178 -0.3029181659 0.007930295542 9.457532893e-39
-0.2755442858 -0.3023831248 -0.01693607122 9.457532893e-39
-0.2613256574 -0.2975026667 -0.2530321777 9.457532893e-39
-0.2761922181 -0.3042557538 0.07009612024 9.457532893e-39
0.210691601 -0.4288846254 -0.2881498039 9.457532893e-39
-0.21179986 -0.3589542806 -0.3285509646 9.457532893e-39
0.1997292489 -0.2451506853 -0.1347179264 9.641561216e-39
-0.2879116833 -0.3019132316 -0.02950327285 9.641561216e-39
0.109623462 -0.4312784672 -0.1027247012 9.641561216e-39
-0.07148922235 -0.4985065162 -0.2431115359 9.641561216e-39
-0.0506622754 -0.2711460888 0.3100976348 9.641561216e-39
-0.2117185593 -0.3467723727 -0.3158265948 9.641561216e-39
0.1464763135 -0.4932598472 0.2836959362 9.641561216e-39
-0.2118448317 -0.3112966418 -0.2279208302 9.641561216e-39
-0.3739393353 -0.2851045132 -0.166915223 9.825230807e-39
-0.3885870874 -0.3270658255 0.05587409064 9.825230807e-39
0.1497716755 -0.3163627684 -0.2613329589 9.825230807e-39
0.1752496362 -0.2195795476 -0.1468367726 9.825230807e-39
-0.1500667036 -0.3496568203 -0.2281241715 9.825230807e-39
-0.2888373137 -0.3045884073 0.09482838213 9.825230807e-39
-0.2751740217 -0.3013130724 -0.06666871905 9.825230807e-39
0.1732552946 -0.3833560944 0.1482585371 9.825230807e-39
0.1675016284 -0.1128871068 -0.2560548186 1.000925913e-38
-0.2737855911 -0.2973003089 -0.2531661987 1.000925913e-38
-0.3613868058 -0.2850393653 -0.1792143583 1.000925913e-38
-0.03837621585 -0.2837979198 0.3099404871 1.000925913e-38
0.09914371371 -0.3656186163 -0.2506007552 1.000925913e-38
-0.07519174367 -0.5092072487 0.2542150915 1.000925913e-38
0.2102625072 -0.4659655094 -0.3014565706 1.000925913e-38
0.04775862396 -0.4291261137 0.2716463804 1.000925913e-38
-0.1244712621 -0.1955026984 0.3234736919 1.019292872e-38
-0.1337890029 -0.4974946678 -0.2437817901 1.019292872e-38
0.08599943668 -0.4271284938 -0.2770571411 1.019292872e-38
-0.3889573514 -0.3281359076 0.1056067646 1.019292872e-38
0.1734404266 -0.3828210533 0.1233922392 1.019292872e-38
-0.2890224457 -0.3051234484 0.1196946949 1.019292872e-38
-0.251549989 -0.3054630756 0.107663691 1.019292872e-38
0.0407429561 -0.5000603199 -0.2543382943 1.019292872e-38
0.08596573025 -0.3913852274 -0.2015845478 1.037659831e-38
-0.1995587647 -0.3239484429 -0.2280779779 1.037659831e-38
-0.3746685684 -0.2991590798 -0.09260743856 1.037659831e-38
0.2127445787 -0.2437479496 -0.2091828585 1.037659831e-38
0.1735329926 -0.3825535178 0.1109590903 1.037659831e-38
0.1614545137 -0.3931954801 0.03593479842 1.037659831e-38
0.1741557717 -0.4524349272 -0.1145851091 1.037659831e-38
-0.0998339802 -0.5079999566 0.216647476 1.037659831e-38
0.2109607309 -0.3205848336 -0.1114647239 1.056062664e-38
0.1589362621 -0.4934622049 0.2838299274 1.056062664e-38
-0.1632585824 -0.4590919018 -0.3427775204 1.056062664e-38
-0.3518551588 -0.3295455873 0.1433084309 1.056062664e-38
-0.2405849993 -0.3936141729 0.1430588812 1.056062664e-38
-0.1874239445 -0.5076534152 0.2654418349 1.056062664e-38
0.1869551688 -0.3055904806 -0.2109069377 1.056062664e-38
0.21231547 -0.2808288038 -0.2224896103 1.056062664e-38
0.2006324083 -0.2186466902 -0.2087345123 1.074429623e-38
-0.2614182234 -0.2977701724 -0.2405990064 1.074429623e-38
-0.124204807 -0.1827857345 0.311331749 1.074429623e-38
0.2120490223 -0.2935457826 -0.2103476524 1.074429623e-38
0.2113898396 -0.2835040092 -0.0981579572 1.074429623e-38
-0.137213856 -0.5073928237 0.2162453383 1.074429623e-38
-0.2738669217 -0.3094822466 -0.2658905983 1.074429623e-38
0.09863327444 -0.4148814082 -0.2766318917 1.074429623e-38
0.1615583301 -0.4048424065 -0.001655861735 1.092796582e-38
-0.3018414378 -0.3179056048 0.1441358179 1.092796582e-38
0.1748850495 -0.4383803606 -0.1888929009 1.092796582e-38
0.1745877862 -0.3051205873 -0.2234741449 1.092796582e-38
-0.0873465836 -0.2207411975 0.3108602762 1.092796582e-38
0.1615470797 -0.3929279447 0.02350164391 1.092796582e-38
0.1765005738 -0.1681766063 -0.2202709764 1.092796582e-38
0.2110645324 -0.3322317302 -0.1490554065 1.092796582e-38
0.1747729033 -0.3045855761 -0.2483404875 1.111163541e-38
-0.09974141419 -0.5077323914 0.2042143196 1.111163541e-38
0.09787030518 -0.3931927085 -0.1268514991 1.111163541e-38
0.1373962462 -0.4355016351 -0.07583517581 1.111163541e-38
-0.3020153344 -0.3303550482 0.1438446194 1.111163541e-38
-0.1873313785 -0.5073859096 0.2530086637 1.111163541e-38
-0.2615107894 -0.298037678 -0.2281658202 1.111163541e-38
0.2004472762 -0.2191817164 -0.1838681698 1.111163541e-38
-0.1500442326 -0.3734856844 -0.2784392536 1.1295305e-38
0.1612581611 -0.3818160892 0.08595867455 1.1295305e-38
-0.3644890189 -0.3417926729 0.1428831816 1.1295305e-38
0.08480735123 -0.4425206482 -0.1405835152 1.1295305e-38
0.08551415056 -0.4046372473 -0.1645762324 1.1295305e-38
-0.2742483914 -0.2986378968 -0.1910003722 1.1295305e-38
-0.2756143808 -0.3264794946 -0.05481795967 1.1295305e-38
-0.3146491945 -0.3426021636 0.143419385 1.1295305e-38
0.2109719664 -0.3324992359 -0.136622265 1.147897319e-38
-0.02164940163 -0.4993159771 -0.2425753623 1.147897319e-38
-0.3743909001 -0.2983565331 -0.1299069375 1.147897319e-38
-0.1120112836 -0.1957050711 0.3236077428 1.147897319e-38
0.1738106757 -0.3817509711 0.07365956157 1.147897319e-38
0.08625465631 -0.4024971128 -0.2640416026 1.147897319e-38
-0.2391377091 -0.3535906374 0.0196008049 1.147897319e-38
-0.2749888897 -0.3007780313 -0.0915350616 1.147897319e-38
-0.2758920789 -0.3272820413 -0.01751846634 1.166264278e-38
-0.2757069468 -0.32674703 -0.04238477349 1.166264278e-38
0.1876170188 -0.2200494409 -0.1342695802 1.166264278e-38
0.1791734546 -0.1631547958 -0.2446523905 1.166264278e-38
-0.389038682 -0.3403178453 0.09288240969 1.166264278e-38
0.06566290557 -0.5004650354 -0.2540701926 1.166264278e-38
-0.05064206943 -0.5106820464 0.3042158782 1.166264278e-38
-0.312912941 -0.3136904836 -0.04249572009 1.166264278e-38
-0.2755218148 -0.3262119889 -0.06725111604 1.184631237e-38
0.1613507271 -0.3815485835 0.07352551818 1.184631237e-38
-0.08743914962 -0.221008718 0.3232934475 1.184631237e-38
-0.1121087968 -0.5072625279 0.1916471273 1.184631237e-38
0.1374888122 -0.4352341294 -0.08826833218 1.184631237e-38
-0.1997326612 -0.3363979161 -0.2283691764 1.184631237e-38
0.1768483669 -0.1432777047 -0.2196885794 1.184631237e-38
-0.1117448285 -0.1829881072 0.31146577 1.184631237e-38
0.2108794004 -0.3327667713 -0.1241890788 1.202998196e-38
-0.3873024285 -0.3114061952 -0.0930326879 1.202998196e-38
0.1369639486 -0.3410592973 -0.2620494068 1.202998196e-38
0.1982343346 -0.3330994248 -0.09945678711 1.202998196e-38
-0.2626103163 -0.3131623566 -0.1041253656 1.202998196e-38
0.1739032418 -0.3814834654 0.06122641265 1.202998196e-38
0.09752252698 -0.418091625 -0.1274338961 1.202998196e-38
-0.3887609839 -0.3395152986 0.05558289215 1.202998196e-38
0.1616621166 -0.4164892733 -0.03924658149 1.221365155e-38
-0.3742983341 -0.2980889976 -0.1423401088 1.221365155e-38
0.1647361815 -0.1181764156 -0.2192402333 1.221365155e-38
-0.1501367986 -0.37375319 -0.2660061121 1.221365155e-38
-0.2987980843 -0.2971630692 -0.2410011441 1.221365155e-38
-0.3624750674 -0.3120784163 -0.08033142984 1.221365155e-38
0.08507380635 -0.4298036695 -0.152725473 1.221365155e-38
-0.05045694113 -0.5101470351 0.2793495059 1.221365155e-38
0.02292004786 -0.4165394306 0.2841026187 1.239732115e-38
0.09879593551 -0.3905175328 -0.2511831522 1.239732115e-38
0.1871403009 -0.3050554395 -0.2357732803 1.239732115e-38
0.1770222485 -0.1308282614 -0.2193973809 1.239732115e-38
-0.08718889952 -0.5076673031 0.1919152141 1.239732115e-38
-0.2874488533 -0.3005756438 -0.09166909754 1.239732115e-38
0.0601260066 -0.4295960069 0.2842135429 1.239732115e-38
-0.3376477361 -0.3127506971 -0.06763015687 1.239732115e-38
-0.08404175937 -0.4985716939 -0.2308124453 1.258099074e-38
0.1239822805 -0.3782052994 -0.2630570531 1.258099074e-38
-0.2539957166 -0.4678409994 0.128744483 1.258099074e-38
0.09682695568 -0.4678894579 -0.1285986751 1.258099074e-38
0.08580307662 -0.4157491028 -0.2270332575 1.258099074e-38
0.1608766615 -0.3709717989 0.1608488411 1.258099074e-38
0.1762341261 -0.1808935702 -0.2081290185 1.258099074e-38
-0.3882056177 -0.3379101753 -0.01901609451 1.258099074e-38
-0.1118373945 -0.1832556278 0.3238989413 1.276466033e-38
0.1097106338 -0.4550368488 0.2717341781 1.276466033e-38
-0.3616532385 -0.2977563143 -0.1670723706 1.276466033e-38
0.1654037088 -0.2503661215 -0.2343916595 1.276466033e-38
0.1498561949 -0.4357039928 -0.07570113242 1.276466033e-38
0.1994515657 -0.2459532619 -0.09741839767 1.276466033e-38
0.1343695074 -0.4441326857 -0.102747798 1.276466033e-38
0.2106942832 -0.3333018124 -0.09932273626 1.276466033e-38
0.09854071587 -0.4151489139 -0.2641987503 1.294832852e-38
-0.1115709394 -0.1705386341 0.3117569685 1.294832852e-38
0.2117012292 -0.318444699 -0.2109300494 1.294832852e-38
-0.1361430883 -0.1452349871 0.3120712936 1.294832852e-38
0.164910078 -0.1057269722 -0.2189490348 1.294832852e-38
-0.05027181655 -0.5096119642 0.2544831932 1.294832852e-38
-0.137028724 -0.5068578124 0.1913790256 1.294832852e-38
0.03547255695 -0.4164742827 0.2718034983 1.294832852e-38
-0.1214216352 -0.4979645908 -0.231214568 1.313163938e-38
-0.2616846859 -0.3104871511 -0.2284570187 1.313163938e-38
-0.05058094859 -0.2589641511 0.3228220046 1.313163938e-38
0.1617434472 -0.4043073654 -0.02652219869 1.313163938e-38
0.1591101438 -0.4810127318 0.2841211557 1.313163938e-38
-0.27460742 -0.3116223812 -0.1664252281 1.313163938e-38
0.2126295418 -0.2201866508 -0.1464346349 1.313163938e-38
0.1743296683 -0.4399854839 -0.1142939106 1.313163938e-38
0.1736482382 -0.3914642036 -0.2628120482 1.331530897e-38
-0.3239031136 -0.297293365 -0.2164029032 1.331530897e-38
0.09836682677 -0.4275983572 -0.2644899487 1.331530897e-38
-0.1119236723 -0.5067275167 0.1667807549 1.331530897e-38
-0.3126352429 -0.312887907 -0.07979524136 1.331530897e-38
-0.2759734094 -0.3394640088 -0.03024281934 1.331530897e-38
0.2118975967 -0.3298240602 -0.260953933 1.331530897e-38
0.09862203896 -0.402967006 -0.2514743507 1.331530897e-38
0.1739960164 -0.3665652871 -0.2622296512 1.349897856e-38
0.09780021012 -0.4172890484 -0.1647333801 1.349897856e-38
-0.2899031639 -0.3554563224 0.1433962733 1.349897856e-38
0.1883350462 -0.1940804422 -0.1834198236 1.349897856e-38
0.1107989103 -0.4279978275 0.1728512496 1.349897856e-38
-0.314823091 -0.3550516069 0.1431281865 1.349897856e-38
-0.1878307313 -0.4337882698 -0.3424632251 1.349897856e-38
-0.274885118 -0.3124249578 -0.1291257441 1.349897856e-38
-0.3397430182 -0.3546468616 0.1428600848 1.368228942e-38
0.1470033526 -0.4318855703 -0.1023225635 1.368228942e-38
-0.3646629155 -0.3542421162 0.1425919831 1.368228942e-38
-0.3522029519 -0.354444474 0.1427260339 1.368228942e-38
-0.2533927262 -0.4183107018 0.1423424333 1.368228942e-38
0.1224311888 -0.4065819681 -0.1020082533 1.368228942e-38
0.2107616812 -0.4047883153 -0.2502679229 1.368228942e-38
0.1755974144 -0.1946806312 -0.1462543905 1.368228942e-38
-0.03799699619 -0.5103493929 0.2794835567 1.386595901e-38
-0.04999412596 -0.5088094473 0.2171836793 1.386595901e-38
0.09798534214 -0.4167540371 -0.1895997226 1.386595901e-38
-0.1494886875 -0.5066554546 0.1912449747 1.386595901e-38
0.1468294561 -0.4443350434 -0.102613762 1.386595901e-38
0.08472602814 -0.4547025859 -0.15330787 1.386595901e-38
-0.1633511484 -0.4593594074 -0.3303443491 1.386595901e-38
0.09844815731 -0.4154164493 -0.2517655492 1.386595901e-38
0.09709341824 -0.4551724494 -0.1407406628 1.404926846e-38
-0.2742371559 -0.3105523288 -0.2161579132 1.404926846e-38
-0.1745937169 -0.5067857504 0.2158432007 1.404926846e-38
0.1352389604 -0.3818854094 -0.1012918204 1.404926846e-38
0.1742959619 -0.4042422175 -0.03882133961 1.404926846e-38
0.1469166577 -0.468093425 0.2718451619 1.404926846e-38
-0.2122513056 -0.506981194 0.2527405918 1.404926846e-38
-0.2663743794 -0.4554567039 0.141334787 1.404926846e-38
0.097533755 -0.4300060272 -0.1525914222 1.423293806e-38
-0.3497374356 -0.3114782572 -0.1174968779 1.423293806e-38
0.09819293022 -0.4400478303 -0.2647811472 1.423293806e-38
-0.08691121638 -0.5068647265 0.1546157002 1.423293806e-38
0.1107063442 -0.4282653332 0.1852844059 1.423293806e-38
-0.03781186789 -0.509814322 0.254617244 1.423293806e-38
0.1361645907 -0.3792102039 -0.2256234735 1.423293806e-38
0.2115273476 -0.3308941424 -0.2112212479 1.423293806e-38
-0.2751515806 -0.3251419067 -0.1169837862 1.441624891e-38
0.08536273241 -0.4409155548 -0.2151824981 1.441624891e-38
0.04065039754 -0.5003278255 -0.2419051081 1.441624891e-38
0.1854265481 -0.3577959836 -0.1001732349 1.441624891e-38
-0.09918603301 -0.5061272979 0.1296153516 1.441624891e-38
0.1228827536 -0.3933299184 -0.1390165836 1.441624891e-38
-0.150809899 -0.4473798573 -0.3174859285 1.441624891e-38
-0.2747813165 -0.3240718246 -0.1667164266 1.441624891e-38
0.1743071973 -0.4161566496 -0.06397884339 1.459991851e-38
-0.07167434692 -0.4990415573 -0.2182452381 1.459991851e-38
0.2007025033 -0.1945503354 -0.1708526313 1.459991851e-38
0.1614322811 -0.3547160327 -0.2247729897 1.459991851e-38
-0.19960621 -0.5066484809 0.2280082554 1.459991851e-38
0.1464816779 -0.4692339599 -0.1031961441 1.459991851e-38
-0.2537180185 -0.4670384526 0.09144496918 1.459991851e-38
-0.1504958123 -0.3867376745 -0.2414309531 1.459991851e-38
-0.2248963863 -0.5073138475 0.2774728537 1.478322936e-38
-0.2121587396 -0.5067136288 0.2403074205 1.478322936e-38
0.1231128275 -0.4404525757 -0.2645130455 1.478322936e-38
0.1646436155 -0.1184439361 -0.2068070769 1.478322936e-38
-0.08665101975 -0.1709433645 0.3120250702 1.478322936e-38
-0.03762674332 -0.5092793107 0.2297508717 1.478322936e-38
0.179869011 -0.1133569926 -0.2434875965 1.478322936e-38
0.1769296825 -0.1310957819 -0.2069642246 1.478322936e-38
0.1355728209 -0.4406549335 -0.2643789947 1.496689755e-38
-0.06208385155 -0.5075369477 0.1673169434 1.496689755e-38
0.2128034383 -0.2077371776 -0.1461434364 1.496689755e-38
0.1617097408 -0.3685641289 0.04895040393 1.496689755e-38
0.1763154417 -0.1687116325 -0.1954046637 1.496689755e-38
-0.03802843764 -0.2588990033 0.3105228841 1.496689755e-38
-0.1619486362 -0.5064530373 0.1911109388 1.496689755e-38
-0.1115534231 -0.5056574345 0.1170481443 1.496689755e-38
-0.2519454062 -0.3782871664 0.01888436079 1.515020841e-38
-0.009282017127 -0.4997859001 -0.2300081402 1.515020841e-38
0.1358168125 -0.4041091204 -0.2262058705 1.515020841e-38
-0.3648367822 -0.3666915596 0.1423007995 1.515020841e-38
-0.2408878207 -0.4661707282 0.04184633493 1.515020841e-38
0.1752328277 -0.4134814441 -0.188310504 1.515020841e-38
-0.2745036185 -0.3232692778 -0.2040159553 1.515020841e-38
-0.3494597375 -0.3106757104 -0.1547963619 1.515020841e-38
0.0980078131 -0.4405828714 -0.2399147898 1.533351927e-38
0.1596371979 -0.4196385145 -0.1018973142 1.533351927e-38
-0.3120798767 -0.3112828135 -0.1543942243 1.533351927e-38
0.161084488 -0.3796149492 -0.2253553718 1.533351927e-38
-0.3239844739 -0.3094753027 -0.2291272581 1.533351927e-38
0.1803906858 -0.07600860298 -0.242614001 1.533351927e-38
-0.2248038203 -0.5070463419 0.2650396824 1.533351927e-38
0.2111908048 -0.3677074313 -0.236961171 1.533351927e-38
-0.2536254525 -0.466770947 0.07901181281 1.551683013e-38
0.1618022919 -0.3682966232 0.03651719168 1.551683013e-38
0.2107167542 -0.3571306169 -0.1496378034 1.551683013e-38
-0.2245262563 -0.3714689314 -0.3165430427 1.551683013e-38
-0.08654095978 -0.5057946444 0.1048830301 1.551683013e-38
0.09754499048 -0.4419204593 -0.1777489632 1.551683013e-38
0.198290512 -0.3926714957 -0.2252444327 1.551683013e-38
-0.3365369737 -0.3095404804 -0.2168281525 1.551683013e-38
0.08509628475 -0.4536325037 -0.2030405402 1.570049832e-38
-0.07426611334 -0.506532073 0.1298834383 1.570049832e-38
-0.04962387681 -0.5077393651 0.1674509943 1.570049832e-38
0.210346505 -0.3582006991 -0.09990513325 1.570049832e-38
0.09745243192 -0.4421879649 -0.1653157771 1.570049832e-38
-0.08674358577 -0.171210885 0.3244582415 1.570049832e-38
0.1098845303 -0.4425874054 0.2720254064 1.570049832e-38
0.1764893383 -0.1562621891 -0.1951134652 1.570049832e-38
-0.2277210355 -0.4284897149 0.01798766851 1.588380918e-38
-0.3883795142 -0.3503596187 -0.019307293 1.588380918e-38
-0.03734905273 -0.5084767342 0.1924514174 1.588380918e-38
0.160772875 -0.3593248725 0.1984395683 1.588380918e-38
0.122708872 -0.4057793915 -0.1393077821 1.588380918e-38
-0.1758111268 -0.4591570497 -0.3304784 1.588380918e-38
0.2106241882 -0.3573981225 -0.137204662 1.588380918e-38
0.06557034701 -0.5007325411 -0.2416370064 1.588380918e-38
0.2001583576 -0.2080698311 -0.1214111447 1.606712004e-38
-0.1240134016 -0.5054550767 0.1169140935 1.606712004e-38
0.1887753904 -0.1689140052 -0.1952706128 1.606712004e-38
0.2105765641 -0.4053233266 -0.2254015803 1.606712004e-38
0.1606803089 -0.3595924079 0.2108727247 1.606712004e-38
-0.199513644 -0.5063809752 0.215575099 1.606712004e-38
0.1775971949 -0.2632854283 -0.2221156657 1.606712004e-38
-0.1712614447 -0.4971551001 -0.2317507714 1.606712004e-38
-0.2742147148 -0.3343811631 -0.2664729953 1.625043089e-38
0.1225349754 -0.4182288349 -0.1395989805 1.625043089e-38
-0.0625192523 -0.2214134485 0.3235615492 1.625043089e-38
-0.2535328865 -0.4665034115 0.06657865644 1.625043089e-38
-0.2758696079 -0.3511109054 -0.06783351302 1.625043089e-38
-0.1111831665 -0.5045873523 0.0673154667 1.625043089e-38
-0.1111418307 -0.1334577948 0.3250637352 1.625043089e-38
0.1768090725 -0.3133507967 -0.2108472735 1.625043089e-38
0.1735105067 -0.3587246835 0.1612740904 1.643374035e-38
-0.388923645 -0.3638791442 0.03013418615 1.643374035e-38
-0.02583491243 -0.2718183398 0.322798878 1.643374035e-38
-0.02516679652 -0.5094816685 0.2298849225 1.643374035e-38
0.1736030728 -0.3584571779 0.148840934 1.643374035e-38
0.1612356901 -0.3579872847 0.1362737417 1.643374035e-38
0.1736956388 -0.3581896424 0.1364077926 1.643374035e-38
0.1221871972 -0.4431277514 -0.1401813775 1.643374035e-38
-0.3998325169 -0.3353001773 -0.1310486197 1.661705121e-38
0.1613282561 -0.357719779 0.1238405928 1.661705121e-38
0.1777710915 -0.2508359849 -0.2218244672 1.661705121e-38
-0.274770081 -0.3359862864 -0.1918739676 1.661705121e-38
0.2108205408 -0.3687775135 -0.1872285008 1.661705121e-38
0.1738807708 -0.3576546013 0.1115414798 1.661705121e-38
0.1598110795 -0.4071890712 -0.1016061157 1.661705121e-38
-0.3742758632 -0.3219178617 -0.1926551461 1.661705121e-38
0.1977126598 -0.3704477847 -0.1003303826 1.680036207e-38
-0.3525507152 -0.3793433905 0.1421436369 1.680036207e-38
0.0602998957 -0.4171465337 0.2845047712 1.680036207e-38
0.09755623341 -0.4538348615 -0.2029064894 1.680036207e-38
0.1760377586 -0.1695141941 -0.1581051499 1.680036207e-38
0.09727853537 -0.4546374083 -0.1656069756 1.680036207e-38
-0.23735632 -0.5071114898 0.2773388028 1.680036207e-38
0.1744473726 -0.3679639399 0.01178493164 1.680036207e-38
-0.123735711 -0.5046525002 0.07961457968 1.698367293e-38
-0.1109054834 -0.5037847757 0.03001594543 1.698367293e-38
-0.05023316666 -0.2340652645 0.3234044015 1.698367293e-38
0.1616059393 -0.3569172025 0.08654107153 1.698367293e-38
0.1840354204 -0.4573915899 -0.102502808 1.698367293e-38
0.2107279897 -0.3690450191 -0.1747953445 1.698367293e-38
-0.2369049191 -0.3590846062 -0.3039527237 1.698367293e-38
-0.04906849563 -0.506134212 0.09285201132 1.698367293e-38
0.1760209501 -0.3634161353 -0.1995788962 1.716698239e-38
-0.0623453632 -0.2089639902 0.3238527477 1.716698239e-38
0.1768371165 -0.1313632876 -0.1945310682 1.716698239e-38
-0.1507622749 -0.3994546533 -0.2292889655 1.716698239e-38
-0.2119736224 -0.5061786175 0.2154410481 1.716698239e-38
0.1781188697 -0.2259370983 -0.2212420702 1.716698239e-38
-0.2405288219 -0.4531862438 0.01727122441 1.716698239e-38
-0.09835296869 -0.5037196279 0.01771683991 1.716698239e-38
0.2102400213 -0.4421366751 -0.2511415184 1.735029324e-38
-0.06134334952 -0.505396843 0.06785166264 1.735029324e-38
-0.04897593334 -0.5058667064 0.0804188624 1.735029324e-38
-0.199421078 -0.5061134696 0.2031419426 1.735029324e-38
0.2106354237 -0.3693125248 -0.1623621583 1.735029324e-38
0.1966693252 -0.4451445341 -0.1020775586 1.735029324e-38
-0.08630324155 -0.1460444629 0.3126074672 1.735029324e-38
-0.02470398135 -0.5081440806 0.1677190959 1.735029324e-38
-0.1630483121 -0.3868028224 -0.2291318178 1.75336041e-38
-0.1340667009 -0.4982972443 -0.2064822912 1.75336041e-38
-0.1868685633 -0.5060483217 0.1908428371 1.75336041e-38
0.1226612478 -0.4537045658 -0.2275047004 1.75336041e-38
0.1745399386 -0.3676964343 -0.0006482228637 1.75336041e-38
-0.3769152462 -0.3773335516 0.06727655232 1.75336041e-38
-0.2787305117 -0.4669012427 0.1036100239 1.75336041e-38
-0.1232728958 -0.5033149123 0.01744874381 1.75336041e-38
-0.2904248238 -0.3928046823 0.1425226778 1.771655483e-38
0.1154101491 -0.5015420318 -0.2411008328 1.771655483e-38
-0.09816784412 -0.5031846166 -0.00714949891 1.771655483e-38
-0.1105352268 -0.5027147532 -0.01971669868 1.771655483e-38
-0.388553381 -0.362809062 -0.01959848963 1.771655483e-38
-0.02433373034 -0.5070739985 0.1179864854 1.771655483e-38
-0.1509361565 -0.4119040966 -0.229580164 1.771655483e-38
0.2101474702 -0.4424041808 -0.238708362 1.771655483e-38
-0.376637578 -0.3765310049 0.02997703478 1.789986569e-38
0.04810640216 -0.404227227 0.2722287774 1.789986569e-38
-0.2786379457 -0.4666337073 0.09117686749 1.789986569e-38
-0.151017487 -0.4240860343 -0.2423045486 1.789986569e-38
0.1521724463 -0.1063271537 -0.1817835867 1.789986569e-38
0.1746325046 -0.3674288988 -0.01308140717 1.789986569e-38
-0.1357328296 -0.5031125546 0.01731469482 1.789986569e-38
-0.21292454 -0.4458329678 -0.3430224955 1.789986569e-38
0.2131512165 -0.1828382611 -0.1455610394 1.808317654e-38
-0.2753142416 -0.3495057821 -0.1424325258 1.808317654e-38
0.1639255881 -0.1444129199 -0.1576567888 1.808317654e-38
-0.2522931993 -0.4031860828 0.01830196753 1.808317654e-38
-0.3618972301 -0.3343021572 -0.2052454799 1.808317654e-38
-0.0001542791724 -0.5096188784 0.2177198678 1.808317654e-38
0.1641920358 -0.131695956 -0.1697987765 1.808317654e-38
-0.2759509087 -0.3632928133 -0.08055789024 1.808317654e-38
0.1975949556 -0.4424693286 -0.2264092267 1.826612727e-38
-0.01187378168 -0.5072763562 0.1181205213 1.826612727e-38
-0.161578387 -0.5053829551 0.1413782537 1.826612727e-38
0.2135102302 -0.1698537767 -0.1701361835 1.826612727e-38
-0.2750365436 -0.3487032354 -0.1797320098 1.826612727e-38
0.1725011021 -0.4545140266 -0.2269685119 1.826612727e-38
0.1878610104 -0.183503598 -0.09609647095 1.826612727e-38
-0.03614573553 -0.504998982 0.03082023375 1.826612727e-38
0.1736843884 -0.3462752402 0.1615652889 1.844943813e-38
0.2100549042 -0.4426716864 -0.2262751758 1.844943813e-38
0.1619649529 -0.3439327478 0.06196595728 1.844943813e-38
0.2102175504 -0.418307811 -0.2008264661 1.844943813e-38
0.1739620864 -0.3454726934 0.1242658347 1.844943813e-38
-0.04961893335 -0.1964493841 0.3118448257 1.844943813e-38
-0.1485630572 -0.503980279 0.06691332161 1.844943813e-38
-0.2130984366 -0.4582824409 -0.343313694 1.844943813e-38
0.2130586505 -0.1831057817 -0.133127898 1.863274899e-38
0.162057519 -0.3436652124 0.04953280091 1.863274899e-38
0.1742397696 -0.3446701169 0.08696631342 1.863274899e-38
0.2099735737 -0.4548536241 -0.2389995605 1.863274899e-38
-0.08604802191 -0.1214130819 0.3256230354 1.863274899e-38
-0.3525394797 -0.3912577927 0.116986081 1.863274899e-38
-0.1635362655 -0.4598944485 -0.3054780066 1.863274899e-38
0.162265107 -0.3669590354 -0.02564860694 1.863274899e-38
0.1749551296 -0.4142840207 -0.1510110199 1.881569971e-38
-0.1755082905 -0.3866004348 -0.2292658687 1.881569971e-38
0.2100912929 -0.3828320801 -0.1129207164 1.881569971e-38
0.1634740084 -0.1576649398 -0.1206485033 1.881569971e-38
0.1723748296 -0.4190382957 -0.1390627921 1.881569971e-38
0.21027641 -0.382297039 -0.137787044 1.881569971e-38
-0.02539457008 -0.2466519475 0.3109481335 1.881569971e-38
0.0005862265825 -0.507478714 0.1182545722 1.881569971e-38
0.1652185768 -0.2509011626 -0.2095253319 1.899901057e-38
0.2101950794 -0.3944789767 -0.1505113989 1.899901057e-38
0.01545280963 -0.5007256269 -0.2048737109 1.899901057e-38
0.1766519994 -0.1318983287 -0.1696647406 1.899901057e-38
-0.1481002569 -0.5026426911 0.004747493193 1.899901057e-38
-0.2747588456 -0.3479006886 -0.2170315087 1.899901057e-38
-0.0969645232 -0.4997068942 -0.1687806547 1.899901057e-38
0.01258335263 -0.5090186596 0.1805544496 1.899901057e-38
-0.06155724078 -0.1588986665 0.3125843704 1.91819627e-38
0.1748064011 -0.3549794257 -0.01279020868 1.91819627e-38
0.1722009331 -0.4314877391 -0.1393539906 1.91819627e-38
-0.2756732404 -0.3624902666 -0.1178573817 1.91819627e-38
-0.2007310539 -0.4587523043 -0.3307465017 1.91819627e-38
0.2098810077 -0.4551211298 -0.2265663743 1.91819627e-38
0.1748176217 -0.3668938577 -0.03794774413 1.91819627e-38
0.2101025134 -0.3947464824 -0.1380782425 1.91819627e-38
0.2007725835 -0.1704539806 -0.1329707354 1.936527215e-38
0.1752215922 -0.4015670419 -0.1631530076 1.936527215e-38
0.1671425998 -0.1258715838 -0.2314796895 1.936527215e-38
0.2100099474 -0.3950140178 -0.1256450713 1.936527215e-38
-0.1100724116 -0.5013771653 -0.08188253641 1.936527215e-38
0.179776445 -0.1136245131 -0.2310544401 1.936527215e-38
0.162357673 -0.3666914999 -0.03808179498 1.936527215e-38
-0.2526409626 -0.4280849695 0.01771957055 1.936527215e-38
0.1782001853 -0.2137551755 -0.2085176855 1.954822428e-38
0.09876807779 -0.3907145858 0.1860239506 1.954822428e-38
-0.1865908802 -0.5052458048 0.1535433233 1.954822428e-38
-0.0008224570192 -0.2719555497 0.3106338382 1.954822428e-38
-0.2116959244 -0.5053760409 0.1781415939 1.954822428e-38
0.1802981198 -0.07627612352 -0.2301808596 1.954822428e-38
0.00290030241 -0.5007907748 -0.1925746053 1.954822428e-38
0.0129536055 -0.507948637 0.1308217794 1.954822428e-38
-0.2373340428 -0.3961654603 -0.3172594607 1.973153514e-38
0.1888455003 -0.1448176503 -0.157388702 1.973153514e-38
-0.03759932891 -0.2218181938 0.3238296211 1.973153514e-38
-0.1095170379 -0.499772042 -0.1564815491 1.973153514e-38
0.1596318185 -0.4436644018 0.2849947214 1.973153514e-38
0.01304616779 -0.5076810718 0.118388623 1.973153514e-38
-0.06051028147 -0.5029891729 -0.04404684529 1.973153514e-38
-0.03577548265 -0.5039289594 -0.01891241223 1.973153514e-38
-0.1635699868 -0.4241511822 -0.2300054133 1.991448586e-38
-0.01122584008 -0.5054037571 0.03108832799 1.991448586e-38
-0.1513540298 -0.4608993828 -0.2680444717 1.991448586e-38
-0.315692544 -0.4172988534 0.141672194 1.991448586e-38
0.1673164964 -0.1134221405 -0.231188491 1.991448586e-38
0.174758777 -0.4029046297 -0.1009871662 1.991448586e-38
-0.06138334796 -0.1464491934 0.3128755689 1.991448586e-38
0.03722555935 -0.5102260113 0.2181220055 1.991448586e-38
-0.07287766784 -0.5025193095 -0.0566140525 2.009743799e-38
-0.327978611 -0.4046470523 0.1418293417 2.009743799e-38
-0.08459714055 -0.5001767874 -0.1562134475 2.009743799e-38
-0.04936371744 -0.1718180031 0.3248603642 2.009743799e-38
-0.08515251428 -0.5017818809 -0.08161443472 2.009743799e-38
0.04828029126 -0.3917777538 0.2725199461 2.009743799e-38
-0.04805030301 -0.5031915307 -0.04391280189 2.009743799e-38
-0.2782676816 -0.4655636251 0.04144418985 2.009743799e-38
-0.364258945 -0.3889153004 0.01738673449 2.028074885e-38
-0.1224398315 -0.5009072423 -0.09444975853 2.028074885e-38
-0.001304343343 -0.3663368821 0.284999311 2.028074885e-38
0.2097547352 -0.4196453989 -0.1386606395 2.028074885e-38
0.01098177396 -0.378988713 0.2848421335 2.028074885e-38
-0.3033026457 -0.4415976107 0.1039243191 2.028074885e-38
0.1659141332 -0.2011033297 -0.2083605379 2.028074885e-38
-0.2753029764 -0.3614201844 -0.1675900221 2.028074885e-38
-0.2116033733 -0.5051085353 0.165708378 2.046369957e-38
-0.4000877142 -0.3599315286 -0.144064188 2.046369957e-38
0.174228549 -0.3327556849 0.1121238768 2.046369957e-38
-0.1756821871 -0.3990499079 -0.2295570672 2.046369957e-38
-0.1349923313 -0.5009723902 -0.0821506232 2.046369957e-38
-0.1640916467 -0.461499542 -0.2308790088 2.046369957e-38
-0.09714964777 -0.5002419353 -0.1439143121 2.046369957e-38
-0.2127142847 -0.3735438883 -0.2293768078 2.046369957e-38
0.2089666128 -0.4697107673 -0.1273922473 2.06466517e-38
-0.05967721343 -0.5005815029 -0.1559453607 2.06466517e-38
0.1613057852 -0.3338909149 0.1741556525 2.06466517e-38
0.1348858029 -0.4308102131 0.285017848 2.06466517e-38
0.174851343 -0.4026371241 -0.1134203151 2.06466517e-38
-0.2752104104 -0.3611526787 -0.1800232083 2.06466517e-38
0.07784516364 -0.5014699697 -0.2166366577 2.06466517e-38
-0.3495185971 -0.3466864526 -0.217835784 2.06466517e-38
0.111228019 -0.3909169436 0.1861579865 2.082996116e-38
0.1615834683 -0.3330883682 0.1368561387 2.082996116e-38
-0.2649270892 -0.4154331684 0.01787672192 2.082996116e-38
0.002807740122 -0.5010582805 -0.1801414192 2.082996116e-38
-0.3999951482 -0.3596640229 -0.1564973444 2.082996116e-38
-0.08468969911 -0.500444293 -0.1437802762 2.082996116e-38
-0.2496313155 -0.3715991974 -0.291944772 2.082996116e-38
-0.3280599415 -0.4168289602 0.1291049868 2.082996116e-38
-0.04795774072 -0.5029240251 -0.05634595081 2.101291328e-38
0.2095808387 -0.4320948422 -0.138951838 2.101291328e-38
0.1611206532 -0.334425956 0.1990219653 2.101291328e-38
-0.265100956 -0.4278826118 0.01758552343 2.101291328e-38
0.001326730475 -0.5053386092 0.01878922246 2.101291328e-38
0.1750364751 -0.402102083 -0.1382866651 2.101291328e-38
0.1760153025 -0.1456853598 -0.1077900976 2.101291328e-38
-0.1732978374 -0.5030404925 0.04177886248 2.101291328e-38
0.03768837452 -0.5088884234 0.1559561789 2.119586541e-38
0.1750728339 -0.3422624767 -0.02493216656 2.119586541e-38
0.02559868246 -0.5076159835 0.1060894579 2.119586541e-38
0.0903051123 -0.5016723275 -0.2165026069 2.119586541e-38
-0.07259997725 -0.501716733 -0.09391357005 2.119586541e-38
0.001419292763 -0.5050711036 0.006356067955 2.119586541e-38
-0.02322297171 -0.5038637519 -0.03121155128 2.119586541e-38
-0.1638139635 -0.4606969953 -0.2681785226 2.119586541e-38
-0.2764838338 -0.3887267411 -0.05627394468 2.137881613e-38
0.09894197434 -0.3782651424 0.1863151491 2.137881613e-38
-0.04786517471 -0.5026565194 -0.06877914071 2.137881613e-38
0.2097772062 -0.443474263 -0.1889756769 2.137881613e-38
-0.3881718814 -0.3736534417 -0.09448866546 2.137881613e-38
-0.03707765788 -0.184469834 0.3247032166 2.137881613e-38
-0.3279673755 -0.4165614545 0.1166717857 2.137881613e-38
-0.08478226513 -0.5007117987 -0.1313471198 2.137881613e-38
-0.2620913088 -0.3713968396 -0.2920788229 2.156176826e-38
0.02578380704 -0.5070809126 0.08122314513 2.156176826e-38
-0.04777261615 -0.5023890138 -0.08121229708 2.156176826e-38
0.2096734047 -0.4318273365 -0.1513849944 2.156176826e-38
0.1598982662 -0.4309474528 0.2728527784 2.156176826e-38
-0.3521579802 -0.4021021426 0.04209589213 2.156176826e-38
0.1750027537 -0.3663588464 -0.06281404942 2.156176826e-38
-0.2907276452 -0.4653612673 0.04131014273 2.156176826e-38
0.04028014094 -0.5013979077 -0.1921724677 2.174471899e-38
0.1745875627 -0.3197712004 0.08754871041 2.174471899e-38
-0.02313040942 -0.5035962462 -0.04364470765 2.174471899e-38
-0.3873500526 -0.3593313396 -0.1812296361 2.174471899e-38
-0.2762987018 -0.3881917 -0.08114027977 2.174471899e-38
-0.02487289906 -0.2093035728 0.3118217289 2.174471899e-38
-0.04768005013 -0.5021214485 -0.09364546835 2.174471899e-38
-0.17608881 -0.4599595964 -0.2931788862 2.174471899e-38
0.1226922572 -0.4178908765 0.2727418542 2.192767111e-38
0.1626942307 -0.3298781514 -0.01234186068 2.192767111e-38
0.01378667355 -0.505540967 0.01892327145 2.192767111e-38
0.1753029078 -0.3893851042 -0.150428623 2.192767111e-38
-0.2088264823 -0.4970830381 -0.2072865814 2.192767111e-38
0.1759171486 -0.3517692089 -0.1619882137 2.192767111e-38
0.2090591788 -0.4694432318 -0.1398254335 2.192767111e-38
-0.1345295161 -0.4996348321 -0.1443164647 2.192767111e-38
0.01387923583 -0.5052734613 0.006490116939 2.211062324e-38
-0.186035499 -0.5036406517 0.07894434035 2.211062324e-38
0.1773195118 -0.264087975 -0.184816137 2.211062324e-38
-0.1468969285 -0.4991649389 -0.1568836868 2.211062324e-38
-0.2376342118 -0.3731391728 -0.2296449095 2.211062324e-38
0.002715177834 -0.5013258457 -0.1677082777 2.211062324e-38
-0.2768428624 -0.4017112553 -0.03169880807 2.211062324e-38
0.01397179812 -0.5050058961 -0.005943067372 2.211062324e-38
-0.02496546321 -0.2095710933 0.3242548704 2.229357396e-38
0.02606149763 -0.5062783957 0.04392362386 2.229357396e-38
-0.2778161168 -0.4523116052 0.004435926676 2.229357396e-38
-0.02229734138 -0.5011885762 -0.1555432081 2.229357396e-38
-0.1763777435 -0.4488477111 -0.2307218462 2.229357396e-38
-0.3121275008 -0.359207958 -0.2425911874 2.229357396e-38
0.0527400896 -0.5016002655 -0.1920384169 2.229357396e-38
-0.04749492556 -0.5015864372 -0.1185117811 2.229357396e-38
-0.1765516251 -0.4612971842 -0.2310130447 2.247652609e-38
-0.176366508 -0.4607621729 -0.2558794022 2.247652609e-38
0.07775260508 -0.5017374754 -0.2042034715 2.247652609e-38
-0.2998412549 -0.5066346526 0.3015349209 2.247652609e-38
-0.1599122584 -0.5005676746 -0.08241872489 2.247652609e-38
-0.1853875518 -0.5017680526 -0.008087832481 2.247652609e-38
-0.1986805797 -0.5039733052 0.1036766022 2.247652609e-38
0.02615405992 -0.5060108304 0.03149047121 2.247652609e-38
0.09785368294 -0.4053041935 0.2851980925 2.265947681e-38
-0.3031062782 -0.4529769421 0.05390044674 2.265947681e-38
-0.176273942 -0.4604946375 -0.2683125734 2.265947681e-38
-0.2500941455 -0.3729367852 -0.2297789603 2.265947681e-38
-0.1469894946 -0.4994324744 -0.1444505155 2.265947681e-38
-0.3154035807 -0.4284107089 0.07921516895 2.265947681e-38
0.1629494429 -0.3052468002 0.0006737168878 2.265947681e-38
0.00178954564 -0.5040010214 -0.04337660596 2.265947681e-38
0.02633918449 -0.5054758191 0.00662416406 2.284242894e-38
0.1614796817 -0.3214414716 0.174446851 2.284242894e-38
0.1641695797 -0.1078671142 -0.1194837093 2.284242894e-38
0.1746688783 -0.3075892925 0.1002730578 2.284242894e-38
0.1738470644 -0.3219113648 0.1870140582 2.284242894e-38
0.1626605242 -0.2941349149 0.0631307438 2.284242894e-38
0.09911586344 -0.3658156991 0.1866063327 2.284242894e-38
0.1750252247 -0.3901876509 -0.1131291166 2.284242894e-38
-0.2625541389 -0.3727344275 -0.2299130112 2.302537966e-38
0.1629606783 -0.3171612024 -0.0244838167 2.302537966e-38
-0.339871943 -0.4147539735 0.04193874076 2.302537966e-38
-0.1852024347 -0.5012329817 -0.03295417503 2.302537966e-38
0.1613871157 -0.321709007 0.1868800074 2.302537966e-38
0.06270089 -0.5090256333 0.1437911242 2.302537966e-38
-0.3496924639 -0.359135896 -0.2181269825 2.302537966e-38
0.01132955588 -0.3540897965 0.2854245305 2.302537966e-38
-0.1724647582 -0.5006328225 -0.07011961937 2.320833179e-38
0.2091517448 -0.4691757262 -0.1522585899 2.320833179e-38
0.167397812 -0.1012401879 -0.2184641361 2.320833179e-38
