# .PCD v0.7 - Point Cloud Data file format
VERSION 0.7
FIELDS x y z rgb
SIZE 4 4 4 4
TYPE F F F F
COUNT 1 1 1 1
WIDTH 827
HEIGHT 1
VIEWPOINT 0 0 0 1 0 0 0
POINTS 827
DATA ascii
-0.1600798965 -0.4521874785 -0.214709267 6.55152294e-39
0.129283309 -0.402667731 -0.2162898481 6.55152294e-39
0.1535595506 -0.4038072526 -0.2299340814 6.368926744e-39
-0.05888267606 -0.4192909598 -0.2196733952 6.368926744e-39
0.01686653681 -0.3977283239 -0.2233800143 6.368926744e-39
-0.3048509657 -0.4465883076 -0.382491678 6.368926744e-39
-0.304273963 -0.4465540349 -0.3700390756 6.186331949e-39
0.02987016551 -0.3982466757 -0.2115232497 6.186331949e-39
-0.2979800105 -0.483391881 -0.1955050826 6.186331949e-39
-0.09618030488 -0.4300379753 -0.2053674757 6.186331949e-39
-0.2601053715 -0.4726105928 -0.1973583996 6.003737154e-39
-0.2222307622 -0.4618292451 -0.1992117167 6.003737154e-39
-0.3025429547 -0.4464512467 -0.3326812387 6.003737154e-39
0.2032661289 -0.4060177803 -0.2323173732 6.003737154e-39
0.06716779619 -0.3874996603 -0.2258291543 5.820783626e-39
0.1293009818 -0.3902628124 -0.2288082838 5.820783626e-39
-0.3019659519 -0.4464169741 -0.3202286661 5.820783626e-39
0.09259805083 -0.3885706365 -0.2145682126 5.820783626e-39
-0.2097864151 -0.4499769807 -0.2123259753 5.63818743e-39
0.1050246805 -0.389123261 -0.2151640356 5.63818743e-39
0.1298779845 -0.3902285397 -0.2163556814 5.63818743e-39
-0.2990986109 -0.4586505294 -0.2454472035 5.63818743e-39
0.1423046291 -0.3907811642 -0.2169515043 5.455592635e-39
-0.1843384653 -0.4386430383 -0.2135834545 5.455592635e-39
0.2405460626 -0.4076756537 -0.2341048568 5.455592635e-39
-0.09558561444 -0.417598784 -0.205433324 5.455592635e-39
0.1547312438 -0.3913337886 -0.2175473273 5.272997839e-39
-0.0831412673 -0.40574646 -0.2185475826 5.272997839e-39
-0.1713348329 -0.4391614199 -0.2017266899 5.272997839e-39
-0.07013763487 -0.4062648416 -0.2066908181 5.272997839e-39
-0.1334602088 -0.4283800721 -0.203580007 5.090401643e-39
-0.01983637363 -0.3960361481 -0.209139958 5.090401643e-39
-0.03284003586 -0.3955177963 -0.2209967226 5.090401643e-39
-0.2216360867 -0.4493900836 -0.19927755 5.090401643e-39
-0.2719373107 -0.4596187472 -0.19682841 4.907806848e-39
0.1795845628 -0.3924390674 -0.218738988 4.907806848e-39
0.1298956871 -0.3778235912 -0.2288741171 4.907806848e-39
-0.1458868384 -0.4278274477 -0.202984184 4.907806848e-39
0.216287449 -0.3941312134 -0.2329790443 4.725212053e-39
-0.2594929934 -0.447766453 -0.2099426687 4.725212053e-39
0.2168644518 -0.3940969408 -0.2205264568 4.725212053e-39
0.08078380674 -0.3631738722 -0.2265566736 4.725212053e-39
0.1920288801 -0.3805867434 -0.2318532467 4.542257124e-39
0.03105955198 -0.373368293 -0.2116549313 4.542257124e-39
0.06835718453 -0.3626212478 -0.2259608507 4.542257124e-39
0.1056370661 -0.364279151 -0.2277483195 4.542257124e-39
-0.1707401276 -0.4267221987 -0.2017925382 4.359662329e-39
-0.2979269326 -0.4461770952 -0.2330604196 4.359662329e-39
-0.0701199472 -0.3938599229 -0.2192092538 4.359662329e-39
0.2044555098 -0.3811393678 -0.2324490696 4.359662329e-39
0.09378743172 -0.3636922538 -0.2146998942 4.177066133e-39
0.1062140688 -0.3642448783 -0.2152957171 4.177066133e-39
0.1429170072 -0.3659370244 -0.2295357883 4.177066133e-39
-0.1831667572 -0.4261695743 -0.2011967152 4.177066133e-39
-0.1198441684 -0.4040543139 -0.2043075264 3.994471337e-39
-0.2973499298 -0.4461428225 -0.2206078172 3.994471337e-39
-0.03224534541 -0.3830786049 -0.2210625708 3.994471337e-39
-0.08254657686 -0.3933072984 -0.2186134309 3.994471337e-39
0.04538182169 -0.2823506892 -0.1925507635 3.81151781e-39
0.0696580708 -0.283490181 -0.2061950415 3.81151781e-39
-0.01924168319 -0.3835969865 -0.2092057914 3.81151781e-39
0.03237819672 -0.2818323076 -0.2044075578 3.81151781e-39
0.04408087209 -0.3614817262 -0.2123166025 3.628921614e-39
0.2293087542 -0.3822446167 -0.2336407155 3.628921614e-39
-0.006797365844 -0.3717446625 -0.2223200649 3.628921614e-39
-0.3013535738 -0.4215728343 -0.3328129351 3.628921614e-39
0.0832387656 -0.2839742899 -0.1818856448 3.446326818e-39
-0.08196957409 -0.3932730258 -0.2061608285 3.446326818e-39
-0.107399866 -0.3922020197 -0.217421785 3.446326818e-39
0.131085068 -0.3529451787 -0.2290058136 3.446326818e-39
-0.3001995683 -0.4215042889 -0.3079077601 3.26337189e-39
-0.1831490695 -0.4137646556 -0.213715151 3.26337189e-39
0.09438212961 -0.3512530327 -0.2147657424 3.26337189e-39
-0.09439623356 -0.3927203715 -0.2055650055 3.26337189e-39
0.1068087593 -0.3518056571 -0.2153615654 3.080777095e-39
0.05710224807 -0.3495951295 -0.2129782736 3.080777095e-39
-0.01922398806 -0.3711920381 -0.221724242 3.080777095e-39
-0.1446974576 -0.4029490352 -0.2031158656 3.080777095e-39
0.1435116976 -0.353497833 -0.2296016365 2.898180898e-39
0.1193646342 -0.2857007086 -0.2085783333 2.898180898e-39
0.1932005733 -0.3681132793 -0.2194664925 2.898180898e-39
-0.2204467058 -0.4245116711 -0.1994092464 2.898180898e-39
0.205627203 -0.3686659038 -0.2200623155 2.715227371e-39
-0.03165064752 -0.3706394136 -0.2211284041 2.715227371e-39
-0.1825720668 -0.4137303829 -0.2012625635 2.715227371e-39
0.01924530603 -0.3479715288 -0.2236433923 2.715227371e-39
-0.119249478 -0.3916151226 -0.2043733597 2.532632576e-39
0.1565153301 -0.3540161848 -0.2177448571 2.532632576e-39
-0.2452999651 -0.4234064221 -0.1982175857 2.532632576e-39
0.2665710151 -0.3963074684 -0.2229097486 2.532632576e-39
-0.06894825399 -0.3813864589 -0.2068224996 2.349677647e-39
-0.02975500561 -0.2790691555 -0.2014284432 2.349677647e-39
0.0584031418 -0.2704641223 -0.1932124346 2.349677647e-39
0.02112326026 -0.2688062489 -0.1914249659 2.349677647e-39
-0.09437853098 -0.3803154826 -0.2180834413 2.167082852e-39
0.07082976401 -0.2710167468 -0.1938082576 2.167082852e-39
-0.2973145545 -0.4213329554 -0.2456447333 2.167082852e-39
0.2056449056 -0.3562609553 -0.2325807512 2.167082852e-39
0.02170026302 -0.2687719762 -0.1789723635 1.984127923e-39
-0.08137488365 -0.3808338344 -0.2062266767 1.984127923e-39
0.2665886879 -0.3839025199 -0.2354281843 1.984127923e-39
0.1572216004 -0.287324369 -0.1979131848 1.984127923e-39
-0.1068051606 -0.3797628284 -0.2174876183 1.801533128e-39
-0.005625672638 -0.3592711985 -0.2099333107 1.801533128e-39
-0.279674083 -0.3724870086 -0.2362633049 1.801533128e-39
0.09568307549 -0.2721220255 -0.1949999034 1.801533128e-39
-0.09380152822 -0.3802812099 -0.2056308538 1.618578199e-39
-0.2967375517 -0.4212986827 -0.2331921011 1.618578199e-39
-0.1819773763 -0.4012911618 -0.2013283968 1.618578199e-39
-0.2198520005 -0.4120724797 -0.1994750798 1.618578199e-39
0.00927357655 -0.2682193518 -0.1783765405 1.435982003e-39
-0.05592689663 -0.3694998622 -0.2074841708 1.435982003e-39
0.218648538 -0.3567793369 -0.2207239866 1.435982003e-39
-0.05460828543 -0.2779638767 -0.2002367973 1.435982003e-39
-0.2961605489 -0.42126441 -0.2207395136 1.253028475e-39
-0.1565294266 -0.3899572194 -0.2025858909 1.253028475e-39
-0.2955835462 -0.4212301672 -0.2082868814 1.253028475e-39
-0.01615668088 -0.2671483457 -0.1896374822 1.253028475e-39
-0.09378384054 -0.3678762615 -0.2181492895 1.070432279e-39
-0.03046126664 -0.3457610011 -0.2212601006 1.070432279e-39
-0.1819596887 -0.3888862431 -0.2138468325 1.070432279e-39
-0.2950065434 -0.4211958945 -0.195834294 1.070432279e-39
-0.1689560562 -0.3894045949 -0.201990068 8.874787512e-40
0.03414458409 -0.2569196522 -0.1920866221 8.874787512e-40
0.04657121003 -0.2574722767 -0.192682445 8.874787512e-40
0.1335399747 -0.2737456262 -0.1843347847 8.874787512e-40
-0.2192573249 -0.3996332586 -0.199540928 7.045238224e-40
-0.3007411957 -0.3967286646 -0.345397234 7.045238224e-40
-0.01745760441 -0.3462793529 -0.209403336 7.045238224e-40
-0.05533220619 -0.3570607007 -0.207550019 7.045238224e-40
0.01404880732 -0.1563007981 -0.1914217323 5.219290273e-40
-0.05531451851 -0.3446557522 -0.2200684547 5.219290273e-40
0.01464349963 -0.1438616067 -0.1914875656 5.219290273e-40
-0.2695585489 -0.4098619521 -0.1970917881 5.219290273e-40
-0.01020975783 -0.1427563429 -0.1902959198 3.389740985e-40
-0.02800630592 -0.2665614486 -0.1765890718 3.389740985e-40
-0.01080444828 -0.1551955342 -0.1902300715 3.389740985e-40
0.02766487747 -0.1319750249 -0.1921492368 3.389740985e-40
0.0389021188 -0.157406047 -0.1926133782 1.56020571e-40
-0.009615063667 -0.1303171366 -0.190361768 1.56020571e-40
0.009291267022 -0.2558144033 -0.1908949763 1.56020571e-40
0.03949680924 -0.1449668705 -0.1926792264 1.56020571e-40
-0.2825621963 -0.4093436003 -0.2089485526 6.490113838e-41
-0.1056334674 -0.3672893643 -0.2051008791 6.490113838e-41
0.2796100378 -0.3720159531 -0.2360898554 6.490113838e-41
0.03711804375 -0.1947236359 -0.1924158484 6.490113838e-41
-0.07830756903 -0.2767901123 -0.1741399318 2.496469266e-40
-0.1043148637 -0.2757533789 -0.1978535056 2.496469266e-40
-0.2819851935 -0.4093093276 -0.1964959651 2.496469266e-40
0.009868269786 -0.2557801306 -0.1784423888 2.496469266e-40
-0.2972791791 -0.3965230882 -0.2706816196 4.340353837e-40
-0.02085230686 -0.1048860997 -0.1898976266 4.340353837e-40
-0.0001618983224 -0.1930657476 -0.1906283647 4.340353837e-40
-0.2565372288 -0.3979753852 -0.1977534592 4.340353837e-40
-0.1037378609 -0.275719136 -0.1854008734 6.184224396e-40
0.02705249377 -0.1568191648 -0.1795649529 6.184224396e-40
0.08860868961 -0.1596165746 -0.1949966699 6.184224396e-40
0.00219918089 -0.1557139009 -0.178373307 6.184224396e-40
-0.03327896446 -0.1043334752 -0.1893018037 8.028094954e-40
-0.04043296725 -0.2660088241 -0.1759932488 8.028094954e-40
0.03769504279 -0.1946893781 -0.179963246 8.028094954e-40
0.02824187838 -0.1319407672 -0.1796966493 8.028094954e-40
-0.02442046069 -0.1795213073 -0.1895025671 9.871979525e-40
0.04007381201 -0.1449326128 -0.180226624 9.871979525e-40
0.03888443112 -0.1698109806 -0.1800949425 9.871979525e-40
-0.009632755071 -0.1427220851 -0.1778433323 9.871979525e-40
-0.1167414933 -0.2752007544 -0.1972576678 1.171585008e-39
0.001604489051 -0.1681530923 -0.1783074588 1.171585008e-39
-0.009038060904 -0.1302828789 -0.1779091656 1.171585008e-39
-0.05872694403 -0.1156674325 -0.1880443096 1.171585008e-39
0.05071636289 -0.1828028262 -0.1806249171 1.355972064e-39
0.05250044167 -0.1454852372 -0.1808224469 1.355972064e-39
-0.1813649982 -0.3764470518 -0.2139126807 1.355972064e-39
0.04128088802 -0.1076492518 -0.1928767562 1.355972064e-39
-0.07174826413 -0.1275539845 -0.1873826385 1.540360521e-39
-0.04570559412 -0.1037808508 -0.1887059808 1.540360521e-39
0.06492706388 -0.1460378766 -0.1814182699 1.540360521e-39
-0.07293765247 -0.1524323821 -0.1872509569 1.540360521e-39
-0.09261214733 -0.3554027975 -0.2057625353 1.724747577e-39
-0.07115357369 -0.1151147932 -0.1874484867 1.724747577e-39
-0.04691267014 -0.1410641968 -0.1760558635 1.724747577e-39
-0.1031608582 -0.2756848633 -0.1729482859 1.724747577e-39
-0.1559170485 -0.3651131094 -0.2151701748 1.909134633e-39
-0.01141683199 -0.180039674 -0.1776458025 1.909134633e-39
-0.06716417521 -0.344068855 -0.2070200294 1.909134633e-39
0.01167003624 -0.2060575932 -0.1911583543 1.909134633e-39
0.08859100193 -0.1720215082 -0.1824782342 2.09352309e-39
0.08799630404 -0.1844607145 -0.1824123859 2.09352309e-39
0.04716590047 -0.2450330704 -0.1927482933 2.09352309e-39
-0.02384345978 -0.1794870496 -0.1770499796 2.09352309e-39
-0.0327019617 -0.1042992175 -0.1768492162 2.277910146e-39
-0.105038777 -0.354850173 -0.2051667124 2.277910146e-39
0.2435195297 -0.3454796672 -0.2344340682 2.277910146e-39
0.1022247002 -0.1352908015 -0.1957241893 2.277910146e-39
-0.1807879955 -0.3764127791 -0.2014600933 2.462297202e-39
-0.09660154581 -0.1264487207 -0.1861909926 2.462297202e-39
0.04187558591 -0.09521006048 -0.1929425895 2.462297202e-39
-0.08298550546 -0.1021229476 -0.186918512 2.462297202e-39
0.06611645222 -0.1211594641 -0.1815499663 2.646685659e-39
-0.02741161548 -0.2541222274 -0.17665492 2.646685659e-39
0.1016123146 -0.1601349413 -0.1831399053 2.646685659e-39
0.005190332886 -0.08111299574 -0.191220969 2.646685659e-39
0.1341346651 -0.2613064349 -0.184400633 2.830713982e-39
0.1004229262 -0.1850133389 -0.1830082089 2.830713982e-39
-0.298415482 -0.3841866851 -0.3081052899 2.830713982e-39
-0.2972614765 -0.3841181397 -0.2832000554 2.830713982e-39
0.07856076956 -0.1093071401 -0.194664225 3.015101038e-39
0.1122725531 -0.1856002361 -0.1960566342 3.015101038e-39
-0.08655366302 -0.1767581552 -0.1865234524 3.015101038e-39
0.09925123304 -0.197486788 -0.195394963 3.015101038e-39
-0.000179589726 -0.205470711 -0.178109929 3.199488094e-39
-0.08419258147 -0.1394063085 -0.1742683798 3.199488094e-39
-0.08478727192 -0.1518454999 -0.1742025465 3.199488094e-39
-0.268369168 -0.3849835694 -0.1972234696 3.199488094e-39
-0.1031431705 -0.2632799447 -0.1854667217 3.383517819e-39
-0.06112340093 -0.1778291613 -0.1752624959 3.383517819e-39
0.1258885711 -0.1612744629 -0.1967841387 3.383517819e-39
0.2440965325 -0.3454453945 -0.2219814807 3.383517819e-39
-0.1280141324 -0.2745795846 -0.1717566401 3.567904875e-39
0.09098745883 -0.1098597795 -0.1952600479 3.567904875e-39
-0.07472172379 -0.189749971 -0.1870534271 3.567904875e-39
-0.2949534655 -0.3839810789 -0.2333896309 3.567904875e-39
-0.2943764627 -0.3839468062 -0.2209370434 3.75229193e-39
-0.1298743635 -0.3413399756 -0.2164935023 3.75229193e-39
0.0365056619 -0.2195677906 -0.1798315644 3.75229193e-39
-0.09898032248 -0.1762055308 -0.1859276295 3.75229193e-39
0.08680692315 -0.209339112 -0.1822807044 3.936320254e-39
-0.04451620579 -0.07890248299 -0.1888376623 3.936320254e-39
-0.00196366664 -0.2427882999 -0.1779123992 3.936320254e-39
0.01821165532 -0.06922641397 -0.1918826252 3.936320254e-39
0.1246991828 -0.1861528605 -0.1966524571 4.120708711e-39
-0.06526856124 -0.2524986267 -0.1873200387 4.120708711e-39
0.02407903038 -0.2190151662 -0.1792357415 4.120708711e-39
0.04833759367 -0.2325596064 -0.1803615391 4.120708711e-39
-0.01908592135 -0.07997347414 -0.1775767207 4.304737034e-39
0.07915546 -0.09686794877 -0.1947300583 4.304737034e-39
0.1584109813 -0.2624459565 -0.1980448663 4.304737034e-39
-0.180193305 -0.3639735878 -0.2015259266 4.304737034e-39
-0.1084511727 -0.1258618385 -0.1731425822 4.48912409e-39
-0.0380365029 -0.2038470805 -0.1887750626 4.48912409e-39
-0.09780862182 -0.1637320518 -0.1735408753 4.48912409e-39
0.06076422334 -0.2331122309 -0.1809573621 4.48912409e-39
-0.1423009932 -0.3407873213 -0.2158976793 4.673152414e-39
-0.01906822808 -0.06756852567 -0.1900951564 4.673152414e-39
0.1092990935 -0.2477962226 -0.1957274228 4.673152414e-39
-0.08179611713 -0.07724459469 -0.1870501935 4.673152414e-39
-0.07769519091 -0.2519460022 -0.1867242157 4.857539469e-39
-0.2429211736 -0.373649627 -0.1984809637 4.857539469e-39
0.125276193 -0.1861186028 -0.1841998696 4.857539469e-39
0.09923354536 -0.2098917514 -0.1828765273 4.857539469e-39
0.04304727912 -0.08273662627 -0.1805558503 5.041567793e-39
0.2198379189 -0.3319009542 -0.2208556682 5.041567793e-39
-0.1072617918 -0.1009834409 -0.1732742637 5.041567793e-39
-0.06469155848 -0.252464354 -0.1748674363 5.041567793e-39
-0.09422277659 -0.07669197023 -0.1864543706 5.225597518e-39
0.1241044924 -0.1985920519 -0.1965866089 5.225597518e-39
0.115823023 -0.1233699918 -0.1839332581 5.225597518e-39
-0.2553478181 -0.3730970025 -0.1978851408 5.225597518e-39
-0.08657135069 -0.1891630888 -0.1740050167 5.409984573e-39
0.2926313281 -0.3601293862 -0.2367515266 5.409984573e-39
-0.09847947955 -0.2056140602 -0.218409434 5.409984573e-39
-0.01849122718 -0.067534253 -0.1776425689 5.409984573e-39
0.1388922036 -0.1617928296 -0.1849273741 5.594012897e-39
-0.3001287878 -0.3718845844 -0.3579815328 5.594012897e-39
-0.09669539332 -0.1682964861 -0.2186069638 5.594012897e-39
-0.1671719849 -0.3520870209 -0.2021875978 5.594012897e-39
-0.07531642169 -0.2021891922 -0.1869875789 5.77804122e-39
0.08561753482 -0.2342174798 -0.1821490228 5.77804122e-39
0.1400992721 -0.1245094985 -0.1975774914 5.77804122e-39
0.08621223271 -0.2217782885 -0.1822148561 5.77804122e-39
-0.1038493961 -0.3299717605 -0.2052984089 5.962428276e-39
-0.1161702722 -0.08546873927 -0.331341207 5.962428276e-39
-0.2989747822 -0.3718160689 -0.3330762982 5.962428276e-39
-0.08120142668 -0.06480537355 -0.1871160418 5.962428276e-39
-0.2966667712 -0.3716789782 -0.2832659185 6.1464566e-39
-0.122661896 -0.162626788 -0.1723492295 6.1464566e-39
-0.1190937534 -0.08799161017 -0.172744289 6.1464566e-39
-0.1103114039 -0.1926222444 -0.2178794444 6.1464566e-39
0.1400815845 -0.136914432 -0.1850590557 6.330484923e-39
-0.1097167134 -0.1801830232 -0.2179452926 6.330484923e-39
-0.1109060943 -0.2050614357 -0.217813611 6.330484923e-39
0.09806185216 -0.2223652154 -0.1952632815 6.330484923e-39
0.1045857742 -0.09793895483 -0.1834691167 6.514514648e-39
0.006956720725 -0.05620032921 -0.178900063 6.514514648e-39
-0.07473941892 -0.2021549344 -0.1745349914 6.514514648e-39
0.08032716066 -0.08439451456 -0.1823433191 6.514514648e-39
0.2932083309 -0.3600951135 -0.2242989242 6.698542971e-39
-0.0433268249 -0.05402408168 -0.1889693588 6.698542971e-39
-0.005469908006 -0.0556476973 -0.1783042401 6.698542971e-39
0.1347293556 -0.2488672286 -0.1844664663 6.698542971e-39
-0.1060724035 -0.07610505819 -0.1734059602 6.882571295e-39
0.08034484833 -0.07198956609 -0.1948617548 6.882571295e-39
-0.02679922991 -0.2292781025 -0.189239189 6.882571295e-39
0.1631685197 -0.1629323512 -0.1985716224 6.882571295e-39
-0.005452216603 -0.04324275628 -0.1908226758 7.066599618e-39
0.1098937839 -0.2353570312 -0.1957932562 7.066599618e-39
0.04425435513 -0.04545327649 -0.1932059675 7.066599618e-39
-0.1038317084 -0.3175668418 -0.2178168446 7.066599618e-39
0.04423666 -0.05785821751 -0.1806875318 7.250627941e-39
-0.07710049301 -0.239506796 -0.1867900491 7.250627941e-39
0.1489578187 -0.1996973157 -0.1977782696 7.250627941e-39
-0.2168785334 -0.3498764932 -0.199804306 7.250627941e-39
0.1471560448 -0.2494198531 -0.1850622892 7.434656265e-39
-0.06409686804 -0.2400251478 -0.1749332845 7.434656265e-39
-0.03922589123 -0.2287254483 -0.1886433661 7.434656265e-39
-0.1031489521 -0.07358218729 -0.3320028782 7.434656265e-39
-0.110923782 -0.2174663544 -0.2052951753 7.618684588e-39
-0.06348448247 -0.215181008 -0.1875175685 7.618684588e-39
-0.09492900968 -0.143383801 -0.2062860578 7.618684588e-39
-0.105477713 -0.06366585195 -0.1734717935 7.618684588e-39
-0.1475913525 -0.1909643412 -0.2160919756 7.802712912e-39
0.122915104 -0.2234704643 -0.1964549273 7.802712912e-39
-0.122755751 -0.2044745386 -0.2047651857 7.802712912e-39
-0.1054600254 -0.05126093701 -0.1859902292 7.802712912e-39
-0.1032547057 -0.3175325692 -0.2053642422 7.986382503e-39
-0.2960720956 -0.3592397571 -0.2833317518 7.986382503e-39
-0.1073379368 -0.1304262578 -0.2182086706 7.986382503e-39
0.1643402129 -0.1504589021 -0.1861848682 7.986382503e-39
-0.1019537821 -0.2384015173 -0.1855984032 8.170410826e-39
0.129439041 -0.09904421866 -0.1846607625 8.170410826e-39
0.305635035 -0.360647738 -0.224894762 8.170410826e-39
-0.1458072662 -0.1536467373 -0.2162895054 8.170410826e-39
0.04484904557 -0.03301409259 -0.1932718158 8.35443915e-39
0.2322822213 -0.3200486302 -0.2339699268 8.35443915e-39
0.2204326093 -0.3194617331 -0.2209215164 8.35443915e-39
-0.06407917291 -0.2276201993 -0.1874517202 8.35443915e-39
-0.1594232917 -0.1779724956 -0.2155620009 8.538467473e-39
-0.01728415303 -0.03025094047 -0.1902926862 8.538467473e-39
-0.1351823807 -0.2039219141 -0.2041693628 8.538467473e-39
-0.2865039408 -0.1229978427 -0.3219405711 8.538467473e-39
0.06910759956 -0.04655853286 -0.1943976134 8.722137064e-39
-0.09245639294 -0.0517792888 -0.1741334647 8.722137064e-39
0.1649525911 -0.1256147623 -0.1987691522 8.722137064e-39
0.1057751626 -0.07306055725 -0.1836008132 8.722137064e-39
-0.25473544 -0.3482528925 -0.2104694247 8.906165387e-39
-0.2541584373 -0.3482186198 -0.1980168223 8.906165387e-39
0.135324046 -0.2364280075 -0.1845323145 8.906165387e-39
-0.004280522466 -0.03076929972 -0.1784359217 8.906165387e-39
-0.1013767794 -0.2383672446 -0.1731458157 9.089834978e-39
-0.2859269381 -0.1229635775 -0.3094879985 9.089834978e-39
-0.1712552309 -0.1649807096 -0.2150320113 9.089834978e-39
-0.2865216434 -0.1354027689 -0.3094221354 9.089834978e-39
0.1359187365 -0.2239888161 -0.1845981628 9.273863302e-39
0.05727566779 -0.03356672451 -0.1938676387 9.273863302e-39
0.1418656707 -0.09959684312 -0.1852565855 9.273863302e-39
0.04542604834 -0.03297981992 -0.1808192134 9.273863302e-39
0.210402444 -0.2567473948 -0.2331075072 9.457532893e-39
-0.1482037306 -0.215808481 -0.2035076916 9.457532893e-39
-0.1281079799 -0.3164273202 -0.2041725963 9.457532893e-39
0.1300337315 -0.08660502732 -0.1847266108 9.457532893e-39
0.1607897431 -0.2126891464 -0.1983082443 9.641561216e-39
0.1655472964 -0.1131755561 -0.1988349855 9.641561216e-39
-0.1588462889 -0.1779382527 -0.2031093985 9.641561216e-39
-0.2858738601 -0.08574876189 -0.3470433354 9.641561216e-39
-0.1600356698 -0.2028166652 -0.2029777169 9.825230807e-39
-0.1836818755 -0.1644280553 -0.2144361883 9.825230807e-39
-0.113803409 -0.2378146201 -0.1725499928 9.825230807e-39
0.2115741372 -0.2442739606 -0.2207207531 9.825230807e-39
-0.2292874753 -0.3369189203 -0.2117269188 1.000925913e-38
0.04544373602 -0.02057490125 -0.1933376491 1.000925913e-38
-0.1013590917 -0.2259623259 -0.1856642514 1.000925913e-38
-0.0918617025 -0.03934007511 -0.1741993129 1.000925913e-38
0.1182194799 -0.06120827422 -0.1967150718 1.019292872e-38
-0.2900367081 -0.1728231609 -0.3465824127 1.019292872e-38
-0.2853322625 -0.1105243638 -0.3095538318 1.019292872e-38
-0.2894597054 -0.1727888882 -0.3341298103 1.019292872e-38
-0.2858561873 -0.07334384322 -0.3595617712 1.037659831e-38
-0.09373962879 -0.1185054034 -0.2064177394 1.037659831e-38
-0.2795887291 -0.3471476138 -0.2092777789 1.037659831e-38
0.05785267055 -0.03353245184 -0.1814150363 1.037659831e-38
-0.1257115304 -0.2542656064 -0.2169544101 1.056062664e-38
-0.1967031956 -0.1763146222 -0.2137745321 1.056062664e-38
-0.1712729186 -0.1773856282 -0.2025135756 1.056062664e-38
0.2240184546 -0.2324216068 -0.2338350117 1.056062664e-38
-0.1961085051 -0.1638754308 -0.2138403654 1.074429623e-38
-0.2972083986 -0.3469033837 -0.3207553923 1.074429623e-38
-0.08835542947 -0.2264806777 -0.1738074869 1.074429623e-38
-0.1724622995 -0.2022640109 -0.202381894 1.074429623e-38
-0.2943233848 -0.3467320502 -0.2584923804 1.092796582e-38
-0.2983624041 -0.3469718993 -0.3456606269 1.092796582e-38
-0.293746382 -0.3466977775 -0.2460397929 1.092796582e-38
0.281394124 -0.334698379 -0.2362873852 1.092796582e-38
-0.1405346096 -0.3158746958 -0.2035767734 1.111163541e-38
0.2127635181 -0.2193955481 -0.2208524346 1.111163541e-38
0.02116742358 -0.01943537593 -0.1796934158 1.111163541e-38
0.2452859133 -0.3205670118 -0.2221131623 1.111163541e-38
-0.1061485559 -0.1055478677 -0.2183403522 1.1295305e-38
0.008740797639 -0.01888274774 -0.1790975928 1.1295305e-38
-0.04154274613 -0.01670649275 -0.1891668886 1.1295305e-38
-0.003685830161 -0.01833011955 -0.1785017699 1.1295305e-38
-0.2925923765 -0.3466292322 -0.2211345732 1.147897319e-38
0.3149463236 -0.3531149924 -0.1765417159 1.147897319e-38
-0.1700835228 -0.1525072157 -0.202645272 1.147897319e-38
-0.2772953212 -0.3227302134 -0.2365266681 1.147897319e-38
-0.2847198546 -0.085680224 -0.3221381009 1.166264278e-38
-0.01611245796 -0.01777748764 -0.177905947 1.166264278e-38
-0.2865570188 -0.160212636 -0.2843852341 1.166264278e-38
-0.1949191093 -0.1389970481 -0.2139720619 1.166264278e-38
-0.1831048727 -0.1643938124 -0.2019836009 1.184631237e-38
0.224613145 -0.2199824452 -0.23390086 1.184631237e-38
-0.1493931115 -0.2406868637 -0.2033760101 1.184631237e-38
-0.2906314135 -0.1852623522 -0.3465165794 1.184631237e-38
-0.2541407645 -0.3358136714 -0.2105352581 1.202998196e-38
-0.291785419 -0.1853308976 -0.3714217842 1.202998196e-38
-0.285261482 -0.06090465561 -0.3596276045 1.202998196e-38
0.220450297 -0.3070568144 -0.2334399521 1.202998196e-38
-0.1564498246 -0.1157765314 -0.2158912122 1.221365155e-38
-0.2847021818 -0.07327531278 -0.3346565366 1.221365155e-38
-0.003668139689 -0.005925167352 -0.1910202056 1.221365155e-38
-0.1961261928 -0.1762803495 -0.2013219297 1.221365155e-38
-0.09312723577 -0.09366127849 -0.2190020233 1.239732115e-38
0.1188141704 -0.04876905307 -0.1967809051 1.239732115e-38
-0.07882265747 -0.01504860446 -0.1873794049 1.239732115e-38
-0.152961269 -0.3153220713 -0.2029809505 1.239732115e-38
0.2245954573 -0.2323873639 -0.2213824242 1.258099074e-38
-0.1133025587 -0.2672231495 -0.2050317973 1.258099074e-38
-0.2897219658 -0.3221775591 -0.23593086 1.258099074e-38
-0.2209617794 -0.1627701819 -0.2126487195 1.258099074e-38
0.05844736844 -0.02109326795 -0.1814808846 1.276466033e-38
0.281971097 -0.3346641064 -0.2238347977 1.276466033e-38
-0.1144742519 -0.2796966136 -0.2174185514 1.276466033e-38
-0.2221511602 -0.1876485646 -0.212517038 1.276466033e-38
-0.194936797 -0.1514019668 -0.2014536262 1.294832852e-38
-0.1943244189 -0.1265578568 -0.2140378952 1.294832852e-38
-0.2085528374 -0.175727725 -0.2007261068 1.294832852e-38
0.213952899 -0.1945171356 -0.2209841311 1.294832852e-38
0.1667366773 -0.08829718828 -0.198966682 1.313163938e-38
-0.2841251791 -0.07324104011 -0.322203964 1.313163938e-38
-0.1179982126 -0.1049609631 -0.2052919418 1.313163938e-38
-0.1179805249 -0.09255602211 -0.2178103775 1.313163938e-38
-0.2339830995 -0.174656719 -0.2119870484 1.331530897e-38
-0.09255023301 -0.09362700582 -0.206549421 1.331530897e-38
-0.1813030988 -0.1146712676 -0.2146995664 1.331530897e-38
-0.0782456547 -0.01501433924 -0.1749268174 1.331530897e-38
0.2346609831 -0.2702918649 -0.2342333049 1.349897856e-38
-0.1304071546 -0.09200339019 -0.2172145545 1.349897856e-38
-0.1629914492 -0.2526077032 -0.2151669413 1.349897856e-38
-0.104959175 -0.08066946268 -0.2184720337 1.349897856e-38
-0.2937287092 -0.334292829 -0.2585582435 1.368228942e-38
-0.232199043 -0.1373391449 -0.2121845782 1.368228942e-38
-0.2458150685 -0.1616649032 -0.2114570737 1.368228942e-38
-0.1937297285 -0.1141186431 -0.2141037434 1.368228942e-38
-0.2357671857 -0.2119743228 -0.2117895186 1.386595901e-38
-0.2846668065 -0.04846543819 -0.3596934378 1.386595901e-38
0.2482770681 -0.2459661067 -0.2349608243 1.386595901e-38
0.08330062032 -0.02219852433 -0.1826725304 1.386595901e-38
-0.003073447384 0.006514014676 -0.1910860389 1.404926846e-38
0.1075592414 -0.03574297205 -0.1837983429 1.404926846e-38
-0.1173858345 -0.08011683077 -0.2178762108 1.404926846e-38
-0.2914206982 -0.3341557682 -0.2087477893 1.404926846e-38
-0.01550007612 0.007066644728 -0.190490216 1.423293806e-38
-0.1030989438 -0.01390907913 -0.1737351716 1.423293806e-38
0.1554994285 -0.06286616623 -0.1985025406 1.423293806e-38
-0.09065462649 -0.002056758851 -0.1868494302 1.423293806e-38
0.1673313677 -0.07585798204 -0.1990325153 1.441624891e-38
-0.2830596268 -0.1351971626 -0.2347065061 1.441624891e-38
-0.1274956018 -0.2915831804 -0.2167568803 1.441624891e-38
-0.09195554256 -0.08118782938 -0.2066152692 1.441624891e-38
0.3186563551 -0.3487611711 -0.2255564183 1.459991851e-38
-0.139327541 -0.2785913348 -0.2162268907 1.459991851e-38
-0.2835304737 -0.06080185622 -0.3222697973 1.459991851e-38
-0.2316043377 -0.1248999685 -0.2122504264 1.459991851e-38
0.3429149091 -0.3623056114 -0.2266822308 1.478322936e-38
0.2151599824 -0.1572338045 -0.2336342484 1.478322936e-38
-0.2121033072 -0.2379579842 -0.2128494829 1.478322936e-38
-0.2576470077 -0.1486730874 -0.2109270841 1.478322936e-38
-0.1748410761 -0.2520208359 -0.202118516 1.496689755e-38
0.05905974656 0.003750866279 -0.1940651685 1.496689755e-38
-0.236361891 -0.2244135439 -0.2117236853 1.496689755e-38
0.2458806038 -0.3081278205 -0.2221790105 1.496689755e-38
0.2458982915 -0.295722872 -0.2346974462 1.515020841e-38
0.119985871 -0.03629559651 -0.1843941659 1.515020841e-38
-0.193135038 -0.1016794592 -0.2141695917 1.515020841e-38
-0.2115263045 -0.2379237115 -0.2003968954 1.515020841e-38
-0.2835128009 -0.04839690775 -0.334788233 1.533351927e-38
-0.2446433604 -0.1491914392 -0.1990703195 1.533351927e-38
-0.2824826241 -0.13516289 -0.2222539037 1.533351927e-38
-0.09007762372 -0.002022493631 -0.1743968427 1.533351927e-38
-0.2712630332 -0.1729988456 -0.2101995796 1.551683013e-38
0.238211453 -0.2080616057 -0.2221099287 1.551683013e-38
0.09574499726 -0.01034620777 -0.1957867891 1.551683013e-38
0.156094119 -0.05042694882 -0.1985683888 1.551683013e-38
-0.2761059403 -0.2978518009 -0.2366583645 1.570049832e-38
-0.2310096622 -0.1124607548 -0.2123162746 1.570049832e-38
0.1081539318 -0.02330378816 -0.1838641763 1.570049832e-38
-0.2002713531 -0.2509498298 -0.2133794576 1.570049832e-38
-0.2818525434 -0.09791383892 -0.2473566532 1.588380918e-38
-0.09134316444 -0.05634368956 -0.2191995531 1.588380918e-38
0.2612983882 -0.23407951 -0.2356224805 1.588380918e-38
-0.1292177737 -0.06712501496 -0.2173462361 1.588380918e-38
-0.2919799984 -0.3217851222 -0.2337188572 1.606712004e-38
-0.2830950022 -0.1600070298 -0.2096696049 1.606712004e-38
-0.223952949 -0.2373710871 -0.1998010725 1.606712004e-38
-0.2924154997 -0.2225799561 -0.3463190496 1.606712004e-38
-0.2929925025 -0.2226141989 -0.358771652 1.625043089e-38
-0.2989040315 -0.3221963346 -0.3831501007 1.625043089e-38
0.2825658023 -0.3222248852 -0.2239006311 1.625043089e-38
-0.2935695052 -0.2226484716 -0.3712242544 1.625043089e-38
-0.2180060148 -0.1129791066 -0.2004594952 1.643374035e-38
0.07206337154 0.00323250331 -0.182208389 1.643374035e-38
0.2470699847 -0.283249408 -0.2223106921 1.643374035e-38
-0.2885325849 -0.2972991765 -0.2360625267 1.643374035e-38
0.2500434518 -0.2210534513 -0.2226399183 1.661705121e-38
-0.2895304859 -0.2224086225 -0.2840560377 1.661705121e-38
-0.2482115328 -0.2238266468 -0.1986752599 1.661705121e-38
0.2583072186 -0.308680445 -0.2227748334 1.661705121e-38
0.259514302 -0.2713971138 -0.2354249507 1.680036207e-38
0.3398172259 -0.3418153226 -0.1902518272 1.680036207e-38
-0.1024865657 0.01093505323 -0.1863194555 1.680036207e-38
-0.2700913548 -0.1605254114 -0.1978128254 1.680036207e-38
-0.2819056213 -0.1351286322 -0.2098012865 1.698367293e-38
-0.2712807357 -0.1854037941 -0.1976811439 1.698367293e-38
-0.1795367151 -0.08975859731 -0.2023786604 1.698367293e-38
0.2163493633 -0.1323554218 -0.2337659299 1.698367293e-38
-0.2612151802 -0.2233082652 -0.2105320245 1.716698239e-38
0.2618930936 -0.2216403186 -0.2356883287 1.716698239e-38
0.08381918818 -0.03920210898 -0.2276727706 1.716698239e-38
0.3186740279 -0.3363562822 -0.238074854 1.716698239e-38
-0.2812755406 -0.0978795737 -0.2349040359 1.735029324e-38
0.07139255852 -0.03864947706 -0.2270769477 1.735029324e-38
-0.2121210098 -0.2503629327 -0.2003310472 1.735029324e-38
0.009259331971 -0.03588632867 -0.224097833 1.735029324e-38
-0.1149132177 0.01148768514 -0.1857236326 1.75336041e-38
-0.2558629513 -0.111355491 -0.2111246288 1.75336041e-38
-0.1286407709 -0.06709074974 -0.2048936486 1.75336041e-38
-0.2902489901 -0.3216823339 -0.1963610351 1.75336041e-38
-0.2523743808 -0.310901016 -0.1982143521 1.771655483e-38
-0.2883764803 -0.2223400772 -0.2591508329 1.771655483e-38
0.1087486222 -0.01086457074 -0.1839300245 1.771655483e-38
0.3646528721 -0.35532552 -0.1789250076 1.771655483e-38
-0.2854737639 -0.2097637951 -0.2094062269 1.789986569e-38
-0.1919633448 -0.0892059654 -0.2017828375 1.789986569e-38
-0.01559395343 -0.03478106856 -0.2229061872 1.789986569e-38
-0.2493832111 -0.236300081 -0.2110620141 1.789986569e-38
-0.2877994776 -0.2223058045 -0.2466982156 1.808317654e-38
-0.2370772958 -0.2870019972 -0.213606447 1.808317654e-38
-0.2819232941 -0.147533536 -0.1972828507 1.808317654e-38
0.2725356221 -0.2595105469 -0.2360866219 1.808317654e-38
-0.2132926881 -0.2628363669 -0.2127178013 1.826612727e-38
-0.2275034189 -0.2996013463 -0.2119244486 1.826612727e-38
0.2949924171 -0.3227775097 -0.224496454 1.826612727e-38
0.2169263661 -0.1323211491 -0.2213133425 1.826612727e-38
-0.15349406 -0.06598548591 -0.2037019879 1.844943813e-38
-0.2806808352 -0.08544036001 -0.2349698693 1.844943813e-38
0.2512328327 -0.1961750388 -0.2227715999 1.844943813e-38
-0.236500293 -0.2869677246 -0.2011538744 1.844943813e-38
-0.2924331725 -0.2349848747 -0.3338005841 1.863274899e-38
-0.2930101752 -0.2350191474 -0.3462532163 1.863274899e-38
-0.2778046727 -0.3098300397 -0.2094753087 1.863274899e-38
0.2630824447 -0.1967619359 -0.2358200103 1.863274899e-38
-0.1280460656 -0.05465153605 -0.204959482 1.881569971e-38
0.2743197083 -0.2221929431 -0.2362841517 1.881569971e-38
-0.2947411835 -0.2351219356 -0.3836110234 1.881569971e-38
-0.09017147124 -0.04387024045 -0.206812799 1.881569971e-38
-0.2399300337 -0.2990487218 -0.2113286257 1.899901057e-38
-0.2422645986 -0.09943466634 -0.1993336976 1.899901057e-38
0.2406079173 -0.1458998919 -0.2348917425 1.899901057e-38
0.03470730782 -0.02455240302 -0.2253553271 1.899901057e-38
-0.03987020254 -0.03364154324 -0.2092619389 1.91819627e-38
0.1454338133 -0.02496167645 -0.1856516451 1.91819627e-38
-0.2546735406 -0.08647708595 -0.2112563103 1.91819627e-38
-0.2807339132 -0.1226551756 -0.1974145323 1.91819627e-38
-0.1783473343 -0.06488022953 -0.202510342 1.936527215e-38
-0.2677125931 -0.1107685864 -0.1980762035 1.936527215e-38
-0.2037776262 -0.06380923092 -0.2137712836 1.936527215e-38
0.133601889 -0.01196983084 -0.1851216704 1.936527215e-38
-0.2800861597 -0.07300117612 -0.2350357175 1.954822428e-38
-0.2878171504 -0.2347107232 -0.2341797501 1.954822428e-38
0.2749143839 -0.2097537816 -0.2363499999 1.954822428e-38
0.2725179195 -0.2719154954 -0.2235681862 1.954822428e-38
0.2849622667 -0.2600631714 -0.2366824448 1.973153514e-38
-0.3003645241 -0.2843073606 -0.235532552 1.973153514e-38
-0.2613536119 -0.2858624458 -0.1999622285 1.973153514e-38
-0.2896543145 -0.3092431426 -0.1964268833 1.973153514e-38
-0.2801215351 -0.09781104326 -0.2099988163 1.991448586e-38
-0.2743572295 -0.285344094 -0.2118189931 1.991448586e-38
0.1696924418 -0.03850611672 -0.1867774576 1.991448586e-38
-0.2736594975 -0.2351605594 -0.1974177659 1.991448586e-38
0.1336195767 0.0004350878298 -0.1976401061 2.009743799e-38
0.2411849201 -0.1458656192 -0.2224391401 2.009743799e-38
-0.2907198668 -0.2472870052 -0.2839243412 2.009743799e-38
-0.2828827202 -0.01114785392 -0.3598909676 2.009743799e-38
0.04771094024 -0.02507076412 -0.2134985477 2.028074885e-38
-0.1653259844 -0.05299364775 -0.2031720132 2.028074885e-38
-0.2817464173 -0.02348423935 -0.3224673271 2.028074885e-38
0.1578605026 -0.02551430836 -0.1862474829 2.028074885e-38
0.06013756618 -0.02562339418 -0.2140943706 2.046369957e-38
0.07256425172 -0.02617602609 -0.2146902084 2.046369957e-38
-0.1274513751 -0.04221234843 -0.2050253302 2.046369957e-38
0.1092671305 -0.02786818147 -0.2289302647 2.046369957e-38
-0.2930278778 -0.2474240661 -0.3337347507 2.06466517e-38
-0.2032006234 -0.06377497315 -0.2013186961 2.06466517e-38
-0.2936048806 -0.2474583387 -0.3461873531 2.06466517e-38
0.1460285187 -0.01252245903 -0.1857174933 2.06466517e-38
0.2299476862 -0.1204345971 -0.2219750136 2.082996116e-38
-0.2795091569 -0.0729669109 -0.22258313 2.082996116e-38
0.297983557 -0.2481766045 -0.237344116 2.082996116e-38
-0.2629992366 -0.260625869 -0.2103344947 2.082996116e-38
0.2761037946 -0.1848753691 -0.2364816815 2.101291328e-38
-0.2907906175 -0.2969067097 -0.2338505387 2.101291328e-38
-0.06412880123 -0.02009709738 -0.2081361413 2.101291328e-38
0.01044871658 -0.01100795716 -0.2242295146 2.101291328e-38
-0.2992105186 -0.2842388451 -0.2106273472 2.119586541e-38
-0.2517619729 -0.286056906 -0.2107986361 2.119586541e-38
-0.1398603469 -0.02925476991 -0.216947943 2.119586541e-38
-0.2805924118 -0.02341570705 -0.2975621223 2.119586541e-38
0.3534333408 -0.3174895644 -0.1909793317 2.137881613e-38
0.34410429 -0.3374272585 -0.2268139124 2.137881613e-38
0.2648488581 -0.1718492508 -0.2234991044 2.137881613e-38
0.2423919886 -0.1085822806 -0.2350892723 2.137881613e-38
-0.1647312939 -0.04055446014 -0.2032378614 2.156176826e-38
0.2305423766 -0.1079953834 -0.2220408469 2.156176826e-38
-0.2789144516 -0.06052772701 -0.2226489633 2.156176826e-38
-0.202605918 -0.05133575201 -0.2013845444 2.156176826e-38
-0.2947765589 -0.2599318027 -0.3585741222 2.174471899e-38
-0.2941995561 -0.2598975301 -0.3461215198 2.174471899e-38
0.242374301 -0.120987229 -0.2225708365 2.174471899e-38
0.3074368238 -0.3109252453 -0.2376107275 2.174471899e-38
-0.2953535616 -0.2599660754 -0.3710267246 2.192767111e-38
0.03587900102 -0.01207895018 -0.212968573 2.192767111e-38
-0.03925782442 -0.008797437884 -0.2218462229 2.192767111e-38
-0.2659108043 -0.06104608625 -0.210792169 2.192767111e-38
-0.3246408105 -0.2831678391 -0.2218883038 2.211062324e-38
-0.001400910318 -0.01042106096 -0.2111811042 2.211062324e-38
0.3416013122 -0.3044977188 -0.190449357 2.211062324e-38
0.1589560211 -0.04248362035 -0.2187951207 2.211062324e-38
0.07315894216 -0.01373684127 -0.2147560418 2.229357396e-38
-0.2760205865 -0.2725124061 -0.2096728384 2.229357396e-38
0.2542062998 -0.1339790523 -0.2231008112 2.229357396e-38
-0.1647136062 -0.02814951167 -0.2157562971 2.229357396e-38
0.2997676432 -0.2108590305 -0.2375416458 2.247652609e-38
-0.2942172587 -0.2723024487 -0.3336030543 2.247652609e-38
-0.2965252697 -0.2724395096 -0.3834134936 2.247652609e-38
0.2660559416 -0.1345659494 -0.2361492366 2.247652609e-38
0.1708818376 -0.01362771913 -0.1869091392 2.265947681e-38
-0.05110748112 -0.00821054168 -0.2087977976 2.265947681e-38
-0.2942349315 -0.2847073972 -0.3210846186 2.265947681e-38
-0.2528894842 -0.04915950447 -0.2114538401 2.265947681e-38
0.3080314994 -0.2984860241 -0.2376765609 2.284242894e-38
0.1590498984 -0.0006359070539 -0.1863791645 2.284242894e-38
0.1708995253 -0.001222800463 -0.1994275749 2.284242894e-38
-0.295388937 -0.2847759128 -0.3459898233 2.284242894e-38
-0.2959659398 -0.2848101854 -0.3584424257 2.302537966e-38
-0.2794384062 -0.02334717475 -0.2726569176 2.302537966e-38
0.01104340702 0.001431228593 -0.2242953628 2.302537966e-38
-0.1641366035 -0.02811524458 -0.2033036947 2.302537966e-38
-0.2878702283 -0.2719255388 -0.1966244131 2.320833179e-38
-0.2799977064 -0.0109765213 -0.2976279557 2.320833179e-38
0.1228654534 -0.01594735682 -0.2171393335 2.320833179e-38
-0.2476844937 -0.224321872 -0.23824507 2.320833179e-38
-0.2831980288 -0.1977513283 -0.2241366804 2.339092378e-38
0.07317663729 -0.00133192353 -0.2272744775 2.339092378e-38
0.09802988917 -0.002437181771 -0.2284661233 2.339092378e-38
-0.2788614035 -0.02331290767 -0.2602043152 2.339092378e-38
0.03647369519 0.0003602355719 -0.2130344212 2.348204041e-38
0.3228368759 -0.2492818832 -0.2385357618 2.348204041e-38
0.378251195 -0.3434047103 -0.1671340764 2.348204041e-38
0.2672452927 -0.1096875444 -0.2362809181 2.348204041e-38
0.06132695079 -0.0007450245321 -0.2142260671 2.348132155e-38
-0.2522947788 -0.03672031686 -0.2115196884 2.348132155e-38
-0.2811163366 0.01376478374 -0.3475700617 2.348132155e-38
0.3127890527 -0.1989724338 -0.2382033169 2.348132155e-38
-0.2782844007 -0.02327864058 -0.2477517128 2.348060128e-38
-0.138670966 -0.004376400262 -0.2170796245 2.348060128e-38
-0.2843697369 -0.2102247924 -0.2365234494 2.348060128e-38
-0.2392911315 -0.03723867983 -0.1996629089 2.348060128e-38
0.3446989954 -0.3249880373 -0.2268797606 2.347952368e-38
0.3234138787 -0.2492476106 -0.2260831743 2.347952368e-38
0.3127713501 -0.2113774121 -0.2256848812 2.347952368e-38
0.2903144956 -0.1481104195 -0.2372750342 2.347952368e-38
-0.1256673038 -0.004894763231 -0.20522286 2.347880341e-38
0.2080855817 -0.04472840577 -0.2336310148 2.347880341e-38
0.1595683992 -0.01763951406 -0.2313794047 2.347880341e-38
-0.2647214234 -0.03616768494 -0.2109238505 2.347880341e-38
0.3322900832 -0.3120304942 -0.2388023734 2.347808455e-38
0.2323264629 -0.07067780197 -0.2222383767 2.347808455e-38
0.3246209621 -0.2119642794 -0.2387332916 2.347808455e-38
0.3551820219 -0.3049818277 -0.1661399603 2.347808455e-38
-0.2517177761 -0.03668605164 -0.199067086 2.347700555e-38
-0.2782666981 -0.01087372191 -0.2602701485 2.347700555e-38
-0.2816756368 0.02613549307 -0.3725411296 2.347700555e-38
0.07377132773 0.01110732555 -0.2273403257 2.347700555e-38
0.160145402 -0.01760524884 -0.2189268172 2.347628668e-38
0.3246032596 -0.2243692279 -0.2262148559 2.347628668e-38
0.302146405 -0.1611022353 -0.2378050089 2.347628668e-38
-0.2262698114 -0.02535209619 -0.2003245801 2.347628668e-38
-0.1256496161 0.007510155439 -0.2177412957 2.347520768e-38
-0.1883951873 -0.01457079966 -0.2021778971 2.347520768e-38
-0.1505205929 -0.003789503127 -0.2040312141 2.347520768e-38
-0.1759508699 -0.002718510106 -0.2152921557 2.347520768e-38
0.04949501902 0.01224685088 -0.2136960775 2.347448882e-38
-0.01263818145 0.01500999928 -0.2107169628 2.347448882e-38
0.0743483305 0.01114159077 -0.2148877382 2.347448882e-38
0.3670493364 -0.2931637764 -0.1917068511 2.347448882e-38
0.09920158237 0.01003633067 -0.2160793841 2.347340982e-38
0.08677496016 0.01058895886 -0.2154835612 2.347340982e-38
0.2447707653 -0.05882550776 -0.2353526354 2.347340982e-38
0.2329211533 -0.05823861435 -0.222304225 2.347340982e-38
0.313960731 -0.1864989996 -0.2258165628 2.347269095e-38
0.1601630896 -0.005200330168 -0.2314452529 2.347269095e-38
0.2914861739 -0.1356369257 -0.22488828 2.347269095e-38
0.3447166979 -0.3125831187 -0.2393981963 2.347269095e-38
0.325810343 -0.1870858967 -0.2388649732 2.347161195e-38
0.3794406056 -0.3185262978 -0.1672657728 2.347161195e-38
-0.1002016366 0.01884414256 -0.2189987898 2.347161195e-38
0.3145731091 -0.1616548598 -0.2384008467 2.347161195e-38
0.2808613181 -0.08536179364 -0.2370084226 2.347089308e-38
-0.2765533924 -0.0231758412 -0.2103938758 2.347089308e-38
0.1725897044 -0.00575296022 -0.2320410758 2.347089308e-38
-0.2511053979 -0.01184191648 -0.2116513699 2.347089308e-38
0.3145554364 -0.1740597785 -0.225882411 2.346981408e-38
0.2092572749 -0.03225495294 -0.2212442607 2.346981408e-38
0.3033181131 -0.1486287713 -0.2254182696 2.346981408e-38
-0.01262049377 0.02741491795 -0.2232353985 2.346981408e-38
-0.04990040511 0.02907280996 -0.2214479297 2.346909522e-38
-0.3222443461 -0.2210060954 -0.2346701324 2.346909522e-38
-0.2782313228 0.01393611729 -0.2853070498 2.346909522e-38
-0.2793676257 0.0262725614 -0.3227306902 2.346909522e-38
0.0003831684589 0.02689655498 -0.211378634 2.346801622e-38
-0.02447011322 0.02800181508 -0.2101869881 2.346801622e-38
0.2092749625 -0.01985003427 -0.2337626964 2.346801622e-38
-0.2787906229 0.02630682662 -0.3102781177 2.346801622e-38
0.1489081532 0.007825810462 -0.2184626758 2.346693862e-38
-0.04932340235 0.02910707518 -0.2089953274 2.346693862e-38
0.07494302094 0.02358077466 -0.2149535716 2.346693862e-38
0.2696064115 -0.07233569026 -0.2240258604 2.346693862e-38
0.2932879627 -0.085914433 -0.2376042455 2.346621835e-38
-0.1499082148 0.02105466276 -0.2166154981 2.346621835e-38
0.3463411629 -0.2173890918 -0.1784576327 2.346621835e-38
0.3682387173 -0.2682853937 -0.1918385327 2.346621835e-38
-0.2799269557 0.03864321858 -0.3477017581 2.346514075e-38
0.2335335314 -0.03339447826 -0.2348885089 2.346514075e-38
-0.2002094686 0.01082593575 -0.2141663432 2.346514075e-38
0.3800529838 -0.293682158 -0.1798500419 2.346514075e-38
0.1122229025 0.02192288637 -0.2167410403 2.346406175e-38
0.1974430233 -0.006858220324 -0.2332327217 2.346406175e-38
0.2098519653 -0.01981576905 -0.2213101089 2.346406175e-38
0.3051198721 -0.09890624881 -0.2381342351 2.346406175e-38
-0.08660331368 0.03076496348 -0.2072078586 2.346334289e-38
0.1613347828 0.007273182273 -0.2190584987 2.346334289e-38
0.3688333929 -0.2558462322 -0.1919043809 2.346334289e-38
0.3587855697 -0.2055367827 -0.1915719211 2.346334289e-38
0.2217015922 -0.02040266432 -0.2343585193 2.346226389e-38
0.0004008598626 0.03930146992 -0.2238970697 2.346226389e-38
0.2341105342 -0.03336021304 -0.2224359065 2.346226389e-38
0.347512871 -0.2049156129 -0.1660708785 2.346226389e-38
0.2820330262 -0.07288831472 -0.2246216834 2.346118629e-38
-0.2804862559 0.05101386458 -0.3726728261 2.346118629e-38
-0.2759409845 0.001668263227 -0.2229781896 2.346118629e-38
0.2702187896 -0.0474915579 -0.2366101295 2.346118629e-38
0.1370762289 0.02081762627 -0.2179327011 2.346010729e-38
0.3481252491 -0.1800714731 -0.1786551625 2.346010729e-38
-0.2499336898 0.0006315354258 -0.1992646158 2.346010729e-38
0.3394263685 -0.1627601087 -0.2395924926 2.346010729e-38
0.0134044867 0.03878311068 -0.2120402902 2.345938842e-38
-0.2120590806 0.01141283289 -0.2011179328 2.345938842e-38
0.3056968749 -0.09887197614 -0.2256816328 2.345938842e-38
-0.2770596147 0.02640962601 -0.2729202807 2.345938842e-38
0.328171432 -0.14973405 -0.2266099155 2.345830942e-38
0.3599749506 -0.1806583852 -0.1917036176 2.345830942e-38
-0.0487287119 0.0415462628 -0.2090611756 2.345830942e-38
0.3806476593 -0.2812429965 -0.1799158901 2.345830942e-38
-0.2623603344 0.001184165478 -0.1986687928 2.345723183e-38
-0.136309877 0.03297548369 -0.2048245668 2.345723183e-38
0.3400033712 -0.1627258658 -0.2271398902 2.345723183e-38
0.2826277018 -0.06044913456 -0.2246875167 2.345723183e-38
-0.1617401391 0.03404647484 -0.2160855085 2.345615283e-38
-0.2369123697 0.01251809299 -0.1999262869 2.345615283e-38
0.3812423646 -0.2688037753 -0.1799817383 2.345615283e-38
0.12524423 0.03380944207 -0.2174027115 2.345615283e-38
-0.2753463089 0.01410744712 -0.2230440229 2.345507523e-38
-0.1238655299 0.04482776672 -0.2179388255 2.345507523e-38
0.3293785155 -0.1124506965 -0.2392600328 2.345507523e-38
0.3406157494 -0.137881726 -0.2397241741 2.345507523e-38
0.3181412816 -0.08701968938 -0.2387959063 2.345399623e-38
0.2708134651 -0.03505237028 -0.2366759777 2.345399623e-38
-0.2493390143 0.01307072118 -0.199330464 2.345399623e-38
0.3605696261 -0.1682191938 -0.1917694509 2.345399623e-38
0.2589638233 -0.03446547315 -0.2236275673 2.345291723e-38
-0.1735897809 0.03463337198 -0.2030370981 2.345291723e-38
-0.1990200728 0.03570436686 -0.2142980397 2.345291723e-38
-0.1860164106 0.03518600017 -0.2024412751 2.345291723e-38
-0.1357151866 0.0454146713 -0.2048904151 2.345219836e-38
0.3611289561 -0.1805898547 -0.1667983979 2.345219836e-38
0.34180516 -0.113003321 -0.2398558557 2.345219836e-38
0.3711767793 -0.2308992743 -0.1671308428 2.345219836e-38
0.3842335045 -0.1942028552 -0.1928294152 2.345111936e-38
0.3717714846 -0.2184600979 -0.167196691 2.345111936e-38
0.2714081407 -0.02261318453 -0.2367418259 2.345111936e-38
0.37236619 -0.2060208768 -0.1672625393 2.345111936e-38
-0.223873347 0.03680962697 -0.2131063938 2.345004176e-38
-0.2487443089 0.02550996467 -0.1993963122 2.345004176e-38
0.3193129599 -0.07454620302 -0.2264091522 2.345004176e-38
0.3536193669 -0.1384000778 -0.2278674096 2.345004176e-38
-0.2108696997 0.03629126027 -0.2012496144 2.344896276e-38
0.3423821628 -0.1129690483 -0.2274032682 2.344896276e-38
0.3498916328 -0.1551588476 -0.1663342565 2.344896276e-38
-0.1729950905 0.0470725596 -0.2031029314 2.344896276e-38
-0.2747339308 0.03895161301 -0.2356283069 2.344788516e-38
0.3542317748 -0.1135559529 -0.2404516786 2.344788516e-38
-0.275293231 0.05132226646 -0.2605993748 2.344788516e-38
0.319925338 -0.04970207438 -0.2389934361 2.344788516e-38
-0.2481496334 0.03794915229 -0.1994621456 2.344680616e-38
0.3505217135 -0.1179097593 -0.191437006 2.344680616e-38
0.3623537123 -0.1309016198 -0.1919669807 2.344680616e-38
-0.2735799253 0.03902014345 -0.2107230872 2.344680616e-38
0.3859998882 -0.169290185 -0.1805084795 2.344572857e-38
0.3860175908 -0.1568852663 -0.193026945 2.344572857e-38
0.3441662192 -0.07565146685 -0.227600798 2.344572857e-38
0.3747449517 -0.1562641114 -0.1675259024 2.344572857e-38
0.351116389 -0.1054705828 -0.1915028542 2.344464957e-38
0.3753750324 -0.1190150231 -0.1926286519 2.344464957e-38
0.3517110944 -0.0930313915 -0.1915686876 2.344464957e-38
0.3522703946 -0.1054020375 -0.1665976346 2.344464957e-38
0.375969708 -0.1065758467 -0.1926945001 2.344357197e-38
0.3938727677 -0.07786198705 -0.2299841046 2.344357197e-38
0.4062994123 -0.07841461897 -0.2305799127 2.344357197e-38
-0.02981739119 0.04194350541 -0.3331578672 2.344357197e-38
-0.05524767563 0.04301449656 -0.3444188535 2.344249297e-38
-0.0422440134 0.04249612987 -0.3325620592 2.344249297e-38
0.4019946754 -0.09520764649 -0.181499362 2.344249297e-38
0.4375082254 -0.1217781752 -0.1956077814 2.344249297e-38
-0.04166701064 0.04253040254 -0.3201094568 2.344141397e-38
-0.0540936701 0.04308303446 -0.3195136189 2.344141397e-38
-0.003233097494 0.04094104469 -0.2969917059 2.344141397e-38
-0.09195058048 0.04470665008 -0.3301787674 2.344141397e-38
-0.01565975696 0.0414936766 -0.2963958979 2.344033637e-38
