# .PCD v0.7 - Point Cloud Data file format
VERSION 0.7
FIELDS x y z rgb
SIZE 4 4 4 4
TYPE F F F F
COUNT 1 1 1 1
WIDTH 831
HEIGHT 1
VIEWPOINT 0 0 0 1 0 0 0
POINTS 831
DATA ascii
0.2424500138 -0.293641001 0.05116888136 1.258099074e-38
0.03033938259 -0.7628980875 0.07473140955 1.276466033e-38
-0.2151842713 -0.2669022679 0.2309859097 1.276466033e-38
-0.0963460952 -0.7355744839 -0.1785947382 1.276466033e-38
0.1314929873 -0.536904633 -0.1841040105 1.276466033e-38
0.2943069637 -0.3412636518 -0.04047716781 1.276466033e-38
0.3153330386 -0.4371817708 -0.2518134415 1.276466033e-38
0.215816468 -0.7248276472 -0.1336454451 1.276466033e-38
-0.05251573026 -0.7481747866 -0.0676009953 1.276466033e-38
0.3038674295 -0.0415007621 -0.06032171845 1.294832852e-38
0.2370274216 -0.7157655954 -0.1924080253 1.294832852e-38
0.09929180145 -0.05451656878 0.3536993861 1.294832852e-38
0.1289133281 -0.7565853596 0.06726694107 1.294832852e-38
0.1165915951 -0.7573744059 0.06819999218 1.294832852e-38
-0.2199723125 -0.3274538517 -0.05346950516 1.294832852e-38
-0.009371889755 -0.7592784166 0.03201347589 1.294832852e-38
0.05429635569 -0.7598231435 0.06148600578 1.294832852e-38
0.1631324589 -0.7482310534 0.01895065606 1.313163938e-38
-0.1808765233 -0.3850384355 0.3893898427 1.313163938e-38
0.1191712022 -0.5376937389 -0.1831709445 1.313163938e-38
-0.2095513791 -0.3437202275 0.1379070282 1.313163938e-38
0.08410656452 -0.3856388628 -0.2608975172 1.313163938e-38
0.1939190775 -0.7323929071 -0.08626215905 1.313163938e-38
-0.01005840674 -0.7577816248 0.02063412964 1.313163938e-38
0.260651052 -0.3572997749 -0.001468721777 1.313163938e-38
-0.1278547198 -0.7221851349 -0.2905215621 1.331530897e-38
-0.1939211786 -0.1961936653 -0.2186100781 1.331530897e-38
0.1973084807 -0.5080238581 -0.3055666685 1.331530897e-38
0.3125869632 -0.4311947227 -0.2973306179 1.331530897e-38
-0.09909215569 -0.7295874357 -0.2241119146 1.331530897e-38
0.08479307592 -0.3871356249 -0.2495182157 1.331530897e-38
-0.09977866709 -0.7280907035 -0.2354912013 1.331530897e-38
-0.037821237 -0.3650919497 0.298538059 1.331530897e-38
0.1740812212 -0.7444484234 -0.00474101305 1.349897856e-38
-0.03373851627 -0.1859353781 -0.2307398319 1.349897856e-38
-0.2162932903 -0.3225675821 0.04480129853 1.349897856e-38
-0.2255174965 -0.2167200744 -0.1454637647 1.349897856e-38
-0.06895654649 -0.7399833202 -0.1349437088 1.349897856e-38
0.2592780292 -0.3543062508 -0.02422731183 1.349897856e-38
0.1013573483 -0.5265087485 -0.2732722163 1.349897856e-38
-0.2144977599 -0.26839903 0.2423651963 1.349897856e-38
-0.2197258621 -0.3150837719 -0.01209516264 1.368228942e-38
0.02896635421 -0.759904623 0.05197286606 1.368228942e-38
0.01146573573 -0.3619355559 0.2948058248 1.368228942e-38
-0.0630286485 -0.3359486759 -0.1938651651 1.368228942e-38
0.0716483295 -0.2562368214 0.2664220333 1.368228942e-38
0.2585915327 -0.3528094888 -0.03560659289 1.368228942e-38
0.04128811508 -0.7591154575 0.05103978515 1.368228942e-38
0.1368261129 -0.3899662495 -0.2077332884 1.368228942e-38
-0.07535037398 -0.3367377818 -0.1929320991 1.386595901e-38
-0.04019400477 -0.7473857403 -0.06853404641 1.386595901e-38
0.3105274141 -0.4267044365 -0.3314684629 1.386595901e-38
-0.1616025716 -0.3422614634 -0.1864006966 1.386595901e-38
0.09057505429 -0.7559590936 0.04730755091 1.386595901e-38
0.1275402904 -0.7535917759 0.04450838268 1.386595901e-38
-0.2127201706 -0.2575286031 0.02936841734 1.386595901e-38
0.08616610616 -0.390129149 -0.2267596424 1.386595901e-38
0.002949872985 -0.7584892511 0.03108040988 1.404926846e-38
-0.1917375177 -0.3549052477 0.2280083299 1.404926846e-38
0.296612978 -0.3333838582 0.03503504395 1.404926846e-38
-0.2206588238 -0.3259570897 -0.06484881788 1.404926846e-38
0.1770651788 -0.373537004 -0.3800835013 1.404926846e-38
0.1839303225 -0.3885046244 -0.2662905753 1.404926846e-38
-0.2154662311 -0.2515415549 -0.01614873484 1.404926846e-38
-0.2224015445 -0.3415187001 -0.149668932 1.404926846e-38
0.2240191847 -0.7150579691 -0.2028542459 1.423293806e-38
0.1709220856 -0.3877969682 -0.2767367959 1.423293806e-38
-0.01280445978 -0.7517945766 -0.02488298714 1.423293806e-38
0.1579137594 -0.3870893121 -0.2871830463 1.423293806e-38
-0.1018382087 -0.7236003876 -0.269629091 1.423293806e-38
0.1400999278 -0.3759043217 -0.3772843182 1.423293806e-38
-0.2149202675 -0.3255611062 0.067559883 1.423293806e-38
0.0775668174 -0.7552514672 0.03686134517 1.423293806e-38
0.01595811173 -0.7591969967 0.04152663052 1.441624891e-38
-0.1991659552 -0.3322558403 0.1235232949 1.441624891e-38
0.2394401878 -0.3663617969 0.05729382485 1.441624891e-38
-0.2236688882 -0.2613112032 0.05306006595 1.441624891e-38
-0.2196026444 -0.308898747 0.008592022583 1.441624891e-38
-0.2215216309 -0.2318856716 -0.09787518531 1.441624891e-38
0.00157684274 -0.7554957867 0.008321791887 1.441624891e-38
0.05932660028 -0.2570259273 0.2673550844 1.441624891e-38
0.1777210981 -0.3049953878 0.2713859975 1.459991851e-38
0.06455857307 -0.7545437813 0.02641512454 1.459991851e-38
-0.1992536634 -0.3661716282 0.3085964024 1.459991851e-38
0.01527159847 -0.7577002048 0.03014735878 1.459991851e-38
0.1261672676 -0.7505983114 0.02174982429 1.459991851e-38
0.05223681405 -0.7553328872 0.02734817564 1.459991851e-38
-0.103211239 -0.7206069231 -0.2923876643 1.459991851e-38
0.07688030601 -0.753754735 0.02548205853 1.459991851e-38
0.06616950035 -0.3806388974 -0.3716859818 1.478322936e-38
-0.2079674155 -0.3066129088 -0.00372031657 1.478322936e-38
-0.2212221175 -0.3182752728 -0.05554090813 1.478322936e-38
0.2430132926 -0.301322788 0.04186094552 1.478322936e-38
0.08920203149 -0.7529655695 0.02454900742 1.478322936e-38
0.08261030912 -0.3888303638 -0.3043432832 1.478322936e-38
-0.17675744 -0.3940190077 0.4576655626 1.478322936e-38
0.2844144702 -0.3279879391 0.05665531754 1.478322936e-38
0.3145233095 -0.4418700337 -0.2838799357 1.496689755e-38
-0.2091468275 -0.3298562765 -0.09784834087 1.496689755e-38
-0.2092875987 -0.2650124133 0.08626490086 1.496689755e-38
0.1743546575 -0.3952807784 -0.2198403478 1.496689755e-38
0.1378024817 -0.7483124137 0.009437441826 1.496689755e-38
-0.04472617432 -0.3877407908 -0.3632884622 1.496689755e-38
-0.2209756672 -0.3059052229 -0.01416656561 1.496689755e-38
-0.2128607184 -0.3300513923 0.1016977802 1.496689755e-38
-0.1052707806 -0.7161166668 -0.326525569 1.515020841e-38
-0.1998700202 -0.2597301304 0.3169444203 1.515020841e-38
0.2572713494 -0.311209023 0.05437863618 1.515020841e-38
0.2511986196 -0.3578909039 0.06566870958 1.515020841e-38
0.2123838961 -0.7173438072 -0.1905419081 1.515020841e-38
-0.1006797403 -0.3598588705 0.3011319339 1.515020841e-38
-0.07307562977 -0.7310028076 -0.2032194436 1.515020841e-38
0.06387205422 -0.7530469894 0.01503577828 1.515020841e-38
0.1802243143 -0.7301884294 -0.1080877185 1.533351927e-38
-0.2094281465 -0.3375352025 0.1585942358 1.533351927e-38
-0.1890791804 -0.3948081136 0.4585986137 1.533351927e-38
0.191173017 -0.726405859 -0.1317793429 1.533351927e-38
0.05155029893 -0.7538360953 0.01596884429 1.533351927e-38
0.2021217197 -0.722623229 -0.1554709822 1.533351927e-38
0.3131502867 -0.4388765097 -0.3066384792 1.533351927e-38
-0.2228946686 -0.2288921475 -0.1206337735 1.533351927e-38
0.3124637604 -0.4373797476 -0.3180177808 1.551683013e-38
0.2462698072 -0.3535985947 -0.03467353433 1.551683013e-38
0.2792239487 -0.04307895899 -0.05845561624 1.551683013e-38
-0.2359029204 -0.2281844914 -0.1310800016 1.551683013e-38
0.1543273777 -0.3157521486 0.2753235102 1.551683013e-38
-0.188392669 -0.3963048756 0.4699779153 1.551683013e-38
-0.1254995018 -0.2688623965 0.2813509703 1.551683013e-38
0.2696635127 -0.3428418338 -0.03861105442 1.551683013e-38
-0.05800785124 -0.7362006903 -0.158635363 1.570049832e-38
-0.2188632935 -0.2717885375 0.1327150762 1.570049832e-38
0.2015507817 -0.5108194351 -0.216603756 1.570049832e-38
0.1699621379 -0.7354677916 -0.07301676273 1.570049832e-38
-0.09294904023 -0.7153275013 -0.3274586201 1.570049832e-38
-0.2087416351 -0.3390319645 0.1699735224 1.570049832e-38
-0.2195498049 -0.2702917755 0.1213358045 1.570049832e-38
0.2766011357 -0.03090688586 -0.08328557014 1.570049832e-38
0.149711132 -0.3968589902 -0.2179742306 1.588380918e-38
-0.2419583201 -0.2085286081 -0.2128064483 1.588380918e-38
-0.2038483322 -0.3155934513 0.06455542147 1.588380918e-38
-0.09226252139 -0.7168242931 -0.3160793185 1.588380918e-38
0.08604288101 -0.3963141739 -0.2474468052 1.588380918e-38
-0.1073303223 -0.7116263509 -0.360663414 1.588380918e-38
-0.1196520776 -0.7124154568 -0.3597303629 1.588380918e-38
0.2961461842 -0.4230032563 -0.3646732867 1.588380918e-38
-0.1997292489 -0.3245740235 0.1328311563 1.606712004e-38
0.07550726831 -0.7507611513 0.002723440528 1.606712004e-38
0.08521986008 -0.2646262944 0.2675603926 1.606712004e-38
0.2771643996 -0.03858867288 -0.09259347618 1.606712004e-38
-0.02924527228 -0.7436031103 -0.09222573042 1.606712004e-38
-0.2121917605 -0.2605192363 0.3178774714 1.606712004e-38
-0.08131379634 -0.7130416632 -0.3397709727 1.606712004e-38
0.1904865056 -0.7249090672 -0.1431586146 1.606712004e-38
-0.07788122445 -0.7205255032 -0.2828744948 1.625043089e-38
-0.2229648232 -0.3338368833 -0.1403610557 1.625043089e-38
0.06318554282 -0.7515503168 0.003656506538 1.625043089e-38
0.2694699168 -0.3166049421 0.03275834769 1.625043089e-38
-0.07603625208 -0.3582806587 0.2992658317 1.625043089e-38
-0.05869436264 -0.734703958 -0.1700146347 1.625043089e-38
-0.2064711601 -0.3034213781 0.03972543404 1.625043089e-38
0.01252554171 -0.7517131567 -0.01536983252 1.625043089e-38
0.1124725118 -0.7483938932 -7.572770119e-05 1.643374035e-38
0.3028880954 -0.4441559017 -0.2715675533 1.643374035e-38
-0.1965076178 -0.3721586764 0.3541135788 1.643374035e-38
0.2018005997 -0.27269575 -0.2247494459 1.643374035e-38
-0.2220318615 -0.3229635656 -0.08760740608 1.643374035e-38
0.138075918 -0.3991448283 -0.2056618929 1.643374035e-38
0.05086378381 -0.7523393631 0.004589557648 1.643374035e-38
0.004476472735 -0.1927466393 -0.2314676046 1.643374035e-38
-0.2242676914 -0.2258986235 -0.1433923692 1.661705121e-38
-0.1926713735 -0.2053722143 -0.2165386826 1.661705121e-38
-0.2106430829 -0.3330478072 -0.1412941217 1.661705121e-38
-0.230534032 -0.2463436127 -0.06073285267 1.661705121e-38
-0.04481047392 -0.195903033 -0.2277353853 1.661705121e-38
0.2886299789 -0.4342696667 -0.2840852141 1.661705121e-38
0.2879434526 -0.4327729344 -0.2954644859 1.661705121e-38
-0.0792542547 -0.7175319195 -0.3056330979 1.661705121e-38
0.2720927298 -0.328777045 0.0575883761 1.680036207e-38
0.2872569561 -0.4312761426 -0.3068437576 1.680036207e-38
-0.2223487049 -0.3029117286 -0.03692515567 1.680036207e-38
0.3022015989 -0.4426591396 -0.2829468846 1.680036207e-38
0.1583268642 -0.7377536893 -0.06070442498 1.680036207e-38
-0.1983562112 -0.3275675476 0.1555897743 1.680036207e-38
-0.1747864783 -0.2720187902 0.2850832045 1.680036207e-38
0.1851801276 -0.3976832032 -0.2642191648 1.680036207e-38
-0.2134240121 -0.3223696053 0.1110056564 1.698367293e-38
-0.2124382108 -0.2728893161 0.2765030861 1.698367293e-38
-0.2097101212 -0.3221744597 -0.08854045719 1.698367293e-38
0.1364294589 -0.7453188896 -0.01332113147 1.698367293e-38
0.04718111828 -0.3503896892 0.289935261 1.698367293e-38
-0.2256407142 -0.2229050994 -0.1661509573 1.698367293e-38
0.2630296052 -0.0225174129 -0.08442392945 1.698367293e-38
-0.002542240545 -0.7465151548 -0.05995394289 1.698367293e-38
-0.1505306363 -0.3322938383 -0.1894051582 1.716698239e-38
-0.1958210915 -0.3736554384 0.3654928505 1.716698239e-38
0.1865531504 -0.4006767273 -0.2414605916 1.716698239e-38
0.2656524181 -0.03468950093 -0.05959396064 1.716698239e-38
0.1241077334 -0.7461080551 -0.01238808036 1.716698239e-38
-0.2125614434 -0.2790743709 0.2558159232 1.716698239e-38
0.2360076159 -0.3588779867 0.0003973953426 1.716698239e-38
-0.2050981373 -0.3064149022 0.06248402223 1.716698239e-38
-0.06761904061 -0.7152460814 -0.3179454207 1.735029324e-38
0.1576403528 -0.7362569571 -0.07208369672 1.735029324e-38
0.05017726868 -0.7508425713 -0.006789714098 1.735029324e-38
0.285197407 -0.4267858863 -0.3409816623 1.735029324e-38
0.1452754438 -0.5051932335 -0.3473516107 1.735029324e-38
-0.002282097936 -0.2609713972 0.2720203996 1.735029324e-38
0.3008285761 -0.4396656156 -0.3057054281 1.735029324e-38
-0.06427844614 -0.3267701268 -0.1959365606 1.735029324e-38
-0.2244786322 -0.2659994662 0.02099359781 1.75336041e-38
-0.2046225518 -0.348012507 0.2382492572 1.75336041e-38
-0.2121568918 -0.2652103901 0.02006053925 1.75336041e-38
0.196745187 -0.5003421307 -0.2962588072 1.75336041e-38
-0.2044116259 -0.3079116642 0.0738632977 1.75336041e-38
-0.2108187228 -0.2635127604 0.3406360149 1.75336041e-38
0.2655292153 -0.0408745259 -0.08028112352 1.75336041e-38
-0.04705914855 -0.7324181199 -0.1823269725 1.75336041e-38
-0.1949236542 -0.3350513577 0.2124862373 1.771655483e-38
-0.1512165219 -0.3538367152 0.3027927876 1.771655483e-38
-0.2084074914 -0.292746067 0.02627475373 1.771655483e-38
-0.003228753805 -0.7450184226 -0.07133322954 1.771655483e-38
-0.2093049288 -0.3313501775 0.1792813987 1.771655483e-38
-0.05049171299 -0.7249343395 -0.2392234206 1.771655483e-38
0.1781647801 -0.7256981134 -0.1422255635 1.771655483e-38
0.09206275642 -0.3882392645 -0.3714807034 1.771655483e-38
-0.2230352163 -0.3014149666 -0.04830443487 1.789986569e-38
-0.2086184174 -0.3328469396 0.1906606853 1.789986569e-38
-0.1388947666 -0.3530476093 0.3018597066 1.789986569e-38
-0.2231055945 -0.2689929903 0.04375218973 1.789986569e-38
0.08248708397 -0.3950154185 -0.3250304461 1.789986569e-38
-0.05529731512 -0.7144570351 -0.3188784719 1.789986569e-38
0.1167062819 -0.3866610527 -0.3733468056 1.789986569e-38
-0.1895547658 -0.353210479 0.2828333974 1.789986569e-38
-0.05255126208 -0.7204440236 -0.2733613253 1.808317654e-38
-0.1944480687 -0.3766489625 0.3882514834 1.808317654e-38
-0.200979054 -0.3153954744 0.1307597607 1.808317654e-38
-0.2070344537 -0.2957395911 0.04903334752 1.808317654e-38
0.2339480817 -0.3543877006 -0.03374047577 1.808317654e-38
-0.1758599728 -0.3554148972 0.3046588898 1.808317654e-38
0.1659932584 -0.3835046887 -0.3770790398 1.808317654e-38
0.1021392792 -0.6982116699 -0.3765254021 1.808317654e-38
-0.1989195049 -0.3198857605 0.1648976505 1.826612727e-38
-0.2101322114 -0.2650095224 0.3520153165 1.826612727e-38
0.1234212145 -0.7446112633 -0.0237673521 1.826612727e-38
-0.2117516994 -0.2743860781 0.2878823876 1.826612727e-38
-0.1957509369 -0.2687107027 0.3852201402 1.826612727e-38
-0.1902588159 -0.280684799 0.476254493 1.826612727e-38
-0.2118749321 -0.2805711329 0.2671952248 1.826612727e-38
0.1043002158 -0.1956124306 -0.2368606627 1.826612727e-38
0.2790543139 -0.4410458207 -0.2376349717 1.844943813e-38
0.1206319779 -0.5067714453 -0.3454855084 1.844943813e-38
-0.1975464821 -0.3228792846 0.1876562238 1.844943813e-38
-0.1119279712 -0.2772518694 0.2824893296 1.844943813e-38
0.2533306181 -0.03547860682 -0.05866089463 1.844943813e-38
0.166529566 -0.7279840112 -0.1299132109 1.844943813e-38
0.226187557 -0.0186996758 -0.06093758345 1.844943813e-38
-0.214216426 -0.260720104 -0.01407733187 1.844943813e-38
0.2898797989 -0.4434482455 -0.2820138037 1.863274899e-38
-0.1142512709 -0.3514693975 0.2999936044 1.863274899e-38
-0.2103966326 -0.3206777275 -0.09991973639 1.863274899e-38
-0.07496275753 -0.2748845518 0.2796901464 1.863274899e-38
-0.1585257649 -0.5277161598 -0.2350622416 1.863274899e-38
0.08572628349 -0.5136290193 -0.3085484505 1.863274899e-38
-0.1968599707 -0.3243760169 0.1990354955 1.863274899e-38
-0.2010494322 -0.2829735279 0.2228163779 1.863274899e-38
-0.2233520448 -0.28136307 0.002377814148 1.881569971e-38
-0.212614283 -0.3176813126 0.1430720985 1.881569971e-38
-0.2018765062 -0.3539995551 0.2837664485 1.881569971e-38
0.2933587432 -0.05915021896 -0.06662513316 1.881569971e-38
0.2784142196 -0.04776722193 -0.09052208066 1.881569971e-38
0.1875432283 -0.2858491838 0.2663101256 1.881569971e-38
-0.03134034202 -0.7113820314 -0.3321239054 1.881569971e-38
0.09667498618 -0.5098463893 -0.3322401047 1.881569971e-38
-0.2119277567 -0.3191780746 0.1544514298 1.899901057e-38
0.2255010456 -0.01720291376 -0.07231687009 1.899901057e-38
0.08981754631 -0.6990007758 -0.375592351 1.899901057e-38
0.04277584329 -0.3913956583 -0.3677484393 1.899901057e-38
-0.2179831713 -0.2995222211 0.07272495329 1.899901057e-38
0.194685638 -0.4958518147 -0.3303966522 1.899901057e-38
0.1343699098 -0.7408286333 -0.04745902121 1.899901057e-38
-0.2098682225 -0.3236683607 0.1885892749 1.899901057e-38
-0.1715340018 -0.5270085335 -0.2455084622 1.91819627e-38
-0.03065382689 -0.7128788233 -0.3207446039 1.91819627e-38
-0.1019295454 -0.3506803215 0.2990605533 1.91819627e-38
0.2728756964 -0.4275749922 -0.3400486112 1.91819627e-38
-0.2058723569 -0.3388339579 0.2361778617 1.91819627e-38
0.2397590876 -0.02708913386 -0.05979923904 1.91819627e-38
0.2165299654 -0.389526844 -0.3787398636 1.91819627e-38
0.1227347031 -0.7431144714 -0.03514663875 1.91819627e-38
-0.2206059843 -0.2873501182 0.04789499566 1.936527215e-38
0.2463930249 -0.3474135697 -0.01398637146 1.936527215e-38
-0.2096572816 -0.283567518 0.02420334518 1.936527215e-38
-0.2110303044 -0.2805739939 0.001444755588 1.936527215e-38
-0.1790155023 -0.4055994153 -0.3509534001 1.936527215e-38
-0.1666937768 -0.4048103094 -0.3518864512 1.936527215e-38
-0.04347636923 -0.3969193399 -0.3612170517 1.936527215e-38
-0.1174068078 -0.4016539454 -0.3556187153 1.936527215e-38
0.2312548608 -0.3097936809 0.03348612785 1.954822428e-38
-0.2018940449 -0.2829706371 0.4885668457 1.954822428e-38
-0.1612149477 -0.2804082632 0.2862215638 1.954822428e-38
-0.2239153385 -0.273681283 0.01168569177 1.954822428e-38
-0.1050850824 -0.4008648396 -0.3565517664 1.954822428e-38
0.1165205464 -0.7019128799 -0.3433206081 1.954822428e-38
0.1035123095 -0.701205194 -0.3537668288 1.954822428e-38
0.06482319534 -0.2741591632 0.03525886685 1.954822428e-38
-0.2003629208 -0.2844702899 0.2341956645 1.973153514e-38
-0.2022288591 -0.3062169254 0.1286883652 1.973153514e-38
0.2138658315 -0.01948878169 -0.06000453234 1.973153514e-38
0.09050406516 -0.700497508 -0.3642130494 1.973153514e-38
0.1836838722 -0.4008747041 -0.3076649308 1.973153514e-38
-0.1858583987 -0.2819864452 0.288087666 1.973153514e-38
-0.1468905509 -0.5254303813 -0.2473745793 1.973153514e-38
0.06550970674 -0.2756559253 0.04663814604 1.973153514e-38
0.1393257231 -0.4083234072 -0.2035904825 1.991448586e-38
-0.2110651881 -0.2758828402 0.2992616594 1.991448586e-38
-0.195486933 -0.3273695707 0.2217941135 1.991448586e-38
0.05501324311 -0.1987688243 -0.2331284285 1.991448586e-38
-0.0217291452 -0.7323366404 -0.172813803 1.991448586e-38
-0.1868087053 -0.3591975272 0.3283505738 1.991448586e-38
-0.2199194729 -0.2888468802 0.05927427486 1.991448586e-38
-0.1780072451 -0.3848404586 0.4555941522 1.991448586e-38
-0.02859428525 -0.7173690796 -0.286606729 2.009743799e-38
0.2403223664 -0.03477095068 -0.06910711527 2.009743799e-38
-0.02104263008 -0.7338334322 -0.1614345312 2.009743799e-38
-0.2138640881 -0.3085027635 0.1410006881 2.009743799e-38
0.2796176374 -0.4487276077 -0.246942848 2.009743799e-38
0.02854452282 -0.2780232131 0.04943732172 2.009743799e-38
-0.07728605717 -0.3491021097 0.2971944213 2.009743799e-38
-0.211892873 -0.3238692284 -0.1433655173 2.009743799e-38
-0.02516171336 -0.72485286 -0.229710266 2.028074885e-38
-0.2008558214 -0.3092104495 0.1514469832 2.028074885e-38
-0.2010673881 -0.3262716532 -0.1877443343 2.028074885e-38
0.0886657089 -0.4084862769 -0.2226168513 2.028074885e-38
0.005726274103 -0.2019252181 -0.2293962091 2.028074885e-38
0.1720486581 -0.4031605721 -0.2953525782 2.028074885e-38
-0.2176134884 -0.2809670866 0.1347864866 2.028074885e-38
0.05825309828 -0.3404220343 0.2869307995 2.028074885e-38
-0.209534049 -0.2773824632 0.04489053786 2.046369957e-38
-0.0682041496 -0.2066597939 -0.2237978578 2.046369957e-38
-0.221169278 -0.2796683311 0.05720287189 2.046369957e-38
0.04743121564 -0.7448555231 -0.05230690539 2.046369957e-38
0.1139957383 -0.4084048271 -0.213103652 2.046369957e-38
-0.2060131282 -0.2739900947 0.420291096 2.046369957e-38
0.0214147009 -0.7434402704 -0.07319934666 2.046369957e-38
0.201544106 -0.02027787268 -0.05907146633 2.046369957e-38
-0.2025456876 -0.2861650288 0.1793706119 2.06466517e-38
0.2817235589 -0.06143608689 -0.05431280285 2.06466517e-38
-0.2044993341 -0.341827482 0.2589364052 2.06466517e-38
0.276871562 -0.4427405596 -0.2924600244 2.06466517e-38
-0.1896424741 -0.3871262968 0.4679065049 2.06466517e-38
-0.1948004216 -0.328866303 0.2331734002 2.06466517e-38
-0.2105018944 -0.2835646272 0.2899537683 2.06466517e-38
-0.01335405093 -0.2709390819 0.2750248611 2.06466517e-38
-0.1421345919 -0.2113943994 -0.2181995064 2.082996116e-38
0.2460761964 -0.3273617029 0.03669587523 2.082996116e-38
-0.01489949226 -0.7195734978 -0.2647812068 2.082996116e-38
0.1178935766 -0.7049063444 -0.320562005 2.082996116e-38
0.1604133695 -0.4054464102 -0.2830402553 2.082996116e-38
-0.004637308419 -0.7142941356 -0.2998521328 2.082996116e-38
0.2803505361 -0.05844256282 -0.07707136869 2.082996116e-38
-0.2255348265 -0.2830578387 -0.0524472408 2.082996116e-38
-0.001032292843 -0.270149976 0.2740917802 2.101291328e-38
-0.02856303751 -0.3152242601 -0.2008071393 2.101291328e-38
-0.1889559627 -0.3886230588 0.4792857766 2.101291328e-38
0.08108280599 -0.2989438474 -0.2112760544 2.101291328e-38
0.1030382365 -0.2809704244 0.03453109413 2.101291328e-38
0.01128943637 -0.2693608701 0.2731587291 2.101291328e-38
0.2299369574 -0.04623535275 -0.05472337455 2.101291328e-38
-0.187582925 -0.3916165829 0.5020444393 2.101291328e-38
-0.2074745148 -0.2818727493 0.07902837545 2.119586541e-38
0.1206751615 -0.7386242151 -0.06928452849 2.119586541e-38
0.118580088 -0.7064031363 -0.3091827035 2.119586541e-38
-0.207122162 -0.3296554089 0.2341064513 2.119586541e-38
0.08164675534 -0.3296652734 0.282993257 2.119586541e-38
0.1199531183 -0.7093966007 -0.2864241302 2.119586541e-38
0.1528347582 -0.725779593 -0.151738748 2.119586541e-38
-0.2158003896 -0.2978274524 0.1275500059 2.119586541e-38
0.1645324677 -0.4144269824 -0.2147644758 2.137881613e-38
0.08373688906 -0.4041939676 -0.3229590654 2.137881613e-38
0.1630969942 -0.7205002308 -0.1868096739 2.137881613e-38
-0.2136531323 -0.268401891 -0.02338523418 2.137881613e-38
-0.216486901 -0.2963306904 0.1161707342 2.137881613e-38
0.09331256151 -0.3974178135 -0.3694092929 2.137881613e-38
-0.1271369457 -0.3215370476 -0.1933426708 2.137881613e-38
0.03373645991 -0.7426511049 -0.07413239777 2.137881613e-38
0.142599538 -0.3942614198 -0.3731415272 2.156176826e-38
-0.1896955371 -0.288366586 0.4669465721 2.156176826e-38
-0.1401445717 -0.3438690305 0.2997882962 2.156176826e-38
0.1897392571 -0.4205306172 -0.225938499 2.156176826e-38
-0.2255876511 -0.3216648102 -0.1651910245 2.156176826e-38
0.08579643071 -0.4086842537 -0.2888211608 2.156176826e-38
-0.1654439718 -0.4139888883 -0.3498150706 2.156176826e-38
0.06675951183 -0.2848344743 0.04870954901 2.156176826e-38
0.2151156366 -0.02866733074 -0.05793312937 2.174471899e-38
0.1291199774 -0.2866089046 -0.217079699 2.174471899e-38
0.05375126749 -0.2841268182 0.03826332092 2.174471899e-38
-0.2011726648 -0.2891585529 0.2021292299 2.174471899e-38
0.02000617981 -0.7127159238 -0.301718235 2.174471899e-38
-0.09017173946 -0.3191697598 -0.1961418539 2.174471899e-38
-0.04032084346 -0.3467348218 0.2943952382 2.174471899e-38
0.1083534285 -0.739413321 -0.06835147738 2.174471899e-38
-0.1163852587 -0.5172711611 -0.09614481032 2.192767111e-38
-0.2075093985 -0.2771816254 0.37684533 2.192767111e-38
0.1062583625 -0.7071922421 -0.3082496524 2.192767111e-38
0.006346914917 -0.7382422686 -0.1177834645 2.192767111e-38
0.1413151175 -0.5177584291 -0.1891798675 2.192767111e-38
-0.2097450048 -0.3174833357 0.2092764974 2.192767111e-38
-0.0005182251334 -0.7232747078 -0.2315763831 2.192767111e-38
0.1050404161 -0.3189085424 0.2790557444 2.192767111e-38
0.05559836328 -0.7073551416 -0.3272759914 2.211062324e-38
-0.1823066622 -0.485999167 -0.08838585019 2.211062324e-38
-0.2007325888 -0.3030253947 0.1721341312 2.211062324e-38
-0.1901180446 -0.3455286622 0.2921412587 2.211062324e-38
0.2727524936 -0.4337600172 -0.360735774 2.211062324e-38
0.2176152319 -0.04702444375 -0.05379032344 2.211062324e-38
-0.2068228871 -0.2786783874 0.3882246017 2.211062324e-38
-0.2247779071 -0.3169765472 -0.1331245601 2.211062324e-38
-0.2047284544 -0.2878597975 0.1245455593 2.229357396e-38
-0.1727309674 -0.4792230129 -0.1348360926 2.229357396e-38
0.04402564839 -0.4005742073 -0.3656770587 2.229357396e-38
-0.1742800474 -0.5210214853 -0.2910256386 2.229357396e-38
0.174671486 -0.415332675 -0.2705225945 2.229357396e-38
0.001541316509 -0.7277649641 -0.1974385083 2.229357396e-38
0.05634738132 -0.3997851014 -0.3666101098 2.229357396e-38
-0.2177367061 -0.2871521413 0.1140993237 2.229357396e-38
0.2337544709 -0.3281508088 0.03762893379 2.247652609e-38
0.06792008877 -0.7065659761 -0.3282090724 2.247652609e-38
-0.1734174788 -0.4777262509 -0.1462153792 2.247652609e-38
0.08370991796 -0.7409914732 -0.06648536026 2.247652609e-38
0.1284341216 -0.3081517816 0.2751182318 2.247652609e-38
0.2356907874 -0.3388261199 0.05107961595 2.247652609e-38
0.2645498216 -0.4435296655 -0.2915269732 2.247652609e-38
-0.005261322018 -0.4037306011 -0.3619448245 2.247652609e-38
-0.1833761334 -0.3666813374 0.3852470219 2.265947681e-38
0.0433658585 -0.2955912352 0.0526470691 2.265947681e-38
0.05568758398 -0.2948021591 0.05171401054 2.265947681e-38
0.09196630865 -0.2909380794 0.03753555566 2.265947681e-38
-0.2061363757 -0.2801751494 0.3996039033 2.265947681e-38
0.1233856902 -0.7168804407 -0.2295276821 2.265947681e-38
-0.2128078789 -0.2914444208 0.2144415677 2.265947681e-38
-0.2273479104 -0.2661975026 -0.04521076754 2.265947681e-38
-0.1686118841 -0.4882035851 -0.06656035781 2.284242894e-38
0.1821876019 -0.404066205 -0.3511106968 2.284242894e-38
0.2489187419 -0.4306499362 -0.3268032074 2.284242894e-38
-0.1604092419 -0.478433907 -0.1357691437 2.284242894e-38
0.1069803983 -0.7364197969 -0.09111003578 2.284242894e-38
0.01935515739 -0.7389499545 -0.1073372439 2.284242894e-38
0.09534513205 -0.7387056351 -0.07879769057 2.284242894e-38
0.06732279807 -0.2925162911 0.03940167278 2.284242894e-38
0.08161485195 -0.7087704539 -0.3063835204 2.302537966e-38
0.1854969561 -0.4177350402 -0.3149014115 2.302537966e-38
-0.2091288716 -0.286558181 0.3127124012 2.302537966e-38
-0.1583496928 -0.4829241931 -0.1016312465 2.302537966e-38
0.01249001734 -0.7239823341 -0.2211301625 2.302537966e-38
-0.1956978738 -0.3674704134 0.386180073 2.302537966e-38
-0.04222656786 -0.4060978889 -0.3591456413 2.302537966e-38
-0.1161570027 -0.4108324647 -0.3535473049 2.302537966e-38
0.04533617944 -0.7126345038 -0.2922050953 2.320833179e-38
-0.1858624518 -0.4847003818 -0.1659695059 2.320833179e-38
0.188929528 -0.4252188802 -0.2580049634 2.320833179e-38
0.2435084879 -0.05462481081 -0.05358503014 2.320833179e-38
-0.215677157 -0.2916424274 0.1482372284 2.320833179e-38
-0.1824298799 -0.4921841919 -0.1090730429 2.320833179e-38
0.0152360741 -0.7299693823 -0.1756129861 2.320833179e-38
0.08230136335 -0.7102671862 -0.2950042486 2.320833179e-38
0.01872237027 -0.2971694469 0.05451318622 2.339092378e-38
-0.1480875164 -0.4776448309 -0.1367022097 2.339092378e-38
0.1657822579 -0.4236055613 -0.2126930654 2.339092378e-38
0.1166715845 -0.5193365812 -0.1873137504 2.339092378e-38
0.1103774458 -0.7161728144 -0.2399739027 2.339092378e-38
-0.1707946509 -0.489898324 -0.1213853806 2.339092378e-38
0.1384534687 -0.7220784426 -0.1849435568 2.339092378e-38
0.1548369974 -0.2016345859 -0.2385215014 2.339092378e-38
0.02412526309 -0.721696496 -0.2334425002 2.348204041e-38
-0.1817433685 -0.493680954 -0.09769373387 2.348204041e-38
0.03104412742 -0.2963803411 0.05358012766 2.348204041e-38
0.07070167363 -0.7402838469 -0.0769315809 2.348204041e-38
0.1110639647 -0.7176695466 -0.228594631 2.348204041e-38
-0.1562901586 -0.4874144793 -0.06749340892 2.348204041e-38
0.04602269083 -0.7141312361 -0.2808257937 2.348204041e-38
0.2202793658 -0.417062521 -0.3725256622 2.348204041e-38
0.09879139066 -0.2730157375 0.2686987221 2.348132155e-38
0.2542876303 -0.4488090575 -0.2564560473 2.348132155e-38
-0.1888376325 -0.4247456193 -0.345877558 2.348132155e-38
0.1022903174 -0.5156354308 -0.2205185592 2.348132155e-38
0.08854248375 -0.4146713018 -0.2433039993 2.348132155e-38
-0.1803703457 -0.4966744781 -0.07493517548 2.348132155e-38
-0.1598459482 -0.486115694 -0.1450770348 2.348132155e-38
0.183437407 -0.4132447839 -0.3490393162 2.348132155e-38
-0.06687002629 -0.4076761007 -0.3572795391 2.348060128e-38
0.1254452318 -0.721370697 -0.1953897774 2.348060128e-38
-0.2083719671 -0.3204768598 0.2320350558 2.348060128e-38
0.127504766 -0.7258610129 -0.1612519175 2.348060128e-38
0.2611172497 -0.4360458553 -0.3484234214 2.348060128e-38
0.02549829148 -0.7246899605 -0.210683912 2.348060128e-38
-0.176515907 -0.4239565432 -0.3468106091 2.348060128e-38
-0.1453414559 -0.4836318791 -0.09118502587 2.348060128e-38
-0.2084423602 -0.2880549133 0.3240916729 2.347952368e-38
0.08991551399 -0.4176648259 -0.2205454409 2.347952368e-38
-0.175477013 -0.4732359648 -0.1803532392 2.347952368e-38
0.03576047719 -0.7194105983 -0.245754838 2.347952368e-38
-0.192054376 -0.3348533511 0.2786905766 2.347952368e-38
-0.1953637153 -0.321184516 0.2424812764 2.347952368e-38
-0.2050626278 -0.334145695 0.2682443559 2.347952368e-38
-0.1641941816 -0.4231674671 -0.3477436602 2.347952368e-38
0.03644698858 -0.7209073305 -0.2343755662 2.347880341e-38
0.179353863 -0.4319950342 -0.2115547359 2.347880341e-38
-0.1611485928 -0.5155441761 -0.2598922253 2.347880341e-38
0.1029237583 -0.4183724821 -0.2100991905 2.347880341e-38
0.08646966517 -0.2738048434 0.269631803 2.347880341e-38
0.1131235063 -0.7221598625 -0.1944567263 2.347880341e-38
-0.1557268649 -0.4950962663 -0.0768012926 2.347880341e-38
-0.1234440207 -0.4760666192 -0.1385683268 2.347880341e-38
0.115183048 -0.7266501188 -0.1603188664 2.347808455e-38
-0.1169485524 -0.5095893145 -0.08683693409 2.347808455e-38
-0.1432819068 -0.4881221652 -0.05704712868 2.347808455e-38
-0.1461511999 -0.488320142 -0.1232514977 2.347808455e-38
0.08165037632 -0.7365012169 -0.1006232575 2.347808455e-38
-0.161218971 -0.48312217 -0.167835623 2.347808455e-38
-0.2024934888 -0.2245184183 -0.2114628106 2.347808455e-38
0.02824434638 -0.7306770086 -0.1651667655 2.347808455e-38
-0.188445732 -0.2975451648 0.4690179825 2.347700555e-38
0.2079576403 -0.4178516269 -0.3715925813 2.347700555e-38
-0.1425953954 -0.4896189272 -0.04566784948 2.347700555e-38
-0.2103082687 -0.3098015487 0.2185843736 2.347700555e-38
0.1144965291 -0.725153327 -0.1716981679 2.347700555e-38
0.07203917205 -0.7155465484 -0.2599333227 2.347700555e-38
-0.1653519869 -0.3147258162 -0.1926148981 2.347700555e-38
-0.1722868681 -0.2903758883 0.2892259955 2.347700555e-38
-0.1488268673 -0.5147550106 -0.2608252764 2.347628668e-38
-0.1749137342 -0.4809177518 -0.1896611452 2.347628668e-38
-0.1536673158 -0.4995865524 -0.0426633954 2.347628668e-38
0.07116870582 -0.4173531532 -0.3634003699 2.347628668e-38
-0.1913678497 -0.3363501132 0.2900698483 2.347628668e-38
-0.1984266043 -0.295145601 0.2476463318 2.347628668e-38
0.05971744657 -0.7163356543 -0.2590002716 2.347628668e-38
-0.02865500376 -0.4144873619 -0.3580073118 2.347628668e-38
0.06932864338 -0.7372903228 -0.0996901989 2.347520768e-38
-0.1898187697 -0.2945516407 0.4462594092 2.347520768e-38
0.03850653023 -0.7253976464 -0.2002376914 2.347520768e-38
-0.1911917925 -0.2915581167 0.4235008657 2.347520768e-38
0.102861315 -0.7274392247 -0.1593858004 2.347520768e-38
-0.1619054824 -0.4816254079 -0.1792148948 2.347520768e-38
-0.1506226212 -0.4315568805 -0.3466053009 2.347520768e-38
-0.1323331892 -0.4843395352 -0.08073880523 2.347520768e-38
-0.1213844717 -0.4805569053 -0.1044304222 2.347448882e-38
-0.1999228597 -0.2983371317 0.2042006254 2.347448882e-38
-0.139550671 -0.4215892553 -0.3496097922 2.347448882e-38
-0.2287209332 -0.2632039785 -0.06796932966 2.347448882e-38
-0.1167508811 -0.3331122994 0.2958507836 2.347448882e-38
0.06040396169 -0.7178324461 -0.2476209551 2.347448882e-38
0.167032063 -0.4327841401 -0.2106216699 2.347448882e-38
-0.1765109897 -0.3816489577 0.4990399182 2.347448882e-38
0.04945526272 -0.7216150761 -0.2239293307 2.347340982e-38
-0.02981283888 -0.306045711 -0.2028785348 2.347340982e-38
-0.177850008 -0.2229402363 -0.2133289278 2.347340982e-38
0.1021747962 -0.7259424925 -0.1707651168 2.347340982e-38
0.02188174054 -0.4205095172 -0.3596681356 2.347340982e-38
0.03420346603 -0.4197204113 -0.3606011868 2.347340982e-38
0.0798330009 -0.2897652984 -0.2133474648 2.347340982e-38
0.03987956047 -0.7283911705 -0.1774791032 2.347340982e-38
-0.1118087769 -0.4737807512 -0.1508806646 2.347269095e-38
-0.1044291556 -0.3323231936 0.2949177325 2.347269095e-38
0.2211862803 -0.3413099647 -0.002812355757 2.347269095e-38
-0.1996937394 -0.3523048162 0.3385914862 2.347269095e-38
-0.1358889788 -0.48304075 -0.1583224237 2.347269095e-38
0.01659474522 -0.03829936683 -0.06576275826 2.347269095e-38
-0.2265910059 -0.3001161814 -0.1258880794 2.347269095e-38
-0.03674773499 -0.2816958129 0.2789623737 2.347269095e-38
-0.05445632339 -0.3076239228 -0.2010124177 2.347161195e-38
0.08070308715 -0.05271099508 -0.06628525257 2.347161195e-38
-0.1775365621 -0.4687457085 -0.214491114 2.347161195e-38
0.02997059375 -0.379776448 0.07315581292 2.347161195e-38
0.06315001845 -0.7238194942 -0.2021038085 2.347161195e-38
-0.0656202212 -0.4168546796 -0.3552081287 2.347161195e-38
0.006976079196 -0.2111037672 -0.2273247987 2.347161195e-38
0.07478523254 -0.7215335965 -0.2144161463 2.347161195e-38
0.01929786429 -0.2103146613 -0.2282578647 2.347089308e-38
-0.1992363334 -0.2998338938 0.2155799121 2.347089308e-38
-0.1186384186 -0.4865439534 -0.0589132458 2.347089308e-38
-0.1172653884 -0.4895374775 -0.0361546874 2.347089308e-38
-0.07794198394 -0.4176437557 -0.3542750478 2.347089308e-38
-0.02740520239 -0.423665911 -0.3559359014 2.347089308e-38
-0.1317698956 -0.4920213223 -0.09004668146 2.347089308e-38
0.01784455031 -0.04747794569 -0.06369134784 2.347089308e-38
0.217445612 -0.4449913204 -0.2329696864 2.346981408e-38
-0.1740162969 -0.4423136711 -0.3426678181 2.346981408e-38
-0.2089352459 -0.3127950728 0.241342932 2.346981408e-38
0.04123823345 -0.03672118485 -0.06762887537 2.346981408e-38
0.03016630933 -0.04668883979 -0.06462441385 2.346981408e-38
-0.01766737923 -0.2126819491 -0.2254586816 2.346981408e-38
-0.1255035549 -0.471576333 -0.1727061868 2.346981408e-38
0.04461565614 -0.3047697842 0.05471847206 2.346981408e-38
-0.2028270215 -0.2938439846 0.4358131886 2.346909522e-38
-0.1124952883 -0.472284019 -0.1622599363 2.346909522e-38
0.06925911456 -0.3031916022 0.05285235494 2.346909522e-38
-0.1013356745 -0.4284005165 -0.3503375649 2.346909522e-38
0.09116531909 -0.4268434048 -0.2184740305 2.346909522e-38
-0.06695435196 -0.2158383429 -0.2217264473 2.346909522e-38
-0.04231086746 -0.2142601609 -0.2235925645 2.346909522e-38
0.03141611069 -0.05586738884 -0.06255301833 2.346909522e-38
0.1382562518 -0.2890055776 0.2700423598 2.346801622e-38
0.1990511715 -0.4924622774 -0.220746547 2.346801622e-38
-0.1235672385 -0.4822516441 -0.1592554748 2.346801622e-38
-0.2063124329 -0.3249671459 0.2661729455 2.346801622e-38
-0.2294074446 -0.2617072165 -0.07934863865 2.346801622e-38
-0.0643704161 -0.4260331988 -0.3531367183 2.346801622e-38
-0.1892950237 -0.4772165716 -0.2228659689 2.346801622e-38
-0.2165224105 -0.2685998976 -0.08958957344 2.346801622e-38
0.2378468364 -0.4406175613 -0.3237987161 2.346693862e-38
-0.2108715624 -0.3021197617 0.2278922498 2.346693862e-38
-0.2100618333 -0.297431469 0.259958744 2.346693862e-38
0.2289576083 -0.4488905072 -0.2659692168 2.346693862e-38
-0.1978633106 -0.3028274179 0.2383384705 2.346693862e-38
0.06713148952 -0.04432155192 -0.06742358208 2.346693862e-38
0.188119784 -0.4299071431 -0.2900714278 2.346693862e-38
0.2058807909 -0.4796991348 -0.3127139211 2.346693862e-38
0.1093837619 -0.4241643846 -0.3641281426 2.346621835e-38
-0.1789095849 -0.4657521844 -0.2372497022 2.346621835e-38
0.2065433115 -0.05699209869 -0.05078586191 2.346621835e-38
0.114862591 -0.2997623086 0.2739798725 2.346621835e-38
0.05575349554 -0.3220649064 0.2827879786 2.346621835e-38
-0.1167020947 -0.4972192645 -0.04546256363 2.346621835e-38
-0.127563104 -0.4670860767 -0.2068440616 2.346621835e-38
-0.1138683185 -0.4692904949 -0.1850185245 2.346621835e-38
-0.1370510757 -0.4399463534 -0.3454669714 2.346514075e-38
0.1400653124 -0.5085798502 -0.1912512779 2.346514075e-38
0.2119535059 -0.4330172241 -0.3240039945 2.346514075e-38
-0.1878824532 -0.3052269518 0.4597100914 2.346514075e-38
-0.1955573261 -0.2949476242 0.3138507307 2.346514075e-38
-0.2043232769 -0.2970354855 0.3923674226 2.346514075e-38
0.1757980585 -0.430696249 -0.2891383767 2.346514075e-38
0.09692142904 -0.4974763095 -0.2908657193 2.346514075e-38
0.2357872874 -0.436127305 -0.3579366207 2.346406175e-38
-0.1912452579 -0.3071254492 -0.1928201914 2.346406175e-38
-0.1542661339 -0.4641739726 -0.2391158044 2.346406175e-38
0.1304541081 -0.4876252115 -0.3505613804 2.346406175e-38
-0.230093956 -0.2602104545 -0.09072791785 2.346406175e-38
0.02859756723 -0.3767829239 0.05039725453 2.346406175e-38
0.043431703 -0.3228540123 0.2837210298 2.346406175e-38
0.09104208648 -0.4330283999 -0.2391611934 2.346406175e-38
0.01822430268 -0.293710798 -0.2086821645 2.346334289e-38
-0.1963670552 -0.2996358871 0.2817842364 2.346334289e-38
0.1881024837 -0.4962449074 -0.1970549077 2.346334289e-38
-0.1256267726 -0.477761358 -0.1933933794 2.346334289e-38
-0.1043803394 -0.4964301586 -0.04639562219 2.346334289e-38
-0.1945539713 -0.316496253 0.2745477557 2.346334289e-38
0.05392757058 -0.376701504 0.0599104166 2.346334289e-38
-0.1969476789 -0.3582918644 0.3841086626 2.346334289e-38
-0.1899419874 -0.3007366955 0.4255722463 2.346226389e-38
0.162335813 -0.25670591 -0.2260930836 2.346226389e-38
-0.2296539098 -0.2740772665 -0.1207229868 2.346226389e-38
0.05324105173 -0.375204742 0.04853113741 2.346226389e-38
0.1277435869 -0.5093689561 -0.1903182119 2.346226389e-38
0.1259345263 -0.2897946537 0.2709754109 2.346226389e-38
-0.1964902878 -0.3058209419 0.2610971034 2.346226389e-38
-0.1679608971 -0.4619695544 -0.2609413266 2.346226389e-38
0.02791105397 -0.3752861619 0.03901797533 2.346118629e-38
-0.1340718418 -0.2971871495 0.2884982228 2.346118629e-38
-0.1426309049 -0.4618881345 -0.2514281869 2.346118629e-38
0.04091932625 -0.375993818 0.04946418852 2.346118629e-38
-0.2287737727 -0.3018109202 -0.1807131469 2.346118629e-38
-0.081035465 -0.3215664625 0.2909802198 2.346118629e-38
-0.08478487283 -0.2940307558 0.2847659886 2.346118629e-38
-0.1133050248 -0.4769722521 -0.1943264306 2.346118629e-38
-0.171037063 -0.2995544374 0.291297406 2.346010729e-38
-0.07209750265 -0.4774005115 -0.1081626564 2.346010729e-38
-0.2334033102 -0.2465415895 -0.1269371957 2.346010729e-38
0.1154217944 -0.510158062 -0.1893851608 2.346010729e-38
-0.07415705174 -0.4729102254 -0.1423005611 2.346010729e-38
-0.1913545728 -0.4727262855 -0.2570038438 2.346010729e-38
-0.08167321235 -0.4841766655 -0.06171242148 2.346010729e-38
-0.09274513274 -0.4941443205 -0.05870795995 2.346010729e-38
-0.2022637278 -0.3015257716 0.4265053272 2.345938842e-38
-0.1955746561 -0.3612853885 0.4068672359 2.345938842e-38
0.02447848395 -0.3678023517 -0.01787848771 2.345938842e-38
-0.2068757117 -0.3172853291 0.2754808366 2.345938842e-38
0.1010405123 -0.506456852 -0.2225899696 2.345938842e-38
-0.1770742834 -0.3739671409 0.5083478689 2.345938842e-38
0.1500140876 -0.2574950159 -0.2251600325 2.345938842e-38
0.06144370139 -0.3654350638 -0.02067766339 2.345938842e-38
0.0792575404 -0.3766200542 0.06942357868 2.345830942e-38
0.1148497537 -0.3712592423 0.04386584461 2.345830942e-38
-0.1562157273 -0.3171224594 0.2945071459 2.345830942e-38
-0.2303404212 -0.2725805044 -0.1321022958 2.345830942e-38
0.1921860278 -0.4774946868 -0.3345394731 2.345830942e-38
0.1978013664 -0.4832837284 -0.2228179574 2.345830942e-38
-0.07003796101 -0.4818907976 -0.07402481884 2.345830942e-38
-0.1049791649 -0.4610176086 -0.2428480387 2.345830942e-38
0.07858321071 -0.2805867195 -0.2154188603 2.345723183e-38
-0.1920410842 -0.4712295532 -0.2683831155 2.345723183e-38
-0.1283728331 -0.4717743397 -0.238910526 2.345723183e-38
-0.0913721025 -0.4971378446 -0.03594939411 2.345723183e-38
0.1257984489 -0.3674766123 0.02017419599 2.345723183e-38
0.09021906555 -0.3013405204 0.2758460045 2.345723183e-38
-0.1179874018 -0.4603099227 -0.2532942891 2.345723183e-38
0.09772242606 -0.3615710139 -0.03485614806 2.345723183e-38
-0.2210815698 -0.2457524836 -0.1278702468 2.345615283e-38
0.1971148551 -0.4817869663 -0.234197244 2.345615283e-38
0.1100441515 -0.360781908 -0.03578920662 2.345615283e-38
0.2125167996 -0.4406990111 -0.3333119154 2.345615283e-38
0.1475987434 -0.4309756756 -0.3648558855 2.345615283e-38
0.0984089449 -0.363067776 -0.02347683907 2.345615283e-38
-0.2184587419 -0.2579245865 -0.1030402854 2.345615283e-38
-0.05977577716 -0.4766114056 -0.1090957075 2.345615283e-38
0.1000411958 -0.2821942866 0.2707701325 2.345507523e-38
-0.1514496952 -0.5025829673 -0.2856552601 2.345507523e-38
0.05730937049 -0.06346775591 -0.06234772503 2.345507523e-38
0.0696310997 -0.06267865002 -0.06328077614 2.345507523e-38
-0.1576987058 -0.4566901922 -0.2960122824 2.345507523e-38
-0.06320834905 -0.4691275954 -0.1659921706 2.345507523e-38
-0.05570612848 -0.2984453738 -0.2030838281 2.345507523e-38
-0.08797506243 -0.4768908322 -0.1848132461 2.345507523e-38
-0.1583852172 -0.4551934004 -0.3073915839 2.345399623e-38
-0.06046229228 -0.4751146436 -0.120475024 2.345399623e-38
0.03266591206 -0.0650459379 -0.06048160791 2.345399623e-38
-0.1420676112 -0.4695699215 -0.2607360482 2.345399623e-38
-0.06526789069 -0.4646373391 -0.2001300752 2.345399623e-38
-0.1290593445 -0.4702775478 -0.2502898276 2.345399623e-38
-0.1604447663 -0.4507031441 -0.3415294588 2.345399623e-38
-0.06996354461 -0.3115987778 0.2879757583 2.345399623e-38
0.07366831601 -0.4357102513 -0.3592575788 2.345291723e-38
0.06626147032 -0.2813758254 -0.2144858092 2.345291723e-38
-0.07428026944 -0.4790952504 -0.162987709 2.345291723e-38
-0.07290724665 -0.4820887744 -0.1402291507 2.345291723e-38
-0.103042841 -0.4716929197 -0.2293973565 2.345291723e-38
-0.1474364996 -0.4514108002 -0.3310832083 2.345291723e-38
-0.193414107 -0.4682360291 -0.2911416888 2.345291723e-38
0.112790212 -0.3667689562 0.009727973491 2.345291723e-38
-0.186562255 -0.3468274474 0.3697248697 2.345219836e-38
-0.05771623552 -0.4811016917 -0.07495786995 2.345219836e-38
0.2041909248 -0.4566537142 -0.2847902775 2.345219836e-38
-0.2361493707 -0.2405545413 -0.172454372 2.345219836e-38
0.01433952525 -0.3668967187 0.03787963092 2.345219836e-38
-0.04781966284 -0.2916634679 0.2819668353 2.345219836e-38
-0.06664092094 -0.461643815 -0.2228886336 2.345219836e-38
-0.05294612795 -0.4638482332 -0.2010631263 2.345219836e-38
-0.1344282478 -0.4521184564 -0.3206369877 2.345111936e-38
-0.09585684538 -0.3039984405 0.2877704799 2.345111936e-38
-0.1297458559 -0.4687808156 -0.2616690993 2.345111936e-38
-0.05363263935 -0.462351501 -0.212442413 2.345111936e-38
-0.05764178187 -0.3108096719 0.2870427072 2.345111936e-38
-0.1858757436 -0.3483242095 0.3811042011 2.345111936e-38
-0.05852597579 -0.4857899547 -0.107024312 2.345111936e-38
0.1560868025 -0.2108131349 -0.2364501059 2.345111936e-38
-0.1221064851 -0.4513293505 -0.3215700388 2.345004176e-38
-0.1227929965 -0.4498325884 -0.3329493403 2.345004176e-38
0.2021313906 -0.4521634579 -0.3189281523 2.345004176e-38
0.1695316732 -0.4511412382 -0.206478864 2.345004176e-38
-0.09403046221 -0.4572349787 -0.2665396929 2.345004176e-38
-0.2307100892 -0.2911356091 -0.1941638291 2.345004176e-38
-0.07702632993 -0.473108232 -0.2085048854 2.345004176e-38
-0.2073157728 -0.3034184873 0.3054758608 2.345004176e-38
0.04586546123 -0.3139483333 0.05678987503 2.344896276e-38
-0.2198317647 -0.2549310625 -0.1257988364 2.344896276e-38
0.0821441859 -0.3100842834 0.0426114127 2.344896276e-38
-0.1921247542 -0.3024314344 0.3707472086 2.344896276e-38
-0.1936210096 -0.3056229353 0.3273014128 2.344896276e-38
-0.1441271454 -0.4650796056 -0.2948739231 2.344896276e-38
0.191622749 -0.46981287 -0.3252316117 2.344896276e-38
0.0764143765 -0.4416972995 -0.3137403727 2.344896276e-38
-0.06058551744 -0.4812996686 -0.1411622167 2.344788516e-38
-0.07771284133 -0.4716114402 -0.2198841721 2.344788516e-38
-0.231713444 -0.2695869803 -0.154860884 2.344788516e-38
-0.2328400165 -0.2542234063 -0.1362451017 2.344788516e-38
-0.205133006 -0.3017237484 0.3603009284 2.344788516e-38
0.143765077 -0.2116022408 -0.2355170399 2.344788516e-38
0.02575437725 -0.4418601692 -0.3327667117 2.344788516e-38
0.04517894983 -0.3124515712 0.04541059583 2.344788516e-38
-0.1555298418 -0.2955795825 -0.19769077 2.344680616e-38
-0.2067524791 -0.3111003041 0.2961679995 2.344680616e-38
-0.0865143016 -0.4459685087 -0.3471277952 2.344680616e-38
0.0246017091 -0.3616173267 0.002808671445 2.344680616e-38
0.1130488366 -0.2598623037 -0.2223608494 2.344680616e-38
-0.04268394411 -0.458568871 -0.2361340523 2.344680616e-38
0.06477915496 -0.4439831674 -0.30142802 2.344680616e-38
-0.04532005638 -0.3100205958 0.2861096263 2.344680616e-38
0.03876261413 -0.4425678253 -0.3223205209 2.344572857e-38
0.1436384171 -0.4435408711 -0.2066841573 2.344572857e-38
-0.2135654092 -0.2344860733 -0.208458364 2.344572857e-38
-0.08514127135 -0.4489620328 -0.3243691921 2.344572857e-38
-0.06118429452 -0.4458871186 -0.3376145959 2.344572857e-38
0.02644088864 -0.4433569312 -0.3213874698 2.344572857e-38
-0.2311501652 -0.2772687674 -0.1641687602 2.344572857e-38
-0.02967569791 -0.4592764974 -0.2256878018 2.344572857e-38
0.1902497113 -0.4668193758 -0.3479901552 2.344464957e-38
-0.0112108402 -0.444227457 -0.3299675584 2.344464957e-38
-0.1975109726 -0.3506100774 0.3934165537 2.344464957e-38
0.03285721689 -0.3132406771 0.04634364694 2.344464957e-38
-0.05169632658 -0.4730268121 -0.1989917308 2.344464957e-38
-0.06539111584 -0.4708223343 -0.2208172381 2.344464957e-38
-0.08445475996 -0.4504588246 -0.3129899502 2.344464957e-38
-0.2015068382 -0.3354444802 0.3458279669 2.344464957e-38
-0.01085444726 -0.28929618 0.2791676521 2.344357197e-38
0.06362646818 -0.363740325 0.03414739668 2.344357197e-38
-0.1884985715 -0.3361521363 0.3562741876 2.344357197e-38
0.1895631999 -0.4653226137 -0.3593694568 2.344357197e-38
-0.07908587158 -0.4686179161 -0.2426427603 2.344357197e-38
-0.0358543247 -0.4458056688 -0.3281014562 2.344357197e-38
-0.19006522 -0.3069217205 0.4048850536 2.344357197e-38
-0.08376824111 -0.4519555569 -0.3016106188 2.344357197e-38
0.106799826 -0.2139695287 -0.2327178717 2.344249297e-38
0.02712740377 -0.4448536932 -0.3100081384 2.344249297e-38
0.06088040769 -0.3577532768 -0.01136978529 2.344249297e-38
0.11428646 -0.3635774553 0.05317372829 2.344249297e-38
0.09447810054 -0.2147586346 -0.2317848057 2.344249297e-38
-0.1539493054 -0.4842258394 -0.2897980809 2.344249297e-38
0.07388865203 -0.358460933 -0.0009235627949 2.344249297e-38
-0.01735394076 -0.4584873915 -0.2266208678 2.344249297e-38
-0.2052562386 -0.3079087734 0.3396137655 2.344141397e-38
-0.2060665935 -0.2895574272 -0.1960299462 2.344141397e-38
-0.2037599832 -0.3047172725 0.3830595315 2.344141397e-38
0.09229189157 -0.4422069788 -0.237089783 2.344141397e-38
0.03692346811 -0.3608282208 0.001875612885 2.344141397e-38
0.1007271111 -0.2606514096 -0.2214277983 2.344141397e-38
0.1252351701 -0.3597948253 0.02948210575 2.344141397e-38
-0.0530693531 -0.470033288 -0.2217502892 2.344141397e-38
0.03555043787 -0.3578346968 -0.02088294923 2.344033637e-38
-0.1062428653 -0.2924231887 -0.2014230043 2.344033637e-38
0.003170459066 -0.4479286671 -0.2967627645 2.344033637e-38
-0.1194836497 -0.4635013938 -0.2967400551 2.344033637e-38
0.1135999486 -0.3620806932 0.04179444164 2.344033637e-38
-0.09392115474 -0.2916340828 -0.2023560554 2.344033637e-38
0.0492451936 -0.3600391448 0.0009425543249 2.344033637e-38
-0.01872696914 -0.4554938674 -0.249379456 2.344033637e-38
0.1488485485 -0.4401541948 -0.3627845049 2.343925737e-38
0.07088090479 -0.07185722888 -0.06120938063 2.343925737e-38
-0.2200782299 -0.2673011422 -0.1671732068 2.343925737e-38
0.1189949661 -0.4451190531 -0.2048180401 2.343925737e-38
0.04623744637 -0.07343541086 -0.05934326351 2.343925737e-38
0.02747098729 -0.3614193201 0.06901299953 2.343925737e-38
