# .PCD v0.7 - Point Cloud Data file format
VERSION 0.7
FIELDS x y z rgb
SIZE 4 4 4 4
TYPE F F F F
COUNT 1 1 1 1
WIDTH 841
HEIGHT 1
VIEWPOINT 0 0 0 1 0 0 0
POINTS 841
DATA ascii
-0.004968732595 -0.1571608484 -0.3734385669 1.000925913e-38
0.1586277038 -0.568911016 0.06636095047 1.000925913e-38
0.3082830012 -0.2667438984 -0.366440922 1.000925913e-38
0.2381741256 -0.3953488469 0.2327832282 1.000925913e-38
0.2861650884 -0.3053060174 0.1190251559 1.019292872e-38
-0.09189851582 -0.4069391489 -0.2771964669 1.019292872e-38
0.09444340318 -0.3474591374 0.219063431 1.019292872e-38
-0.1774960756 -0.1681185365 -0.3604851961 1.019292872e-38
-0.003549549729 -0.2588038445 -0.3495677412 1.019292872e-38
0.07962138951 -0.3299036026 0.2158167362 1.019292872e-38
-0.1762467474 -0.177287668 -0.3583992124 1.019292872e-38
0.1245116964 -0.1951795071 -0.3722611964 1.019292872e-38
0.2505500019 -0.3106233478 0.1445643306 1.037659831e-38
-0.1474192888 -0.3619520068 0.3023820817 1.037659831e-38
0.136835143 -0.1943968236 -0.3731864393 1.037659831e-38
0.2438489348 -0.4335099161 0.2525087595 1.037659831e-38
-0.1188020557 -0.333257556 0.2285346538 1.037659831e-38
0.04486067593 -0.741012156 -0.08631047606 1.037659831e-38
0.4556171596 -0.3333292902 -0.3148734868 1.037659831e-38
0.1852882504 -0.7152891159 -0.2226122022 1.037659831e-38
-0.1157093048 -0.2566789389 -0.3433265388 1.056062664e-38
0.2788922489 -0.4205081165 0.2362653911 1.056062664e-38
0.1844551116 -0.3694876432 0.2188446075 1.056062664e-38
0.1469131559 -0.3641512096 0.2309160829 1.056062664e-38
0.4509800971 -0.3167371452 -0.3738679886 1.056062664e-38
0.1614818871 -0.1928314418 -0.3750369251 1.056062664e-38
-0.001220759004 -0.1846682131 -0.3671806753 1.056062664e-38
0.1566544473 -0.2486288548 -0.3615958989 1.056062664e-38
-0.1416053921 -0.2490752339 -0.343562007 1.074429623e-38
-0.1331883967 -0.3740953803 -0.2713828683 1.074429623e-38
0.1252727509 -0.2930655479 0.2265353203 1.074429623e-38
-0.126128152 -0.3707167208 0.2378037423 1.074429623e-38
0.0955092907 -0.7408505678 -0.0672480464 1.074429623e-38
0.1738052517 -0.1920487434 -0.375962168 1.074429623e-38
-0.1651726812 -0.1673358679 -0.361410439 1.074429623e-38
0.1995362192 -0.5216807127 -0.002592414618 1.074429623e-38
0.3028614223 -0.417458117 0.2230332047 1.092796582e-38
0.1195979044 -0.2549045086 0.206809774 1.092796582e-38
0.4566120207 -0.3162142038 -0.2414593995 1.092796582e-38
-0.1564274132 -0.2315196842 -0.3468087018 1.092796582e-38
-0.1449400038 -0.3825625479 -0.279753387 1.092796582e-38
-0.1514107436 -0.2659237981 0.247842595 1.092796582e-38
0.1430817693 -0.2402424067 -0.3627566099 1.092796582e-38
-0.1614246964 -0.1948432177 -0.3551525474 1.092796582e-38
0.2182713896 -0.2447153926 -0.3662221134 1.111163541e-38
0.1688079685 -0.1553722918 -0.3843060136 1.111163541e-38
-0.1475570202 -0.2872312665 0.2747778893 1.111163541e-38
0.4222680628 -0.3093948662 -0.4403077662 1.111163541e-38
-0.1601753831 -0.2040123343 -0.3530665934 1.111163541e-38
-0.1503506601 -0.1848914027 -0.3581637442 1.111163541e-38
-0.1033859327 -0.2558962703 -0.3442517817 1.111163541e-38
0.2519050837 -0.3135925531 0.1673277169 1.111163541e-38
0.2548697293 -0.3458151817 0.1415264308 1.1295305e-38
-0.05788195506 -0.4367843866 -0.05344896391 1.1295305e-38
0.3876267374 -0.2376073003 -0.4551449716 1.1295305e-38
0.1726664007 -0.5911818743 0.03754845262 1.1295305e-38
0.229345426 -0.2347635627 -0.3692333102 1.1295305e-38
0.161020577 -0.5934491754 0.04985539615 1.1295305e-38
0.1599639654 -0.7153699398 -0.2321434468 1.1295305e-38
0.25049752 -0.3945661485 0.2318579853 1.1295305e-38
-0.1478520036 -0.203229636 -0.3539918065 1.147897319e-38
-0.1435545981 -0.3410228193 0.2097077072 1.147897319e-38
-0.1585127264 -0.3741761446 -0.2809141278 1.147897319e-38
0.4483756721 -0.3045988083 -0.3987173736 1.147897319e-38
0.2120247632 -0.1988697946 -0.3766519129 1.147897319e-38
0.4378733933 -0.3222351074 -0.4050019085 1.147897319e-38
-0.135528639 -0.2024469376 -0.3549170494 1.147897319e-38
-0.1244545579 -0.1924951375 -0.3579282761 1.147897319e-38
-0.01354413107 -0.1854509115 -0.3662554324 1.166264278e-38
0.04689331725 -0.7454659939 -0.05216537416 1.166264278e-38
-0.1079698578 -0.3802144825 -0.2825291157 1.166264278e-38
0.1886759996 -0.7227121592 -0.1657036543 1.166264278e-38
0.1846107095 -0.713804543 -0.2339939177 1.166264278e-38
-0.1133805141 -0.1825433373 -0.3609394729 1.166264278e-38
-0.1441040337 -0.2307369858 -0.3477339447 1.166264278e-38
-0.1466026902 -0.2123987526 -0.3519058526 1.166264278e-38
-0.1031424254 -0.3244171143 -0.2959701419 1.184631237e-38
-0.09980779141 -0.1909297556 -0.3597787619 1.184631237e-38
0.2119653523 -0.5146981478 0.0171597749 1.184631237e-38
0.2168568671 -0.5575745106 0.004826188087 1.184631237e-38
-0.1219559163 -0.2108333558 -0.3537563384 1.184631237e-38
-0.07765969634 -0.1710261405 -0.3658011556 1.184631237e-38
0.09766949713 -0.7177987099 -0.2388989329 1.184631237e-38
0.2341728359 -0.1789661646 -0.3826743364 1.184631237e-38
0.4386138022 -0.2788358331 -0.2602597475 1.202998196e-38
-0.02944561467 -0.2512001097 -0.3498032391 1.202998196e-38
-0.05308787525 -0.4191724062 0.299125433 1.202998196e-38
0.2009506971 -0.2088215947 -0.3736407161 1.202998196e-38
-0.1320991367 -0.4111450911 0.2698362172 1.202998196e-38
0.3041107655 -0.4266272485 0.2251191735 1.202998196e-38
0.4476981163 -0.3031141758 -0.4100990593 1.202998196e-38
-0.06666059792 -0.4107859433 0.2979647219 1.202998196e-38
-0.1317806691 -0.2299542874 -0.3486591876 1.221365155e-38
-0.161011368 -0.3558379114 -0.2850860357 1.221365155e-38
0.2280961126 -0.225594461 -0.3713192642 1.221365155e-38
-0.0887337476 -0.1809779406 -0.3627899587 1.221365155e-38
0.1911259294 -0.2279425263 -0.3685435355 1.221365155e-38
-0.1298761219 -0.3432093859 0.2315458655 1.221365155e-38
-0.1286267936 -0.3523784876 0.2336318195 1.221365155e-38
-0.05301292241 -0.1694607437 -0.3676516414 1.221365155e-38
-0.1453756988 -0.3241692185 0.2169174701 1.239732115e-38
-0.05409238487 -0.2527654767 -0.3479527533 1.239732115e-38
-0.1384515315 -0.3714994192 0.2387289852 1.239732115e-38
-0.05371088907 -0.4394921362 0.03551873937 1.239732115e-38
0.1030188128 -0.3191690743 0.2118802965 1.239732115e-38
-0.07516104728 -0.1893643737 -0.3616292179 1.239732115e-38
0.1299944073 -0.243468076 0.1924168617 1.239732115e-38
0.3856998682 -0.2269535661 -0.4686126411 1.239732115e-38
0.4515518844 -0.3244216442 -0.3831637502 1.258099074e-38
0.4517845809 -0.3720116019 -0.2280184031 1.258099074e-38
-0.02461818047 -0.1954027116 -0.3632442355 1.258099074e-38
-0.1445923597 -0.3194539249 0.2489766032 1.258099074e-38
-0.1486879736 -0.355055213 -0.2860112786 1.258099074e-38
0.2670873404 -0.3512324095 0.1199237555 1.258099074e-38
0.04824841768 -0.7484351993 -0.02940192819 1.258099074e-38
0.04282803088 -0.7365583181 -0.1204556227 1.258099074e-38
0.1716097742 -0.7131025791 -0.2444503754 1.276466033e-38
0.1849897653 -0.5903991461 0.03662320971 1.276466033e-38
0.1733439565 -0.5926665068 0.04893015325 1.276466033e-38
-0.009871121496 -0.462669909 0.3067795038 1.276466033e-38
0.08021552861 -0.2349867672 -0.3602163792 1.276466033e-38
-0.03819087148 -0.1870163083 -0.3644049466 1.276466033e-38
0.2145234197 -0.2172080427 -0.372480005 1.276466033e-38
0.2464962155 -0.178183496 -0.3835995793 1.276466033e-38
-0.03826586157 -0.436727941 0.3023721278 1.294832852e-38
0.2562248409 -0.3487844169 0.1642898768 1.294832852e-38
-0.1227919012 -0.3626589477 -0.2857758105 1.294832852e-38
0.2228278667 -0.5171461105 -0.02720634639 1.294832852e-38
0.2345794588 -0.5086789131 -0.01883579791 1.294832852e-38
0.1311243623 -0.7355333567 -0.09278717637 1.294832852e-38
0.4365183115 -0.319265902 -0.4277653098 1.294832852e-38
0.2918931246 -0.4212100208 0.2467218488 1.294832852e-38
0.3834725916 -0.2712168396 -0.3699063957 1.313163938e-38
0.2009993643 -0.7219294906 -0.1666288972 1.313163938e-38
-0.04926495254 -0.1969680935 -0.3613937497 1.313163938e-38
-0.05051427335 -0.1877990067 -0.3634797037 1.313163938e-38
0.3496030867 -0.3182461858 0.1071891636 1.313163938e-38
0.2575799227 -0.3517536223 0.1870532781 1.313163938e-38
0.3999501169 -0.2368246019 -0.4560702145 1.313163938e-38
-0.05303334072 -0.4409767687 0.04690046236 1.313163938e-38
0.2401485145 -0.5530399084 -0.01978774369 1.331530897e-38
0.3347810507 -0.3006906509 0.1039424837 1.331530897e-38
-0.08248712867 -0.2268235236 -0.3523601592 1.331530897e-38
0.239170149 -0.215642646 -0.3743304908 1.331530897e-38
0.4520807266 -0.2934221625 -0.2797764838 1.331530897e-38
0.2126451731 -0.7196621895 -0.1789358556 1.331530897e-38
0.0935433656 -0.4006109536 0.2859365642 1.331530897e-38
-0.1018930972 -0.333586216 -0.2938841879 1.331530897e-38
0.1318019181 -0.7370179296 -0.08140547574 1.349897856e-38
0.2215808779 -0.711456418 -0.2367696464 1.349897856e-38
0.3440038264 -0.2552267015 -0.3713026047 1.349897856e-38
0.2736416459 -0.1949563324 -0.3812781274 1.349897856e-38
-0.07016375661 -0.2260408252 -0.3532854021 1.349897856e-38
0.1093153208 -0.7155314684 -0.2512058616 1.349897856e-38
0.3231351972 -0.302957952 0.1162494272 1.349897856e-38
0.2588196397 -0.1774007976 -0.3845248222 1.349897856e-38
-0.144698143 -0.3256538212 0.2282991707 1.368228942e-38
0.1762706637 -0.3552249372 0.3145568371 1.368228942e-38
0.1405831277 -0.2219041884 -0.3669285476 1.368228942e-38
0.2229359746 -0.714425683 -0.2140062302 1.368228942e-38
-0.1421995014 -0.3439920545 0.2324711084 1.368228942e-38
-0.0539653413 -0.4132079482 0.1068468541 1.368228942e-38
0.1544159949 -0.7309986949 -0.1174011007 1.368228942e-38
0.2596125603 -0.3562074602 0.2211984247 1.368228942e-38
0.03118220903 -0.7388256192 -0.1081486791 1.386595901e-38
-0.05784035474 -0.2252581418 -0.354210645 1.386595901e-38
0.1301642656 -0.3359419405 0.2142017335 1.386595901e-38
0.1282596886 -0.2226868868 -0.3660033047 1.386595901e-38
-0.09939445555 -0.3519244492 -0.2897122502 1.386595901e-38
0.1709322333 -0.7116180062 -0.2558320761 1.386595901e-38
-0.03069493733 -0.2420309931 -0.3518891931 1.386595901e-38
0.1159363165 -0.2234695703 -0.3650780618 1.386595901e-38
0.435264796 -0.286424309 -0.3694354594 1.404926846e-38
-0.04301833734 -0.2428136915 -0.3509639502 1.404926846e-38
-0.05183855444 -0.4283415079 0.3012113869 1.404926846e-38
-0.1058845744 -0.237558037 -0.3484236896 1.404926846e-38
0.2677648664 -0.3527170122 0.1313054562 1.404926846e-38
-0.08434149623 -0.3548078835 0.3411967754 1.404926846e-38
0.04147293419 -0.7335890532 -0.1432190537 1.404926846e-38
0.2805113494 -0.3271347284 0.2130900472 1.404926846e-38
0.3980232477 -0.2261708677 -0.469537884 1.423293806e-38
0.2758743167 -0.3105425835 0.1540955454 1.423293806e-38
0.0296726618 -0.2289484292 -0.3586013615 1.423293806e-38
0.2748909593 -0.2041254491 -0.3791921735 1.423293806e-38
0.2615715861 -0.3846143484 0.2288467884 1.423293806e-38
0.02335105464 -0.4328144789 0.2977459133 1.423293806e-38
0.4509371817 -0.2780531049 -0.2611849904 1.423293806e-38
0.1091878116 -0.7430371046 -0.04540990293 1.423293806e-38
0.08246932179 -0.4105627835 0.2889477611 1.441624891e-38
0.3955245912 -0.2078326344 -0.4737098217 1.441624891e-38
0.2366120964 -0.513132751 0.0153092891 1.441624891e-38
0.127665624 -0.3176037073 0.2100298107 1.441624891e-38
0.04905349761 -0.7224141359 -0.2238162607 1.441624891e-38
0.2079212517 -0.565780282 0.06265997887 1.441624891e-38
0.2248605192 -0.521600008 0.006938800216 1.441624891e-38
0.04674846679 -0.4220799506 0.2938094437 1.441624891e-38
0.2249686122 -0.7188794613 -0.1798610985 1.459991851e-38
-0.03369288892 -0.3546463251 0.3602591753 1.459991851e-38
-0.1427712739 -0.3363075554 0.2417668402 1.459991851e-38
0.2872143388 -0.2033427507 -0.3801174164 1.459991851e-38
0.4235590696 -0.2136903107 -0.4186517596 1.459991851e-38
0.235675469 -0.3770105839 0.2286113054 1.459991851e-38
0.2195670605 -0.5635129213 0.05035303533 1.459991851e-38
0.2847157121 -0.1850045323 -0.3842893541 1.459991851e-38
0.1181901693 -0.3990455568 0.2840860784 1.478322936e-38
0.07425028086 -0.7498390675 -0.008489027619 1.478322936e-38
0.02460037544 -0.4419835806 0.2998318672 1.478322936e-38
0.2772293985 -0.3135117888 0.1768589467 1.478322936e-38
0.03795769066 -0.7536717653 0.005668401718 1.478322936e-38
0.4444161654 -0.2894912362 -0.4463301897 1.478322936e-38
0.1448028237 -0.7377198339 -0.070949018 1.478322936e-38
0.4619066715 -0.4178588986 -0.4171266854 1.478322936e-38
0.2738949358 -0.38383165 0.2279215455 1.496689755e-38
-0.1349901259 -0.3549694121 0.3221342862 1.496689755e-38
0.3294351101 -0.4265464544 0.2346503884 1.496689755e-38
-0.1437032819 -0.3085387349 0.3017132282 1.496689755e-38
0.44583413 -0.2475765646 -0.2902062833 1.496689755e-38
0.07586248219 -0.344632864 0.3291686177 1.496689755e-38
0.242181167 -0.5574937463 0.01435740292 1.496689755e-38
-0.03721644357 -0.4414172173 0.1235612035 1.496689755e-38
0.2096095383 -0.2769330144 0.2065909654 1.515020841e-38
0.01953635365 -0.7410929203 -0.09584174305 1.515020841e-38
0.2255380601 -0.5230845809 0.01832050085 1.515020841e-38
0.03692374378 -0.4412008822 0.2989066243 1.515020841e-38
0.3264171779 -0.3165808916 0.1524805278 1.515020841e-38
0.3945467174 -0.2612650394 -0.3729176223 1.515020841e-38
0.02156899869 -0.7455467582 -0.06169658899 1.515020841e-38
0.2953334451 -0.3446902633 0.2163367271 1.515020841e-38
0.3361361325 -0.3036598563 0.1267058849 1.533351927e-38
0.1166973338 -0.3213556111 0.2337184399 1.533351927e-38
-0.1370964348 -0.3744686246 0.2614923716 1.533351927e-38
0.1790627986 -0.7294332981 -0.1192515865 1.533351927e-38
0.2928347886 -0.32635203 0.2121648043 1.533351927e-38
0.03848619014 -0.4154784679 -0.4033080637 1.533351927e-38
-0.007944252342 -0.4733236134 0.3202471733 1.533351927e-38
0.1283431798 -0.31908831 0.2214115113 1.533351927e-38
0.4465116858 -0.2490611672 -0.2788245678 1.551683013e-38
0.2379671931 -0.5161019564 0.03807273507 1.551683013e-38
-0.05078915134 -0.4330307841 0.1224004775 1.551683013e-38
0.4437386096 -0.2880066037 -0.4577118754 1.551683013e-38
0.2312128991 -0.5612456799 0.03804604709 1.551683013e-38
0.3244903088 -0.3059271574 0.1390128732 1.551683013e-38
0.1270938516 -0.3099191785 0.2193255424 1.551683013e-38
0.157253772 -0.7094314694 -0.2776702642 1.551683013e-38
0.01602497324 -0.4702736437 0.3070150018 1.570049832e-38
0.1387396753 -0.3076519072 0.2070185989 1.570049832e-38
0.4633246362 -0.3759441972 -0.2610028088 1.570049832e-38
0.03348889947 -0.3788020015 -0.4116519094 1.570049832e-38
0.3402558565 -0.2277193367 -0.3775604963 1.570049832e-38
0.1454803646 -0.7392044067 -0.05956731737 1.570049832e-38
0.2221027762 -0.3686241806 0.2274505943 1.570049832e-38
0.23187159 -0.7062199116 -0.2718400061 1.570049832e-38
0.05163615569 -0.7558582425 0.02750661969 1.588380918e-38
0.1683837026 -0.3427630067 0.2135119736 1.588380918e-38
-0.1383457631 -0.3652995229 0.2594064176 1.588380918e-38
0.2083602101 -0.2677638531 0.2045049965 1.588380918e-38
0.08657364547 -0.7490563393 -0.00941427052 1.588380918e-38
0.1942238808 -0.7070834041 -0.2804459929 1.588380918e-38
0.1786635518 -0.3797630966 0.2980513275 1.588380918e-38
0.4452623427 -0.2398920655 -0.2809105217 1.588380918e-38
-0.05178401992 -0.4501459002 0.04898642376 1.606712004e-38
0.09495930374 -0.7118602991 -0.2844257653 1.606712004e-38
0.06157054752 -0.4396355152 0.2970561385 1.606712004e-38
0.2268931568 -0.5260537863 0.04108394682 1.606712004e-38
0.2065472454 -0.7063007355 -0.2813712358 1.606712004e-38
0.4569093883 -0.3811824322 -0.4254705608 1.606712004e-38
-0.1460641921 -0.3649212122 0.325145483 1.606712004e-38
0.3534043133 -0.4234964848 0.2214182019 1.606712004e-38
-0.1036307514 -0.4131340384 0.3007404208 1.625043089e-38
0.02643937431 -0.7284333706 -0.1878206283 1.625043089e-38
0.2325679958 -0.5642148852 0.06080949306 1.625043089e-38
0.3069792688 -0.3424229622 0.2040297836 1.625043089e-38
0.1394172311 -0.3091365099 0.2184002995 1.625043089e-38
0.1913861781 -0.7286506295 -0.1201768294 1.625043089e-38
0.2146778256 -0.7241160274 -0.144790709 1.625043089e-38
0.1565762162 -0.7079468369 -0.2890519798 1.625043089e-38
0.1690612584 -0.3442476094 0.2248936743 1.643374035e-38
0.2902303934 -0.3142136931 0.1873153895 1.643374035e-38
0.1688995808 -0.7071641684 -0.2899772227 1.643374035e-38
0.198535502 -0.2868847847 0.2096021622 1.643374035e-38
0.4720698893 -0.4401280284 -0.2464010715 1.643374035e-38
0.1737720221 -0.336886704 0.3103849292 1.643374035e-38
0.1812148243 -0.2509910464 0.2021835595 1.643374035e-38
0.2311940491 -0.7047353387 -0.2832217216 1.643374035e-38
-0.05110647157 -0.4516305029 0.0603681244 1.661705121e-38
0.09604200721 -0.4189491868 0.2901084721 1.661705121e-38
0.1671343744 -0.3335938454 0.2114260048 1.661705121e-38
0.1105429083 -0.7460063696 -0.02264644206 1.661705121e-38
0.3644251227 -0.3358017206 0.1104358435 1.661705121e-38
0.2206835896 -0.2669811845 0.2035797536 1.661705121e-38
-0.1089882702 -0.3563732505 0.3430472314 1.661705121e-38
0.2565183342 -0.7046545744 -0.2736904919 1.661705121e-38
0.05189328641 -0.3476828635 0.3424007893 1.680036207e-38
-0.1295268387 -0.4055303037 0.3005049527 1.680036207e-38
0.3179475367 -0.3386710286 0.1803410947 1.680036207e-38
0.1992130429 -0.2883694172 0.2209838629 1.680036207e-38
0.4499852359 -0.3338522315 -0.4472820759 1.680036207e-38
0.4519121051 -0.3445059359 -0.4338144064 1.680036207e-38
-0.134312585 -0.3564540148 0.3335159719 1.680036207e-38
0.2071108967 -0.2585947514 0.2024190426 1.680036207e-38
0.2605836391 -0.7135622501 -0.2054002285 1.698367293e-38
0.158481285 -0.7399063706 -0.04911085963 1.698367293e-38
0.2868958414 -0.3845335543 0.2383780032 1.698367293e-38
0.2392165214 -0.5252710581 0.04015870392 1.698367293e-38
0.246749565 -0.3670587838 0.2256000936 1.698367293e-38
-0.05042892322 -0.4531151056 0.07174982131 1.698367293e-38
0.1468354613 -0.7421736717 -0.03680387139 1.698367293e-38
0.2428398728 -0.7024680376 -0.2955286801 1.698367293e-38
0.1228662878 -0.7452236414 -0.02357168496 1.716698239e-38
0.4722349644 -0.2840762436 -0.3722111881 1.716698239e-38
0.4191934466 -0.2596996427 -0.3747681081 1.716698239e-38
0.2696917653 -0.3633707464 0.1447731107 1.716698239e-38
0.01560065895 -0.3515155613 0.3565582037 1.716698239e-38
-0.0440893881 -0.3660827577 0.3746520877 1.716698239e-38
0.2208534479 -0.359455049 0.2253646255 1.716698239e-38
0.250292927 -0.7187987566 -0.1703298688 1.716698239e-38
0.4544107616 -0.3628441691 -0.4296424687 1.735029324e-38
-0.142993778 -0.3909439743 0.3200216889 1.735029324e-38
0.08871593326 -0.4564083517 0.2993775904 1.735029324e-38
0.2153553665 -0.7256006002 -0.1334090233 1.735029324e-38
0.2701968253 -0.7068410516 -0.2518523037 1.735029324e-38
0.2715519071 -0.709810257 -0.2290888876 1.735029324e-38
0.2819093764 -0.3687879145 0.1231704354 1.735029324e-38
0.2722294629 -0.7112948895 -0.2177071869 1.735029324e-38
-0.04896805063 -0.4498844147 0.1151907146 1.75336041e-38
0.09957456589 -0.7497582436 0.001042187214 1.75336041e-38
0.4697827995 -0.4093900323 -0.2092180848 1.75336041e-38
0.2612611949 -0.715046823 -0.1940185279 1.75336041e-38
0.279810071 -0.7001199126 -0.2983044088 1.75336041e-38
0.3141995668 -0.3111636937 0.174083218 1.75336041e-38
0.01547106728 -0.7321852446 -0.1641319841 1.75336041e-38
0.09978997707 -0.4464565516 0.2963663638 1.75336041e-38
0.06531850994 -0.4671428502 0.3033140302 1.771655483e-38
-0.04975137487 -0.4545997083 0.08313152194 1.771655483e-38
0.3176302314 -0.3572707176 0.1183087379 1.771655483e-38
-0.1487005651 -0.2718622684 0.2933693528 1.771655483e-38
0.1621261388 -0.3391540349 0.3226919174 1.771655483e-38
0.2966148257 -0.371612519 0.2126034051 1.771655483e-38
0.08886339515 -0.3453347981 0.3396250606 1.771655483e-38
0.1769591719 -0.3144729137 0.2063288391 1.771655483e-38
0.1010393053 -0.4556256831 0.2984523475 1.789986569e-38
0.2331768125 -0.3586723506 0.2244393826 1.789986569e-38
0.3299536109 -0.356488049 0.117383495 1.789986569e-38
0.2453304082 -0.2654157877 0.2017292678 1.789986569e-38
0.2393246293 -0.7225506306 -0.1466411948 1.789986569e-38
0.077641882 -0.4663601816 0.3023887873 1.789986569e-38
0.1305743158 -0.7065430284 -0.3099648952 1.789986569e-38
0.09360420704 -0.7088910937 -0.3071891665 1.789986569e-38
0.3656744361 -0.3449708521 0.1125218123 1.808317654e-38
0.4692110419 -0.4017055035 -0.199922353 1.808317654e-38
-0.005787935108 -0.7411737442 -0.1053729504 1.808317654e-38
0.2942328155 -0.3680052161 0.1222451925 1.808317654e-38
0.2276788056 -0.7248179317 -0.1343342662 1.808317654e-38
-0.004432836547 -0.7441429496 -0.08260950446 1.808317654e-38
-0.04907382652 -0.4560843408 0.09451328218 1.808317654e-38
0.0696349591 -0.711941123 -0.293956995 1.808317654e-38
0.3089061081 -0.3530766964 0.2174974531 1.826612727e-38
-0.03539535031 -0.4582708478 0.1163514256 1.826612727e-38
0.3541343808 -0.3410382569 0.145506233 1.826612727e-38
0.1763873994 -0.3067884445 0.2156245708 1.826612727e-38
0.3031016886 -0.6955853701 -0.3229182959 1.826612727e-38
0.2710468769 -0.3663399518 0.1675365567 1.826612727e-38
-0.1083107218 -0.357857883 0.354428947 1.826612727e-38
0.1358671933 -0.7459256053 -0.01311524212 1.826612727e-38
-0.08755940199 -0.4398587048 0.3060730994 1.844943813e-38
0.3895494044 -0.2245885581 -0.3812614679 1.844943813e-38
-0.07023870945 -0.4757524729 0.3134917021 1.844943813e-38
0.1794468611 -0.3750478029 0.3301105201 1.844943813e-38
0.125833571 -0.3429867029 0.3368493319 1.844943813e-38
0.3463326395 -0.1810910702 -0.3889155388 1.844943813e-38
0.3212616146 -0.370047152 0.2107529193 1.844943813e-38
0.4574129581 -0.266520679 -0.3754578531 1.844943813e-38
0.2161604911 -0.6995795965 -0.3278233111 1.863274899e-38
0.252453059 -0.6957468987 -0.3419807553 1.863274899e-38
0.1125755459 -0.7504601479 0.01149864495 1.863274899e-38
0.2361831814 -0.286021322 0.2182081342 1.863274899e-38
0.218184948 -0.2486429513 0.1994078308 1.863274899e-38
0.1422201395 -0.7042757273 -0.3222718537 1.863274899e-38
0.1954514682 -0.7375583053 -0.05188658834 1.863274899e-38
0.1915136874 -0.7011449337 -0.3259728253 1.863274899e-38
0.2478290349 -0.2837540507 0.2059011906 1.881569971e-38
-0.01811133325 -0.7419563532 -0.1044477075 1.881569971e-38
0.0009875446558 -0.7560198307 0.008444130421 1.881569971e-38
0.1899600923 -0.3151748478 0.2167852968 1.881569971e-38
0.3133924305 -0.690348804 -0.3579886556 1.881569971e-38
0.2749396563 -0.7172333002 -0.1721803397 1.881569971e-38
0.2278062999 -0.6973122358 -0.3401302695 1.881569971e-38
0.005734212697 -0.4755101204 0.3420853317 1.881569971e-38
0.3167801797 -0.6977718472 -0.3010801375 1.899901057e-38
0.2978320718 -0.3630285263 0.2205086499 1.899901057e-38
0.0427005291 -0.764064014 0.08534039557 1.899901057e-38
-0.001722646877 -0.7500814199 -0.03708271682 1.899901057e-38
0.2154829353 -0.698094964 -0.3392050266 1.899901057e-38
-0.0009175911546 -0.724060297 -0.2314969897 1.899901057e-38
0.3277484477 -0.6940199137 -0.3247687817 1.899901057e-38
0.3071669936 -0.7044929862 -0.2546280324 1.899901057e-38
0.2859079838 -0.7134814262 -0.1958690137 1.91819627e-38
-0.04771872982 -0.4590535462 0.1172766685 1.91819627e-38
0.2046122551 -0.2402565181 0.1982471049 1.91819627e-38
0.002342643216 -0.7589890361 0.0312075913 1.91819627e-38
0.2639713883 -0.7209852934 -0.1484916806 1.91819627e-38
-0.1480230093 -0.2733468711 0.304751128 1.91819627e-38
0.4754576385 -0.4475510716 -0.1894925237 1.91819627e-38
0.1628036797 -0.3406386375 0.3340736032 1.91819627e-38
0.3435263038 -0.3648744524 0.1185442209 1.936527215e-38
0.2844080329 -0.3871261477 0.1273423582 1.936527215e-38
0.275744766 -0.6912122965 -0.3665946722 1.936527215e-38
0.3284260035 -0.6955045462 -0.3133870661 1.936527215e-38
-0.04355930164 -0.478640914 0.3457863033 1.936527215e-38
-0.09988278151 -0.4406414032 0.3069983125 1.936527215e-38
0.2047821134 -0.3327304125 0.2200319767 1.936527215e-38
0.1045724899 -0.7051391602 -0.3308778405 1.936527215e-38
-0.1447090954 -0.3678904474 0.3479089439 1.954822428e-38
-0.03055838495 -0.4793428183 0.3562427461 1.954822428e-38
0.09064280242 -0.4670620859 0.3128452301 1.954822428e-38
-0.1406008899 -0.4154821038 0.3035161495 1.954822428e-38
-0.005911611021 -0.4777774215 0.3543922603 1.954822428e-38
0.01072823256 -0.7217929959 -0.2438039184 1.954822428e-38
0.04217427224 -0.3606038988 0.3681753874 1.954822428e-38
0.3085220754 -0.7074621916 -0.2318646163 1.954822428e-38
0.09224911034 -0.7059218884 -0.3299525976 1.973153514e-38
0.3380392492 -0.6887834072 -0.3598391414 1.973153514e-38
-0.0973841399 -0.4589796364 0.3111702502 1.973153514e-38
0.2024819553 -0.6973930597 -0.3496614993 1.973153514e-38
0.2752608061 -0.4077316821 0.1438212246 1.973153514e-38
-0.03517754003 -0.7323468328 -0.1831944138 1.973153514e-38
-0.02556436136 -0.7256256342 -0.2296465039 1.973153514e-38
0.2736512721 -0.3784782887 0.1923859119 1.973153514e-38
0.3083772659 -0.3840761781 0.1141101718 1.991448586e-38
0.3517176807 -0.690969944 -0.338000983 1.991448586e-38
0.01737620123 -0.7641447783 0.07580913603 1.991448586e-38
0.3421045244 -0.697691083 -0.2915489078 1.991448586e-38
0.217105478 -0.3319477141 0.2191067338 1.991448586e-38
0.3993741572 -0.2054676414 -0.3863586187 1.991448586e-38
-0.04682339355 -0.7346141338 -0.1708874702 1.991448586e-38
0.2169356346 -0.2394738197 0.197321862 1.991448586e-38
0.2264512181 -0.6943430901 -0.3628937006 2.009743799e-38
0.2724757493 -0.2821886539 0.2040507048 2.009743799e-38
0.04092495143 -0.351434797 0.3660894334 2.009743799e-38
0.1265111268 -0.3444713354 0.3482310474 2.009743799e-38
0.3311361969 -0.7014429569 -0.2678602338 2.009743799e-38
-0.04817849025 -0.7316448689 -0.1936508864 2.009743799e-38
0.3858014345 -0.1970812082 -0.3875193596 2.009743799e-38
0.04467291385 -0.378942132 0.3723473251 2.009743799e-38
-0.01201340184 -0.7553179264 -0.002012327313 2.028074885e-38
-0.1134554818 -0.4322549701 0.3058376014 2.028074885e-38
0.2504204214 -0.6912930608 -0.3761258721 2.028074885e-38
0.07992568612 -0.7067045569 -0.3290273547 2.028074885e-38
-0.1422104537 -0.3862286806 0.3520808518 2.028074885e-38
-0.04275810719 -0.7435218096 -0.1025972217 2.028074885e-38
0.1378998458 -0.7503794432 0.02102991939 2.028074885e-38
0.333024025 -0.3825107813 0.112259686 2.028074885e-38
0.1262540221 -0.7526467443 0.03333684802 2.046369957e-38
0.1152895391 -0.4654966891 0.3109947443 2.046369957e-38
-0.01336849481 -0.7523486614 -0.02477571368 2.046369957e-38
0.2941161692 -0.3532742858 0.2084314674 2.046369957e-38
-0.01755746081 -0.4800447524 0.3666992784 2.046369957e-38
0.321801275 -0.359978497 0.2072764784 2.046369957e-38
0.3208454549 -0.706679523 -0.2327898592 2.046369957e-38
-0.09213361144 -0.3783826232 0.3804390132 2.046369957e-38
-0.1416386664 -0.3939131796 0.3427850604 2.06466517e-38
-0.06117941812 -0.7309429646 -0.2041073591 2.06466517e-38
0.4129468203 -0.2138540745 -0.3851979077 2.06466517e-38
0.343459636 -0.7006602883 -0.2687854767 2.06466517e-38
0.2790087759 -0.4352390468 0.1500791162 2.06466517e-38
0.3697300255 -0.1703565717 -0.3928520083 2.06466517e-38
0.2831478715 -0.3570261896 0.2321201116 2.06466517e-38
0.3366841674 -0.6858142018 -0.3826025724 2.06466517e-38
0.2257736623 -0.6928584576 -0.3742753863 2.082996116e-38
-0.02988083288 -0.4808274508 0.3676245213 2.082996116e-38
-0.04208056256 -0.7450063825 -0.09121552855 2.082996116e-38
-0.06050186977 -0.732427597 -0.1927256584 2.082996116e-38
0.1795526296 -0.3688479066 0.3507879376 2.082996116e-38
0.1401875019 -0.6998218894 -0.3564170003 2.082996116e-38
0.1025398374 -0.7006853819 -0.3650229573 2.082996116e-38
0.2134502977 -0.6936411262 -0.3733501434 2.082996116e-38
0.1502232105 -0.749596715 0.02010467649 2.101291328e-38
0.1148632169 -0.6999026537 -0.3659482002 2.101291328e-38
0.3804964721 -0.362526387 0.1157684922 2.101291328e-38
0.3251261711 -0.4122854471 0.1308245212 2.101291328e-38
-0.07147014141 -0.7361795306 -0.1690369844 2.101291328e-38
-0.1410669088 -0.4015977085 0.3334893286 2.101291328e-38
0.2553249598 -0.3387687504 0.2184169739 2.101291328e-38
-0.1393515766 -0.4246512353 0.3056021333 2.101291328e-38
0.274117291 -0.392362684 0.1624127477 2.119586541e-38
-0.07282523811 -0.7332103252 -0.1918004155 2.119586541e-38
0.1641567498 -0.6967719197 -0.3696491718 2.119586541e-38
-0.144169271 -0.2946543396 0.3316864371 2.119586541e-38
0.1420106739 -0.3635114729 0.3628594279 2.119586541e-38
0.3448147178 -0.7036294937 -0.2460220754 2.119586541e-38
0.3374495506 -0.4115027487 0.1298992783 2.119586541e-38
-0.08120702207 -0.4795043766 0.3371803164 2.119586541e-38
0.252826333 -0.3204305172 0.2142450511 2.137881613e-38
0.4672376513 -0.2473997772 -0.3805550337 2.137881613e-38
0.2766159177 -0.4107009172 0.1665846705 2.137881613e-38
0.09021647274 -0.7014680505 -0.3640977144 2.137881613e-38
0.3564605415 -0.7013621926 -0.258329004 2.137881613e-38
0.212095201 -0.6906719208 -0.3961135745 2.137881613e-38
0.02101898938 -0.7165564299 -0.2788743079 2.137881613e-38
0.183660835 -0.416439563 0.3063951731 2.137881613e-38
0.3756869137 -0.6879199743 -0.3512331843 2.156176826e-38
0.1135081202 -0.6969334483 -0.3887116313 2.156176826e-38
0.276255697 -0.3906166255 0.2172353268 2.156176826e-38
-0.08379353583 -0.7369621992 -0.1681117415 2.156176826e-38
0.2415824383 -0.2379084378 0.1954713762 2.156176826e-38
0.3119098246 -0.7148852348 -0.1749560684 2.156176826e-38
0.2676483393 -0.337986052 0.217491731 2.156176826e-38
-0.02230412886 -0.7605544329 0.0330580622 2.156176826e-38
0.1011847407 -0.6977161169 -0.3877863884 2.174471899e-38
-0.02365922555 -0.7575851679 0.01029461622 2.174471899e-38
0.2791145742 -0.4290391803 0.1707566082 2.174471899e-38
0.1874483973 -0.692237258 -0.3942630887 2.174471899e-38
0.3454922736 -0.7051141262 -0.234640345 2.174471899e-38
-0.1057063043 -0.3699962199 0.3792783022 2.174471899e-38
-0.1232802272 -0.4513759017 0.310934782 2.174471899e-38
0.1258314848 -0.6961507797 -0.3896368742 2.174471899e-38
-0.05372638628 -0.7472736835 -0.07890854031 2.192767111e-38
-0.002950236201 -0.7196065187 -0.2656421065 2.192767111e-38
0.3743318021 -0.6849507093 -0.3739965856 2.192767111e-38
-0.02569186687 -0.7531313896 -0.02385048568 2.192767111e-38
0.1632241309 -0.7502986193 0.03056113422 2.192767111e-38
-0.1322799325 -0.3609078526 0.3676611185 2.192767111e-38
0.2761499286 -0.3968165219 0.1965578496 2.192767111e-38
0.3571380675 -0.7028468251 -0.2469473183 2.192767111e-38
0.3276247978 -0.4306236804 0.134996444 2.211062324e-38
0.2447450012 -0.7344275713 -0.05558755994 2.211062324e-38
0.1861594915 -0.4347777963 0.3105671108 2.211062324e-38
0.3230056167 -0.683627665 -0.4044407308 2.211062324e-38
0.3125873804 -0.7163698673 -0.1635743678 2.211062324e-38
0.3620963395 -0.4099373519 0.1280487925 2.211062324e-38
0.05527894199 -0.7082699537 -0.3271768689 2.211062324e-38
0.3606533408 -0.6827641726 -0.395834744 2.211062324e-38
-0.08108334243 -0.74290061 -0.1225849018 2.229357396e-38
0.368783921 -0.700579524 -0.259254247 2.229357396e-38
0.2114176601 -0.6891872883 -0.4074952602 2.229357396e-38
0.199094221 -0.6899700165 -0.4065700173 2.229357396e-38
-0.002121953294 -0.4004111588 0.3802202046 2.229357396e-38
0.1789808571 -0.3611633778 0.3600836992 2.229357396e-38
0.3346964419 -0.3668803275 0.1970554441 2.229357396e-38
-0.1409611255 -0.3953978121 0.3541668355 2.229357396e-38
0.3476524055 -0.6820622683 -0.4062912166 2.247652609e-38
0.2792203426 -0.4228392839 0.1914340407 2.247652609e-38
0.27979213 -0.430523783 0.182138294 2.247652609e-38
0.3242332041 -0.7141025662 -0.1758813113 2.247652609e-38
0.1043174118 -0.7601505518 0.08071418107 2.247652609e-38
0.1808019578 -0.3780170083 0.3528739214 2.247652609e-38
0.1621241122 -0.6923180819 -0.4037942886 2.247652609e-38
-0.03937036917 -0.7509448528 -0.04568867385 2.247652609e-38
-0.09353039414 -0.480287075 0.3381055593 2.265947681e-38
0.1406138837 -0.4654159248 0.320525974 2.265947681e-38
0.2798978984 -0.4243238866 0.2028157264 2.265947681e-38
0.02034144104 -0.715071857 -0.2902560234 2.265947681e-38
-0.1386740208 -0.426135838 0.316983819 2.265947681e-38
0.3866551816 -0.6841680408 -0.3749218285 2.265947681e-38
0.2803638875 -0.438208282 0.1728425622 2.265947681e-38
0.3829951286 -0.3808646202 0.119940415 2.265947681e-38
-0.1167803556 -0.37994802 0.382289499 2.284242894e-38
-0.05237128958 -0.7502429485 -0.05614514649 2.284242894e-38
0.3886878192 -0.6886218786 -0.3407766819 2.284242894e-38
0.3249107599 -0.7155871391 -0.1644996107 2.284242894e-38
0.3702057302 -0.3677629232 0.1508388817 2.284242894e-38
0.3585599065 -0.3700301945 0.1631458253 2.284242894e-38
0.2809356749 -0.4458928108 0.1635467708 2.284242894e-38
0.04473316669 -0.7685178518 0.1194854826 2.284242894e-38
-0.05141546577 -0.4035419226 0.3839211762 2.302537966e-38
0.05460139364 -0.7067853212 -0.3385585845 2.302537966e-38
0.384244442 -0.3900337517 0.1220263839 2.302537966e-38
0.3283023238 -0.432108283 0.1463781446 2.302537966e-38
0.3475249112 -0.7095679641 -0.2004952282 2.302537966e-38
0.03173608333 -0.4769139886 0.3629983068 2.302537966e-38
0.3900429308 -0.691591084 -0.3180132806 2.302537966e-38
0.3584931791 -0.7058160305 -0.2241838872 2.302537966e-38
0.1843383759 -0.4179241657 0.3177768886 2.320833179e-38
0.3522715569 -0.4290582836 0.1331459582 2.320833179e-38
0.2866202295 -0.2982595861 0.195915699 2.320833179e-38
0.2570683956 -0.7336448431 -0.05651280284 2.320833179e-38
-0.1433539987 -0.3708596528 0.3706723154 2.320833179e-38
0.2897964418 -0.3180824518 0.2114693224 2.320833179e-38
0.2756519318 -0.3020114899 0.2196043283 2.320833179e-38
-0.01959393919 -0.7664928436 0.07858486474 2.320833179e-38
0.07653793693 -0.6992815137 -0.3859359026 2.339092378e-38
-0.0415266566 -0.4830947518 0.3799314499 2.339092378e-38
0.3469748497 -0.6805776358 -0.4176729321 2.339092378e-38
0.03240976483 -0.7693005204 0.1204107255 2.339092378e-38
0.1491231918 -0.6916161776 -0.4142507911 2.339092378e-38
0.0803520754 -0.4722985923 0.3479155898 2.339092378e-38
-0.1192789972 -0.3616097867 0.3781175911 2.339092378e-38
0.173769936 -0.6900507808 -0.4161012471 2.339092378e-38
0.23513183 -0.7411486506 -0.009135469794 2.348204041e-38
-0.08921392262 -0.7250853181 -0.2591654062 2.348204041e-38
0.1614465564 -0.6908334494 -0.4151760042 2.348204041e-38
-0.05292132869 -0.7212526202 -0.2733228505 2.348204041e-38
0.3978171051 -0.398420155 0.1231871098 2.348204041e-38
-0.07905070484 -0.7473544478 -0.0884398073 2.348204041e-38
0.2932590544 -0.4451101124 0.1626215279 2.348204041e-38
-0.03394998237 -0.762821734 0.04536500573 2.348204041e-38
0.2477102131 -0.6853545904 -0.4216527045 2.348132155e-38
0.1886581182 -0.4531160295 0.3147390485 2.348132155e-38
0.01966389455 -0.7135872841 -0.3016377091 2.348132155e-38
0.05392384529 -0.7053007483 -0.3499403 2.348132155e-38
0.09267544746 -0.4715158939 0.3469903469 2.348132155e-38
0.1289642155 -0.7585852146 0.07886369526 2.348132155e-38
0.3462973237 -0.6790930629 -0.4290546477 2.348132155e-38
0.3996561468 -0.684869945 -0.3644653559 2.348132155e-38
0.2358093858 -0.7426332235 0.002246230841 2.348060128e-38
0.1880863458 -0.4454315007 0.3240347803 2.348060128e-38
0.3093271554 -0.6814411879 -0.426278919 2.348060128e-38
0.1237988323 -0.6916968822 -0.423781991 2.348060128e-38
0.3359457552 -0.3760494292 0.1991413981 2.348060128e-38
0.1529333889 -0.7555351257 0.06563146412 2.348060128e-38
0.4101404846 -0.3976374865 0.1222618669 2.348060128e-38
0.02009025961 -0.4791812897 0.3753052354 2.348060128e-38
0.2846804261 -0.683006525 -0.4244284332 2.347952368e-38
0.2241634876 -0.7449005842 0.01455321908 2.347952368e-38
-0.05033864453 -0.7546967268 -0.02199999988 2.347952368e-38
0.2693917453 -0.7328621149 -0.05743804574 2.347952368e-38
-0.005915468559 -0.7686793804 0.1004230827 2.347952368e-38
0.1826230437 -0.3948706388 0.3456641436 2.347952368e-38
-0.1374247074 -0.4353049397 0.3190698028 2.347952368e-38
0.05324629694 -0.7038161755 -0.3613219857 2.347952368e-38
0.1977391243 -0.6870007515 -0.4293334484 2.347880341e-38
0.4113898277 -0.4068065882 0.1243478209 2.347880341e-38
0.3173340559 -0.4358602166 0.1700668335 2.347880341e-38
0.007085477933 -0.7693812847 0.1108795255 2.347880341e-38
-0.06401711702 -0.75251019 -0.04383820295 2.347880341e-38
0.1652567685 -0.7547524571 0.06470622122 2.347880341e-38
-0.1447410583 -0.2869698405 0.3409821689 2.347880341e-38
0.2831798494 -0.437946856 0.2390468419 2.347880341e-38
0.4622403979 -0.2107232958 -0.3888988793 2.347808455e-38
0.3721716404 -0.7080025673 -0.202345714 2.347808455e-38
-0.05385005474 -0.4838774204 0.3808566928 2.347808455e-38
0.01830879785 -0.7106180191 -0.3244011402 2.347808455e-38
0.3727043867 -0.3861011565 0.1550108045 2.347808455e-38
0.3053280115 -0.418043226 0.2330244333 2.347808455e-38
-0.05427642539 -0.7182834148 -0.2960862517 2.347808455e-38
0.2593560517 -0.6830872893 -0.4339596629 2.347808455e-38
0.3536266387 -0.4320275187 0.1559093595 2.347700555e-38
0.3612033725 -0.7117544413 -0.17865704 2.347700555e-38
0.3029741943 -0.7230910063 -0.1171223223 2.347700555e-38
-0.04898355529 -0.7576659918 0.0007634013891 2.347700555e-38
0.08102962375 -0.4737832248 0.3592973351 2.347700555e-38
0.2840028703 -0.6815218925 -0.4358101487 2.347700555e-38
-0.02962964773 -0.7167180181 -0.2979367375 2.347700555e-38
-0.0365934521 -0.4210974574 0.387167871 2.347700555e-38
0.361058563 -0.3883684576 0.1673177481 2.347628668e-38
0.1814794987 -0.3795016408 0.3642556071 2.347628668e-38
-0.0796007216 -0.7183642387 -0.3056175113 2.347628668e-38
0.4113019705 -0.682602644 -0.3767723143 2.347628668e-38
0.3065773547 -0.4272123277 0.2351103872 2.347628668e-38
0.1477680951 -0.6886469126 -0.4370141923 2.347628668e-38
0.4099468887 -0.679633379 -0.3995357156 2.347628668e-38
0.2817151248 -0.7320794463 -0.05836328864 2.347628668e-38
0.2829683125 -0.4503466487 0.1976919323 2.347520768e-38
0.1056725085 -0.7631197572 0.1034775823 2.347520768e-38
0.3875263929 -0.4036566913 0.1582574993 2.347520768e-38
-0.1415648758 -0.3067926466 0.3565357924 2.347520768e-38
0.40042153 -0.4105585217 0.148036465 2.347520768e-38
-0.09327921271 -0.7161776423 -0.3274556696 2.347520768e-38
0.2955032289 -0.4371641576 0.238121599 2.347520768e-38
0.05706037581 -0.4768331945 0.3725295067 2.347520768e-38
0.2604561448 -0.7410678864 0.000395745039 2.347448882e-38
0.3180116117 -0.4373448193 0.1814485341 2.347448882e-38
0.373526752 -0.7109718323 -0.1795822829 2.347448882e-38
0.3543041945 -0.4335121214 0.1672911048 2.347448882e-38
-0.1439257562 -0.3631751835 0.3799680769 2.347448882e-38
0.3954633176 -0.7034679651 -0.2269596159 2.347448882e-38
0.3746312559 -0.3967548907 0.168478474 2.347448882e-38
0.2956486642 -0.6792546511 -0.4481170774 2.347448882e-38
0.3887757361 -0.4128258228 0.1603434533 2.347340982e-38
0.07450529933 -0.6948276758 -0.4200810194 2.347340982e-38
0.2340317518 -0.6831680536 -0.4434908926 2.347340982e-38
-0.01866134629 -0.7129660845 -0.3216254115 2.347340982e-38
0.1056763679 -0.472217828 0.3574468493 2.347340982e-38
0.01695370302 -0.7076488137 -0.3471645713 2.347340982e-38
-0.09395675361 -0.7146930695 -0.3388373852 2.347340982e-38
-0.01552481949 -0.4844985902 0.4008443654 2.347340982e-38
0.4064316154 -0.6997160912 -0.2506482899 2.347269095e-38
0.2586784959 -0.6816027164 -0.4453413486 2.347269095e-38
-0.01802346669 -0.466160357 0.3966724277 2.347269095e-38
-0.02052211016 -0.4478221238 0.3925005198 2.347269095e-38
0.1328635067 -0.3841170073 0.3793382943 2.347269095e-38
0.3851725757 -0.7087044716 -0.1918892562 2.347269095e-38
0.04842088372 -0.4064494967 0.3786052167 2.347269095e-38
0.3771299124 -0.4150930941 0.1726503968 2.347269095e-38
0.1179959327 -0.7623370886 0.1025523394 2.347161195e-38
-0.007015524432 -0.710698843 -0.3339323699 2.347161195e-38
-0.06617342681 -0.4846601188 0.3817819357 2.347161195e-38
0.3742043078 -0.7124564052 -0.1682005823 2.347161195e-38
-0.1390662193 -0.3251309097 0.3607077301 2.347161195e-38
0.4153672755 -0.6915103197 -0.3084820807 2.347161195e-38
-0.1329991817 -0.4642969072 0.3367093801 2.347161195e-38
0.3968183994 -0.7064372301 -0.2041961849 2.347161195e-38
0.1900132149 -0.4560852349 0.3375024199 2.347089308e-38
0.339266777 -0.7192583084 -0.1312797368 2.347089308e-38
0.1457586437 -0.3910188377 0.3691173196 2.347089308e-38
0.1856934726 -0.4208934009 0.3405403197 2.347089308e-38
0.1542885005 -0.7585043907 0.088394925 2.347089308e-38
0.4133166671 -0.4174603224 0.1378154904 2.347089308e-38
0.3812347949 -0.6722911596 -0.4659754634 2.347089308e-38
0.2727794945 -0.7402851582 -0.0005294978619 2.347089308e-38
0.1717372984 -0.6855969429 -0.4502463937 2.346981408e-38
-0.04142088071 -0.4768948555 0.4006088972 2.346981408e-38
0.4167223573 -0.6944795251 -0.2857186496 2.346981408e-38
0.407786727 -0.7026852369 -0.2278848588 2.346981408e-38
0.4016708434 -0.4197276533 0.150122419 2.346981408e-38
0.02076394111 -0.7715678215 0.1327176839 2.346981408e-38
-0.008198708296 -0.4470394254 0.3915752769 2.346981408e-38
0.1303193122 -0.7615543604 0.1016270965 2.346981408e-38
0.07005748153 -0.7684370279 0.1290167123 2.346909522e-38
0.2837477624 -0.7365332842 -0.02421812713 2.346909522e-38
0.3193666935 -0.4403140545 0.2042119354 2.346909522e-38
0.01559860632 -0.7046796083 -0.3699279726 2.346909522e-38
0.4584923983 -0.183215946 -0.3951567709 2.346909522e-38
0.3974959552 -0.707921803 -0.1928144991 2.346909522e-38
0.3935582042 -0.6715084314 -0.4669007659 2.346909522e-38
0.4173999131 -0.695964098 -0.2743369341 2.346909522e-38
0.007872629911 -0.4737640917 0.3969079256 2.346801622e-38
0.2734570503 -0.7417697906 0.01085224748 2.346801622e-38
-0.03056224436 -0.7702447772 0.1022735685 2.346801622e-38
0.3783792257 -0.4242622256 0.1747363508 2.346801622e-38
0.3661616147 -0.4188450277 0.1963390261 2.346801622e-38
0.4091418087 -0.7056545019 -0.2051214427 2.346801622e-38
0.3545157611 -0.4211123288 0.2086459696 2.346801622e-38
0.3673051596 -0.4342140257 0.1777475625 2.346801622e-38
0.4195600748 -0.6729122996 -0.4459877908 2.346693862e-38
-0.04534075782 -0.7100776434 -0.3539200425 2.346693862e-38
0.3189403415 -0.6747200489 -0.4727309942 2.346693862e-38
0.03821273148 -0.6986603737 -0.405923605 2.346693862e-38
0.4345936179 -0.6780680418 -0.4013862014 2.346693862e-38
0.418882519 -0.6714277267 -0.4573695064 2.346693862e-38
0.00662330538 -0.4645949602 0.3948219419 2.346693862e-38
0.1587363631 -0.6848950386 -0.4607028365 2.346693862e-38
-0.009048167616 -0.7062449455 -0.3680774868 2.346621835e-38
0.3207218051 -0.4432832599 0.2269753814 2.346621835e-38
0.3639135659 -0.7176929116 -0.1331302226 2.346621835e-38
-0.1007090136 -0.4066726863 0.3876221478 2.346621835e-38
0.02445168793 -0.4094994664 0.3918373883 2.346621835e-38
0.2624887824 -0.7455217242 0.03454089165 2.346621835e-38
-0.0748129189 -0.4142764211 0.3878576458 2.346621835e-38
0.3556592762 -0.4364813566 0.1900545061 2.346621835e-38
0.2203532755 -0.6809815764 -0.465329051 2.346514075e-38
0.06150437891 -0.6941257715 -0.430537492 2.346514075e-38
0.3798797131 -0.6693218946 -0.4887388945 2.346514075e-38
0.2857804298 -0.7409870625 0.009927019477 2.346514075e-38
0.01644806191 -0.4454740584 0.389724791 2.346514075e-38
0.3522677422 -0.7199602127 -0.1208232865 2.346514075e-38
0.1593313366 -0.3994052708 0.3702780306 2.346514075e-38
-0.1348202825 -0.4474432766 0.343919158 2.346514075e-38
0.3440134525 -0.4387486577 0.2023614496 2.346406175e-38
0.2748121321 -0.7447390556 0.03361564875 2.346406175e-38
0.03127007931 -0.4630295932 0.3929714561 2.346406175e-38
0.1217894554 -0.3940688372 0.3823494911 2.346406175e-38
0.04484277219 -0.4714160264 0.3941321969 2.346406175e-38
0.0135659622 -0.7002257705 -0.4040731192 2.346406175e-38
0.3289760351 -0.7244948149 -0.09620934725 2.346406175e-38
0.1912586689 -0.7561563253 0.0856191963 2.346406175e-38
0.09644190967 -0.6873238683 -0.4674583673 2.346334289e-38
0.4305283129 -0.6691603661 -0.469676435 2.346334289e-38
-0.05499361083 -0.4685084224 0.3994481564 2.346334289e-38
0.2974263132 -0.738719821 -0.002379983664 2.346334289e-38
0.1580588222 -0.6834104061 -0.4720845222 2.346334289e-38
0.4373038113 -0.6840064526 -0.355859369 2.346334289e-38
-0.05588654056 -0.7703255415 0.09274233878 2.346334289e-38
0.2812926769 -0.6755834818 -0.4813369513 2.346334289e-38
0.3083945811 -0.734967947 -0.02606862783 2.346226389e-38
0.04109480977 -0.4439086616 0.3878743052 2.346226389e-38
0.001242559403 -0.7010084391 -0.4031478763 2.346226389e-38
0.1827055663 -0.6818450093 -0.473935008 2.346226389e-38
0.4379813373 -0.6854910851 -0.3444776535 2.346226389e-38
0.03984548151 -0.4347395301 0.3857883513 2.346226389e-38
0.3792021573 -0.6678373218 -0.5001206398 2.346226389e-38
0.2689692974 -0.6763661504 -0.4804117084 2.346226389e-38
0.3668787777 -0.6686199903 -0.4991953969 2.346118629e-38
0.3447967768 -0.4340333939 0.2344206274 2.346118629e-38
0.3564426303 -0.431766063 0.2221136987 2.346118629e-38
0.3803060651 -0.4349159896 0.1882040203 2.346118629e-38
-0.1130323857 -0.4074553847 0.3885473907 2.346118629e-38
0.3422320187 -0.6701853871 -0.4973449111 2.346118629e-38
0.4291732311 -0.6661911607 -0.4924398661 2.346118629e-38
0.4118520021 -0.7115929127 -0.1595945954 2.346118629e-38
0.1080877334 -0.6850565672 -0.479765296 2.346010729e-38
0.02570101246 -0.4186685979 0.3939233422 2.346010729e-38
0.432433486 -0.7011198997 -0.2297353446 2.346010729e-38
-0.1208981425 -0.4549831748 0.4012929499 2.346010729e-38
0.444206804 -0.6713469028 -0.4478382766 2.346010729e-38
-0.1316441 -0.4672661126 0.3594727814 2.346010729e-38
0.4428516924 -0.6683776975 -0.4706016779 2.346010729e-38
0.4400140047 -0.6899449229 -0.3103325367 2.346010729e-38
0.05841547251 -0.4798024297 0.395292908 2.345938842e-38
-0.1155727431 -0.4939907789 0.3648054302 2.345938842e-38
0.0380243808 -0.4178858995 0.3929980993 2.345938842e-38
0.08056362718 -0.4598987997 0.3892704844 2.345938842e-38
0.4031713903 -0.6647872925 -0.5133528113 2.345938842e-38
-0.003882827237 -0.7731331587 0.1345681697 2.345938842e-38
0.4125295579 -0.7130775452 -0.1482128948 2.345938842e-38
0.1870485693 -0.4238626063 0.363303721 2.345938842e-38
0.4344661236 -0.7055737376 -0.1955902278 2.345830942e-38
0.4154947698 -0.6640046835 -0.5142780542 2.345830942e-38
-0.01175835915 -0.7003065348 -0.4136043191 2.345830942e-38
0.1907965392 -0.4513699412 0.3695616126 2.345830942e-38
0.1197335571 -0.6827892661 -0.4920722246 2.345830942e-38
0.2066748142 -0.67879498 -0.4871672392 2.345830942e-38
0.1440016329 -0.472838968 0.3774345219 2.345830942e-38
0.4008837044 -0.7153448462 -0.1359059513 2.345830942e-38
0.3213954866 -0.7356698513 -0.0156121701 2.345723183e-38
0.2521980405 -0.7507582903 0.06961126626 2.345723183e-38
0.03618009016 -0.6942065954 -0.4400687218 2.345723183e-38
0.4241753817 -0.7108102441 -0.1605198383 2.345723183e-38
0.3169076741 -0.6702661514 -0.506876111 2.345723183e-38
0.3892378509 -0.7176121473 -0.1235990152 2.345723183e-38
-0.1341427267 -0.4489278793 0.3553008437 2.345723183e-38
0.1852274686 -0.4070089757 0.3705134988 2.345723183e-38
-0.1031435728 -0.487008214 0.3845576644 2.345615283e-38
0.4278181195 -0.6632219553 -0.5152032971 2.345615283e-38
0.1039610356 -0.4491643012 0.3853340447 2.345615283e-38
-0.1402097642 -0.3097618818 0.3792992532 2.345615283e-38
0.4585628808 -0.6750180721 -0.4146184027 2.345615283e-38
0.00911812298 -0.7738351822 0.1450246722 2.345615283e-38
-0.000112535432 -0.6980392337 -0.4259112775 2.345615283e-38
0.02385668829 -0.6949892044 -0.4391434789 2.345615283e-38
0.4503047168 -0.6847084165 -0.3454028964 2.345507523e-38
0.3778470755 -0.6648681164 -0.5228840113 2.345507523e-38
0.09538178146 -0.7683563232 0.1385479718 2.345507523e-38
-0.1221474707 -0.4458140433 0.399206996 2.345507523e-38
0.1409312189 -0.4468162358 0.382558316 2.345507523e-38
-0.1297172159 -0.4779198766 0.3729404807 2.345507523e-38
-0.02920714766 -0.7732139826 0.12503694 2.345507523e-38
0.3285535872 -0.66799891 -0.5191830993 2.345507523e-38
0.2429673821 -0.6749623418 -0.5013246536 2.345399623e-38
0.2165829539 -0.7560755014 0.09515039623 2.345399623e-38
0.1936738342 -0.6780930758 -0.497623682 2.345399623e-38
0.2306440175 -0.6757450104 -0.5003994107 2.345399623e-38
-0.1148951948 -0.4954754114 0.3761871755 2.345399623e-38
0.4523373842 -0.6891622543 -0.3112577796 2.345399623e-38
0.4599179924 -0.6779872775 -0.3918550014 2.345399623e-38
-0.1278961301 -0.4947734773 0.3657306731 2.345399623e-38
0.1864767969 -0.4161781073 0.3725994527 2.345291723e-38
0.4018163085 -0.6618180871 -0.5361162424 2.345291723e-38
-0.01620620117 -0.7739158869 0.1354934126 2.345291723e-38
0.439463973 -0.6609546542 -0.5275102258 2.345291723e-38
0.389492929 -0.6626007557 -0.5351909995 2.345291723e-38
