# .PCD v0.7 - Point Cloud Data file format
VERSION 0.7
FIELDS x y z rgb
SIZE 4 4 4 4
TYPE F F F F
COUNT 1 1 1 1
WIDTH 853
HEIGHT 1
VIEWPOINT 0 0 0 1 0 0 0
POINTS 853
DATA ascii
0.2113096118 -0.2285797149 0.09953439236 1.258099074e-38
0.4377176464 -0.3384687901 0.007003411651 1.258099074e-38
0.204942584 -0.1631487906 0.1396070421 1.276466033e-38
0.1094820276 -0.192557767 0.1141351163 1.276466033e-38
0.4084030986 -0.292114079 0.1067374274 1.276466033e-38
0.1087427214 -0.191011101 0.1027913541 1.276466033e-38
0.05557961017 -0.04868400097 0.1498381197 1.276466033e-38
0.4104003608 -0.3028062582 0.1201619655 1.276466033e-38
0.06845708936 -0.1537903994 0.1407760978 1.276466033e-38
0.1062317714 -0.3495786786 0.1515173614 1.276466033e-38
0.1607911885 -0.2984372079 0.1247470975 1.294832852e-38
0.2117509693 -0.2164753228 0.1407479346 1.294832852e-38
0.1296092421 -0.3388863206 0.147427544 1.294832852e-38
0.2188573182 -0.2834528983 0.1120190471 1.294832852e-38
0.09665066004 -0.3625909686 0.1772901863 1.294832852e-38
0.1406689733 -0.3289673328 0.1443422437 1.294832852e-38
0.1816424429 -0.1935444474 0.09322032332 1.294832852e-38
0.2208545953 -0.2941451073 0.1254435927 1.294832852e-38
0.1409257948 -0.2443374544 0.1132669672 1.313163938e-38
0.06919641048 -0.1553370655 0.1521199048 1.313163938e-38
0.06675779074 -0.1567492783 0.09748182446 1.313163938e-38
0.2122696191 -0.2240741998 0.1314849555 1.313163938e-38
0.1195456311 -0.2657220364 0.1307813227 1.313163938e-38
0.2120489329 -0.2301263809 0.1108781546 1.313163938e-38
0.2124902904 -0.2180219889 0.1520916969 1.313163938e-38
0.4492960274 -0.3361487091 -0.005344875157 1.313163938e-38
0.1670294702 -0.1699746251 0.110670045 1.331530897e-38
0.1235763058 -0.2085287422 0.1059483811 1.331530897e-38
0.06083209813 -0.07921394706 0.1787679791 1.331530897e-38
0.06993571669 -0.1568837315 0.163463667 1.331530897e-38
0.1615304947 -0.2999838591 0.1360908598 1.331530897e-38
0.09516707063 -0.1826390028 0.1017151028 1.331530897e-38
0.4480380714 -0.327003181 -0.007425650954 1.331530897e-38
0.1298660636 -0.2542564273 0.1163522676 1.331530897e-38
0.124315612 -0.2100754082 0.1172921434 1.349897856e-38
0.2195966393 -0.2849995494 0.1233628094 1.349897856e-38
0.05757687986 -0.05937618762 0.1632626504 1.349897856e-38
0.1926248968 -0.1639222205 0.1406115741 1.349897856e-38
0.1396678388 -0.2351919115 0.1111861914 1.349897856e-38
0.2127882391 -0.2316730469 0.1222219169 1.349897856e-38
0.116552256 -0.3381130695 0.1370882988 1.349897856e-38
0.07067503035 -0.1584303975 0.1748074293 1.349897856e-38
0.2125675678 -0.237725243 0.1016151607 1.368228942e-38
0.1384098977 -0.2260463834 0.1091054156 1.368228942e-38
0.105599694 -0.4008542895 0.2629389465 1.368228942e-38
0.2203359455 -0.2865462303 0.1347065717 1.368228942e-38
0.06786116958 -0.1264882684 0.2005156726 1.368228942e-38
0.06897573173 -0.1613892764 0.1315131038 1.368228942e-38
0.1416651011 -0.2458841205 0.124610737 1.368228942e-38
0.09317477047 -0.3488054872 0.1411781162 1.368228942e-38
0.07141434401 -0.1599770635 0.1861511916 1.386595901e-38
0.2135275602 -0.233219713 0.1335657239 1.386595901e-38
0.2210752666 -0.2880929112 0.1460503936 1.386595901e-38
0.2223332226 -0.2972384691 0.1481311619 1.386595901e-38
0.1306053698 -0.2558030784 0.1276960224 1.386595901e-38
0.08233069628 -0.1758135557 0.1119826064 1.386595901e-38
0.1677687913 -0.1715212911 0.1220138669 1.386595901e-38
0.06660321355 -0.1173427254 0.1984348893 1.386595901e-38
0.08159138262 -0.1742669046 0.1006388441 1.404926846e-38
0.1391492039 -0.2275930494 0.1204491854 1.404926846e-38
0.217599377 -0.2743073702 0.1099382639 1.404926846e-38
0.1008658633 -0.3779231906 0.2247460634 1.404926846e-38
0.2183386981 -0.2758540511 0.1212820411 1.404926846e-38
0.2081977874 -0.1829865277 0.1551123708 1.404926846e-38
0.2094557434 -0.1921320558 0.1571931392 1.404926846e-38
0.1803072095 -0.1646956503 0.1416160911 1.404926846e-38
0.168806076 -0.1867190301 0.1034878343 1.423293806e-38
0.1276119798 -0.3281940818 0.1340029985 1.423293806e-38
0.2107136846 -0.2012775838 0.1592739075 1.423293806e-38
0.4596164525 -0.3246831 -0.01977393776 1.423293806e-38
0.06534526497 -0.1081972122 0.196354121 1.423293806e-38
0.140407145 -0.2367385775 0.1225299537 1.423293806e-38
0.1172915623 -0.3396597505 0.1484320611 1.423293806e-38
0.2119716406 -0.2104231119 0.1613546908 1.423293806e-38
0.2132295966 -0.21956864 0.1634354591 1.441624891e-38
0.09391408414 -0.3503521085 0.1525218785 1.441624891e-38
0.4219788015 -0.3004861772 0.1078136787 1.441624891e-38
0.06408730894 -0.09905166179 0.1942733377 1.441624891e-38
0.07045435905 -0.1644826233 0.154200688 1.441624891e-38
0.4500353336 -0.3376953602 0.005998894572 1.441624891e-38
0.2230725288 -0.2987851202 0.1594749242 1.441624891e-38
0.1685080975 -0.1730679572 0.1333576292 1.441624891e-38
0.06282936037 -0.08990614116 0.1921925694 1.459991851e-38
0.2198173255 -0.2789473832 0.1439696103 1.459991851e-38
0.1283512861 -0.3297407627 0.1453467607 1.459991851e-38
0.2147855163 -0.2423652411 0.1356465071 1.459991851e-38
0.2232932001 -0.2927328944 0.1800816804 1.459991851e-38
0.07119366527 -0.1660292745 0.1655444503 1.459991851e-38
0.1690267473 -0.1806668341 0.1240946501 1.459991851e-38
0.193364203 -0.1654688865 0.1519553363 1.459991851e-38
0.4207208455 -0.2913406491 0.1057329029 1.478322936e-38
0.06875506043 -0.1674414724 0.1109063551 1.478322936e-38
0.06157141179 -0.08076061308 0.1901117861 1.478322936e-38
0.2205566317 -0.2804940343 0.1553133726 1.478322936e-38
0.0694943741 -0.1689881384 0.1222501248 1.478322936e-38
0.4227181077 -0.3020328283 0.1191574484 1.478322936e-38
0.09616816044 -0.276414454 0.134871155 1.478322936e-38
0.05831619352 -0.06092284992 0.1746064126 1.478322936e-38
0.216341421 -0.2651618719 0.1078574955 1.496689755e-38
0.1484735012 -0.2992106378 0.1257516295 1.496689755e-38
0.2170807421 -0.266708523 0.1192012578 1.496689755e-38
0.07193297893 -0.1675759405 0.1768882126 1.496689755e-38
0.0946533978 -0.3518987894 0.1638656557 1.496689755e-38
0.2158227861 -0.257562995 0.1171204746 1.496689755e-38
0.2178200483 -0.2682551742 0.1305450201 1.496689755e-38
0.2144875526 -0.228714183 0.1655162424 1.496689755e-38
0.2245511562 -0.3018784523 0.1821624637 1.515020841e-38
0.22381185 -0.3003317714 0.1708186865 1.515020841e-38
0.2155248225 -0.2439119071 0.1469902694 1.515020841e-38
0.2064211965 -0.1662421227 0.1622945666 1.515020841e-38
0.1255735606 -0.2192209363 0.1193729192 1.515020841e-38
0.1016051695 -0.3794698119 0.2360898256 1.515020841e-38
0.09642502666 -0.1917845309 0.1037958711 1.515020841e-38
0.1595332325 -0.2892916799 0.1226663291 1.515020841e-38
0.4616137147 -0.3353752792 -0.006349399686 1.533351927e-38
0.2240325063 -0.2942795753 0.1914254427 1.533351927e-38
0.07289297134 -0.1630703956 0.2088387758 1.533351927e-38
0.4603557587 -0.3262297511 -0.008430175483 1.533351927e-38
0.2185593694 -0.2698018551 0.141888842 1.533351927e-38
0.1697660536 -0.1822135001 0.1354384124 1.533351927e-38
0.2162641436 -0.2454585731 0.1583340317 1.533351927e-38
0.1492128074 -0.3007572889 0.1370953918 1.533351927e-38
0.1702847034 -0.1898123622 0.1261754185 1.551683013e-38
0.2101950496 -0.1936787069 0.1685369015 1.551683013e-38
0.07097299397 -0.1720814705 0.1449376494 1.551683013e-38
0.1064886376 -0.2649487853 0.1204420775 1.551683013e-38
0.2114529908 -0.202824235 0.1706176698 1.551683013e-38
0.208536908 -0.2949185371 0.1264481097 1.551683013e-38
0.13741377 -0.3091295958 0.1288369149 1.551683013e-38
0.2127109468 -0.2119697779 0.1726984531 1.551683013e-38
0.1286081076 -0.2451108843 0.1142714918 1.570049832e-38
0.1072279438 -0.2664954662 0.1317858398 1.570049832e-38
0.12709333 -0.3205952048 0.1432659924 1.570049832e-38
0.2139689028 -0.221115306 0.1747792214 1.570049832e-38
0.09539271146 -0.3534454703 0.1752094179 1.570049832e-38
0.1602725387 -0.2908383608 0.1340100914 1.570049832e-38
0.474155277 -0.1293888539 0.1246897578 1.570049832e-38
0.2157454938 -0.2378597111 0.1675970256 1.570049832e-38
0.2170034498 -0.2470052391 0.169677794 1.588380918e-38
0.2175220996 -0.2546041012 0.1604148149 1.588380918e-38
0.06985843182 -0.1371804625 0.2139402032 1.588380918e-38
0.1049738154 -0.3404331803 0.1494365931 1.588380918e-38
0.1705826521 -0.2034634352 0.09630563855 1.588380918e-38
0.07171231508 -0.1736281365 0.1562814564 1.588380918e-38
0.0828493312 -0.1834124476 0.1027196273 1.588380918e-38
0.1273501515 -0.2359653413 0.112190716 1.588380918e-38
0.2182614058 -0.2561507821 0.1717585772 1.606712004e-38
0.2192986757 -0.271348536 0.1532326043 1.606712004e-38
0.06860048324 -0.1280349493 0.2118594348 1.606712004e-38
0.1854162961 -0.2209810615 0.09946265817 1.606712004e-38
0.222035259 -0.2835873961 0.1780008972 1.606712004e-38
0.2002498806 -0.2384986728 0.1026196778 1.606712004e-38
0.1119979247 -0.2108488381 0.1182966679 1.606712004e-38
0.1941035092 -0.1670155525 0.1632990986 1.606712004e-38
0.1710240096 -0.1913590133 0.1375191808 1.625043089e-38
0.2100155354 -0.298011899 0.1491356939 1.625043089e-38
0.07245162129 -0.1751748025 0.1676252186 1.625043089e-38
0.1175483838 -0.2550298572 0.1173567846 1.625043089e-38
0.2187800407 -0.2637496591 0.1624955833 1.625043089e-38
0.06734252721 -0.1188893914 0.2097786516 1.625043089e-38
0.2059025615 -0.1586432457 0.1715576053 1.625043089e-38
0.2052816898 -0.2750808001 0.1109427959 1.625043089e-38
0.4719341993 -0.3239096403 -0.02077846229 1.643374035e-38
0.06608457863 -0.1097438708 0.2076978832 1.643374035e-38
0.09613201767 -0.3549921513 0.1865531802 1.643374035e-38
0.1713219732 -0.2050100863 0.1076494008 1.643374035e-38
0.05905550718 -0.06246951967 0.1859502345 1.643374035e-38
0.1268315166 -0.2283664793 0.1214537024 1.643374035e-38
0.2200379968 -0.2728951871 0.1645763665 1.643374035e-38
0.2247718275 -0.2958262265 0.2027692497 1.643374035e-38
0.2227745652 -0.2851340473 0.1893446594 1.661705121e-38
0.07075232267 -0.1781336665 0.1243308932 1.661705121e-38
0.217742756 -0.2485519052 0.1810215563 1.661705121e-38
0.2164848 -0.2394063771 0.1789407879 1.661705121e-38
0.11828769 -0.2565765083 0.1287005544 1.661705121e-38
0.06927369535 -0.1750403345 0.1016433686 1.661705121e-38
0.06356867403 -0.09145279974 0.2035363317 1.661705121e-38
0.073632285 -0.1646170616 0.220182538 1.661705121e-38
0.105081059 -0.393255353 0.2722019553 1.680036207e-38
0.2107548416 -0.2995585501 0.1604794562 1.680036207e-38
0.2260297835 -0.3049717844 0.2048500329 1.680036207e-38
0.1280894578 -0.2375120074 0.1235344708 1.680036207e-38
0.1717633158 -0.1929056942 0.1488629431 1.680036207e-38
0.2109343708 -0.1952253878 0.1798807234 1.680036207e-38
0.2202586532 -0.2668429613 0.1851831079 1.680036207e-38
0.2121923119 -0.2043709159 0.1819614917 1.680036207e-38
0.473636657 -0.1217899919 0.1339527518 1.698367293e-38
0.06231072545 -0.08230727911 0.2014555484 1.698367293e-38
0.2134502679 -0.2135164589 0.184042275 1.698367293e-38
0.07223094255 -0.1812269986 0.1470184177 1.698367293e-38
0.09842228889 -0.2024767548 0.1172204167 1.698367293e-38
0.07393024862 -0.1782681346 0.1903127432 1.698367293e-38
0.2215166092 -0.2759885192 0.1872638911 1.698367293e-38
0.1699867249 -0.1761612892 0.1560451537 1.698367293e-38
0.09768297523 -0.2009300888 0.1058766544 1.716698239e-38
0.1722819507 -0.2005045414 0.1395999491 1.716698239e-38
0.0919168219 -0.3396599293 0.1390973479 1.716698239e-38
0.1720612794 -0.2065567672 0.1189931631 1.716698239e-38
0.07297026366 -0.1827736646 0.1583622396 1.716698239e-38
0.474894613 -0.1309355199 0.1360335201 1.716698239e-38
0.1361558139 -0.2999840677 0.1267561466 1.716698239e-38
0.2040237337 -0.2659353018 0.1088620126 1.716698239e-38
0.1866742522 -0.2301265895 0.1015434265 1.735029324e-38
0.2129727751 -0.3041985631 0.194510743 1.735029324e-38
0.1730212718 -0.2020512074 0.1509437263 1.735029324e-38
0.1935848743 -0.1594166756 0.1725621372 1.735029324e-38
0.1712446809 -0.1853068322 0.158125937 1.735029324e-38
0.1368951201 -0.3015307188 0.1380999088 1.735029324e-38
0.114036344 -0.3198220134 0.1329267472 1.735029324e-38
0.21596618 -0.2318075299 0.1882038265 1.735029324e-38
0.09265613556 -0.3412066102 0.1504411101 1.75336041e-38
0.1250960827 -0.3099030256 0.1298414469 1.75336041e-38
0.07466956228 -0.1798147857 0.2016565055 1.75336041e-38
0.1725026369 -0.1944523454 0.1602067053 1.75336041e-38
0.0831111595 -0.2756412029 0.1245319098 1.75336041e-38
0.2184820771 -0.2500985861 0.1923653781 1.75336041e-38
0.2172241211 -0.2409530431 0.1902845949 1.75336041e-38
0.1132558808 -0.2199943662 0.1203774363 1.75336041e-38
0.2066418678 -0.1601899117 0.1829013675 1.771655483e-38
0.1147756502 -0.3213686347 0.1442705095 1.771655483e-38
0.1029765531 -0.3297409415 0.1360120475 1.771655483e-38
0.1728006005 -0.2081034333 0.1303369701 1.771655483e-38
0.2209979743 -0.2683896422 0.1965269297 1.771655483e-38
0.1030837968 -0.3825631738 0.2587774098 1.771655483e-38
0.173760578 -0.2035978734 0.1622874886 1.771655483e-38
0.2078998238 -0.1693354547 0.1849821508 1.771655483e-38
0.1954798996 -0.2941453159 0.1161088645 1.789986569e-38
0.0860684067 -0.281827867 0.1699069589 1.789986569e-38
0.07489023358 -0.1737626046 0.2222633213 1.789986569e-38
0.07444888353 -0.1858669817 0.1810497642 1.789986569e-38
0.2235138863 -0.2866806984 0.2006884813 1.789986569e-38
0.08458978683 -0.278734535 0.1472194344 1.789986569e-38
0.2091577649 -0.1784809828 0.1870629191 1.789986569e-38
0.2104157209 -0.1876265258 0.1891437024 1.789986569e-38
0.2129316181 -0.205917567 0.193305254 1.808317654e-38
0.1037158594 -0.3312876225 0.1473558098 1.808317654e-38
0.0718556866 -0.1478726566 0.2273647487 1.808317654e-38
0.1962192208 -0.295691967 0.1274526268 1.808317654e-38
0.2255111337 -0.2973728776 0.214113012 1.808317654e-38
0.1058203802 -0.3948020339 0.2835457027 1.808317654e-38
0.174279213 -0.2111967653 0.1530244946 1.808317654e-38
0.2141895741 -0.21506311 0.1953860372 1.808317654e-38
0.4859544039 -0.121016562 0.1329482198 1.826612727e-38
0.1733192354 -0.2157022804 0.1210739315 1.826612727e-38
0.4975327551 -0.1186964661 0.1205999404 1.826612727e-38
0.196958527 -0.2972386479 0.1387963891 1.826612727e-38
0.181267187 -0.1601901054 0.1735666543 1.826612727e-38
0.1730985641 -0.2217545062 0.1004671901 1.826612727e-38
0.1991764754 -0.3018786311 0.1728277355 1.826612727e-38
0.09339544922 -0.3427532911 0.1617848724 1.826612727e-38
0.4743759632 -0.1233366728 0.1452965587 1.844943813e-38
0.097610645 -0.3580854535 0.2092407495 1.844943813e-38
0.07274958491 -0.1888258755 0.1377554387 1.844943813e-38
0.07127095759 -0.1857325435 0.1150679141 1.844943813e-38
0.1976978481 -0.2987853289 0.150140211 1.844943813e-38
0.06808183342 -0.1204360574 0.2211224139 1.844943813e-38
0.07437159866 -0.1661637276 0.2315263003 1.844943813e-38
0.0751881972 -0.1874136627 0.1923935264 1.844943813e-38
0.1879321933 -0.2392721027 0.1036242098 1.863274899e-38
0.1999157816 -0.303425312 0.1841714978 1.863274899e-38
0.0668238923 -0.1112905294 0.2190416455 1.863274899e-38
0.1929640025 -0.2758542299 0.111947313 1.863274899e-38
0.09491020441 -0.2672688961 0.1327903718 1.863274899e-38
0.1719839871 -0.1868534982 0.1694696993 1.863274899e-38
0.1943241805 -0.1609633416 0.1839058995 1.863274899e-38
0.1150324717 -0.2367387712 0.113195233 1.863274899e-38
0.2167054862 -0.2333541811 0.1995475888 1.881569971e-38
0.4756339192 -0.132482186 0.147377342 1.881569971e-38
0.1738378704 -0.2233011723 0.1118109524 1.881569971e-38
0.1740585566 -0.2172489464 0.1324177533 1.881569971e-38
0.2192213833 -0.2516452372 0.2037091404 1.881569971e-38
0.4872123599 -0.1301620901 0.135029003 1.881569971e-38
0.1732419431 -0.1959990114 0.1715504676 1.881569971e-38
0.06556593627 -0.1021449864 0.2169608623 1.881569971e-38
0.2204793394 -0.2607907653 0.2057899088 1.899901057e-38
0.07592751086 -0.1889603138 0.2037372887 1.899901057e-38
0.06430798024 -0.09299946576 0.2148800939 1.899901057e-38
0.1744998991 -0.2051445246 0.1736312509 1.899901057e-38
0.2073811889 -0.1617365777 0.1942451298 1.899901057e-38
0.175537169 -0.2203422785 0.1551052779 1.899901057e-38
0.2086391449 -0.1708821207 0.1963259131 1.899901057e-38
0.1137745306 -0.2275932431 0.1111144572 1.899901057e-38
0.1762764901 -0.2218889445 0.1664490402 1.91819627e-38
0.168949455 -0.1609635502 0.1745711863 1.91819627e-38
0.1157717779 -0.2382854372 0.1245390028 1.91819627e-38
0.1757578403 -0.2142900825 0.1757120192 1.91819627e-38
0.1745771766 -0.2248478383 0.1231547147 1.91819627e-38
0.1127784029 -0.3106764555 0.130845964 1.91819627e-38
0.2124129981 -0.198318705 0.2025682479 1.91819627e-38
0.1010865346 -0.3718709946 0.2453528047 1.91819627e-38
0.08828634769 -0.2864678502 0.2039383054 1.936527215e-38
0.2136709392 -0.207464233 0.2046490163 1.936527215e-38
0.07666682452 -0.1905069947 0.2150811106 1.936527215e-38
0.101718612 -0.3205954432 0.1339312643 1.936527215e-38
0.4653134942 -0.1439478099 0.1618064046 1.936527215e-38
0.1702074111 -0.1701090932 0.1766519547 1.936527215e-38
0.1743565053 -0.2309000194 0.1025479585 1.936527215e-38
0.2144514024 -0.3072918653 0.2171983123 1.936527215e-38
0.1024579182 -0.3221421242 0.1452750266 1.954822428e-38
0.1891901493 -0.2484176457 0.105704993 1.954822428e-38
0.1753164977 -0.2263945043 0.1344985217 1.954822428e-38
0.2262504548 -0.2989195585 0.2254567742 1.954822428e-38
0.09139817953 -0.3320610523 0.1483603269 1.954822428e-38
0.2149288952 -0.216609776 0.2067297995 1.954822428e-38
0.1348978579 -0.2908385396 0.1246753782 1.954822428e-38
0.1760558039 -0.2279411703 0.145842284 1.954822428e-38
0.1770157963 -0.2234356105 0.1777928025 1.973153514e-38
0.2275084108 -0.3080651164 0.2275375724 1.973153514e-38
0.1750958264 -0.2324466854 0.1138917208 1.973153514e-38
0.176795125 -0.2294878364 0.1571860462 1.973153514e-38
0.2187027484 -0.2440463752 0.2129721195 1.973153514e-38
0.1950635016 -0.1625100076 0.1952496618 1.973153514e-38
0.1356371641 -0.2923852205 0.1360191405 1.973153514e-38
0.1090045497 -0.2832398713 0.124603644 1.973153514e-38
0.1856007725 -0.2935065329 0.1717514843 1.991448586e-38
0.09213749319 -0.3336077332 0.1597040892 1.991448586e-38
0.09487406909 -0.3458465934 0.184472397 1.991448586e-38
0.1775344312 -0.2310344875 0.1685298085 1.991448586e-38
0.1009381935 -0.220767796 0.1213819683 1.991448586e-38
0.1001988798 -0.21922113 0.110038206 1.991448586e-38
0.2199607044 -0.2531918883 0.2150529027 1.991448586e-38
0.1861194223 -0.3011054099 0.1624885052 1.991448586e-38
0.1821248829 -0.2797210217 0.1356393695 2.009743799e-38
0.1739812642 -0.1975456774 0.1828942895 2.009743799e-38
0.07474684715 -0.1995180696 0.1511799693 2.009743799e-38
0.2174448073 -0.2349008471 0.2108913511 2.009743799e-38
0.07400754094 -0.1979714036 0.139836207 2.009743799e-38
0.4763732255 -0.134028852 0.1587211043 2.009743799e-38
0.07326822728 -0.1964247376 0.1284924448 2.009743799e-38
0.07133705169 -0.1402737945 0.2366277426 2.009743799e-38
0.07252891362 -0.1948780715 0.1171486825 2.028074885e-38
0.1758351326 -0.2339933515 0.1252354831 2.028074885e-38
0.07259500027 -0.1494193077 0.238708511 2.028074885e-38
0.2224766016 -0.2714829743 0.2192144394 2.028074885e-38
0.2000953108 -0.1990921497 0.203572765 2.028074885e-38
0.07178959996 -0.1933314055 0.1058049202 2.028074885e-38
0.1764971614 -0.2158367634 0.1870558411 2.028074885e-38
0.07688749582 -0.1844547838 0.2356878519 2.028074885e-38
0.182864204 -0.2812676728 0.1469831765 2.046369957e-38
0.0738529563 -0.1585648656 0.2407892942 2.046369957e-38
0.2081204951 -0.1632832289 0.2055888921 2.046369957e-38
0.2013532519 -0.2082376629 0.2056535333 2.046369957e-38
0.07007910311 -0.1311282665 0.2345469594 2.046369957e-38
0.1863400936 -0.295053184 0.1830952466 2.046369957e-38
0.2093784511 -0.1724287868 0.2076696754 2.046369957e-38
0.4995300472 -0.1293886602 0.134024471 2.046369957e-38
0.1097438559 -0.2847865224 0.1359474063 2.06466517e-38
0.1853801161 -0.2995587587 0.151144743 2.06466517e-38
0.1765744537 -0.2355400175 0.1365793049 2.06466517e-38
0.1782737523 -0.2325811535 0.1798735708 2.06466517e-38
0.1813855767 -0.2781743407 0.1242956072 2.06466517e-38
0.06882114708 -0.1219827235 0.2324661762 2.06466517e-38
0.1773137599 -0.2370866835 0.1479230672 2.06466517e-38
0.0779247731 -0.1996525377 0.2171618789 2.06466517e-38
0.1696887612 -0.1625102162 0.1859149486 2.082996116e-38
0.1839014888 -0.2964653969 0.1284571588 2.082996116e-38
0.2118943483 -0.1907198429 0.2118312269 2.082996116e-38
0.2237345576 -0.2806285024 0.2212952375 2.082996116e-38
0.184640795 -0.2980120778 0.1398009211 2.082996116e-38
0.1836035103 -0.2828143239 0.1583269387 2.082996116e-38
0.07696478814 -0.2041580677 0.1852113158 2.082996116e-38
0.09287680686 -0.3351543546 0.1710478514 2.082996116e-38
0.06756319851 -0.1128371954 0.2303854078 2.101291328e-38
0.1787923872 -0.2401800156 0.1706105918 2.101291328e-38
0.1870793998 -0.296599865 0.1944390088 2.101291328e-38
0.2654215097 -0.3012392521 0.2564745545 2.101291328e-38
0.07636885345 -0.1768559217 0.2449508309 2.101291328e-38
0.4776311815 -0.1431743801 0.1608018726 2.101291328e-38
0.4647948444 -0.1363489479 0.1710693836 2.101291328e-38
0.1045624241 -0.385656476 0.2814649343 2.101291328e-38
0.08662318438 -0.2108490467 0.1089619547 2.119586541e-38
0.1027147844 -0.2375122011 0.1141997576 2.119586541e-38
0.06630524248 -0.1036916524 0.2283046246 2.119586541e-38
0.2139327675 -0.2996929884 0.2264612913 2.119586541e-38
0.1777551174 -0.2249822766 0.1891366094 2.119586541e-38
0.1843428314 -0.2843610048 0.169670701 2.119586541e-38
0.2666794658 -0.31038481 0.2585553229 2.119586541e-38
0.1011999622 -0.3129965663 0.1431942582 2.119586541e-38
0.08736249804 -0.2123957127 0.120305717 2.137881613e-38
0.1883373559 -0.3057454228 0.1965197921 2.137881613e-38
0.1722046733 -0.1808012724 0.1900765002 2.137881613e-38
0.203869164 -0.226528734 0.2098150849 2.137881613e-38
0.0777041018 -0.2057047188 0.196555078 2.137881613e-38
0.08407114446 -0.2711356282 0.1564824283 2.137881613e-38
0.0833318308 -0.2695889771 0.1451386511 2.137881613e-38
0.1115204468 -0.3015309572 0.1287651956 2.137881613e-38
0.06253139675 -0.07625508308 0.2220623046 2.156176826e-38
0.08185320348 -0.266495645 0.1224511266 2.156176826e-38
0.1793110222 -0.2477788776 0.1613475978 2.156176826e-38
0.1801276356 -0.2690288424 0.122214824 2.156176826e-38
0.1004606485 -0.3114498854 0.1318504959 2.156176826e-38
0.1734626144 -0.1899468303 0.1921572685 2.156176826e-38
0.07866408676 -0.2011991888 0.2285056412 2.156176826e-38
0.1770930886 -0.2431388795 0.1273162663 2.156176826e-38
0.1850821376 -0.2859076858 0.1810144782 2.174471899e-38
0.187818706 -0.2981465459 0.2057828307 2.174471899e-38
0.1014568284 -0.228366673 0.1121189818 2.174471899e-38
0.08940091729 -0.3213688731 0.1349357963 2.174471899e-38
0.1816062629 -0.2721221447 0.1449024081 2.174471899e-38
0.1759785265 -0.2082378715 0.1963188201 2.174471899e-38
0.09361611307 -0.3367010355 0.1823916137 2.174471899e-38
0.1983187199 -0.1823477447 0.2107549757 2.174471899e-38
0.1793883145 -0.2674821615 0.1108710617 2.192767111e-38
0.1047120467 -0.2482044101 0.1276243031 2.192767111e-38
0.08976497501 -0.2895612121 0.2266258299 2.192767111e-38
0.09365225583 -0.258123368 0.1307096034 2.192767111e-38
0.08554977179 -0.2742289901 0.1791699976 2.192767111e-38
0.1890766621 -0.307292074 0.2078635991 2.192767111e-38
0.1958028078 -0.1640566587 0.2065934241 2.192767111e-38
0.1790130585 -0.2341278344 0.1912173927 2.192767111e-38
0.1858214587 -0.2874543369 0.1923582405 2.211062324e-38
0.07526548952 -0.2071169466 0.1419169903 2.211062324e-38
0.07748342305 -0.2117569447 0.1759483367 2.211062324e-38
0.1805689782 -0.2569244206 0.1634283811 2.211062324e-38
0.1830848753 -0.2752155066 0.1675899327 2.211062324e-38
0.1820476055 -0.2600177526 0.1861159056 2.211062324e-38
0.1798296571 -0.2553777695 0.1520846188 2.211062324e-38
0.1802710146 -0.2432733476 0.193298161 2.211062324e-38
0.1783510298 -0.2522844076 0.1293970346 2.229357396e-38
0.086289078 -0.2757756412 0.1905137599 2.229357396e-38
0.4771125317 -0.135575518 0.1700648665 2.229357396e-38
0.07378686219 -0.2040236145 0.1192294657 2.229357396e-38
0.1790903509 -0.2538310885 0.1407408565 2.229357396e-38
0.1768724173 -0.2491910905 0.1067095101 2.229357396e-38
0.1815289706 -0.2524188757 0.1953789443 2.229357396e-38
0.09982858598 -0.3627254367 0.2432720363 2.229357396e-38
0.2126748264 -0.2905474901 0.224380523 2.247652609e-38
0.2114168704 -0.2814019322 0.2222997546 2.247652609e-38
0.1025651619 -0.3749642968 0.2680403888 2.247652609e-38
0.1838241965 -0.2767621577 0.178933695 2.247652609e-38
0.1825662404 -0.2676166296 0.1768529117 2.247652609e-38
0.1833055466 -0.2691632807 0.188196674 2.247652609e-38
0.1796089858 -0.2614299655 0.1314778179 2.247652609e-38
0.1810876131 -0.2645232677 0.1541653872 2.247652609e-38
0.1803483069 -0.2629766166 0.1428216249 2.265947681e-38
0.1915514767 -0.2273021638 0.2108196169 2.265947681e-38
0.07207636535 -0.1418204606 0.2479715049 2.265947681e-38
0.08788114041 -0.2199945748 0.1110427305 2.265947681e-38
0.07333431393 -0.1509659886 0.2500522733 2.265947681e-38
0.09668679535 -0.2840133011 0.1256081611 2.265947681e-38
0.1865607649 -0.289000988 0.2037020475 2.265947681e-38
0.2016150802 -0.3004664183 0.2274658084 2.265947681e-38
0.1845635027 -0.2783088088 0.1902774572 2.284242894e-38
0.2661608458 -0.302785933 0.2678183019 2.284242894e-38
0.07081841677 -0.1326749325 0.2458907366 2.284242894e-38
0.1827869117 -0.2615644336 0.1974597275 2.284242894e-38
0.07992204279 -0.2103447169 0.2305864245 2.284242894e-38
0.07940339297 -0.2027458549 0.2398494035 2.284242894e-38
0.1716860235 -0.1732024252 0.1993394792 2.284242894e-38
0.09709201008 -0.3504865766 0.2185037434 2.284242894e-38
0.06956046075 -0.1235293895 0.2438099384 2.302537966e-38
0.1928094178 -0.2364477217 0.2129004002 2.302537966e-38
0.07896205038 -0.2148502618 0.1986358613 2.302537966e-38
0.2674188018 -0.3119314909 0.2698991001 2.302537966e-38
0.1940673739 -0.2455932498 0.2149811685 2.302537966e-38
0.09742610902 -0.2855599523 0.1369519234 2.302537966e-38
0.1742019206 -0.1914934963 0.2035010457 2.302537966e-38
0.07585021853 -0.1692570448 0.2542138398 2.302537966e-38
0.1872589737 -0.1922667176 0.213840276 2.320833179e-38
0.1754598767 -0.2006390095 0.2055818141 2.320833179e-38
0.1898159832 -0.3088387251 0.2192073762 2.320833179e-38
0.08962158859 -0.3153166473 0.1555425376 2.320833179e-38
0.09036090225 -0.3168632984 0.1668862998 2.320833179e-38
0.07888475806 -0.1951469779 0.2491123974 2.320833179e-38
0.1797523797 -0.2356744856 0.202561155 2.320833179e-38
0.1767178327 -0.2097845376 0.2076625824 2.320833179e-38
0.196583271 -0.263884306 0.219142735 2.339092378e-38
0.06704455614 -0.1052383184 0.2396483868 2.339092378e-38
0.1822682768 -0.2539655566 0.2067227066 2.339092378e-38
0.07710816711 -0.1784026027 0.2562946081 2.339092378e-38
0.09039703757 -0.2382856458 0.1152042821 2.339092378e-38
0.1834851205 -0.1648301035 0.2075979412 2.339092378e-38
0.5010086894 -0.1324819922 0.1567120552 2.339092378e-38
0.4894302785 -0.1348020732 0.1690603346 2.339092378e-38
0.07874137163 -0.2209024578 0.1780291051 2.348204041e-38
0.09509474039 -0.3397943974 0.2050791979 2.348204041e-38
0.1873000711 -0.2905476689 0.2150458097 2.348204041e-38
0.1005678996 -0.3642721176 0.2546158433 2.348204041e-38
0.08776770532 -0.2788689733 0.2132012844 2.348204041e-38
0.09165499359 -0.2474311888 0.1172850579 2.348204041e-38
0.07726274431 -0.2178091258 0.1553415209 2.348204041e-38
0.1990991831 -0.2821753621 0.2233042717 2.348204041e-38
0.1792337298 -0.2280756086 0.211824134 2.348132155e-38
0.09113635123 -0.2398323119 0.1265480518 2.348132155e-38
0.07948068529 -0.2224491239 0.1893728673 2.348132155e-38
0.0930974856 -0.3291022182 0.1916546673 2.348132155e-38
0.09920269996 -0.3023043871 0.1297697127 2.348132155e-38
0.08913908899 -0.2291401178 0.1131235063 2.348132155e-38
0.08987840265 -0.2306867838 0.1244672686 2.348132155e-38
0.1892973334 -0.3012398481 0.2284703553 2.348132155e-38
0.08814296126 -0.3122233152 0.132855013 2.348060128e-38
0.4778518677 -0.137122184 0.1814086288 2.348060128e-38
0.111001797 -0.2939320803 0.1380281746 2.348060128e-38
0.08021999896 -0.2239957899 0.2007166296 2.348060128e-38
0.1804916859 -0.2372211516 0.2139049172 2.348060128e-38
0.09239430726 -0.2489778548 0.1286288202 2.348060128e-38
0.0805952549 -0.2573501468 0.1203703582 2.348060128e-38
0.4906882346 -0.1439476013 0.1711411178 2.348060128e-38
0.1905552894 -0.310385406 0.2305511236 2.347952368e-38
0.1749412417 -0.1930401623 0.214844808 2.347952368e-38
0.09583405405 -0.3413410187 0.2164229602 2.347952368e-38
0.08095931262 -0.2255424559 0.2120603919 2.347952368e-38
0.08850701898 -0.2804156542 0.2245450467 2.347952368e-38
0.07962407172 -0.1966936439 0.2604561448 2.347952368e-38
0.07155773044 -0.1342216134 0.2572345436 2.347952368e-38
0.1736832857 -0.1838946044 0.2127640247 2.347952368e-38
0.08207388222 -0.260443449 0.1430578828 2.347880341e-38
0.09383679181 -0.3306488395 0.2029984295 2.347880341e-38
0.07556345314 -0.2207680047 0.1120472476 2.347880341e-38
0.1842655391 -0.2646577358 0.2201472521 2.347880341e-38
0.1060410514 -0.3887498379 0.3041524589 2.347880341e-38
0.08910295367 -0.3077178001 0.1648055315 2.347880341e-38
0.08169862628 -0.2270891219 0.2234042138 2.347880341e-38
0.2297263443 -0.3127050996 0.2615689039 2.347880341e-38
0.2415253967 -0.3043327928 0.2698273659 2.347808455e-38
0.1880393922 -0.2920943499 0.2263895869 2.347808455e-38
0.1855234802 -0.2738032937 0.2222280204 2.347808455e-38
0.08191930503 -0.2210369259 0.2440109551 2.347808455e-38
0.090581581 -0.3108111024 0.1874931008 2.347808455e-38
0.08281319588 -0.2619901299 0.1544016451 2.347808455e-38
0.06904182583 -0.1159305274 0.2530729771 2.347808455e-38
0.1867814362 -0.2829488218 0.2243087888 2.347808455e-38
0.08510842174 -0.2863333821 0.1379564404 2.347700555e-38
0.08140066266 -0.213438049 0.2532739341 2.347700555e-38
0.07778139412 -0.2254079878 0.1460785419 2.347700555e-38
0.0985706374 -0.3535799384 0.241191268 2.347700555e-38
0.08732635528 -0.2909733653 0.1719877422 2.347700555e-38
0.2545824051 -0.305106014 0.2801665962 2.347700555e-38
0.07926002145 -0.2285013199 0.1687661111 2.347700555e-38
0.08243793994 -0.228635788 0.2347479761 2.347700555e-38
0.08658704907 -0.2894267142 0.1606439799 2.347628668e-38
0.0835525021 -0.2635368109 0.1657454073 2.347628668e-38
0.08806567639 -0.2925200462 0.1833315492 2.347628668e-38
0.07807935029 -0.2390590757 0.1162088066 2.347628668e-38
0.07784748077 -0.1799492687 0.2676384151 2.347628668e-38
0.268158108 -0.3134781122 0.2812428474 2.347628668e-38
0.08147795498 -0.233141318 0.2027974129 2.347628668e-38
0.06526797265 -0.08849394321 0.246830672 2.347628668e-38
0.09457610548 -0.3321955204 0.2143421918 2.347520768e-38
0.5030059218 -0.1431741714 0.1701365858 2.347520768e-38
0.08503112942 -0.2666301131 0.1884329915 2.347520768e-38
0.0888049826 -0.2940667272 0.1946753114 2.347520768e-38
0.2679374218 -0.319530338 0.2606360912 2.347520768e-38
0.07881866395 -0.2406057417 0.1275525689 2.347520768e-38
0.08954429626 -0.2956133783 0.2060190737 2.347520768e-38
0.2174086571 -0.3134785295 0.262573421 2.347520768e-38
0.07933730632 -0.2482046187 0.1182895824 2.347448882e-38
0.07682140172 -0.2299135476 0.1141280308 2.347448882e-38
0.08295658231 -0.23623465 0.2254849821 2.347448882e-38
0.07830002904 -0.2330068648 0.1368155479 2.347448882e-38
0.08688501269 -0.303077817 0.1307742447 2.347448882e-38
0.0790393427 -0.2345535308 0.1481593251 2.347448882e-38
0.09331814945 -0.3230499625 0.2122614086 2.347448882e-38
0.09868406504 -0.2947055101 0.1390327066 2.347448882e-38
0.07977864891 -0.2361001968 0.1595030874 2.347340982e-38
0.08036338538 -0.19824031 0.2717999816 2.347340982e-38
0.08369589597 -0.237781316 0.2368287444 2.347340982e-38
0.08577044308 -0.2681767941 0.1997767538 2.347340982e-38
0.09930995107 -0.3551266193 0.2525350749 2.347340982e-38
0.0819965899 -0.2407401949 0.1935344189 2.347340982e-38
0.2556196749 -0.3203037679 0.2616406381 2.347340982e-38
0.08125727624 -0.2391935289 0.1821906567 2.347340982e-38
0.09028360993 -0.2971600294 0.217362836 2.347269095e-38
0.09794475138 -0.2931588292 0.1276889443 2.347269095e-38
0.08029729128 -0.2436990589 0.1502400935 2.347269095e-38
0.102046527 -0.3673654199 0.2773033679 2.347269095e-38
0.08273590356 -0.2422868609 0.2048781812 2.347269095e-38
0.0722970441 -0.1357682645 0.2685782909 2.347269095e-38
0.2038330138 -0.3051064312 0.2614971697 2.347269095e-38
0.08081593364 -0.2512979507 0.1409771144 2.347269095e-38
0.08103659749 -0.2452457249 0.1615838557 2.347161195e-38
0.08650975674 -0.269723475 0.2111205161 2.347161195e-38
0.06852318347 -0.1083316505 0.2623359561 2.347161195e-38
0.08443520218 -0.2393279821 0.2481725216 2.347161195e-38
0.5153236389 -0.1424007416 0.1691320688 2.347161195e-38
0.06726523489 -0.09918612242 0.2602551877 2.347161195e-38
0.2299470156 -0.3066528738 0.2821756601 2.347161195e-38
0.07732884586 -0.1723503768 0.2769013941 2.347161195e-38
0.08155524731 -0.2528446019 0.1523208767 2.347089308e-38
0.08932363242 -0.3016656041 0.1854123324 2.347089308e-38
0.08998564631 -0.2835089564 0.2472326159 2.347089308e-38
0.0878450051 -0.2985722423 0.1627247483 2.347089308e-38
0.09006293863 -0.3032122552 0.1967560947 2.347089308e-38
0.215632081 -0.2967341542 0.2697556317 2.347089308e-38
0.08287928998 -0.216531381 0.2759615183 2.347089308e-38
0.08229455352 -0.254391253 0.163664639 2.347089308e-38
0.08495384455 -0.246926859 0.2389095277 2.346981408e-38
0.08251522481 -0.248339057 0.1842714399 2.346981408e-38
0.1000492647 -0.3566732407 0.2638788521 2.346981408e-38
0.1980207562 -0.1686966717 0.2406247556 2.346981408e-38
0.08325453848 -0.249885723 0.1956152022 2.346981408e-38
0.09102292359 -0.2987067103 0.2287065983 2.346981408e-38
0.09080225229 -0.3047589064 0.208099857 2.346981408e-38
0.09805199504 -0.3459810615 0.2504543066 2.346981408e-38
0.0960547328 -0.3352888227 0.2370297164 2.346909522e-38
0.08399385214 -0.251432389 0.2069589645 2.346909522e-38
0.09279951453 -0.3154511154 0.2215244025 2.346909522e-38
0.08517451584 -0.2408746481 0.259516269 2.346909522e-38
0.1915152818 -0.3058798611 0.2625016868 2.346909522e-38
0.08636637777 -0.29547894 0.1400372237 2.346909522e-38
0.08569315821 -0.248473525 0.2502532899 2.346909522e-38
0.1927732378 -0.3150253892 0.264582485 2.346909522e-38
0.0847331658 -0.2529790401 0.2183027267 2.346801622e-38
0.08562706411 -0.2939322591 0.1286934614 2.346801622e-38
0.2306863219 -0.3081995249 0.2935194075 2.346801622e-38
0.2163713872 -0.2982807755 0.2810993791 2.346801622e-38
0.2033143789 -0.2975075841 0.2707601488 2.346801622e-38
0.07177840173 -0.1281693876 0.2778412998 2.346801622e-38
0.07052045316 -0.1190238595 0.2757605016 2.346801622e-38
0.09272222221 -0.2957478762 0.2720009387 2.346801622e-38
0.09072495252 -0.2850556374 0.2585763931 2.346693862e-38
0.08798838407 -0.2728167772 0.2338080853 2.346693862e-38
0.06926249713 -0.1098783165 0.2736797333 2.346693862e-38
0.09154156595 -0.3063055873 0.2194436193 2.346693862e-38
0.06800454855 -0.1007327884 0.2715989649 2.346693862e-38
0.185703069 -0.1694701016 0.2416292727 2.346693862e-38
0.06674659997 -0.09158726782 0.2695181966 2.346693862e-38
0.2683787644 -0.3074259162 0.3018496037 2.346693862e-38
0.09353882819 -0.3169977665 0.2328681648 2.346621835e-38
0.08643246442 -0.250020206 0.2615970671 2.346621835e-38
0.08591382951 -0.2424212992 0.2708600461 2.346621835e-38
0.09176223725 -0.3002533913 0.2400504202 2.346621835e-38
0.2000180185 -0.1793888807 0.2540493011 2.346621835e-38
0.0987913087 -0.3475276828 0.261798054 2.346621835e-38
0.08539518714 -0.2348224521 0.2801230848 2.346621835e-38
0.1007885709 -0.3582199216 0.2752225995 2.346621835e-38
0.1791975945 -0.306653291 0.2635062039 2.346514075e-38
0.2560610175 -0.3081993461 0.3028541207 2.346514075e-38
0.2183686346 -0.3089729846 0.2945239246 2.346514075e-38
0.1987600625 -0.1702433228 0.2519685328 2.346514075e-38
0.1804555506 -0.3157988489 0.265587002 2.346514075e-38
0.2040536851 -0.2990542054 0.2821039259 2.346514075e-38
0.1909966469 -0.298281014 0.2717646658 2.346514075e-38
0.269416064 -0.3226236701 0.2833236456 2.346514075e-38
0.231425643 -0.3097462058 0.3048631847 2.346406175e-38
0.08599112183 -0.262124598 0.22038351 2.346406175e-38
0.08872769773 -0.2743634582 0.2451518476 2.346406175e-38
0.2696367204 -0.3165714741 0.303930372 2.346406175e-38
0.08695109934 -0.2576190531 0.2523340583 2.346406175e-38
0.2407087833 -0.2830828428 0.3089601398 2.346406175e-38
0.2063489258 -0.3233975172 0.2656587064 2.346406175e-38
0.09346153587 -0.2972944975 0.283344686 2.346406175e-38
0.07503362 -0.1480071247 0.2933466136 2.346334289e-38
0.07377567142 -0.1388615966 0.2912658155 2.346334289e-38
0.07251771539 -0.1297160387 0.2891850471 2.346334289e-38
0.09427814186 -0.3185444474 0.2442119718 2.346334289e-38
0.1062617227 -0.3826976418 0.3247592449 2.346334289e-38
0.1799369007 -0.3081999421 0.2748499811 2.346334289e-38
0.09753336012 -0.3383821845 0.2597172856 2.346334289e-38
0.06874386221 -0.1022794545 0.2829427123 2.346334289e-38
0.2060509473 -0.3097464144 0.2955284417 2.346226389e-38
0.08673043549 -0.263671279 0.231727317 2.346226389e-38
0.06748591363 -0.09313392639 0.280861944 2.346226389e-38
0.09250155091 -0.3018000424 0.2513941824 2.346226389e-38
0.1786789596 -0.2990544438 0.2727692127 2.346226389e-38
0.1811948568 -0.3173455 0.2769307494 2.346226389e-38
0.1743864715 -0.2640189528 0.2757898569 2.346226389e-38
0.1015278921 -0.3597666025 0.2865663767 2.346226389e-38
0.229649052 -0.2930018306 0.312045455 2.346118629e-38
0.2160734087 -0.2846297026 0.3109691739 2.346118629e-38
0.2691180706 -0.3089725971 0.3131934106 2.346118629e-38
0.1731285155 -0.2548734248 0.2737090886 2.346118629e-38
0.09302019328 -0.3093989193 0.2421312034 2.346118629e-38
0.2007573247 -0.1809355319 0.2653930783 2.346118629e-38
0.09953061491 -0.3490743637 0.2731418312 2.346118629e-38
0.1756444126 -0.2731645107 0.2778706253 2.346118629e-38
0.194031179 -0.3241709471 0.2666632533 2.346010729e-38
0.1994993687 -0.1717900038 0.2633122802 2.346010729e-38
0.1769023687 -0.282310009 0.2799514234 2.346010729e-38
0.0962754041 -0.3292366266 0.2576365173 2.346010729e-38
0.1718705595 -0.2457279116 0.2716283202 2.346010729e-38
0.09220357984 -0.2881489396 0.2812639177 2.346010729e-38
0.1042644605 -0.3720054626 0.3113347292 2.346010729e-38
0.1623255908 -0.1801625192 0.245719105 2.346010729e-38
0.08791109174 -0.2531135082 0.2842846215 2.345938842e-38
0.1781603247 -0.2914555669 0.2820321918 2.345938842e-38
0.2173313648 -0.2937752604 0.3130499721 2.345938842e-38
0.2444826365 -0.3105194569 0.3152024746 2.345938842e-38
0.1806762218 -0.309746623 0.2861937284 2.345938842e-38
0.2067902684 -0.3112930655 0.3068722188 2.345938842e-38
0.1753825992 -0.1809357405 0.2560583651 2.345938842e-38
0.09501745552 -0.3200911283 0.2555557489 2.345938842e-38
0.1794182658 -0.300601095 0.2841129601 2.345830942e-38
0.1706126183 -0.2365823686 0.2695475221 2.345830942e-38
0.2321649492 -0.3112928867 0.3162069917 2.345830942e-38
0.1819341779 -0.3188921809 0.2882745266 2.345830942e-38
0.07451497763 -0.1404082477 0.3026095927 2.345830942e-38
0.09324086457 -0.3033466935 0.2627379596 2.345830942e-38
0.2703760266 -0.3181181252 0.3152742088 2.345830942e-38
0.08820905536 -0.2667645812 0.2544148564 2.345830942e-38
0.070741117 -0.1129716411 0.2963672578 2.345723183e-38
0.09827267379 -0.3399288654 0.2710610628 2.345723183e-38
0.06948316842 -0.1038261205 0.2942864895 2.345723183e-38
0.2414481044 -0.2846295238 0.3203038871 2.345723183e-38
0.2198472619 -0.3120663166 0.3172115088 2.345723183e-38
0.1776416749 -0.2838566899 0.2912951708 2.345723183e-38
0.1751257777 -0.2655656338 0.2871336341 2.345723183e-38
0.1738678217 -0.2564200759 0.2850528359 2.345723183e-38
0.1788996309 -0.2930022478 0.2933759689 2.345615283e-38
0.1022671983 -0.3613132238 0.2979101241 2.345615283e-38
0.1680967063 -0.2182912976 0.2653859854 2.345615283e-38
0.1726098806 -0.2472745776 0.2829720676 2.345615283e-38
0.1668387651 -0.2091457695 0.2633051872 2.345615283e-38
0.09701471776 -0.3307833076 0.2689802647 2.345615283e-38
0.2303883731 -0.2945485115 0.3233892024 2.345615283e-38
0.1643228531 -0.1908546984 0.2591436505 2.345615283e-38
0.1801575869 -0.3021477461 0.2954567373 2.345507523e-38
0.2002386898 -0.1733366549 0.2746560574 2.345507523e-38
0.1814155281 -0.3112932742 0.2975375056 2.345507523e-38
0.2439640164 -0.3029205799 0.3244654536 2.345507523e-38
0.08894836903 -0.2683112621 0.2657586038 2.345507523e-38
0.1050037816 -0.373552084 0.3226784766 2.345507523e-38
0.2075295746 -0.3128397465 0.3182160258 2.345507523e-38
0.09575676173 -0.3216377497 0.2668994963 2.345507523e-38
0.2575396597 -0.3112926781 0.3255417049 2.345399623e-38
0.09398017079 -0.3048933744 0.274081707 2.345399623e-38
0.0944988206 -0.3124922514 0.264818728 2.345399623e-38
0.1826734841 -0.320438832 0.299618274 2.345399623e-38
0.1761219054 -0.1824824214 0.2674021125 2.345399623e-38
0.1796389371 -0.2945488989 0.3047197163 2.345399623e-38
0.1783809811 -0.2854033709 0.302638948 2.345399623e-38
0.1748639494 -0.1733368635 0.2653213441 2.345399623e-38
0.17712304 -0.276257813 0.3005581498 2.345291723e-38
0.07651224732 -0.1511004567 0.316034168 2.345291723e-38
0.1824528128 -0.3264910281 0.2790115178 2.345291723e-38
0.07148043811 -0.1145183146 0.3077110648 2.345291723e-38
0.1746071279 -0.2579667568 0.2963966131 2.345291723e-38
0.07022248954 -0.1053727865 0.3056302965 2.345291723e-38
0.09094563127 -0.2790034413 0.2791831493 2.345291723e-38
0.2193286419 -0.3044674397 0.3264744878 2.345291723e-38
0.1808968931 -0.303694427 0.3068004847 2.345219836e-38
0.1077403501 -0.3857909441 0.3474467993 2.345219836e-38
0.1700939685 -0.2289835066 0.2788105309 2.345219836e-38
0.1891789585 -0.1832556427 0.2777413428 2.345219836e-38
0.1879210025 -0.1741100848 0.2756605744 2.345219836e-38
0.2057529986 -0.2960953712 0.3253982365 2.345219836e-38
0.1030065194 -0.3628599048 0.3092539608 2.345219836e-38
0.1821548343 -0.3128399253 0.308881253 2.345219836e-38
0.2711153626 -0.3196647763 0.3266179562 2.345111936e-38
0.2708946764 -0.3257169724 0.3060111701 2.345111936e-38
0.2434453666 -0.2953217328 0.3337284327 2.345111936e-38
0.09649607539 -0.3231844306 0.2782432735 2.345111936e-38
0.1675780714 -0.2106924355 0.2746489644 2.345111936e-38
0.1650621742 -0.1924013793 0.2704873979 2.345111936e-38
0.202235952 -0.1840288639 0.2880806327 2.345111936e-38
0.2570210099 -0.303693831 0.3348046839 2.345111936e-38
0.08990835398 -0.2638057172 0.297709167 2.345004176e-38
0.200977996 -0.1748833358 0.2859998643 2.345004176e-38
0.09523812681 -0.3140389323 0.2761624753 2.345004176e-38
0.1834127903 -0.3219854832 0.3109620512 2.345004176e-38
0.1909193546 -0.278577745 0.3222412169 2.345004176e-38
0.1803782582 -0.2960955501 0.3160635233 2.345004176e-38
0.1791203022 -0.286950022 0.3139827549 2.345004176e-38
0.1768612117 -0.1840290725 0.2787458897 2.345004176e-38
0.09042699635 -0.2714045942 0.288446188 2.344896276e-38
0.1756032556 -0.1748835295 0.2766650915 2.344896276e-38
0.175346449 -0.2595134377 0.3077404201 2.344896276e-38
0.09975129366 -0.3430221677 0.2937485874 2.344896276e-38
0.217552036 -0.2877230644 0.3336566985 2.344896276e-38
0.07599360496 -0.1435015947 0.3252971768 2.344896276e-38
0.07473564893 -0.1343560517 0.3232163787 2.344896276e-38
0.07347770035 -0.1252105236 0.3211356103 2.344896276e-38
0.07221974432 -0.1160649806 0.319054842 2.344788516e-38
0.09723538905 -0.3247311115 0.2895870209 2.344788516e-38
0.1708332747 -0.2305301726 0.2901542783 2.344788516e-38
0.07096179575 -0.1069194525 0.3169740736 2.344788516e-38
0.2188099921 -0.2968685925 0.3357374966 2.344788516e-38
0.1899182647 -0.1848023087 0.2890851796 2.344788516e-38
0.269934684 -0.3302225471 0.2740606368 2.344788516e-38
0.1037458256 -0.3644065857 0.3205977082 2.344788516e-38
0.1740885079 -0.2503679097 0.3056596518 2.344680616e-38
0.2039764076 -0.2793509364 0.3325804472 2.344680616e-38
0.09597744048 -0.3155855536 0.2875062525 2.344680616e-38
0.1695753336 -0.2213846296 0.2880735099 2.344680616e-38
0.1683173776 -0.2122391015 0.2859927118 2.344680616e-38
0.2052343488 -0.2884964943 0.3346612453 2.344680616e-38
0.2565023899 -0.296094954 0.3440676928 2.344680616e-38
0.09116631001 -0.2729512453 0.2997899354 2.344680616e-38
0.1645435244 -0.1848025024 0.2797504067 2.344572857e-38
0.2552444339 -0.2869493961 0.3419868946 2.344572857e-38
0.2716339827 -0.3272636533 0.3173549771 2.344572857e-38
0.106482394 -0.3766454458 0.3453660011 2.344572857e-38
0.2064923048 -0.2976420224 0.3367420137 2.344572857e-38
0.1786016673 -0.2793511748 0.323245734 2.344572857e-38
0.1773437113 -0.270205617 0.3211649656 2.344572857e-38
0.2454426438 -0.3060139418 0.3471529782 2.344572857e-38
0.1823755205 -0.3067877591 0.3294880688 2.344464957e-38
0.271336019 -0.3136125803 0.3472247124 2.344464957e-38
0.2704533339 -0.3378213942 0.2647976577 2.344464957e-38
0.1836334616 -0.3159332871 0.3315688372 2.344464957e-38
0.1929166168 -0.2892699242 0.3356657624 2.344464957e-38
0.0779908672 -0.1541937888 0.3387217224 2.344464957e-38
0.1715725958 -0.2320768386 0.3014980853 2.344464957e-38
0.07421701401 -0.1267571896 0.3324793875 2.344464957e-38
0.07295905799 -0.1176116392 0.3303985894 2.344357197e-38
0.07170110941 -0.1084661186 0.328317821 2.344357197e-38
0.2331249565 -0.3067873716 0.3481574953 2.344357197e-38
0.2199245542 -0.3317696154 0.2667349875 2.344357197e-38
0.1044851318 -0.3659532666 0.3319414854 2.344357197e-38
0.1748278141 -0.2519145608 0.3170033991 2.344357197e-38
0.2182913572 -0.2892697155 0.3450004756 2.344357197e-38
0.217033416 -0.2801241875 0.3429197073 2.344357197e-38
0.1793409735 -0.280897826 0.3345895112 2.344249297e-38
0.1665408015 -0.1954947114 0.2931749821 2.344249297e-38
0.1848914176 -0.325078845 0.3336496353 2.344249297e-38
0.2706739902 -0.3317691982 0.2854044139 2.344249297e-38
0.1652828455 -0.1863491833 0.2910942137 2.344249297e-38
0.1805989295 -0.290043354 0.3366702795 2.344249297e-38
0.207606867 -0.3325430453 0.2677395046 2.344249297e-38
0.2024566233 -0.177976653 0.3086873889 2.344249297e-38
0.2037145793 -0.187122196 0.3107681572 2.344141397e-38
0.2458178848 -0.3393682539 0.2668067217 2.344141397e-38
0.2725939751 -0.3227581382 0.3493054807 2.344141397e-38
0.1846707463 -0.3311310112 0.3130428195 2.344141397e-38
0.1072217152 -0.3781921268 0.3567097783 2.344141397e-38
0.2572416961 -0.2976416349 0.3554114401 2.344141397e-38
0.178339839 -0.1871224046 0.301433444 2.344141397e-38
0.2723733187 -0.3288103342 0.3286987245 2.344141397e-38
0.177081883 -0.1779768616 0.2993526757 2.344033637e-38
0.07495632768 -0.1283038557 0.3438231349 2.344033637e-38
0.24618195 -0.3075605929 0.3584967554 2.344033637e-38
0.1843727827 -0.3174799383 0.3429126143 2.344033637e-38
0.208489567 -0.3083342314 0.3501665592 2.344033637e-38
0.1052244529 -0.3674998879 0.3432852328 2.344033637e-38
0.190138936 -0.1787500978 0.309691906 2.344033637e-38
0.1710539609 -0.2244779617 0.3107610941 2.344033637e-38
0.2335001975 -0.3401416838 0.2678112388 2.343925737e-38
0.1697960049 -0.2153324336 0.3086802959 2.343925737e-38
0.1685380489 -0.2061869204 0.3065995276 2.343925737e-38
0.1672801077 -0.1970413625 0.3045187593 2.343925737e-38
0.1660221517 -0.1878958344 0.3024379909 2.343925737e-38
0.1788223386 -0.273298949 0.3438524902 2.343925737e-38
0.1647641957 -0.1787503064 0.3003571928 2.343925737e-38
0.1829714477 -0.334089905 0.2697485387 2.343925737e-38
0.1854100674 -0.3326776624 0.3243866265 2.343817977e-38
0.1775643826 -0.2641534209 0.3417717218 2.343817977e-38
0.2717112899 -0.3469669223 0.2668784261 2.343817977e-38
0.2211825103 -0.3409151137 0.2688157558 2.343817977e-38
0.2215465754 -0.3091074526 0.3605057895 2.343817977e-38
0.2733332813 -0.3243047893 0.3606492579 2.343817977e-38
0.1763064414 -0.2550078928 0.3396909535 2.343817977e-38
0.1079610214 -0.3797387481 0.3680535853 2.343817977e-38
0.1838541478 -0.3098810911 0.3521755934 2.343710077e-38
0.2031959444 -0.179523319 0.3200311661 2.343710077e-38
0.2044539005 -0.188668862 0.3221119344 2.343710077e-38
0.2592389584 -0.3083338141 0.3688360453 2.343710077e-38
0.1717932671 -0.2260246277 0.3221048415 2.343710077e-38
0.259393543 -0.3477403522 0.267882973 2.343710077e-38
0.2579810023 -0.2991883159 0.3667552769 2.343710077e-38
0.2604969144 -0.3174793422 0.3709168136 2.343710077e-38
0.2729692161 -0.3561124504 0.2689592242 2.343566444e-38
0.1837107688 -0.3356365561 0.2810923159 2.343566444e-38
0.2567230463 -0.290042758 0.3646744788 2.343566444e-38
