# .PCD v0.7 - Point Cloud Data file format
VERSION 0.7
FIELDS x y z rgb
SIZE 4 4 4 4
TYPE F F F F
COUNT 1 1 1 1
WIDTH 831
HEIGHT 1
VIEWPOINT 0 0 0 1 0 0 0
POINTS 831
DATA ascii
0.003193892073 -0.7673091292 0.03169503808 8.560068489e-39
-0.1526424438 -0.1294358224 -0.009494414553 8.560068489e-39
-0.004745582119 -0.7730539441 0.07857868075 8.560068489e-39
0.01816648245 -0.7844675183 0.1912409663 8.377473694e-39
-0.08899708092 -0.05090412125 -0.1896260381 8.377473694e-39
-0.1539553255 -0.1041488647 0.007551793475 8.377473694e-39
0.09817765653 -0.7425688505 -0.1395426095 8.377473694e-39
0.0891687125 -0.7470880747 -0.1040551141 8.377473694e-39
-0.00367611181 -0.7742795944 0.08997479081 8.377473694e-39
0.09467910975 -0.783089757 0.2176349163 8.377473694e-39
0.04671603441 -0.7578114271 -0.03048197925 8.377473694e-39
-0.1575694233 -0.06036982313 0.02076729015 8.194878899e-39
-0.1351260245 -0.175314948 -0.1582309902 8.194878899e-39
0.05190028623 -0.7340657711 -0.2382105589 8.194878899e-39
-0.1153748482 -0.1286254227 -0.1590097994 8.194878899e-39
0.03754398227 -0.7324569821 -0.2597037554 8.194878899e-39
0.09924712777 -0.7437944412 -0.1281464398 8.194878899e-39
0.03647451103 -0.7312313914 -0.271099925 8.194878899e-39
0.07740453631 -0.7336064577 -0.2294126153 8.194878899e-39
-0.1066093147 -0.1000448391 -0.1660549492 8.012284103e-39
0.1204734296 -0.7384328246 -0.1649330407 8.012284103e-39
0.06901181489 -0.7536753416 -0.05587238073 8.012284103e-39
0.1324007213 -0.7817879915 0.2251337767 8.012284103e-39
0.1114644855 -0.7429520488 -0.129445523 8.012284103e-39
0.106896475 -0.7822473049 0.2163358331 8.012284103e-39
-0.1564188153 -0.06961586326 0.02268264629 8.012284103e-39
0.122612372 -0.740884006 -0.142140761 8.012284103e-39
0.08139228076 -0.7827065587 0.2075378597 7.829687907e-39
0.1326907873 -0.7375904322 -0.166232124 7.829687907e-39
0.1125339568 -0.7441776395 -0.1180494055 7.829687907e-39
0.08015970886 -0.7516072989 -0.06856759638 7.829687907e-39
0.03770706058 -0.7623306513 0.005005538464 7.829687907e-39
0.1024555415 -0.7474712133 -0.09395807236 7.829687907e-39
0.008541245013 -0.7734371424 0.08867570758 7.829687907e-39
0.06304817647 -0.7319977283 -0.2509058118 7.829687907e-39
0.04762240127 -0.7291634083 -0.2837951183 7.647093112e-39
-0.1528858542 -0.1053744704 0.01894794777 7.647093112e-39
0.01068018936 -0.7758883238 0.1114680171 7.647093112e-39
0.1294823736 -0.7339136004 -0.2004205287 7.647093112e-39
0.06197870523 -0.7307721376 -0.2623019218 7.647093112e-39
0.07115075737 -0.756126523 -0.03308013082 7.647093112e-39
0.07526559383 -0.7311552763 -0.252204895 7.647093112e-39
0.06090923399 -0.7295465469 -0.2736980915 7.647093112e-39
0.04260123149 -0.7827826738 0.1886427999 7.464498317e-39
0.04992444813 -0.7614881992 0.003706455231 7.464498317e-39
-0.1541175991 -0.08810795844 0.02651335672 7.464498317e-39
0.05983976275 -0.7283209562 -0.2850942016 7.464498317e-39
0.01968913525 -0.7713690996 0.07598051429 7.464498317e-39
-0.08780008554 -0.1222304404 -0.2060032636 7.464498317e-39
0.07222022861 -0.7573521137 -0.02168396115 7.464498317e-39
0.1058270037 -0.7810217142 0.2049396932 7.464498317e-39
0.02075860277 -0.7725946903 0.08737665415 7.281903522e-39
-0.1468894035 -0.1756660789 8.237082511e-05 7.281903522e-39
0.1481166333 -0.7404247522 -0.1333427727 7.281903522e-39
0.03984599933 -0.7647818327 0.02779778838 7.281903522e-39
-0.08582341671 -0.1086407229 -0.1642494202 7.281903522e-39
0.09344659746 -0.7519904375 -0.0584705472 7.281903522e-39
-0.1404250562 -0.1285933852 -0.01079349779 7.281903522e-39
0.1262739748 -0.7302367687 -0.2346089333 7.281903522e-39
0.126890257 -0.7457864285 -0.09655623138 7.099307325e-39
0.1157423705 -0.7478544712 -0.08386097103 7.099307325e-39
0.07205718011 -0.7274785042 -0.2863932848 7.099307325e-39
0.04153176397 -0.7815570831 0.17724666 7.099307325e-39
0.1491861045 -0.7416503429 -0.1219466478 7.099307325e-39
0.08641348034 -0.7290872335 -0.2649000883 7.099307325e-39
0.09254016727 -0.7806385159 0.1948426068 7.099307325e-39
-0.1555116177 -0.05480053276 0.05304035917 7.099307325e-39
0.08443759382 -0.7565097213 -0.02298304439 6.91671253e-39
0.04198494181 -0.7672330141 0.0505900979 6.91671253e-39
-0.1482022852 -0.1503791213 0.01712857932 6.91671253e-39
0.06703598052 -0.7810977697 0.1860446334 6.91671253e-39
-0.0756291151 -0.05930773541 -0.1890097558 6.91671253e-39
0.05313286558 -0.7651649714 0.03789488971 6.91671253e-39
0.03511494026 -0.7742034197 0.1088698506 6.91671253e-39
-0.1454331726 -0.0515068993 0.02894897014 6.91671253e-39
0.09558553249 -0.7544416785 -0.03567829728 6.734117735e-39
0.1056639552 -0.7511480451 -0.05976963043 6.734117735e-39
-0.1506657749 -0.1158461273 0.03225943074 6.734117735e-39
0.07542864233 -0.7610289454 0.01250442863 6.734117735e-39
0.08320506662 -0.7254104614 -0.2990885079 6.734117735e-39
-0.08368448913 -0.1110919267 -0.1414571404 6.734117735e-39
0.1836992353 -0.7366718054 -0.1486361623 6.734117735e-39
-0.084510535 -0.1339276731 -0.1812956333 6.734117735e-39
-0.1317553371 -0.1950326711 -0.1430041343 6.55152294e-39
0.151325047 -0.7441015244 -0.09915439785 6.55152294e-39
-0.148283422 -0.1423586905 0.02660937421 6.55152294e-39
-0.07582612336 -0.09732665122 -0.1788600087 6.55152294e-39
-0.1381238401 -0.1470854878 -0.006962783635 6.55152294e-39
-0.1531292647 -0.08131310344 0.04739025235 6.55152294e-39
-0.08352220058 -0.127132833 -0.1604187042 6.55152294e-39
0.1290291995 -0.7482376099 -0.07376392186 6.55152294e-39
0.1847687066 -0.7378974557 -0.1372400224 6.368926744e-39
0.17362082 -0.7399654984 -0.1245448142 6.368926744e-39
-0.09324131906 -0.1084484532 -0.1654386818 6.368926744e-39
0.06535022706 -0.7643225789 0.03659580648 6.368926744e-39
-0.1495151669 -0.1250921786 0.03417478502 6.368926744e-39
-0.1442825645 -0.06075298786 0.03086433373 6.368926744e-39
-0.07673330605 -0.1121419594 -0.2092176974 6.368926744e-39
0.03832334653 -0.7778802514 0.1430582404 6.368926744e-39
-0.1544421464 -0.05602613091 0.0644364804 6.186331949e-39
-0.07447850704 -0.06855380535 -0.1870943904 6.186331949e-39
0.117881313 -0.7503056526 -0.06106871367 6.186331949e-39
0.1496392787 -0.7273263335 -0.2486032248 6.186331949e-39
-0.1422869563 -0.212650314 0.007743799128 6.186331949e-39
0.1794213504 -0.7317694426 -0.1942207068 6.186331949e-39
0.04733229429 -0.7733610272 0.1075707674 6.186331949e-39
0.1412465572 -0.7473951578 -0.07506300509 6.186331949e-39
0.1363524497 -0.7269431353 -0.2587003112 6.003737154e-39
-0.144750461 -0.1781172752 0.02287464961 6.003737154e-39
0.1679833233 -0.7780351639 0.2098404169 6.003737154e-39
0.06641969085 -0.7655481696 0.04799193144 6.003737154e-39
0.1858381778 -0.7391230464 -0.1258438826 6.003737154e-39
-0.08154554665 -0.113543123 -0.1186648905 6.003737154e-39
0.1937776506 -0.7333782315 -0.1727275252 6.003737154e-39
-0.08162668347 -0.1055226773 -0.1091840863 6.003737154e-39
-0.1431319565 -0.06999903172 0.03277968988 5.820783626e-39
0.1757597625 -0.7424166799 -0.1017525569 5.820783626e-39
-0.1401480138 -0.2151015103 0.03053607792 5.820783626e-39
0.07818386704 -0.779029727 0.1733494103 5.820783626e-39
0.1099418327 -0.7560504675 -0.01418508589 5.820783626e-39
-0.07360602915 -0.1077982932 -0.1655485034 5.820783626e-39
-0.1533726752 -0.05725172907 0.07583260536 5.820783626e-39
-0.1395178586 -0.1137780994 0.01956422254 5.820783626e-39
-0.110772416 -0.1656096429 -0.1513483822 5.63818743e-39
0.1802007556 -0.7771927118 0.2085413337 5.63818743e-39
0.06962809712 -0.7692250013 0.08218032122 5.63818743e-39
-0.1359037459 -0.1575571597 0.006348728668 5.63818743e-39
-0.1389162689 -0.2323680073 0.02297066897 5.63818743e-39
-0.1389974058 -0.2243475467 0.0324514322 5.63818743e-39
0.2049255967 -0.7313102484 -0.1854227483 5.63818743e-39
0.1414096653 -0.7772687674 0.1896462739 5.63818743e-39
-0.1484456956 -0.1263177693 0.0455709137 5.455592635e-39
-0.07550156116 -0.1294084489 -0.2167831212 5.455592635e-39
0.1331440508 -0.7232663631 -0.292888701 5.455592635e-39
-0.1306047291 -0.2042787075 -0.1410887837 5.455592635e-39
-0.1388351321 -0.2403884679 0.01348986942 5.455592635e-39
-0.08113986254 -0.1536453813 -0.1660687923 5.455592635e-39
-0.08023266494 -0.1388300657 -0.1357110739 5.455592635e-39
-0.1390785426 -0.2163271159 0.04193223268 5.455592635e-39
0.06168862805 -0.7749698162 0.1290639639 5.272997839e-39
-0.1383672506 -0.1230241433 0.02147957683 5.272997839e-39
-0.07261770964 -0.1010034457 -0.1446715742 5.272997839e-39
-0.07253657281 -0.1090238914 -0.1541523784 5.272997839e-39
0.1669138521 -0.7768095732 0.198444277 5.272997839e-39
0.1730045229 -0.7244158983 -0.2625975311 5.272997839e-39
-0.1496774405 -0.1090512574 0.05313632637 5.272997839e-39
0.2027866542 -0.7288590074 -0.208215028 5.272997839e-39
-0.1522220671 -0.06649781764 0.07774797082 5.090401643e-39
0.2192818969 -0.7329189777 -0.1639295369 5.090401643e-39
-0.1366961896 -0.2428396642 0.03628214821 5.090401643e-39
-0.1379279345 -0.2255731523 0.04384758696 5.090401643e-39
-0.07245542109 -0.1170443594 -0.1636331528 5.090401643e-39
-0.1420624852 -0.07122462988 0.04417581484 5.090401643e-39
0.1020023599 -0.7617952824 0.03269855678 5.090401643e-39
0.1322376132 -0.751914382 -0.03957554698 5.090401643e-39
0.201717183 -0.7276334167 -0.2196111381 4.907806848e-39
-0.07225842774 -0.07902544737 -0.1737829149 4.907806848e-39
-0.1372166425 -0.1322701871 0.02339493483 4.907806848e-39
-0.07998925447 -0.1628914475 -0.1641534269 4.907806848e-39
0.2160734832 -0.7292422056 -0.1981179416 4.907806848e-39
-0.1312201768 -0.2025618404 0.004529361613 4.907806848e-39
-0.1485268325 -0.1182973236 0.05505168438 4.907806848e-39
-0.07825599611 -0.1252403855 -0.09395724535 4.907806848e-39
-0.1007751301 -0.1542955488 -0.165958941 4.725212053e-39
-0.142143622 -0.06320419163 0.05365664139 4.725212053e-39
-0.1366150528 -0.2508601248 0.02680138126 4.725212053e-39
-0.08094281703 -0.1156264991 -0.1762185395 4.725212053e-39
-0.1348342746 -0.1587827653 0.01774485409 4.725212053e-39
0.07390598208 -0.7741273642 0.1277648807 4.725212053e-39
-0.1510714591 -0.0757438615 0.07966333628 4.725212053e-39
0.1442919374 -0.7211983204 -0.3055838943 4.725212053e-39
-0.08196590841 -0.1764811426 -0.2059072554 4.542257124e-39
0.215004012 -0.7280166149 -0.2095140964 4.542257124e-39
-0.1096218079 -0.1748556793 -0.1494330168 4.542257124e-39
-0.07328148186 -0.1398801208 -0.2034716308 4.542257124e-39
0.2325687259 -0.7333021164 -0.1538324952 4.542257124e-39
-0.06234224886 -0.05969090015 -0.1789127141 4.542257124e-39
0.09299335629 -0.7663145065 0.06818601489 4.542257124e-39
0.1575787663 -0.7215815187 -0.2954868674 4.542257124e-39
0.1841524243 -0.7223478556 -0.2752927542 4.359662329e-39
-0.1206074506 -0.1929646283 -0.1556993574 4.359662329e-39
-0.07710538805 -0.1344864219 -0.09204189479 4.359662329e-39
0.09406282008 -0.7675400972 0.07958215475 4.359662329e-39
-0.140993014 -0.07245023549 0.05557199568 4.359662329e-39
-0.1376033872 -0.2576549649 0.005924459547 4.359662329e-39
0.1565092951 -0.7203559279 -0.3068829775 4.359662329e-39
0.1343765557 -0.754365623 -0.01678323746 4.359662329e-39
0.1142197177 -0.7609528303 0.03139947355 4.177066133e-39
0.1041413024 -0.7642464638 0.0554908216 4.177066133e-39
0.1566724032 -0.7502295375 -0.04217371345 4.177066133e-39
0.3605429828 -0.716681838 -0.2364992052 4.177066133e-39
-0.1325330585 -0.177274853 0.02157556638 4.177066133e-39
-0.07987334579 -0.1168520898 -0.1648223996 4.177066133e-39
0.1697961241 -0.7207390666 -0.2967859507 4.177066133e-39
0.3551956415 -0.7105538249 -0.2934798896 4.177066133e-39
0.2272213697 -0.7271741629 -0.2108131796 3.994471337e-39
0.2117955983 -0.7243397832 -0.2437025011 3.994471337e-39
-0.1486891061 -0.1022564173 0.07401327789 3.994471337e-39
-0.07768803835 -0.1813835353 -0.1603227109 3.994471337e-39
-0.0721308738 -0.1491261572 -0.2015562803 3.994471337e-39
-0.07595477998 -0.1437324584 -0.09012653679 3.994471337e-39
-0.08081530035 -0.1857272089 -0.20399189 3.994471337e-39
-0.07669970393 -0.1745886952 -0.1394457966 3.994471337e-39
-0.07979220897 -0.1248725355 -0.174303174 3.81151781e-39
0.1152891889 -0.762178421 0.04279559851 3.81151781e-39
-0.1398424059 -0.08169627935 0.05748734996 3.81151781e-39
0.1687266529 -0.7195134759 -0.3081820607 3.81151781e-39
0.1015491188 -0.7761193514 0.1593551338 3.81151781e-39
-0.07867635787 -0.1881784201 -0.1811996102 3.81151781e-39
0.1780618131 -0.7747415304 0.1857490242 3.81151781e-39
-0.07579250634 -0.1597733796 -0.1090881079 3.81151781e-39
0.2250824273 -0.7247229218 -0.2336054593 3.628921614e-39
0.2096566558 -0.7218886018 -0.2664947808 3.628921614e-39
-0.1380902082 -0.209532246 0.06280912459 3.628921614e-39
-0.07760688663 -0.1894040108 -0.1698034853 3.628921614e-39
-0.07571136951 -0.1677938402 -0.1185688674 3.628921614e-39
-0.1324183047 -0.2477420568 0.08186668158 3.628921614e-39
-0.07563023269 -0.1758143008 -0.1280496418 3.628921614e-39
-0.06833982468 -0.1059058383 -0.0990870446 3.628921614e-39
0.2256987244 -0.7402725816 -0.09555270523 3.446326818e-39
-0.1349965632 -0.142741859 0.0367064178 3.446326818e-39
-0.07480417192 -0.1529785395 -0.08821117878 3.446326818e-39
-0.07098026574 -0.1583722234 -0.1996409148 3.446326818e-39
0.3419088125 -0.7101706266 -0.3035769463 3.446326818e-39
-0.1280117631 -0.2062386423 0.03871779144 3.446326818e-39
-0.1489325166 -0.07819505781 0.1024555862 3.446326818e-39
-0.1314635873 -0.1785004437 0.03297171742 3.446326818e-39
-0.126861155 -0.2154846787 0.04063314945 3.26337189e-39
-0.07464189827 -0.1690194458 -0.1071727425 3.26337189e-39
-0.05995988846 -0.08620347828 -0.1845627725 3.26337189e-39
-0.07456076145 -0.1770398915 -0.1166535169 3.26337189e-39
0.2479945123 -0.7361364961 -0.1209431738 3.26337189e-39
-0.06710807979 -0.1231723577 -0.1066524535 3.26337189e-39
-0.1291623712 -0.1969925761 0.03680243343 3.26337189e-39
-0.06884132326 -0.1608234346 -0.1768486351 3.26337189e-39
-0.1221146137 -0.1168554723 0.3778782487 3.080777095e-39
-0.1324994415 -0.2397216111 0.09134750068 3.080777095e-39
-0.1451561451 -0.1380150169 0.07027857006 3.080777095e-39
-0.1387729347 -0.0829218775 0.06888347864 3.080777095e-39
-0.06727035344 -0.1071314365 -0.08769088984 3.080777095e-39
-0.1194568425 -0.2022106797 -0.1537839919 3.080777095e-39
-0.07349129021 -0.1782654822 -0.1052573919 3.080777095e-39
0.2379160821 -0.7394301295 -0.09685178101 3.080777095e-39
-0.07538682222 -0.1998756528 -0.1564919949 2.898180898e-39
0.1259838939 -0.7744344473 0.1567569673 2.898180898e-39
0.2670819461 -0.728323698 -0.1805220246 2.898180898e-39
-0.1477819085 -0.08744110167 0.1043709368 2.898180898e-39
-0.06876018643 -0.1688438654 -0.1863294095 2.898180898e-39
-0.1381713599 -0.2015117854 0.07228989899 2.898180898e-39
0.1206365451 -0.7683064342 0.09977629781 2.898180898e-39
0.2495171428 -0.7230380774 -0.2362036258 2.898180898e-39
0.3339693248 -0.7159154415 -0.2566933036 2.715227371e-39
-0.06595747173 -0.1324183941 -0.104737103 2.715227371e-39
0.3318303823 -0.7134642601 -0.2794855833 2.715227371e-39
0.2053787857 -0.7169861794 -0.3120793104 2.715227371e-39
-0.04012758285 -0.04753439873 -0.1948223561 2.715227371e-39
0.3296914399 -0.7110130787 -0.302277863 2.715227371e-39
-0.07431733608 -0.2011012435 -0.145095855 2.715227371e-39
0.3361082673 -0.7183666825 -0.2339010388 2.715227371e-39
-0.1478630453 -0.07942065597 0.1138517559 2.532632576e-39
-0.139321968 -0.192265749 0.07037454098 2.532632576e-39
-0.1231840849 -0.1156298816 0.3664821088 2.532632576e-39
-0.07324787974 -0.2023268491 -0.1336997151 2.532632576e-39
-0.06587633491 -0.1404388398 -0.1142178923 2.532632576e-39
0.2186656147 -0.717369318 -0.3019822836 2.532632576e-39
-0.07127121091 -0.1887371242 -0.09194587171 2.532632576e-39
-0.1351588368 -0.1267009377 0.05566795543 2.532632576e-39
-0.1314299703 -0.2409472018 0.1027436256 2.349677647e-39
-0.1363905817 -0.1094344258 0.06323342025 2.349677647e-39
0.1397239119 -0.7604936361 0.04019744694 2.349677647e-39
0.2803687751 -0.7287068367 -0.1704249531 2.349677647e-39
-0.06488800049 -0.1336439848 -0.09334097803 2.349677647e-39
-0.04889314622 -0.07611498237 -0.1877772063 2.349677647e-39
-0.1479441822 -0.07140021026 0.1233325303 2.349677647e-39
0.1609502882 -0.7551319599 0.003410845995 2.349677647e-39
-0.06480686367 -0.1416644454 -0.1028217524 2.167082852e-39
0.2280007154 -0.7725974321 0.1919488907 2.167082852e-39
-0.1467124373 -0.08866670728 0.1157671213 2.167082852e-39
-0.04897428304 -0.06809453666 -0.1782964319 2.167082852e-39
0.2893777192 -0.7241876125 -0.205912441 2.167082852e-39
0.1317844242 -0.766238451 0.08708107471 2.167082852e-39
-0.06496913731 -0.125623554 -0.08386017382 2.167082852e-39
0.3238909245 -0.719209075 -0.2326019704 2.167082852e-39
-0.1377034634 -0.08414747566 0.0802796036 1.984127923e-39
0.1238449514 -0.7719832659 0.1339646578 1.984127923e-39
-0.1242535561 -0.114404276 0.3550859988 1.984127923e-39
0.2595956624 -0.7197444439 -0.2602949739 1.984127923e-39
-0.0753056556 -0.2078961134 -0.1659727693 1.984127923e-39
0.3185435832 -0.7130811214 -0.2895826399 1.984127923e-39
-0.07020173967 -0.1899627298 -0.08054974675 1.984127923e-39
0.317474097 -0.7118555307 -0.3009788096 1.984127923e-39
-0.1359512657 -0.2119834572 0.08560143411 1.801533128e-39
0.1508717984 -0.7584255934 0.02750223875 1.801533128e-39
-0.1364717185 -0.1014139801 0.07271419466 1.801533128e-39
0.1249144301 -0.7732088566 0.1453608572 1.801533128e-39
0.2585261762 -0.7185188532 -0.2716911137 1.801533128e-39
-0.1224210039 -0.2364279777 0.06725611538 1.801533128e-39
-0.122177586 -0.2604893446 0.03881378099 1.801533128e-39
-0.1441678107 -0.1312201619 0.09115546942 1.801533128e-39
-0.0699583143 -0.2140240967 -0.1089920849 1.618578199e-39
-0.1377846003 -0.07612702996 0.089760378 1.618578199e-39
-0.1467935741 -0.08064625412 0.1252478957 1.618578199e-39
0.3260298669 -0.7216602564 -0.2098096907 1.618578199e-39
-0.05773981661 -0.09667512029 -0.1712512821 1.618578199e-39
0.1620197445 -0.7563575506 0.01480697095 1.618578199e-39
0.1418628395 -0.7629448175 0.06298969686 1.618578199e-39
-0.06381852925 -0.1348695904 -0.08194482327 1.618578199e-39
0.2835771739 -0.7323836088 -0.1362365484 1.435982003e-39
0.2994561493 -0.7208939791 -0.2300037891 1.435982003e-39
0.2947250903 -0.7303155661 -0.1489317417 1.435982003e-39
-0.1258728206 -0.2086898237 0.06151004508 1.435982003e-39
-0.07028287649 -0.1819422841 -0.07106895745 1.435982003e-39
0.3270993531 -0.7228859067 -0.1984135509 1.435982003e-39
-0.08740713447 -0.1626991928 -0.1653426737 1.435982003e-39
0.3138124347 -0.7225027084 -0.2085105926 1.435982003e-39
0.1429323107 -0.7641704082 0.07438582182 1.253028475e-39
-0.06790052354 -0.2084548473 -0.07671903819 1.253028475e-39
-0.1253230274 -0.1131786853 0.3436898589 1.253028475e-39
-0.126827538 -0.2779313922 0.1104050577 1.253028475e-39
0.2014270574 -0.7718310356 0.1717547476 1.253028475e-39
-0.1331632286 -0.2785982788 0.03254745156 1.253028475e-39
-0.1340893656 -0.1279265434 0.06706413627 1.253028475e-39
0.3095345497 -0.7176003456 -0.2540951371 1.253028475e-39
0.2696740627 -0.7164508104 -0.2843863368 1.070432279e-39
0.2840303779 -0.7180595994 -0.2628931105 1.070432279e-39
0.3073956072 -0.7151491642 -0.2768874168 1.070432279e-39
-0.06349396706 -0.1669514179 -0.1198679507 1.070432279e-39
0.2522723973 -0.7410389185 -0.07535861433 1.070432279e-39
-0.1468747109 -0.07262580842 0.1347286552 1.070432279e-39
-0.0973233059 -0.1820337325 -0.1602128744 1.070432279e-39
-0.09625383466 -0.1832593381 -0.1488167346 1.070432279e-39
-0.07629399002 -0.2146909833 -0.1868496984 8.874787512e-40
0.2553177774 -0.7148420811 -0.3058795333 8.874787512e-40
0.2634202838 -0.7389708757 -0.08805382252 8.874787512e-40
0.2269312441 -0.7713717818 0.1805526912 8.874787512e-40
-0.1444112211 -0.1071588099 0.1195978373 8.874787512e-40
-0.07201610506 -0.2195933759 -0.141265139 8.874787512e-40
-0.06250564754 -0.160156548 -0.09899103642 8.874787512e-40
0.3041872084 -0.7114723921 -0.3110758364 8.874787512e-40
-0.0730855912 -0.2183677554 -0.1526612788 7.045238224e-40
0.3031177223 -0.7102468014 -0.3224719763 7.045238224e-40
-0.1457241029 -0.08187185228 0.1366440058 7.045238224e-40
-0.0664242357 -0.1332761645 -0.1736868918 7.045238224e-40
-0.1418665946 -0.1497122794 0.09498618543 7.045238224e-40
-0.1329387575 -0.1371725798 0.06897948682 7.045238224e-40
-0.1281404197 -0.2526444495 0.127451241 7.045238224e-40
-0.1354833841 -0.09461911768 0.09359107912 7.045238224e-40
-0.06218108535 -0.1922383755 -0.1369141638 5.219290273e-40
0.2951782644 -0.7159916162 -0.2755883336 5.219290273e-40
0.1641587019 -0.758808732 0.03759928048 5.219290273e-40
-0.1210269853 -0.2697353959 0.04072913527 5.219290273e-40
-0.06637783349 -0.1953564286 -0.1919794977 5.219290273e-40
-0.1220964566 -0.2685097754 0.02933301032 5.219290273e-40
-0.1199575141 -0.2709609866 0.05212529004 5.219290273e-40
0.1551496685 -0.7633279562 0.07308673859 5.219290273e-40
-0.06119275093 -0.1854435056 -0.1160372347 3.389740985e-40
-0.1109666973 -0.1147874445 0.3651830256 3.389740985e-40
0.2909003794 -0.7110891938 -0.321172893 3.389740985e-40
-0.06530836225 -0.1965820342 -0.1805833429 3.389740985e-40
-0.1259539574 -0.2006693631 0.07099081576 3.389740985e-40
0.3303077519 -0.7265626788 -0.1642251611 3.389740985e-40
-0.02799135819 -0.03867152333 -0.1866406649 3.389740985e-40
-0.06111161411 -0.1934639812 -0.1255180091 3.389740985e-40
-0.1419477314 -0.1416918039 0.1044669598 1.56020571e-40
-0.06316941977 -0.1990332305 -0.1577910781 1.56020571e-40
0.1562191397 -0.7645535469 0.08448290825 1.56020571e-40
-0.1186627895 -0.1445936263 0.3836243153 1.56020571e-40
0.1976023614 -0.7526046038 -0.0004863888025 1.56020571e-40
-0.1338123232 -0.2144346535 0.108393684 1.56020571e-40
-0.1178185716 -0.273412168 0.07491753995 1.56020571e-40
-0.07086549699 -0.2288393974 -0.1393497735 1.56020571e-40
-0.1356456578 -0.07857822627 0.1125526726 6.490113838e-41
-0.06452982128 -0.2281725705 -0.06149216741 6.490113838e-41
-0.03675689176 -0.06725210696 -0.1795955151 6.490113838e-41
-0.1435040236 -0.0923434943 0.1499554962 6.490113838e-41
-0.1282551736 -0.1821772456 0.06716009974 6.490113838e-41
-0.1252418905 -0.1211991236 0.3342090547 6.490113838e-41
0.2990029752 -0.7352179885 -0.1033471897 6.490113838e-41
-0.1395653784 -0.1682043821 0.09881690145 6.490113838e-41
-0.1120361686 -0.1135618463 0.3537869155 2.496469266e-40
-0.1225832775 -0.2203870714 0.08621770144 2.496469266e-40
-0.1318692863 -0.1383981854 0.08037561178 2.496469266e-40
-0.1288042068 -0.291521132 0.06865121424 2.496469266e-40
-0.1277347356 -0.2927467227 0.0800473392 2.496469266e-40
-0.1266652644 -0.2939723134 0.09144346416 2.496469266e-40
0.3335161507 -0.7302395105 -0.1300367415 2.496469266e-40
-0.0592160821 -0.1718538105 -0.07428339124 2.496469266e-40
-0.1255957931 -0.2951979041 0.1028396487 4.340353837e-40
-0.1361135542 -0.195942536 0.104562968 4.340353837e-40
0.3223682046 -0.7323075533 -0.1173415333 4.340353837e-40
0.3112203479 -0.734375596 -0.104646273 4.340353837e-40
-0.1309431493 -0.2890699208 0.04585893452 4.340353837e-40
0.2321155518 -0.7476261854 -0.02717588842 4.340353837e-40
-0.132742852 -0.2156602442 0.119789809 4.340353837e-40
-0.03552514315 -0.08451861888 -0.1871609241 4.340353837e-40
-0.1307515204 -0.09903024137 0.2961899638 6.184224396e-40
-0.06757596135 -0.24053666 -0.1146421432 6.184224396e-40
-0.06420416385 -0.1437478065 -0.1603754163 6.184224396e-40
-0.05683372915 -0.1983663738 -0.07993347943 6.184224396e-40
-0.1177374274 -0.2814326286 0.065436773 6.184224396e-40
-0.07518977672 -0.1618567556 -0.166641742 6.184224396e-40
-0.1422722787 -0.1096100062 0.1423900872 6.184224396e-40
-0.06230974197 -0.2386441827 -0.04818068817 6.184224396e-40
-0.06971488893 -0.2380854785 -0.137434423 8.028094954e-40
-0.1169925109 -0.2505764365 0.1147560328 8.028094954e-40
-0.1240912825 -0.1304451823 0.3361243904 8.028094954e-40
-0.1237814054 -0.2655673027 0.1635550261 8.028094954e-40
-0.1320315599 -0.122357294 0.09933716059 8.028094954e-40
-0.05691486597 -0.1903459132 -0.07045267522 8.028094954e-40
-0.1412028074 -0.1108356044 0.1537862122 8.028094954e-40
0.2443329096 -0.7467837334 -0.02847497165 8.028094954e-40
-0.1283026934 -0.2366035432 0.1464128196 9.871979525e-40
-0.0651460886 -0.2126229405 -0.1995449066 9.871979525e-40
-0.07506224513 -0.2319574654 -0.1944151074 9.871979525e-40
-0.05453251302 -0.2168584764 -0.07610276341 9.871979525e-40
-0.05659031868 -0.2224277258 -0.1083758175 9.871979525e-40
-0.1227119341 -0.2667928934 0.174951151 9.871979525e-40
0.2247923017 -0.7689206004 0.1577604413 9.871979525e-40
-0.1251607537 -0.1292195916 0.3247282803 9.871979525e-40
-0.0597987324 -0.2187509239 -0.1425642222 1.171585008e-39
-0.1119550318 -0.1215822995 0.3443061411 1.171585008e-39
-0.1328240037 -0.2076397836 0.1292705834 1.171585008e-39
-0.08403644711 -0.1824168861 -0.1501158178 1.171585008e-39
0.3245071471 -0.7347587347 -0.09454923123 1.171585008e-39
-0.1321938336 -0.1063163802 0.1182987541 1.171585008e-39
-0.05552084744 -0.2236533165 -0.09697968513 1.171585008e-39
-0.1086654812 -0.133279562 0.3690137565 1.171585008e-39
-0.03445567191 -0.08574421704 -0.1757647991 1.355972064e-39
-0.06321693957 -0.2534595132 -0.07853837311 1.355972064e-39
-0.1400521994 -0.1200816482 0.1557015628 1.355972064e-39
0.2119586617 -0.7542134523 0.02100683749 1.355972064e-39
-0.1309620887 -0.1235828847 0.1107332855 1.355972064e-39
-0.01454225369 -0.05509558693 -0.195505172 1.355972064e-39
0.2910634577 -0.7409628034 -0.05646361411 1.355972064e-39
-0.1322749704 -0.09829591215 0.1277795136 1.355972064e-39
-0.1213179156 -0.3001003265 0.1484241486 1.540360521e-39
-0.1216424629 -0.2680185139 0.186347276 1.540360521e-39
-0.1284503043 -0.1175223291 0.3000206649 1.540360521e-39
-0.1375075728 -0.1626351178 0.1310899705 1.540360521e-39
-0.1310432255 -0.1155624241 0.1202141047 1.540360521e-39
-0.1125523522 -0.2715197206 0.1413789988 1.540360521e-39
-0.126230225 -0.1279940009 0.3133321404 1.540360521e-39
-0.1064454019 -0.143751204 0.382325232 1.540360521e-39
-0.1215949431 -0.2135922313 0.1070946008 1.724747577e-39
-0.07403916866 -0.171102792 -0.1647263914 1.724747577e-39
-0.1319314837 -0.2958647907 0.02498201467 1.724747577e-39
-0.1123900712 -0.2875606418 0.12241745 1.724747577e-39
-0.04322124273 -0.1143248007 -0.1687196493 1.724747577e-39
-0.07070322335 -0.2448803186 -0.1583113372 1.724747577e-39
-0.1379943937 -0.1145124063 0.1879746467 1.724747577e-39
-0.1298114806 -0.1328289211 0.1126486361 1.724747577e-39
-0.1329051405 -0.1996193379 0.1387514025 1.909134633e-39
-0.05330076814 -0.2341249883 -0.08366817236 1.909134633e-39
0.2921329439 -0.7421883941 -0.04506742954 1.909134633e-39
-0.1352063566 -0.1811272204 0.1349206865 1.909134633e-39
0.1838623434 -0.7665455341 0.1160731316 1.909134633e-39
-0.1261637509 -0.2390547246 0.1692050844 1.909134633e-39
0.1849318147 -0.7677711248 0.1274692714 1.909134633e-39
-0.07296969742 -0.1723283976 -0.1533302665 1.909134633e-39
-0.1240101457 -0.1384656429 0.3266436458 2.09352309e-39
-0.1317398548 -0.1058250815 0.27531299 2.09352309e-39
-0.1170400307 -0.3050026894 0.194008708 2.09352309e-39
-0.1155173481 -0.2919042706 0.07874825597 2.09352309e-39
-0.127347976 -0.1673619598 0.09751781821 2.09352309e-39
-0.06078706682 -0.2255457938 -0.1634411514 2.09352309e-39
-0.1306850612 -0.2100909799 0.152062878 2.09352309e-39
-0.1300548911 -0.1087675765 0.141091004 2.09352309e-39
-0.1376698464 -0.1465941966 0.1500515044 2.277910146e-39
-0.1140939742 -0.1191310883 0.3215138316 2.277910146e-39
-0.1238961592 -0.1951001137 0.1032638848 2.277910146e-39
-0.06206633151 -0.2627055943 -0.07662302256 2.277910146e-39
-0.1152109653 -0.1723317802 0.3893703818 2.277910146e-39
-0.119795233 -0.2870019078 0.03316372633 2.277910146e-39
-0.05116182566 -0.2365761697 -0.06087590009 2.277910146e-39
-0.1299737543 -0.1167880222 0.1316102296 2.277910146e-39
-0.114982225 -0.2994334698 0.226281777 2.462297202e-39
0.2698371112 -0.7463244796 -0.01967701316 2.462297202e-39
0.2140975893 -0.7566646338 0.04379908741 2.462297202e-39
-0.1180283651 -0.3117975593 0.1731318086 2.462297202e-39
-0.1049382389 -0.21986036 -0.1512523592 2.462297202e-39
-0.1303794384 -0.0766857788 0.1790141314 2.462297202e-39
-0.05198676884 -0.1429053843 -0.1616744995 2.462297202e-39
-0.06634421647 -0.2578031719 -0.122207582 2.462297202e-39
-0.1140603572 -0.1815778464 0.3912857473 2.646685659e-39
-0.1356931776 -0.1330045164 0.1918053478 2.646685659e-39
-0.1071238667 -0.2856681645 0.1888789088 2.646685659e-39
-0.06955261528 -0.2541263998 -0.1563959867 2.646685659e-39
-0.1305892467 -0.1150711328 0.2772283554 2.646685659e-39
-0.1328093261 -0.1045994908 0.2639168799 2.646685659e-39
-0.1200861707 -0.3173668385 0.1408587396 2.646685659e-39
-0.05642804503 -0.238468647 -0.1273373663 2.646685659e-39
-0.06848315895 -0.2553519905 -0.1449998617 2.830713982e-39
-0.1158894226 -0.3142487705 0.1959240586 2.830713982e-39
-0.1292288303 -0.08593182266 0.180929482 2.830713982e-39
0.2586892247 -0.7483924627 -0.006981804967 2.830713982e-39
-0.1353686303 -0.1650863141 0.1538822204 2.830713982e-39
-0.1319168061 -0.192824468 0.159628287 2.830713982e-39
-0.05108069628 -0.2445966303 -0.07035668939 2.830713982e-39
-0.1354497671 -0.1570658684 0.1633629948 2.830713982e-39
-0.1137849316 -0.2404205054 -0.1347264349 3.015101038e-39
0.3054197729 -0.7425715923 -0.03497038782 3.015101038e-39
-0.1228595376 -0.1477116942 0.3285589814 3.015101038e-39
0.2359402478 -0.7668526173 0.145065248 3.015101038e-39
-0.01224103477 -0.07358769327 -0.191674456 3.015101038e-39
-0.06840200722 -0.2633724213 -0.1544806212 3.015101038e-39
-0.1297114044 -0.3063364327 0.03829352185 3.015101038e-39
-0.1173499078 -0.1698805839 0.3665781319 3.015101038e-39
-0.1286419332 -0.3075620532 0.04968964681 3.199488094e-39
-0.1360177398 -0.1009226888 0.2297284901 3.199488094e-39
-0.1275914013 -0.143300578 0.1259601712 3.199488094e-39
-0.1285461187 -0.2125421762 0.1748551279 3.199488094e-39
-0.06626306474 -0.2658236325 -0.1316883415 3.199488094e-39
-0.134299159 -0.1663119197 0.1652783453 3.199488094e-39
-0.1091005281 -0.2992578745 0.1471250653 3.199488094e-39
-0.06091572344 -0.2719516158 -0.0747076571 3.199488094e-39
-0.05190563202 -0.15092583 -0.1711552739 3.383517819e-39
-0.1274766475 -0.213767767 0.1862512529 3.383517819e-39
-0.1348671317 -0.1101687402 0.2316438407 3.383517819e-39
-0.0651936084 -0.2670492232 -0.1202922165 3.383517819e-39
-0.1294386387 -0.1243171915 0.2791437209 3.383517819e-39
-0.1247705445 -0.2585294247 -0.1409927756 3.383517819e-39
-0.06412413716 -0.2682748139 -0.1088960618 3.383517819e-39
-0.1264071763 -0.2149933726 0.1976474375 3.383517819e-39
-0.1332296878 -0.1675375104 0.1766744703 3.567904875e-39
-0.06177540123 -0.2323406637 -0.1843180656 3.567904875e-39
-0.113993898 -0.2926385999 0.2471586764 3.567904875e-39
-0.09280201048 -0.2109974921 -0.143070668 3.567904875e-39
-0.06067231297 -0.2960129678 -0.1031499952 3.567904875e-39
-0.1268464774 -0.112444371 0.1752794236 3.567904875e-39
-0.1158082858 -0.3222692013 0.1864432842 3.567904875e-39
-0.1269276142 -0.1044239104 0.184760198 3.567904875e-39
-0.1297778636 -0.1952756643 0.1824205518 3.75229193e-39
-0.1074337363 -0.1505460739 0.3614483476 3.75229193e-39
-0.09236106277 -0.3412119746 0.4466391206 3.75229193e-39
-0.0607534498 -0.287992537 -0.09366922826 3.75229193e-39
-0.06284487247 -0.2311150432 -0.1957141906 3.75229193e-39
-0.1275577843 -0.2057473361 0.1957320869 3.75229193e-39
0.2226533592 -0.7664693594 0.1349681914 3.75229193e-39
-0.1184529886 -0.1062082499 0.2854101062 3.75229193e-39
-0.0629735291 -0.2775208652 -0.1069807112 3.936320254e-39
-0.1241870895 -0.2254650444 0.2109589279 3.936320254e-39
-0.0489417538 -0.2470478415 -0.04756440967 3.936320254e-39
-0.11436674 -0.3011503518 0.08066362143 3.936320254e-39
-0.1310096085 -0.1780091822 0.1899860203 3.936320254e-39
-0.05206902325 -0.2513914704 -0.09123361111 3.936320254e-39
-0.1337976605 -0.1113943309 0.2430399656 3.936320254e-39
-0.1161992997 -0.1791266501 0.3684934974 3.936320254e-39
0.2385323644 -0.7549797297 0.04120092094 4.120708711e-39
-0.1151444986 -0.2833925486 0.2452433258 4.120708711e-39
-0.1111583263 -0.3048271537 0.114852041 4.120708711e-39
-0.1058921143 -0.3029347062 0.1813134998 4.120708711e-39
-0.1061355248 -0.2788733244 0.2097558528 4.120708711e-39
-0.1272185445 -0.134788841 0.292455256 4.120708711e-39
-0.06083458662 -0.2799720764 -0.0841884613 4.120708711e-39
-0.1128432825 -0.3018846512 0.2490740269 4.120708711e-39
-0.1127957702 -0.2474583834 0.1698213518 4.304737034e-39
-0.1264883131 -0.2069729269 0.2071282119 4.304737034e-39
-0.110088855 -0.3060527444 0.126248166 4.304737034e-39
-0.1255335957 -0.1377313286 0.1582331955 4.304737034e-39
-0.05425548553 -0.3033665717 -0.03477318585 4.304737034e-39
-0.02108770609 -0.0941478312 -0.1751485318 4.304737034e-39
-0.1116115376 -0.3191511631 0.241508618 4.304737034e-39
-0.1090193912 -0.3072783351 0.1376442909 4.304737034e-39
-0.10794992 -0.3085039556 0.1490404159 4.48912409e-39
-0.1117927581 -0.1376231909 0.3253445625 4.48912409e-39
-0.05869564414 -0.2824232578 -0.06139618158 4.48912409e-39
-0.1173170656 -0.2184946239 0.1526791602 4.48912409e-39
0.2953413427 -0.7458652258 -0.01087905467 4.48912409e-39
-0.05310487747 -0.312612623 -0.03285782784 4.48912409e-39
-0.1196657941 -0.2544288039 0.2281011194 4.48912409e-39
0.2348707765 -0.765626967 0.1336691082 4.48912409e-39
-0.1259392798 -0.09762905538 0.2056370974 4.673152414e-39
0.2215838879 -0.7652437687 0.1235720217 4.673152414e-39
-0.05631329119 -0.3089358509 -0.06704623252 4.673152414e-39
-0.06166063249 -0.3028078377 -0.1240269244 4.673152414e-39
-0.1117262989 -0.2486839741 0.1812174767 4.673152414e-39
-0.1029935777 -0.1714893579 0.3880712986 4.673152414e-39
-0.1116926745 -0.3111307025 0.2509894073 4.673152414e-39
-0.1195224673 -0.1049826518 0.2740139067 4.673152414e-39
-0.1315775812 -0.1218659952 0.2563514709 4.857539469e-39
-0.1095062196 -0.2591556013 0.1945289671 4.857539469e-39
-0.1129244342 -0.2938641906 0.2585548162 4.857539469e-39
-0.001255423296 -0.05547875538 -0.1854081154 4.857539469e-39
-0.0309227109 -0.1215028167 -0.179499507 4.857539469e-39
-0.1227784008 -0.1557321548 0.319078207 4.857539469e-39
-0.1140750349 -0.2846181393 0.2566394508 4.857539469e-39
-0.1047415063 -0.3121807575 0.1832288504 4.857539469e-39
-0.1246264055 -0.122916013 0.188590914 5.041567793e-39
-0.06062479317 -0.2415866852 -0.1824027002 5.041567793e-39
-0.1219670102 -0.2359366864 0.2242704034 5.041567793e-39
-0.05075502396 -0.1601718962 -0.1692399085 5.041567793e-39
-0.1100077182 -0.314073205 0.1167674065 5.041567793e-39
-0.1205583215 -0.166203782 0.3323897123 5.041567793e-39
-0.1248698235 -0.09885466099 0.2170332223 5.041567793e-39
-0.1183382422 -0.1766754389 0.3457011878 5.041567793e-39
-0.1140275151 -0.2301918566 0.1773867607 5.225597518e-39
-0.1016142294 -0.307837069 0.2268980592 5.225597518e-39
-0.1260679364 -0.1440349072 0.2943706214 5.225597518e-39
-0.07899306715 -0.3496155739 0.4472554028 5.225597518e-39
-0.1149675548 -0.196393162 0.3609280884 5.225597518e-39
-0.09458114952 -0.330740273 0.4333275855 5.225597518e-39
-0.05516268313 -0.3181819022 -0.06513087451 5.225597518e-39
-0.1185634881 -0.3042684197 0.02559828572 5.225597518e-39
-0.04877947271 -0.263088733 -0.06652598083 5.409984573e-39
-0.1234757975 -0.1321620941 0.1905062646 5.409984573e-39
-0.04968555272 -0.1613974869 -0.1578437835 5.409984573e-39
-0.05837109685 -0.3145051003 -0.09931927919 5.409984573e-39
-0.1104609296 -0.3283972144 0.2434239835 5.409984573e-39
-0.1236380711 -0.1161211729 0.2094678134 5.409984573e-39
-0.1106232107 -0.3123562932 0.2623855174 5.409984573e-39
-0.1235569343 -0.1241416186 0.199987039 5.409984573e-39
-0.1062166616 -0.2708528638 0.2192366272 5.594012897e-39
-0.05626577139 -0.2545095384 -0.146298945 5.594012897e-39
-0.05947417021 -0.2508327663 -0.1804873496 5.594012897e-39
-0.05409321189 -0.3194074929 -0.05373475328 5.594012897e-39
-0.0001048129052 -0.06472481787 -0.1834927648 5.594012897e-39
-0.06054364145 -0.2496071458 -0.1918834746 5.594012897e-39
-0.1026370153 -0.2383524626 -0.1474216431 5.594012897e-39
-0.07173795253 -0.1895949095 -0.1608956754 5.594012897e-39
-0.1185488105 -0.2012280971 0.1602445692 5.77804122e-39
-0.1301835626 -0.1551733911 0.2298244387 5.77804122e-39
-0.1254999787 -0.200178057 0.2280051112 5.77804122e-39
-0.1051325202 -0.1690381467 0.3652790487 5.77804122e-39
-0.1139317006 -0.1351720095 0.3025522828 5.77804122e-39
-0.06157951057 -0.3108282983 -0.1335077137 5.77804122e-39
-0.06264896691 -0.3096027076 -0.1449038386 5.77804122e-39
-0.1253523827 -0.3192592859 0.07439728081 5.77804122e-39
-0.1223251894 -0.1414081305 0.19242163 5.962428276e-39
-0.115727149 -0.3302896619 0.1769625247 5.962428276e-39
-0.04965305328 -0.3403508067 -0.02711175755 5.962428276e-39
-0.1005447581 -0.3090626597 0.2382941842 5.962428276e-39
-0.02977210097 -0.1307488829 -0.1775841415 5.962428276e-39
-0.129276365 -0.1403581053 0.2601821721 5.962428276e-39
-0.1224063262 -0.1333876848 0.2019024044 5.962428276e-39
-0.120897539 -0.237162292 0.2356665283 5.962428276e-39
-0.05725409091 -0.2613044083 -0.1671758443 6.1464566e-39
-0.1118885726 -0.2326430529 0.2001790702 6.1464566e-39
-0.05832356215 -0.2600788176 -0.1785719842 6.1464566e-39
-0.09939415008 -0.3183087409 0.2402095348 6.1464566e-39
-0.0596017316 -0.1807320416 -0.1527139843 6.1464566e-39
-0.1125531867 -0.2576870024 -0.1422918439 6.1464566e-39
0.2438797206 -0.7611077428 0.09818160534 6.1464566e-39
-0.1141561642 -0.2765977085 0.2661202848 6.1464566e-39
-0.1039819121 -0.1782842278 0.3671944141 6.330484923e-39
-0.1093767881 -0.2265825123 0.3894664049 6.330484923e-39
-0.09565061331 -0.3295146823 0.4219314456 6.330484923e-39
-0.1141897887 -0.2141509503 0.1963483542 6.330484923e-39
0.2863324285 -0.75038445 0.02460846305 6.330484923e-39
-0.1282068938 -0.1415837109 0.2715783119 6.330484923e-39
0.001045795158 -0.07397086918 -0.1815773994 6.330484923e-39
-0.1221293062 -0.2198957652 0.2432319373 6.330484923e-39
-0.05281393975 -0.2822476923 -0.1405528635 6.514514648e-39
-0.05182561278 -0.2754528224 -0.1196759492 6.514514648e-39
-0.118792221 -0.17716676 0.1886869371 6.514514648e-39
-0.1267317384 -0.1829115748 0.2355705202 6.514514648e-39
-0.1214179993 -0.1265928149 0.2227792889 6.514514648e-39
-0.1212557182 -0.1426337212 0.203817755 6.514514648e-39
-0.1125187352 -0.333966434 0.2111508995 6.514514648e-39
-0.05059386045 -0.2927193642 -0.1272413582 6.514514648e-39
-0.04310756177 -0.3012985587 -0.04746839404 6.698542971e-39
-0.1028313041 -0.1875302643 0.3691097796 6.698542971e-39
-0.04845491797 -0.2951705456 -0.1044490784 6.698542971e-39
-0.04952438921 -0.2939449549 -0.1158452332 6.698542971e-39
-0.1104462594 -0.2253569216 0.3780702651 6.698542971e-39
-0.09795183688 -0.3110225797 0.4181007445 6.698542971e-39
-0.04746658355 -0.2883757055 -0.08357218653 6.698542971e-39
0.01096199453 -0.05463632196 -0.1867071986 6.698542971e-39
-0.04639711231 -0.2896012962 -0.07217603177 6.882571295e-39
-0.04861719906 -0.2791296244 -0.08548754454 6.882571295e-39
-0.1073336527 -0.3240535855 0.2870931923 6.882571295e-39
-0.01870535314 -0.1206603944 -0.1807985902 6.882571295e-39
-0.03973688185 -0.321016252 -0.03224155679 6.882571295e-39
0.2571665645 -0.761490941 0.108278662 6.882571295e-39
-0.09219878912 -0.3572528362 0.427677542 6.882571295e-39
-0.1237667277 -0.1625269949 0.2982013226 6.882571295e-39
-0.1082261801 -0.2358285636 0.3913817704 7.066599618e-39
-0.09556947649 -0.3375351429 0.412450701 7.066599618e-39
-0.04516536742 -0.3068678081 -0.07974147052 7.066599618e-39
0.2762539387 -0.7536780834 0.0486997962 7.066599618e-39
-0.04302643239 -0.3093190193 -0.0569491908 7.066599618e-39
-0.1077876389 -0.324544847 0.130078882 7.066599618e-39
-0.1142709255 -0.2061305046 0.2058291286 7.066599618e-39
-0.1164573804 -0.258105576 0.2622895837 7.066599618e-39
-0.1160706431 -0.1327207983 0.2797600031 7.250627941e-39
-0.1269751489 -0.158850193 0.264012903 7.250627941e-39
-0.1165721416 -0.187638402 0.2019984126 7.250627941e-39
-0.1103797927 -0.336417675 0.2339432091 7.250627941e-39
-0.06470677257 -0.3151719272 -0.1771768928 7.250627941e-39
-0.05479060113 -0.2958374321 -0.182306692 7.250627941e-39
-0.1138505563 -0.1431924701 0.2930715382 7.250627941e-39
-0.1061830446 -0.3332996368 0.2890085578 7.250627941e-39
0.02202874795 -0.0445478484 -0.1899216473 7.434656265e-39
-0.1257433891 -0.1761167049 0.2564474642 7.434656265e-39
-0.1199092045 -0.230367437 0.2565434873 7.434656265e-39
-0.08775863051 -0.3781961203 0.4543005526 7.434656265e-39
-0.09840582311 -0.311513871 0.2610864341 7.434656265e-39
-0.1222915724 -0.2038548589 0.2621935606 7.434656265e-39
-0.05500040948 -0.3342227936 -0.08409243822 7.434656265e-39
0.01211260259 -0.06388238817 -0.1847918481 7.434656265e-39
-0.1177849546 -0.3358589411 0.1446894556 7.618684588e-39
-0.1191167831 -0.1450849175 0.2266100049 7.618684588e-39
-0.1052283347 -0.2640579939 0.2401135266 7.618684588e-39
0.2672449946 -0.7581973076 0.08418729901 7.618684588e-39
-0.1103331074 -0.2681586742 -0.1289803684 7.618684588e-39
-0.1109960526 -0.3208680153 0.0958904475 7.618684588e-39
0.2704534233 -0.7618740797 0.1183756888 7.618684588e-39
-0.1259056777 -0.1600757837 0.275409013 7.618684588e-39
-0.1056487039 -0.3269960284 0.1528711319 7.802712912e-39
-0.1258245409 -0.1680962592 0.2659282386 7.802712912e-39
-0.1108666211 -0.2882949412 0.2908279002 7.802712912e-39
-0.08113200963 -0.3471643329 0.4244630933 7.802712912e-39
0.277323395 -0.7549036741 0.06009592116 7.802712912e-39
-0.1131349951 -0.3184168339 0.07309819758 7.802712912e-39
-0.03746819496 -0.1605550647 -0.1591428667 7.802712912e-39
-0.117803894 -0.1703718752 0.2095638216 7.802712912e-39
-0.0506413877 -0.347145617 -0.04798867926 7.986382503e-39
-0.1246739328 -0.1773422956 0.2678436041 7.986382503e-39
-0.1152739376 -0.3159656525 0.05030592158 7.986382503e-39
-0.1174128801 -0.3135144711 0.02751364373 7.986382503e-39
-0.1024402902 -0.3306728601 0.1870595664 7.986382503e-39
-0.05845112354 -0.1899780929 -0.1507986337 7.986382503e-39
-0.09778955579 -0.3270635009 0.3991391957 7.986382503e-39
-0.1040441096 -0.3357508183 0.3118008077 7.986382503e-39
-0.1188397333 -0.2315930426 0.2679396272 8.170410826e-39
-0.1220628321 -0.3309565187 0.09910489619 8.170410826e-39
-0.1007881686 -0.2850013375 0.266736567 8.170410826e-39
-0.1063789427 -0.2548119724 0.2381981611 8.170410826e-39
-0.09894016385 -0.3178174496 0.39722386 8.170410826e-39
-0.114920035 -0.1419668794 0.2816753387 8.170410826e-39
-0.08050347865 -0.2181755006 -0.1538505256 8.170410826e-39
-0.1247550696 -0.1693218648 0.2773243785 8.170410826e-39
-0.09511626512 -0.3232111335 0.2857941091 8.35443915e-39
-0.1213187203 -0.2862675786 -0.1352466941 8.35443915e-39
-0.1231323034 -0.3297309279 0.08770877123 8.35443915e-39
0.2783928812 -0.7561292648 0.07149210572 8.35443915e-39
-0.08573444933 -0.3101801276 0.4168016613 8.35443915e-39
-0.05278032273 -0.3446944058 -0.07078096271 8.35443915e-39
0.02317935415 -0.05379389226 -0.1880062819 8.35443915e-39
-0.1201526374 -0.2063060552 0.2849858105 8.35443915e-39
-0.105924949 -0.2543206811 0.3952124715 8.538467473e-39
-0.09519740939 -0.3151906729 0.2952748835 8.538467473e-39
-0.09396565706 -0.3324571848 0.2877094746 8.538467473e-39
-0.0504315868 -0.3087602556 -0.1462029219 8.538467473e-39
-0.05364000052 -0.3050834537 -0.1803913414 8.538467473e-39
-0.1203149036 -0.1902651787 0.3039473891 8.538467473e-39
-0.1037048697 -0.2647923231 0.408523947 8.538467473e-39
-0.1098307669 -0.2270738184 0.2324520946 8.538467473e-39
-0.1225349903 -0.1797935069 0.290635854 8.722137064e-39
-0.1104798764 -0.1629101634 0.3082983792 8.722137064e-39
-0.1143184453 -0.2605567873 0.2850818336 8.722137064e-39
-0.05927829444 -0.329320401 -0.1296769977 8.722137064e-39
-0.1042063758 -0.319709897 0.3307623863 8.722137064e-39
-0.09289619327 -0.3336827755 0.2991055846 8.722137064e-39
-0.006487992592 -0.1198179573 -0.1820976585 8.722137064e-39
-0.08450269699 -0.3274466395 0.4092362523 8.722137064e-39
-0.0888281092 -0.3769705296 0.4429043829 8.906165387e-39
-0.1086801589 -0.2363198549 0.2343674451 8.906165387e-39
-0.1178514212 -0.2247981578 0.2888165116 8.906165387e-39
-0.04949077964 -0.3563916981 -0.04607332125 8.906165387e-39
-0.09634801745 -0.3059446216 0.2933595181 8.906165387e-39
-0.1191642955 -0.1995112151 0.3058627546 8.906165387e-39
-0.09493931383 -0.236211732 0.4014787972 8.906165387e-39
-0.09822886437 -0.2245144844 0.3767711818 8.906165387e-39
-0.1157936156 -0.2192289233 0.3210895956 9.089834978e-39
-0.09412793815 -0.3164162636 0.3066709936 9.089834978e-39
-0.104774341 -0.2635667324 0.3971278369 9.089834978e-39
-0.03957460821 -0.3370571434 -0.0512031205 9.089834978e-39
-0.1135735363 -0.2297005653 0.3344010711 9.089834978e-39
-0.107577078 -0.2999922037 0.3155354857 9.089834978e-39
-0.09877789021 -0.3338583708 0.3782622516 9.089834978e-39
-0.1122131273 -0.2005612254 0.2381021529 9.089834978e-39
-0.08660802245 -0.3874422312 0.4562159181 9.273863302e-39
-0.08680392057 -0.3089545369 0.4054055214 9.273863302e-39
-0.06836725771 -0.2093126327 -0.1456688344 9.273863302e-39
-0.03735452145 -0.3475287855 -0.03789160773 9.273863302e-39
-0.1180136874 -0.2087572515 0.30777812 9.273863302e-39
-0.08442156017 -0.3354671597 0.3997554779 9.273863302e-39
-0.1058438122 -0.2623411119 0.3857316971 9.273863302e-39
-0.1019863039 -0.3301815391 0.3440738916 9.273863302e-39
-0.09527854621 -0.3071702123 0.3047556579 9.457532893e-39
-0.1088424325 -0.2202789485 0.2533290386 9.457532893e-39
-0.09190785885 -0.3268879056 0.3199824989 9.457532893e-39
-0.07661072165 -0.3761281371 0.4416052997 9.457532893e-39
-0.1093292683 -0.1721562296 0.3102137148 9.457532893e-39
-0.08557216823 -0.3262210488 0.3978401124 9.457532893e-39
-0.1132489741 -0.261782378 0.2964779437 9.457532893e-39
0.004578758962 -0.1097294837 -0.1853121072 9.457532893e-39
0.03539671004 -0.05295146257 -0.1893053651 9.641561216e-39
-0.1059585735 -0.1918739378 0.3254405558 9.641561216e-39
-0.09495399892 -0.3392520547 0.2668325305 9.641561216e-39
-0.1112247854 -0.1937663853 0.2589791119 9.641561216e-39
-0.005337382667 -0.1290640235 -0.180182308 9.641561216e-39
-0.04171354324 -0.334605962 -0.07399539649 9.641561216e-39
-0.1076918244 -0.2295250148 0.2552444041 9.641561216e-39
-0.1187732816 -0.3426537514 0.1238125563 9.641561216e-39
-0.1048079655 -0.2011199743 0.3273559213 9.825230807e-39
-0.1198427528 -0.3414281607 0.1124164313 9.825230807e-39
-0.04612008482 -0.3761093616 -0.03084645793 9.825230807e-39
-0.1145618483 -0.2364954352 0.3135241866 9.825230807e-39
-0.1109149158 -0.3288884759 0.086409688 9.825230807e-39
-0.1081786603 -0.181402266 0.3121290803 9.825230807e-39
-0.02525080554 -0.1597126424 -0.16044195 9.825230807e-39
-0.1077729613 -0.2215045542 0.2647251785 9.825230807e-39
-0.1021485776 -0.3141406476 0.3630354106 1.000925913e-38
-0.1090047061 -0.2042380273 0.2722905874 1.000925913e-38
-0.1130538583 -0.3264372945 0.06361743808 1.000925913e-38
-0.1065412164 -0.2387710512 0.2571597695 1.000925913e-38
-0.1098782867 -0.2815001011 0.3117047846 1.000925913e-38
-0.1070902422 -0.3481149077 0.2586508393 1.000925913e-38
-0.09281504899 -0.3417032361 0.2896248102 1.000925913e-38
-0.1112723053 -0.2481926829 0.338231802 1.000925913e-38
-0.04940963537 -0.3644121587 -0.05555408821 1.019292872e-38
-0.08664163947 -0.3249954581 0.3864440024 1.019292872e-38
-0.1057626754 -0.2703616023 0.3762509525 1.019292872e-38
-0.1102364585 -0.1869715452 0.2798559964 1.019292872e-38
-0.03949346393 -0.3450776041 -0.06068388745 1.019292872e-38
0.01556443051 -0.09162054211 -0.1790457815 1.019292872e-38
-0.06828612089 -0.2173330635 -0.1551496089 1.019292872e-38
-0.1219816953 -0.3389769793 0.08962412179 1.019292872e-38
-0.1110288948 -0.2722540498 0.3097894192 1.037659831e-38
-0.04385248572 -0.3321547508 -0.09678764641 1.037659831e-38
-0.1079352424 -0.205463618 0.2836867273 1.037659831e-38
-0.0917455852 -0.3429288268 0.3010209501 1.037659831e-38
-0.1043211371 -0.2492427081 0.2704712451 1.037659831e-38
-0.1002202109 -0.3411445022 0.2003710568 1.037659831e-38
-0.004267912824 -0.1302896142 -0.168786183 1.037659831e-38
-0.1025067493 -0.2196120918 0.3311866224 1.037659831e-38
-0.08902399242 -0.2984828949 0.3920940459 1.056062664e-38
0.005729367025 -0.118975535 -0.1833967417 1.056062664e-38
0.04761406779 -0.05210903287 -0.1906044483 1.056062664e-38
-0.08811843395 -0.2560021281 -0.1448900104 1.056062664e-38
