# .PCD v0.7 - Point Cloud Data file format
VERSION 0.7
FIELDS x y z rgb
SIZE 4 4 4 4
TYPE F F F F
COUNT 1 1 1 1
WIDTH 827
HEIGHT 1
VIEWPOINT 0 0 0 1 0 0 0
POINTS 827
DATA ascii
0.1582612395 -0.2919830382 -0.2686757445 9.825230807e-39
0.03861752525 -0.3091553748 -0.1150127351 9.825230807e-39
-0.08128723502 -0.1613927484 -0.2794859409 9.825230807e-39
0.1182694137 -0.2746912837 -0.2803765237 9.825230807e-39
0.1143351197 -0.3226886094 -0.1184077263 9.825230807e-39
0.1768223792 -0.252972424 -0.2909038961 9.825230807e-39
-0.1572527438 -0.04885746539 -0.1615443975 9.825230807e-39
0.2814739943 -0.1112767756 -0.1961464137 1.000925913e-38
-0.2393048108 -0.3517418802 -0.09090257436 1.000925913e-38
-0.1581461728 -0.04733137786 -0.1728431582 1.000925913e-38
0.06303033233 -0.3076670766 -0.1175440699 1.000925913e-38
0.0963357389 -0.294177711 -0.2736461759 1.000925913e-38
0.1999956965 -0.2424850464 -0.29553473 1.000925913e-38
0.1595007926 -0.3009821177 -0.2665762305 1.000925913e-38
-0.265922159 -0.1715595126 -0.3295793533 1.000925913e-38
0.2360208631 -0.1337775588 -0.1755859852 1.019292872e-38
-0.01157823578 -0.2206654549 -0.2711176872 1.019292872e-38
-0.2544500232 -0.3365945816 -0.06133781374 1.019292872e-38
0.07523673773 -0.3069229424 -0.1188097373 1.019292872e-38
0.1097816974 -0.3024326265 -0.2728123069 1.019292872e-38
-0.02715718746 -0.2018853724 -0.2853497863 1.019292872e-38
-0.2572894394 -0.1647110134 -0.3760400414 1.019292872e-38
-0.2867613137 -0.1791521609 -0.2818529606 1.019292872e-38
0.02523021214 -0.3091677725 -0.2526538968 1.037659831e-38
0.02646977268 -0.3181668222 -0.2505543828 1.037659831e-38
0.05117005482 -0.3158842027 -0.1254776418 1.037659831e-38
-0.2998457849 -0.3838284314 -0.1326699853 1.037659831e-38
0.2128476053 -0.1442649364 -0.1709551215 1.037659831e-38
0.1439218521 -0.282202065 -0.2808083594 1.037659831e-38
-0.1434606463 -0.06458533555 -0.1699098051 1.037659831e-38
0.1911617666 -0.262753427 -0.2787712812 1.037659831e-38
0.03495752066 -0.2904254794 -0.2581185997 1.056062664e-38
0.2945738435 -0.112058714 -0.1861133426 1.056062664e-38
0.08165021241 -0.2769237161 -0.276579529 1.056062664e-38
-0.1853842735 -0.02334856614 -0.1653116047 1.056062664e-38
-0.01144771557 -0.3031329215 -0.1120495722 1.056062664e-38
0.001867756248 -0.2289203405 -0.270283848 1.056062664e-38
-0.1862776875 -0.02182247862 -0.1766103506 1.056062664e-38
0.1426822841 -0.2732029855 -0.2829078734 1.056062664e-38
0.1607403457 -0.3099811673 -0.2644767463 1.074429623e-38
0.04007269442 -0.2431599498 -0.2811805606 1.074429623e-38
-0.03586055338 -0.3046212196 -0.1095182374 1.074429623e-38
-0.2581828535 -0.1631849259 -0.3873388171 1.074429623e-38
0.04958436266 -0.2994121611 -0.1183779165 1.074429623e-38
0.02399064973 -0.3001686931 -0.2547534108 1.074429623e-38
-0.07213366032 -0.3143266439 -0.1149204671 1.074429623e-38
0.1265415251 -0.3219444454 -0.1196733937 1.074429623e-38
0.2143350691 -0.2522660792 -0.2834021449 1.092796582e-38
0.0007586888969 -0.3023887575 -0.113315247 1.092796582e-38
0.0633764565 -0.3151400387 -0.1267433017 1.092796582e-38
0.1896743029 -0.1547522843 -0.1663242728 1.092796582e-38
0.001104826108 -0.3098617494 -0.1225144789 1.092796582e-38
-0.02330801077 -0.3113500476 -0.1199831441 1.092796582e-38
0.03737796471 -0.3001562953 -0.1171122566 1.092796582e-38
-0.2980742753 -0.1814224124 -0.2692885399 1.092796582e-38
0.1341945082 -0.3009443283 -0.2753436565 1.111163541e-38
0.1110212654 -0.3114316761 -0.2707127929 1.111163541e-38
-0.1685454547 -0.3292788565 -0.1026956141 1.111163541e-38
0.06179076806 -0.2986679971 -0.1196435913 1.111163541e-38
-0.1209593415 -0.3173032403 -0.1098577976 1.111163541e-38
0.1561282575 -0.281457901 -0.2820740342 1.111163541e-38
-0.2790640295 -0.3515027463 -0.08850372583 1.111163541e-38
0.2119541913 -0.1427388489 -0.1822538823 1.111163541e-38
0.1548886895 -0.2724588215 -0.2841735482 1.1295305e-38
0.2012352496 -0.2514841259 -0.293435216 1.1295305e-38
0.1814344823 -0.2814956903 -0.2733066082 1.1295305e-38
-0.2750306427 -0.3555004299 -0.0758068189 1.1295305e-38
-0.08004768193 -0.170391798 -0.2773864269 1.1295305e-38
-0.2772351503 -0.1738297641 -0.317014873 1.1295305e-38
0.1451614052 -0.2912011147 -0.2787088454 1.1295305e-38
0.2033682317 -0.262009263 -0.2800369859 1.1295305e-38
0.09964960814 -0.3054346442 -0.1213410795 1.147897319e-38
-0.2590762973 -0.1616588384 -0.3986375332 1.147897319e-38
-0.06749510765 -0.1771206558 -0.2878513336 1.147897319e-38
0.171707198 -0.3002379835 -0.2678419352 1.147897319e-38
-0.02591762692 -0.2108844221 -0.2832502723 1.147897319e-38
0.2482272685 -0.1330334097 -0.1768516451 1.147897319e-38
0.04131225497 -0.2521589994 -0.2790810466 1.147897319e-38
-0.2553434372 -0.3350684941 -0.07263656706 1.147897319e-38
0.2705071568 -0.1210199744 -0.1927812397 1.166264278e-38
0.2250540107 -0.1435207874 -0.1722207963 1.166264278e-38
-0.2677090168 -0.1685073376 -0.3521768451 1.166264278e-38
0.08620357513 -0.2971796989 -0.1221749187 1.166264278e-38
-0.09689262509 -0.3083419502 -0.1031898931 1.166264278e-38
0.06095603108 -0.3054092228 -0.2677496672 1.166264278e-38
0.01302380674 -0.3099119067 -0.251388222 1.166264278e-38
0.02551763505 -0.3083734512 -0.1250458062 1.166264278e-38
0.05971646309 -0.2964101434 -0.2698491812 1.184631237e-38
0.05847690254 -0.2874110937 -0.2719486952 1.184631237e-38
-0.08094111085 -0.1688657105 -0.288685143 1.184631237e-38
0.003107316792 -0.2379193902 -0.268184334 1.184631237e-38
0.1787074655 -0.1644955128 -0.1629590988 1.184631237e-38
0.1354340762 -0.309943378 -0.2732441425 1.184631237e-38
0.02151152678 -0.2821705639 -0.2589524388 1.184631237e-38
0.05599778146 -0.2694129646 -0.2761476934 1.184631237e-38
-0.2518573403 -0.3450130522 -0.08043768257 1.202998196e-38
0.06219559163 -0.3144082725 -0.2656501532 1.202998196e-38
0.2836070061 -0.1218019128 -0.1827481538 1.202998196e-38
0.2018807679 -0.1540081501 -0.1675899476 1.202998196e-38
-0.01033867523 -0.2296645045 -0.2690181732 1.202998196e-38
-0.1807518452 -0.3300230205 -0.1014299393 1.202998196e-38
0.014420297 -0.2356491685 -0.2807487249 1.202998196e-38
0.04874962568 -0.3061533868 -0.2664839625 1.202998196e-38
-0.2781285644 -0.1723036617 -0.3283136785 1.221365155e-38
0.213441655 -0.2507399917 -0.2947009206 1.221365155e-38
0.06213689968 -0.3061409891 -0.1288428158 1.221365155e-38
0.09999573231 -0.3129076064 -0.1305403113 1.221365155e-38
-0.05191616341 -0.1959006935 -0.2736192346 1.221365155e-38
-0.1841447204 -0.03234761953 -0.1632120907 1.221365155e-38
0.057237342 -0.2784120142 -0.2740482092 1.221365155e-38
0.1729467511 -0.3092370331 -0.2657424212 1.221365155e-38
0.08496402204 -0.2881806493 -0.1242744252 1.239732115e-38
-0.2283379585 -0.3419986665 -0.0942677632 1.239732115e-38
0.04998918623 -0.3151524365 -0.2643844485 1.239732115e-38
0.2241605967 -0.1419946998 -0.1835195422 1.239732115e-38
0.03247839957 -0.2724273503 -0.2623175979 1.239732115e-38
-0.2680971324 -0.3417595327 -0.09186890721 1.239732115e-38
0.09717048705 -0.2874365151 -0.1255400926 1.239732115e-38
-0.1694591492 -0.04960161448 -0.1602787375 1.239732115e-38
0.1677406132 -0.1742387116 -0.1595939249 1.258099074e-38
0.002056937665 -0.3196551204 -0.248023048 1.258099074e-38
-0.1703525633 -0.04807552695 -0.1715774834 1.258099074e-38
0.08654971421 -0.3046526909 -0.1313741505 1.258099074e-38
0.1586073786 -0.2994560301 -0.2778750062 1.258099074e-38
-0.3045140803 -0.3896178603 -0.2188610584 1.258099074e-38
-0.2872370481 -0.3562445641 -0.07454115897 1.258099074e-38
0.1793015003 -0.2709705234 -0.2867048681 1.258099074e-38
0.09593091905 -0.2784374356 -0.1276396066 1.276466033e-38
0.01172553375 -0.2926455438 -0.1166804209 1.276466033e-38
-0.0004808716476 -0.2933897078 -0.1154147536 1.276466033e-38
-0.1335118711 -0.3105744123 -0.09939289838 1.276466033e-38
-0.1547736228 -0.06685557216 -0.1573453844 1.276466033e-38
0.03530365601 -0.2978984416 -0.2673178315 1.276466033e-38
-0.01234114077 -0.3016068339 -0.1233483255 1.276466033e-38
-0.06536212564 -0.187645793 -0.2744530439 1.276466033e-38
-0.3021799326 -0.3867231607 -0.1757655144 1.294832852e-38
0.1668471992 -0.1727126241 -0.1708926708 1.294832852e-38
0.01054468378 -0.2919137776 -0.25558725 1.294832852e-38
-0.2703892887 -0.163929075 -0.3860731125 1.294832852e-38
0.002213889733 -0.2363933027 -0.2794830799 1.294832852e-38
-0.1556670517 -0.06532948464 -0.1686441302 1.294832852e-38
-0.0001347381622 -0.3008626699 -0.1246139929 1.294832852e-38
-0.2405443639 -0.3427428007 -0.09300209582 1.294832852e-38
-0.03675398231 -0.3030951321 -0.1208169907 1.313163938e-38
-0.05280959234 -0.194374606 -0.2849179506 1.313163938e-38
0.1839136034 -0.2994938195 -0.2691075802 1.313163938e-38
0.1081373096 -0.2776932716 -0.1289052814 1.313163938e-38
0.009305121377 -0.2829146981 -0.257686764 1.313163938e-38
0.03648453951 -0.2986302078 -0.128410995 1.313163938e-38
-0.04896041006 -0.3038392663 -0.1195513159 1.313163938e-38
-0.1929582506 -0.3307671547 -0.1001642793 1.313163938e-38
0.2595402896 -0.1307631731 -0.1894160658 1.331530897e-38
0.2958134115 -0.1210577637 -0.1840138286 1.331530897e-38
-0.01123210043 -0.228138417 -0.2803169191 1.331530897e-38
0.06089733914 -0.2971419096 -0.1309423298 1.331530897e-38
-0.2640637755 -0.3457571864 -0.07917200774 1.331530897e-38
0.124062404 -0.303946346 -0.1238724068 1.331530897e-38
0.01689941809 -0.2536472976 -0.2765497267 1.331530897e-38
0.1900204569 -0.1622252762 -0.1755235046 1.331530897e-38
0.03406409547 -0.2888993919 -0.2694173455 1.349897856e-38
-0.3054075241 -0.3880917728 -0.2301598042 1.349897856e-38
-0.198484093 -0.02256662771 -0.1753446907 1.349897856e-38
-0.03812403604 -0.2116285861 -0.2819846272 1.349897856e-38
-0.07371935248 -0.2978546023 -0.1078207418 1.349897856e-38
-0.01014946774 -0.3203992546 -0.2467573881 1.349897856e-38
-0.2675498426 -0.3358126581 -0.07137089968 1.349897856e-38
-0.2799154222 -0.1692514867 -0.3509112 1.349897856e-38
-0.08557966352 -0.3060717285 -0.1157543138 1.368228942e-38
0.1378545165 -0.3196742237 -0.1322378069 1.368228942e-38
0.08531014621 -0.2956536114 -0.1334736645 1.368228942e-38
-0.07970154285 -0.17786479 -0.286585629 1.368228942e-38
0.2131937593 -0.1517378986 -0.1801543683 1.368228942e-38
0.1799470186 -0.1734945774 -0.1608595848 1.368228942e-38
-0.1837985665 -0.03982062638 -0.1724113226 1.368228942e-38
-0.01392683852 -0.2851347625 -0.1162486002 1.368228942e-38
0.02309722453 -0.2986426055 -0.2660521567 1.386595901e-38
-0.007859554142 -0.2476626337 -0.2648191452 1.386595901e-38
-0.2408905178 -0.3352698386 -0.0838028565 1.386595901e-38
0.09751661122 -0.2949094772 -0.1347393394 1.386595901e-38
0.01048596948 -0.2836464643 -0.1187799349 1.386595901e-38
-0.2903349996 -0.1730478108 -0.3270480037 1.386595901e-38
0.1790536046 -0.1719684899 -0.1721583307 1.386595901e-38
0.2031203359 -0.1630072147 -0.1654904336 1.386595901e-38
0.2494668365 -0.1420325041 -0.1747521311 1.404926846e-38
-0.3016326427 -0.3807762563 -0.1552675068 1.404926846e-38
-0.3030733764 -0.3851970732 -0.1870642602 1.404926846e-38
-0.09813219309 -0.2993429005 -0.1052894071 1.404926846e-38
0.1101278365 -0.3099055886 -0.2820115983 1.404926846e-38
0.2262935787 -0.1525198519 -0.1701212823 1.404926846e-38
0.01336994208 -0.3173848689 -0.2605874538 1.404926846e-38
0.02185766399 -0.2896435559 -0.2681516707 1.404926846e-38
-0.009992539883 -0.2371374667 -0.2782174051 1.423293806e-38
-0.06412255764 -0.1966448426 -0.2723535299 1.423293806e-38
0.09792143106 -0.3106497526 -0.2807459235 1.423293806e-38
-0.2527507544 -0.3434869647 -0.09173642844 1.423293806e-38
0.0193785429 -0.2716454268 -0.2723506987 1.423293806e-38
0.02061810158 -0.2806444764 -0.2702511847 1.423293806e-38
-0.05157003179 -0.2033736706 -0.2828184366 1.423293806e-38
0.1223342419 -0.3091614544 -0.2832772732 1.423293806e-38
0.1720533371 -0.3077109456 -0.2770411372 1.441624891e-38
0.07186418772 -0.2873987257 -0.1343075037 1.441624891e-38
0.2848465443 -0.1308009624 -0.1806486547 1.441624891e-38
0.2022269219 -0.1614811271 -0.1767891794 1.441624891e-38
0.1097230166 -0.2941653132 -0.1360049993 1.441624891e-38
-0.02130552009 -0.2394076884 -0.2656529844 1.441624891e-38
-0.002901308239 -0.2836588621 -0.2564210892 1.441624891e-38
-0.1579247266 -0.3120627105 -0.09686156362 1.441624891e-38
0.2168141901 -0.2702641785 -0.2792031169 1.459991851e-38
-0.1103386283 -0.3000870347 -0.1040237322 1.459991851e-38
-0.2173710912 -0.3322554529 -0.09763293713 1.459991851e-38
-0.01262859255 -0.3024011254 -0.2509564161 1.459991851e-38
-0.03799353912 -0.2940960526 -0.1229164973 1.459991851e-38
0.01089081913 -0.2993867397 -0.2647864819 1.459991851e-38
0.2254001647 -0.1509937644 -0.1814200282 1.459991851e-38
0.1350292414 -0.2942031026 -0.1272375882 1.459991851e-38
-0.1344053 -0.3090483248 -0.1106916443 1.478322936e-38
0.005932576954 -0.2633905113 -0.2731845379 1.478322936e-38
-0.300538063 -0.3688825071 -0.1142715141 1.478322936e-38
0.001163512468 -0.3181290329 -0.2593218088 1.478322936e-38
0.1337896883 -0.2852040529 -0.1293371022 1.478322936e-38
-0.288130492 -0.3547184765 -0.08583990484 1.478322936e-38
0.1467470974 -0.3076731563 -0.285808593 1.478322936e-38
-0.06501598656 -0.1951187551 -0.2836523056 1.478322936e-38
0.07062461972 -0.2783996463 -0.1364070177 1.496689755e-38
-0.2530969083 -0.3360140026 -0.08253718168 1.496689755e-38
-0.02359543368 -0.3121443689 -0.2475912273 1.496689755e-38
-0.2797563076 -0.3365567923 -0.0701052323 1.496689755e-38
0.04909575731 -0.313626349 -0.275683254 1.496689755e-38
-0.2295775265 -0.3329996169 -0.09636726975 1.496689755e-38
-0.2834891379 -0.1631471366 -0.3961062431 1.496689755e-38
-0.1669800431 -0.06759972125 -0.1560797095 1.496689755e-38
-0.2921218574 -0.1699956357 -0.349645555 1.515020841e-38
0.2070869058 -0.2890064418 -0.2737384439 1.515020841e-38
0.0368893519 -0.3143704832 -0.2744175792 1.515020841e-38
-0.03456230834 -0.3218875527 -0.2442260385 1.515020841e-38
-0.07846198976 -0.1868638396 -0.284486115 1.515020841e-38
0.03400541097 -0.2806320786 -0.132610023 1.515020841e-38
-0.3025260568 -0.3792501688 -0.1665662825 1.515020841e-38
-0.02219894528 -0.2378816009 -0.2769517303 1.515020841e-38
0.1939870268 -0.2882245183 -0.2837715149 1.533351927e-38
0.2970529497 -0.1300568134 -0.1819143146 1.533351927e-38
-0.2097971141 -0.02483686432 -0.16278027 1.533351927e-38
-0.1466117352 -0.309792459 -0.1094259769 1.533351927e-38
0.2180537581 -0.279263258 -0.2771036029 1.533351927e-38
-0.07495892048 -0.2888555229 -0.1099202558 1.533351927e-38
-0.01510771364 -0.2844029963 -0.2551554441 1.533351927e-38
0.2049539387 -0.2784813046 -0.2871367037 1.533351927e-38
-0.002613859251 -0.2828645408 -0.1288130134 1.551683013e-38
0.2607798576 -0.1397622526 -0.1873165518 1.551683013e-38
0.009592542425 -0.2821203768 -0.1300786734 1.551683013e-38
-0.2843825519 -0.1616210341 -0.4074050188 1.551683013e-38
0.2961595058 -0.1285307258 -0.1932130605 1.551683013e-38
0.204359889 -0.1720062792 -0.1633909196 1.551683013e-38
-0.302541405 -0.1737919599 -0.3257823288 1.551683013e-38
-0.02483499795 -0.3031452894 -0.2496907413 1.551683013e-38
-0.03351192549 -0.2401518524 -0.2643873096 1.570049832e-38
-0.2930152714 -0.1684695482 -0.3609442711 1.570049832e-38
0.1484752148 -0.3024580479 -0.1264037341 1.570049832e-38
-0.07632899284 -0.1973889917 -0.2710878849 1.570049832e-38
-0.2299236655 -0.3255266547 -0.08716803044 1.570049832e-38
-0.01758683473 -0.266404897 -0.2593544722 1.570049832e-38
-0.1951115578 -0.04209086299 -0.1598469168 1.570049832e-38
-0.006273854524 -0.2641346753 -0.2719188631 1.570049832e-38
-0.2417839319 -0.333743751 -0.09510160238 1.588380918e-38
0.1472356468 -0.2934589684 -0.1285032481 1.588380918e-38
-0.03564491495 -0.2296267152 -0.2777855992 1.588380918e-38
-0.01228245348 -0.3098741174 -0.260155648 1.588380918e-38
-0.03580186889 -0.3128885031 -0.2463255525 1.588380918e-38
0.2275331467 -0.1615189165 -0.1680217683 1.588380918e-38
-0.2653033435 -0.3367581367 -0.08127152175 1.588380918e-38
0.1714593023 -0.2012358904 -0.1532953829 1.588380918e-38
0.1459960938 -0.2844599187 -0.1306027621 1.606712004e-38
-0.003794733435 -0.2821327746 -0.2677198648 1.606712004e-38
0.193392992 -0.1817494631 -0.1600257456 1.606712004e-38
0.2083264738 -0.2980055213 -0.2716389298 1.606712004e-38
-0.1588181406 -0.310536623 -0.1081603095 1.606712004e-38
-0.3057536483 -0.3806188107 -0.2209605724 1.606712004e-38
0.01247651316 -0.3158587813 -0.2718862295 1.606712004e-38
-0.05143953487 -0.2858411372 -0.1237503439 1.606712004e-38
-0.00255517289 -0.2911318541 -0.2656203508 1.625043089e-38
-0.0260745585 -0.2941462398 -0.2517902553 1.625043089e-38
-0.1657404751 -0.07659880072 -0.1539801955 1.625043089e-38
-0.2241364866 -0.01505586877 -0.174912855 1.625043089e-38
0.2061934918 -0.2874803543 -0.2850371897 1.625043089e-38
-0.04695792124 -0.2318969369 -0.2652211785 1.625043089e-38
0.2171603441 -0.2777371705 -0.2884023786 1.625043089e-38
-0.1510549486 -0.09385277331 -0.1510468423 1.625043089e-38
-0.3006830215 -0.3479896486 -0.07537499815 1.643374035e-38
-0.01352201775 -0.3008750379 -0.262255162 1.643374035e-38
-0.3034194708 -0.3777240813 -0.1778650284 1.643374035e-38
-0.02731411904 -0.2851471603 -0.2538897693 1.643374035e-38
0.1705658883 -0.1997098029 -0.1645941287 1.643374035e-38
-0.03440535441 -0.2386257648 -0.2756860852 1.643374035e-38
-0.1115781814 -0.2910879552 -0.1061232612 1.643374035e-38
-0.1234384626 -0.2993051112 -0.1140568182 1.643374035e-38
0.1815327257 -0.189966619 -0.1679593027 1.661705121e-38
0.1619212329 -0.3107129335 -0.1255699098 1.661705121e-38
0.1726988554 -0.2102349699 -0.1511958688 1.661705121e-38
-0.02448885888 -0.3106182814 -0.2588899732 1.661705121e-38
0.2498129606 -0.1495054662 -0.183951363 1.661705121e-38
0.1463422328 -0.2919328809 -0.1398020089 1.661705121e-38
-0.3066470921 -0.3790927231 -0.2322593182 1.661705121e-38
0.2095660269 -0.307004571 -0.2695394158 1.661705121e-38
0.1753672063 -0.318967849 -0.1247360632 1.680036207e-38
-0.03545573726 -0.3203614652 -0.2555247843 1.680036207e-38
0.2851926684 -0.1382739544 -0.1898478866 1.680036207e-38
-0.07585234195 -0.2873294353 -0.1212190092 1.680036207e-38
-0.06040387973 -0.2236420512 -0.2660550177 1.680036207e-38
0.1833663136 -0.3054406941 -0.2896056175 1.680036207e-38
0.2156728953 -0.1697360277 -0.1759553403 1.680036207e-38
-0.03316578642 -0.2476248443 -0.2735865712 1.680036207e-38
-0.1591642797 -0.3030636609 -0.09896106273 1.698367293e-38
-0.1237845868 -0.2918321192 -0.1048575863 1.698367293e-38
0.1438631117 -0.2739347517 -0.144001022 1.698367293e-38
-0.1791864783 -0.06834387034 -0.1548140496 1.698367293e-38
0.1718054414 -0.2087088823 -0.1624946147 1.698367293e-38
0.2074330598 -0.2964794338 -0.2829376757 1.698367293e-38
-0.3052216768 -0.1692136973 -0.3596786261 1.698367293e-38
-0.0880587846 -0.2880735695 -0.1199533418 1.698367293e-38
-0.1498153806 -0.102851823 -0.1489473283 1.716698239e-38
-0.01193632185 -0.3173470795 -0.2693549097 1.716698239e-38
-0.02572842315 -0.3016192019 -0.2609894872 1.716698239e-38
-0.07384987175 -0.2153871059 -0.2668888569 1.716698239e-38
0.1739384234 -0.2192340195 -0.1490963548 1.716698239e-38
0.1937391311 -0.189222455 -0.1692249775 1.716698239e-38
-0.03952055797 -0.2858912945 -0.2526240945 1.716698239e-38
0.2620194256 -0.1487613022 -0.1852170378 1.716698239e-38
0.1827722937 -0.1989656687 -0.1658598036 1.735029324e-38
-0.03669529781 -0.3113624156 -0.2576242983 1.735029324e-38
-0.1832309663 -0.3120249212 -0.1056289673 1.735029324e-38
-0.06129730865 -0.2221159637 -0.2773537636 1.735029324e-38
-0.04661178961 -0.239369899 -0.2744204104 1.735029324e-38
0.1741276383 -0.3099687994 -0.1268355697 1.735029324e-38
-0.05916431919 -0.2326411009 -0.2639555037 1.735029324e-38
-0.02414272726 -0.3180912435 -0.2680892348 1.735029324e-38
0.195572719 -0.3046965599 -0.2908712626 1.75336041e-38
-0.02820754424 -0.2836210728 -0.2651885152 1.75336041e-38
-0.0432392396 -0.2588941157 -0.2589226365 1.75336041e-38
0.2751192749 -0.1495432556 -0.1751839668 1.75336041e-38
-0.3052063286 -0.3746719062 -0.2004625648 1.75336041e-38
-0.03068666533 -0.2656229734 -0.2693875432 1.75336041e-38
0.1573091447 -0.2821896672 -0.1431671828 1.75336041e-38
-0.02696798369 -0.2926201522 -0.2630890012 1.75336041e-38
0.1728880852 -0.3009697497 -0.1289350837 1.771655483e-38
-0.07474330068 -0.2138610184 -0.2781876028 1.771655483e-38
-0.1779469103 -0.07734294981 -0.1527145356 1.771655483e-38
-0.04199967906 -0.2678931952 -0.2568231225 1.771655483e-38
0.1560695767 -0.2731905878 -0.1452666968 1.771655483e-38
-0.03793485835 -0.3023633361 -0.2597238123 1.771655483e-38
0.1840118468 -0.2079647481 -0.1637602895 1.771655483e-38
0.2169124335 -0.1787350774 -0.1738558263 1.771655483e-38
-0.163261354 -0.0945969224 -0.1497811824 1.789986569e-38
-0.3037656248 -0.3702511191 -0.1686657965 1.789986569e-38
-0.04890169576 -0.3121065795 -0.2563586235 1.789986569e-38
-0.1954373717 -0.3127690554 -0.1043632999 1.789986569e-38
-0.3060997725 -0.3731458187 -0.2117613107 1.789986569e-38
-0.07261031866 -0.2243861854 -0.2647893429 1.789986569e-38
-0.03634916618 -0.3188353777 -0.2668235898 1.789986569e-38
-0.2311632335 -0.3165276051 -0.08926754445 1.789986569e-38
0.2059455961 -0.1884783208 -0.1704906523 1.808317654e-38
-0.05172695592 -0.2866354585 -0.2513584197 1.808317654e-38
-0.1246780157 -0.2903060317 -0.1161563396 1.808317654e-38
0.1949786991 -0.1982215047 -0.1671254635 1.808317654e-38
0.240979135 -0.1697738171 -0.1671879292 1.808317654e-38
-0.06145426258 -0.3053777218 -0.2458937317 1.808317654e-38
-0.1481974423 -0.2933204174 -0.1023262516 1.808317654e-38
-0.1600576937 -0.3015375733 -0.1102598161 1.808317654e-38
-0.3050625622 -0.3365190029 -0.07887266576 1.826612727e-38
-0.2784031928 -0.3359762132 -0.09130460024 1.826612727e-38
0.207779184 -0.3039523959 -0.2921369374 1.826612727e-38
-0.3026710451 -0.3583573401 -0.1276697665 1.826612727e-38
-0.1473362595 -0.1208499521 -0.1447483003 1.826612727e-38
-0.0566851981 -0.25063923 -0.2597564757 1.826612727e-38
-0.1250241548 -0.2828330696 -0.1069571003 1.826612727e-38
-0.1482296735 -0.1193238646 -0.1560470611 1.826612727e-38
0.2400856912 -0.1682477295 -0.178486675 1.844943813e-38
0.1788966656 -0.2552302778 -0.1406982988 1.844943813e-38
0.1971116662 -0.2087466717 -0.1537272036 1.844943813e-38
0.2641524374 -0.1592864692 -0.1718187779 1.844943813e-38
-0.05881818756 -0.240114063 -0.2731547356 1.844943813e-38
-0.07350374758 -0.2228600979 -0.2760880888 1.844943813e-38
-0.162021786 -0.1035959721 -0.1476816684 1.844943813e-38
-0.2076438069 -0.3135132194 -0.1030976325 1.844943813e-38
0.2632589936 -0.1577603817 -0.1831175238 1.863274899e-38
-0.1629152 -0.1020698845 -0.1589804143 1.863274899e-38
0.1838549078 -0.2912265062 -0.1323002577 1.863274899e-38
-0.3024698794 -0.3449374735 -0.09797252715 1.863274899e-38
0.2080785781 -0.199003458 -0.1570923924 1.863274899e-38
-0.1722641289 -0.3022817075 -0.1089941487 1.863274899e-38
-0.0626938194 -0.2963786721 -0.2479932457 1.863274899e-38
-0.1776007563 -0.08481591195 -0.1619137675 1.863274899e-38
0.1962182522 -0.2072205842 -0.1650259495 1.881569971e-38
-0.290609628 -0.3367203474 -0.09003892541 1.881569971e-38
-0.2827827036 -0.3245055676 -0.0948022604 1.881569971e-38
-0.2376757115 -0.2945317626 -0.1061634719 1.881569971e-38
-0.05420606956 -0.2686373591 -0.2555574477 1.881569971e-38
-0.1460966915 -0.1298490018 -0.1426488012 1.881569971e-38
-0.2195243835 -0.04357916117 -0.1573155671 1.881569971e-38
0.2071851641 -0.1974773705 -0.1683911383 1.881569971e-38
-0.2198502123 -0.3142573535 -0.1018319651 1.899901057e-38
-0.2204177976 -0.04205307364 -0.168614313 1.899901057e-38
-0.05757862702 -0.2491131425 -0.2710552216 1.899901057e-38
-0.0639333874 -0.2873795927 -0.2500927448 1.899901057e-38
-0.2787493169 -0.3285032511 -0.08210536093 1.899901057e-38
0.1854406148 -0.3076985478 -0.1393999904 1.899901057e-38
0.1983512342 -0.2177457213 -0.1516276896 1.899901057e-38
-0.05262038484 -0.2851093709 -0.2626571655 1.899901057e-38
-0.07226417959 -0.2318591475 -0.2739885747 1.91819627e-38
0.1864909679 -0.2259628475 -0.1595612615 1.91819627e-38
0.1780032516 -0.2537041903 -0.1519970596 1.91819627e-38
-0.205732286 -0.05930703133 -0.1656809598 1.91819627e-38
-0.1844705194 -0.3030258715 -0.1077284813 1.91819627e-38
-0.2320566475 -0.3150015175 -0.1005662978 1.91819627e-38
0.1817219406 -0.280701369 -0.1456985176 1.91819627e-38
-0.3028160334 -0.3374645114 -0.08877326548 1.91819627e-38
-0.2555760443 -0.3180159032 -0.08673620969 1.936527215e-38
0.191103071 -0.2544861436 -0.1419639736 1.936527215e-38
-0.3035644889 -0.3568312526 -0.1389685124 1.936527215e-38
0.1767636836 -0.2447051108 -0.1540965736 1.936527215e-38
-0.1726102829 -0.2948087156 -0.09979491681 1.936527215e-38
-0.1754677892 -0.09534107149 -0.1485155076 1.936527215e-38
-0.3041117787 -0.362778157 -0.15946652 1.936527215e-38
0.2312518358 -0.1885161102 -0.1617232412 1.936527215e-38
-0.1259175837 -0.281306982 -0.1182558462 1.954822428e-38
-0.07102462649 -0.2408581972 -0.2718890607 1.954822428e-38
0.2885652483 -0.157798171 -0.1743501127 1.954822428e-38
0.2202849835 -0.198259294 -0.1583580524 1.954822428e-38
0.1948217601 -0.2814833224 -0.1356654316 1.954822428e-38
-0.06765207648 -0.2603824139 -0.2563912868 1.954822428e-38
0.2084247172 -0.20647645 -0.1662916243 1.954822428e-38
-0.2201963514 -0.3067843914 -0.09263271838 1.954822428e-38
-0.2191782296 -0.05105212703 -0.1665148139 1.973153514e-38
0.2876718044 -0.1562720835 -0.1856488585 1.973153514e-38
-0.1436175704 -0.1478471458 -0.1384497732 1.973153514e-38
-0.3064458966 -0.3656728566 -0.2025620788 1.973153514e-38
-0.2442630529 -0.3157456517 -0.09930063039 1.973153514e-38
-0.279642731 -0.3269771636 -0.0934041068 1.973153514e-38
-0.1848166734 -0.2955528498 -0.09852924198 1.973153514e-38
-0.1612972617 -0.2925384641 -0.1123593301 1.973153514e-38
-0.2035993189 -0.06983216852 -0.1522826999 1.991448586e-38
0.2105576992 -0.2170015872 -0.1528933644 1.991448586e-38
0.3007716537 -0.157054022 -0.1756157726 1.991448586e-38
0.190209657 -0.2529600561 -0.1532627195 1.991448586e-38
-0.2317307889 -0.04432331026 -0.1560499072 1.991448586e-38
-0.232624203 -0.04279722273 -0.1673486531 1.991448586e-38
-0.3073393404 -0.364146769 -0.2138608247 1.991448586e-38
-0.0685455054 -0.2588563263 -0.2676900625 1.991448586e-38
0.188970089 -0.2439609766 -0.1553622335 2.009743799e-38
-0.1423780024 -0.1568461955 -0.1363502592 2.009743799e-38
0.192688778 -0.2709581554 -0.1490637064 2.009743799e-38
-0.1271571368 -0.2723079324 -0.1203553528 2.009743799e-38
-0.06606636941 -0.2768544555 -0.2634910345 2.009743799e-38
-0.1591965258 -0.1290670633 -0.1526818722 2.009743799e-38
0.2096642852 -0.2154754996 -0.1641921103 2.009743799e-38
-0.20888336 -0.3045141697 -0.1051971391 2.009743799e-38
0.2033094764 -0.2537419796 -0.1432296485 2.028074885e-38
-0.1616434157 -0.2850655019 -0.1031600907 2.028074885e-38
-0.1432714313 -0.1553201079 -0.1476490051 2.028074885e-38
-0.06730593741 -0.2678554058 -0.2655905187 2.028074885e-38
0.23159796 -0.1959890723 -0.1709224731 2.028074885e-38
-0.2460702062 -0.03454227746 -0.1681825072 2.028074885e-38
0.2206311375 -0.205732286 -0.1675572842 2.028074885e-38
-0.2451767921 -0.03606836498 -0.1568837613 2.028074885e-38
0.2070281655 -0.2807391584 -0.1369311064 2.046369957e-38
0.2098534256 -0.3062102497 -0.1419313103 2.046369957e-38
-0.244609192 -0.3082726896 -0.09010138363 2.046369957e-38
-0.1579569578 -0.1380661428 -0.1505823582 2.046369957e-38
-0.1503304243 -0.2827952802 -0.1157245114 2.046369957e-38
-0.231384635 -0.05179627612 -0.1652491391 2.046369957e-38
-0.1393635422 -0.2730520666 -0.1190896854 2.046369957e-38
-0.3048040271 -0.3478322029 -0.1410680264 2.046369957e-38
-0.2586227357 -0.02781346068 -0.1577176005 2.06466517e-38
-0.1717491001 -0.1223382503 -0.1422169656 2.06466517e-38
-0.2686758935 -0.3172339499 -0.09676928818 2.06466517e-38
0.2061347514 -0.2792130709 -0.1482298523 2.06466517e-38
-0.1857100874 -0.2940267622 -0.1098279953 2.06466517e-38
-0.1558239758 -0.14859128 -0.1371840984 2.06466517e-38
-0.3040556014 -0.3284654617 -0.09087277204 2.06466517e-38
0.3020112216 -0.1660530865 -0.1735162735 2.06466517e-38
0.278837949 -0.1765404344 -0.1688854247 2.082996116e-38
0.3011177778 -0.164526999 -0.1848150194 2.082996116e-38
-0.2332962006 -0.3060024679 -0.1026658043 2.082996116e-38
-0.2166991234 -0.06905023009 -0.1623157859 2.082996116e-38
-0.1386593282 -0.1838434041 -0.1300517172 2.082996116e-38
-0.2439372241 -0.04506745934 -0.1547842324 2.082996116e-38
-0.1628829688 -0.2760664523 -0.1052596048 2.082996116e-38
-0.1864346266 -0.1050842702 -0.1451503336 2.082996116e-38
-0.3051501513 -0.340359211 -0.1318687946 2.101291328e-38
0.2217137367 -0.2979931533 -0.1339977533 2.101291328e-38
-0.1519161165 -0.2663232386 -0.1086247787 2.101291328e-38
-0.2921952903 -0.3202483356 -0.0829392001 2.101291328e-38
-0.1515699774 -0.2737962306 -0.117824018 2.101291328e-38
0.2910443544 -0.1757962704 -0.1701510847 2.101291328e-38
-0.1406031102 -0.2640529871 -0.1211891994 2.101291328e-38
0.2204741985 -0.2889940739 -0.1360972673 2.101291328e-38
-0.2292516679 -0.06232141703 -0.1518508792 2.119586541e-38
0.2167554945 -0.2619968951 -0.1423958093 2.119586541e-38
-0.2301450819 -0.06079532951 -0.16314964 2.119586541e-38
0.2901509106 -0.1742701828 -0.1814498454 2.119586541e-38
0.2669776678 -0.1847575605 -0.1768189967 2.119586541e-38
-0.1860562414 -0.2865538001 -0.100628756 2.119586541e-38
-0.245502606 -0.3067466021 -0.1014001369 2.119586541e-38
0.2240036577 -0.2252564728 -0.1520595253 2.119586541e-38
0.2569042146 -0.1960268617 -0.162155062 2.137881613e-38
-0.2573831975 -0.03681251034 -0.1556180865 2.137881613e-38
0.2179950625 -0.2709959447 -0.1402962953 2.137881613e-38
0.2459373772 -0.2057700753 -0.1587898731 2.137881613e-38
0.2183412164 -0.2784689367 -0.1494955271 2.137881613e-38
0.2560107708 -0.1945007741 -0.1734538078 2.137881613e-38
0.2171016484 -0.2694698572 -0.1515950412 2.137881613e-38
-0.1533448547 -0.1665894091 -0.1329850703 2.137881613e-38
-0.2154595554 -0.07804930955 -0.1602162719 2.156176826e-38
0.3032507598 -0.1750521362 -0.1714167595 2.156176826e-38
-0.2435910702 -0.05254042521 -0.1639834791 2.156176826e-38
0.280077517 -0.1855395138 -0.1667859107 2.156176826e-38
-0.1296362579 -0.2543098032 -0.1245543808 2.156176826e-38
0.2791840732 -0.1840134263 -0.1780846566 2.156176826e-38
-0.2742949426 -0.2967642248 -0.1023664773 2.156176826e-38
-0.1637763828 -0.2745403647 -0.1165583506 2.156176826e-38
-0.133701086 -0.2198396325 -0.1216536835 2.174471899e-38
-0.2577089965 -0.307490766 -0.1001344696 2.174471899e-38
-0.1641225368 -0.2670673728 -0.1073591188 2.174471899e-38
0.2691106796 -0.1952826977 -0.1634207368 2.174471899e-38
-0.132115379 -0.2363116741 -0.1287533939 2.174471899e-38
-0.2280121148 -0.0713204667 -0.1497513801 2.174471899e-38
-0.2633281052 -0.2870210111 -0.1057316512 2.174471899e-38
-0.3060435951 -0.3388331234 -0.1431675404 2.174471899e-38
0.2326806188 -0.2882499099 -0.1373629421 2.192767111e-38
0.2317871749 -0.2867238224 -0.148661688 2.192767111e-38
-0.1982626468 -0.2872979641 -0.09936308116 2.192767111e-38
-0.1689238399 -0.1478093565 -0.1472171843 2.192767111e-38
0.2289618999 -0.2612527311 -0.1436614692 2.192767111e-38
0.2913904786 -0.1832692623 -0.1793503314 2.192767111e-38
-0.1529987156 -0.1740623713 -0.1421843171 2.192767111e-38
-0.134594515 -0.218313545 -0.1329524219 2.192767111e-38
-0.3058424592 -0.3254132867 -0.1134702936 2.211062324e-38
-0.1418426633 -0.2550539374 -0.1232887134 2.211062324e-38
-0.1986410618 -0.1058284268 -0.1438846588 2.211062324e-38
-0.2223293334 -0.2962592244 -0.1060309932 2.211062324e-38
-0.1827159524 -0.132081449 -0.1388517916 2.211062324e-38
-0.1836093664 -0.1305553615 -0.1501505375 2.211062324e-38
-0.1667908579 -0.1583344936 -0.1338189244 2.211062324e-38
-0.2812284231 -0.3105051517 -0.08630438894 2.211062324e-38
-0.1531556845 -0.2573241889 -0.1107242927 2.229357396e-38
0.2353166342 -0.2229862511 -0.1646239311 2.229357396e-38
0.238689214 -0.2425104678 -0.1491261572 2.229357396e-38
-0.2699154317 -0.3082349002 -0.09886880219 2.229357396e-38
-0.2695896327 -0.03755666316 -0.1543524116 2.229357396e-38
0.3044903278 -0.1840512156 -0.1693172455 2.229357396e-38
-0.175982818 -0.2752845287 -0.1152926832 2.229357396e-38
-0.1517591625 -0.1830614507 -0.1400848031 2.229357396e-38
-0.24584876 -0.2992736101 -0.09220089763 2.247652609e-38
-0.3103657663 -0.3520955443 -0.2385578603 2.247652609e-38
-0.1676842719 -0.1568084061 -0.1451176703 2.247652609e-38
0.281317085 -0.1945385635 -0.1646863967 2.247652609e-38
-0.2839290202 -0.02777567133 -0.1664850116 2.247652609e-38
-0.176328972 -0.2678115368 -0.1060934439 2.247652609e-38
-0.1814763844 -0.1410805285 -0.1367522776 2.247652609e-38
-0.1446679235 -0.2295828462 -0.1182884946 2.247652609e-38
0.2448870242 -0.2875057757 -0.138628602 2.265947681e-38
0.2439935803 -0.2859796882 -0.1499273479 2.265947681e-38
-0.2557974756 -0.0532845743 -0.1627178043 2.265947681e-38
-0.2964815497 -0.02104685456 -0.1560201049 2.265947681e-38
0.2935234904 -0.1937943995 -0.1659520715 2.265947681e-38
0.2694568038 -0.2027556896 -0.1726199687 2.265947681e-38
-0.1459074914 -0.2205837667 -0.1203880161 2.265947681e-38
-0.2973749936 -0.01952076703 -0.1673188508 2.265947681e-38
-0.2120870203 -0.09757351875 -0.144718498 2.284242894e-38
-0.3069370091 -0.3373070359 -0.1544663161 2.284242894e-38
-0.1455613524 -0.2280567586 -0.1295872331 2.284242894e-38
-0.1970553547 -0.1223004609 -0.1509843767 2.284242894e-38
-0.1492800415 -0.20105955 -0.1358857751 2.284242894e-38
0.2436474562 -0.278506726 -0.140728116 2.284242894e-38
0.2424078882 -0.2695076466 -0.14282763 2.284242894e-38
-0.2821218669 -0.3089790642 -0.09760313481 2.284242894e-38
-0.1802368313 -0.1500795782 -0.1346527636 2.302537966e-38
-0.24021855 -0.07206461579 -0.1484857053 2.302537966e-38
-0.2767740786 -0.2787661254 -0.1065654904 2.302537966e-38
-0.2692434788 -0.04502967 -0.1635516435 2.302537966e-38
-0.1468009204 -0.2190576792 -0.131686762 2.302537966e-38
-0.3080316186 -0.349200815 -0.1954623163 2.302537966e-38
-0.1811302453 -0.1485534906 -0.1459515095 2.302537966e-38
-0.177222386 -0.2662854493 -0.1173921973 2.302537966e-38
0.2475230396 -0.2222420871 -0.1658896059 2.320833179e-38
0.3057298958 -0.1930502653 -0.1672177315 2.320833179e-38
-0.1995021999 -0.2782989144 -0.1014625952 2.320833179e-38
-0.2826894522 -0.03677472472 -0.1643854976 2.320833179e-38
-0.1958158016 -0.1312995255 -0.1488848627 2.320833179e-38
0.2561999857 -0.2852355242 -0.1511930227 2.320833179e-38
-0.289326638 -0.2720372677 -0.09610059857 2.320833179e-38
-0.2255329788 -0.08931859583 -0.1455523521 2.320833179e-38
0.2816632092 -0.2020115554 -0.1738856286 2.339092378e-38
0.2512417138 -0.2492392957 -0.1595910639 2.339092378e-38
-0.3072831631 -0.3298340738 -0.1452670544 2.339092378e-38
-0.1552886665 -0.246799022 -0.12412256 2.339092378e-38
0.2533747256 -0.2597644329 -0.146192804 2.339092378e-38
-0.2702615857 -0.3007619083 -0.08966956288 2.339092378e-38
0.2487626076 -0.2312411666 -0.1637900919 2.339092378e-38
-0.1568743587 -0.2303270102 -0.1170228347 2.339092378e-38
-0.2961354256 -0.02851982042 -0.1652193367 2.348204041e-38
0.2549604177 -0.2762364745 -0.1532925218 2.348204041e-38
-0.2943283021 -0.3097231984 -0.09633745998 2.348204041e-38
-0.1627260298 -0.1928046644 -0.1367196143 2.348204041e-38
-0.2877409458 -0.2885093093 -0.1032003164 2.348204041e-38
-0.2680039108 -0.05402872711 -0.1614521295 2.348204041e-38
-0.1945762336 -0.140298605 -0.1467853487 2.348204041e-38
-0.1577677876 -0.2288009226 -0.1283215731 2.348204041e-38
-0.3098184764 -0.3461486399 -0.2180598378 2.348132155e-38
-0.3078304529 -0.3357809484 -0.165765062 2.348132155e-38
-0.2671104968 -0.05555481091 -0.1501533836 2.348132155e-38
-0.2003956139 -0.2767728269 -0.1127613485 2.348132155e-38
-0.1777577102 -0.1680777073 -0.1304537505 2.348132155e-38
0.270696342 -0.2117547393 -0.1705204546 2.348132155e-38
-0.2889805138 -0.2795102596 -0.1052998304 2.348132155e-38
0.269299835 -0.2860174775 -0.1411599368 2.348132155e-38
-0.1666016579 -0.2490692437 -0.1115581468 2.348060128e-38
-0.2911134958 -0.2689850926 -0.1186981201 2.348060128e-38
-0.2814498842 -0.04577381909 -0.1622859836 2.348060128e-38
-0.1590073556 -0.2198018432 -0.1304210871 2.348060128e-38
0.2618624568 -0.2320231199 -0.1537570059 2.348060128e-38
-0.1602469087 -0.2108027935 -0.1325206012 2.348060128e-38
-0.167841211 -0.240070194 -0.1136576533 2.348060128e-38
-0.2824679911 -0.3015060723 -0.08840390295 2.348060128e-38
-0.2083683312 -0.1245706975 -0.1384199709 2.347952368e-38
-0.1933366805 -0.1492976546 -0.1446858495 2.347952368e-38
0.2634481192 -0.2484951615 -0.1608567387 2.347952368e-38
0.268060267 -0.2770184278 -0.1432594508 2.347952368e-38
-0.1924432665 -0.1508237422 -0.1333871037 2.347952368e-38
0.2837961912 -0.2125366926 -0.1604873687 2.347952368e-38
-0.1752785742 -0.1860758364 -0.1262547225 2.347952368e-38
-0.1774115562 -0.1755506694 -0.1396529824 2.347952368e-38
-0.168734625 -0.2385441065 -0.1249563992 2.347880341e-38
0.266820699 -0.2680193484 -0.1453589648 2.347880341e-38
0.2829027474 -0.2110106051 -0.1717861295 2.347880341e-38
-0.2667643428 -0.06302777678 -0.1593526304 2.347880341e-38
-0.2230538577 -0.1073167175 -0.1413533241 2.347880341e-38
-0.3083418608 -0.02926396951 -0.1639536768 2.347880341e-38
-0.2658709288 -0.0645538643 -0.1480538696 2.347880341e-38
-0.2080221921 -0.1320436597 -0.1476192027 2.347880341e-38
0.2815063 -0.2852733135 -0.1424256116 2.347808455e-38
0.2728293538 -0.2222798765 -0.1571221948 2.347808455e-38
-0.1761719882 -0.1845497489 -0.1375534683 2.347808455e-38
-0.2071287781 -0.1335697472 -0.1363204569 2.347808455e-38
-0.1912036985 -0.1598227918 -0.1312875897 2.347808455e-38
-0.3087238669 -0.3342548609 -0.1770638525 2.347808455e-38
-0.3092711568 -0.3402017653 -0.1975618303 2.347808455e-38
-0.2126020491 -0.2775169611 -0.1114956737 2.347808455e-38
-0.2802103162 -0.05477287248 -0.1601864696 2.347700555e-38
-0.2511853874 -0.08180783689 -0.1451205164 2.347700555e-38
0.276548028 -0.2492770851 -0.1508236527 2.347700555e-38
-0.2946744263 -0.3022502065 -0.08713822812 2.347700555e-38
-0.2227077186 -0.1147896945 -0.1505525559 2.347700555e-38
0.2793732882 -0.2747481763 -0.1558238715 2.347700555e-38
-0.3074281216 -0.3089412749 -0.1063705757 2.347700555e-38
0.277787596 -0.2582761347 -0.1487241536 2.347700555e-38
-0.2058892101 -0.1425688267 -0.1342209429 2.347628668e-38
-0.2239150405 -0.2797872126 -0.09893126041 2.347628668e-38
-0.1899641454 -0.1688218713 -0.1291880757 2.347628668e-38
-0.306208849 -0.03978911042 -0.1505554169 2.347628668e-38
-0.1800476462 -0.240814358 -0.112391986 2.347628668e-38
-0.1906683296 -0.2580305338 -0.1182260364 2.347628668e-38
0.279027164 -0.2672751844 -0.1466246396 2.347628668e-38
-0.2364998609 -0.09906181693 -0.1421871632 2.347628668e-38
-0.3196548223 -0.03153420612 -0.1513892561 2.347520768e-38
0.308209002 -0.2110483944 -0.1630187035 2.347520768e-38
-0.3071022928 -0.0382630229 -0.1618541628 2.347520768e-38
0.273175478 -0.2297528684 -0.1663214266 2.347520768e-38
-0.1724533141 -0.2115469277 -0.1312549263 2.347520768e-38
-0.2214681506 -0.1237887591 -0.1484530419 2.347520768e-38
-0.2129482031 -0.2700439692 -0.1022964492 2.347520768e-38
-0.2205747366 -0.1253148466 -0.137154296 2.347520768e-38
-0.3339942694 -0.0217532143 -0.1635218412 2.347448882e-38
-0.3068808317 -0.3029943705 -0.08587256819 2.347448882e-38
-0.3560283482 -0.00571038574 -0.2865425646 2.347448882e-38
-0.2508392334 -0.08928080648 -0.1543197632 2.347448882e-38
-0.3578152061 -0.002658210695 -0.3091400862 2.347448882e-38
0.2862753272 -0.2305348217 -0.1562883407 2.347448882e-38
-0.2361214757 -0.2805313468 -0.09766558558 2.347448882e-38
-0.1910144836 -0.2505575418 -0.109026812 2.347448882e-38
0.2875148952 -0.2395338714 -0.1541888416 2.347340982e-38
-0.2202285975 -0.1327878088 -0.1463535428 2.347340982e-38
-0.1862454563 -0.1958190501 -0.1228895411 2.347340982e-38
0.2899940014 -0.2575320005 -0.1499898136 2.347340982e-38
-0.2138416171 -0.2685178816 -0.1135951951 2.347340982e-38
0.2878609896 -0.2470068634 -0.1633880734 2.347340982e-38
-0.3533480763 -0.01028864831 -0.2526462972 2.347340982e-38
0.2903401256 -0.2650049627 -0.1591890454 2.347340982e-38
-0.3243602216 -0.2907417715 -0.09940330684 2.347269095e-38
0.2912335694 -0.2665310502 -0.1478902996 2.347269095e-38
-0.3184152544 -0.04053325951 -0.1492897421 2.347269095e-38
0.2853818834 -0.2290087342 -0.1675871015 2.347269095e-38
-0.1919078976 -0.2490314543 -0.1203255579 2.347269095e-38
0.2972421646 -0.2207915783 -0.1596535295 2.347269095e-38
-0.3193086982 -0.03900717199 -0.160588488 2.347269095e-38
-0.3318612576 -0.03227835521 -0.1501235813 2.347269095e-38
-0.1850058883 -0.2048180997 -0.1207900345 2.347161195e-38
0.2963487208 -0.2192654908 -0.1709522754 2.347161195e-38
-0.2483278811 -0.2812755108 -0.09639992565 2.347161195e-38
0.3046795428 -0.2747859657 -0.1470564455 2.347161195e-38
0.3009608388 -0.2477887869 -0.1533549875 2.347161195e-38
-0.276837796 -0.07429706305 -0.1446886957 2.347161195e-38
-0.3105107248 -0.3312026858 -0.1996613443 2.347161195e-38
-0.1834201813 -0.2212901413 -0.1278897524 2.347161195e-38
-0.27773121 -0.07277097553 -0.1559874415 2.347089308e-38
-0.3506678045 -0.01486692205 -0.2187499851 2.347089308e-38
-0.1858993024 -0.2032920122 -0.1320887804 2.347089308e-38
0.300067395 -0.2462626994 -0.1646537334 2.347089308e-38
-0.3462006748 -0.02249736339 -0.1622561812 2.347089308e-38
-0.2902837396 -0.06604216248 -0.1455225497 2.347089308e-38
0.2988278568 -0.2372636199 -0.1667532474 2.347089308e-38
-0.3547887802 -0.01470943913 -0.2844430506 2.347089308e-38
-0.3497743607 -0.01639300585 -0.2074512243 2.346981408e-38
-0.2327811718 -0.1260589957 -0.1358886212 2.346981408e-38
0.3034399748 -0.2657868862 -0.1491559744 2.346981408e-38
-0.3037297428 -0.05778725818 -0.1463563889 2.346981408e-38
-0.2168560624 -0.1523120403 -0.1308557689 2.346981408e-38
-0.203220889 -0.2513017058 -0.1077611372 2.346981408e-38
-0.2009309679 -0.1785650551 -0.1258229017 2.346981408e-38
-0.2177494764 -0.1507859528 -0.1421545148 2.346981408e-38
0.3085551262 -0.2185213566 -0.1722179502 2.346909522e-38
-0.3171756864 -0.04953235388 -0.1471902281 2.346909522e-38
-0.2483601123 -0.1072789282 -0.1501207352 2.346909522e-38
-0.2630456686 -0.09002495557 -0.1530540884 2.346909522e-38
-0.2018243819 -0.1770389676 -0.1371216476 2.346909522e-38
0.3110342622 -0.2365194857 -0.1680189222 2.346909522e-38
-0.3180691302 -0.04800626636 -0.158488974 2.346909522e-38
-0.2959139943 -0.2932511568 -0.08923774213 2.346909522e-38
0.3135133684 -0.2545176148 -0.1638198942 2.346801622e-38
-0.2492212951 -0.2797494233 -0.1076986715 2.346801622e-38
-0.3315151334 -0.03975132108 -0.1593228281 2.346801622e-38
-0.3122975826 -0.3281505108 -0.2222588658 2.346801622e-38
-0.02589039318 -0.7202390432 -0.3045307398 2.346801622e-38
-0.3449611068 -0.03149641678 -0.1601566672 2.346801622e-38
-0.2462271452 -0.1178040802 -0.1367224753 2.346801622e-38
-0.3024901748 -0.06678631157 -0.1442568749 2.346801622e-38
-0.2053538561 -0.2407765687 -0.1211593971 2.346693862e-38
-0.3458545208 -0.02997032553 -0.1714554429 2.346693862e-38
-0.3101083934 -0.3043629825 -0.1402668506 2.346693862e-38
-0.2303020507 -0.1440571249 -0.1316895932 2.346693862e-38
-0.2311954647 -0.1425310373 -0.142988354 2.346693862e-38
-0.3485347927 -0.02539206296 -0.2053517252 2.346693862e-38
-0.2727407217 -0.282763809 -0.09386859089 2.346693862e-38
-0.3467479646 -0.02844423801 -0.1827541888 2.346693862e-38
-0.3159361482 -0.05853140727 -0.1450907141 2.346621835e-38
-0.2263941616 -0.2617890835 -0.1031302884 2.346621835e-38
-0.354442656 -0.02218240499 -0.2936423123 2.346621835e-38
-0.2609126866 -0.1005501151 -0.1396558285 2.346621835e-38
-0.3508689404 -0.02828675881 -0.2484472543 2.346621835e-38
-0.3553360701 -0.02065631375 -0.304941088 2.346621835e-38
-0.2154273242 -0.25204584 -0.1064954624 2.346621835e-38
-0.3095611334 -0.2984161079 -0.1197688356 2.346621835e-38
-0.3293821216 -0.05027650297 -0.1459245533 2.346514075e-38
-0.2057000101 -0.2333036065 -0.1119601578 2.346514075e-38
-0.3140844405 -0.3250983357 -0.2448564023 2.346514075e-38
-0.05030323565 -0.7217273116 -0.3019993901 2.346514075e-38
-0.3302755654 -0.04875041544 -0.1572232991 2.346514075e-38
-0.27435866 -0.09229519218 -0.1404896826 2.346514075e-38
-0.2065934241 -0.231777519 -0.1232589036 2.346514075e-38
-0.2272875756 -0.260262996 -0.1144290343 2.346514075e-38
-0.342828095 -0.04202155769 -0.1467584074 2.346406175e-38
-0.2596731186 -0.1095491722 -0.1375563145 2.346406175e-38
-0.3481886685 -0.0328650251 -0.2145509571 2.346406175e-38
-0.2437480241 -0.1358021945 -0.1325234473 2.346406175e-38
-0.3146965802 -0.06753046066 -0.1429912001 2.346406175e-38
-0.2127912194 -0.1867822111 -0.1337564588 2.346406175e-38
-0.3455083966 -0.0374432914 -0.1806546897 2.346406175e-38
-0.2106582522 -0.1973073483 -0.1203582063 2.346406175e-38
-0.2617738545 -0.2730205655 -0.09723376483 2.346334289e-38
-0.3472952247 -0.03439111263 -0.2032522112 2.346334289e-38
-0.3126437068 -0.3206775486 -0.213059634 2.346334289e-38
-0.2166668773 -0.2430467904 -0.1085949764 2.346334289e-38
-0.2069395632 -0.224304527 -0.1140596792 2.346334289e-38
-0.0747160688 -0.72321558 -0.2994680405 2.346334289e-38
-0.2593269944 -0.1170221418 -0.1467555612 2.346334289e-38
-0.3281425834 -0.05927555636 -0.1438250393 2.346334289e-38
-0.2175602913 -0.2415207028 -0.1198937297 2.346226389e-38
-0.2584335804 -0.1185482293 -0.1354568154 2.346226389e-38
-0.2094186842 -0.2063063979 -0.1182586998 2.346226389e-38
-0.3290360272 -0.05774946883 -0.1551238 2.346226389e-38
-0.2434018701 -0.1432752013 -0.1417226791 2.346226389e-38
-0.3496293724 -0.03728585318 -0.2463477403 2.346226389e-38
-0.312096417 -0.314730674 -0.1925616115 2.346226389e-38
-0.2865650654 -0.09303934127 -0.1392240077 2.346226389e-38
-0.3540965021 -0.02965540811 -0.3028415442 2.346118629e-38
-0.2090725452 -0.2137793899 -0.1274579316 2.346118629e-38
-0.2580874264 -0.1260212064 -0.1446560323 2.346118629e-38
-0.3478425145 -0.04033803195 -0.2237502187 2.346118629e-38
-0.09912887961 -0.724703908 -0.2969367206 2.346118629e-38
-0.2874585092 -0.09151325375 -0.1505227536 2.346118629e-38
-0.2571940124 -0.1275472939 -0.1333572865 2.346118629e-38
-0.2858405709 -0.2819818556 -0.1039016694 2.346118629e-38
-0.3442688286 -0.04644238949 -0.1785551608 2.346010729e-38
-0.2971535623 -0.2842521071 -0.09133724123 2.346010729e-38
-0.3460556567 -0.04339020699 -0.2011526972 2.346010729e-38
-0.3113479614 -0.295363903 -0.1423663646 2.346010729e-38
-0.2398401648 -0.2535341382 -0.1039641276 2.346010729e-38
-0.2517004013 -0.2617512941 -0.1118976995 2.346010729e-38
-0.3403489888 -0.06001970544 -0.1425593793 2.346010729e-38
-0.2228646874 -0.1980514824 -0.119092539 2.346010729e-38
-0.2249976546 -0.1875263453 -0.1324907839 2.345938842e-38
-0.240029335 -0.1627993882 -0.1262249202 2.345938842e-38
-0.2706399858 -0.1192923784 -0.1341911405 2.345938842e-38
-0.2715333998 -0.1177662909 -0.1454898864 2.345938842e-38
-0.240922749 -0.1612733006 -0.137523666 2.345938842e-38
-0.350176692 -0.04323273152 -0.2668457329 2.345938842e-38
-0.351070106 -0.04170664027 -0.2781445086 2.345938842e-38
-0.3492832482 -0.04475881904 -0.2555469871 2.345938842e-38
-0.3474964201 -0.04781099409 -0.2329494506 2.345830942e-38
-0.3483898342 -0.04628490657 -0.2442482263 2.345830942e-38
-0.2862189412 -0.1005123258 -0.1484232396 2.345830942e-38
-0.2987715006 -0.09378349036 -0.1379583329 2.345830942e-38
-0.2861866653 -0.2745088637 -0.09470243007 2.345830942e-38
-0.2556082904 -0.1440193355 -0.1404570192 2.345830942e-38
-0.07560949028 -0.7216895223 -0.3107668161 2.345830942e-38
-0.3138832748 -0.311678499 -0.215159148 2.345830942e-38
-0.2212789804 -0.214523524 -0.1261922568 2.345723183e-38
-0.313110888 -0.08400250226 -0.1500909328 2.345723183e-38
-0.2694004178 -0.128291443 -0.1320916265 2.345723183e-38
-0.135748148 -0.7269363403 -0.2931396961 2.345723183e-38
-0.2849793732 -0.1095113754 -0.1463237256 2.345723183e-38
-0.3400028646 -0.06749267131 -0.1517586112 2.345723183e-38
-0.1000223011 -0.7231777906 -0.3082354665 2.345723183e-38
-0.2870801091 -0.2729827762 -0.1060011834 2.345723183e-38
-0.2681608498 -0.1372905076 -0.1299921125 2.345615283e-38
-0.2975319326 -0.1027825624 -0.1358588189 2.345615283e-38
-0.2529399693 -0.2527522147 -0.1139972135 2.345615283e-38
-0.03988365084 -0.7179310322 -0.3258625865 2.345615283e-38
