# .PCD v0.7 - Point Cloud Data file format
VERSION 0.7
FIELDS x y z rgb
SIZE 4 4 4 4
TYPE F F F F
COUNT 1 1 1 1
WIDTH 839
HEIGHT 1
VIEWPOINT 0 0 0 1 0 0 0
POINTS 839
DATA ascii
-0.0965167731 -0.4962108433 -0.01904491335 3.994471337e-39
0.4505796134 -0.4767244756 -0.1249424368 3.994471337e-39
0.4066430628 -0.4741712511 0.001966904849 3.994471337e-39
0.1537616849 -0.4620863199 0.1888156831 3.81151781e-39
-0.0184802711 -0.4542466998 0.2345149964 3.81151781e-39
0.1673844606 -0.4651491046 -0.3235285878 3.81151781e-39
-0.1309909075 -0.5013661385 0.1958941966 3.81151781e-39
-0.1759454161 -0.4494013488 -0.207224682 3.628921614e-39
-0.0658788234 -0.4518990815 0.2867087126 3.628921614e-39
-0.1257526278 -0.4669511914 -0.3182637691 3.628921614e-39
0.1543808281 -0.4646307528 -0.3353853822 3.628921614e-39
-0.05687205121 -0.4552360475 -0.3252563477 3.446326818e-39
-0.1574959606 -0.4933791459 0.008839422837 3.446326818e-39
0.463006258 -0.4772770703 -0.1255382597 3.446326818e-39
-0.1512250751 -0.4633014798 0.2071289718 3.446326818e-39
-0.06357081234 -0.4517620206 0.3365191817 3.26337189e-39
0.08544490486 -0.4752216339 0.1357415766 3.26337189e-39
-0.05402920768 -0.4524859786 0.2736603022 3.26337189e-39
0.3846747875 -0.4728946984 0.06542158127 3.26337189e-39
-0.08186137676 -0.503610909 0.1810583174 3.080777095e-39
0.2306716591 -0.4678437412 -0.3016024828 3.080777095e-39
0.4476945996 -0.4768957794 -0.1872054636 3.080777095e-39
0.4216872752 -0.4758590162 -0.2109190226 3.080777095e-39
0.3826763928 -0.4743039906 -0.2464893609 2.898180898e-39
-0.02340589091 -0.4532485902 0.39699471 2.898180898e-39
0.05607955158 -0.4575624764 0.2309400588 2.898180898e-39
-0.1765224189 -0.4494356215 -0.2196772844 2.898180898e-39
0.4421919584 -0.4759319723 -0.03717837483 2.715227371e-39
-0.1217380911 -0.4517276585 0.2930396795 2.715227371e-39
0.3643644154 -0.4744839072 0.03260722756 2.715227371e-39
0.3762140274 -0.4750708044 0.0195588097 2.715227371e-39
-0.01732626557 -0.4541781545 0.2594202459 2.532632576e-39
-0.1321449131 -0.5014346838 0.1709890217 2.532632576e-39
0.2040451914 -0.4642625451 0.1988849789 2.532632576e-39
0.3282384574 -0.4727574885 0.05929994583 2.532632576e-39
0.4427689612 -0.4758976996 -0.02472577989 2.349677647e-39
0.3525147736 -0.4738970101 0.04565564543 2.349677647e-39
0.3497028947 -0.4710997045 0.1170194745 2.349677647e-39
-0.1442234963 -0.4406591356 -0.2051303387 2.349677647e-39
-0.02859891579 -0.4535569847 0.2849212289 2.167082852e-39
-0.08388116956 -0.4533512592 0.3037047982 2.167082852e-39
0.07751298696 -0.4614520371 -0.3816208243 2.167082852e-39
-0.1164066344 -0.3888650835 0.3945433199 2.167082852e-39
-0.05516245961 -0.4728190005 0.04129895195 1.984127923e-39
-0.09861581028 -0.4529357255 0.2544901967 1.984127923e-39
-0.03215480596 -0.5058214068 0.1786750108 1.984127923e-39
-0.1382037252 -0.4514148831 0.2064673007 1.984127923e-39
0.04480693489 -0.4569413066 0.2564411163 1.801533128e-39
-0.1502800435 -0.506645143 -0.09131139517 1.801533128e-39
0.1187897548 -0.4602913558 0.2404135913 1.801533128e-39
0.1023662388 -0.462557286 -0.3828125 1.801533128e-39
0.277451098 -0.467646867 0.1704048514 1.618578199e-39
0.2926895916 -0.4709967971 0.09844519943 1.618578199e-39
0.09393650293 -0.4591861069 0.2416052371 1.618578199e-39
-0.147377342 -0.494068861 -0.04156683385 1.618578199e-39
0.2555249929 -0.4689489901 -0.3027941585 1.435982003e-39
0.0008703917265 -0.4543881118 0.3833504915 1.435982003e-39
-0.005427295342 -0.4228310883 0.5254955292 1.435982003e-39
-0.07549352944 -0.4541437626 0.2159407735 1.435982003e-39
0.02745465189 -0.4553906024 0.419516623 1.253028475e-39
0.3945260048 -0.4748908579 -0.2595377564 1.253028475e-39
-0.000283615198 -0.4544566572 0.3584452271 1.253028475e-39
0.257140696 -0.4692361057 0.1375904977 1.253028475e-39
-0.002591623925 -0.4545937181 0.3086348772 1.070432279e-39
0.05288497359 -0.4564615786 0.4307776093 1.070432279e-39
0.3028436303 -0.4468766153 0.02300206944 1.070432279e-39
0.2057761997 -0.4641597569 0.2362428159 1.070432279e-39
0.3023043573 -0.4687521458 0.1692132056 8.874787512e-40
0.02687765285 -0.4554248452 0.4070640206 8.874787512e-40
0.006422327831 -0.4234179854 0.5124471188 8.874787512e-40
0.2560043633 -0.4568997025 0.10016682 8.874787512e-40
0.01755175926 -0.5080319643 0.1762917191 7.045238224e-40
0.2814169824 -0.4703756571 0.1239462569 7.045238224e-40
0.01884898171 -0.4239706099 0.5118513107 7.045238224e-40
-0.02973216958 -0.4738899767 0.0525598973 7.045238224e-40
0.0115660103 -0.4550435245 0.3453968167 5.219290273e-40
0.0523079671 -0.4564958513 0.4183249474 5.219290273e-40
0.305693239 -0.4715151787 0.110301964 5.219290273e-40
0.1103290543 -0.4624674916 0.1945508122 5.219290273e-40
-0.1152172536 -0.363986671 0.3944116533 3.389740985e-40
0.04711494595 -0.4568042457 0.3062515855 3.389740985e-40
-0.01393734105 -0.4569411874 0.2005090714 3.389740985e-40
-0.1754591912 -0.4647406638 -0.3158804774 3.389740985e-40
-0.1187755316 -0.4293251634 -0.2063878179 1.56020571e-40
-0.10892573 -0.4832533002 -0.03096752614 1.56020571e-40
-0.1274836361 -0.4670539796 -0.3556215763 1.56020571e-40
0.2040873915 -0.4668412805 -0.3377686739 1.56020571e-40
0.1594808102 -0.4413568676 0.08215873688 6.490113838e-41
0.03634623066 -0.4591174424 0.2105783522 6.490113838e-41
-0.1337789893 -0.4821480513 -0.02977588028 6.490113838e-41
0.1222009137 -0.4396989644 0.08394620568 6.490113838e-41
-0.1127557755 -0.4400809705 0.2052098215 2.496469266e-40
-0.1101758257 -0.4276869297 0.4445355833 2.496469266e-40
-0.1321272254 -0.4890297055 0.1584705859 2.496469266e-40
-0.1485313475 -0.4941373765 -0.06647204608 2.496469266e-40
-0.01336033829 -0.4569069147 0.2129616439 4.340353837e-40
0.03980824724 -0.4589118361 0.2852939665 4.340353837e-40
0.1696503311 -0.4624333382 0.2629354596 4.340353837e-40
-0.01162933186 -0.4568041265 0.2503194213 4.340353837e-40
-0.1361831129 -0.4266501665 0.4208220541 6.184224396e-40
0.02449654788 -0.4585305452 0.2236267626 6.184224396e-40
0.02507355064 -0.4584962726 0.236079365 6.184224396e-40
0.02565055154 -0.4584620297 0.2485319674 6.184224396e-40
-0.01971048862 -0.4939691126 0.1655607522 8.028094954e-40
0.05165787041 -0.4594987333 0.2722455561 8.028094954e-40
-0.07547584176 -0.4417388737 0.2034223378 8.028094954e-40
0.1352045536 -0.4402173162 0.09580297768 8.028094954e-40
0.2910116613 -0.4338847995 0.02353204787 9.871979525e-40
0.05057696253 -0.4565986395 0.3809671998 9.871979525e-40
-0.08232375979 -0.4718508124 -0.007319830358 9.871979525e-40
-0.1093057096 -0.2644045651 0.4187900722 9.871979525e-40
0.07196820527 -0.4579094946 0.3050599098 1.171585008e-39
0.07420311868 -0.4607410431 0.2212434709 1.171585008e-39
0.005142796785 -0.4950743616 0.1643691063 1.171585008e-39
0.04240501672 -0.5091372132 0.1751000732 1.171585008e-39
0.07658421993 -0.4576353431 0.4046807289 1.355972064e-39
-0.05062258989 -0.4428441226 0.2022306919 1.355972064e-39
-0.0586030595 -0.4553388655 -0.3626141548 1.355972064e-39
0.09905643761 -0.4618463218 0.220051825 1.355972064e-39
0.08778375387 -0.4612251818 0.2455528378 1.540360521e-39
0.1702273339 -0.4623990655 0.275388062 1.540360521e-39
0.09682151675 -0.4590147734 0.3038682342 1.540360521e-39
-0.1497637331 -0.4261660874 0.3965126276 1.540360521e-39
0.207507208 -0.4640569389 0.2736005783 1.724747577e-39
0.109248139 -0.4595673978 0.3032724261 1.724747577e-39
-0.01062752586 -0.4576521814 -0.4023553133 1.724747577e-39
0.1390691847 -0.4642494619 -0.3970525861 1.724747577e-39
-0.1199716926 -0.4268149734 0.3053605855 1.909134633e-39
-0.1124838367 -0.4278239906 0.3947251737 1.909134633e-39
0.292804867 -0.4706068933 -0.3045816422 1.909134633e-39
-0.1523369253 -0.4659487009 -0.3544299304 1.909134633e-39
-0.1192916483 -0.389036417 0.332280308 2.09352309e-39
-0.03490377963 -0.45651263 -0.3887110353 2.09352309e-39
0.2289406508 -0.4679465294 -0.33896029 2.09352309e-39
0.1222517714 -0.4600857496 0.3151292205 2.09352309e-39
0.1785210371 -0.5152503848 0.1560934186 2.277910146e-39
-0.1000571772 -0.428376615 0.3941293359 2.277910146e-39
-0.155754894 -0.3632118702 0.4714949131 2.277910146e-39
0.1644994467 -0.4653204381 -0.3857915998 2.277910146e-39
-0.1060660481 -0.3778273165 0.4816300571 2.462297202e-39
0.1775030643 -0.4658388197 -0.3739348054 2.462297202e-39
0.2329375297 -0.4651279747 0.2848615646 2.462297202e-39
0.2798012495 -0.4700885415 -0.3164383769 2.462297202e-39
0.1346783787 -0.4606383741 0.3145333529 2.646685659e-39
-0.1157765687 -0.3516159952 0.3694405556 2.646685659e-39
0.1144411638 -0.4592590034 0.4153458476 2.646685659e-39
0.1109237447 -0.4500283003 0.1944849789 2.646685659e-39
-0.04396905005 -0.4804246724 0.1666865647 2.830713982e-39
0.1962345988 -0.4634357989 0.2991016507 2.830713982e-39
0.1536677778 -0.5141451359 0.1572850645 2.830713982e-39
-0.07026512921 -0.429025501 0.3029772937 2.830713982e-39
-0.10063418 -0.4284108579 0.3816767335 3.015101038e-39
-0.1110013276 -0.239697516 0.3563953638 3.015101038e-39
0.09153458476 -0.5113819838 0.1602641791 3.015101038e-39
-0.1563318968 -0.3632461429 0.4590422511 3.015101038e-39
-0.106048353 -0.3654223979 0.4691116214 3.199488094e-39
0.3276407421 -0.5218819976 0.1489435285 3.199488094e-39
0.1672483981 -0.5146292448 0.1815944165 3.199488094e-39
0.1719583422 -0.4622962773 0.3127459288 3.199488094e-39
-0.16476354 -0.4653960764 -0.3538340926 3.383517819e-39
-0.09362169355 -0.3659750223 0.4685157835 3.383517819e-39
0.1968116015 -0.4634015262 0.3115542531 3.383517819e-39
0.061798729 -0.4368329942 0.1242830977 3.383517819e-39
-0.1055075526 -0.4652222991 0.1695998311 3.567904875e-39
0.2792242467 -0.4701227844 -0.3288910389 3.567904875e-39
0.172535345 -0.4622620046 0.3251984715 3.567904875e-39
-0.1572339237 -0.4127521813 0.2946296334 3.567904875e-39
0.0369454138 -0.4357277453 0.125474751 3.75229193e-39
0.2537939847 -0.4690517783 -0.3401519656 3.75229193e-39
0.1262907833 -0.4598458707 0.4022974372 3.75229193e-39
-0.1286121458 -0.4516093433 0.1956308335 3.75229193e-39
-0.159786284 -0.4811112881 -0.05348944664 3.936320254e-39
-0.07967423648 -0.338375479 0.4908816516 3.936320254e-39
0.3074419498 -0.459007442 0.1351413727 3.936320254e-39
-0.1621726751 -0.4132085145 0.3845900297 3.936320254e-39
-0.1580805779 -0.3757538795 0.4342029095 4.120708711e-39
0.1499391794 -0.4406328797 0.1450175792 4.120708711e-39
0.1127101555 -0.4593617916 0.3779880404 4.120708711e-39
0.3039414287 -0.5207082033 0.1750403643 4.120708711e-39
-0.01852110773 -0.4690907001 0.1654290706 4.304737034e-39
0.2560574412 -0.4196849465 0.06261151284 4.304737034e-39
-0.1589472443 -0.4004500508 0.2447533607 4.304737034e-39
-0.1450592875 -0.3638672829 0.4335412383 4.304737034e-39
-0.1291891485 -0.4516435862 0.1831782311 4.48912409e-39
0.1251367778 -0.4599144161 0.3773922324 4.48912409e-39
-0.09452372044 -0.4154810607 0.3041031063 4.48912409e-39
-0.0003213267773 -0.4326154292 0.1997815669 4.48912409e-39
-0.0965244025 -0.3785513043 0.4187712073 4.673152414e-39
0.3287947476 -0.5218134522 0.1738487035 4.673152414e-39
0.01210530009 -0.4331680536 0.199185729 4.673152414e-39
0.2293993086 -0.5049874187 0.1660968661 4.673152414e-39
-0.0876128599 -0.416524291 0.3810150623 4.857539469e-39
0.1279663891 -0.4503067732 0.2935099602 4.857539469e-39
0.1893527508 -0.4664256871 -0.3869832754 4.857539469e-39
0.2560928166 -0.3948750496 0.0375745818 4.857539469e-39
-0.111596033 -0.2521367371 0.3564612269 5.041567793e-39
-0.08292607963 -0.366630435 0.4305621386 5.041567793e-39
0.1666890979 -0.5022585392 0.1566233933 5.041567793e-39
-0.1436356008 -0.4008313417 0.3064205348 5.041567793e-39
0.05110304803 -0.4361775815 0.162236765 5.225597518e-39
-0.1343813539 -0.3769276738 0.4081060886 5.225597518e-39
0.1045559049 -0.4994953871 0.1596025079 5.225597518e-39
-0.09248623252 -0.4533357322 0.1689381748 5.225597518e-39
-0.1095280647 -0.3780329227 0.4069144428 5.409984573e-39
-0.1534909308 -0.4660172462 -0.3793351352 5.409984573e-39
-0.1554675251 -0.3878394961 0.3069505394 5.409984573e-39
-0.08818986267 -0.4165585637 0.3685624897 5.409984573e-39
-0.0669767037 -0.447422266 0.02931049466 5.594012897e-39
0.1624167264 -0.4615723193 0.3756047487 5.594012897e-39
-0.01792640984 -0.4566515088 0.1653632224 5.594012897e-39
-0.1065823436 -0.4583063424 -0.006194025278 5.594012897e-39
0.05400126427 -0.4345518053 0.2970190644 5.77804122e-39
-0.08671311289 -0.4163078368 0.2038864791 5.77804122e-39
-0.05975706503 -0.4554073811 -0.3875193596 5.77804122e-39
0.3406620622 -0.5099954009 0.1482818574 5.77804122e-39
-0.121334672 -0.4702957273 -0.04289016873 5.962428276e-39
0.1635707319 -0.4615037739 0.4005099535 5.962428276e-39
0.1646693349 -0.4519989491 0.2792698741 5.962428276e-39
-0.1337866485 -0.3644884527 0.4080402553 5.962428276e-39
0.1765743643 -0.4620221555 0.4123666883 6.1464566e-39
-0.1116137207 -0.264541626 0.3689796627 6.1464566e-39
-0.0927573368 -0.3905684054 0.3164240122 6.1464566e-39
-0.1609832942 -0.388330102 0.3844583333 6.1464566e-39
-0.1485566795 -0.3888827562 0.3838624954 6.330484923e-39
-0.05545973033 -0.3798213601 0.3021180928 6.330484923e-39
-0.1621550024 -0.4008035958 0.372071594 6.330484923e-39
-0.1080622151 -0.4175756872 -0.2568599284 6.330484923e-39
0.3288124204 -0.509408474 0.1613302678 6.514514648e-39
0.1878469884 -0.4626432955 0.3868656754 6.514514648e-39
-0.1095103696 -0.3656280041 0.3943959475 6.514514648e-39
-0.09854505211 -0.403316021 0.2044164538 6.514514648e-39
-0.08465708792 -0.366733253 0.3932043016 6.698542971e-39
-0.1565861553 -0.3630981743 0.2570084035 6.698542971e-39
-0.04212345183 -0.4485275149 0.0281188488 6.698542971e-39
-0.1291714609 -0.4392386675 0.1706597954 6.698542971e-39
-0.05486503989 -0.367382139 0.3020522594 6.882571295e-39
-0.1175929308 -0.377058208 0.3050972223 6.882571295e-39
-0.1127500385 -0.2522052526 0.3315560222 6.882571295e-39
-0.119585976 -0.4577879906 -0.01805079728 6.882571295e-39
-0.1374975443 -0.4438666105 0.1200536489 7.066599618e-39
-0.1436111182 -0.4158149958 -0.2177146077 7.066599618e-39
0.1285610795 -0.4378675818 0.293444097 7.066599618e-39
0.1493930072 -0.426807791 0.1925658286 7.066599618e-39
-0.1565684676 -0.3506932557 0.2444899678 7.250627941e-39
-0.1128207892 -0.3018249571 0.381629765 7.250627941e-39
-0.1236857027 -0.3775830865 0.3701524138 7.250627941e-39
0.1548571587 -0.4892667234 0.157153368 7.250627941e-39
0.2837780714 -0.4330237806 0.1362013221 7.434656265e-39
-0.1164035499 -0.3521797955 0.3049655259 7.434656265e-39
-0.08552373201 -0.3914294243 0.2037547827 7.434656265e-39
-0.1577224731 -0.350761801 0.2195847929 7.434656265e-39
0.2589424551 -0.419513613 0.1248745397 7.618684588e-39
0.2962046862 -0.433576405 0.135605514 7.618684588e-39
0.2572999001 -0.3575917482 0.0249244608 7.618684588e-39
0.0132946847 -0.4082896709 0.1990540326 7.618684588e-39
-0.07887022197 -0.429009974 0.1682106555 7.802712912e-39
0.1370063126 -0.3904948235 0.08308701217 7.802712912e-39
-0.09735567123 -0.3784376085 0.2042847574 7.802712912e-39
0.3204809427 -0.4347159564 0.1219612584 7.802712912e-39
-0.1332458556 -0.4642883539 0.108528465 7.986382503e-39
0.01910008863 -0.3831371367 0.2985431552 7.986382503e-39
0.1500099599 -0.3910131752 0.09494377673 7.986382503e-39
0.155451864 -0.4768275321 0.1570875347 7.986382503e-39
-0.113904044 -0.252273798 0.3066507876 8.170410826e-39
-0.0008760932833 -0.4092943072 0.08977276087 8.170410826e-39
0.07542788237 -0.4110528231 0.1960749328 8.170410826e-39
0.2939851284 -0.371688813 0.02320283279 8.170410826e-39
-0.07852894068 -0.3413985074 0.3031122088 8.35443915e-39
-0.08113437146 -0.4469724298 -0.00745151937 8.35443915e-39
0.08785451204 -0.4116054475 0.195479095 8.35443915e-39
-0.08433434367 -0.3665510416 0.203623116 8.35443915e-39
0.001431915909 -0.4091572464 0.1395831257 8.538467473e-39
0.3537840545 -0.4734385312 -0.3324659467 8.538467473e-39
0.008457539603 -0.3452669084 0.2989414334 8.538467473e-39
0.2266326398 -0.4680835903 -0.3887707591 8.538467473e-39
-0.08021586388 -0.3135998845 0.4533921182 8.722137064e-39
0.04597317427 -0.4345020056 0.1747050136 8.722137064e-39
-0.1684644073 -0.4147097468 -0.2165229619 8.722137064e-39
0.2967993915 -0.4211372435 0.1355396509 8.722137064e-39
-0.1597685963 -0.4687063396 -0.06600791216 8.906165387e-39
-0.08196455985 -0.3261076212 0.4285527766 8.906165387e-39
0.03414123505 -0.4215101898 0.1752349883 8.906165387e-39
0.2554419935 -0.4812142849 0.1647735238 8.906165387e-39
0.306411773 -0.3722414672 0.02260700613 9.089834978e-39
-0.1309024692 -0.4393414855 0.1333019584 9.089834978e-39
-0.0404008925 -0.4057894647 0.1662915051 9.089834978e-39
0.1641499102 -0.4038679302 0.1442242265 9.089834978e-39
-0.1369028389 -0.4314273894 0.1199878082 9.273863302e-39
-0.1150580496 -0.2523423135 0.2817456126 9.273863302e-39
0.009305641055 -0.4079999626 0.1639081985 9.273863302e-39
-0.1273873746 -0.4019210339 0.1704622656 9.273863302e-39
0.1317879856 -0.4508439004 0.1581474841 9.457532893e-39
0.03331079334 -0.3463721871 0.2977497876 9.457532893e-39
0.03356423229 -0.4215444624 0.1627824008 9.457532893e-39
0.03473592922 -0.4090709686 0.175169155 9.457532893e-39
-0.03343839198 -0.3438831866 0.2011081278 9.641561216e-39
-0.1499064714 -0.4309090376 0.1081310362 9.641561216e-39
0.2466219664 -0.3445313573 0.05035962909 9.641561216e-39
0.001449607313 -0.3967522681 0.12706469 9.641561216e-39
0.01214523241 -0.3974077106 0.08911108971 9.825230807e-39
0.09510274231 -0.4367467761 0.1598691195 9.825230807e-39
0.0008726064116 -0.3967865407 0.1146121025 9.825230807e-39
0.04573748261 -0.3469248116 0.2971539795 9.825230807e-39
-0.08314496279 -0.3416726589 0.2034914196 1.000925913e-38
-0.07787247747 -0.2886529863 0.4781656861 1.000925913e-38
0.002603614703 -0.3966837525 0.1519699246 1.000925913e-38
0.1257513762 -0.3774687052 0.09606958181 1.000925913e-38
0.0694013536 -0.3729084432 0.2960940003 1.019292872e-38
0.06478533149 -0.3731825948 0.1964732111 1.019292872e-38
0.1393143237 -0.3903577626 0.132897377 1.019292872e-38
0.02147885971 -0.3333803415 0.2982797623 1.019292872e-38
0.05816411227 -0.3474774361 0.2965581417 1.037659831e-38
0.1347260773 -0.4134577513 0.1828551441 1.037659831e-38
0.163586095 -0.4024477601 0.2042908967 1.037659831e-38
0.06999604404 -0.3604692519 0.296028167 1.037659831e-38
0.1184955388 -0.3999631107 0.3062950075 1.056062664e-38
0.05295339972 -0.360190779 0.1970031857 1.056062664e-38
0.07721196115 -0.3737352192 0.195877403 1.056062664e-38
0.1578129381 -0.4394756556 0.1693425924 1.056062664e-38
0.1572359353 -0.4395099282 0.1568900049 1.074429623e-38
0.3549289405 -0.3993303776 0.02035539597 1.074429623e-38
0.04633217305 -0.3344855905 0.2970881164 1.074429623e-38
-0.02041707374 -0.3319965899 0.2004464567 1.074429623e-38
-0.1019393951 -0.3905871212 0.1692047715 1.092796582e-38
0.2514859736 -0.4691888392 -0.3899623752 1.092796582e-38
0.3300195038 -0.4721251428 0.1486801505 1.092796582e-38
-0.1140247732 -0.3024230003 0.3047021627 1.092796582e-38
0.1459809989 -0.4264838398 0.1698725671 1.111163541e-38
0.3057431877 -0.4709856212 0.1623243988 1.111163541e-38
-0.007990416139 -0.3325492144 0.1998506188 1.111163541e-38
0.2317780703 -0.4552306533 0.1658334881 1.111163541e-38
0.2861568332 -0.3832669854 0.135937959 1.1295305e-38
0.2460626513 -0.3321607113 0.02538859844 1.1295305e-38
0.08446019143 -0.3988765776 0.1602674127 1.1295305e-38
0.165894106 -0.4023106992 0.254101336 1.1295305e-38
-0.1150934249 -0.2771521211 0.3067824841 1.147897319e-38
0.1647577882 -0.3899742961 0.2166776657 1.147897319e-38
-0.1162297428 -0.2648157775 0.2693588436 1.147897319e-38
0.2584892809 -0.3327133358 0.02479277551 1.147897319e-38
0.07775812596 -0.3875603378 0.1483291388 1.166264278e-38
-0.07879098505 -0.4220255017 0.01732200943 1.166264278e-38
0.1093134433 -0.3999818265 0.1590757668 1.166264278e-38
-0.1308847666 -0.4269365072 0.1207835227 1.166264278e-38
0.1578306258 -0.4270707369 0.1568241566 1.184631237e-38
0.3555236161 -0.3868911564 0.02028955519 1.184631237e-38
0.4283438921 -0.4767543375 -0.3360409141 1.184631237e-38
0.02691524476 -0.373013407 0.1132887676 1.184631237e-38
-0.1074035466 -0.3281281888 0.2046172321 1.202998196e-38
0.3566776216 -0.3868226111 0.04519473761 1.202998196e-38
0.1315345466 -0.3756715953 0.2931149006 1.202998196e-38
0.2867515385 -0.3708277941 0.1358720958 1.202998196e-38
-0.001931600273 -0.3825689852 0.1643723398 1.221365155e-38
0.07840134203 -0.3488568366 0.1957457066 1.221365155e-38
-0.02098868228 -0.4113513231 0.1767567247 1.221365155e-38
0.1084476858 -0.3496537209 0.3066274524 1.221365155e-38
0.004441604018 -0.412422359 0.1880176663 1.239732115e-38
0.2483706623 -0.3320236504 0.07519903034 1.239732115e-38
0.102629073 -0.376260668 0.1346189976 1.239732115e-38
0.01454253122 -0.4255169928 0.1501299143 1.239732115e-38
0.06656941026 -0.3358649909 0.1962756813 1.258099074e-38
-0.1244492978 -0.3645349443 0.1951699257 1.258099074e-38
0.09020245075 -0.3757080436 0.1352148205 1.258099074e-38
-0.1291183829 -0.4020238519 0.1331044286 1.258099074e-38
0.1590200067 -0.4021923542 0.1566924751 1.276466033e-38
-0.1126959324 -0.4302547574 -0.3439623117 1.276466033e-38
-0.147324279 -0.4568540752 -0.07912217081 1.276466033e-38
0.01629123092 -0.4130092263 0.1749692559 1.276466033e-38
0.1670834869 -0.3774322867 0.2539696395 1.294832852e-38
0.1090423837 -0.3372144997 0.3065615892 1.294832852e-38
0.01396552939 -0.4255512655 0.1376773119 1.294832852e-38
0.07835282385 -0.3751211166 0.1482633054 1.294832852e-38
0.2572260797 -0.4438967109 0.164575994 1.313163938e-38
0.2081142068 -0.4292469919 0.1668934524 1.313163938e-38
0.2630876005 -0.3448441327 0.136932075 1.313163938e-38
0.165387854 -0.3527252674 0.1915749311 1.313163938e-38
0.1105028242 -0.3751034141 0.1589440852 1.331530897e-38
0.2478113621 -0.3196529448 0.05022794008 1.331530897e-38
0.31878227 -0.4466941357 0.1491442919 1.331530897e-38
-0.009716061875 -0.4119724929 0.1512557119 1.331530897e-38
-0.1320387721 -0.4270050526 0.0958783403 1.349897856e-38
-0.1033577472 -0.3552769125 -0.2198313177 1.349897856e-38
0.01227910444 -0.3458039761 0.1635789871 1.349897856e-38
0.114845559 -0.3487639129 0.1196270883 1.349897856e-38
0.07959073037 -0.3239784539 0.1956140101 1.368228942e-38
0.1376995444 -0.3512617648 0.1825259328 1.368228942e-38
-0.06952891499 -0.3173469007 0.2027639151 1.368228942e-38
-0.09438220412 -0.316241622 0.2039555609 1.368228942e-38
0.1483597755 -0.3767270446 0.1696092039 1.386595901e-38
0.02931254916 -0.4011226594 0.1743075848 1.386595901e-38
0.3234897852 -0.347710073 0.09659511596 1.386595901e-38
-0.02559550107 -0.3565853238 0.1654323041 1.386595901e-38
0.09926559031 -0.3496724069 0.1594082117 1.404926846e-38
0.005625597667 -0.3082234561 0.1991231143 1.404926846e-38
0.2503319681 -0.4692573845 -0.4148675799 1.404926846e-38
0.3567130268 -0.3620127738 0.02015786618 1.404926846e-38
-0.1179607511 -0.2649185658 0.2320010066 1.423293806e-38
0.02756385319 -0.4136303961 0.1494682431 1.423293806e-38
0.03048424423 -0.3886492252 0.1866943389 1.423293806e-38
0.2956953347 -0.4206762016 0.1626568437 1.423293806e-38
0.1726360172 -0.3778665662 0.1559649557 1.441624891e-38
0.02698685043 -0.4136646688 0.1370156407 1.441624891e-38
0.1377172172 -0.3388568163 0.1700074971 1.441624891e-38
-0.001572628506 -0.2825525701 0.2867554426 1.441624891e-38
-0.1481224 -0.3935914636 0.1079335064 1.459991851e-38
-0.04033937305 -0.4112099111 0.02792131715 1.459991851e-38
0.1732307076 -0.3654274046 0.1558991224 1.459991851e-38
0.1587665677 -0.3270200789 0.2916598618 1.459991851e-38
-0.1191678196 -0.3022018671 0.2446511388 1.478322936e-38
0.2714367807 -0.4071317315 0.1637826413 1.478322936e-38
0.3514760435 -0.4735756218 -0.3822763562 1.478322936e-38
0.02385762893 -0.2836235464 0.2980163991 1.478322936e-38
-0.1486994028 -0.3936257362 0.09548091143 1.496689755e-38
-0.1719264239 -0.4149153233 -0.2912386358 1.496689755e-38
-0.1255856156 -0.3521985412 0.1577463001 1.496689755e-38
0.05372186378 -0.2603875399 0.1613306105 1.496689755e-38
0.1298919916 -0.3137497604 0.193164885 1.515020841e-38
-0.1399966776 -0.2765764594 0.2559516728 1.515020841e-38
0.167748943 -0.3153733611 0.2038300037 1.515020841e-38
-0.007816642523 -0.2451851666 0.1642438918 1.515020841e-38
0.04000817239 -0.4017781019 0.1363539845 1.533351927e-38
-0.1244139075 -0.3397250473 0.1701330543 1.533351927e-38
0.3697343469 -0.3501262069 0.01949620247 1.533351927e-38
0.2229195982 -0.3800428212 0.1660342515 1.533351927e-38
0.1874237359 -0.341067344 0.1676242054 1.551683013e-38
-0.1600767672 -0.4155022204 -0.3042870462 1.551683013e-38
0.2974617183 -0.395763576 0.1749777496 1.551683013e-38
-0.07728648931 -0.2793053389 0.2654252052 1.551683013e-38
0.2850527763 -0.3828059733 0.1630551368 1.570049832e-38
0.3217557371 -0.3844981492 0.1488150656 1.570049832e-38
0.1278668791 -0.336877346 0.1189654246 1.570049832e-38
0.0807801187 -0.2991000414 0.1954823434 1.570049832e-38
0.1394836158 -0.3139441907 0.182328403 1.588380918e-38
0.09320674092 -0.2996526659 0.1948865056 1.588380918e-38
-0.07786349207 -0.2793396115 0.252972573 1.588380918e-38
0.1412676871 -0.2766265869 0.1821308732 1.588380918e-38
-0.06400324404 -0.3852262795 0.02898127772 1.606712004e-38
0.1755917817 -0.3280755281 0.16815418 1.606712004e-38
-0.1287240237 -0.2771975994 0.2304506898 1.606712004e-38
0.06555379927 -0.2733793557 0.1608006358 1.606712004e-38
-0.0411605835 -0.2810317278 0.238732487 1.625043089e-38
0.0718331933 -0.285936892 0.2582753301 1.625043089e-38
-0.04509655386 -0.2435272634 0.1660313606 1.625043089e-38
-0.008411332965 -0.2576243877 0.1643097252 1.625043089e-38
0.1180600524 -0.3007579446 0.1936948597 1.643374035e-38
0.1264799237 -0.3134258091 0.1704716384 1.643374035e-38
-0.05358720571 -0.2804791033 0.2393283248 1.643374035e-38
-0.1597332209 -0.4438965321 -0.09104478359 1.643374035e-38
0.07067918777 -0.2860054076 0.2333700955 1.661705121e-38
0.0904071182 -0.2744846046 0.1596089751 1.661705121e-38
-0.1203218251 -0.3022704124 0.2197459489 1.661705121e-38
0.08368281275 -0.2865237892 0.24522686 1.661705121e-38
0.1016266644 -0.3123205304 0.1716632843 1.680036207e-38
0.1406729966 -0.2890657783 0.1821967065 1.680036207e-38
0.09726344794 -0.2870078683 0.2695362866 1.680036207e-38
0.2613889277 -0.3568223119 0.1641151011 1.680036207e-38
-0.1423046887 -0.2767135203 0.2061413229 1.698367293e-38
0.1874414235 -0.3286624253 0.1551057696 1.698367293e-38
-0.1267396212 -0.3522670865 0.1328410506 1.698367293e-38
-0.0298879277 -0.2816529274 0.213231504 1.698367293e-38
0.2969585955 -0.3094928265 0.02287361398 1.716698239e-38
0.4206602275 -0.4200211167 -0.2528459728 1.716698239e-38
-0.1157666892 -0.3423193395 -0.2317539454 1.716698239e-38
0.1085361317 -0.2876290679 0.2440352142 1.716698239e-38
0.03949346766 -0.3095573783 0.174642399 1.735029324e-38
0.04068285227 -0.2846789956 0.1745107174 1.735029324e-38
-0.1511298418 -0.4286653697 -0.3670800328 1.735029324e-38
0.01464018412 -0.3084521294 0.1758340448 1.735029324e-38
0.3246968687 -0.3104267716 0.08394499123 1.75336041e-38
0.1356973946 -0.2885972261 0.2926539779 1.75336041e-38
-0.151763007 -0.5025997162 -0.2523995638 1.75336041e-38
-0.1226475239 -0.3148124218 0.1824539602 1.75336041e-38
0.2495569289 -0.3438304961 0.1646450758 1.771655483e-38
0.1649492383 -0.2902052999 0.1685524732 1.771655483e-38
0.1481240094 -0.2891498506 0.2920581698 1.771655483e-38
0.02767922543 -0.2841606438 0.1626539379 1.771655483e-38
0.3218118548 -0.3105981052 0.02168196812 1.789986569e-38
0.2891656756 -0.2962611616 0.1105718091 1.789986569e-38
-0.1056657583 -0.3554139733 -0.2696417272 1.789986569e-38
0.177375868 -0.2907579243 0.1679566503 1.789986569e-38
-0.1284883171 -0.3647747934 0.108001709 1.808317654e-38
0.3111131191 -0.3466279209 0.1492133737 1.808317654e-38
0.3010152876 -0.2968480587 0.0975233838 1.808317654e-38
0.1559346318 -0.2899766266 0.1918415427 1.808317654e-38
0.1712463349 -0.2903579473 0.2535087466 1.826612727e-38
0.2140434384 -0.3172599673 0.1787534505 1.826612727e-38
-0.1585615128 -0.4314230382 -0.07865802944 1.826612727e-38
-0.1183612198 -0.4080997407 -0.04321938753 1.826612727e-38
0.1724003404 -0.290289402 0.2784139216 1.844943813e-38
0.2264700681 -0.3178125918 0.1781576276 1.844943813e-38
-0.164319247 -0.3400402963 -0.2044654489 1.844943813e-38
0.16377756 -0.3026787639 0.156165719 1.844943813e-38
0.2258930653 -0.3178468347 0.1657050401 1.863274899e-38
0.3247145414 -0.298021853 0.07142655551 1.863274899e-38
-0.1155809462 -0.430426091 -0.4062253237 1.863274899e-38
-0.09658716619 -0.2786343396 0.1686121821 1.863274899e-38
-0.1090315133 -0.2904866338 0.1817264408 1.881569971e-38
-0.1477063 -0.4899548888 -0.177749753 1.881569971e-38
0.1414828748 -0.3125515878 0.1182379127 1.881569971e-38
-0.1499581486 -0.4161919057 -0.3546932936 1.881569971e-38
0.2998581827 -0.3336018324 0.1621959358 1.899901057e-38
-0.03447166085 -0.2938024402 0.1781515032 1.899901057e-38
0.2406984568 -0.2686427236 0.1648458391 1.899901057e-38
-0.1530465931 -0.3406614363 -0.2299664915 1.899901057e-38
0.338360548 -0.3662588894 -0.199128136 1.91819627e-38
0.09177631885 -0.3103410602 0.1206212118 1.91819627e-38
-0.1138322428 -0.4179183543 -0.381385982 1.91819627e-38
-0.1186693907 -0.3548956215 -0.2814985216 1.91819627e-38
-0.1522838473 -0.4287339151 -0.3919852674 1.936527215e-38
0.2134841233 -0.3048892915 0.1537824273 1.936527215e-38
-0.142945677 -0.3537560701 -0.2678542733 1.936527215e-38
-0.1219997704 -0.2651584148 0.1448328048 1.936527215e-38
0.3745983541 -0.4747836888 -0.420825839 1.954822428e-38
-0.115423128 -0.3707136214 -0.01851169765 1.954822428e-38
-0.1443684995 -0.4070630074 -0.06693295389 1.954822428e-38
-0.1302193254 -0.3648775816 0.07064387947 1.954822428e-38
-0.1567951292 -0.4065103531 -0.06633713096 1.973153514e-38
0.2643446922 -0.3070313036 0.1763043106 1.973153514e-38
0.002317363396 -0.3141573668 -0.2330488414 1.973153514e-38
-0.129924342 -0.3418695331 -0.2685159445 1.973153514e-38
-0.1284529269 -0.3399649262 0.082964845 1.991448586e-38
0.09237100929 -0.2979018688 0.1205553636 1.991448586e-38
-0.1631298661 -0.3151618838 -0.2045971155 1.991448586e-38
0.4491581917 -0.4780994356 -0.4244008064 1.991448586e-38
-0.1321453005 -0.3319138288 0.1194610596 2.009743799e-38
-0.180039838 -0.4402049184 -0.4405381978 2.009743799e-38
-0.1600236893 -0.3782874644 -0.3418423831 2.009743799e-38
-0.1279898733 -0.417468518 -0.4181479514 2.009743799e-38
-0.1236953884 -0.2404513657 0.0824380964 2.028074885e-38
-0.1159824431 -0.3583429754 -0.0434827581 2.028074885e-38
-0.1309559196 -0.3070354164 0.1193293706 2.028074885e-38
-0.1695299596 -0.3527536094 -0.3040204346 2.028074885e-38
-0.1091277748 -0.3556195796 -0.3443573713 2.046369957e-38
0.02718830854 -0.3028576672 -0.2467589378 2.046369957e-38
0.02661130577 -0.3028919399 -0.2592115104 2.046369957e-38
-0.04802615196 -0.3235486448 0.04050882906 2.046369957e-38
-0.1291438788 -0.4175370634 -0.4430531859 2.06466517e-38
-0.1453275383 -0.4401981235 -0.178013131 2.06466517e-38
-0.1658467948 -0.4158448875 -0.4288130999 2.06466517e-38
-0.1540356427 -0.4779269099 -0.3272468448 2.06466517e-38
-0.1452359855 -0.3414882123 -0.3301831484 2.082996116e-38
-0.0106509449 -0.288829118 -0.269942522 2.082996116e-38
0.3407393098 -0.3165020943 -0.1993915141 2.082996116e-38
-0.08644238114 -0.3095543385 0.004872649908 2.082996116e-38
-0.03558183461 -0.3116963506 0.02739457041 2.101291328e-38
0.0005512498319 -0.5103321671 -0.459386915 2.101291328e-38
-0.07400857657 -0.5070164204 -0.4558119774 2.101291328e-38
-0.1528639495 -0.4654534161 -0.3148601055 2.101291328e-38
-0.007730552461 -0.2638479173 -0.2327163965 2.119586541e-38
-0.1257968843 -0.2796050012 -0.2439399362 2.119586541e-38
-0.1493665576 -0.4404380023 -0.2651813626 2.119586541e-38
-0.02198348008 -0.299775511 0.03918549418 2.119586541e-38
-0.1429664493 -0.4028462172 -0.1657580584 2.137881613e-38
-0.1499435604 -0.440472275 -0.277633965 2.137881613e-38
-0.1541475207 -0.303515166 -0.2924270332 2.137881613e-38
-0.03556414694 -0.2992914319 0.01487610489 2.137881613e-38
0.05148225278 -0.2915922701 -0.2729216218 2.156176826e-38
-0.0739980638 -0.2977020442 -0.008241638541 2.156176826e-38
-0.1003489047 -0.268271029 -0.2451974154 2.156176826e-38
0.4242283702 -0.3453859687 -0.2532410324 2.156176826e-38
-0.1506501287 -0.2784997225 -0.2427482903 2.174471899e-38
-0.1476178467 -0.4279302359 -0.2403419912 2.174471899e-38
-0.01238195319 -0.288931936 -0.3073003292 2.174471899e-38
-0.009888142347 -0.3769016266 -0.431961298 2.174471899e-38
-0.1522692591 -0.4530142546 -0.3149259388 2.192767111e-38
-0.1540179551 -0.4655219615 -0.3397652805 2.192767111e-38
-0.1246251911 -0.2671315074 -0.2315531969 2.192767111e-38
-0.1168499291 -0.2927681506 -0.3067329526 2.192767111e-38
0.3904635608 -0.3063077033 -0.2142932415 2.211062324e-38
0.1390280724 -0.307831347 -0.2521213591 2.211062324e-38
-0.1469669938 -0.3415910006 -0.3675409555 2.211062324e-38
-0.1532092839 -0.3194702864 -0.07925062627 2.211062324e-38
-0.1393775195 -0.2791208923 -0.2682493329 2.229357396e-38
-0.01128068566 -0.4973403215 -0.4588569403 2.229357396e-38
-0.149348855 -0.4280330539 -0.2776997983 2.229357396e-38
-0.1133525372 -0.2677526772 -0.2570542395 2.229357396e-38
-0.1782557666 -0.4028873444 -0.4407357275 2.247652609e-38
-0.05865100771 -0.2732734978 0.02838868648 2.247652609e-38
-0.1470231563 -0.4154910445 -0.2404078394 2.247652609e-38
-0.1613280922 -0.2654393613 -0.217313081 2.247652609e-38
-0.141359657 -0.3200571835 -0.09229904413 2.265947681e-38
0.1638813317 -0.3089365959 -0.253313005 2.265947681e-38
-0.1604180485 -0.5031137466 -0.4391886294 2.265947681e-38
-0.1563436538 -0.4780639708 -0.3770572841 2.265947681e-38
-0.09941065311 -0.2842261195 -0.03202101588 2.284242894e-38
-0.1593936235 -0.3410383761 -0.3669451177 2.284242894e-38
0.03557591513 -0.3036501408 -0.3345229924 2.284242894e-38
-0.1470054686 -0.403086096 -0.2529263198 2.284242894e-38
-0.09766195714 -0.2717184126 -0.007181677967 2.302537966e-38
0.0508525148 -0.5001034737 -0.4618360698 2.302537966e-38
-0.07046528906 -0.2478767186 0.01640020311 2.302537966e-38
0.4354836345 -0.529674232 -0.4802407622 2.302537966e-38
0.1005590856 -0.5023140311 -0.4642193615 2.320833179e-38
-0.1026569158 -0.2684080899 -0.2950078547 2.320833179e-38
0.1881576329 -0.3100761473 -0.2669572234 2.320833179e-38
0.03499891236 -0.3036844134 -0.3469755948 2.320833179e-38
0.4283381402 -0.2955263555 -0.2161465585 2.339092378e-38
-0.0190277081 -0.2499844432 0.05137471482 2.339092378e-38
0.07460455596 -0.2928003371 -0.3114711046 2.339092378e-38
-0.0970672667 -0.2592792213 -0.007247518748 2.339092378e-38
-0.1118195951 -0.2712685764 -0.04394365847 2.348204041e-38
-0.1168322414 -0.2803632319 -0.3192514181 2.348204041e-38
0.01074035279 -0.2901399732 -0.3458497822 2.348204041e-38
0.2863639891 -0.5230426788 -0.4730908871 2.348204041e-38
-0.1574976593 -0.4781325161 -0.4019624591 2.348132155e-38
0.1751539409 -0.3095577359 -0.2788140476 2.348132155e-38
-0.1499081701 -0.4156623781 -0.3026708663 2.348132155e-38
-0.06039255857 -0.4826906323 -0.4565394819 2.348132155e-38
0.3982037008 -0.5280163288 -0.4784533083 2.348060128e-38
0.03559360281 -0.2912452519 -0.3470414281 2.348060128e-38
-0.141741693 -0.3531579971 -0.1909266561 2.348060128e-38
-0.1517864466 -0.2661633193 -0.2801719606 2.348060128e-38
0.3112172484 -0.5241479278 -0.4742825329 2.347952368e-38
-0.01351826824 -0.2765955031 -0.3447239697 2.347952368e-38
0.1621503234 -0.3090393841 -0.2906708121 2.347952368e-38
0.4114104807 -0.4329743385 -0.4395691752 2.347952368e-38
0.1633220166 -0.2965659201 -0.2782840431 2.347880341e-38
0.3733504415 -0.5269110799 -0.4772616625 2.347880341e-38
0.1124614328 -0.2944239676 -0.3008059561 2.347880341e-38
-0.001091583166 -0.2771481276 -0.3453198075 2.347880341e-38
-0.119903028 -0.1924277991 -0.2070430219 2.347808455e-38
-0.1475647837 -0.3907154799 -0.2778973281 2.347808455e-38
0.2260322124 -0.2992948294 -0.2688105404 2.347808455e-38
-0.1611246318 -0.3411411941 -0.4043029249 2.347808455e-38
-0.1224621385 -0.2333983481 -0.04354536533 2.347700555e-38
-0.0967984423 -0.2060407698 -0.2330740392 2.347700555e-38
0.05927523226 -0.3048239648 -0.360619843 2.347700555e-38
-0.1522338688 -0.4282043874 -0.3399628103 2.347700555e-38
0.3413693905 -0.279253006 -0.2244942486 2.347628668e-38
-0.1354658008 -0.2328799963 -0.05540213734 2.347628668e-38
-0.1569029689 -0.465693295 -0.4020283222 2.347628668e-38
0.07170185447 -0.3053765893 -0.3612156808 2.347628668e-38
0.07287354767 -0.2929031253 -0.3488289118 2.347520768e-38
-0.09737544507 -0.2060750276 -0.2455266416 2.347520768e-38
-0.004757090472 -0.2016519606 -0.2330456078 2.347520768e-38
0.410833478 -0.4330086112 -0.4520217776 2.347520768e-38
0.4171008766 -0.2700953782 -0.2156824172 2.347448882e-38
0.1101357341 -0.3069659472 -0.33809793 2.347448882e-38
-0.1388036013 -0.3157718778 -0.1662189662 2.347448882e-38
-0.149658829 -0.2572400272 -0.06712725013 2.347448882e-38
-0.004162398167 -0.1892127544 -0.233111456 2.347340982e-38
0.1632869691 -0.4926379621 -0.4672643244 2.347340982e-38
0.1113074273 -0.2944925129 -0.3257111609 2.347340982e-38
-0.1671158075 -0.2781869769 -0.329320699 2.347340982e-38
0.1095587313 -0.3070002198 -0.3505505323 2.347269095e-38
0.211279884 -0.3112841845 -0.305506736 2.347269095e-38
-0.1508128345 -0.2573085725 -0.09203243256 2.347269095e-38
-0.1487187892 -0.3907839954 -0.3028025329 2.347269095e-38
0.09772679955 -0.294008404 -0.3500205576 2.347161195e-38
-0.1496234387 -0.23243016 -0.09216411412 2.347161195e-38
0.04628923163 -0.2919006944 -0.3849950731 2.347161195e-38
0.2373048365 -0.2999159992 -0.294311583 2.347161195e-38
-0.03434988856 -0.4589174688 -0.4578628242 2.347089308e-38
0.3491269052 -0.3172945678 -0.2871555686 2.347089308e-38
0.2254201621 -0.4954011142 -0.470243454 2.347089308e-38
0.3118470311 -0.3156366646 -0.2853680849 2.347089308e-38
0.1485873759 -0.2961503863 -0.3274986446 2.346981408e-38
-0.1551365852 -0.4407806695 -0.3897074163 2.346981408e-38
-0.1370195299 -0.2784542441 -0.166416496 2.346981408e-38
-0.129818216 -0.2674399316 -0.3436266184 2.346981408e-38
0.06997084618 -0.3054793775 -0.398573488 2.346909522e-38
0.1355837435 -0.2956320047 -0.3393554389 2.346909522e-38
0.1852726191 -0.3102474809 -0.3292202652 2.346909522e-38
-0.1405169219 -0.3034697473 -0.2160952091 2.346909522e-38
0.3922653198 -0.256585151 -0.2270092368 2.346801622e-38
-0.1370018423 -0.2660493553 -0.1789349318 2.346801622e-38
0.08239747584 -0.306032002 -0.3991693258 2.346801622e-38
0.3621482551 -0.3054080009 -0.2878172398 2.346801622e-38
0.1208314151 -0.3076213896 -0.3760515749 2.346693862e-38
-0.1387505382 -0.2785570621 -0.2037743032 2.346693862e-38
0.06939384341 -0.3055136502 -0.4110260904 2.346693862e-38
0.107827723 -0.3071030378 -0.3879083395 2.346693862e-38
0.2615811527 -0.3010555208 -0.3079558611 2.346621835e-38
-0.123959735 -0.2050725818 -0.2816928029 2.346621835e-38
-0.1363894492 -0.2412052155 -0.1915192455 2.346621835e-38
-0.1440143138 -0.3284852207 -0.265773952 2.346621835e-38
-0.1368129998 -0.3174708486 -0.4429841042 2.346514075e-38
-0.139327541 -0.2785913348 -0.2162268907 2.346514075e-38
0.236150831 -0.2999845445 -0.3192168176 2.346514075e-38
-0.1746876091 -0.3282521367 -0.4411307871 2.346514075e-38
0.3231196404 -0.3162578642 -0.3108691275 2.346406175e-38
-0.1533701867 -0.4158679843 -0.3773865104 2.346406175e-38
0.15986 -0.2967715263 -0.3529996574 2.346406175e-38
0.3621131778 -0.5014800429 -0.4767975211 2.346406175e-38
0.09424709529 -0.3066188991 -0.4122177362 2.346334289e-38
0.06998853385 -0.2930744588 -0.4110919237 2.346334289e-38
0.3242913485 -0.3037844002 -0.2984823585 2.346334289e-38
-0.1002604589 -0.2062463611 -0.3077896833 2.346334289e-38
0.2610041499 -0.3010897934 -0.3204084635 2.346226389e-38
-0.1451475471 -0.2794635594 -0.3927753866 2.346226389e-38
0.3946440816 -0.2068283558 -0.2272726148 2.346226389e-38
0.4200920463 -0.1954944283 -0.228530094 2.346226389e-38
0.41830796 -0.2328119874 -0.2283325642 2.346118629e-38
0.3455322385 -0.1921786517 -0.2249551564 2.346118629e-38
-0.1439966261 -0.316080302 -0.2782923877 2.346118629e-38
-0.1463400126 -0.3410271704 -0.3030659258 2.346118629e-38
-0.1156074703 -0.2306749374 -0.344419986 2.346010729e-38
0.2881480753 -0.4857250452 -0.4732884169 2.346010729e-38
-0.1586162895 -0.4533911943 -0.4519045949 2.346010729e-38
0.1315270364 -0.3082768023 -0.4140051901 2.346010729e-38
-0.1610715538 -0.3039263785 -0.4418582916 2.345938842e-38
0.3343922794 -0.316879034 -0.3363701403 2.345938842e-38
0.169960916 -0.3098661602 -0.3908874691 2.345938842e-38
-0.1545241922 -0.4159365296 -0.4022916853 2.345938842e-38
-0.08286707103 -0.4318285584 -0.4556112289 2.345830942e-38
-0.05741909891 -0.4204946458 -0.4568687081 2.345830942e-38
0.1563802958 -0.3093820512 -0.415196836 2.345830942e-38
0.3462418914 -0.3174659014 -0.3494185805 2.345830942e-38
0.3083850145 -0.3158422709 -0.360083729 2.345723183e-38
0.3586685359 -0.3180185258 -0.3500144184 2.345723183e-38
0.3474135995 -0.3049924672 -0.3370318115 2.345723183e-38
0.1427996606 -0.3088979721 -0.4395062327 2.345723183e-38
0.1682299078 -0.3099689484 -0.428245306 2.345615283e-38
0.4219734371 -0.3083082438 -0.3406067491 2.345615283e-38
0.2023509294 -0.4569782615 -0.4692493379 2.345615283e-38
-0.1468785554 -0.2795663476 -0.4301331937 2.345615283e-38
-0.1711548269 -0.278426826 -0.4164889455 2.345507523e-38
-0.139866069 -0.2171304971 -0.3432941735 2.345507523e-38
-0.1350289285 -0.2801532745 -0.4431816339 2.345507523e-38
0.1563979834 -0.2969771326 -0.4277153015 2.345507523e-38
0.3705182076 -0.318605423 -0.3630628288 2.345399623e-38
-0.007117837667 -0.4102659523 -0.459317863 2.345399623e-38
0.2272042334 -0.4580835104 -0.4704409838 2.345399623e-38
-0.1404284686 -0.2414450943 -0.2786874473 2.345399623e-38
0.3338329792 -0.3045083582 -0.3613412082 2.345291723e-38
0.3450878859 -0.3175344467 -0.3743238151 2.345291723e-38
0.4143839478 -0.370778352 -0.4398984015 2.345291723e-38
0.396543175 -0.3072372377 -0.3518677354 2.345291723e-38
0.4213964343 -0.3083424866 -0.3530593812 2.345219836e-38
0.346259594 -0.3050609827 -0.3619370162 2.345219836e-38
0.3084027171 -0.303437382 -0.3726021945 2.345219836e-38
-0.1220075786 -0.2682666779 -0.4438433051 2.345219836e-38
0.0550153628 -0.4130291045 -0.4622969627 2.345111936e-38
0.4072210789 -0.3202975988 -0.3773029149 2.345111936e-38
0.4196477234 -0.3208502233 -0.3778987527 2.345111936e-38
0.2829723954 -0.3023663759 -0.3838631213 2.345111936e-38
0.3959661722 -0.3072715104 -0.3643203378 2.345004176e-38
0.003701336682 -0.1528246999 -0.3708834648 2.345004176e-38
-0.1421771795 -0.253952831 -0.3035268188 2.345004176e-38
0.3563605249 -0.3181556165 -0.3998248279 2.345004176e-38
0.357532233 -0.3056821525 -0.3874380589 2.344896276e-38
0.2315348089 -0.3002586663 -0.4188376367 2.344896276e-38
0.4144016206 -0.3583734035 -0.4524168372 2.344896276e-38
0.2650788426 -0.4473021924 -0.4722943008 2.344896276e-38
-0.1474586427 -0.3162858784 -0.3530080318 2.344788516e-38
-0.1521454304 -0.3661797345 -0.4025550485 2.344788516e-38
-0.09350962937 -0.39395836 -0.4552129209 2.344788516e-38
0.3433568776 -0.3176372349 -0.4116816223 2.344788516e-38
-0.1415647864 -0.229108721 -0.3161111176 2.344680616e-38
0.1544284374 -0.41745013 -0.467063576 2.344680616e-38
0.2283936292 -0.4332051277 -0.4705726802 2.344680616e-38
-0.1503790319 -0.3412670493 -0.3902341425 2.344680616e-38
-0.1462661624 -0.2547222376 -0.4427174926 2.344572857e-38
-0.04201900959 -0.3588512838 -0.4577937424 2.344572857e-38
0.2924962938 -0.3154952526 -0.4342035353 2.344572857e-38
-0.1664326638 -0.203723073 -0.3919788003 2.344572857e-38
-0.1421563923 -0.2048626095 -0.4056230187 2.344464957e-38
0.3644919395 -0.4517232478 -0.4770608842 2.344464957e-38
0.03925020993 -0.1545853913 -0.4100287259 2.344464957e-38
0.02505719289 -0.1789454371 -0.4217538536 2.344464957e-38
0.1917083859 -0.4191080034 -0.4688510299 2.344357197e-38
-0.1545830071 -0.204309985 -0.4050272107 2.344357197e-38
-0.1177682132 -0.3804138899 -0.4540871084 2.344357197e-38
0.3676331937 -0.3187767565 -0.4253258705 2.344357197e-38
0.2781001329 -0.4354156554 -0.472955972 2.344249297e-38
0.3688049018 -0.3063033223 -0.4129391015 2.344249297e-38
0.3185213208 -0.3041270673 -0.4230084121 2.344249297e-38
0.007687561214 -0.3610618114 -0.4601770639 2.344249297e-38
-0.1670096666 -0.2037573457 -0.4044313729 2.344141397e-38
0.2930909991 -0.3030560613 -0.4342693686 2.344141397e-38
0.02448019199 -0.1789796948 -0.4342064261 2.344141397e-38
-0.05385094136 -0.3458594382 -0.4572637677 2.344141397e-38
0.2165616304 -0.4202132821 -0.4700426757 2.344033637e-38
-0.142718792 -0.2291772366 -0.3410163224 2.344033637e-38
-0.1308837682 -0.2054837793 -0.4311240613 2.344033637e-38
0.3546295166 -0.3182584047 -0.4371826649 2.344033637e-38
-0.149189651 -0.3163886964 -0.390365839 2.343925737e-38
0.04873875529 -0.1925241649 -0.4353322387 2.343925737e-38
0.1674498171 -0.4055635631 -0.4677252471 2.343925737e-38
-0.1705247611 -0.2411777526 -0.44159168 2.343925737e-38
-0.1438904852 -0.2416507006 -0.3534030914 2.343817977e-38
-0.1190341115 -0.2060706764 -0.4441725314 2.343817977e-38
0.08659569919 -0.1941477954 -0.42466712 2.343817977e-38
-0.1420268118 -0.3668694198 -0.4529613256 2.343817977e-38
-0.150938347 -0.3288964033 -0.4152052104 2.343710077e-38
0.1431911886 -0.3920191228 -0.4665994346 2.343710077e-38
-0.1290054619 -0.3549828827 -0.4536229968 2.343710077e-38
0.07418675721 -0.1811902076 -0.4365897179 2.343710077e-38
-0.1699300706 -0.2287385613 -0.4416575432 2.343566444e-38
-0.1557193249 -0.1919735968 -0.442450881 2.343566444e-38
0.419106096 -0.296074599 -0.4153882563 2.343566444e-38
-0.1687406749 -0.2038601488 -0.4417892098 2.343566444e-38
0.1895239204 -0.161148414 -0.3922733963 2.343458544e-38
-0.1278160661 -0.3301044703 -0.4537546635 2.343458544e-38
0.4278145134 -0.4296079874 -0.4801717103 2.343458544e-38
0.1443805695 -0.3671407402 -0.4667311013 2.343458544e-38
0.2646607459 -0.1644299179 -0.3833957613 2.343350644e-38
-0.00236029923 -0.310752362 -0.4598445892 2.343350644e-38
0.4029612243 -0.4285027087 -0.4789800346 2.343350644e-38
0.2668628991 -0.4099846184 -0.4724918306 2.343350644e-38
0.1735821366 -0.1980161965 -0.4288378954 2.343242884e-38
0.4055254459 -0.2955905199 -0.4396976531 2.343242884e-38
-0.1444321126 -0.2168750763 -0.3908925951 2.343242884e-38
0.291716218 -0.4110898674 -0.4736834764 2.343242884e-38
0.2765103877 -0.16501683 -0.3964441717 2.343134984e-38
0.2889370024 -0.1655694544 -0.3970399797 2.343134984e-38
0.1207167059 -0.3411570787 -0.4656711519 2.343134984e-38
-0.01240818575 -0.2604429722 -0.4595121443 2.343134984e-38
-0.1266266853 -0.3052260578 -0.4538863599 2.343027224e-38
-0.04909340292 -0.2463458478 -0.4577905238 2.343027224e-38
0.2635067403 -0.1644984633 -0.408300966 2.343027224e-38
-0.1479472071 -0.2542954981 -0.4280528724 2.343027224e-38
-0.08637331426 -0.2446879745 -0.4560030401 2.342919324e-38
0.3007866144 -0.1661563516 -0.4100884497 2.342919324e-38
0.3256399333 -0.1672616154 -0.4112800956 2.342919324e-38
0.2250728011 -0.1629091054 -0.4314187169 2.342919324e-38
-0.1508852839 -0.2916816175 -0.4527605474 2.342811565e-38
0.02606111392 -0.2372224629 -0.4614312947 2.342811565e-38
0.03610897064 -0.2875318527 -0.4617637694 2.342811565e-38
0.02665580623 -0.2247832417 -0.4614971578 2.342811565e-38
0.2877829969 -0.1656379849 -0.4219452143 2.342703665e-38
0.07279422134 -0.3016289473 -0.4634853899 2.342703665e-38
0.4061378241 -0.2707464397 -0.4522819221 2.342703665e-38
-0.1348904967 -0.2175990343 -0.4537514448 2.342703665e-38
0.09824216366 -0.2902950048 -0.4647428691 2.342559891e-38
0.2747793794 -0.1651196331 -0.4338020086 2.342559891e-38
0.3120593131 -0.1667775214 -0.4355894923 2.342559891e-38
0.3493391871 -0.1684354097 -0.4373769462 2.342559891e-38
0.1840392947 -0.3190418184 -0.4687819481 2.342452132e-38
0.4120493829 -0.1711642742 -0.4279034436 2.342452132e-38
0.3599817455 -0.2063056529 -0.4377752542 2.342452132e-38
0.4177666903 -0.3792985976 -0.4798392355 2.342452132e-38
0.1485434175 -0.2800663412 -0.467192024 2.342344232e-38
0.3972616792 -0.2079635561 -0.4395627081 2.342344232e-38
0.3562281728 -0.3640962243 -0.4769259691 2.342344232e-38
0.2337458581 -0.321252346 -0.4711652696 2.342344232e-38
0.1970606148 -0.3071552515 -0.4694436193 2.342236472e-38
0.4233043194 -0.1841903925 -0.4408860505 2.342236472e-38
0.4096882939 -0.2085161805 -0.440158546 2.342236472e-38
0.2100819349 -0.2952686846 -0.4701052904 2.342236472e-38
