# .PCD v0.7 - Point Cloud Data file format
VERSION 0.7
FIELDS x y z rgb
SIZE 4 4 4 4
TYPE F F F F
COUNT 1 1 1 1
WIDTH 832
HEIGHT 1
VIEWPOINT 0 0 0 1 0 0 0
POINTS 832
DATA ascii
0.2525195777 -0.2401358187 -0.195862636 8.560068489e-39
0.2401521951 -0.2396659255 -0.2084298432 8.560068489e-39
0.1926542521 -0.06483160704 -0.1924561113 8.560068489e-39
0.2286430448 -0.1650343388 -0.1943835467 8.560068489e-39
0.2866770029 -0.3270788491 0.1114262193 8.560068489e-39
0.4064337313 -0.3796457946 -0.1293268502 8.377473694e-39
0.2045111954 -0.1145642772 -0.2059200108 8.377473694e-39
0.2280400246 -0.2145646513 -0.207981497 8.377473694e-39
0.3080638051 -0.2906131744 -0.1407939941 8.377473694e-39
0.1803682148 -0.05217979848 -0.1922989637 8.377473694e-39
0.2886009514 -0.3400710225 -0.2102232277 8.377473694e-39
0.2523456812 -0.2525852323 -0.1961538345 8.377473694e-39
0.2857738435 -0.353582859 0.1854428053 8.377473694e-39
0.2876026332 -0.3244036734 -0.01290544122 8.194878899e-39
0.2867695689 -0.3268113136 0.09899306297 8.194878899e-39
0.2519165874 -0.2896660864 -0.2094605863 8.194878899e-39
0.1680821478 -0.03952796012 -0.192141816 8.194878899e-39
0.192399025 -0.08946299553 -0.2054716647 8.194878899e-39
0.2859477401 -0.3411333859 0.1857340038 8.194878899e-39
0.2041634172 -0.1394631714 -0.2065024078 8.194878899e-39
0.2521717846 -0.2650346756 -0.196445033 8.194878899e-39
0.2163569778 -0.1523825377 -0.1942263991 8.012284103e-39
0.3078899384 -0.3030626178 -0.1410851926 8.012284103e-39
0.1801129878 -0.07681115717 -0.205314517 8.012284103e-39
0.2638548911 -0.3272168338 -0.2102001309 8.012284103e-39
0.1922251284 -0.1019124389 -0.2057628632 8.012284103e-39
0.287232399 -0.3254737258 0.03682723269 8.012284103e-39
0.2039895207 -0.1519126445 -0.2067936063 8.012284103e-39
0.2044186443 -0.1148317978 -0.1934868544 8.012284103e-39
0.2753277719 -0.3236662447 -0.03790585697 7.829687907e-39
0.2279474735 -0.2148321718 -0.1955483407 7.829687907e-39
0.2869547009 -0.3262763023 0.07412670553 7.829687907e-39
0.2515687943 -0.3145650029 -0.2100429833 7.829687907e-39
0.2641100883 -0.3025854528 -0.1971845776 7.829687907e-39
0.1923064739 -0.08973051608 -0.1930385083 7.829687907e-39
0.378459245 -0.3880691528 0.2806995809 7.829687907e-39
0.1555408686 -0.0515075475 -0.2050002217 7.829687907e-39
0.378551811 -0.3878016174 0.2682664096 7.647093112e-39
0.2743095756 -0.3266089261 0.09885901213 7.647093112e-39
0.2036417425 -0.176811561 -0.2073760033 7.647093112e-39
0.2736616433 -0.328481555 0.1858911514 7.647093112e-39
0.2639361918 -0.3150348961 -0.1974757761 7.647093112e-39
0.143254742 -0.03885570541 -0.2048430741 7.647093112e-39
0.1921325773 -0.1021799594 -0.1933297068 7.647093112e-39
0.2392827421 -0.3019132018 -0.2098858356 7.647093112e-39
0.2156614214 -0.202180326 -0.195391193 7.464498317e-39
0.2038969696 -0.1521801651 -0.1943604499 7.464498317e-39
0.2629603744 -0.3231963515 -0.05047306046 7.464498317e-39
0.2749575377 -0.3247362971 0.01182681695 7.464498317e-39
0.2364306152 -0.3434103429 0.2010964751 7.464498317e-39
0.2956964076 -0.2901432514 -0.1533612013 7.464498317e-39
0.2271705717 -0.2768119276 -0.2094374895 7.464498317e-39
0.2612016797 -0.3282791972 0.1857571155 7.464498317e-39
0.2482200861 -0.3654251993 0.1847494692 7.281903522e-39
0.2391088605 -0.3143626451 -0.2101770341 7.281903522e-39
0.2395379692 -0.277281791 -0.1968702823 7.281903522e-39
0.2516501248 -0.3023830652 -0.1973186284 7.281903522e-39
0.2150584161 -0.2517106235 -0.2089891434 7.281903522e-39
0.1917847991 -0.1270788759 -0.1939121038 7.281903522e-39
0.4057044685 -0.3937003613 -0.05501902476 7.281903522e-39
0.1430808604 -0.05130517855 -0.2051342577 7.281903522e-39
0.4056119025 -0.3939678669 -0.04258587211 7.099307325e-39
0.2362567186 -0.3558597863 0.2008052766 7.099307325e-39
0.2485678643 -0.3405262828 0.1853318661 7.099307325e-39
0.2514762282 -0.3148325086 -0.1976098269 7.099307325e-39
0.3041285276 -0.3497740924 0.2932020128 7.099307325e-39
0.2029461861 -0.2266093493 -0.2085407823 7.099307325e-39
0.2243184596 -0.3183090687 0.2015448213 7.099307325e-39
0.1796726435 -0.1019775942 -0.1934637576 7.099307325e-39
0.2492045611 -0.3267392516 0.1234572381 6.91671253e-39
0.1910078973 -0.1890586317 -0.2078012377 6.91671253e-39
0.2491119951 -0.3270067871 0.1358903795 6.91671253e-39
0.4055193365 -0.3942354023 -0.03015268967 6.91671253e-39
0.2027722895 -0.2390588224 -0.2088319808 6.91671253e-39
0.1550191939 -0.08885589242 -0.2058738023 6.91671253e-39
0.1794987619 -0.1144270673 -0.1937549561 6.91671253e-39
0.2030275166 -0.2144274265 -0.1958164424 6.91671253e-39
0.2270780206 -0.2770794332 -0.1970043331 6.734117735e-39
0.2361079156 -0.3403238952 0.1851978153 6.734117735e-39
0.2997260392 -0.3614193499 -0.03851135448 6.734117735e-39
0.2759670913 -0.3523181081 -0.2106484771 6.734117735e-39
0.1910892427 -0.1768767089 -0.1950768977 6.734117735e-39
0.2145367414 -0.2890589833 -0.2098627239 6.734117735e-39
0.3039546311 -0.3622235358 0.2929108143 6.734117735e-39
0.2237967849 -0.3556574285 0.2006712258 6.734117735e-39
0.1307022423 -0.03892085329 -0.1925439537 6.55152294e-39
0.2110140622 -0.3523686528 0.18463853 6.55152294e-39
0.2750725448 -0.3482976258 -0.0509214066 6.55152294e-39
0.1549266428 -0.08912341297 -0.1934406608 6.55152294e-39
0.2832364738 -0.2899408937 -0.1534952521 6.55152294e-39
0.2143628448 -0.3015084565 -0.2101539224 6.55152294e-39
0.1667835861 -0.1388560683 -0.2069045454 6.55152294e-39
0.1859202981 -0.3644133508 0.1840792298 6.55152294e-39
0.1184161976 -0.026269041 -0.192386806 6.368926744e-39
0.251221031 -0.3394639194 -0.2106253803 6.368926744e-39
0.2239144146 -0.3274045885 0.1729218066 6.368926744e-39
0.1903123409 -0.2388564497 -0.2089660317 6.368926744e-39
0.2240995318 -0.3268695474 0.1480554491 6.368926744e-39
0.1789770871 -0.1517754197 -0.1946285516 6.368926744e-39
0.4063524008 -0.3918277323 -0.1420511901 6.368926744e-39
0.1426405311 -0.0764715746 -0.1932834983 6.368926744e-39
0.2380404919 -0.3227916062 -0.0507411547 6.186331949e-39
0.2111879587 -0.3399191797 0.1849297285 6.186331949e-39
0.1305283606 -0.05137032643 -0.1928351521 6.186331949e-39
0.2022506148 -0.2764071822 -0.2097055763 6.186331949e-39
0.2882531583 -0.364969939 -0.2108056247 6.186331949e-39
0.1061301306 -0.01361720264 -0.1922296584 6.186331949e-39
0.2830625772 -0.302390337 -0.1537864506 6.186331949e-39
0.2872660756 -0.3612169921 -0.0386454016 6.186331949e-39
0.250326544 -0.3354434371 -0.05089830607 6.003737154e-39
0.2242846638 -0.3263345063 0.1231891364 6.003737154e-39
0.2497599423 -0.3251341581 0.04885824397 6.003737154e-39
0.2498525083 -0.3248666227 0.0364250876 6.003737154e-39
0.250233978 -0.3357109725 -0.0384651497 6.003737154e-39
0.2117320895 -0.326399684 0.1354882419 6.003737154e-39
0.118242301 -0.03871848434 -0.1926780045 6.003737154e-39
0.1780263036 -0.2262046188 -0.208808884 6.003737154e-39
0.31964311 -0.3411484063 -0.1169584021 5.820783626e-39
0.2625200152 -0.3483628035 -0.03862230107 5.820783626e-39
0.1782815307 -0.2015732229 -0.1957933307 5.820783626e-39
0.2244697958 -0.3257994652 0.09832282364 5.820783626e-39
0.3193654418 -0.341950953 -0.07965891063 5.820783626e-39
0.1991795748 -0.326464802 0.1477873474 5.820783626e-39
0.2118246555 -0.3261321485 0.1230550855 5.820783626e-39
0.3192728758 -0.3422184587 -0.06722575426 5.820783626e-39
0.2375776768 -0.324129194 0.01142467186 5.63818743e-39
0.1900459081 -0.2515734136 -0.1968240738 5.63818743e-39
0.1657402366 -0.2135528028 -0.2086517364 5.63818743e-39
0.1663432568 -0.1640225053 -0.195053786 5.63818743e-39
0.27077654 -0.2897385359 -0.1536292881 5.63818743e-39
0.1485403925 -0.3638062477 0.1836770922 5.63818743e-39
0.1738081276 -0.3393120766 0.184527576 5.63818743e-39
0.201984182 -0.2891241312 -0.1975636184 5.63818743e-39
0.1421188563 -0.1138199568 -0.1941570938 5.455592635e-39
0.1538019627 -0.1760020852 -0.2079121917 5.455592635e-39
0.165566355 -0.2260022461 -0.2089429349 5.455592635e-39
0.1898720115 -0.264022857 -0.1971152723 5.455592635e-39
0.1659954637 -0.1889214069 -0.195636183 5.455592635e-39
0.1418636292 -0.1384513229 -0.2071726471 5.455592635e-39
0.1359065473 -0.3760533035 0.1832518429 5.455592635e-39
0.1994572729 -0.3256622553 0.1104878932 5.455592635e-39
0.09349629283 -0.02586430497 -0.1926549077 5.272997839e-39
0.1658215821 -0.2013708502 -0.1959273815 5.272997839e-39
0.161533311 -0.3385746479 0.1595272273 5.272997839e-39
0.1360804439 -0.3636038601 0.1835430413 5.272997839e-39
0.1612780839 -0.3632060587 0.1465116143 5.272997839e-39
0.2705100775 -0.3024554849 -0.1414873302 5.272997839e-39
0.1416897327 -0.1509007961 -0.2074638456 5.272997839e-39
0.2706026435 -0.3021879494 -0.1539204866 5.272997839e-39
0.2140150666 -0.3264073431 -0.2107363194 5.090401643e-39
0.2623461187 -0.3608122468 -0.03891349584 5.090401643e-39
0.3157190681 -0.4122237563 0.2918800712 5.090401643e-39
0.213027969 -0.3226544261 -0.0385760963 5.090401643e-39
0.08112885803 -0.02539441735 -0.2052221149 5.090401643e-39
0.1488881707 -0.3389073312 0.1842594892 5.090401643e-39
0.3036181033 -0.3990368545 0.2671709359 5.090401643e-39
0.1295775622 -0.1257995218 -0.2070154995 5.090401643e-39
0.08121018112 -0.01321246475 -0.1924977601 4.907806848e-39
0.1869973391 -0.3254598975 0.1103538424 4.907806848e-39
0.09332240373 -0.03831375018 -0.1929461062 4.907806848e-39
0.1362543255 -0.3511544168 0.1838342398 4.907806848e-39
0.1362655759 -0.363068819 0.1586767286 4.907806848e-39
0.1493397355 -0.3256553411 0.147251159 4.907806848e-39
0.1363468915 -0.3508869112 0.1714010835 4.907806848e-39
0.2376927137 -0.3476905227 -0.05132355168 4.907806848e-39
0.2124726027 -0.3242595196 0.03602294251 4.725212053e-39
0.1492471844 -0.3259228468 0.1596843749 4.725212053e-39
0.3069979846 -0.3414810598 -0.0922261104 4.725212053e-39
0.2376001477 -0.3479580581 -0.03889039904 4.725212053e-39
0.3073682487 -0.3404109776 -0.141958788 4.725212053e-39
0.3069054484 -0.3417485654 -0.07979295403 4.725212053e-39
0.2634145319 -0.3523832262 -0.1983493716 4.725212053e-39
0.1291347444 -0.06475834548 0.06953151524 4.725212053e-39
0.1294036806 -0.1382489651 -0.207306698 4.542257124e-39
0.09306718409 -0.06294514239 -0.2059616596 4.542257124e-39
0.2042637765 -0.3486902118 0.3169959486 4.542257124e-39
0.2128428519 -0.3231894672 -0.0137097314 4.542257124e-39
0.2043563426 -0.3484227061 0.3045628071 4.542257124e-39
0.1052606776 -0.0758644715 -0.1936856508 4.542257124e-39
0.1367059052 -0.3379024267 0.1468259096 4.542257124e-39
0.1409941763 -0.2006985992 -0.2086286396 4.542257124e-39
0.3034442067 -0.4114863276 0.2668797374 4.359662329e-39
0.1486441791 -0.3754531443 0.146086365 4.359662329e-39
0.1367872357 -0.325720489 0.1595503241 4.359662329e-39
0.1651260257 -0.2511686683 -0.1970921755 4.359662329e-39
0.1171176359 -0.1255971491 -0.2071495503 4.359662329e-39
0.1369723529 -0.3251854777 0.1346839517 4.359662329e-39
0.09297461808 -0.06321265548 -0.1935285032 4.359662329e-39
0.1361842304 -0.3752507567 0.1459523141 4.359662329e-39
0.2263011187 -0.3390591741 -0.2108934671 4.177066133e-39
0.204275012 -0.3606045842 0.2918384373 4.177066133e-39
0.191988945 -0.3479527831 0.291995585 4.177066133e-39
0.2413070798 -0.3861106038 0.2916581929 4.177066133e-39
0.1353848726 -0.4134016931 0.1823782474 4.177066133e-39
0.1621700078 -0.3247876167 0.09765258431 4.177066133e-39
0.2703361809 -0.314904958 -0.1417785287 4.177066133e-39
0.1368910372 -0.3373673856 0.1219595969 4.177066133e-39
0.1370649189 -0.3249179423 0.1222507954 3.994471337e-39
0.2414922118 -0.3855755627 0.2667918801 3.994471337e-39
0.1409016252 -0.2009661198 -0.1961954832 3.994471337e-39
0.152410835 -0.2755977213 -0.2102417648 3.994471337e-39
0.1046576872 -0.1253947765 -0.2072835863 3.994471337e-39
0.06849502027 -0.03764149547 -0.2056473494 3.994471337e-39
0.1165822446 -0.06482350081 0.08183068037 3.994471337e-39
0.152666077 -0.2509663105 -0.1972262263 3.994471337e-39
0.05638284609 -0.01254021004 -0.2051990032 3.81151781e-39
0.2288471162 -0.385908246 0.291524142 3.81151781e-39
0.1047390103 -0.1132128537 -0.1945592463 3.81151781e-39
0.2537783086 -0.3982273936 0.2666347325 3.81151781e-39
0.1622625589 -0.3245201111 0.08521936834 3.81151781e-39
0.1371574849 -0.3246504366 0.1098176539 3.81151781e-39
0.1369836032 -0.33709988 0.1095264554 3.81151781e-39
0.1607564092 -0.4005544186 0.1456380188 3.81151781e-39
0.09237162769 -0.1127429679 -0.2071264386 3.628921614e-39
0.1891764551 -0.3138206601 -0.1982800663 3.628921614e-39
0.09202135354 -0.05143428594 0.05698741227 3.628921614e-39
0.08051461726 -0.06301029027 -0.193662554 3.628921614e-39
0.1632332206 -0.3257339001 0.01408589259 3.628921614e-39
0.1368097067 -0.3495493233 0.1092352569 3.628921614e-39
0.1880155355 -0.3225171864 -0.02641097829 3.628921614e-39
0.1166772842 -0.1507635862 -0.1952987909 3.628921614e-39
0.1042148545 -0.06435360759 0.069263421 3.446326818e-39
0.1164220721 -0.1753949821 -0.2083143294 3.446326818e-39
0.2163871825 -0.3857058883 0.2913900912 3.446326818e-39
0.05620894954 -0.02498968132 -0.2054902017 3.446326818e-39
0.1403799504 -0.2383145094 -0.1970690787 3.446326818e-39
0.149628669 -0.3367671967 0.0847941339 3.446326818e-39
0.08034072816 -0.07545973361 -0.1939537376 3.446326818e-39
0.1043099016 -0.1502936929 -0.2078659832 3.446326818e-39
0.1482964009 -0.4003520608 0.145503968 3.26337189e-39
0.2039272487 -0.3855035007 0.2912560403 3.26337189e-39
0.1041222885 -0.06462112814 0.08169662952 3.26337189e-39
0.2262085676 -0.3393266797 -0.1984603107 3.26337189e-39
0.4055418074 -0.4180642366 -0.08046776056 3.26337189e-39
0.1354774386 -0.4131341875 0.169945091 3.26337189e-39
0.1508546025 -0.3133496344 0.0266761966 3.26337189e-39
0.116329506 -0.1756625026 -0.195881173 3.26337189e-39
0.05611639097 -0.0252572 -0.1930570453 3.080777095e-39
0.1399508268 -0.2753953338 -0.2103758156 3.080777095e-39
0.1400321722 -0.2632133663 -0.1976514608 3.080777095e-39
0.1280938983 -0.2256626636 -0.1969119161 3.080777095e-39
0.07991162688 -0.1125405952 -0.2072604895 3.080777095e-39
0.1367283911 -0.3617312312 0.09651090205 3.080777095e-39
0.116223231 -0.07780797035 0.1064057872 3.080777095e-39
0.1644304544 -0.3009665012 -0.1982569695 3.080777095e-39
0.1040434465 -0.1630106568 -0.1957240254 2.898180898e-39
0.07946884632 -0.05149943382 0.0692865178 2.898180898e-39
0.09193127602 -0.1379093826 -0.1952756792 2.898180898e-39
0.07973773777 -0.1249900386 -0.207551688 2.898180898e-39
0.1039371639 -0.06515616179 0.1065629423 2.898180898e-39
0.1372612864 -0.3362973332 0.07222692668 2.898180898e-39
0.1037882343 -0.1876420528 -0.2087395787 2.898180898e-39
0.06718274206 -0.03884759545 0.06944366544 2.898180898e-39
0.1521444023 -0.2883146405 -0.1980998069 2.715227371e-39
-0.1556777805 0.04993710667 -0.05682382733 2.715227371e-39
-0.1565921754 0.03534752131 0.04235026985 2.715227371e-39
-0.1433103681 0.04946721718 -0.04425662756 2.715227371e-39
0.1249164492 -0.3158875704 0.1631729156 2.715227371e-39
0.06762556732 -0.09988875687 -0.2071033418 2.715227371e-39
0.1038445979 -0.06542368233 0.1189960986 2.715227371e-39
0.04365644231 -0.02505483106 -0.1931910962 2.715227371e-39
0.1643491238 -0.3131484389 -0.2109813094 2.532632576e-39
-0.1549485028 0.06399165839 -0.131131649 2.532632576e-39
-0.1438544989 0.03594770283 0.005184852518 2.532632576e-39
0.1373538524 -0.3360297978 0.05979376659 2.532632576e-39
0.07964517176 -0.1252575666 -0.1951185316 2.532632576e-39
-0.1439470649 0.035680186 0.0176180061 2.532632576e-39
0.2333040535 -0.2893989384 -0.1415982842 2.532632576e-39
-0.1437619328 0.03621522337 -0.007248330861 2.532632576e-39
0.11537873 -0.2500917017 -0.2100615203 2.349677647e-39
0.213748619 -0.3391243219 -0.1985943615 2.349677647e-39
0.1037632748 -0.07760560513 0.1062717438 2.349677647e-39
0.2755267322 -0.3774845302 -0.1987977177 2.349677647e-39
0.03128905967 -0.02458494529 -0.2057583034 2.349677647e-39
-0.1547633857 0.06452669203 -0.1559979916 2.349677647e-39
0.1037520394 -0.06569120288 0.131429255 2.349677647e-39
-0.1436693817 0.03648274019 -0.01968148537 2.349677647e-39
0.1352109909 -0.4258511364 0.1820870489 2.167082852e-39
0.05559472367 -0.06260555238 -0.1939306408 2.167082852e-39
-0.1423034072 0.06432432681 -0.1558639407 2.167082852e-39
0.2946418226 -0.3529255688 -0.129950881 2.167082852e-39
0.1632807553 -0.3215774 -0.05154544115 2.167082852e-39
0.07919115573 -0.05230198801 0.1065860391 2.167082852e-39
0.1243947744 -0.3532359302 0.1622993201 2.167082852e-39
-0.1569624245 0.03427744657 0.09208294749 2.167082852e-39
-0.1558516622 0.03748766333 -0.05711502582 1.984127923e-39
-0.141933158 0.06539440155 -0.2055965811 1.984127923e-39
0.1506356299 -0.3219100833 -0.02681312338 1.984127923e-39
0.03111517057 -0.03703438863 -0.2060495019 1.984127923e-39
-0.1429401189 0.05053729191 -0.09398929775 1.984127923e-39
0.1481225044 -0.4128015339 0.1452127695 1.984127923e-39
0.09130332619 -0.07740323991 0.1061376929 1.984127923e-39
0.2037645876 -0.4098673761 0.2658073604 1.984127923e-39
0.05516561493 -0.09968639165 -0.2072373927 1.801533128e-39
0.3069279194 -0.3655773699 -0.1301080287 1.801533128e-39
0.1908530593 -0.4229170382 0.3026815653 1.801533128e-39
-0.01794779114 0.02575480752 -0.1926965415 1.801533128e-39
-0.1551223993 0.05154221505 -0.1314228475 1.801533128e-39
-0.1441209614 0.02323068678 0.0173268076 1.801533128e-39
0.1369135082 -0.3611962199 0.0716445297 1.801533128e-39
0.2209366858 -0.2889290452 -0.1541654915 1.801533128e-39
-0.1549372822 0.05207724869 -0.1562891901 1.618578199e-39
0.05499172211 -0.1121358573 -0.2075285912 1.618578199e-39
-0.1438432783 0.02403324097 -0.01997268386 1.618578199e-39
0.233130157 -0.3018483818 -0.1418894827 1.618578199e-39
0.09106183052 -0.200156644 -0.1967316717 1.618578199e-39
-0.1566622555 0.01125113107 0.004468409345 1.618578199e-39
0.2012886107 -0.3389219642 -0.1987284124 1.618578199e-39
-0.1565696895 0.01151864789 -0.007964774966 1.618578199e-39
0.07892470062 -0.06501894444 0.1187279969 1.435982003e-39
0.150820747 -0.3213750422 -0.051679492 1.435982003e-39
0.1494660228 -0.361131072 0.05934542045 1.435982003e-39
-0.09226721525 0.05213547498 -0.2053515911 1.435982003e-39
0.06701132655 -0.1375046372 -0.1955437809 1.435982003e-39
0.01873648912 -0.02465009503 -0.1934591979 1.435982003e-39
0.09080661088 -0.2247880399 -0.209747225 1.435982003e-39
-0.1571363211 0.02182794921 0.091791749 1.435982003e-39
-0.1564771384 0.01178616658 -0.02039792947 1.253028475e-39
-0.01812168024 0.01330536604 -0.19298774 1.253028475e-39
-0.1171871349 0.05254021287 -0.2056196928 1.253028475e-39
0.01865516044 -0.03683201969 -0.2061835527 1.253028475e-39
0.03076739237 -0.06193330139 -0.2066318989 1.253028475e-39
-0.1431140006 0.03808784857 -0.09428049624 1.253028475e-39
0.1603160799 -0.4257208407 0.1574888378 1.253028475e-39
-0.1563845724 0.01205368526 -0.03283111006 1.253028475e-39
-0.1559329927 0.02530568093 -0.06983940303 1.070432279e-39
-0.04277515039 0.02642706409 -0.2053977996 1.070432279e-39
0.006369106006 -0.0241802074 -0.2060263902 1.070432279e-39
-0.1442022771 0.01104876213 0.004602457397 1.070432279e-39
-0.03048909456 0.01377525181 -0.2055549473 1.070432279e-39
0.2506993413 -0.3768122792 -0.2114989609 1.070432279e-39
-0.1442948431 0.01078124531 0.01703561097 1.070432279e-39
-0.05515379831 0.03881141171 -0.1928074956 1.070432279e-39
0.2001389265 -0.3595328629 -0.05201689154 8.874787512e-40
-0.1443874091 0.01051372662 0.02946876548 8.874787512e-40
-0.1568361521 -0.001198310871 0.004177211784 8.874787512e-40
-0.1571250707 0.009913541377 0.06663423777 8.874787512e-40
0.05464394391 -0.137034744 -0.2081109881 8.874787512e-40
0.07877571881 -0.187504828 -0.196574524 8.874787512e-40
-0.06752118468 0.03928129748 -0.2053746879 8.874787512e-40
0.05472527072 -0.1248528287 -0.1953866333 8.874787512e-40
0.1631068736 -0.3340268433 -0.05183663964 7.045238224e-40
-0.1552037299 0.03936028853 -0.1441472024 7.045238224e-40
0.04191505909 -0.0633417666 0.06859318167 7.045238224e-40
-0.1447689086 0.02135806158 0.1043589488 7.045238224e-40
0.006276542787 -0.02444772609 -0.1935932487 7.045238224e-40
-0.1572176367 0.009646022692 0.07906739414 7.045238224e-40
0.04253177345 -0.1119334921 -0.2076626271 7.045238224e-40
0.04190382361 -0.05142736807 0.09375074506 7.045238224e-40
-0.1438320279 0.012118835 -0.04513021559 5.219290273e-40
-0.1446650922 0.009711172432 0.06676828861 5.219290273e-40
-0.006090841256 -0.02397783846 -0.206160441 5.219290273e-40
-0.1575065702 0.02075787634 0.1415244192 5.219290273e-40
-0.1682718247 -0.01934293844 -0.08201000839 5.219290273e-40
0.1394291669 -0.3127436936 -0.2112494111 5.219290273e-40
0.3062912226 -0.3793644309 -0.06823339313 5.219290273e-40
-0.1558118463 -0.01954530738 -0.081875965 5.219290273e-40
-0.1574027687 0.009110987186 0.1039337069 3.389740985e-40
-0.1557192802 -0.01927779056 -0.09430911392 3.389740985e-40
0.1353961229 -0.4253160954 0.157220751 3.389740985e-40
-0.1679941416 -0.01854038425 -0.1193095073 3.389740985e-40
0.01908937842 -0.3048285544 0.1542277038 3.389740985e-40
-0.1436468959 0.01265387051 -0.06999655813 3.389740985e-40
0.2574358881 -0.3398690224 -0.1300618201 3.389740985e-40
-0.1452317238 0.02002047189 0.1665247679 3.389740985e-40
-0.1424548328 0.02804601006 -0.2064701766 1.56020571e-40
-0.1050749421 0.02743890323 -0.2060680389 1.56020571e-40
0.1370986402 -0.3606611788 0.04677822068 1.56020571e-40
0.05399351567 -0.05269980431 0.1436174661 1.56020571e-40
0.06623444706 -0.199484393 -0.2094329149 1.56020571e-40
-0.1449427903 0.008908620104 0.1040677503 1.56020571e-40
-0.1566397995 -0.01257768087 -0.04584666342 1.56020571e-40
-0.1439133584 -6.309011951e-05 -0.05785457045 1.56020571e-40
-0.1570913643 -0.02582970634 -0.008838366717 6.490113838e-41
0.2697219551 -0.3525208235 -0.1302189827 6.490113838e-41
-0.142917648 0.02670842037 -0.14430435 6.490113838e-41
-0.1434617788 0.01318890601 -0.09486289322 6.490113838e-41
0.2382394075 -0.3766099215 -0.2116330117 6.490113838e-41
-0.1576804519 0.008308432996 0.1412332207 6.490113838e-41
-0.1557366252 0.01392631046 -0.1198632494 6.490113838e-41
-0.1575766653 -0.003338453593 0.1036425084 6.490113838e-41
-0.1438207924 0.0002044280991 -0.07028774917 2.496469266e-40
-0.1677164435 -0.01773783192 -0.1566089988 2.496469266e-40
-0.01864335127 -0.02404299006 -0.1938613355 2.496469266e-40
-0.006357294507 -0.03669480234 -0.1940184832 2.496469266e-40
-0.1433692127 0.0134564247 -0.1072960421 2.496469266e-40
-0.1578655839 0.007773397956 0.1660995334 2.496469266e-40
0.01804092899 -0.07444789261 -0.1946239769 2.496469266e-40
0.01918194257 -0.3045610189 0.1417945474 2.496469266e-40
-0.1564546674 -0.01204264536 -0.07071299851 4.340353837e-40
-0.1437282413 0.000471945852 -0.08272090554 4.340353837e-40
0.1181547865 -0.3440634012 0.1668596417 4.340353837e-40
-0.05558290705 0.001730546821 -0.2061142474 4.340353837e-40
0.149743706 -0.3603285253 0.02204589918 4.340353837e-40
-0.1447239518 -0.02629959397 0.003728864715 4.340353837e-40
-0.1453130394 0.00783854723 0.153800413 4.340353837e-40
-0.157958135 0.007505879272 0.1785327345 4.340353837e-40
-0.1448165178 -0.02656711079 0.01616201922 6.184224396e-40
-0.1454168409 0.01948543638 0.1913911402 6.184224396e-40
-0.1436356753 0.0007394640706 -0.09515409172 6.184224396e-40
0.1270505488 -0.3003593981 -0.1986591071 6.184224396e-40
-0.1449090838 -0.02683462761 0.02859517187 6.184224396e-40
-0.155366376 0.01499638148 -0.169595927 6.184224396e-40
-0.1571727097 -0.03801163286 -0.02156271972 6.184224396e-40
-0.1574503928 -0.03881418705 0.01573677361 6.184224396e-40
0.0807749331 -0.3434562981 0.166457504 8.028094954e-40
0.137642771 -0.3471416533 -0.002663258463 8.028094954e-40
0.05402971059 -0.1746506542 -0.1965514123 8.028094954e-40
-0.1559105217 0.001476868056 -0.1201544479 8.028094954e-40
-0.1053413972 0.01472194493 -0.1939260811 8.028094954e-40
-0.1428138316 0.01506153122 -0.1818950325 8.028094954e-40
-0.143994689 -0.01224501431 -0.07057894766 8.028094954e-40
-0.1575429589 -0.03908170387 0.02816992812 8.028094954e-40
0.04183621332 -0.1617313027 -0.2088274211 9.871979525e-40
-0.1685270369 -0.04397433251 -0.09502556175 9.871979525e-40
-0.1178013757 0.01492431387 -0.1940601319 9.871979525e-40
-0.155071348 -0.0174051635 -0.1813412905 9.871979525e-40
-0.1552625895 0.003349493723 -0.2071866244 9.871979525e-40
0.06831499189 -0.3432539403 0.1663234532 9.871979525e-40
-0.08050280064 0.002135283314 -0.2063823342 9.871979525e-40
-0.1576355249 -0.03934922069 0.04060308263 9.871979525e-40
0.2876389325 -0.4025858045 -0.1992460638 1.171585008e-39
0.293831259 -0.3791620731 -0.06836744398 1.171585008e-39
0.03146799654 -0.3172128797 0.1416373998 1.171585008e-39
-0.1683419198 -0.04343929887 -0.1198918968 1.171585008e-39
-0.1580394804 -0.004676043056 0.1658083349 1.171585008e-39
-0.158050701 0.007238361519 0.1909658909 1.171585008e-39
-0.1674387604 -0.01693527773 -0.1939085126 1.171585008e-39
-0.006612511817 -0.06132619828 -0.2070340365 1.171585008e-39
-0.1549787819 -0.01713764668 -0.1937744766 1.355972064e-39
0.005499654915 -0.08642747253 -0.2074823827 1.355972064e-39
-0.1548862159 -0.01687012799 -0.2062076181 1.355972064e-39
-0.1672536284 -0.01640024222 -0.2187748253 1.355972064e-39
0.293553561 -0.3799646497 -0.03106792271 1.355972064e-39
-0.1054227203 0.002540019806 -0.2066504359 1.355972064e-39
-0.1438095719 -0.01170997694 -0.09544529021 1.355972064e-39
0.05385582149 -0.1871000975 -0.1968426108 1.355972064e-39
0.137735337 -0.3468741477 -0.01509641111 1.540360521e-39
-0.157935679 -0.01632293127 0.1282176673 1.540360521e-39
-0.03118465655 -0.03602254763 -0.2067197412 1.540360521e-39
-0.1178826988 0.002742388751 -0.2067844719 1.540360521e-39
-0.1573465914 -0.05046110228 -0.02185391821 1.540360521e-39
-0.1452905834 -0.01599026471 0.1034853607 1.540360521e-39
-0.1578318775 -0.02796984836 0.09062695503 1.540360521e-39
-0.1556328386 0.002279422246 -0.1574539691 1.540360521e-39
-0.1455907226 0.007035993505 0.1910999417 1.724747577e-39
0.2942014933 -0.3780920208 -0.1181000918 1.724747577e-39
0.2941089272 -0.3783595264 -0.1056669354 1.724747577e-39
-0.05584935844 -0.01098641381 -0.1939722896 1.724747577e-39
0.2381468564 -0.3768774271 -0.1991998553 1.724747577e-39
0.01743792929 -0.1239781976 -0.2082219273 1.724747577e-39
-0.06821674109 -0.01051652618 -0.2065394819 1.724747577e-39
0.05360060185 -0.2117314935 -0.2098581642 1.724747577e-39
0.03093509004 -0.3426468372 0.1659213156 1.909134633e-39
-0.04356327653 -0.02363825217 -0.1941294372 1.909134633e-39
-0.158143267 0.006970843766 0.2033990473 1.909134633e-39
-0.1552452445 -0.02985460311 -0.181632489 1.909134633e-39
-0.1686083674 -0.05615625903 -0.107749939 1.909134633e-39
-0.08067668974 -0.0103141591 -0.2066735327 1.909134633e-39
0.005407091696 -0.08669499308 -0.1950492263 1.909134633e-39
0.137827903 -0.3466066122 -0.02752956562 1.909134633e-39
0.2134008408 -0.3640232384 -0.1991767585 2.09352309e-39
-0.156240955 -0.0566261448 -0.0951827094 2.09352309e-39
0.1179808974 -0.3565128446 0.1665684432 2.09352309e-39
-0.1582245976 -0.005211079493 0.1906746924 2.09352309e-39
-0.1456832886 0.006768475752 0.2035330981 2.09352309e-39
-0.156148389 -0.05635862797 -0.1076158956 2.09352309e-39
-0.09313666821 -0.01011179015 -0.2068075836 2.09352309e-39
-0.05593068898 -0.02316836454 -0.2066966295 2.09352309e-39
0.2010333836 -0.363553375 -0.2117439657 2.277910146e-39
0.06571277231 -0.2368327677 -0.2103065103 2.277910146e-39
0.03182701394 -0.3042283952 0.1170622259 2.277910146e-39
0.2875576019 -0.4147677422 -0.2119704187 2.277910146e-39
-0.1180565879 -0.009707054123 -0.2070756704 2.277910146e-39
-0.1574279219 -0.0626430288 -0.03457830101 2.277910146e-39
-0.1447940469 -0.0503959544 -0.03415305167 2.277910146e-39
0.017345367 -0.1242457181 -0.1957887709 2.277910146e-39
0.05350803956 -0.211999014 -0.1974250078 2.462297202e-39
0.01963352039 -0.2913090289 0.1047862247 2.462297202e-39
-0.1577869207 -0.07562750578 -0.01000315696 2.462297202e-39
-0.1576943696 -0.07535998523 -0.02243631147 2.462297202e-39
-0.1683306843 -0.05535370484 -0.1450494379 2.462297202e-39
-0.1579945236 -0.05233372748 0.06517825276 2.462297202e-39
-0.1458347142 -0.02950980701 0.1529268324 2.462297202e-39
-0.1678791046 -0.04210170731 -0.1820577234 2.462297202e-39
0.4053791463 -0.442428112 -0.1059164926 2.646685659e-39
0.1391627192 -0.3254606426 -0.1991074532 2.646685659e-39
-0.1584685892 -0.04175688326 0.1525015831 2.646685659e-39
-0.1553265601 -0.04203655943 -0.1943568587 2.646685659e-39
0.04348760098 -0.3425816894 0.15362221 2.646685659e-39
-0.1455457956 -0.04062166065 0.09046980739 2.646685659e-39
0.2812787294 -0.3792272508 -0.05606830493 2.646685659e-39
-0.1682381183 -0.05508618802 -0.1574825943 2.646685659e-39
-0.118230477 -0.02215652354 -0.2073668689 2.830713982e-39
-0.007052855566 -0.08649262786 -0.1951832771 2.830713982e-39
-0.1563222706 -0.06880806386 -0.1079070941 2.830713982e-39
-0.1454307586 -0.06418298185 0.02772158012 2.830713982e-39
-0.1579608172 -0.08807697147 -0.01029435359 2.830713982e-39
0.1473231614 -0.4509524107 0.1816387028 2.830713982e-39
-0.09340312332 -0.02282877825 -0.1946656257 2.830713982e-39
-0.08094314486 -0.0230311472 -0.1945315748 2.830713982e-39
0.02902849019 -0.1864278466 -0.2095438689 3.015101038e-39
-0.1580533832 -0.08834448457 0.002138828859 3.015101038e-39
-0.05619714037 -0.03588532656 -0.1945546716 3.015101038e-39
-0.1581571847 -0.07669757307 0.03972949088 3.015101038e-39
-0.1676827371 -0.05348107964 -0.232081607 3.015101038e-39
-0.1583647728 -0.05340379849 0.1149109304 3.015101038e-39
-0.1458684206 0.006233441178 0.2283994108 3.015101038e-39
0.2032429278 -0.4472157359 0.2649337649 3.015101038e-39
0.06553888321 -0.2492822111 -0.2105977088 3.199488094e-39
-0.1585499048 -0.05393883586 0.1397772282 3.199488094e-39
0.2818341255 -0.3776221275 -0.1306673288 3.199488094e-39
0.1178070009 -0.3689622879 0.1662772596 3.199488094e-39
0.2815564275 -0.3784247041 -0.09336780012 3.199488094e-39
-0.1455120742 -0.07636490464 0.01499722991 3.199488094e-39
-0.1459497511 -0.005948483944 0.215675056 3.199488094e-39
0.2448019981 -0.3521161079 -0.1304870695 3.199488094e-39
-0.1581347138 -0.1005264148 -0.01058555208 3.383517819e-39
0.02885459736 -0.1988772899 -0.2098350674 3.383517819e-39
-0.1555930227 -0.05475351959 -0.182214871 3.383517819e-39
-0.1308643222 -0.03440359607 -0.2077921182 3.383517819e-39
-0.007308072876 -0.1111240163 -0.2081988305 3.383517819e-39
-0.1553153247 -0.0539509654 -0.21951437 3.383517819e-39
-0.1555004567 -0.05448600277 -0.1946480572 3.383517819e-39
-0.1582497358 -0.07696509361 0.05216270685 3.383517819e-39
-0.1587350368 -0.0544738695 0.164643541 3.567904875e-39
-0.1184043661 -0.03460596502 -0.2076580673 3.567904875e-39
0.01674236916 -0.1737760305 -0.2093867213 3.567904875e-39
-0.1688635945 -0.08078765124 -0.1207654923 3.567904875e-39
-0.1583198458 -0.1010614485 0.01428078674 3.567904875e-39
-0.0686570853 -0.03568296134 -0.1946887225 3.567904875e-39
-0.1583310813 -0.08914703876 0.03943829238 3.567904875e-39
-0.08111703396 -0.0354805924 -0.1948227733 3.567904875e-39
-0.1677640676 -0.06566300243 -0.2448059469 3.75229193e-39
-0.1462049633 -0.03057987988 0.2026595026 3.75229193e-39
-0.1461824924 -0.05440872163 0.1523444355 3.75229193e-39
-0.1585386693 -0.06585323811 0.1146197319 3.75229193e-39
-0.1456972063 -0.07689993829 0.039863538 3.75229193e-39
-0.1462750584 -0.05467623845 0.1647775918 3.75229193e-39
-0.01959412917 -0.09847217798 -0.2080416828 3.75229193e-39
-0.1581234783 -0.1124408469 -0.03574308753 3.75229193e-39
-0.1583423018 -0.07723261416 0.06459585577 3.936320254e-39
-0.007481962908 -0.1235734597 -0.208490029 3.936320254e-39
0.1502990872 -0.358723402 -0.05255308375 3.936320254e-39
-0.1458010077 -0.06525305659 0.07745425403 3.936320254e-39
0.151448831 -0.3381124735 -0.1992646009 3.936320254e-39
-0.1456747353 -0.1007287875 -0.0104515031 3.936320254e-39
-0.1681343168 -0.06673307717 -0.1950733066 3.936320254e-39
-0.04416627437 -0.07316853106 -0.2077273726 3.936320254e-39
0.08993716538 -0.2870353162 -0.2112032026 4.120708711e-39
-0.1568551958 -0.09424202144 -0.0836231485 4.120708711e-39
-0.1459861398 -0.06578809023 0.1023205668 4.120708711e-39
0.1638274491 -0.3504967988 -0.2118549049 4.120708711e-39
-0.1555817723 -0.06666792184 -0.2073724121 4.120708711e-39
0.01955219358 -0.3034909666 0.0920618698 4.120708711e-39
0.01664980687 -0.1740435511 -0.1969535649 4.120708711e-39
-0.1462638229 -0.06659064442 0.1396200806 4.120708711e-39
-0.00765585294 -0.1360229105 -0.2087812275 4.304737034e-39
-0.1585274339 -0.0777676478 0.08946216851 4.304737034e-39
-0.08129093051 -0.04793006182 -0.1951139718 4.304737034e-39
-0.09375090897 -0.04772769287 -0.1952480227 4.304737034e-39
-0.1458598673 -0.1012638211 0.01441483479 4.304737034e-39
-0.158805117 -0.07857020199 0.1267616898 4.304737034e-39
-0.1691300422 -0.09350460768 -0.1086235344 4.304737034e-39
-0.1062108502 -0.04752532765 -0.1953820735 4.304737034e-39
-0.1464489549 -0.06712567806 0.1644863933 4.48912409e-39
-0.1458823234 -0.07743497938 0.06472990662 4.48912409e-39
-0.1690374911 -0.09323709458 -0.1210566908 4.48912409e-39
-0.1681230813 -0.07864750922 -0.2202308178 4.48912409e-39
-0.158897683 -0.07883771509 0.1391948462 4.48912409e-39
0.1390813738 -0.3376426101 -0.2118318081 4.48912409e-39
-0.04425883666 -0.07343605161 -0.1952942163 4.48912409e-39
-0.05654491857 -0.06078424305 -0.1951370686 4.48912409e-39
-0.1685858965 -0.07998509705 -0.1580649763 4.673152414e-39
0.1353147775 -0.437498033 0.1444963366 4.673152414e-39
-0.1682156473 -0.07891502231 -0.2077976614 4.673152414e-39
0.03032085672 -0.3802627027 0.1774808764 4.673152414e-39
-0.1555705369 -0.07858236134 -0.2325299531 4.673152414e-39
0.3184034228 -0.404465735 -0.06868174672 4.673152414e-39
-0.1459748894 -0.07770249248 0.07716306299 4.673152414e-39
-0.1590828151 -0.07937275618 0.164061144 4.673152414e-39
-0.1466340721 -0.06766071916 0.1893527508 4.857539469e-39
-0.1689449251 -0.09296957403 -0.133489877 4.857539469e-39
-0.1463451385 -0.07877256721 0.1268957406 4.857539469e-39
-0.1556631029 -0.07884988189 -0.2200967669 4.857539469e-39
0.1021306515 -0.2999546528 -0.1989272088 4.857539469e-39
-0.1464377046 -0.07904008031 0.1393288821 4.857539469e-39
-0.1589314044 -0.04309447482 0.2146674097 4.857539469e-39
-0.1587489396 -0.1381422877 0.0009740404785 4.857539469e-39
-0.1586563736 -0.1378747672 -0.01145914383 5.041567793e-39
-0.1313046664 -0.0595700331 -0.1959413588 5.041567793e-39
-0.1063847393 -0.05997476727 -0.1956732571 5.041567793e-39
0.2689113617 -0.3787573278 -0.06863553822 5.041567793e-39
-0.1188447177 -0.05977239832 -0.195807308 5.041567793e-39
0.2379729599 -0.3893268704 -0.1994910538 5.041567793e-39
-0.1460562199 -0.08988445252 0.06443870813 5.041567793e-39
0.01964475773 -0.3032234311 0.07962872088 5.041567793e-39
-0.03222799674 -0.1107192785 -0.2084669173 5.225597518e-39
-0.1467153877 -0.0798426345 0.1766284108 5.225597518e-39
-0.158782661 -0.1023990363 0.07644661516 5.225597518e-39
-0.1563923806 -0.09290443361 -0.1457889825 5.225597518e-39
-0.131385982 -0.07175195217 -0.2086657137 5.225597518e-39
-0.1588500738 -0.03091254644 0.2273917645 5.225597518e-39
0.1349557787 -0.4504825473 0.1690715104 5.225597518e-39
-0.1682969779 -0.09109695256 -0.2205220163 5.225597518e-39
-0.02003447339 -0.123638615 -0.1961909235 5.409984573e-39
0.004108532798 -0.1860231012 -0.2098119557 5.409984573e-39
-0.1589340717 -0.1386773288 0.0258403495 5.409984573e-39
-0.1464264691 -0.09095451981 0.1141713858 5.409984573e-39
-0.146241352 -0.09041948617 0.08930502087 5.409984573e-39
-0.1461375505 -0.1020663753 0.05171435326 5.409984573e-39
0.02858814597 -0.2115942687 -0.1976931095 5.409984573e-39
-0.1591529101 -0.103469111 0.1261792928 5.409984573e-39
-0.1557444334 -0.09103180468 -0.2328211516 5.594012897e-39
0.0652724281 -0.2619991601 -0.1984557509 5.594012897e-39
-0.1467041671 -0.091757074 0.15147084 5.594012897e-39
-0.1589565426 -0.1148485094 0.07615541667 5.594012897e-39
-0.1590491086 -0.11511603 0.08858857304 5.594012897e-39
0.1020493284 -0.3121365905 -0.2116515487 5.594012897e-39
0.03183824942 -0.3161428273 0.09190472215 5.594012897e-39
-0.1691188067 -0.1054190472 -0.1337810755 5.594012897e-39
-0.131478548 -0.07201947272 -0.1962325573 5.77804122e-39
-0.146103844 -0.1378096342 -0.02375824936 5.77804122e-39
-0.09409868717 -0.07262657583 -0.1958304197 5.77804122e-39
-0.1461963952 -0.1380771399 -0.01132509485 5.77804122e-39
0.2691890597 -0.3779547811 -0.1059350297 5.77804122e-39
-0.168667227 -0.09216701984 -0.170789361 5.77804122e-39
-0.1594306082 -0.1042716652 0.163478747 5.77804122e-39
-0.1593604982 -0.08017531037 0.2013606727 5.77804122e-39
0.04079287127 -0.2364280373 -0.210574612 5.962428276e-39
-0.1593155712 -0.1278329939 0.1007305309 5.962428276e-39
-0.1463226825 -0.102601409 0.07658066601 5.962428276e-39
-0.1465639919 -0.04356435686 0.2272346169 5.962428276e-39
-0.1592005342 -0.1513943225 0.03798230737 5.962428276e-39
-0.1693852693 -0.1181360111 -0.1216390803 5.962428276e-39
-0.1701846123 -0.1562869102 -0.08521318436 5.962428276e-39
-0.1559183151 -0.1034812778 -0.2331123501 5.962428276e-39
0.05298636854 -0.2493473738 -0.1982986033 6.1464566e-39
0.03219726682 -0.303158313 0.06732955575 6.1464566e-39
-0.1685634255 -0.1038139388 -0.2083800584 6.1464566e-39
-0.1190999299 -0.08440379053 -0.2088228613 6.1464566e-39
-0.1593043208 -0.1397473961 0.07557302713 6.1464566e-39
0.04313982278 -0.367480576 0.153039813 6.1464566e-39
-0.09418001026 -0.08480852842 -0.2085547596 6.1464566e-39
0.01973732002 -0.3029559255 0.0671955049 6.1464566e-39
-0.1593968868 -0.1400149167 0.08800618351 6.330484923e-39
-0.159582004 -0.1405499578 0.1128725484 6.330484923e-39
-0.1464039981 -0.114783369 0.06385631114 6.330484923e-39
-0.1575507522 -0.1440398395 -0.08478793502 6.330484923e-39
-0.1565662622 -0.1053539068 -0.146080181 6.330484923e-39
-0.1595932543 -0.1286355406 0.1380300522 6.330484923e-39
0.1513675004 -0.3502944112 -0.2119889557 6.330484923e-39
-0.1593856514 -0.1519293487 0.06284867227 6.330484923e-39
-0.1689336747 -0.1048840135 -0.1586473733 6.514514648e-39
-0.1316524446 -0.08446893841 -0.1965237558 6.514514648e-39
-0.1470631808 -0.104741551 0.1760460138 6.514514648e-39
-0.1461851746 -0.1499915868 -0.03648263216 6.514514648e-39
0.1596092731 -0.4636042416 0.1814815551 6.514514648e-39
-0.1596970409 -0.1169886515 0.1756207645 6.514514648e-39
-0.1587799788 -0.006816186942 0.2652736902 6.514514648e-39
-0.1703585088 -0.1687363833 -0.08550438285 6.514514648e-39
-0.1592818499 -0.1635762453 0.02525795251 6.698542971e-39
-0.1560922116 -0.1159307137 -0.2334035486 6.698542971e-39
-0.1700246483 -0.2275059223 -0.2485915273 6.698542971e-39
-0.09427257627 -0.08507604897 -0.1961216182 6.698542971e-39
-0.1468555927 -0.1280353516 0.1008645818 6.698542971e-39
-0.1191924959 -0.08467131108 -0.1963897049 6.698542971e-39
0.262637645 -0.4143629968 -0.2122385055 6.698542971e-39
-0.1698507518 -0.2150564492 -0.2483003289 6.698542971e-39
-0.1470744163 -0.09282714874 0.2012035102 6.882571295e-39
-0.1462386698 0.005163369235 0.278132081 6.882571295e-39
-0.1597896069 -0.117256172 0.1880539209 6.882571295e-39
-0.159197852 -0.05581146106 0.2268093675 6.882571295e-39
-0.1599185616 -0.1773633063 0.08713258803 6.882571295e-39
-0.159859702 -0.1413525045 0.1501720101 6.882571295e-39
-0.1575646698 -0.2277082801 -0.2484574765 6.882571295e-39
-0.1571917236 -0.1310553253 -0.1093630791 6.882571295e-39
-0.1590854973 -0.1749556512 -0.02476589195 7.066599618e-39
-0.159952268 -0.141620025 0.1626051515 7.066599618e-39
-0.1467517763 -0.1396822482 0.06327392161 7.066599618e-39
-0.03266833723 -0.1358856857 -0.1966161579 7.066599618e-39
-0.1697330475 -0.1430349052 -0.1222214773 7.066599618e-39
-0.05714792013 -0.1103145406 -0.208735019 7.066599618e-39
-0.0818939209 -0.09746033698 -0.2087119222 7.066599618e-39
-0.1597334296 -0.1768282652 0.06226627529 7.066599618e-39
0.04376529157 -0.3417791426 0.1163226813 7.250627941e-39
-0.1693740189 -0.1300504059 -0.1467966139 7.250627941e-39
-0.1319076568 -0.1091003343 -0.2095393091 7.250627941e-39
0.06519110501 -0.2741811275 -0.2111801058 7.250627941e-39
-0.1595483124 -0.176293239 0.03739991039 7.250627941e-39
0.3057582974 -0.4047983885 -0.0439494513 7.250627941e-39
-0.1318263412 -0.09691838175 -0.1968149543 7.250627941e-39
-0.1705463231 -0.2648543119 -0.2494651079 7.250627941e-39
-0.1600335985 -0.1538019776 0.1498808116 7.434656265e-39
-0.1601850241 -0.1900802702 0.09927454591 7.434656265e-39
-0.1469256729 -0.1521317214 0.06298272312 7.434656265e-39
-0.1704398394 -0.1809183061 -0.09822873026 7.434656265e-39
-0.1565213203 -0.1530115455 -0.2467102855 7.434656265e-39
-0.1566475928 -0.1175358221 -0.158804521 7.434656265e-39
-0.119366385 -0.09712075442 -0.1966809034 7.434656265e-39
-0.1473997235 -0.1415548772 0.150306046 7.434656265e-39
-0.02055614255 -0.1609869748 -0.197064504 7.618684588e-39
-0.1593717486 -0.06826090068 0.226518169 7.618684588e-39
-0.1463312358 0.004895851482 0.2905652225 7.618684588e-39
-0.1712279618 -0.2309836596 -0.08696036786 7.618684588e-39
-0.1569140404 -0.1302527785 -0.1466625631 7.618684588e-39
-0.1469117701 -0.0684632659 0.2266522199 7.618684588e-39
-0.1689925343 -0.1408947706 -0.2216867954 7.618684588e-39
-0.1474922895 -0.1418223977 0.1627392024 7.618684588e-39
-0.03284223005 -0.1483351588 -0.1969073564 7.802712912e-39
-0.05732180923 -0.1227639839 -0.2090262175 7.802712912e-39
0.1760209501 -0.3634161353 -0.1995788962 7.802712912e-39
-0.1599073261 -0.1892777085 0.06197507679 7.802712912e-39
-0.1594445109 -0.1879401207 -0.0001907497644 7.802712912e-39
-0.1703472733 -0.1806507856 -0.1106619164 7.802712912e-39
-0.1607403904 -0.1916853786 0.1738735884 7.802712912e-39
-0.1606478393 -0.191417858 0.1614403725 7.802712912e-39
-0.1605777293 -0.1673214883 0.1993222833 7.986382503e-39
-0.1571355462 -0.1906274259 -0.2351507246 7.986382503e-39
-0.1698143631 -0.1552168429 -0.1349458694 7.986382503e-39
-0.1474810541 -0.1537368298 0.137581706 7.986382503e-39
-0.1707876176 -0.2058172226 -0.09881112725 7.986382503e-39
-0.1605552733 -0.1911503375 0.1490072161 7.986382503e-39
-0.1603589058 -0.2025297135 0.09898334742 7.986382503e-39
-0.02081136033 -0.1856183708 -0.2100800574 7.986382503e-39
-0.1476324797 -0.1900151223 0.08697544038 8.170410826e-39
-0.1711353958 -0.2307161391 -0.09939352423 8.170410826e-39
-0.1706388742 -0.2651218176 -0.2370319664 8.170410826e-39
-0.1582602262 -0.2775061131 -0.2496222556 8.170410826e-39
-0.1577133983 -0.1684037149 -0.1102366745 8.170410826e-39
0.003760752734 -0.2109220177 -0.2103943527 8.170410826e-39
-0.1691664159 -0.153344214 -0.2219779938 8.170410826e-39
-0.08216037601 -0.1101773307 -0.1965699643 8.170410826e-39
-0.1610180885 -0.1924879253 0.2111730427 8.35443915e-39
-0.1702547222 -0.180383265 -0.1230950728 8.35443915e-39
-0.02073003352 -0.173436448 -0.1973557025 8.35443915e-39
-0.1692702323 -0.1416973174 -0.1843873113 8.35443915e-39
0.07738459855 -0.2871004343 -0.1989040971 8.35443915e-39
-0.1479438692 -0.1550744176 0.1997475326 8.35443915e-39
-0.1608441919 -0.180038482 0.2114642411 8.35443915e-39
-0.1574020088 -0.2033444047 -0.223008737 8.35443915e-39
-0.1478400677 -0.1667213142 0.1621568054 8.538467473e-39
-0.1708689332 -0.2179991454 -0.1115355119 8.538467473e-39
0.2131456137 -0.3886546195 -0.2121923119 8.538467473e-39
0.2072257996 -0.3401296437 -0.08086533844 8.538467473e-39
-0.06978175044 -0.1225616187 -0.2091602683 8.538467473e-39
-0.1567176878 -0.1416321695 -0.1966864467 8.538467473e-39
0.06509853899 -0.2744486332 -0.1987469494 8.538467473e-39
0.1375726759 -0.3712379932 -0.04054517299 8.538467473e-39
-0.1464237869 0.004628331866 0.3029984534 8.722137064e-39
-0.1481065154 -0.1794383079 0.1742988229 8.722137064e-39
-0.04530217871 -0.1481328011 -0.1970414072 8.722137064e-39
-0.1696292311 -0.1546818018 -0.1598121673 8.722137064e-39
-0.148280412 -0.1918877512 0.1740076244 8.722137064e-39
-0.156902805 -0.1421672106 -0.1718201041 8.722137064e-39
0.2070406675 -0.3406646848 -0.05599899963 8.722137064e-39
-0.1708127558 -0.2775712609 -0.23732315 8.722137064e-39
-0.1594642997 -0.06852842122 0.238951385 8.906165387e-39
-0.171483174 -0.2556150556 -0.09997591376 8.906165387e-39
0.2565439641 -0.3782874644 -0.08120273799 8.906165387e-39
-0.147688657 -0.1304430217 0.212763086 8.906165387e-39
-0.1597109586 -0.2006570846 0.01195120718 8.906165387e-39
-0.1704286039 -0.1928327084 -0.1233862638 8.906165387e-39
0.1302782297 -0.3810790777 0.1412537992 8.906165387e-39
-0.1587679833 -0.2311860174 -0.08682631701 8.906165387e-39
-0.169444114 -0.1541467607 -0.1846785098 9.089834978e-39
-0.1483842134 -0.1802408546 0.211598292 9.089834978e-39
-0.1699545532 -0.2034095675 -0.2107096314 9.089834978e-39
-0.1612733006 -0.2171193212 0.1981574893 9.089834978e-39
-0.1072541848 -0.1222220361 -0.1971292496 9.089834978e-39
-0.1590464413 -0.01953314617 0.2774156332 9.089834978e-39
-0.1480840445 -0.2032671124 0.1239837632 9.089834978e-39
-0.1073355153 -0.1344039589 -0.2098536044 9.089834978e-39
-0.1712167114 -0.242898047 -0.1121179014 9.273863302e-39
0.1178182364 -0.38087672 0.1411197484 9.273863302e-39
-0.09479424357 -0.1224244013 -0.1969951987 9.273863302e-39
-0.1580975652 -0.2531422079 -0.2241735309 9.273863302e-39
0.126528874 -0.3377077579 -0.1995327026 9.273863302e-39
-0.1577947438 -0.1805856377 -0.122961022 9.273863302e-39
-0.1698031276 -0.1671312749 -0.1601033658 9.273863302e-39
-0.1583527774 -0.2777736187 -0.2371891141 9.273863302e-39
-0.1570766866 -0.1546166539 -0.1721113026 9.457532893e-39
-0.1482691765 -0.2038021535 0.1488500684 9.457532893e-39
-0.1716570705 -0.2680645287 -0.1002671123 9.457532893e-39
-0.1596381813 -0.08097786456 0.2386601865 9.457532893e-39
-0.1571467966 -0.1787130237 -0.2099931836 9.457532893e-39
-0.008617866784 -0.1985376924 -0.1978040487 9.457532893e-39
-0.1612620503 -0.2290337384 0.172999993 9.457532893e-39
-0.04547606781 -0.1605822444 -0.1973326057 9.457532893e-39
-0.148257941 -0.2157165706 0.1236925647 9.641561216e-39
-0.1696993411 -0.1787781566 -0.1976940781 9.641561216e-39
-0.1704173684 -0.2047471553 -0.1485438049 9.641561216e-39
-0.1612395793 -0.2528625429 0.1226849258 9.641561216e-39
-0.1200619489 -0.1469185799 -0.1978456974 9.641561216e-39
0.2872098088 -0.4396666586 -0.2125528157 9.641561216e-39
-0.1584089547 -0.2182015032 -0.1114014611 9.641561216e-39
-0.1616323143 -0.2301038057 0.2227326035 9.641561216e-39
-0.1479802579 -0.2149140239 0.0863930434 9.825230807e-39
-0.148650676 -0.1929578185 0.2237402499 9.825230807e-39
-0.1708577126 -0.2299135923 -0.1366930455 9.825230807e-39
-0.1465163529 0.004360815044 0.3154315948 9.825230807e-39
-0.1332987994 -0.208695963 -0.2118688822 9.825230807e-39
-0.1705912501 -0.2171965986 -0.1488350034 9.825230807e-39
-0.1470658481 -0.2003244162 -0.01278108358 9.825230807e-39
-0.1577610224 -0.2163288742 -0.1984336227 9.825230807e-39
-0.1698844582 -0.1793131977 -0.1728277504 1.000925913e-38
-0.05784348026 -0.1601123512 -0.2098998129 1.000925913e-38
-0.1701509058 -0.1920301616 -0.1606857628 1.000925913e-38
0.137665242 -0.3709704578 -0.05297832936 1.000925913e-38
-0.1477812231 -0.1307105422 0.2251962274 1.000925913e-38
-0.1703135669 -0.216394037 -0.1861344874 1.000925913e-38
-0.09496814013 -0.1348738521 -0.1972863972 1.000925913e-38
-0.1718309522 -0.280513972 -0.1005583107 1.000925913e-38
-0.08250816166 -0.1350762248 -0.1971523464 1.019292872e-38
-0.1465976834 -0.007821110077 0.3027072549 1.019292872e-38
-0.1473520994 -0.09362970293 0.2385030389 1.019292872e-38
-0.1489872038 -0.2297711223 0.1980003417 1.019292872e-38
-0.07012953609 -0.1474605352 -0.2097426504 1.019292872e-38
-0.157934919 -0.2287783474 -0.1987248212 1.019292872e-38
-0.1470968872 -0.06899830699 0.2515186071 1.019292872e-38
0.2684597671 -0.3920093477 -0.03162721545 1.019292872e-38
-0.1710315943 -0.2423630208 -0.136984244 1.037659831e-38
-0.1720974147 -0.2932309508 -0.08841635287 1.037659831e-38
-0.1581901312 -0.2534097433 -0.2117403746 1.037659831e-38
0.03149046749 -0.3410417438 0.09132232517 1.037659831e-38
-0.1613770872 -0.2054724097 0.2357482165 1.037659831e-38
-0.1488020718 -0.2292360961 0.1731340438 1.037659831e-38
-0.160428986 -0.2266260684 0.06110148877 1.037659831e-38
-0.1592896581 -0.2685343921 -0.08769991249 1.037659831e-38
-0.1594755352 -0.05661401525 0.2641088963 1.056062664e-38
-0.03336390108 -0.1856835186 -0.1977809519 1.056062664e-38
-0.08258948475 -0.1472581774 -0.2098767012 1.056062664e-38
