# .PCD v0.7 - Point Cloud Data file format
VERSION 0.7
FIELDS x y z rgb
SIZE 4 4 4 4
TYPE F F F F
COUNT 1 1 1 1
WIDTH 836
HEIGHT 1
VIEWPOINT 0 0 0 1 0 0 0
POINTS 836
DATA ascii
0.1826220751 -0.3065222204 0.0827023536 1.618578199e-39
0.1979172677 -0.2993244231 0.1686493754 1.618578199e-39
0.1498639733 -0.1189401001 -0.1253598481 1.618578199e-39
0.1954846382 -0.3520568907 -0.04024876654 1.618578199e-39
0.1410660893 -0.7283154726 -0.139460817 1.435982003e-39
0.1835170984 -0.3342721164 0.02273208275 1.435982003e-39
0.03197300434 -0.4039711058 0.3472046256 1.435982003e-39
0.177908361 -0.4037030935 -0.06215510145 1.435982003e-39
0.1836809367 -0.3537939489 0.2883375585 1.435982003e-39
0.1945896298 -0.3243070245 0.0197214745 1.435982003e-39
0.1935763359 -0.3027480841 0.05900952965 1.435982003e-39
0.1662558317 -0.1934117973 0.03502815589 1.435982003e-39
0.194378674 -0.2980501652 0.09107097983 1.253028475e-39
0.1825642884 -0.2077729106 0.08168715239 1.253028475e-39
0.1413886845 -0.41994223 -0.08933730423 1.253028475e-39
0.1613598019 -0.2811657786 0.2726614177 1.253028475e-39
0.06929560006 -0.4028928578 0.02175574936 1.253028475e-39
0.159720242 -0.3568631113 0.3015854061 1.253028475e-39
0.07123613358 -0.7420021296 -0.06557953358 1.253028475e-39
0.1954375207 -0.3453219235 0.2967061996 1.253028475e-39
0.1472795904 -0.3638421297 0.2818375528 1.070432279e-39
0.1820562929 -0.298838228 0.09200528264 1.070432279e-39
0.05742072687 -0.4175558686 -0.007295096293 1.070432279e-39
0.1171053946 -0.731384635 -0.1262129843 1.070432279e-39
0.01965062879 -0.4047591686 0.3481389284 1.070432279e-39
0.1476100981 -0.06054135039 -0.2939088345 1.070432279e-39
0.2070758939 -0.3430407941 0.2843926549 1.070432279e-39
0.1425758451 -0.09013475478 -0.2091671973 1.070432279e-39
0.1490374207 -0.2819538414 0.2735957205 8.874787512e-40
0.09313800931 -0.4060146511 -0.01217431203 8.874787512e-40
0.162953794 -0.1797556579 -0.001185855828 8.874787512e-40
0.2427931726 -0.3314996064 0.2795134187 8.874787512e-40
0.1399278939 -0.3845083714 -0.02006413788 8.874787512e-40
0.03768928349 -0.7518314719 -0.005880400538 8.874787512e-40
0.1827147454 -0.3389700055 -0.009329341352 8.874787512e-40
0.1755961329 -0.2266962528 0.1529732347 8.874787512e-40
0.1763036847 -0.4130989313 -0.1262779683 7.045238224e-40
0.003458373249 -0.7601678371 0.04243952036 7.045238224e-40
0.1806881726 -0.2958521545 0.06924681365 7.045238224e-40
0.1980355382 -0.2931334972 0.1893315911 7.045238224e-40
-0.003744306043 -0.4155123234 0.3520838022 7.045238224e-40
-0.04996839538 -0.4447026253 0.3506706953 7.045238224e-40
0.09144066274 -0.3829626739 0.01573453099 7.045238224e-40
0.1821745783 -0.2926473022 0.1126874462 7.045238224e-40
0.1222812906 -0.06062443182 -0.3034194708 5.219290273e-40
0.1973514855 -0.2916404307 0.1779523641 5.219290273e-40
-0.0663716048 -0.7738544345 0.1163208038 5.219290273e-40
0.02605094202 -0.7541126013 0.006433159113 5.219290273e-40
0.1628753543 -0.3598802388 0.005976093933 5.219290273e-40
0.1755269617 -0.3791581094 -0.04562551901 5.219290273e-40
0.1851822734 -0.219936043 0.1065219864 5.219290273e-40
0.2398203611 -0.3379093111 0.1926320642 5.219290273e-40
0.1937872916 -0.3290049136 -0.01233995333 3.389740985e-40
-0.06514257193 -0.2420198917 0.3040576577 3.389740985e-40
0.1926557273 -0.3136369288 0.006265933625 3.389740985e-40
0.1752970219 -0.719979167 -0.1877807379 3.389740985e-40
0.1535301059 -0.08636061102 -0.2328599989 3.389740985e-40
0.1756196171 -0.4116058946 -0.1376572102 3.389740985e-40
0.1935507357 -0.3413868248 -0.05370434001 3.389740985e-40
0.1844982058 -0.2184430063 0.09514269978 3.389740985e-40
0.121597223 -0.05913139135 -0.3147987127 1.56020571e-40
-0.03889583796 -0.4347375035 0.3476601243 1.56020571e-40
0.1601341665 -0.1136729196 -0.1604319215 1.56020571e-40
0.01715094037 -0.3864051104 0.3439862728 1.56020571e-40
0.1917607188 -0.2858870625 0.0662362054 1.56020571e-40
0.191524148 -0.2982689738 0.02487182058 1.56020571e-40
-0.09033231437 -0.7769235969 0.1295686513 1.56020571e-40
-0.01266928483 -0.2587147653 0.315852344 1.56020571e-40
0.1793200523 -0.2928660512 0.04648828506 6.490113838e-41
0.1721758246 -0.2192310691 0.09607700258 6.490113838e-41
0.19461523 -0.2856682837 0.1324353665 6.490113838e-41
0.1931032389 -0.3275118768 -0.02371918969 6.490113838e-41
-0.08910328895 -0.2450890541 0.3173055053 6.490113838e-41
0.03804615885 -0.3572978973 0.3358887434 6.490113838e-41
-0.004994152114 -0.4063352942 0.350007534 6.490113838e-41
0.03861194849 -0.3649818897 0.3265858293 6.490113838e-41
0.1584703922 -0.3476860821 0.2995091081 2.496469266e-40
0.1929849386 -0.3337028325 -0.04440137744 2.496469266e-40
0.1372216344 -0.07199946791 -0.2795190215 2.496469266e-40
0.1792017668 -0.2990570366 0.02580612525 2.496469266e-40
0.1910766512 -0.2843940258 0.05485691503 2.496469266e-40
0.1925374418 -0.3198278844 -0.01441625878 2.496469266e-40
-0.0554173179 -0.770080328 0.09262801707 2.496469266e-40
0.01590109803 -0.3772280812 0.3419100046 2.496469266e-40
0.1749320179 -0.2895547748 0.2738034129 4.340353837e-40
0.2760108411 -0.3016043305 0.2704815865 4.340353837e-40
0.1905364692 -0.2380712926 0.1768737584 4.340353837e-40
0.1513362676 -0.7230483294 -0.1745328754 4.340353837e-40
0.1822928488 -0.2864563465 0.1333696693 4.340353837e-40
0.1488599479 -0.06971836835 -0.2918325663 4.340353837e-40
0.1708077043 -0.2162449658 0.07331852615 4.340353837e-40
0.01262963377 -0.07689400017 -0.2929344177 4.340353837e-40
0.1504297405 -0.1266240776 -0.134662807 6.184224396e-40
-0.1214030161 -0.4677850604 0.3604291677 6.184224396e-40
0.1653700918 -0.1379991174 -0.110762313 6.184224396e-40
-0.1382537335 -0.7830619216 0.1560643762 6.184224396e-40
0.1759744585 -0.3930330276 -0.07561066747 6.184224396e-40
-0.06320866942 -0.2526899576 0.3175132275 6.184224396e-40
-0.07461318374 -0.4462787509 0.3525393009 6.184224396e-40
0.192563042 -0.2811891437 0.09829760343 6.184224396e-40
0.1878002286 -0.2320991158 0.1313567609 8.028094954e-40
0.1931958944 -0.359959662 -0.1157508865 8.028094954e-40
-0.05157035217 -0.2504088581 0.3051996827 8.028094954e-40
-0.02502161451 -0.07776514441 -0.3015108109 8.028094954e-40
0.221166268 -0.7093616724 -0.2484141737 8.028094954e-40
-0.06285655499 -0.4378066659 0.3609079719 8.028094954e-40
0.02628956921 -0.3657699525 0.3275201321 8.028094954e-40
0.08082226664 -0.73524189 -0.112030834 8.028094954e-40
0.1554640085 -0.09703066945 -0.219404459 9.871979525e-40
0.1742514968 -0.4086197913 -0.160415709 9.871979525e-40
0.01194556989 -0.07540095598 -0.3043137193 9.871979525e-40
0.09063832462 -0.3876606226 -0.01632692292 9.871979525e-40
-0.1838003844 -0.485306114 0.2668213546 9.871979525e-40
0.1125495881 -0.176422745 -0.04506068304 9.871979525e-40
0.0242679473 -0.07461290061 -0.3052480221 9.871979525e-40
0.1810629666 -0.3416308463 0.263502717 9.871979525e-40
0.191287607 -0.3106508553 -0.01649256423 1.171585008e-39
0.1864321083 -0.2291130424 0.1085982919 1.171585008e-39
0.1758561879 -0.3992239833 -0.09629283845 1.171585008e-39
0.04891269654 -0.07303677499 -0.3071166277 1.171585008e-39
0.001406187192 -0.7556886673 0.008301764727 1.171585008e-39
0.1810778975 -0.2109777927 0.03824646398 1.171585008e-39
0.2397277057 -0.3054615557 0.2846637368 1.171585008e-39
0.1779519171 -0.2898799777 0.02372981422 1.171585008e-39
-0.01023215428 -0.7579697967 0.02061529458 1.355972064e-39
0.1747937799 -0.2313941419 0.1209118366 1.355972064e-39
0.1732240021 -0.17448847 -0.03625792265 1.355972064e-39
0.1695429236 -0.33772102 0.2964984775 1.355972064e-39
0.1857480407 -0.2276200056 0.09721900523 1.355972064e-39
0.1635195911 -0.1874396354 -0.01048881561 1.355972064e-39
0.1273755878 -0.7261174917 -0.161285013 1.355972064e-39
0.1506522 -0.721555233 -0.1859121174 1.355972064e-39
0.07355751097 -0.07146065682 -0.3089852333 1.540360521e-39
0.2043396533 -0.3370686471 0.2388756722 1.540360521e-39
0.146443665 -0.1114749014 -0.1822560877 1.540360521e-39
0.1925118417 -0.3584666252 -0.127130121 1.540360521e-39
0.1374281943 -0.3661543131 -0.02421674877 1.540360521e-39
-0.01856639981 -0.3979463279 0.348865509 1.540360521e-39
0.1795566082 -0.2804841697 0.08785267174 1.540360521e-39
0.1002272069 -0.1772108078 -0.04412638023 1.540360521e-39
-0.02187046409 -0.760250926 0.03292888403 1.724747577e-39
-0.1337254345 -0.4685730934 0.3613634706 1.724747577e-39
0.2656223774 -0.3130624592 0.284871459 1.724747577e-39
0.1556656808 -0.1509503126 -0.08499319851 1.724747577e-39
0.1894207597 -0.3710673153 -0.2346936613 1.724747577e-39
0.1850639731 -0.2261269689 0.08583976328 1.724747577e-39
0.04590729624 -0.7420852184 -0.07509016991 1.724747577e-39
-0.03350881487 -0.7625319958 0.04524242878 1.724747577e-39
-0.09857387096 -0.4493478835 0.3657871485 1.909134633e-39
0.0663228035 -0.4093025923 -0.06512562931 1.909134633e-39
0.2299050242 -0.3246036768 0.2897506654 1.909134633e-39
0.1580819786 -0.1091938019 -0.1945696473 1.909134633e-39
0.151211381 -0.4008001089 -0.09442421794 1.909134633e-39
0.1803789139 -0.3401378095 0.2521235049 1.909134633e-39
0.152363658 -0.1372941434 -0.1212072447 1.909134633e-39
0.1843799204 -0.2246339321 0.07446052879 1.909134633e-39
-0.1720437706 -0.4768340588 0.275189966 2.09352309e-39
0.1904852539 -0.3153487742 -0.04855399206 2.09352309e-39
0.1447799057 -0.3454880714 0.277684927 2.09352309e-39
0.06849989295 -0.736029923 -0.1110965312 2.09352309e-39
0.0007221270353 -0.7541956902 -0.003077477217 2.09352309e-39
-0.06842379272 -0.7693753242 0.08218304813 2.09352309e-39
0.06599357724 -0.3892367482 -0.01445831731 2.09352309e-39
0.1741588265 -0.3761720061 -0.06838402152 2.09352309e-39
0.1808320582 -0.2510224879 0.2026428431 2.277910146e-39
-0.1460478157 -0.4693611562 0.3622977734 2.277910146e-39
0.1858314425 -0.2877305746 0.2109480649 2.277910146e-39
0.1751579046 -0.1851585358 -0.02280235291 2.277910146e-39
-0.1735301614 -0.4800389111 0.2317492962 2.277910146e-39
-0.04139552638 -0.4163834751 0.3435074687 2.277910146e-39
-0.2447282672 -0.4907394648 0.2828721106 2.277910146e-39
0.1772678643 -0.288386941 0.01235055178 2.277910146e-39
-0.1700085253 -0.4724303186 0.3755456209 2.462297202e-39
0.2409775555 -0.3146385849 0.2867400646 2.462297202e-39
0.2175826579 -0.3253917396 0.2906849682 2.462297202e-39
-0.03032299504 -0.4064183831 0.3404968977 2.462297202e-39
0.1764143109 -0.3703623414 -0.2451386154 2.462297202e-39
0.1150532067 -0.7269055843 -0.1603507102 2.462297202e-39
0.189471975 -0.2937898338 -0.009265939705 2.462297202e-39
0.1549816281 -0.149457261 -0.09637246281 2.462297202e-39
-0.1843661815 -0.4776221216 0.2761242688 2.646685659e-39
0.1713734716 -0.2239289582 0.06401559711 2.646685659e-39
-0.09925793111 -0.4478548467 0.3544079065 2.646685659e-39
-0.2207675427 -0.4876703024 0.269624263 2.646685659e-39
0.06563873589 -0.4078095555 -0.07650487125 2.646685659e-39
-0.174214229 -0.4785458744 0.2203700542 2.646685659e-39
0.1721993089 -0.404140681 -0.1945534348 2.646685659e-39
0.1914985478 -0.3369077146 -0.08784206957 2.646685659e-39
0.01099231746 -0.7489284873 -0.03814953566 2.830713982e-39
-0.1882273555 -0.7847211361 0.1484223157 2.830713982e-39
0.1780958176 -0.2450503111 0.1571258456 2.830713982e-39
0.02197425254 -0.3305548728 0.330594182 2.830713982e-39
0.08959943056 -0.404740423 -0.08975270391 2.830713982e-39
-0.02050030604 -0.3872762322 0.3354099393 2.830713982e-39
0.196521461 -0.7109378576 -0.2465455681 2.830713982e-39
0.1246583313 -0.3530674279 0.006702701561 2.830713982e-39
0.1903413832 -0.3601784408 -0.1819500476 3.015101038e-39
-0.06479045749 -0.4271366298 0.3474524021 3.015101038e-39
-0.2693730593 -0.4923155904 0.2847407162 3.015101038e-39
-0.2330899239 -0.4884583652 0.2705585659 3.015101038e-39
-0.04773245752 -0.09001134336 -0.2861866355 3.015101038e-39
-0.1617735922 -0.4715668559 0.2401179075 3.015101038e-39
0.1771495938 -0.2945778966 -0.008331636898 3.015101038e-39
0.1940494627 -0.2779842615 0.1417382956 3.015101038e-39
0.08460281789 -0.1643427312 -0.07940611243 3.199488094e-39
-0.1639440507 -0.4732787013 0.1852979958 3.199488094e-39
0.07727704942 -0.4055284858 -0.0888184011 3.199488094e-39
0.1715152562 -0.4026476443 -0.2059326768 3.199488094e-39
0.05617751181 -0.736817956 -0.1101622283 3.199488094e-39
0.1830952018 -0.2817584276 0.1654310673 3.199488094e-39
-0.2090109587 -0.4791982472 0.2779928744 3.199488094e-39
0.1740405411 -0.3823629618 -0.08906620741 3.199488094e-39
-0.04264537245 -0.4072064161 0.3414312005 3.383517819e-39
0.1027308404 -0.7276935577 -0.1594164073 3.383517819e-39
0.1817270815 -0.2787723243 0.1426725984 3.383517819e-39
0.06403405964 -0.4172053933 -0.140627712 3.383517819e-39
0.159192875 -0.4034357071 -0.204998374 3.383517819e-39
0.07661859691 -0.3653966784 0.01251622196 3.383517819e-39
0.08879709244 -0.4094383121 -0.1218141615 3.383517819e-39
-0.0124932183 -0.3512731194 0.3375496864 3.383517819e-39
0.2380047441 -0.3210483193 0.1998586804 3.567904875e-39
-0.04446099699 -0.3903453946 0.3486577868 3.567904875e-39
-0.1115803421 -0.4486429095 0.3553422093 3.567904875e-39
0.0267975647 -0.2747046351 0.3172020316 3.567904875e-39
-0.1286676079 -0.776301682 0.1096130759 3.567904875e-39
0.05286886171 -0.3947227001 -0.04558544233 3.567904875e-39
0.1398988068 -0.3025889993 0.2900618613 3.567904875e-39
-0.2012337893 -0.7840161324 0.1379773766 3.567904875e-39
-0.03463830799 -0.3712033033 0.343570888 3.75229193e-39
0.07877008617 -0.7307627201 -0.1461685598 3.75229193e-39
0.1905779243 -0.3477965593 -0.1405856907 3.75229193e-39
-0.02442587912 -0.2671867907 0.3074836731 3.75229193e-39
0.1609224528 -0.7162880898 -0.2209841609 3.75229193e-39
0.1527277678 -0.09105851501 -0.2649214268 3.75229193e-39
0.1897755861 -0.3524944782 -0.1726471186 3.75229193e-39
0.100013569 -0.3546435237 0.008571307175 3.75229193e-39
0.05275057629 -0.400913626 -0.0662676394 3.936320254e-39
0.1882221252 -0.2846128047 -0.01134224888 3.936320254e-39
-0.1772730798 -0.78094697 0.124729529 3.936320254e-39
0.1790257096 -0.2064986825 0.004108757712 3.936320254e-39
0.06417794526 -0.3723756969 -0.007231663913 3.936320254e-39
-0.05553355813 -0.4003105164 0.3516684175 3.936320254e-39
0.05253963545 -0.3746567965 0.005081873387 3.936320254e-39
0.0885861367 -0.3831815124 -0.0504646562 3.936320254e-39
0.009624196216 -0.7459424138 -0.06090800464 4.120708711e-39
-0.0438952148 -0.3980294168 0.3393548727 4.120708711e-39
0.1404053867 -0.09184657037 -0.263987124 4.120708711e-39
-0.1981749535 -0.4816150367 0.2336179018 4.120708711e-39
-0.245978117 -0.4815624356 0.2807957828 4.120708711e-39
0.1640853584 -0.1951236129 -0.01979174837 4.120708711e-39
0.1723175943 -0.3979497254 -0.1738712639 4.120708711e-39
0.1849457026 -0.2323179245 0.0651576072 4.120708711e-39
-0.07767865062 -0.4202407002 0.3576896787 4.304737034e-39
-0.1895954758 -0.7817350626 0.1256638318 4.304737034e-39
0.1897540838 -0.3071207404 0.2770217359 4.304737034e-39
0.204010427 -0.3170027733 0.289542973 4.304737034e-39
0.1881038547 -0.2908037603 -0.03202441335 4.304737034e-39
0.1136850864 -0.7239194512 -0.1831092089 4.304737034e-39
-0.105390951 -0.7717394829 0.08498595655 4.304737034e-39
-0.1872206926 -0.4778409004 0.2099251151 4.304737034e-39
0.173307389 -0.2345990241 0.0774711445 4.48912409e-39
0.1751644611 -0.3611853123 -0.2472149283 4.48912409e-39
0.175899744 -0.2854008675 -0.01040794607 4.48912409e-39
-0.1638257653 -0.4670877457 0.2059801966 4.48912409e-39
0.1369617134 -0.7193572521 -0.2077363133 4.48912409e-39
-0.06822420657 -0.1435386389 -0.4073187709 4.48912409e-39
-0.1239027083 -0.4494309723 0.3562765121 4.48912409e-39
-0.0471993126 -0.7603340149 0.023418203 4.48912409e-39
0.1652518213 -0.144190073 -0.1314444989 4.673152414e-39
0.06429623067 -0.3661847413 0.01345052477 4.673152414e-39
-0.1856160164 -0.4684450924 0.2740479708 4.673152414e-39
0.1006720215 -0.3947753012 -0.09276331961 4.673152414e-39
0.05218480155 -0.3932296336 -0.05696467683 4.673152414e-39
0.1007929891 -0.1848948151 -0.05342930928 4.673152414e-39
-0.1248206049 -0.2566302717 0.3221847415 4.673152414e-39
0.1942860037 -0.26560238 0.1831026822 4.673152414e-39
-0.2221356779 -0.4846841991 0.2468657345 4.857539469e-39
0.1727907062 -0.3731859326 -0.09114252031 4.857539469e-39
-0.2584187388 -0.4885414243 0.2610478699 4.857539469e-39
0.02004034631 -0.3198848069 0.3171386123 4.857539469e-39
-0.08660359681 -0.2634431124 0.3214581609 4.857539469e-39
0.08323469758 -0.1613566577 -0.1021646112 4.857539469e-39
0.1835150272 -0.7102328539 -0.2569904923 4.857539469e-39
0.1809596121 -0.2171687186 0.01756429859 4.857539469e-39
0.1397213191 -0.09035353363 -0.2753663659 5.041567793e-39
0.2033263594 -0.3155097365 0.2781637311 5.041567793e-39
-0.07047596574 -0.764896214 0.0480453223 5.041567793e-39
0.1719392687 -0.2316129506 0.05471267179 5.041567793e-39
-0.08943524212 -0.4287127256 0.3493210077 5.041567793e-39
-0.1645098329 -0.4655947089 0.1946009099 5.041567793e-39
-0.2199821323 -0.4740895331 0.3679035902 5.041567793e-39
0.1772934794 -0.24974823 0.1250644475 5.041567793e-39
0.04317104816 -0.7361130118 -0.12060716 5.225597518e-39
0.1731057316 -0.1806794107 -0.05694008619 5.225597518e-39
-0.02529077232 -0.7527856827 -0.02396734059 5.225597518e-39
0.1753339618 -0.2777168751 -0.001104988623 5.225597518e-39
0.1873015165 -0.2955016494 -0.06408587098 5.225597518e-39
0.06361216307 -0.3646917045 0.002071261406 5.225597518e-39
-0.162221089 -0.4576919377 0.2701030374 5.225597518e-39
0.1607833505 -0.1814674735 -0.05600578338 5.225597518e-39
0.138197273 -0.3635495007 -0.2444120198 5.409984573e-39
-0.1371430159 -0.2574183345 0.3231190443 5.409984573e-39
0.1709494591 -0.3949636519 -0.1966297626 5.409984573e-39
0.1726724207 -0.3793768883 -0.1118247062 5.409984573e-39
0.1915497631 -0.2596302032 0.1375856847 5.409984573e-39
-0.1637074798 -0.46089679 0.2266623676 5.409984573e-39
-0.2467804551 -0.4862603247 0.2487343401 5.409984573e-39
-0.1995430738 -0.4786289632 0.2108594179 5.409984573e-39
0.001468747854 -0.274787724 0.3076913953 5.594012897e-39
-0.1909635961 -0.7787489891 0.1029053777 5.594012897e-39
-0.09892600775 -0.2642311752 0.3223924637 5.594012897e-39
-0.03657221794 -0.3605332375 0.3301153779 5.594012897e-39
0.1892610341 -0.2675330043 0.06208358705 5.594012897e-39
0.0873362869 -0.3740044534 -0.05254096165 5.594012897e-39
-0.1183973849 -0.7710344791 0.07454101741 5.594012897e-39
0.05387450755 -0.3797360063 -0.2244163305 5.594012897e-39
-0.2225831747 -0.4708092809 0.2768508792 5.77804122e-39
0.1752412915 -0.2452690899 0.09092668444 5.77804122e-39
-0.08728765696 -0.2619500756 0.3100789189 5.77804122e-39
-0.2082255334 -0.4656174779 0.3762722015 5.77804122e-39
0.007572010159 -0.7414633036 -0.09504577518 5.77804122e-39
0.01921032742 -0.7391821742 -0.1073593125 5.77804122e-39
-0.08279833198 -0.765684247 0.04897962511 5.77804122e-39
-0.00406630151 -0.7437443733 -0.08273217827 5.77804122e-39
0.1828935295 -0.2278388143 0.03101984411 5.962428276e-39
-0.08017834276 -0.401886642 0.3535370231 5.962428276e-39
0.18389754 -0.2770605385 0.197492525 5.962428276e-39
-0.2156083882 -0.7803250551 0.1047739834 5.962428276e-39
-0.004604434595 -0.3214609325 0.3190072179 5.962428276e-39
-0.2349055558 -0.4715973437 0.277785182 5.962428276e-39
-0.1842648238 -0.4625483155 0.363024354 5.962428276e-39
-0.1367909014 -0.4425350428 0.3665137887 5.962428276e-39
-0.200911209 -0.4756428897 0.1881009042 6.1464566e-39
-0.1793252677 -0.7764678597 0.09059177339 6.1464566e-39
-0.03761318326 -0.7535737753 -0.02303303778 6.1464566e-39
0.1313259006 -0.3309081495 0.2972250879 6.1464566e-39
0.1715408564 -0.3640089035 -0.09321881831 6.1464566e-39
-0.102323398 -0.4218168259 0.3595582843 6.1464566e-39
0.0397740826 -0.09367194772 -0.2906504273 6.1464566e-39
0.03111287765 -0.3099197149 0.3141279817 6.1464566e-39
0.1653352082 -0.204300642 -0.0177154392 6.330484923e-39
-0.2959516943 -0.4832216203 0.2731537819 6.330484923e-39
0.0631390512 -0.3894554973 -0.08065748215 6.330484923e-39
-0.06020574644 -0.7596290112 0.01297327876 6.330484923e-39
-0.1067590714 -0.7687534094 0.06222747266 6.330484923e-39
0.1472318918 -0.7140901089 -0.242808342 6.330484923e-39
-0.2118654698 -0.479417026 0.2117937207 6.330484923e-39
0.1698036939 -0.1670232713 -0.09315415472 6.330484923e-39
0.08906365186 -0.09051969647 -0.2943876386 6.514514648e-39
0.1260308176 -0.08815550804 -0.297190547 6.514514648e-39
0.1522453725 -0.1434850991 -0.141889438 6.514514648e-39
0.145641312 -0.1161727905 -0.2143175453 6.514514648e-39
-0.03829724714 -0.7520807385 -0.03441232443 6.514514648e-39
-0.03907190636 -0.3421791494 0.3259627223 6.514514648e-39
-0.01700073481 -0.1510564536 -0.3976004124 6.514514648e-39
-0.2328703105 -0.4671936035 0.3781408072 6.514514648e-39
-0.2844316661 -0.4871314764 0.2401580215 6.698542971e-39
0.177175194 -0.2559391558 0.1043822244 6.698542971e-39
0.05036916956 -0.3763686419 -0.04973805323 6.698542971e-39
0.06302076578 -0.3956464529 -0.101339668 6.698542971e-39
0.007152182981 -0.3129888773 0.3273758292 6.698542971e-39
0.2102945298 -0.2965863943 0.2068776637 6.698542971e-39
-0.07184410095 -0.7619100809 0.02528680861 6.698542971e-39
-0.0826780349 -0.3835325539 0.3493844271 6.698542971e-39
0.1663591862 -0.317873925 0.2809666395 6.882571295e-39
0.1143652052 -0.1932837665 -0.05228730664 6.882571295e-39
0.1169831902 -0.2054468989 -0.02745249867 6.882571295e-39
-0.01692681201 -0.3222489953 0.3199415207 6.882571295e-39
-0.1491132826 -0.4433231056 0.3674480915 6.882571295e-39
-0.2125495374 -0.4779239893 0.2004144341 6.882571295e-39
-0.09250071645 -0.4026747048 0.3544713259 6.882571295e-39
0.07605720311 -0.08981471509 -0.3048325777 6.882571295e-39
0.1921155453 -0.2673142254 0.1282827556 7.066599618e-39
-0.1257183403 -0.4325699508 0.3635031581 7.066599618e-39
0.11174725 -0.1811206639 -0.07712210715 7.066599618e-39
0.1764911264 -0.2544461191 0.09300298244 7.066599618e-39
0.0285456311 -0.3798190653 -0.2339269817 7.066599618e-39
0.1762545854 -0.2668280005 0.05163860321 7.066599618e-39
-0.0501444377 -0.3521442711 0.3289733529 7.066599618e-39
0.1804772317 -0.269595325 0.1405962855 7.066599618e-39
0.06210015342 -0.4065352976 -0.1540832818 7.250627941e-39
-0.2358261794 -0.4824861884 0.2250415683 7.250627941e-39
-0.02802701667 -0.7468135357 -0.06948433816 7.250627941e-39
0.1116328984 -0.719440341 -0.2172469497 7.250627941e-39
0.1416552365 -0.1010236144 -0.2619107962 7.250627941e-39
0.1332982183 -0.3958348036 -0.2052060813 7.250627941e-39
0.1795914918 -0.2141826451 -0.005194199737 7.250627941e-39
0.1546025872 -0.3263459504 0.2725979984 7.250627941e-39
0.1703836918 -0.3872796595 -0.1873268187 7.434656265e-39
0.05275720358 -0.7293527722 -0.1670584679 7.434656265e-39
-0.1140800267 -0.4302888513 0.3511896133 7.434656265e-39
0.1769735366 -0.2020195425 -0.03002900258 7.434656265e-39
0.1474618465 -0.3732690215 -0.1006531417 7.434656265e-39
0.1814628392 -0.705753684 -0.2911282778 7.434656265e-39
-0.03000720218 -0.1503514796 -0.4080453813 7.434656265e-39
-0.1614356488 -0.4441111684 0.3683823943 7.434656265e-39
-0.1657596678 -0.4564176798 0.1925246119 7.618684588e-39
0.01784220524 -0.7361961007 -0.130117774 7.618684588e-39
-0.2604709268 -0.484062314 0.2269101739 7.618684588e-39
0.1751230061 -0.2514600456 0.07024451345 7.618684588e-39
-0.04232957587 -0.1511395276 -0.4071110785 7.618684588e-39
-0.05061962083 -0.7528687716 -0.03347802162 7.618684588e-39
-0.2115106434 -0.4608441889 0.2738402784 7.618684588e-39
-0.06697435677 -0.1527156532 -0.4052424729 7.618684588e-39
0.006203888915 -0.7384772301 -0.1178042442 7.802712912e-39
0.2348209918 -0.3012012243 0.1843268424 7.802712912e-39
0.15329355 -0.09874251485 -0.2742244005 7.802712912e-39
-0.1971529871 -0.455652386 0.3732616305 7.802712912e-39
0.1422802061 -0.3271340132 0.2735323012 7.802712912e-39
0.1841433793 -0.2370158434 0.03309614584 7.802712912e-39
-0.2255559862 -0.4772190154 0.1899695098 7.802712912e-39
0.1893793046 -0.2613420486 0.08276575804 7.802712912e-39
-0.09625025094 -0.3751436174 0.3482424021 7.986382503e-39
-0.01749259606 -0.3145650029 0.3292444348 7.986382503e-39
0.1598975956 -0.1260547936 -0.2017962784 7.986382503e-39
0.02929724939 -0.2930586934 0.3213546276 7.986382503e-39
-0.2371942997 -0.4795001149 0.2022830397 7.986382503e-39
0.06188920513 -0.3802784979 -0.08273378015 7.986382503e-39
0.1246250644 -0.3551605344 -0.245554015 7.986382503e-39
0.1631996334 -0.1397109628 -0.1655822396 7.986382503e-39
0.1777409762 -0.2636231482 0.09507929534 8.170410826e-39
0.09633108974 -0.3981989622 -0.2024031729 8.170410826e-39
0.05013261363 -0.3887505233 -0.09110240638 8.170410826e-39
-0.1158956587 -0.4134278297 0.3584162593 8.170410826e-39
-0.175793305 -0.4493029714 0.2689610422 8.170410826e-39
-0.1648390591 -0.4455288053 0.2452682257 8.170410826e-39
0.110494718 -0.3756332099 -0.09785023332 8.170410826e-39
-0.2094753683 -0.4564404488 0.3741959333 8.170410826e-39
0.201155901 -0.3172215521 0.2233438045 8.35443915e-39
-0.1855146587 -0.4533712864 0.3609480858 8.35443915e-39
-0.1358931661 -0.2665953636 0.3251953721 8.35443915e-39
-0.0931847766 -0.401181668 0.3430920839 8.35443915e-39
0.1305554211 -0.2138358653 -0.02631049603 8.35443915e-39
-0.04103349149 -0.746108532 -0.07992926985 8.35443915e-39
0.1698435098 -0.3409569263 -0.06531000137 8.35443915e-39
0.1442731917 -0.113186717 -0.2370760143 8.35443915e-39
0.1344810128 -0.3339253068 0.0016157832 8.538467473e-39
-0.07389627397 -0.7574310303 -0.008850902319 8.538467473e-39
0.1508772522 -0.1404990256 -0.1646479368 8.538467473e-39
0.1880111843 -0.2583559752 0.06000728905 8.538467473e-39
-0.2217977494 -0.4572285116 0.3751302361 8.538467473e-39
0.04911932722 -0.3671916127 -0.05181435868 8.538467473e-39
-0.09874993563 -0.3567895591 0.3440898061 8.538467473e-39
-0.07458034158 -0.7559379339 -0.02023012936 8.538467473e-39
-0.1183953509 -0.3950737715 0.3542636633 8.722137064e-39
0.1876307428 -0.315567553 -0.1147531793 8.722137064e-39
-0.1621197164 -0.4426181316 0.3570031524 8.722137064e-39
-0.05702699721 -0.3868285418 -0.2160075903 8.722137064e-39
0.1684355736 -0.1640371978 -0.1159126237 8.722137064e-39
-0.1196451932 -0.3858967423 0.3521873355 8.722137064e-39
-0.1655231267 -0.4440357685 0.2338889986 8.722137064e-39
0.1592135429 -0.1245617568 -0.2131755352 8.722137064e-39
0.125319466 -0.1895096302 -0.07598011196 8.906165387e-39
0.1875124574 -0.3217585087 -0.1354353428 8.906165387e-39
0.1771951467 -0.3202907145 0.236591652 8.906165387e-39
0.1756888032 -0.259144038 0.06094159186 8.906165387e-39
0.02861318924 -0.2915656567 0.3099753857 8.906165387e-39
0.1603423953 -0.343619287 -0.2504332364 8.906165387e-39
0.004835765809 -0.7354911566 -0.1405627429 8.906165387e-39
0.1519254297 -0.09575644135 -0.2969828248 8.906165387e-39
0.1013587862 -0.1925787926 -0.0627322644 9.089834978e-39
0.09874081612 -0.1804156899 -0.08756704628 9.089834978e-39
0.1853675991 -0.2848316133 -0.07754141092 9.089834978e-39
-0.2127604932 -0.4516671598 0.2717639506 9.089834978e-39
0.1917330325 -0.7004865408 -0.3262003064 9.089834978e-39
0.04944855347 -0.3872574866 -0.1024816781 9.089834978e-39
0.1221586317 -0.3347133696 0.002550086007 9.089834978e-39
-0.1678118557 -0.4519385695 0.158386901 9.089834978e-39
-0.04171755537 -0.7446155548 -0.09130856395 9.273863302e-39
0.08765787631 -0.3575247228 -0.2427511066 9.273863302e-39
-0.09999978542 -0.3476125002 0.3420134783 9.273863302e-39
-0.01844089106 -0.7400532961 -0.1159356385 9.273863302e-39
0.115615055 -0.2024608254 -0.05021099374 9.273863302e-39
-0.05389396846 -0.3246131837 0.3227444291 9.273863302e-39
0.1684564054 -0.7050487399 -0.3015731871 9.273863302e-39
0.05936391279 -0.4005631506 -0.1996002644 9.273863302e-39
-0.06934937835 -0.3876166046 -0.2150732875 9.457532893e-39
-0.1307177246 -0.3958618343 0.3551979661 9.457532893e-39
0.1501931995 -0.1390059888 -0.1760271639 9.457532893e-39
0.003335094079 -0.3737111986 -0.2227554172 9.457532893e-39
0.1848018169 -0.2771475911 -0.06823848188 9.457532893e-39
0.1512413621 -0.09426339716 -0.3083621264 9.457532893e-39
-0.2854449749 -0.465572536 0.2794460952 9.457532893e-39
0.097942397 -0.7172423005 -0.2390711308 9.457532893e-39
0.1696069539 -0.3533388376 -0.1066743582 9.641561216e-39
-0.1750079095 -0.4357222021 0.3672403693 9.641561216e-39
0.1215672344 -0.3656680882 -0.100860849 9.641561216e-39
0.161831513 -0.1367248893 -0.1883407384 9.641561216e-39
0.07533550262 -0.3583127856 -0.2418168038 9.641561216e-39
0.1026358679 -0.0989086777 -0.2932456136 9.641561216e-39
-0.0452327691 -0.1083654165 -0.2820339799 9.641561216e-39
0.09736998379 -0.3811191618 -0.1289773881 9.641561216e-39
0.1865247786 -0.2615608275 0.01656659134 9.825230807e-39
0.00265103206 -0.3722181618 -0.2341346741 9.825230807e-39
-0.08758677542 -0.7552329898 -0.0306751132 9.825230807e-39
-0.03291039169 -0.1075773537 -0.2829682827 9.825230807e-39
0.1356975883 -0.3451954126 -0.2485646307 9.825230807e-39
0.1103791296 -0.1781345904 -0.09988060594 9.825230807e-39
0.1756054163 -0.199033469 -0.05278747529 9.825230807e-39
-0.2107252181 -0.4472634196 0.3721196055 9.825230807e-39
0.09475471079 -0.165266484 -0.1351603419 1.000925913e-38
-0.06504043937 -0.1633857489 -0.3917869031 1.000925913e-38
-0.08836147189 -0.3453314006 0.3296999335 1.000925913e-38
0.1685189605 -0.224147737 -0.002183587756 1.000925913e-38
-0.166891247 -0.441049695 0.2111305147 1.000925913e-38
-0.299490273 -0.4819473922 0.1955753267 1.000925913e-38
0.061086867 -0.384976387 -0.114795208 1.000925913e-38
-0.0766325295 -0.7514588833 -0.05436788499 1.000925913e-38
-0.08167178184 -0.3884046674 -0.2141389847 1.019292872e-38
-0.0219261907 -0.2855408788 0.3116362691 1.019292872e-38
-0.2755295932 -0.4788782299 0.1823274791 1.019292872e-38
-0.09854105115 -0.7590070963 -0.006982281804 1.019292872e-38
-0.03049906157 -0.3138599992 0.3187994957 1.019292872e-38
0.167751506 -0.1625441462 -0.127291888 1.019292872e-38
0.1032926887 -0.2032488883 -0.04927669093 1.019292872e-38
-0.07736282051 -0.1641737968 -0.3908526003 1.019292872e-38
-0.05403992906 -0.7454035878 -0.09037426114 1.037659831e-38
0.186643064 -0.2553699017 0.03724876046 1.037659831e-38
0.1070770919 -0.1644784361 -0.1360946447 1.037659831e-38
-0.2230475992 -0.4480514526 0.3730539083 1.037659831e-38
0.170452863 -0.2348178327 0.0112719778 1.037659831e-38
-0.08827082813 -0.753739953 -0.04205435514 1.037659831e-38
-0.1867645085 -0.4441942573 0.358871758 1.037659831e-38
0.1677657217 -0.3751165569 -0.2121616006 1.037659831e-38
-0.1399746537 -0.4226879478 0.3509819508 1.056062664e-38
-0.1203292534 -0.3844037056 0.3408080935 1.056062664e-38
0.1246354133 -0.1880165935 -0.087359339 1.056062664e-38
-0.08968523145 -0.1649618596 -0.3899182975 1.056062664e-38
-0.0336320661 -0.376075387 -0.2199525088 1.056062664e-38
0.003968434408 -0.2931417525 0.3118439913 1.056062664e-38
-0.2878519893 -0.4796662927 0.1832617819 1.056062664e-38
-0.1105065271 -0.3652615845 0.3357211947 1.056062664e-38
0.1572845727 -0.3541269004 -0.1057400554 1.074429623e-38
-0.1223209128 -0.2749843299 0.3263373375 1.074429623e-38
0.1611474454 -0.1352318376 -0.1997199655 1.074429623e-38
0.1853419989 -0.3234703243 -0.1902552694 1.074429623e-38
-0.1683776379 -0.4442545772 0.1676898301 1.074429623e-38
-0.2263327092 -0.4432781935 0.2706219554 1.074429623e-38
0.1714149266 -0.3336542249 -0.2534438372 1.074429623e-38
-0.1996526867 -0.4372983277 0.3691089749 1.074429623e-38
-0.03431612626 -0.3745823503 -0.2313317657 1.092796582e-38
0.1862626225 -0.3125814795 -0.1375116557 1.092796582e-38
-0.1301519275 -0.4035458267 0.3458949924 1.092796582e-38
-0.2993720174 -0.4757564068 0.2162575424 1.092796582e-38
0.06028452143 -0.3896742761 -0.1468566358 1.092796582e-38
0.05002096295 -0.7233806252 -0.2125754356 1.092796582e-38
-0.2386550903 -0.4440662563 0.2715562582 1.092796582e-38
-0.167684868 -0.3982260227 0.3580008745 1.092796582e-38
0.1678839922 -0.3689256012 -0.1914794296 1.111163541e-38
-0.1412245035 -0.4135109186 0.348905623 1.111163541e-38
0.1431209147 -0.3766926527 -0.210292995 1.111163541e-38
0.07329759002 -0.7188184261 -0.2372025251 1.111163541e-38
0.1678348929 -0.2226547003 -0.01356282271 1.111163541e-38
-0.1681410819 -0.4318726659 0.2090542167 1.111163541e-38
-0.2866947949 -0.4563955367 0.2773697972 1.111163541e-38
-0.167904526 -0.4194907844 0.2504186034 1.111163541e-38
0.08493590355 -0.7165373564 -0.2495160699 1.1295305e-38
0.1488250643 -0.1360199004 -0.1987856627 1.1295305e-38
-0.106316559 -0.389980793 -0.2122703791 1.1295305e-38
0.1688046157 -0.3580367565 -0.1387358159 1.1295305e-38
0.1670674384 -0.1610511094 -0.138671115 1.1295305e-38
0.1521270871 -0.1496760547 -0.1625716239 1.1295305e-38
0.1438115835 -0.7066248655 -0.2997045815 1.1295305e-38
0.1723033786 -0.1853772998 -0.08900154382 1.1295305e-38
-0.2509774864 -0.4448543191 0.272490561 1.147897319e-38
-0.1918652505 -0.4225599468 0.2636664212 1.147897319e-38
-0.04663853347 -0.3753704131 -0.2303974628 1.147897319e-38
-0.1687068641 -0.4241886735 0.2183571458 1.147897319e-38
-0.1685885936 -0.4179977179 0.2390393168 1.147897319e-38
0.1652169228 -0.2104915977 -0.03839763254 1.147897319e-38
-0.1646194011 -0.4242640734 0.3528505564 1.147897319e-38
0.1604633927 -0.1337388009 -0.2110992223 1.147897319e-38
0.04796214774 -0.3904623389 -0.145922333 1.166264278e-38
0.06031013653 -0.3510355651 -0.03414277732 1.166264278e-38
0.1168649048 -0.2116378248 -0.04813469574 1.166264278e-38
-0.311339587 -0.4579716325 0.2792384028 1.166264278e-38
-0.00885473378 -0.7332930565 -0.1623869389 1.166264278e-38
0.1637654155 -0.1473949403 -0.1748851687 1.166264278e-38
-0.1880143583 -0.4350172281 0.3567954302 1.166264278e-38
0.1896808445 -0.6960074306 -0.3603380322 1.166264278e-38
-0.07910453528 -0.318505317 0.3339159489 1.184631237e-38
-0.01450104266 -0.1694105119 -0.3934478164 1.184631237e-38
0.05927123502 -0.3681153655 -0.1075685769 1.184631237e-38
0.201319173 -0.6937263012 -0.372651577 1.184631237e-38
-0.07868471742 -0.7469797134 -0.08850565553 1.184631237e-38
-0.04657097161 -0.2871169746 0.3135049343 1.184631237e-38
-0.1186389327 -0.3907688558 -0.2113360763 1.184631237e-38
-0.02049307525 -0.7355742455 -0.1500733793 1.184631237e-38
0.1847762018 -0.3157863617 -0.1809523404 1.202998196e-38
0.1531752646 -0.1049334556 -0.2949065566 1.202998196e-38
0.178042531 -0.6982885599 -0.3480244875 1.202998196e-38
-0.2165100276 -0.4241360724 0.2655350268 1.202998196e-38
-0.1148218438 -0.3300465345 0.3387951851 1.202998196e-38
0.01372356154 -0.3622530699 -0.2371452898 1.202998196e-38
-0.04376973584 -0.740136385 -0.12544626 1.202998196e-38
0.1481410116 -0.1345268637 -0.2101649195 1.202998196e-38
-0.1812571287 -0.3898370564 0.3568588495 1.221365155e-38
0.04694886133 -0.3689034283 -0.1066342741 1.221365155e-38
0.1547450572 -0.1618391573 -0.1377368122 1.221365155e-38
0.1514430344 -0.1481830031 -0.1739508659 1.221365155e-38
-0.08478797227 -0.2803041637 0.3142315149 1.221365155e-38
-0.04463706911 -0.2977870405 0.3269604445 1.221365155e-38
0.04718541726 -0.356521517 -0.06526990235 1.221365155e-38
-0.1695092022 -0.4288865924 0.1862956882 1.221365155e-38
0.08438910544 -0.3417754769 -0.02670845389 1.239732115e-38
-0.1193230003 -0.3892758191 -0.2227153331 1.239732115e-38
-0.02255953103 -0.3661102951 -0.2229631245 1.239732115e-38
-0.2288324088 -0.4249241352 0.2664693296 1.239732115e-38
-0.06746622175 -0.3162241876 0.3216024041 1.239732115e-38
-0.01518510655 -0.1679174751 -0.4048270583 1.239732115e-38
-0.2126591355 -0.4365933537 0.3586640358 1.239732115e-38
-0.3252666593 -0.4681555033 0.21604985 1.239732115e-38
-0.1474737227 -0.367625773 0.3385241032 1.258099074e-38
0.1630813479 -0.1459019035 -0.1862644255 1.258099074e-38
0.07924096286 -0.1096618176 -0.2893007398 1.258099074e-38
-0.1616117358 -0.3515528142 0.3466849923 1.258099074e-38
0.1645328701 -0.2089985609 -0.04977686703 1.258099074e-38
-0.1505391896 -0.3415877223 0.3436744213 1.258099074e-38
0.04739636555 -0.3827783763 -0.136619404 1.258099074e-38
-0.1935795099 -0.3906251192 0.3577931523 1.258099074e-38
0.06623451412 -0.1089568436 -0.2997456789 1.276466033e-38
0.1690013558 -0.1717211604 -0.12521559 1.276466033e-38
0.1710186452 -0.2425017953 0.001969019417 1.276466033e-38
0.1840921491 -0.3142932951 -0.1923315823 1.276466033e-38
0.1032016352 -0.1065926552 -0.3025485873 1.276466033e-38
-0.06447467208 -0.1710697114 -0.4010898471 1.276466033e-38
0.1155240163 -0.1058045924 -0.3034828901 1.276466033e-38
-0.1487235725 -0.3584487438 0.3364477754 1.276466033e-38
-0.1937064826 -0.444337666 0.1581791937 1.294832852e-38
0.1043408513 -0.1585062742 -0.1816116422 1.294832852e-38
-0.21710141 -0.4550908208 0.1621241122 1.294832852e-38
0.01762901433 -0.1136021316 -0.2846292257 1.294832852e-38
0.05823234096 -0.3851951659 -0.1809943914 1.294832852e-38
0.02926732413 -0.1113210171 -0.2969427705 1.294832852e-38
0.1773584634 -0.6967954636 -0.3594037294 1.294832852e-38
-0.1087486967 -0.2833732963 0.3274793625 1.294832852e-38
-0.190514043 -0.4166631699 0.3526428342 1.313163938e-38
-0.2768721282 -0.4372533858 0.2722828686 1.313163938e-38
0.09930659831 -0.1880996823 -0.09687000513 1.313163938e-38
0.1619148999 -0.1968354583 -0.07461167127 1.313163938e-38
0.1540610045 -0.1603461206 -0.149116084 1.313163938e-38
0.2006351054 -0.6922332644 -0.3840308189 1.313163938e-38
-0.1705224961 -0.407327652 0.2255837619 1.313163938e-38
-0.007015796378 -0.1151782572 -0.2827606201 1.313163938e-38
-0.3137466311 -0.4720653594 0.1830540895 1.331530897e-38
-0.1826339215 -0.4343725741 0.1551685929 1.331530897e-38
0.1161808521 -0.210144788 -0.05951395258 1.331530897e-38
0.05754828081 -0.3837021291 -0.1923736334 1.331530897e-38
-0.1713248342 -0.4120255709 0.1935223639 1.331530897e-38
-0.2891944945 -0.4380414486 0.2732171714 1.331530897e-38
0.04590996727 -0.3859832287 -0.1800600886 1.331530897e-38
0.1590952724 -0.1307527125 -0.2338577062 1.331530897e-38
0.1761711836 -0.2067174315 -0.06209043041 1.349897856e-38
0.1728342772 -0.2593628168 -0.005257603247 1.349897856e-38
-0.06803200394 -0.3085401952 0.3309053779 1.349897856e-38
-0.04532112926 -0.2962940037 0.3155812025 1.349897856e-38
-0.1389008462 -0.3393066227 0.3313608766 1.349897856e-38
-0.007699858397 -0.1136852056 -0.2941398621 1.349897856e-38
0.05835061893 -0.3790042102 -0.1603122056 1.349897856e-38
0.08734832704 -0.1426520944 -0.2396498621 1.349897856e-38
-0.1033294946 -0.7485557795 -0.08663704246 1.368228942e-38
-0.3049627841 -0.4700030684 0.1045413613 1.368228942e-38
-0.0323446095 -0.1152613312 -0.2922712564 1.368228942e-38
0.09133440256 -0.1578012854 -0.1920565814 1.368228942e-38
0.1807230711 -0.2295506299 -0.02380008437 1.368228942e-38
-0.04466699064 -0.116049394 -0.2913369536 1.368228942e-38
-0.2151588202 -0.4182392955 0.3545114398 1.368228942e-38
-0.3509247303 -0.4481727183 0.2572064698 1.368228942e-38
0.09452208877 -0.7097771168 -0.2959673703 1.386595901e-38
0.107642889 -0.1721624285 -0.1453975737 1.386595901e-38
-0.1130801439 -0.1757149994 -0.3859733939 1.386595901e-38
0.165266037 -0.3567624986 -0.2163142115 1.386595901e-38
-0.1943649352 -0.4042058885 0.2595138252 1.386595901e-38
0.04569901899 -0.3597263992 -0.108710587 1.386595901e-38
0.1500748992 -0.1451969147 -0.1967093647 1.386595901e-38
0.1766744107 -0.6953024268 -0.3707829714 1.386595901e-38
-0.1942635775 -0.3891320825 0.3464139104 1.404926846e-38
0.02479608916 -0.3522879779 -0.2401559055 1.404926846e-38
-0.1704042107 -0.4011367261 0.2462659776 1.404926846e-38
0.1835263669 -0.3066093028 -0.1830286533 1.404926846e-38
-0.1721271724 -0.4167234898 0.1614609063 1.404926846e-38
0.0474219732 -0.3441396654 -0.02390554547 1.404926846e-38
-0.1949563324 -0.4351606369 0.1561028957 1.404926846e-38
0.08666427433 -0.1411590576 -0.251029104 1.404926846e-38
0.1305875778 -0.3512239158 -0.1380092055 1.423293806e-38
-0.1075664088 -0.3808037341 -0.214346692 1.423293806e-38
0.1660683751 -0.3520645797 -0.1842527837 1.423293806e-38
-0.2417461723 -0.4566669464 0.1639927179 1.423293806e-38
-0.01090691797 -0.7288140059 -0.1965246648 1.423293806e-38
-0.01148697175 -0.3561452031 -0.2259737402 1.423293806e-38
0.1202247292 -0.3240432739 -0.01090547815 1.423293806e-38
0.04558074102 -0.3659173548 -0.1293927729 1.423293806e-38
-0.254727006 -0.4173232019 0.2662616372 1.441624891e-38
-0.1838837564 -0.425195545 0.15309228 1.441624891e-38
-0.3063308895 -0.4670169652 0.08178286254 1.441624891e-38
0.06054669246 -0.3386536539 0.007221604697 1.441624891e-38
0.1689485013 -0.3132070601 -0.005339739844 1.441624891e-38
-0.2911539972 -0.4660100937 0.1470477134 1.441624891e-38
0.102972731 -0.1555202007 -0.2043701112 1.441624891e-38
-0.07184906304 -0.3692625463 -0.2192259133 1.441624891e-38
0.1672255546 -0.3287938237 -0.09014481306 1.459991851e-38
-0.365180999 -0.4382906854 0.2446852326 1.459991851e-38
0.08210036159 -0.3496782184 -0.1022105515 1.459991851e-38
0.1836446375 -0.3004183769 -0.1623464525 1.459991851e-38
-0.03418357298 -0.7333761454 -0.1718975604 1.459991851e-38
-0.1641114205 -0.3331987858 0.3425323963 1.459991851e-38
0.09395237267 -0.1699644029 -0.1672217697 1.459991851e-38
-0.2072787136 -0.4359486997 0.1570371985 1.459991851e-38
-0.140150696 -0.3301295936 0.3292845488 1.478322936e-38
0.2115894109 -0.6884591579 -0.4077236354 1.478322936e-38
0.168915242 -0.3153001666 -0.2575964928 1.478322936e-38
-0.1980131119 -0.3616009951 0.3401849866 1.478322936e-38
0.1537138075 -0.215464592 -0.07161979377 1.478322936e-38
-0.1733770221 -0.4075464606 0.1593846083 1.478322936e-38
-0.3070149422 -0.4655239284 0.0704036206 1.478322936e-38
0.155994907 -0.1710161865 -0.1356605142 1.478322936e-38
-0.1167557538 -0.3193764389 0.3253396153 1.496689755e-38
0.1820399612 -0.3098141849 -0.2264693379 1.496689755e-38
0.175487116 -0.2052243948 -0.07346966863 1.496689755e-38
-0.1724563986 -0.3966575861 0.212128222 1.496689755e-38
0.1566261202 -0.3139951229 -0.004405437037 1.496689755e-38
0.1657827199 -0.21817559 -0.04770055786 1.496689755e-38
-0.1732587367 -0.401355505 0.1800667644 1.496689755e-38
-0.08417146653 -0.3700506091 -0.2182915956 1.496689755e-38
-0.1562901586 -0.3916400075 -0.2199124247 1.515020841e-38
0.01100159064 -0.7212656736 -0.243910253 1.515020841e-38
-0.3792007267 -0.4160268009 0.2735283673 1.515020841e-38
0.1728691608 -0.193061322 -0.09830447286 1.515020841e-38
0.1643311977 -0.1550789475 -0.1841881126 1.515020841e-38
0.04397606477 -0.3753131628 -0.1935156286 1.515020841e-38
0.05584599078 -0.1204149723 -0.2853558064 1.515020841e-38
-0.3076990247 -0.4640308917 0.05902438983 1.515020841e-38
0.1830788702 -0.2927343845 -0.1530435234 1.533351927e-38
0.05641671643 -0.3683341742 -0.1737677455 1.533351927e-38
-0.3917596936 -0.4291967452 0.2330982983 1.533351927e-38
-0.02322932333 -0.7296020389 -0.195590362 1.533351927e-38
0.09623078257 -0.3292055726 -0.2499143332 1.533351927e-38
0.1167738661 -0.1149816215 -0.3014066219 1.533351927e-38
0.04352361709 -0.1212030202 -0.2844215035 1.533351927e-38
-0.2787133455 -0.4590311348 0.1667956263 1.533351927e-38
-0.09305925667 -0.7432886362 -0.1217090562 1.551683013e-38
-0.2559768558 -0.4081462026 0.2641853392 1.551683013e-38
0.1826313585 -0.2788594365 -0.123058401 1.551683013e-38
-0.3545559645 -0.4144506752 0.2716597617 1.551683013e-38
0.1414186656 -0.1134054959 -0.3032752275 1.551683013e-38
0.1813558936 -0.3083211482 -0.237848565 1.551683013e-38
-0.2079371512 -0.3958169222 0.25837183 1.551683013e-38
0.1443036944 -0.3147831857 -0.003471130505 1.551683013e-38
0.05516192317 -0.1189219207 -0.2967350483 1.570049832e-38
-0.1530388743 -0.323233664 0.3395217657 1.570049832e-38
-0.01808832958 -0.1251433343 -0.2797499895 1.570049832e-38
0.09326831996 -0.1684713662 -0.1786010265 1.570049832e-38
-0.03041070513 -0.1259313971 -0.2788156867 1.570049832e-38
-0.1286582947 -0.7486388683 -0.09614767134 1.570049832e-38
-0.3422335684 -0.4136626124 0.2707254589 1.570049832e-38
-0.005765954033 -0.1243552715 -0.2806842923 1.570049832e-38
0.1435013562 -0.3194811046 -0.03553258255 1.588380918e-38
-0.05814429745 -0.7364453077 -0.1586497277 1.588380918e-38
0.04433089867 -0.3567403257 -0.1314690858 1.588380918e-38
-0.1765797436 -0.7547771931 -0.06965193152 1.588380918e-38
-0.08786961436 -0.1818228662 -0.3971449435 1.588380918e-38
0.128068909 -0.6999477148 -0.3556665182 1.588380918e-38
-0.117019996 -0.7463577986 -0.1084612086 1.588380918e-38
-0.174626857 -0.3983694315 0.1573082954 1.588380918e-38
0.02354624681 -0.3431109488 -0.2422322035 1.606712004e-38
0.04754025862 -0.3379486799 -0.00322335586 1.606712004e-38
-0.2325819284 -0.3973930478 0.2602404356 1.606712004e-38
-0.1974560171 -0.4168065786 0.1519502848 1.606712004e-38
0.2109053433 -0.6869660616 -0.4191028476 1.606712004e-38
0.1822765172 -0.2974322736 -0.1851049513 1.606712004e-38
-0.02391338348 -0.7281090021 -0.2069696039 1.606712004e-38
0.1513455957 -0.6953855157 -0.3802936077 1.606712004e-38
0.1559420526 -0.3125020564 -0.01578469947 1.625043089e-38
-0.09336084872 -0.3086232841 0.3213947415 1.625043089e-38
-0.1745085865 -0.3921784759 0.1779904664 1.625043089e-38
-0.2945743203 -0.45854491 0.09015150368 1.625043089e-38
0.1820655614 -0.2711754441 -0.1137554497 1.625043089e-38
-0.09374332428 -0.7417956591 -0.1330883205 1.625043089e-38
-0.340891093 -0.4552874267 0.1807700694 1.625043089e-38
-0.2449043095 -0.3981811106 0.2611747384 1.625043089e-38
0.1664232016 -0.3334917426 -0.1222062409 1.643374035e-38
-0.2208509445 -0.4275597334 0.1558952034 1.643374035e-38
0.1666597575 -0.3211098313 -0.08084185421 1.643374035e-38
0.1072182804 -0.3233383 -0.02135040984 1.643374035e-38
-0.3927729726 -0.4076378345 0.2723863721 1.643374035e-38
0.05436453596 -0.3638550639 -0.2079054862 1.643374035e-38
0.1869446039 -0.690035224 -0.4058550298 1.643374035e-38
0.1823948026 -0.2912413478 -0.1644227654 1.643374035e-38
0.1121947467 -0.1949956119 -0.1071072221 1.661705121e-38
-0.1803615242 -0.43744573 -0.08780391514 1.661705121e-38
0.1714661568 -0.2563767433 -0.02801610157 1.661705121e-38
0.1812888384 -0.2372346222 -0.033103019 1.661705121e-38
-0.04719004408 -0.7326712012 -0.1823424995 1.661705121e-38
-0.01342087984 -0.3454751372 -0.2394292951 1.661705121e-38
-0.02505922131 -0.3477562368 -0.2271157354 1.661705121e-38
0.150661543 -0.6938924789 -0.3916728497 1.661705121e-38
-0.1445335746 -0.3831679225 -0.2115437835 1.680036207e-38
0.119658947 -0.3163593113 -0.001602524891 1.680036207e-38
-0.4060159922 -0.4193147421 0.2205770612 1.680036207e-38
-0.4057794213 -0.4069328606 0.261941433 1.680036207e-38
0.1634503901 -0.3399014771 -0.2090875804 1.680036207e-38
0.1293377429 -0.3420468271 -0.1400855184 1.680036207e-38
0.1675803661 -0.3102209568 -0.02809823677 1.680036207e-38
0.1622998565 -0.6916114092 -0.4039864242 1.680036207e-38
0.1807901263 -0.3006371558 -0.2285456508 1.698367293e-38
0.1596610397 -0.1384367049 -0.243160665 1.698367293e-38
0.1267007887 -0.6969616413 -0.3784250021 1.698367293e-38
0.008949405514 -0.7167865634 -0.2780480087 1.698367293e-38
-0.1750743538 -0.3844944835 0.187293455 1.698367293e-38
-0.3300550878 -0.4577042162 0.1363950819 1.698367293e-38
-0.1656254828 -0.7510030866 -0.09334476292 1.698367293e-38
0.09317295253 -0.3397131264 -0.1052211523 1.698367293e-38
-0.03664613143 -0.1893407106 -0.387426585 1.716698239e-38
-0.1300264299 -0.7456527948 -0.1189061403 1.716698239e-38
0.07877935469 -0.703099966 -0.351929307 1.716698239e-38
0.1002364755 -0.1495480239 -0.2498871088 1.716698239e-38
0.04296277091 -0.3537542224 -0.1542275548 1.716698239e-38
0.08723004162 -0.14884305 -0.2603320479 1.716698239e-38
-0.2454957068 -0.429135859 0.157763809 1.716698239e-38
0.1310302019 -0.1248636395 -0.288885355 1.716698239e-38
-0.09442737699 -0.7403025627 -0.1444675624 1.735029324e-38
-0.02528150752 -0.7251229286 -0.2297281027 1.735029324e-38
-0.04970400035 -0.3493323624 -0.2252471298 1.735029324e-38
-0.08610538393 -0.3593805134 -0.2317471653 1.735029324e-38
-0.07115073502 -0.7357403636 -0.1690946519 1.735029324e-38
-0.1069330648 -0.3002343178 0.3202527165 1.735029324e-38
0.09501418471 -0.3179354072 0.0002660807222 1.735029324e-38
0.08004817367 -0.3451991081 -0.1363483071 1.735029324e-38
0.1658574343 -0.3258077502 -0.112903282 1.75336041e-38
0.1376550347 -0.6931874752 -0.4021177888 1.75336041e-38
-0.1568559408 -0.3839559853 -0.2106094807 1.75336041e-38
-0.08593569696 -0.1924929619 -0.3836893737 1.75336041e-38
0.01065809466 -0.3362150192 -0.2319949418 1.75336041e-38
-0.4067000747 -0.4178217053 0.2091978192 1.75336041e-38
0.05540343001 -0.3467752337 -0.1344797015 1.75336041e-38
0.05709583312 -0.1295920014 -0.2832794785 1.75336041e-38
