# .PCD v0.7 - Point Cloud Data file format
VERSION 0.7
FIELDS x y z rgb
SIZE 4 4 4 4
TYPE F F F F
COUNT 1 1 1 1
WIDTH 837
HEIGHT 1
VIEWPOINT 0 0 0 1 0 0 0
POINTS 837
DATA ascii
-0.1255856156 -0.3521985412 0.1577463001 4.725212053e-39
0.03357307985 -0.1969834864 0.199550882 4.725212053e-39
-0.08832338452 -0.366261363 0.168477267 4.725212053e-39
-0.1569186002 -0.2261486948 0.1588753462 4.542257124e-39
-0.1308936477 -0.2147804797 0.1700704396 4.542257124e-39
0.1528284848 -0.226851061 0.3290867805 4.542257124e-39
0.1121219769 -0.2005889118 0.2311217189 4.542257124e-39
0.0312262997 -0.4564572275 0.2321317047 4.359662329e-39
-0.4236337543 -0.4370079935 0.09169755131 4.359662329e-39
0.2013456821 -0.2539399564 0.3268351853 4.359662329e-39
0.2034681886 -0.4642968178 0.1864323914 4.359662329e-39
0.04480693489 -0.4569413066 0.2564411163 4.177066133e-39
0.1788711995 -0.2030779272 0.3277634382 4.177066133e-39
0.005795983132 -0.4553861916 0.2208707631 4.177066133e-39
-0.3669610023 -0.4413860142 -0.2979081869 4.177066133e-39
0.1918925196 -0.1911913455 0.3271017671 3.994471337e-39
-0.1817895621 -0.2374483347 0.1725854278 3.994471337e-39
0.2176258862 -0.464746654 0.2231943458 3.994471337e-39
0.1664445102 -0.2025252879 0.3283592761 3.994471337e-39
-0.2805515528 -0.4452887177 -0.3145315051 3.81151781e-39
0.2135868669 -0.4649865031 0.136026144 3.81151781e-39
-0.07999432832 -0.4540279806 -0.2867069244 3.81151781e-39
-0.1131766737 -0.3651560843 0.1696689129 3.81151781e-39
-0.06757106632 -0.1926652491 0.1669596285 3.628921614e-39
-0.197172001 -0.2866867781 0.1609920263 3.628921614e-39
0.03747057915 -0.2959830463 0.3868666887 3.628921614e-39
-0.04271778464 -0.193770498 0.1657679826 3.628921614e-39
-0.422170192 -0.4382116795 -0.145497784 3.446326818e-39
-0.4256322086 -0.4384172857 -0.2202133983 3.446326818e-39
0.2482491732 -0.4655092657 0.3465287685 3.446326818e-39
0.1640657336 -0.252282083 0.3286226392 3.446326818e-39
0.007583480328 -0.1835418046 0.1633188426 3.26337189e-39
0.1161256209 -0.2251589149 0.3433268368 3.26337189e-39
-0.207832247 -0.2612214983 0.1739087552 3.26337189e-39
0.03278379887 -0.3458769023 0.3373196423 3.26337189e-39
-0.06755337119 -0.1802603006 0.1544411927 3.080777095e-39
-0.484035939 -0.4341420233 0.1320344508 3.080777095e-39
0.2583678067 -0.466198951 0.296122551 3.080777095e-39
0.2329375297 -0.4651279747 0.2848615646 3.080777095e-39
-0.4068585038 -0.4385930002 -0.08383058012 2.898180898e-39
-0.4051274955 -0.438490212 -0.04647277296 2.898180898e-39
-0.1675788611 -0.2006833851 0.171792075 2.898180898e-39
0.02696070261 -0.3834343851 0.2503488958 2.898180898e-39
-0.06406480074 -0.3798058331 0.1673514545 2.715227371e-39
0.2419021428 -0.4658861756 0.2095500976 2.715227371e-39
-0.4062815011 -0.4385587275 -0.07137798518 2.715227371e-39
-0.2072198689 -0.2363773584 0.1613244861 2.715227371e-39
0.058847256 -0.273013562 0.2339000702 2.532632576e-39
-0.4964626729 -0.4335893989 0.1326302737 2.532632576e-39
0.03687588871 -0.3084222376 0.3869325519 2.532632576e-39
-0.4164001644 -0.4378690124 -0.02097173035 2.532632576e-39
0.03416777402 -0.1845442653 0.1994850338 2.349677647e-39
-0.4345968068 -0.437659055 -0.1449019462 2.349677647e-39
0.1381646097 -0.176815778 0.2297983766 2.349677647e-39
-0.04212308675 -0.1813312769 0.1657021493 2.349677647e-39
-0.4282497764 -0.4372821152 -0.007923312485 2.167082852e-39
0.03570419177 -0.3208957314 0.3745457232 2.167082852e-39
-0.4626446664 -0.4354529083 0.05612717941 2.167082852e-39
0.02174999006 -0.3961476982 0.1507939398 2.167082852e-39
0.1328123808 -0.2887685597 0.2303909659 1.984127923e-39
-0.4169771671 -0.437903285 -0.03342432156 1.984127923e-39
0.2543287873 -0.4664388001 0.2089542747 1.984127923e-39
0.03044040874 -0.3708238304 0.3125460744 1.984127923e-39
0.252597779 -0.4665416181 0.1715964973 1.801533128e-39
-0.392968297 -0.4403493106 -0.321621716 1.801533128e-39
0.03706163168 -0.3965289891 0.2124611437 1.801533128e-39
-0.4279402196 -0.4385543466 -0.2700238228 1.801533128e-39
0.2262809277 -0.4642326534 0.4099833965 1.618578199e-39
0.1511859298 -0.1649292111 0.2291367054 1.618578199e-39
-0.4285172224 -0.4385886192 -0.2824764252 1.618578199e-39
0.02156730741 -0.2713556886 0.2356875241 1.618578199e-39
-0.2338572145 -0.2725896835 0.1627136618 1.435982003e-39
-0.003103293478 -0.3950424194 0.1519855857 1.435982003e-39
-0.5117743015 -0.4332081079 0.0709630698 1.435982003e-39
-0.2226199508 -0.2980207205 0.1622495204 1.435982003e-39
0.1133113652 -0.1757105142 0.2309900224 1.253028475e-39
-0.4510624707 -0.4373462796 -0.2314743549 1.253028475e-39
-0.2030746937 -0.1617079079 0.173382014 1.253028475e-39
0.2032358944 -0.1421928108 0.2515269816 1.253028475e-39
-0.2303067446 -0.2103594244 0.1748370379 1.070432279e-39
-0.2302890718 -0.1979545057 0.1623186022 1.070432279e-39
0.03920158744 -0.2958802581 0.4242244661 1.070432279e-39
0.1042582467 -0.2369769365 0.3688937128 1.070432279e-39
0.03334311396 -0.3582475483 0.3622906804 8.874787512e-40
-0.442984432 -0.4368665516 -0.05713789165 8.874787512e-40
-0.445292443 -0.4370036125 -0.1069483161 8.874787512e-40
0.1806552708 -0.1657603383 0.3275659084 8.874787512e-40
-0.4441384375 -0.436935097 -0.08204310387 7.045238224e-40
0.01270883437 -0.1961678714 0.2358883023 7.045238224e-40
-0.06578698754 -0.1553476155 0.1667620987 7.045238224e-40
0.2020046264 -0.4630931318 0.4236277342 7.045238224e-40
-0.4415208399 -0.4380702376 -0.2943332195 5.219290273e-40
0.03451480716 -0.3457741141 0.3746774197 5.219290273e-40
-0.1025163978 -0.3906213939 0.156752184 5.219290273e-40
-0.1877188087 -0.349435389 0.1607254148 5.219290273e-40
0.1989846081 -0.2912918627 0.3145801127 3.389740985e-40
0.01321507897 -0.2457533032 0.2984147072 3.389740985e-40
0.1995616108 -0.2912575901 0.3270327151 3.389740985e-40
0.04046173021 -0.2213821113 0.374018997 3.389740985e-40
-0.4533704817 -0.4374833703 -0.2812847495 1.56020571e-40
0.03478015214 -0.1597001255 0.1869006902 1.56020571e-40
0.03217141703 -0.3707210124 0.3499039114 1.56020571e-40
0.1960819066 -0.3038681149 0.2648355365 1.56020571e-40
0.033920113 -0.3582133055 0.374743253 6.490113838e-41
0.01262038574 -0.2581925392 0.2984805405 6.490113838e-41
0.04722446948 -0.1478478462 0.1737864316 6.490113838e-41
0.04095028713 -0.2833725214 0.4490638673 6.490113838e-41
0.01386284176 -0.1960993409 0.2607935369 2.496469266e-40
-0.2545476556 -0.1844100654 0.1634443998 2.496469266e-40
-0.1888639927 -0.1249429658 0.1725886613 2.496469266e-40
-0.1989737749 -0.3364092708 0.1737079918 2.496469266e-40
-0.1947190762 -0.4492256641 -0.3436074853 4.340353837e-40
-0.2397422493 -0.1352058947 0.1625851989 4.340353837e-40
0.1813295782 -0.3158574402 0.2281393409 4.340353837e-40
-0.1822924465 -0.4497782886 -0.3442033529 4.340353837e-40
0.06360479444 -0.1734999865 0.2333733141 6.184224396e-40
-0.2563317418 -0.2217276692 0.1636419296 6.184224396e-40
0.1517210454 -0.4609168768 0.4135583639 6.184224396e-40
0.1179273874 -0.1754363775 0.3306108713 6.184224396e-40
0.01496377867 -0.2332455963 0.3232541084 8.028094954e-40
0.04047942162 -0.2089772224 0.3615005612 8.028094954e-40
-0.1071555912 -0.4530597925 -0.3353256583 8.028094954e-40
-0.1634160131 -0.1136090085 0.1713311672 8.028094954e-40
-0.4678376913 -0.4357613027 -0.05594624579 9.871979525e-40
-0.2675866783 -0.208701551 0.1766245067 9.871979525e-40
0.03274841979 -0.3706867397 0.3623565137 9.871979525e-40
0.03878379241 -0.1842701435 0.299105823 9.871979525e-40
0.1907320023 -0.462471962 0.449128747 1.171585008e-39
0.2037356347 -0.4629903436 0.4609854817 1.171585008e-39
0.03588993847 -0.4090024531 0.2000743896 1.171585008e-39
-0.5152363181 -0.4334137142 -0.003752544522 1.171585008e-39
0.1648019403 -0.140603438 0.2284092009 1.355972064e-39
0.03651116043 -0.1595973372 0.2242585421 1.355972064e-39
-0.2119773924 -0.335890919 0.1618512273 1.355972064e-39
-0.1764992476 -0.3872713447 0.172779724 1.355972064e-39
-0.09068447351 -0.4036132097 0.1562222093 1.540360521e-39
-0.26996544 -0.2584583461 0.1768878847 1.540360521e-39
0.1949102134 -0.3163415492 0.2524487674 1.540360521e-39
-0.4808413684 -0.4352429509 -0.06780304015 1.540360521e-39
-0.2634238303 -0.1216271892 0.1761635989 1.724747577e-39
0.04161573946 -0.2213135958 0.3989242315 1.724747577e-39
-0.481995374 -0.4353114963 -0.09270822257 1.724747577e-39
-0.1497999877 -0.08928324282 0.1706036627 1.724747577e-39
0.0819164291 -0.3114364147 0.2329059541 1.909134633e-39
-0.003697987646 -0.4074816108 0.1520514339 1.909134633e-39
-0.1746532619 -0.08817797899 0.1717953086 1.909134633e-39
-0.07583484054 -0.1050382331 0.1670945585 1.909134633e-39
-0.1870799214 -0.08762534708 0.1723911315 2.09352309e-39
0.02632484771 -0.1718420982 0.2351607978 2.09352309e-39
-0.00186971575 -0.120793201 0.1635854542 2.09352309e-39
-0.2119331658 -0.0865200907 0.1735827774 2.09352309e-39
0.1552868634 -0.3396306038 0.2294626832 2.277910146e-39
0.1428602338 -0.3390779495 0.230058521 2.277910146e-39
0.04331136867 -0.2460206449 0.4613189399 2.277910146e-39
0.06419948488 -0.1610608101 0.2333074808 2.277910146e-39
-0.4961529672 -0.4348616302 -0.1294702441 2.462297202e-39
-0.3030824959 -0.1697260737 0.1782144457 2.462297202e-39
0.1801401824 -0.3407358527 0.2282710373 2.462297202e-39
0.03390242904 -0.3706182241 0.3872617483 2.462297202e-39
-0.4944219887 -0.434758842 -0.09211239964 2.646685659e-39
-0.2243598104 -0.08596745878 0.1741786003 2.646685659e-39
0.03916620836 -0.3206901252 0.4492613971 2.646685659e-39
-0.05098156631 -0.1061434969 0.1659029126 2.646685659e-39
0.02925102413 -0.3957022429 0.3126777709 2.830713982e-39
0.1131521538 -0.2873549163 0.3436560631 2.830713982e-39
0.009682304226 -0.2955786586 0.2737728953 2.830713982e-39
0.01115163416 -0.1089066416 0.1629237831 2.830713982e-39
0.1155951694 -0.4591904581 0.4402510524 3.015101038e-39
-0.5091567039 -0.4343432784 -0.1413270086 3.015101038e-39
0.1954695135 -0.328712225 0.2774198055 3.015101038e-39
-0.508579731 -0.4343090057 -0.1288744211 3.015101038e-39
-0.314914465 -0.1567342579 0.1787444353 3.199488094e-39
-0.3137250841 -0.1318558455 0.1786127388 3.199488094e-39
0.08964743465 -0.1497268528 0.2320499718 3.199488094e-39
0.1089096442 -0.2118929327 0.4434776902 3.199488094e-39
0.03885455057 -0.134650439 0.2490320206 3.383517819e-39
-0.2752380669 -0.09623042494 0.1641751528 3.383517819e-39
0.01258500852 -0.2830024064 0.3235174716 3.383517819e-39
0.1161721721 -0.4591561854 0.4527036548 3.383517819e-39
-0.5227373242 -0.4338591695 -0.1656364053 3.567904875e-39
-0.2107437849 -0.06164171919 0.1734510958 3.567904875e-39
-0.1461227238 -0.1250026524 0.1814263165 3.567904875e-39
0.119534567 -0.2621681094 0.4555978179 3.567904875e-39
0.107844092 -0.1499368101 0.3559802175 3.75229193e-39
-0.2995143533 -0.09509089589 0.1778193861 3.75229193e-39
0.1077025682 -0.2491762489 0.4561278224 3.75229193e-39
0.01550539955 -0.2580212057 0.3607435524 3.75229193e-39
-0.2498697042 -0.3590771556 0.17622298 3.936320254e-39
0.03719430417 -0.0851335004 0.1616004556 3.936320254e-39
-0.5137727261 -0.4346174002 -0.2409478277 3.936320254e-39
-0.5126187205 -0.4345488846 -0.2160426229 3.936320254e-39
0.115095444 -0.1383929253 0.2307924926 4.120708711e-39
0.01846117154 -0.2082301229 0.3729327917 4.120708711e-39
0.104782179 -0.2741574943 0.4189016521 4.120708711e-39
0.2073633671 -0.07992827892 0.2761029303 4.120708711e-39
-0.2611069679 -0.3336461186 0.1766871214 4.304737034e-39
0.108945027 -0.1870830655 0.4184407592 4.304737034e-39
0.1948748231 -0.3411514163 0.2774856389 4.304737034e-39
-0.3279181123 -0.1562158763 0.1668876559 4.304737034e-39
-0.3113462925 -0.08209905028 0.1783493757 4.48912409e-39
-0.05399925262 -0.4177103043 0.1545005739 4.48912409e-39
0.09255897999 -0.349306643 0.2325076461 4.48912409e-39
0.02344561741 -0.4208547473 0.2131886482 4.48912409e-39
-0.1604248583 -0.03900810331 0.1584835202 4.673152414e-39
0.02171460725 -0.4209575355 0.1758308113 4.673152414e-39
-0.3249446452 -0.09401990473 0.1665584445 4.673152414e-39
-0.1901152581 -0.4115971029 0.1735072285 4.673152414e-39
0.2102660686 -0.0673519969 0.3258475363 4.857539469e-39
-0.3237729371 -0.08154641837 0.1789451838 4.857539469e-39
0.1717967391 -0.09057250619 0.3277666867 4.857539469e-39
0.02402262017 -0.4208204746 0.2256412506 4.857539469e-39
-0.1906922609 -0.4116313756 0.161054641 5.041567793e-39
0.03890762106 -0.09743562341 0.2114767283 5.041567793e-39
0.1848181188 -0.07868595421 0.3271050155 5.041567793e-39
0.05296223611 -0.1356297731 0.2337716222 5.041567793e-39
0.01293571293 -0.07158905268 0.1627262533 5.225597518e-39
0.007898228243 -0.3328962326 0.2739704251 5.225597518e-39
-0.5290843844 -0.4342361093 -0.3026150465 5.225597518e-39
0.1423274577 -0.08974138647 0.2293374836 5.225597518e-39
0.1095397174 -0.1746438742 0.4183749259 5.409984573e-39
-0.3084347248 -0.2816788554 0.1788070351 5.409984573e-39
0.01961518079 -0.2081615925 0.3978380263 5.409984573e-39
-0.1716797948 -0.02598199248 0.1714660823 5.409984573e-39
0.01799915358 -0.3459908664 0.2360825837 5.594012897e-39
0.04006162658 -0.09736709297 0.2363819182 5.594012897e-39
0.1553487778 -0.07785482705 0.2286758125 5.594012897e-39
0.05918543786 -0.2220873684 0.4583794177 5.594012897e-39
-0.3527890742 -0.1675155461 0.1805977374 5.77804122e-39
0.03894300014 -0.07262577862 0.1864397973 5.77804122e-39
0.04233425856 -0.1220398918 0.3112291992 5.77804122e-39
-0.2349846959 -0.035692323 0.1620584577 5.77804122e-39
-0.3433358669 -0.2302641571 0.1803311408 5.962428276e-39
0.01568229683 -0.1339718848 0.2355590761 5.962428276e-39
0.01625929959 -0.1339376122 0.2480116785 5.962428276e-39
-0.349203229 -0.08047541976 0.1676842421 5.962428276e-39
0.05250594392 -0.08551479876 0.2232676446 6.1464566e-39
0.01783110201 -0.2454791814 0.3980355561 6.1464566e-39
-0.2089597285 -0.02432410233 0.173253566 6.1464566e-39
-0.3533837795 -0.1799547672 0.1806635857 6.1464566e-39
-0.3758405745 -0.1166877821 0.1690734327 6.330484923e-39
-0.3539784849 -0.1923939288 0.1807294339 6.330484923e-39
0.1107998639 -0.1001457796 0.3681694269 6.330484923e-39
0.1474762559 -0.3388038278 0.3296793699 6.330484923e-39
0.09953608364 -0.3116806448 0.3443835676 6.514514648e-39
0.03953769058 -0.06018656492 0.1863739491 6.514514648e-39
0.09824940562 -0.1864276379 0.456394434 6.514514648e-39
0.03470055014 -0.4338808358 0.200206086 6.514514648e-39
0.1044528335 -0.1005227119 0.2311907709 6.698542971e-39
-0.4001168311 -0.1155482605 0.182717666 6.698542971e-39
-0.2398041487 -0.3969816566 0.1633720994 6.698542971e-39
0.01606471464 -0.2703918517 0.3857146502 6.698542971e-39
0.07280145586 -0.1977615952 0.4576519132 6.882571295e-39
0.04457151145 -0.1715225577 0.411113441 6.882571295e-39
0.1113768667 -0.1001115143 0.3806220889 6.882571295e-39
-0.3545554876 -0.1924282014 0.1682768315 6.882571295e-39
0.04011469707 -0.0601522997 0.1988265961 7.066599618e-39
-0.3864831328 -0.07881753147 0.1694717258 7.066599618e-39
-0.07165431231 -0.005558924749 0.1541152149 7.066599618e-39
0.04181032628 -0.08485937119 0.2612213194 7.066599618e-39
0.1183451787 -0.2870465219 0.4557295144 7.250627941e-39
-0.2716699243 -0.02159521915 0.1637800932 7.250627941e-39
0.04236963764 -0.09723002464 0.2861923277 7.250627941e-39
-0.3776246607 -0.1540053785 0.1692709625 7.250627941e-39
0.05415162444 -0.1107513756 0.2336399257 7.434656265e-39
-0.2959462106 -0.02045569196 0.1774243265 7.434656265e-39
0.209165141 -0.03020574898 0.2633869648 7.434656265e-39
-0.2077703178 0.0005542691797 0.1731218696 7.434656265e-39
-0.1959207058 -3.262795508e-05 0.1600734591 7.618684588e-39
-0.09593059123 -0.004419397563 0.1677594483 7.618684588e-39
0.195007503 -0.02975591645 0.2266249657 7.618684588e-39
-0.1307226419 -0.06335929036 0.1805012822 7.618684588e-39
-0.2083473206 0.0005200020969 0.1606692821 7.802712912e-39
-0.3604404628 -0.05504442751 0.1681483835 7.802712912e-39
0.020786874 -0.1956881434 0.4102247655 7.802712912e-39
0.04513082281 -0.1838932037 0.4360844791 7.802712912e-39
0.1108352393 -0.07533590496 0.3431325555 7.986382503e-39
-0.02254243195 -0.02020863071 0.1517977566 7.986382503e-39
0.1114122421 -0.07530163974 0.3555851579 7.986382503e-39
0.01471979171 -0.03427143767 0.1625287235 7.986382503e-39
0.02929830924 -0.1096461192 0.2348315716 8.170410826e-39
-0.1182959825 -0.06391191483 0.1799054593 8.170410826e-39
0.09834670275 -0.3365590572 0.344515264 8.170410826e-39
0.01973900571 -0.1213270724 0.3102088571 8.170410826e-39
0.02400493063 -0.4332253933 0.2381596863 8.35443915e-39
0.01489301678 -0.2828653455 0.3733278513 8.35443915e-39
-0.3474191725 -0.04315783828 0.1674867123 8.35443915e-39
-0.03439208865 -0.01962173358 0.1648461819 8.35443915e-39
-0.4019009173 -0.1528658271 0.1829151958 8.538467473e-39
-0.3847167492 -0.05390489846 0.1817926317 8.538467473e-39
0.1535027921 -0.3769481778 0.229660213 8.538467473e-39
0.0412687026 -0.06008376554 0.223731786 8.538467473e-39
0.1659294814 -0.3775008023 0.229064405 8.722137064e-39
-0.1450424492 0.01023030654 0.1700769067 8.722137064e-39
-0.1326158196 0.009677674621 0.1694810838 8.722137064e-39
-0.01947757043 -0.08077216893 0.1752047092 8.722137064e-39
-0.2155632377 -0.4229310453 0.1747647226 8.906165387e-39
-0.423186034 -0.0771253854 0.1837117821 8.906165387e-39
-0.03437440097 -0.007216814905 0.1523277462 8.906165387e-39
-0.05675747991 -0.07911428064 0.176992178 8.906165387e-39
-0.3569519222 -0.2545899153 0.1810586452 9.089834978e-39
-0.1947490126 0.01244082674 0.1724601984 9.089834978e-39
0.09943878651 -0.1615492702 0.4562627375 9.089834978e-39
-0.08101607859 -0.06556981057 0.1781179905 9.089834978e-39
0.05474631488 -0.09831219167 0.2335740924 9.273863302e-39
0.01917969435 -0.1089564189 0.285237819 9.273863302e-39
0.04128639027 -0.04767884687 0.2112133503 9.273863302e-39
-0.4249524474 -0.1020380482 0.1713908762 9.273863302e-39
-0.4243577421 -0.08959886432 0.1713250428 9.457532893e-39
0.05429001898 -0.04819720984 0.2230701149 9.457532893e-39
-0.4030902982 -0.1777442396 0.1830468774 9.457532893e-39
0.02863864228 -0.4205463529 0.3252620995 9.457532893e-39
-0.09531821311 0.02042476833 0.1551751792 9.641561216e-39
-0.1698780358 0.02374054492 0.1587501168 9.641561216e-39
-0.03379739821 -0.007182547823 0.1647803336 9.641561216e-39
-0.3558866978 -0.1470252275 0.2170281708 9.641561216e-39
0.09321558475 -0.07509168237 0.2316549122 9.825230807e-39
0.04130408168 -0.03527389839 0.1986949146 9.825230807e-39
-0.1195944995 0.02156428993 0.1688194126 9.825230807e-39
-0.1297484636 -0.4392729402 0.1582072079 9.825230807e-39
0.03314274549 -0.2458604723 0.45970276 1.000925913e-38
-0.2190075815 0.02598533034 0.1735860109 1.000925913e-38
-0.3457146287 -0.2800209522 0.1805945039 1.000925913e-38
-0.4101470411 -0.05283390731 0.1705316752 1.000925913e-38
0.1136848778 -0.099974446 0.4304324389 1.019292872e-38
0.06096951663 -0.1847697496 0.4581818879 1.019292872e-38
-0.3965486884 -0.04091305286 0.1823226064 1.019292872e-38
0.009034542367 -0.3452326655 0.3113940358 1.019292872e-38
-0.4036850035 -0.1901834309 0.1831127256 1.037659831e-38
0.1730391979 -0.02847932279 0.2900796235 1.037659831e-38
-0.008944112808 -0.008287807927 0.1635886878 1.037659831e-38
0.1220283136 -0.3501378 0.3309368491 1.037659831e-38
-0.3196100891 0.005527937785 0.1784842908 1.056062664e-38
-0.4468499422 -0.05114175007 0.1847717464 1.056062664e-38
-0.3835273683 -0.02902649716 0.1816609353 1.056062664e-38
0.1250283122 -0.05097587779 0.3548576236 1.056062664e-38
0.1096016914 -0.3495851755 0.3315326869 1.074429623e-38
0.1594585627 -0.02799522877 0.2657702565 1.074429623e-38
0.04188108444 -0.03523963317 0.2111475021 1.074429623e-38
0.00348251313 -0.008840437047 0.1629928648 1.074429623e-38
-0.3113905191 -0.3314698935 0.1666178256 1.092796582e-38
0.02071611583 -0.2453078479 0.460298568 1.092796582e-38
0.02323640138 -0.09631163627 0.3598875999 1.092796582e-38
-0.2059862614 0.03787188604 0.1729243398 1.092796582e-38
-0.2770840824 -0.3953237534 0.1651595682 1.111163541e-38
-0.306588769 0.01741449535 0.1778226197 1.111163541e-38
-0.08171984553 0.03234558553 0.1669660956 1.111163541e-38
-0.2314165533 0.03894288093 0.1616633981 1.111163541e-38
-0.4273312092 -0.1517948508 0.1716542542 1.1295305e-38
-0.4042620063 -0.1902177036 0.1706601381 1.1295305e-38
0.04245808721 -0.03520536423 0.2236001045 1.1295305e-38
-0.05556809157 -0.05423588306 0.1768604964 1.1295305e-38
0.04693258926 -0.134170711 0.4233685136 1.147897319e-38
0.04359440133 -0.04754178226 0.2610237896 1.147897319e-38
-0.1929649264 0.0497584343 0.1722626686 1.147897319e-38
0.04913752526 -0.1717779338 0.4587118626 1.147897319e-38
-0.06929323077 0.03179295734 0.1663702726 1.166264278e-38
-0.3125975728 -0.3687532246 0.1792679429 1.166264278e-38
-0.3238348365 -0.3433221877 0.1797320843 1.166264278e-38
-0.1670283824 -0.437615037 0.1599946767 1.166264278e-38
0.01650386676 0.003046117723 0.1623311937 1.184631237e-38
-0.02075835317 0.01710898802 0.1516002268 1.184631237e-38
0.007285845466 -0.3577403724 0.2865546942 1.184631237e-38
-0.2432484925 0.05193468928 0.1621933728 1.184631237e-38
0.02167923003 -0.4457674325 0.2008677423 1.202998196e-38
0.04249346629 -0.01039552782 0.198563233 1.202998196e-38
-0.4285382926 -0.1890781522 0.1843043715 1.202998196e-38
0.103575103 -0.3114407957 0.4315517843 1.202998196e-38
0.02433733828 -0.1334578842 0.4223481417 1.221365155e-38
-0.06740006059 -0.04124406353 0.1773904711 1.221365155e-38
0.1936677545 -0.3784347177 0.290135771 1.221365155e-38
0.01865575835 -0.07177589834 0.2352298796 1.221365155e-38
0.02437271923 -0.108648017 0.3973112702 1.239732115e-38
-0.03033535182 -0.4436939657 0.1534406096 1.239732115e-38
-0.0444399491 0.03068769723 0.1651786268 1.239732115e-38
-0.379550606 -0.1210415959 0.2180881351 1.239732115e-38
-0.2935497463 0.0417060256 0.1646425128 1.258099074e-38
0.1156282127 -0.3877294958 0.23151353 1.258099074e-38
0.03730558977 -0.158786118 0.4592418671 1.258099074e-38
0.02269477956 -0.0715360269 0.3223981261 1.258099074e-38
-0.0173317194 -0.4442123175 0.165297389 1.276466033e-38
0.1487629414 -0.02733980119 0.3037238717 1.276466033e-38
-0.3574669957 0.007151560858 0.1678191721 1.276466033e-38
-0.04254677892 -0.04234932363 0.1761988252 1.276466033e-38
0.05719272792 -0.03562092781 0.2728147209 1.294832852e-38
0.08197834343 -0.0496606566 0.2321190536 1.294832852e-38
-0.3562953174 0.01962501183 0.1802059114 1.294832852e-38
-0.3131745756 -0.3687874973 0.1668153554 1.294832852e-38
0.04362978041 -0.02273191512 0.2359868586 1.313163938e-38
0.02096376941 -0.07163883001 0.2850402892 1.313163938e-38
0.127913326 -0.05080454424 0.4171206653 1.313163938e-38
-0.4450658858 -0.01382413507 0.1845742166 1.313163938e-38
0.06955171376 -0.04910802469 0.2327148914 1.331530897e-38
0.03011987731 0.02737192065 0.1616036892 1.331530897e-38
0.1029804125 -0.3238800168 0.4316176176 1.331530897e-38
0.02456424385 -0.4455960989 0.263130784 1.331530897e-38
0.1363363117 -0.02678716928 0.3043196797 1.349897856e-38
0.04700334743 -0.0845509693 0.3732947111 1.349897856e-38
0.04312353581 0.02685355395 0.1734604537 1.349897856e-38
0.04366515949 0.002077924088 0.2109499723 1.349897856e-38
-0.1425225139 -0.1079696566 -0.06791736931 1.368228942e-38
0.01771094278 0.04032946378 0.1496810764 1.368228942e-38
0.02444347739 -0.05902828649 0.3472374678 1.368228942e-38
0.04702103883 -0.07214605063 0.3607762754 1.368228942e-38
-0.4066584408 -0.2523794174 0.183441937 1.386595901e-38
-0.3919772506 -0.1204889715 0.2186839581 1.386595901e-38
0.02155846357 -0.05919962004 0.2849744558 1.386595901e-38
-0.1179165244 -0.452264756 0.1576772183 1.386595901e-38
0.02018111199 -0.03267325833 0.1731538624 1.404926846e-38
0.04106839001 -0.3844137192 0.2350884676 1.404926846e-38
-0.3420846164 0.05638999492 0.1794125587 1.404926846e-38
0.09890601039 -0.348929733 0.3694863021 1.404926846e-38
-0.1054898649 -0.4528173804 0.1570813954 1.423293806e-38
-0.3480934203 -0.3297777176 0.1808578819 1.423293806e-38
0.05838210881 -0.01074255817 0.2726830244 1.423293806e-38
0.05950073898 -0.0354838632 0.3226251304 1.423293806e-38
0.009016854689 -0.3576375842 0.3239125311 1.441624891e-38
0.04759804159 -0.07211178541 0.373228848 1.441624891e-38
-0.1448659003 -0.1329165846 -0.09269087017 1.441624891e-38
-0.3143639863 -0.39366588 0.166947037 1.441624891e-38
0.06572706252 -0.08525618166 0.4576551318 1.459991851e-38
0.0250381697 -0.0465891026 0.3471716344 1.459991851e-38
-0.130672887 -0.1085565537 -0.08096578717 1.459991851e-38
0.02725773305 -0.1084766909 0.459574312 1.459991851e-38
-0.4433437288 -0.2382823229 0.1851635724 1.478322936e-38
0.03178015724 -0.4588620365 0.1629799306 1.478322936e-38
0.04483685642 0.01455143467 0.2233367264 1.478322936e-38
0.03235716 -0.4588277638 0.1754325181 1.478322936e-38
-0.1821458191 -0.1312586963 -0.09090340137 1.496689755e-38
-0.08273270726 -0.1356797367 -0.09566998482 1.496689755e-38
0.006349869072 -0.4577910602 0.151718989 1.496689755e-38
0.02675148845 -0.05889121816 0.3970479071 1.496689755e-38
0.02629525028 -0.4454932809 0.3004885614 1.515020841e-38
-0.3943560123 -0.1702457368 0.2189473361 1.515020841e-38
0.1025183871 -0.02492368221 0.3808228374 1.515020841e-38
0.1456921846 -0.3761214316 0.3298768997 1.515020841e-38
0.04821042344 -0.04726765305 0.3606445789 1.533351927e-38
0.06293049455 -0.02340285853 0.3327998817 1.533351927e-38
-0.1794727147 -0.4494673312 0.1731089354 1.533351927e-38
-0.3961578012 -0.2199682742 0.2316633016 1.533351927e-38
0.02687225305 -0.445459038 0.312941134 1.551683013e-38
0.006096458994 -0.3826187849 0.2866863906 1.551683013e-38
0.02281554602 -0.4581038058 0.238291353 1.551683013e-38
0.025632862 -0.03414991871 0.3471058011 1.551683013e-38
0.02332485095 -0.03428698331 0.2972953618 1.570049832e-38
-0.395545423 -0.1951241344 0.2190790176 1.570049832e-38
0.07775358111 -0.3985107839 0.233366847 1.570049832e-38
0.04826349393 -0.01005286351 0.3230892718 1.570049832e-38
0.09066876024 -0.02433678508 0.3938712478 1.588380918e-38
-0.4174252152 -0.131822899 0.2199414521 1.588380918e-38
-0.4557526708 -0.2253247499 0.1732409596 1.588380918e-38
-0.4047948122 0.05911888182 0.1699390858 1.588380918e-38
0.02276553959 -0.02191630006 0.2723243237 1.606712004e-38
0.04936442897 -0.04719911516 0.3855498135 1.606712004e-38
0.02904180996 -0.07115910202 0.4593767822 1.606712004e-38
-0.1335932761 -0.1335377544 -0.1181919128 1.606712004e-38
-0.4166444242 0.05970577151 0.1829875112 1.625043089e-38
-0.4321064353 -0.26371333 0.1846994311 1.625043089e-38
-0.02002250589 -0.1384086311 -0.08619651198 1.625043089e-38
0.004347763956 -0.3951264918 0.261847049 1.625043089e-38
0.06132019311 0.02664359286 0.2973906696 1.643374035e-38
0.03325466067 -0.4202722311 0.4248829186 1.643374035e-38
0.09297123551 -0.1433137506 -0.06665371358 1.643374035e-38
0.008999164216 -0.3700425029 0.3364309669 1.643374035e-38
-0.4290710986 0.06025840342 0.1835833341 1.661705121e-38
0.06189719588 0.02667785808 0.309843272 1.661705121e-38
0.06133788079 0.03904850781 0.2848722339 1.661705121e-38
-0.4079720676 -0.1945714951 0.2196748406 1.661705121e-38
0.07881914079 -0.02374988794 0.4069196582 1.680036207e-38
0.1053978652 -0.14386639 -0.06724953651 1.680036207e-38
0.102368027 -0.3487241268 0.4442019761 1.680036207e-38
-0.2537498772 -0.07815185189 -0.07513923198 1.680036207e-38
0.06754098088 -0.1422427595 -0.07791469246 1.698367293e-38
0.03150596842 -0.432779938 0.400043577 1.698367293e-38
-0.231257692 -0.1166089624 -0.08858594298 1.698367293e-38
-0.05492364615 -0.08699393272 -0.08467241377 1.698367293e-38
-0.3375927508 -0.2973665893 0.2290792465 1.716698239e-38
0.0929767713 -0.02419971675 0.4436816871 1.716698239e-38
-0.1832998246 -0.1313272268 -0.1158086061 1.716698239e-38
0.05570904166 -0.1292509139 -0.07738471031 1.716698239e-38
0.03176246956 -0.4712669551 0.1754983664 1.735029324e-38
0.05006526038 0.03966967016 0.3103732467 1.735029324e-38
0.05055381358 -0.02232071757 0.3854181468 1.735029324e-38
-0.006671447307 -0.4696775973 0.1523806453 1.735029324e-38
0.063557446 -0.02283908054 0.3972749114 1.75336041e-38
0.0262775626 -0.4578982294 0.3130069971 1.75336041e-38
0.03987900168 -0.4092921317 0.2352201641 1.75336041e-38
0.006655772682 -0.3949894309 0.3116573989 1.75336041e-38
-0.2549215555 -0.090625301 -0.08752597868 1.771655483e-38
0.0630158186 0.001936491579 0.359785378 1.771655483e-38
0.01502569113 -0.4081868529 0.2364118099 1.771655483e-38
-0.07916455716 -0.06104454026 -0.0960650444 1.771655483e-38
-0.05726704001 -0.1119408607 -0.1094459444 1.789986569e-38
-0.09276290238 -0.07296538353 -0.1078560054 1.789986569e-38
0.0516901277 -0.03465710208 0.4228417575 1.789986569e-38
-0.3865627348 -0.3529982269 0.1827770472 1.789986569e-38
0.06469376385 -0.03517546505 0.4346985221 1.808317654e-38
-0.3500193954 -0.2968139648 0.2296750695 1.808317654e-38
-0.4334377348 -0.2183103859 0.2334507704 1.808317654e-38
-0.3983946741 -0.3400064111 0.1833070219 1.808317654e-38
-0.4440802634 -0.1804401726 0.2338490635 1.826612727e-38
-0.3753254712 -0.3784292638 0.1823129058 1.826612727e-38
0.04327020794 -0.02198920026 0.4460649788 1.826612727e-38
0.06415213645 -0.01039989386 0.3972090781 1.826612727e-38
0.06471145153 -0.02277054638 0.4221800864 1.844943813e-38
-0.04660680145 -0.1374061555 -0.1223626733 1.844943813e-38
0.04384721071 -0.02195493504 0.4585175812 1.844943813e-38
-0.4547051787 -0.1301650107 0.2217289209 1.844943813e-38
-0.2297739387 -0.4596959949 0.1755580753 1.863274899e-38
-0.4463171959 -0.3004783094 0.1854927838 1.863274899e-38
-0.3989893794 -0.3524456024 0.1833728701 1.863274899e-38
0.05174319819 0.002557653934 0.3852864504 1.863274899e-38
-0.03418017179 -0.1379587948 -0.1229584962 1.881569971e-38
0.05176088959 0.01496263221 0.3727679551 1.881569971e-38
0.1023503393 -0.3611290455 0.4567204118 1.881569971e-38
-0.2928315699 -0.126216501 -0.06063579023 1.881569971e-38
0.1907296628 -0.4158208966 0.2654281259 1.899901057e-38
0.0664601475 -0.01026282832 0.4470194876 1.899901057e-38
-0.4570839405 -0.179921791 0.221992299 1.899901057e-38
-0.4350799024 -0.3259093165 0.1850286573 1.899901057e-38
-0.1433821917 -0.476003617 0.1714531481 1.91819627e-38
0.1054332405 -0.1190565228 -0.09228643775 1.91819627e-38
0.2166606337 -0.1488743126 -0.08506458253 1.91819627e-38
-0.2572649717 -0.1155722439 -0.1122995019 1.91819627e-38
0.1658000499 -0.1467323303 -0.1075864732 1.936527215e-38
0.03116777539 -0.4837061763 0.1755642146 1.936527215e-38
-0.2803518474 -0.08955430984 -0.09878695011 1.936527215e-38
-0.4109632075 -0.26917243 0.2325225025 1.936527215e-38
0.1675664335 -0.121819675 -0.0952655673 1.954822428e-38
0.01989515498 -0.4830850065 0.2010652721 1.954822428e-38
-0.05639570951 -0.4798720181 0.1672823876 1.954822428e-38
0.1136053354 -0.374155134 0.4437378347 1.954822428e-38
-0.4594627023 -0.2296785712 0.222255677 1.973153514e-38
-0.4362692833 -0.350787729 0.1851603389 1.973153514e-38
0.0563391149 -0.09200187027 -0.10248743 1.973153514e-38
0.02024855837 -0.06546557695 -0.1008316427 1.973153514e-38
0.1066226289 -0.09417812526 -0.09241813421 1.991448586e-38
-0.4599332213 -0.3248040676 0.1862203032 1.991448586e-38
0.06710790843 0.03939117491 0.4093982875 1.991448586e-38
-0.2185190022 -0.4727221131 0.1625754982 1.991448586e-38
-0.2933731973 -0.1014408916 -0.09812529385 2.009743799e-38
0.05466359109 0.02753888443 0.4225125313 2.009743799e-38
-0.3167604208 -0.4558275938 0.1797288507 2.009743799e-38
0.02779051103 -0.3578132689 0.4602953494 2.009743799e-38
-0.3399715126 -0.3471233845 0.2293426096 2.028074885e-38
-0.2821182609 -0.1144669801 -0.111107856 2.028074885e-38
0.1439080983 -0.4134390354 0.3300744295 2.028074885e-38
0.1563291848 -0.09638863802 -0.09480142593 2.028074885e-38
0.2155066282 -0.148942858 -0.1099697649 2.046369957e-38
0.1687558144 -0.09694126248 -0.09539724886 2.046369957e-38
-0.3512087762 -0.3216923773 0.229806751 2.046369957e-38
0.2172730118 -0.1240301877 -0.09764885902 2.046369957e-38
-0.4611225724 -0.3496824503 0.1863519847 2.06466517e-38
0.1569238752 -0.08394944668 -0.09486727417 2.06466517e-38
0.06447575986 -0.3719103634 0.4585737288 2.06466517e-38
-0.2945449054 -0.1139143556 -0.1105120331 2.06466517e-38
0.0118664857 -0.3822761178 0.4112124145 2.082996116e-38
0.0520491302 -0.3713577092 0.4591695368 2.082996116e-38
-0.280652225 -0.469958961 0.1655546278 2.082996116e-38
0.1918659806 -0.4281572998 0.3028517365 2.082996116e-38
-0.4003029466 -0.2946377099 0.2196057737 2.101291328e-38
0.2184623927 -0.09915179014 -0.09778054059 2.101291328e-38
0.101160951 -0.386007458 0.4568520784 2.101291328e-38
0.1427485645 -0.095904544 -0.1191108227 2.101291328e-38
-0.20611009 -0.4856796563 0.174498111 2.119586541e-38
0.1445149481 -0.07099187374 -0.106789887 2.119586541e-38
0.1805933565 -0.42753613 0.328352809 2.119586541e-38
0.03868962079 -0.4341704845 0.2353518605 2.119586541e-38
0.1918604374 -0.1105542481 -0.1214282662 2.137881613e-38
0.2143526226 -0.1490113884 -0.1348749846 2.137881613e-38
-0.3672035635 -0.3957749009 0.2307976335 2.137881613e-38
0.2161190063 -0.1240987182 -0.1225540787 2.137881613e-38
0.1557400376 -0.4264308512 0.3295444548 2.156176826e-38
0.1309166253 -0.08291272819 -0.1185808331 2.156176826e-38
0.09593255073 -0.4111257195 0.3698154986 2.156176826e-38
0.1433432549 -0.08346535265 -0.119176656 2.156176826e-38
0.03262459487 -0.4575212896 0.449985683 2.174471899e-38
0.1889223605 -0.1479403973 -0.146135956 2.174471899e-38
0.1800284982 -0.09756243229 -0.1208982915 2.174471899e-38
0.2042870671 -0.1111068726 -0.1220240891 2.174471899e-38
0.2267792374 -0.1495640129 -0.1354708076 2.192767111e-38
0.09650955349 -0.4110914469 0.3822681606 2.192767111e-38
0.03320159763 -0.4574870169 0.4624382854 2.192767111e-38
-0.08301538229 -0.5036794543 0.1561531276 2.192767111e-38
0.2137756199 -0.1490456462 -0.1473276019 2.211062324e-38
0.03029889055 -0.4700632691 0.4126936793 2.211062324e-38
0.003971099854 -0.5075478554 0.1519823521 2.211062324e-38
-0.07001172751 -0.5041978359 0.1680098921 2.211062324e-38
0.01184879802 -0.3946810365 0.4237308502 2.229357396e-38
-0.4612644613 -0.2794011235 0.2349716425 2.229357396e-38
0.00429469347 -0.4323412776 0.2994023561 2.229357396e-38
0.01242579985 -0.3946467638 0.4361834526 2.229357396e-38
-0.3808019161 -0.4076957703 0.2190067172 2.247652609e-38
-0.2439846694 -0.4964609742 0.176351428 2.247652609e-38
0.03843306005 -0.3956834972 0.4598970413 2.247652609e-38
0.4575154781 -0.2844216824 -0.133680433 2.247652609e-38
-0.4139366746 -0.3313683867 0.2328517139 2.265947681e-38
0.1747879535 -0.4526886344 0.2288636267 2.265947681e-38
0.4581101835 -0.271982491 -0.1337462813 2.265947681e-38
-0.4163154364 -0.3811252117 0.2331150919 2.265947681e-38
-0.413918972 -0.3189634979 0.2203332782 2.284242894e-38
0.1094955578 -0.4240147173 0.4066433609 2.284242894e-38
-0.4056905508 -0.4314003587 0.2452352345 2.284242894e-38
0.02447579429 -0.5076207519 0.3257230222 2.284242894e-38
-0.4181171954 -0.4308477342 0.2458310574 2.302537966e-38
0.09764587134 -0.42342785 0.4196917713 2.302537966e-38
0.142124027 -0.4507566392 0.3302719593 2.302537966e-38
0.007179707289 -0.432169944 0.3616653681 2.302537966e-38
-0.4524059594 -0.3545889258 0.2347708791 2.320833179e-38
-0.357750386 -0.4585235119 0.230531022 2.320833179e-38
-0.4387722611 -0.3178582191 0.221524924 2.320833179e-38
0.02562979795 -0.5075522065 0.3506281972 2.320833179e-38
-0.4297719002 -0.4633274078 0.1727045178 2.339092378e-38
0.4865139723 -0.2108574808 -0.1228145212 2.339092378e-38
0.4622730315 -0.1849080771 -0.1342071742 2.339092378e-38
-0.4068622589 -0.4438738227 0.2328484803 2.339092378e-38
0.005431008525 -0.4446777105 0.3368260264 2.348204041e-38
0.1663826555 -0.4643010795 0.3291461468 2.348204041e-38
0.09705117345 -0.4358670413 0.4197576344 2.348204041e-38
0.4758890569 -0.1605823487 -0.1349346936 2.348204041e-38
0.1126193702 -0.4747353792 0.2568796873 2.348132155e-38
0.001933612861 -0.4696931541 0.2871472836 2.348132155e-38
0.1611719429 -0.4770144224 0.2295911312 2.348132155e-38
0.01239042077 -0.4194566309 0.4612203836 2.348132155e-38
-0.4553794265 -0.4167849123 0.2351000905 2.348060128e-38
0.1137733757 -0.4746668339 0.2817848623 2.348060128e-38
0.1883332133 -0.4779826105 0.2782099247 2.348060128e-38
0.1143503785 -0.4746325612 0.2942374647 2.348060128e-38
-0.4441598654 -0.4546208382 0.2471543849 2.347952368e-38
0.152784273 -0.4762219191 0.3173552454 2.347952368e-38
0.06522081047 -0.4723877907 0.3090733588 2.347952368e-38
0.1279310137 -0.4751166701 0.3185468912 2.347952368e-38
-0.4323278964 -0.4676126838 0.2466244102 2.347880341e-38
-0.4690131843 -0.4535155892 0.2483460307 2.347880341e-38
-0.4204959869 -0.4806044996 0.2460944355 2.347880341e-38
0.01121872757 -0.431930095 0.4488336444 2.347880341e-38
0.02967188135 -0.4706270993 0.3482186496 2.347808455e-38
-0.4459085763 -0.4671286047 0.2223150432 2.347808455e-38
0.0484809801 -0.4459929168 0.4595645964 2.347808455e-38
0.08168645948 -0.4727005363 0.3956457973 2.347808455e-38
0.03665916249 -0.3532013893 -0.2595439851 2.347700555e-38
-0.4098180234 -0.4936648905 0.2206592709 2.347700555e-38
-0.06275394559 -0.348780334 -0.2547773719 2.347700555e-38
0.07273954153 -0.4595373571 0.4584387839 2.347700555e-38
0.0319798924 -0.4704900384 0.398029089 2.347628668e-38
0.03255689517 -0.4704557657 0.4104816914 2.347628668e-38
0.07337979227 -0.3424885571 -0.2863025069 2.347628668e-38
-0.0005853385665 -0.326733619 -0.2827934027 2.347628668e-38
0.1094247922 -0.4736344814 0.4567171633 2.347520768e-38
-0.02543865331 -0.3256283402 -0.2816017568 2.347520768e-38
0.008280642331 -0.4693162441 0.4241259098 2.347520768e-38
0.008857644163 -0.4692819715 0.4365785122 2.347520768e-38
0.09763834625 -0.356033057 -0.2874283195 2.347448882e-38
-0.1870026439 -0.3308490813 -0.2613376081 2.347448882e-38
0.02186127752 -0.4698003232 0.4484353364 2.347448882e-38
-0.2118736207 -0.3421487808 -0.2476274967 2.347448882e-38
-0.001162342262 -0.3267678916 -0.2952460349 2.347340982e-38
-0.261597842 -0.3523431718 -0.2327257544 2.347340982e-38
-0.2242648751 -0.3167862594 -0.2720685601 2.347340982e-38
-0.2000416517 -0.3551405966 -0.2481574714 2.347340982e-38
-0.1018179357 -0.3844400346 -0.2527923882 2.347269095e-38
0.04796716571 -0.3290126622 -0.3100818992 2.347269095e-38
0.02069976367 -0.4024740458 -0.2835899889 2.347269095e-38
-0.2870281339 -0.3512721956 -0.2439867109 2.347269095e-38
-0.1888044178 -0.3805716336 -0.2486216128 2.347161195e-38
0.02253690921 -0.3279416859 -0.3213428557 2.347161195e-38
-0.01474303287 -0.3262837827 -0.319555372 2.347161195e-38
-0.07932572812 -0.4228971303 -0.2662391067 2.347161195e-38
-0.2378455102 -0.3163021803 -0.2963779569 2.347089308e-38
-0.1402695477 -0.3952555656 -0.2633916736 2.347089308e-38
-0.1284376085 -0.4082474113 -0.2639216781 2.347089308e-38
-0.1526961923 -0.3947029412 -0.2627958655 2.347089308e-38
0.04681316018 -0.3290811777 -0.3349871337 2.346981408e-38
0.05742039531 -0.3917612731 -0.3103485107 2.346981408e-38
-0.1414589286 -0.4201339781 -0.2632600069 2.346981408e-38
-0.10475602 -0.421826154 -0.2775000632 2.346981408e-38
-0.1544802785 -0.4320205748 -0.2625983357 2.346909522e-38
-0.01532003563 -0.3263180256 -0.3320080042 2.346909522e-38
-0.2757201493 -0.3270834684 -0.2945246398 2.346909522e-38
-0.1302039921 -0.4331600964 -0.276242584 2.346909522e-38
0.09473564476 -0.3686092794 -0.3371728957 2.346801622e-38
-0.2888122201 -0.3885897696 -0.2437891811 2.346801622e-38
-0.2272560298 -0.3913871646 -0.259220928 2.346801622e-38
-0.2290401012 -0.4287047982 -0.2590233982 2.346801622e-38
-0.2047638148 -0.4298443198 -0.2726676166 2.346693862e-38
0.06928770244 -0.3799432516 -0.3359154165 2.346693862e-38
-0.1774433106 -0.3191681206 -0.3367148936 2.346693862e-38
-0.2768741548 -0.327151984 -0.3194298744 2.346693862e-38
-0.2165957838 -0.4168524742 -0.2721376419 2.346621835e-38
-0.2663199902 -0.427046895 -0.2572359145 2.346621835e-38
-0.2893361449 -0.3514092565 -0.2937971354 2.346621835e-38
-0.2520031631 -0.315852344 -0.333139956 2.346621835e-38
-0.2787466645 -0.4264942706 -0.2566400766 2.346514075e-38
-0.2898954749 -0.3390385807 -0.3187682033 2.346514075e-38
0.05691415071 -0.3421758115 -0.3728749156 2.346514075e-38
-0.06675758958 -0.3242103457 -0.3669825196 2.346514075e-38
0.2432169467 0.03363659233 0.4524881542 2.346406175e-38
0.2437939495 0.03367085755 0.4649407268 2.346406175e-38
-0.06735228002 -0.3366495073 -0.3669166863 2.346406175e-38
-0.2904901505 -0.351477772 -0.3187023401 2.346406175e-38
-0.3029521704 -0.3757350147 -0.2930696309 2.346334289e-38
0.2521815598 0.03287836164 0.377176702 2.346334289e-38
-0.1910239756 -0.3186840415 -0.3610242903 2.346334289e-38
-0.1550042033 -0.3948400319 -0.3126062751 2.346334289e-38
0.251604557 0.03284409642 0.3647240996 2.346226389e-38
-0.2531571686 -0.3159208894 -0.3580451608 2.346226389e-38
-0.01946519315 -0.4009874761 -0.344065547 2.346226389e-38
-0.05552031472 -0.3496413529 -0.367446661 2.346226389e-38
-0.2288985848 -0.3294653296 -0.3591709733 2.346118629e-38
0.2747268081 0.03163603693 0.3261746168 2.346118629e-38
0.2617231905 0.03215440363 0.3143178523 2.346118629e-38
-0.2798829973 -0.4141578674 -0.2940637469 2.346118629e-38
0.311429739 0.02994388342 0.3119345605 2.346010729e-38
0.1753137112 0.03605707735 0.3309412301 2.346010729e-38
-0.2170666456 -0.3424571753 -0.359700948 2.346010729e-38
-0.007615509443 -0.4015743732 -0.3571139872 2.346010729e-38
0.1487293988 0.03705953807 0.2947750986 2.345938842e-38
-0.2916618586 -0.3639512658 -0.3310891092 2.345938842e-38
0.1842783242 0.03529884666 0.2556297779 2.345938842e-38
0.1363027692 0.03761216998 0.2953709066 2.345938842e-38
0.2972720861 0.03039371222 0.2751725614 2.345830942e-38
0.1221451312 0.03806199878 0.2586089075 2.345830942e-38
0.1550764292 0.03743647039 0.4317537248 2.345830942e-38
0.1579614431 0.03760779649 0.4940167665 2.345830942e-38
0.1464213878 0.03692246974 0.2449646592 2.345723183e-38
0.1837013215 0.03526458144 0.2431771904 2.345723183e-38
-0.2425676733 -0.3910058737 -0.3208881021 2.345723183e-38
-0.007003128994 -0.376730293 -0.3696982563 2.345723183e-38
0.1042159051 0.03957845271 0.409231782 2.345615283e-38
0.1047929153 0.03961271793 0.421684444 2.345615283e-38
-0.2052346766 -0.3554489911 -0.3602309227 2.345615283e-38
0.08051660657 0.04075225443 0.4353286624 2.345615283e-38
0.2706877887 0.03139617294 0.239006415 2.345507523e-38
0.08340162039 0.04092358053 0.4975917041 2.345507523e-38
0.09556086361 0.0390644595 0.2224427164 2.345507523e-38
0.1571170688 0.03626704216 0.2070109993 2.345507523e-38
-0.2307180464 -0.3915927708 -0.3339365423 2.345399623e-38
0.2192502618 0.03350389749 0.2040318698 2.345399623e-38
0.05770392716 0.04068808258 0.2117775977 2.345399623e-38
-0.1809760928 -0.3689934611 -0.3613567352 2.345399623e-38
0.156540066 0.03623276949 0.1945584118 2.345291723e-38
-0.2306826711 -0.3667829633 -0.3589734435 2.345291723e-38
-0.0547128357 0.04562748224 0.2046874166 2.345291723e-38
0.1559630632 0.03619850427 0.1821058095 2.345291723e-38
0.03227363899 0.04175907373 0.2005166411 2.345219836e-38
0.1926659346 0.03450635076 0.1678657532 2.345219836e-38
-0.2685749531 -0.3899691701 -0.3446016908 2.345219836e-38
0.1548090577 0.03612997383 0.15720056 2.345219836e-38
0.2175192535 0.03340109438 0.1666740924 2.345111936e-38
-0.2934105396 -0.3764589727 -0.3559284806 2.345111936e-38
0.1169521064 0.03775360435 0.1465354413 2.345111936e-38
0.2045155615 0.03391946107 0.1548172683 2.345111936e-38
-0.1573122144 -0.3949770927 -0.3624166846 2.345004176e-38
-0.01974090561 0.04383252561 0.1530895084 2.345004176e-38
-0.02031790838 0.04379826039 0.1406369209 2.345004176e-38
-0.2659657001 0.05502218753 0.2148164213 2.345004176e-38
0.2039385587 0.03388519585 0.1423646808 2.344896276e-38
0.05424191058 0.0404824838 0.1370619833 2.344896276e-38
0.02938862517 0.04158774763 0.1382536292 2.344896276e-38
0.1536550522 0.03606144339 0.132295385 2.344896276e-38
-0.05817485228 0.04542188346 0.1299718022 2.344788516e-38
-0.1338886917 0.04866912961 0.1086414978 2.344788516e-38
0.04008427262 0.04093231261 0.1002999619 2.344788516e-38
-0.05990586057 0.0453190878 0.09261396527 2.344788516e-38
0.05077989399 0.04027688503 0.06234635785 2.344680616e-38
-0.03736058995 0.04407675564 0.04161188379 2.344680616e-38
0.06320652366 0.03972426057 0.06175053492 2.344680616e-38
-0.2321478128 0.05315870047 0.1383133382 2.344680616e-38
0.05020289123 0.04024261981 0.04989376664 2.344572857e-38
0.127070725 0.03706390411 0.0961291939 2.344572857e-38
-0.02551093325 0.04348985851 0.02856346592 2.344572857e-38
-0.1971758902 0.05136375129 0.08671543002 2.344572857e-38
-0.000657685101 0.04238460213 0.02737182006 2.344464957e-38
-0.02608793601 0.04345559329 0.01611087285 2.344464957e-38
-0.1367737055 0.04849779606 0.04637847468 2.344464957e-38
-0.2575781047 0.05422969162 0.1270523965 2.344464957e-38
-0.001234687865 0.04235033691 0.01491922699 2.344357197e-38
0.1259167194 0.03699537367 0.07122401148 2.344357197e-38
-0.3411025703 0.0583036989 0.2059387714 2.344357197e-38
-0.08937513828 0.04615021497 -0.005815221928 2.344357197e-38
0.09990946203 0.0380320996 0.04751047119 2.344249297e-38
0.06147551537 0.03962145746 0.02439269796 2.344249297e-38
0.1377663463 0.03640847653 0.05817559361 2.344249297e-38
-0.2350328267 0.05298737437 0.07605031133 2.344249297e-38
0.1501930356 0.03585584462 0.05757976696 2.344141397e-38
-0.1746306121 0.05012141913 0.03571335599 2.344141397e-38
0.1371893436 0.03637421131 0.04572299868 2.344141397e-38
0.1241857111 0.03689257056 0.03386617079 2.344141397e-38
-0.319134295 0.05702710897 0.1424840987 2.344033637e-38
0.04731787741 0.04007128626 -0.01236928534 2.344033637e-38
-0.1876342744 0.05063978583 0.02385658771 2.344033637e-38
-0.200060904 0.05119241774 0.02445241064 2.344033637e-38
0.04674087465 0.04003702104 -0.02482187748 2.343925737e-38
-0.4026587605 0.06110111624 0.2213704884 2.343925737e-38
0.05916750431 0.03948439658 -0.02541770414 2.343925737e-38
-0.1283860952 0.04770530015 -0.0413855575 2.343925737e-38
-0.2728897333 0.05461099744 0.06538519263 2.343817977e-38
-0.03012695536 0.0432157293 -0.07105736434 2.343817977e-38
-0.3564141989 0.05868499726 0.1442715824 2.343817977e-38
-0.1887882799 0.05057125539 -0.001048628241 2.343817977e-38
0.02015658095 0.04103948176 -0.06098803878 2.343710077e-38
-0.2853163779 0.05516362935 0.06598101556 2.343710077e-38
0.09644744545 0.03782650083 -0.02720517665 2.343710077e-38
0.00657594949 0.04152357578 -0.08529742807 2.343710077e-38
-0.3806904852 0.05982452631 0.1579158157 2.343566444e-38
-0.2260681987 0.05222914368 0.0007388442755 2.343566444e-38
-0.2017919123 0.05108962208 -0.01290539745 2.343566444e-38
0.01900257543 0.04097095132 -0.085893251 2.343566444e-38
-0.08098754287 0.04535771906 -0.09357928485 2.343458544e-38
-0.2864703834 0.05509509146 0.04107577354 2.343458544e-38
-0.08156453073 0.04532344639 -0.1060318798 2.343458544e-38
-0.1786696315 0.04988155514 -0.05145485699 2.343458544e-38
-0.2751977444 0.05447392911 0.01557476167 2.343350644e-38
-0.1910962909 0.05043418705 -0.05085902661 2.343350644e-38
-0.4298200607 0.06206931174 0.1727517098 2.343350644e-38
-0.4072747827 0.06082698703 0.1217496246 2.343350644e-38
-0.2153725624 0.05157370865 -0.03721478954 2.343242884e-38
-0.3119006753 0.05616608262 0.02981482819 2.343242884e-38
-0.179823637 0.0498130247 -0.07636006922 2.343242884e-38
0.004267938435 0.04138650745 -0.13510786 2.343242884e-38
-0.04543862864 0.04359702766 -0.1327245682 2.343134984e-38
-0.3717258573 0.05906630307 0.08260437846 2.343134984e-38
-0.1442747414 0.0480523333 -0.1155053526 2.343134984e-38
-0.3006280363 0.05554492027 0.004313789308 2.343134984e-38
-0.3604532182 0.05844513327 0.05710330978 2.343027224e-38
-0.1691280156 0.04915758967 -0.1143137068 2.343027224e-38
-0.1928272992 0.05033139139 -0.08821687102 2.343027224e-38
-0.361030221 0.05841086805 0.04465071484 2.343027224e-38
-0.2052539289 0.05088402331 -0.08762104064 2.342919324e-38
-0.1939813048 0.0502628535 -0.113122046 2.342919324e-38
-0.2058309317 0.05084975064 -0.1000736356 2.342919324e-38
-0.1578553766 0.04853643477 -0.1398147345 2.342919324e-38
-0.4462856948 0.06238207966 0.08617932349 2.342811565e-38
-0.4344360828 0.06179518253 0.07313090563 2.342811565e-38
-0.2312612236 0.0519207418 -0.1113345772 2.342811565e-38
-0.3994641304 0.0600002259 0.02153300121 2.342811565e-38
-0.3757648766 0.05882643908 -0.004563857801 2.342703665e-38
-0.1838626564 0.04957316071 -0.1635283083 2.342703665e-38
