# .PCD v0.7 - Point Cloud Data file format
VERSION 0.7
FIELDS x y z rgb
SIZE 4 4 4 4
TYPE F F F F
COUNT 1 1 1 1
WIDTH 837
HEIGHT 1
VIEWPOINT 0 0 0 1 0 0 0
POINTS 837
DATA ascii
0.2035086751 -0.3898096979 0.04610372707 5.090401643e-39
0.1861522198 -0.326153785 -0.1670091599 5.090401643e-39
-0.05883917212 -0.3773511946 -0.2176460177 4.907806848e-39
-0.2458021641 -0.4817602634 0.2805393338 4.907806848e-39
0.2860655189 -0.3752524853 0.2869101167 4.907806848e-39
0.05869250372 -0.3312492371 -0.2466415167 4.907806848e-39
0.1054798663 -0.3097357154 -0.254516542 4.907806848e-39
0.2965741456 -0.3576030135 0.2932135463 4.907806848e-39
0.2090007812 -0.4017837942 0.137138024 4.907806848e-39
-0.2233414352 -0.4818768501 0.2238481343 4.907806848e-39
0.1899911761 -0.3999223709 0.298517406 4.725212053e-39
-0.1986979544 -0.4802986383 0.2219820172 4.725212053e-39
0.1980520934 -0.4055664241 0.1608296931 4.725212053e-39
-0.1061190218 -0.3092778027 0.3228414357 4.725212053e-39
0.1606565118 -0.4341742694 0.02330090664 4.725212053e-39
-0.1445280761 -0.3905566931 -0.2204225063 4.725212053e-39
0.1751255393 -0.4039596319 -0.1285674274 4.725212053e-39
0.2003580928 -0.3976866007 0.2363419086 4.725212053e-39
-0.0841691792 -0.3774326146 -0.2271592021 4.542257124e-39
0.1647844166 -0.3938187659 0.3096913993 4.542257124e-39
0.1868387312 -0.327650547 -0.1556298584 4.542257124e-39
0.0002699214965 -0.3550485969 -0.226454109 4.542257124e-39
-0.02593957074 -0.350436002 0.3276000917 4.542257124e-39
0.1981398016 -0.3716505766 -0.02424344793 4.542257124e-39
-0.007998863235 -0.7622718811 0.05477201939 4.542257124e-39
0.2724939883 -0.3668630123 0.2857717872 4.542257124e-39
-0.05558224022 -0.315299958 0.321180582 4.359662329e-39
0.01778490096 -0.3028835952 0.3248901069 4.359662329e-39
0.1152185649 -0.7543809414 0.04544144869 4.359662329e-39
0.2472871691 -0.3607594073 0.2969457805 4.359662329e-39
0.1168261841 -0.4215739667 -0.08769284189 4.359662329e-39
-0.01273832191 -0.3543409109 -0.2369003594 4.359662329e-39
-0.0833023265 -0.7640129924 0.03761181235 4.359662329e-39
-0.01611742005 -0.331289798 0.3225242198 4.359662329e-39
-0.001296084374 -0.34885782 0.3257339597 4.177066133e-39
0.1822795719 -0.304803133 -0.1939105392 4.177066133e-39
0.1276237071 -0.2898004055 -0.260525465 4.177066133e-39
0.2119933069 -0.3954007626 0.2240295708 4.177066133e-39
0.1939330101 -0.3965858519 0.0925539583 4.177066133e-39
0.01227547601 -0.3572472632 0.326872319 4.177066133e-39
0.1635346264 -0.3846402168 0.3076199889 4.177066133e-39
-0.2486714423 -0.4819582701 0.2143349797 4.177066133e-39
0.1988618374 -0.4008781016 0.1928961277 3.994471337e-39
-0.2117062211 -0.4795909822 0.2115357965 3.994471337e-39
-0.04326051474 -0.3145108819 0.3202475309 3.994471337e-39
0.2958876193 -0.3561062515 0.2818342745 3.994471337e-39
0.01102567092 -0.3480687141 0.3248009086 3.994471337e-39
-0.1689775288 -0.3040447235 0.3254353106 3.994471337e-39
-0.2856366336 -0.4843255579 0.2171341479 3.994471337e-39
0.1932464838 -0.3950890899 0.0811746195 3.994471337e-39
-0.08348266035 -0.3789293766 -0.2157799006 3.81151781e-39
0.1388911009 -0.3862184286 0.3094861209 3.81151781e-39
0.1514972448 -0.7505168915 0.03126299381 3.81151781e-39
0.09057505429 -0.7559590936 0.04730755091 3.81151781e-39
0.1510174423 -0.2790436447 -0.2644630075 3.81151781e-39
0.188741371 -0.3907438219 0.2964459956 3.81151781e-39
-0.0697170943 -0.299228698 0.3293501139 3.81151781e-39
0.2104970515 -0.3985922933 0.1805838048 3.81151781e-39
0.1690701246 -0.3843037486 -0.2102938592 3.628921614e-39
0.1744110882 -0.2682869136 -0.2684005201 3.628921614e-39
0.1998132914 -0.3807761669 0.293441534 3.628921614e-39
0.1622848213 -0.375461638 0.3055485785 3.628921614e-39
-0.09580439329 -0.3797184825 -0.2148468345 3.628921614e-39
0.2511069775 -0.420717001 0.2111033648 3.628921614e-39
-0.04776724428 -0.3673835397 -0.2206504643 3.628921614e-39
0.1386956424 -0.2798327506 -0.2635299265 3.628921614e-39
0.1829660833 -0.306299895 -0.1825312525 3.446326818e-39
0.01834818721 -0.3105653822 0.3155822456 3.446326818e-39
0.2232070118 -0.3700194061 0.2895040214 3.446326818e-39
0.1029802561 -0.2913785875 -0.2586593628 3.446326818e-39
0.1620893627 -0.2690759897 -0.267467469 3.446326818e-39
0.19898507 -0.3946931064 0.2135833502 3.446326818e-39
-0.2123927474 -0.4780942202 0.2001564652 3.446326818e-39
0.1751698405 -0.3823543489 0.2953076363 3.446326818e-39
-0.200071007 -0.4773051143 0.1992233992 3.26337189e-39
0.1915211082 -0.3443128765 -0.09666199237 3.26337189e-39
0.179931134 -0.4144369364 -0.04891237989 3.26337189e-39
0.1545905471 -0.2140046656 -0.2798958719 3.26337189e-39
-0.1602365077 -0.4747398198 0.2626286447 3.26337189e-39
0.1022102684 -0.753673315 0.03499522805 3.26337189e-39
0.1813041568 -0.4174304605 -0.0261537917 3.26337189e-39
0.009405534714 -0.3344056308 -0.2429092824 3.26337189e-39
-0.0730972141 -0.3674649894 -0.2301636636 3.080777095e-39
0.1694118679 -0.2315726876 -0.276686132 3.080777095e-39
0.2090721875 -0.3539481461 0.2976735532 3.080777095e-39
0.2056914568 -0.388114959 0.100928776 3.080777095e-39
-0.05934534967 -0.7609379888 0.02436636388 3.080777095e-39
0.1817162931 -0.297121346 -0.184602648 3.080777095e-39
0.0775668174 -0.7552514672 0.03686134517 3.080777095e-39
0.1968023032 -0.3963878453 0.1587582976 3.080777095e-39
0.1570901424 -0.2323617637 -0.2757530808 2.898180898e-39
0.1739200354 -0.3731757998 0.2932362556 2.898180898e-39
-0.009371889755 -0.7592784166 0.03201347589 2.898180898e-39
0.1745343208 -0.2621018589 -0.2477133274 2.898180898e-39
0.2521980107 -0.408349812 -0.01327273063 2.898180898e-39
0.03154943883 -0.3144702911 -0.2489182055 2.898180898e-39
0.2099337578 -0.3909104764 0.1898916811 2.898180898e-39
-0.2130792737 -0.4765974581 0.1887771785 2.898180898e-39
0.2226816118 -0.739795208 -0.01985253394 2.715227371e-39
0.1928941309 -0.3473064005 -0.07390340418 2.715227371e-39
0.1447684169 -0.2331508696 -0.2748199999 2.715227371e-39
0.2000266463 -0.6904021502 -0.3953691721 2.715227371e-39
0.1940562427 -0.3904007971 0.1132411137 2.715227371e-39
0.02116397396 -0.3259347081 -0.2345344275 2.715227371e-39
0.1720347106 -0.2437447608 -0.2518561184 2.715227371e-39
0.1578999013 -0.2276735008 -0.2436866015 2.715227371e-39
-0.02630988136 -0.3459514678 -0.2380387038 2.532632576e-39
-0.2746879458 -0.4805429578 0.1934424639 2.532632576e-39
-0.002916196361 -0.3351947069 -0.2419762164 2.532632576e-39
0.1869619489 -0.3214655221 -0.1349426657 2.532632576e-39
0.2933880091 -0.3377491534 0.2776914537 2.532632576e-39
0.1361960322 -0.2614756525 -0.2676727474 2.532632576e-39
0.2324658334 -0.3431913853 0.2937360108 2.532632576e-39
0.1746575385 -0.2559168339 -0.2270261347 2.532632576e-39
-0.1327695996 -0.3820857704 -0.2120476663 2.349677647e-39
0.172721222 -0.2452415228 -0.2404768467 2.349677647e-39
0.1197831556 -0.3874601424 -0.206561625 2.349677647e-39
-0.1637922823 -0.4734410644 0.1850449443 2.349677647e-39
0.06891223788 -0.4277238548 -0.06120203808 2.349677647e-39
0.2100569904 -0.3847254515 0.2105788887 2.349677647e-39
0.1402198374 -0.4108172059 -0.09163035452 2.349677647e-39
0.2343169004 -0.7375093699 -0.03216487169 2.349677647e-39
-0.084732458 -0.3697508276 -0.2178512961 2.167082852e-39
0.0969882682 -0.433629483 -0.006171697751 2.167082852e-39
0.01922765374 -0.315259397 -0.2479851395 2.167082852e-39
0.1238743067 -0.2622647285 -0.2667396665 2.167082852e-39
0.1785301715 -0.2772674859 -0.2001247406 2.167082852e-39
0.1850256324 -0.3107901812 -0.1483933926 2.167082852e-39
0.1331331283 -0.2354367375 -0.2625076473 2.167082852e-39
0.1226245016 -0.2530861795 -0.2688110769 2.167082852e-39
-0.1457778662 -0.3813781142 -0.2224939167 1.984127923e-39
0.2498571724 -0.4115384519 0.2090319544 1.984127923e-39
-0.1938150227 -0.3937130868 -0.2166902721 1.984127923e-39
-0.01005840674 -0.7577816248 0.02063412964 1.984127923e-39
0.1370449364 -0.6913540959 -0.41346246 1.984127923e-39
-0.08328862488 -0.2908392549 0.3282117844 1.984127923e-39
0.1864029467 -0.7436592579 -0.005674079061 1.984127923e-39
0.2094936967 -0.3770436347 0.2198867649 1.984127923e-39
0.1698798835 -0.3796154559 -0.1782273948 1.801533128e-39
0.19495368 -0.3517966866 -0.03976553306 1.801533128e-39
-0.06071837246 -0.7579444647 0.00160780549 1.801533128e-39
0.09423165023 -0.2271286845 -0.2731591761 1.801533128e-39
0.05244348571 -0.2853564322 -0.256998539 1.801533128e-39
0.09904781729 -0.4381197691 0.02796619944 1.801533128e-39
0.1084896773 -0.2370149195 -0.2606415153 1.801533128e-39
-0.07096689939 -0.290050149 0.3272787333 1.801533128e-39
0.1971719712 -0.3778327107 0.2208198309 1.618578199e-39
0.01797784865 -0.306080848 -0.250056535 1.618578199e-39
0.09548144042 -0.2363072634 -0.2710877657 1.618578199e-39
-0.08604838699 -0.7580259442 -0.007905364037 1.618578199e-39
0.183178857 -0.346347779 0.297468245 1.618578199e-39
-0.1093759537 -0.3713290393 -0.2159851789 1.618578199e-39
0.1431768239 -0.3767033815 -0.2104991376 1.618578199e-39
0.2441010475 -0.3409055471 0.2814236879 1.618578199e-39
0.07583715022 -0.2745996714 -0.2609360516 1.435982003e-39
0.1729676723 -0.232871443 -0.1991024762 1.435982003e-39
-0.02306664363 -0.7570739985 0.01018790901 1.435982003e-39
0.0290498361 -0.296113193 -0.2530609965 1.435982003e-39
0.1966086775 -0.3701509237 0.2301277071 1.435982003e-39
0.203068614 -0.3759428859 0.076098755 1.435982003e-39
0.08440952003 -0.2462749183 -0.2680833042 1.435982003e-39
0.09491817653 -0.2286254466 -0.2617798746 1.435982003e-39
0.1000797376 -0.6937214136 -0.4106633067 1.253028475e-39
0.1254096925 -0.6936399937 -0.4011501074 1.253028475e-39
0.0269068107 -0.7554143071 0.01783496141 1.253028475e-39
0.1714204252 -0.3548186719 0.2890934348 1.253028475e-39
0.231779322 -0.3416946232 0.282356739 1.253028475e-39
0.1773082912 -0.4022648633 -0.07374237478 1.253028475e-39
0.1008372381 -0.7506797314 0.01223661005 1.253028475e-39
0.07371783257 -0.438201189 0.01845300943 1.253028475e-39
0.2558594644 -0.3324346542 0.2897984982 1.070432279e-39
-0.05864513293 -0.2892610729 0.3263456523 1.070432279e-39
0.007592443377 -0.317545265 -0.2356727719 1.070432279e-39
0.04012176022 -0.2861455381 -0.2560654581 1.070432279e-39
0.08851551265 -0.7514687777 0.01316966116 1.070432279e-39
0.173090905 -0.2266863883 -0.1784152836 1.070432279e-39
0.2082438916 -0.3678650856 0.2178153694 1.070432279e-39
0.1384179592 -0.69434762 -0.3907038569 1.070432279e-39
0.07543621957 -0.6952996254 -0.4087971449 8.874787512e-40
0.1880008429 -0.3707449138 0.0315146707 8.874787512e-40
0.01672805101 -0.2969022989 -0.2521279454 8.874787512e-40
0.1941794604 -0.3842157722 0.1339282691 8.874787512e-40
-0.2126983553 -0.7584331036 -0.05547124147 8.874787512e-40
0.1832125485 -0.2939298451 -0.141156882 8.874787512e-40
0.2921382189 -0.3285706043 0.2756200433 8.874787512e-40
0.05726639554 -0.2294960022 -0.270359993 8.874787512e-40
-0.04908316582 -0.7556586266 -0.01070454717 7.045238224e-40
0.1959221661 -0.3686541617 0.2187484205 7.045238224e-40
0.2509482205 -0.399171263 -0.0153441336 7.045238224e-40
0.1260962188 -0.6951367259 -0.3897708058 7.045238224e-40
0.2502616942 -0.3976745009 -0.02672341466 7.045238224e-40
-0.0268731676 -0.3382696807 -0.2287307978 7.045238224e-40
0.09366837144 -0.2194468975 -0.263851285 7.045238224e-40
0.147340253 -0.3640786707 0.2816516757 7.045238224e-40
0.03847103566 -0.6976668835 -0.4059979916 5.219290273e-40
-0.08598226309 -0.3605722785 -0.2199227065 5.219290273e-40
0.1976997256 -0.3577837348 0.005751617718 5.219290273e-40
0.1807408631 -0.4097486734 -0.01684591547 5.219290273e-40
0.0152852945 -0.2845264673 0.3207473159 5.219290273e-40
0.2185270637 -0.7030838728 -0.2938885987 5.219290273e-40
0.00296356529 -0.2853155732 0.321680367 5.219290273e-40
-0.08397513628 -0.2893424928 0.3168325126 5.219290273e-40
-0.074413158 -0.7557400465 -0.02021770179 3.389740985e-40
0.1787766218 -0.2648973763 -0.1587503999 3.389740985e-40
0.1644344926 -0.6957629323 -0.3698114157 3.389740985e-40
0.02405062318 -0.259398967 -0.2613466382 3.389740985e-40
0.01741456613 -0.298399061 -0.2407486439 3.389740985e-40
0.001505792141 -0.7000341415 -0.4031988382 3.389740985e-40
0.0008903294802 -0.7539989948 -0.003057479858 3.389740985e-40
0.1512917578 -0.400849551 -0.09463481605 3.389740985e-40
-0.09974317253 -0.7558214664 -0.02973093092 1.56020571e-40
0.05920271948 -0.2401713133 -0.256909281 1.56020571e-40
0.004406321794 -0.297691375 -0.2511948943 1.56020571e-40
0.06380100548 -0.6975854635 -0.3964848518 1.56020571e-40
0.2674947679 -0.3301487863 0.2774861753 1.56020571e-40
0.04813079163 -0.2501389682 -0.2539048195 1.56020571e-40
0.2315708399 -0.7315223217 -0.07768204808 1.56020571e-40
0.290325135 -0.3117102385 0.282856524 1.56020571e-40
0.2480440736 -0.3946781158 0.2162684351 6.490113838e-41
0.2792532146 -0.3216778934 0.2858609855 6.490113838e-41
-0.03919489682 -0.3390587866 -0.2277977318 6.490113838e-41
0.1918240041 -0.7001718283 -0.3261603713 6.490113838e-41
0.2064308077 -0.3510047197 0.2250518352 6.490113838e-41
0.01172883809 -0.2601880431 -0.2604135573 6.490113838e-41
-0.1827431023 -0.3837454021 -0.2196947336 6.490113838e-41
0.0456311889 -0.2317818403 -0.2580476403 6.490113838e-41
0.2301978171 -0.7285287976 -0.1004406139 2.496469266e-40
-0.05220317096 -0.3383511007 -0.2382439822 2.496469266e-40
0.1917675436 -0.3319428265 -0.05528764799 2.496469266e-40
0.139790982 -0.6973411441 -0.3679452837 2.496469266e-40
0.196665138 -0.7383799553 -0.04074497521 2.496469266e-40
0.06902484596 -0.2210251093 -0.261985153 2.496469266e-40
-0.005979092792 -0.309155792 -0.2368111163 2.496469266e-40
-0.04113121331 -0.3283834457 -0.2412484586 2.496469266e-40
0.02553378418 -0.752420783 -0.004923611879 4.340353837e-40
-0.04778114706 -0.7031905651 -0.3994665742 4.340353837e-40
-0.03005928919 -0.3184157908 -0.2442529052 4.340353837e-40
-0.3222322166 -0.4681377411 0.2819948494 4.340353837e-40
0.1839874387 -0.2845503986 0.1887265146 4.340353837e-40
-0.1470276713 -0.3721995652 -0.2245653123 4.340353837e-40
0.0378555432 -0.7516317368 -0.005856662989 4.340353837e-40
0.05396767706 -0.4163408875 -0.08509895205 4.340353837e-40
0.02348734066 -0.2517171502 -0.2520387173 6.184224396e-40
0.1964499205 -0.3486051857 0.003680214752 6.184224396e-40
0.2780033946 -0.3124993443 0.2837895751 6.184224396e-40
0.2067476362 -0.3710566163 0.1743695885 6.184224396e-40
0.0002038162202 -0.752502203 -0.01443676651 6.184224396e-40
0.2669314742 -0.3224669695 0.2867940366 6.184224396e-40
0.1994952708 -0.3036151826 0.2033155411 6.184224396e-40
0.1833357662 -0.2877447903 -0.1204697266 6.184224396e-40
0.1777732819 -0.2433487773 -0.1194474325 8.028094954e-40
-0.1004296839 -0.7543247342 -0.04111020267 8.028094954e-40
-0.07491030544 -0.3506046236 -0.222927168 8.028094954e-40
0.2908884287 -0.3193920255 0.2735486329 8.028094954e-40
-0.08791857958 -0.3498969674 -0.2333734185 8.028094954e-40
-0.214071393 -0.7554395795 -0.07822985947 8.028094954e-40
0.06834895164 -0.4200420678 -0.0518941395 8.028094954e-40
0.1867510378 -0.3615663648 0.02944326587 8.028094954e-40
0.1460904479 -0.3549001217 0.2795802653 9.871979525e-40
0.01241535321 -0.2616848052 -0.2490342557 9.871979525e-40
-0.1338253915 -0.2848170996 0.3298726082 9.871979525e-40
0.1852372289 -0.2937289774 0.1907979101 9.871979525e-40
0.1878949255 -0.3105922043 -0.08218901604 9.871979525e-40
0.1795022786 -0.7009608746 -0.3252273202 9.871979525e-40
-0.2897557318 -0.4753449857 0.1488583535 9.871979525e-40
0.1404775083 -0.6988378763 -0.3565660119 9.871979525e-40
0.1871735454 -0.3044042885 0.2042486072 1.171585008e-39
0.1758369505 -0.2326734364 -0.132898137 1.171585008e-39
0.009229231626 -0.241830945 -0.2645563781 1.171585008e-39
0.1931970268 -0.7031652927 -0.3034017682 1.171585008e-39
0.2026813924 -0.3234690428 0.2188376337 1.171585008e-39
-0.001842694357 -0.2517986 -0.2615519166 1.171585008e-39
-0.2852669954 -0.4657704532 0.2791956961 1.171585008e-39
0.0560272187 -0.4208311439 -0.05096108094 1.171585008e-39
0.1817691177 -0.2585143745 -0.07185887545 1.355972064e-39
0.1654515564 -0.2441378534 -0.1185143739 1.355972064e-39
0.06972198188 -0.4230355918 -0.0291355513 1.355972064e-39
-0.0423810184 -0.3192048967 -0.2433198541 1.355972064e-39
0.182455644 -0.2600111365 -0.06047956273 1.355972064e-39
0.1841455102 -0.2830565274 -0.08840322495 1.355972064e-39
-0.05941639841 -0.7054764032 -0.3871542513 1.355972064e-39
-0.1215036362 -0.2840279937 0.3289395571 1.355972064e-39
0.1406772137 -0.3583462834 -0.2146419436 1.540360521e-39
0.1831421554 -0.2615078986 -0.04910027981 1.540360521e-39
0.09624019265 -0.3503746986 0.2926203907 1.540360521e-39
0.07749576122 -0.6997898817 -0.3746592999 1.540360521e-39
0.19299981 -0.2700924575 0.1515841633 1.540360521e-39
0.1866451204 -0.3014136553 -0.08426041901 1.540360521e-39
-0.02176463231 -0.7046058774 -0.3785741329 1.540360521e-39
0.1871380061 -0.2766734958 -0.001511700917 1.540360521e-39
0.2267652452 -0.7210450172 -0.1573370993 1.724747577e-39
0.1847088039 -0.2907383144 -0.09771113843 1.724747577e-39
0.1845151782 -0.2645014226 -0.02634169348 1.724747577e-39
0.1845507026 -0.2922322154 0.1794186383 1.724747577e-39
0.04438138381 -0.2226032913 -0.2601190507 1.724747577e-39
0.1942496151 -0.2792710364 0.1536555588 1.724747577e-39
0.1873316318 -0.3029104173 -0.07288113981 1.724747577e-39
0.1821743399 -0.2676900327 0.1959629804 1.724747577e-39
-0.02236643434 -0.2853969932 0.3121671975 1.909134633e-39
0.1862050593 -0.2875468135 -0.05426535383 1.909134633e-39
0.1047402769 -0.2094792426 -0.2668557465 1.909134633e-39
-0.1894279122 -0.7538613677 -0.08009598404 1.909134633e-39
0.1865747273 -0.2689917088 0.007796177175 1.909134633e-39
0.2422879636 -0.3240451813 0.2886601686 1.909134633e-39
-0.2147579044 -0.7539428473 -0.08960914612 1.909134633e-39
-0.01291462127 -0.2617662549 -0.2585474551 1.909134633e-39
0.2049345374 -0.3541962206 0.1816060543 2.09352309e-39
0.2165029794 -0.7263243794 -0.1222661734 2.09352309e-39
0.09050406516 -0.700497508 -0.3642130494 2.09352309e-39
0.2503849268 -0.391489476 -0.006036227569 2.09352309e-39
0.201994881 -0.3219722807 0.2074583471 2.09352309e-39
0.002593228593 -0.280831039 -0.2439583838 2.09352309e-39
0.1887046695 -0.3059039414 -0.05012254789 2.09352309e-39
-0.0527664572 -0.3306693137 -0.2289360762 2.09352309e-39
0.2005690038 -0.357585758 0.07195594907 2.277910146e-39
0.1954994053 -0.2884495854 0.1557269692 2.277910146e-39
0.1623637676 -0.390881896 -0.09763927758 2.277910146e-39
0.04722575843 -0.3951882422 -0.1782047153 2.277910146e-39
0.1881413758 -0.2982221246 -0.04081467167 2.277910146e-39
0.1283554733 -0.3591353595 -0.2137088925 2.277910146e-39
0.1035123095 -0.701205194 -0.3537668288 2.277910146e-39
0.1020048484 -0.4040059447 -0.09090259671 2.277910146e-39
0.1778964996 -0.2371637225 -0.09876023978 2.462297202e-39
0.2038079798 -0.3388326764 0.2002218813 2.462297202e-39
-0.3120932281 -0.4690434039 0.2262367308 2.462297202e-39
0.1839518994 -0.2568196058 -0.01703381911 2.462297202e-39
0.1926128119 -0.3549853265 0.1825391203 2.462297202e-39
-0.202436164 -0.7531536818 -0.09054219723 2.462297202e-39
0.1846384108 -0.2583163679 -0.005654510576 2.462297202e-39
0.1720626652 -0.377920717 -0.1234023273 2.462297202e-39
-0.03339988366 -0.7068917751 -0.3662617803 2.646685659e-39
0.1755028069 -0.2789593339 0.01080063358 2.646685659e-39
-0.08916838467 -0.3407184184 -0.235444814 2.646685659e-39
0.190570578 -0.284157306 0.05538473278 2.646685659e-39
0.07413424551 -0.7477676868 -0.02003511786 2.646685659e-39
0.188757509 -0.2672969401 0.0626212582 2.646685659e-39
0.1753795743 -0.2851443589 -0.009886551648 2.646685659e-39
0.1628211141 -0.3384109437 -0.2206508666 2.646685659e-39
0.1972596645 -0.3439169228 0.03574671224 2.830713982e-39
0.1921900809 -0.2747807503 0.1195177138 2.830713982e-39
-0.2067000717 -0.3868203759 -0.206449315 2.830713982e-39
0.1695706397 -0.2531184256 -0.05023862794 2.830713982e-39
0.1812413782 -0.2785633504 0.1432093382 2.830713982e-39
0.2176445127 -0.3256233633 0.2905262709 2.830713982e-39
-0.00972850062 -0.281620115 -0.2430253327 2.830713982e-39
0.2110108733 -0.7143502831 -0.2133004963 2.830713982e-39
0.1903068274 -0.3628651202 0.1070269048 3.015101038e-39
0.1946055889 -0.7338896394 -0.07488287985 3.015101038e-39
0.1941263825 -0.2854560614 0.1329683959 3.015101038e-39
0.1615713239 -0.3292323947 -0.222722277 3.015101038e-39
0.1774391234 -0.289634645 0.02425134555 3.015101038e-39
0.1906938106 -0.277972281 0.07607194036 3.015101038e-39
-0.001169214025 -0.7495087385 -0.0371953845 3.015101038e-39
0.181550622 -0.4050603807 0.0152205769 3.015101038e-39
0.2035615146 -0.3512027264 0.1588474959 3.199488094e-39
0.2025581747 -0.3296540976 0.1981504709 3.199488094e-39
-0.1830146909 -0.4315317571 -0.1335752159 3.199488094e-39
-0.1743713021 -0.4586685598 0.2707981467 3.199488094e-39
0.195323348 -0.3332415819 0.02229599282 3.199488094e-39
0.1160337552 -0.3599244654 -0.2127758265 3.199488094e-39
-0.04294430465 -0.3115230799 -0.2340119481 3.199488094e-39
0.1661304832 -0.3520797789 -0.1844415963 3.199488094e-39
0.1986326873 -0.3469104469 0.05850527063 3.383517819e-39
-0.08268682659 -0.7100481391 -0.362529546 3.383517819e-39
-0.03187238052 -0.3015554249 -0.2370164096 3.383517819e-39
0.1918030828 -0.3596736193 0.1504726857 3.383517819e-39
0.1692400873 -0.7062402368 -0.2901563644 3.383517819e-39
0.1635076404 -0.3399077058 -0.2092715949 3.383517819e-39
-0.1221901476 -0.2825312316 0.3175602555 3.383517819e-39
0.1870503128 -0.3105893135 0.1835614443 3.383517819e-39
0.1844274849 -0.2984172404 0.1587314159 3.567904875e-39
-0.02773595415 -0.2441982329 -0.261757195 3.567904875e-39
0.1915739477 -0.3057059348 0.01608178392 3.567904875e-39
0.08009682596 -0.2110574245 -0.2649896145 3.567904875e-39
0.1492495835 -0.3300214708 -0.2217892259 3.567904875e-39
0.1806425601 -0.2431507707 -0.05324308574 3.567904875e-39
0.1716301739 -0.2576087117 -0.01610076055 3.567904875e-39
0.1671587229 -0.20084548 -0.2394545525 3.567904875e-39
0.1811193228 -0.3418574929 0.2633303702 3.75229193e-39
-0.147590965 -0.3645177484 -0.2152574062 3.75229193e-39
0.1940735579 -0.3240630329 0.02022459358 3.75229193e-39
0.1786889285 -0.2988132238 0.02632275037 3.75229193e-39
0.1798683554 -0.2755698562 0.1204507798 3.75229193e-39
0.184937939 -0.3447059989 0.0366797708 3.75229193e-39
-0.06967858225 -0.710755825 -0.3520832956 3.75229193e-39
0.1778791845 -0.3035014868 -0.005743745249 3.75229193e-39
0.1776855737 -0.277264595 0.06562571973 3.936320254e-39
0.007416140288 -0.2249706089 -0.2573198676 3.936320254e-39
0.1789353788 -0.2864431441 0.06769712269 3.936320254e-39
0.1793050617 -0.2678880394 0.129758656 3.936320254e-39
0.1271056831 -0.3499568105 -0.2157803029 3.936320254e-39
0.1750627458 -0.2650925219 0.04079569876 3.936320254e-39
0.1771222949 -0.269582808 0.07493359596 3.936320254e-39
0.1048853397 -0.7041987181 -0.3310082555 3.936320254e-39
0.1369277835 -0.3308105767 -0.2208561599 4.120708711e-39
0.2023117244 -0.3420241773 0.1567761004 4.120708711e-39
0.1940031499 -0.2916410863 0.1122811884 4.120708711e-39
0.244857952 -0.3748242259 0.2007463425 4.120708711e-39
0.1783720851 -0.2787613571 0.07700499892 4.120708711e-39
-0.1008035988 -0.3430042565 -0.2231324464 4.120708711e-39
-0.1802686155 -0.4375188053 -0.08805803955 4.120708711e-39
0.1692289114 -0.4058494866 0.01615363546 4.120708711e-39
0.1791289896 -0.3126800656 -0.003672338556 4.304737034e-39
0.1999353319 -0.3174819946 0.1733204573 4.304737034e-39
0.1790585965 -0.2802581191 0.08838427812 4.304737034e-39
0.1875077039 -0.258118391 0.06054985896 4.304737034e-39
0.1876839995 -0.350693047 0.08219694346 4.304737034e-39
0.1748087108 -0.3839077353 -0.07788518071 4.304737034e-39
-0.1104317158 -0.2740603387 0.3259350955 4.304737034e-39
0.1830544621 -0.2954237163 0.1359728575 4.304737034e-39
0.1796218902 -0.2879399061 0.07907640189 4.48912409e-39
-0.2161309272 -0.7509492636 -0.1123677045 4.48912409e-39
-0.2918152809 -0.4708546996 0.1147205085 4.48912409e-39
0.1973125041 -0.3053099215 0.1484904885 4.48912409e-39
-0.1664151251 -0.4612689614 0.1602149904 4.48912409e-39
0.1806792617 -0.3279906809 0.293325454 4.48912409e-39
-0.09363555163 -0.7138307691 -0.3388378918 4.48912409e-39
0.1941967756 -0.3178780079 0.04091178253 4.48912409e-39
0.0179466363 -0.7082256079 -0.3358561397 4.673152414e-39
0.1675035059 -0.355073303 -0.1616830081 4.673152414e-39
0.1944432259 -0.3055079281 0.08228614926 4.673152414e-39
-0.03134034202 -0.7113820314 -0.3321239054 4.673152414e-39
0.1246060655 -0.3315996826 -0.2199231088 4.673152414e-39
0.1319555789 -0.3388288617 0.2877497971 4.673152414e-39
-0.1189655662 -0.713912189 -0.3483510613 4.673152414e-39
0.1968196034 -0.330050081 0.06574174017 4.673152414e-39
-0.004905587062 -0.225759685 -0.2563868165 4.857539469e-39
0.1055718511 -0.7056955099 -0.3196289539 4.857539469e-39
-0.02829924226 -0.2365164459 -0.2524492741 4.857539469e-39
-0.3111602664 -0.4581700861 0.2789904177 4.857539469e-39
0.1824383289 -0.3263489008 0.03253696114 4.857539469e-39
0.04327663779 -0.7081441879 -0.3263429403 4.857539469e-39
0.1959394813 -0.3023164272 0.1257319301 4.857539469e-39
0.2280299217 -0.3141589761 0.2761425376 4.857539469e-39
0.241795063 -0.348785311 0.2059114128 5.041567793e-39
0.06792008877 -0.7065659761 -0.3282090724 5.041567793e-39
0.1805020273 -0.3156735897 0.01908624917 5.041567793e-39
0.181434989 -0.304800272 0.07183992863 5.041567793e-39
0.09869550914 -0.3903371096 -0.1271118969 5.041567793e-39
0.1975061297 -0.3315468431 0.07712107897 5.041567793e-39
0.06709914654 -0.4108635187 -0.05396554247 5.041567793e-39
0.2631820738 -0.2949313223 0.2805798352 5.041567793e-39
0.2423583567 -0.356467098 0.1966035366 5.225597518e-39
0.1864341944 -0.341514498 0.08012554049 5.225597518e-39
0.1343699098 -0.7408286333 -0.04745902121 5.225597518e-39
-0.1182790548 -0.7154089212 -0.3369717896 5.225597518e-39
0.1130767837 -0.3940382898 -0.09390705824 5.225597518e-39
-0.02292972058 -0.2777152061 0.3214750886 5.225597518e-39
0.06799659133 -0.3722594082 -0.2069721967 5.225597518e-39
-0.1649188697 -0.4580774605 0.2036607563 5.225597518e-39
-0.006010336801 -0.7113006115 -0.3226107061 5.409984573e-39
0.1714993715 -0.37023893 -0.1140944511 5.409984573e-39
0.1888634115 -0.3274496496 0.176324904 5.409984573e-39
-0.01060799509 -0.2769261301 0.3205420375 5.409984573e-39
0.1772455126 -0.2633977532 0.09562075138 5.409984573e-39
-0.03065382689 -0.7128788233 -0.3207446039 5.409984573e-39
0.2294733375 -0.3495744169 0.2068444788 5.409984573e-39
-0.05529731512 -0.7144570351 -0.3188784719 5.409984573e-39
0.1765590012 -0.261901021 0.08424147218 5.594012897e-39
0.2043898255 -0.3372857869 0.2387056649 5.594012897e-39
0.09139029682 -0.3615026772 -0.2109097242 5.594012897e-39
0.1738129407 -0.2559139729 0.03872429579 5.594012897e-39
-0.2168174386 -0.7494525313 -0.1237470135 5.594012897e-39
0.1655671895 -0.3443979621 -0.17513372 5.594012897e-39
0.145283103 -0.7093151808 -0.2769109607 5.594012897e-39
0.1322748363 -0.7086075544 -0.2873572111 5.594012897e-39
0.0562848784 -0.7088518739 -0.3158967197 5.77804122e-39
-0.0799407661 -0.7160351872 -0.3170123696 5.77804122e-39
0.1836177558 -0.3031055033 0.1266649812 5.77804122e-39
0.2151449025 -0.3072662652 0.2863834798 5.77804122e-39
0.1963795424 -0.3161832392 0.09573683143 5.77804122e-39
-0.2186068892 -0.4368925691 -0.1080174595 5.77804122e-39
-0.06220159307 -0.2649226487 -0.2548152208 5.77804122e-39
0.1887401938 -0.3336347342 0.155637756 5.77804122e-39
0.08637371659 -0.3911261857 -0.1261788309 5.962428276e-39
0.196942836 -0.323865056 0.0864289552 5.962428276e-39
0.05477741361 -0.4116525948 -0.05303248391 5.962428276e-39
-0.01722731441 -0.2265487909 -0.2554537654 5.962428276e-39
0.1971892864 -0.3114949763 0.1278033257 5.962428276e-39
0.1826847941 -0.313978821 0.07391133159 5.962428276e-39
0.1825615615 -0.3201638758 0.05322412029 5.962428276e-39
0.1733591855 -0.715220809 -0.2218805999 5.962428276e-39
-0.1169060171 -0.7184025049 -0.3142131865 6.1464566e-39
-0.1234399527 -0.2733526826 0.3154888749 6.1464566e-39
0.1879304349 -0.3383229971 0.1235712618 6.1464566e-39
-0.06693252921 -0.7167428732 -0.306566149 6.1464566e-39
0.1903769821 -0.2579203844 0.1267541945 6.1464566e-39
-0.2125863433 -0.4518572986 0.2715259492 6.1464566e-39
0.1833713055 -0.3154755831 0.08529061079 6.1464566e-39
0.1671077311 -0.319601208 0.2921870947 6.1464566e-39
0.02278772742 -0.7464337349 -0.05044078827 6.330484923e-39
0.09996261448 -0.3331778646 -0.2180569917 6.330484923e-39
-0.07077391446 -0.2932474315 -0.2476679385 6.330484923e-39
0.1313922852 -0.3311470747 0.2970576882 6.330484923e-39
0.05615044385 -0.4146461189 -0.03027389571 6.330484923e-39
0.136470437 -0.3832815289 -0.09784457088 6.330484923e-39
-0.2002646029 -0.4510682225 0.2705928683 6.330484923e-39
0.1799927503 -0.3264939189 0.2819461823 6.330484923e-39
0.1809245348 -0.2585114837 0.1938915849 6.514514648e-39
0.2411085516 -0.3472885489 0.1945321411 6.514514648e-39
0.1466561258 -0.7123087645 -0.2541523576 6.514514648e-39
0.1781647801 -0.7256981134 -0.1422255635 6.514514648e-39
0.1874903888 -0.3244561553 0.1535663456 6.514514648e-39
0.1846211106 -0.3246541619 0.08736201376 6.514514648e-39
-0.05392428488 -0.7174504995 -0.2961198986 6.514514648e-39
-0.09935979545 -0.2640926838 0.322930634 6.514514648e-39
0.1767917424 -0.722704649 -0.1649841517 6.698542971e-39
-0.02954904363 -0.2273378968 -0.2545206845 6.698542971e-39
-0.07327351719 -0.2748903036 -0.2518107593 6.698542971e-39
-0.02787224203 -0.7465966344 -0.06946711242 6.698542971e-39
0.133647874 -0.7116010785 -0.264598608 6.698542971e-39
0.1868038774 -0.3229593933 0.1421870738 6.698542971e-39
-0.2220394313 -0.4294087589 -0.1649139076 6.698542971e-39
0.08843325824 -0.3956164718 -0.09204094112 6.698542971e-39
-0.2309286296 -0.437681675 -0.1070843935 6.882571295e-39
-0.07202371955 -0.2840688527 -0.2497393489 6.882571295e-39
0.1604447663 -0.3138688207 -0.2041065246 6.882571295e-39
-0.09879650176 -0.2717744708 0.3136227429 6.882571295e-39
-0.3055100441 -0.4686502814 0.09289498627 6.882571295e-39
-0.2910055518 -0.4661664367 0.1467869431 6.882571295e-39
-0.07008739561 -0.2947441936 -0.2362886369 6.882571295e-39
-0.01627252251 -0.7165799737 -0.2875397801 6.882571295e-39
-0.3156490326 -0.4677446187 0.1486530602 7.066599618e-39
0.1617239714 -0.7175066471 -0.2095682621 7.066599618e-39
0.2624955475 -0.2934345603 0.2692005634 7.066599618e-39
0.1905013919 -0.3088444471 0.2882495821 7.066599618e-39
-0.07383680344 -0.2672084868 -0.2425028533 7.066599618e-39
-0.05320224911 -0.7466780543 -0.07898028195 7.066599618e-39
0.05975297093 -0.7440664768 -0.0532399565 7.066599618e-39
-0.0236162357 -0.2762184441 0.3100958169 7.066599618e-39
0.1652224064 -0.1901701689 -0.2529052496 7.250627941e-39
0.1749319434 -0.3777227104 -0.05719799176 7.250627941e-39
-0.2323016524 -0.4346881509 -0.1298429817 7.250627941e-39
0.1802380234 -0.2570147216 0.1825122982 7.250627941e-39
0.1787429452 -0.3173153698 0.2798747718 7.250627941e-39
-0.07258699834 -0.2763870656 -0.2404314429 7.250627941e-39
0.2262168229 -0.2972986102 0.2833790183 7.250627941e-39
-0.08647473902 -0.2709853649 0.3126896918 7.250627941e-39
0.05704788864 -0.3760420382 -0.1832805872 7.434656265e-39
0.09048223495 -0.1995930374 -0.2793733776 7.434656265e-39
0.03438744694 -0.7164170742 -0.2685134411 7.434656265e-39
-0.3124100864 -0.4489915371 0.2769190073 7.434656265e-39
-0.3370535672 -0.4505697489 0.2787851095 7.434656265e-39
0.01334897801 -0.2738511562 0.3072966337 7.434656265e-39
0.009743961506 -0.717995286 -0.2666473091 7.434656265e-39
-0.300088346 -0.448202461 0.2759859562 7.434656265e-39
-0.003228753805 -0.7450184226 -0.07133322954 7.618684588e-39
0.07135266066 -0.7140498161 -0.2713125944 7.618684588e-39
0.1090399399 -0.7409100533 -0.05697219074 7.618684588e-39
0.172650829 -0.2128195763 -0.1484202296 7.618684588e-39
-0.2405042946 -0.444457829 -0.06063415483 7.618684588e-39
-0.2181904763 -0.7464590073 -0.1465056092 7.618684588e-39
-0.09541739523 -0.2948256135 -0.2458018214 7.618684588e-39
-0.1845561862 -0.366885066 -0.212458238 7.618684588e-39
0.0440396443 -0.3753343821 -0.1937268078 7.802712912e-39
-0.0824091211 -0.2955332696 -0.2353555858 7.802712912e-39
0.2398587465 -0.3381099999 0.1924607307 7.802712912e-39
-0.027221255 -0.7203625441 -0.2638481259 7.802712912e-39
-0.07650820166 -0.7235189676 -0.2601159215 7.802712912e-39
0.05773440748 -0.3775388002 -0.1719012707 7.802712912e-39
-0.03954298049 -0.7211517096 -0.2629150748 7.802712912e-39
0.04940853268 -0.3934935033 -0.1233796626 7.802712912e-39
-0.1045487672 -0.745344162 -0.1093859449 7.986382503e-39
0.1221064702 -0.3132425845 -0.2240658998 7.986382503e-39
-0.2916920483 -0.4646696746 0.1354076713 7.986382503e-39
-0.01421298087 -0.72107023 -0.2534019053 7.986382503e-39
0.009092971683 -0.7442293167 -0.07226628065 7.986382503e-39
-0.1935469955 -0.7448807955 -0.1483717263 7.986382503e-39
0.1644406021 -0.3290343881 -0.1565179378 7.986382503e-39
0.1841983497 -0.2444495261 0.02434055321 7.986382503e-39
0.0447261557 -0.3768311441 -0.1823475212 8.170410826e-39
-0.007892295718 -0.3077849746 -0.361530453 8.170410826e-39
-0.2508013546 -0.4450460672 0.272253722 8.170410826e-39
0.05009505153 -0.3949902654 -0.1120003462 8.170410826e-39
0.1814522892 -0.2384624779 -0.02117662504 8.170410826e-39
-0.252826035 -0.4452469051 -0.05970110372 8.170410826e-39
-0.138824597 -0.2481028736 0.3215869963 8.170410826e-39
0.1199419275 -0.4090058804 0.01988586597 8.170410826e-39
0.1619130522 -0.1765013337 -0.2891145349 8.35443915e-39
-0.1518116891 -0.7252600193 -0.2772761583 8.35443915e-39
0.06299737841 -0.3355451822 -0.2152578086 8.35443915e-39
0.1535212696 -0.7272763252 -0.1403594315 8.35443915e-39
-0.05007281527 -0.26093629 0.3191983998 8.35443915e-39
-0.07921876013 -0.745262742 -0.09987278283 8.35443915e-39
-0.06281344593 -0.7257233858 -0.2382903695 8.35443915e-39
0.08639109135 -0.3247884214 -0.2191953361 8.35443915e-39
-0.001204738393 -0.721777916 -0.2429556549 8.538467473e-39
-0.07513517141 -0.7265124917 -0.2373573184 8.538467473e-39
-0.1257951707 -0.7266753912 -0.2563836873 8.538467473e-39
-0.155895263 -0.7440102696 -0.1397915781 8.538467473e-39
0.1578219235 -0.3016967177 -0.2289364785 8.538467473e-39
0.142572552 -0.7310589552 -0.116667822 8.538467473e-39
-0.3500618041 -0.4498620629 0.2683388889 8.538467473e-39
-0.163098827 -0.3454529941 -0.2298464626 8.538467473e-39
-0.0495095253 -0.268618077 0.3098905087 8.722137064e-39
0.1097847447 -0.3140316904 -0.2231328487 8.722137064e-39
-0.1435735226 -0.7432211637 -0.1407246292 8.722137064e-39
-0.1381168962 -0.7274644375 -0.2554506063 8.722137064e-39
0.08504741639 -0.7162542343 -0.2494870722 8.722137064e-39
-0.09909215569 -0.7295874357 -0.2241119146 8.722137064e-39
-0.3393595517 -0.4584495127 0.2032728344 8.722137064e-39
-0.1182435155 -0.7431397438 -0.1312114745 8.722137064e-39
0.0727256909 -0.7170432806 -0.2485540211 8.906165387e-39
0.1412760317 -0.3937588334 -0.01818954572 8.906165387e-39
-0.1968779117 -0.3676741421 -0.2115251869 8.906165387e-39
0.1898148805 -0.3073476851 0.2768703103 8.906165387e-39
-0.1624123156 -0.3469497561 -0.2184671611 8.906165387e-39
-0.1181245744 -0.3070791364 -0.2304850072 8.906165387e-39
0.06584934145 -0.4016849399 -0.05603694543 8.906165387e-39
0.1788649857 -0.2540211976 0.1597536802 8.906165387e-39
-0.2923785746 -0.4631729126 0.1240283847 9.089834978e-39
0.1384534687 -0.7220784426 -0.1849435568 9.089834978e-39
-0.1312517673 -0.7424321175 -0.1416576952 9.089834978e-39
0.05579808354 -0.3668634892 -0.1853519827 9.089834978e-39
0.1268841177 -0.1895439327 -0.2728646398 9.089834978e-39
0.122898899 -0.3748920858 -0.09898291528 9.089834978e-39
-0.1070526093 -0.2971114814 -0.2334894687 9.089834978e-39
-0.2072417587 -0.7426763773 -0.1701972187 9.089834978e-39
0.1736821234 -0.3685441315 -0.05926940218 9.273863302e-39
-0.1374303848 -0.7289612293 -0.2440713346 9.273863302e-39
-0.2466829121 -0.4309869707 -0.1630477905 9.273863302e-39
-0.1768709123 -0.4403114617 0.2666553557 9.273863302e-39
0.2846393883 -0.2734992504 0.2631916404 9.273863302e-39
0.1309373379 -0.7333447933 -0.1043554842 9.273863302e-39
-0.3136598766 -0.439812988 0.2748475969 9.273863302e-39
0.03644698858 -0.7209073305 -0.2343755662 9.273863302e-39
0.2255303115 -0.2958018482 0.2719997168 9.457532893e-39
0.01153588668 -0.2569907904 0.3145331144 9.457532893e-39
0.03373645991 -0.7426511049 -0.07413239777 9.457532893e-39
0.08370991796 -0.7409914732 -0.06648536026 9.457532893e-39
-0.0214638263 -0.2993955314 -0.3626687825 9.457532893e-39
-0.1949200183 -0.7418872714 -0.1711302847 9.457532893e-39
-0.1572682858 -0.7410167456 -0.1625501662 9.457532893e-39
0.2140887082 -0.3243246377 0.2129426599 9.457532893e-39
0.1610156149 -0.2151054144 -0.1361078918 9.641561216e-39
-0.0248660408 -0.2670398951 0.3080244064 9.641561216e-39
0.05192545056 -0.3455128372 -0.212253347 9.641561216e-39
-0.1319382787 -0.7409353256 -0.1530370116 9.641561216e-39
-0.07376214117 -0.7295060158 -0.21459876 9.641561216e-39
0.1703727841 -0.3548753262 -0.09547866881 9.641561216e-39
0.05648460239 -0.3683602512 -0.1739726812 9.641561216e-39
-0.1880903989 -0.7291240692 -0.2630977035 9.641561216e-39
-0.1018593907 -0.2457355559 0.3187878132 9.825230807e-39
-0.03447206691 -0.2986878753 -0.3731150329 9.825230807e-39
-0.1525901854 -0.3278035522 -0.2235430181 9.825230807e-39
-0.1799866557 -0.4528795183 0.159076646 9.825230807e-39
-0.3654464483 -0.4246122539 0.2744370103 9.825230807e-39
0.1631908119 -0.319855839 -0.1585893482 9.825230807e-39
-0.2325717658 -0.7427577972 -0.179710418 9.825230807e-39
0.0001682881266 -0.72477144 -0.2201970965 9.825230807e-39
-0.04911869019 -0.727927804 -0.2164648622 1.000925913e-38
0.04678570479 -0.3813214302 -0.1482096314 1.000925913e-38
-0.2010986507 -0.7284164429 -0.2735439241 1.000925913e-38
-0.1216760874 -0.7356559038 -0.1881079376 1.000925913e-38
-0.1463195682 -0.7372341156 -0.1862418205 1.000925913e-38
0.1693414897 -0.1991507411 -0.1846294999 1.000925913e-38
-0.05457527936 -0.7436845303 -0.1017388999 1.000925913e-38
-0.01692354679 -0.7428140044 -0.09315878898 1.000925913e-38
0.2017669827 -0.3251137137 0.213875711 1.019292872e-38
-0.0002225544304 -0.2654616833 0.3061582744 1.019292872e-38
-0.1607008576 -0.7335329056 -0.2194466293 1.019292872e-38
-0.08953763545 -0.2449464798 0.3178547621 1.019292872e-38
0.08642044663 -0.7192477584 -0.2267284989 1.019292872e-38
-0.08059178293 -0.742269218 -0.1226313412 1.019292872e-38
-0.2448934764 -0.7435469031 -0.178777352 1.019292872e-38
-0.1434545368 -0.3071605563 -0.2399981916 1.019292872e-38
-0.1136178374 -0.2542064488 0.310413003 1.037659831e-38
0.1015541553 -0.1896253824 -0.2823778391 1.037659831e-38
-0.2576316297 -0.4347695708 -0.1393561512 1.037659831e-38
0.2257239223 -0.3220387697 0.2006302625 1.037659831e-38
0.1561147273 -0.3449890912 -0.1079962999 1.037659831e-38
-0.04679383337 -0.2994769514 -0.3721819818 1.037659831e-38
0.2360389382 -0.2781523764 0.2783031464 1.037659831e-38
-0.1361320317 -0.2696572244 -0.2492168695 1.037659831e-38
0.1516508758 -0.1817806959 -0.2540436089 1.056062664e-38
0.1364082098 -0.2784838676 -0.2912504673 1.056062664e-38
-0.01146692224 -0.7270572782 -0.2078847289 1.056062664e-38
-0.211360842 -0.7336958051 -0.2384729832 1.056062664e-38
-0.3272314072 -0.4314235151 0.2737092674 1.056062664e-38
0.05261196196 -0.3470095992 -0.2008740753 1.056062664e-38
0.08710695803 -0.7207444906 -0.2153491974 1.056062664e-38
-0.2106743306 -0.7351925373 -0.2270936817 1.056062664e-38
-0.1747340709 -0.347738862 -0.217534095 1.074429623e-38
-0.05075933039 -0.259439528 0.307819128 1.074429623e-38
-0.154526487 -0.3171282113 -0.2369937301 1.074429623e-38
0.127504766 -0.7258610129 -0.1612519175 1.074429623e-38
0.1753968894 -0.2188066244 -0.1029030532 1.074429623e-38
0.1606632471 -0.1673227549 -0.2911859453 1.074429623e-38
0.1645638347 -0.3228493631 -0.1358307451 1.074429623e-38
-0.209199667 -0.368463248 -0.2105921209 1.074429623e-38
-0.03184923902 -0.3108599484 -0.3482850492 1.092796582e-38
0.05454827845 -0.3576849103 -0.1874233931 1.092796582e-38
0.2373591363 -0.3197529018 0.1883179247 1.092796582e-38
0.1501029581 -0.2806882858 -0.2694249451 1.092796582e-38
0.06859540194 -0.407671988 -0.01051979885 1.092796582e-38
-0.3161594868 -0.4214558601 0.270704776 1.092796582e-38
0.1539762616 -0.3250785768 0.2610536516 1.092796582e-38
0.1605679691 -0.3076837361 -0.1834193319 1.092796582e-38
-0.3149096668 -0.430634439 0.2727761865 1.111163541e-38
-0.03843760118 -0.2586504221 0.3068860471 1.111163541e-38
-0.002035647631 -0.2486013174 0.3133947551 1.111163541e-38
0.04119526222 -0.2027494311 -0.2756411433 1.111163541e-38
-0.3679460585 -0.4062551558 0.2702942193 1.111163541e-38
-0.3556243181 -0.4054660499 0.2693611681 1.111163541e-38
-0.2415953577 -0.4568250179 0.1637419313 1.111163541e-38
0.001541316509 -0.7277649641 -0.1974385083 1.111163541e-38
0.05558715761 -0.4069643319 -0.02096601948 1.1295305e-38
0.1731188297 -0.3608623445 -0.04996148869 1.1295305e-38
-0.0889743492 -0.2526282668 0.3085468709 1.1295305e-38
0.1778012216 -0.3775247037 0.009006367996 1.1295305e-38
-0.2455800027 -0.7420501709 -0.1901566386 1.1295305e-38
0.02004167065 -0.7404466867 -0.09595796466 1.1295305e-38
0.04085353017 -0.3554804921 -0.2092488855 1.1295305e-38
-0.2685803473 -0.4385522008 -0.115664497 1.1295305e-38
-0.3309808373 -0.4038878679 0.2674950361 1.147897319e-38
0.1646081209 -0.3012441099 0.2880443037 1.147897319e-38
-0.02310217172 -0.7293431759 -0.1955723912 1.147897319e-38
0.1637977213 -0.2828927338 -0.247599408 1.147897319e-38
-0.05938087404 -0.7332072258 -0.1813939214 1.147897319e-38
0.03904043138 -0.3386201262 -0.2020124197 1.147897319e-38
-0.04705914855 -0.7324181199 -0.1823269725 1.147897319e-38
0.102861315 -0.7274392247 -0.1593858004 1.147897319e-38
0.1528496891 -0.309714973 0.2796694636 1.166264278e-38
0.2242805064 -0.2866232991 0.2699283361 1.166264278e-38
-0.1981277168 -0.3584955931 -0.2135965824 1.166264278e-38
0.1327210069 -0.3557458818 -0.1040587723 1.166264278e-38
-0.06433086097 -0.251050055 0.3066807687 1.166264278e-38
-0.05842904001 -0.3017628193 -0.3598695993 1.166264278e-38
-0.0306182988 -0.7406095862 -0.1149842888 1.166264278e-38
0.1659368575 -0.3258428872 -0.1130721569 1.166264278e-38
0.09397210181 -0.7357121706 -0.1015563086 1.184631237e-38
0.2471108586 -0.2681847513 0.2752986848 1.184631237e-38
-0.07018752396 -0.3102337122 -0.3682444692 1.184631237e-38
0.05273519456 -0.3408245444 -0.1801868826 1.184631237e-38
0.01454956084 -0.7284725904 -0.1869922578 1.184631237e-38
0.05696018785 -0.4099578559 0.001792570576 1.184631237e-38
0.04953175783 -0.3873084784 -0.10269247 1.184631237e-38
0.163075164 -0.2195957005 -0.1019699946 1.184631237e-38
0.09191256016 -0.7312218547 -0.1356941462 1.202998196e-38
0.01300178096 -0.2786711156 -0.3696107566 1.202998196e-38
0.09328558296 -0.7342153788 -0.1129355878 1.202998196e-38
0.04029023647 -0.3477987051 -0.1999410093 1.202998196e-38
0.1042343453 -0.7304327488 -0.1366272122 1.202998196e-38
-0.01829657331 -0.7398204803 -0.1159173474 1.202998196e-38
0.2833895981 -0.2643206716 0.26112023 1.202998196e-38
0.05494737253 -0.7335891724 -0.1328949779 1.202998196e-38
0.07821780443 -0.7290173769 -0.1575196832 1.221365155e-38
0.07753129303 -0.7275206447 -0.1688989997 1.221365155e-38
-0.1407609135 -0.2374275625 0.3081363142 1.221365155e-38
-0.145954147 -0.2888034284 -0.2441409975 1.221365155e-38
-0.04804363847 -0.2902984023 -0.3742533624 1.221365155e-38
-0.0714373216 -0.3010551631 -0.3703158498 1.221365155e-38
0.06658259034 -0.7313032746 -0.1452073455 1.221365155e-38
0.1497145593 -0.1711053848 -0.2674942911 1.221365155e-38
0.05021826923 -0.3888052404 -0.09131316841 1.239732115e-38
-0.1179305315 -0.2189889848 0.3135066628 1.239732115e-38
0.03167691827 -0.7381608486 -0.1082703024 1.239732115e-38
0.1753016114 -0.3591676056 0.004863562062 1.239732115e-38
0.004973886535 -0.7352488041 -0.1405420601 1.239732115e-38
0.1133125871 -0.1811544597 -0.2740029991 1.239732115e-38
0.1765514016 -0.3683461547 0.006934968755 1.239732115e-38
0.1637616754 -0.2210924625 -0.09059071541 1.239732115e-38
-0.3292205632 -0.4593551755 0.1475147158 1.258099074e-38
0.005660401657 -0.7367455363 -0.1291627437 1.258099074e-38
0.2119587809 -0.287412405 0.2708613873 1.258099074e-38
0.1850080937 -0.2397612631 0.0564070493 1.258099074e-38
-0.308942616 -0.4611664712 0.03599851951 1.258099074e-38
-0.1465174258 -0.2811216414 -0.2348330915 1.258099074e-38
0.1399646699 -0.3028222919 0.2899104059 1.258099074e-38
0.1654794812 -0.3783138096 0.009939426556 1.258099074e-38
-0.1779201925 -0.3278849721 -0.2330562174 1.276466033e-38
0.04056607187 -0.7298879623 -0.1660998166 1.276466033e-38
-0.03267784044 -0.7361192703 -0.1491221637 1.276466033e-38
0.2705045938 -0.2574279606 0.2713611722 1.276466033e-38
-0.04735711962 -0.2917951643 -0.3628740609 1.276466033e-38
-0.3643198609 -0.4399758279 0.2558211982 1.276466033e-38
0.0006800536066 -0.2794602215 -0.3686777055 1.276466033e-38
0.201203689 -0.3174319267 0.2231836021 1.276466033e-38
-0.1595257074 -0.2804139853 -0.2452793419 1.294832852e-38
-0.2809020877 -0.4393413067 -0.1147314459 1.294832852e-38
-0.08096532524 -0.2166216969 0.3107075095 1.294832852e-38
-0.229907304 -0.4159321785 0.2641733885 1.294832852e-38
0.09119668603 -0.3352657259 -0.1395403147 1.294832852e-38
0.1504010707 -0.1726021469 -0.2561150193 1.294832852e-38
-0.2111359835 -0.3577879369 -0.2240428329 1.294832852e-38
-0.1161174327 -0.2358493507 0.3062702119 1.294832852e-38
-0.3407325745 -0.4554559886 0.180514276 1.313163938e-38
0.1740517914 -0.3499890566 0.002792159095 1.313163938e-38
0.106370382 -0.4006164372 0.01874752156 1.313163938e-38
-0.281588614 -0.4378445446 -0.1261107624 1.313163938e-38
-0.2944381237 -0.4586826265 0.08989052474 1.313163938e-38
0.06528606266 -0.3940031528 -0.0467290692 1.313163938e-38
-0.2490125746 -0.7345663309 -0.2470531017 1.313163938e-38
-0.2681223154 -0.4091209173 0.2649011612 1.313163938e-38
0.1009908617 -0.1819435656 -0.273069948 1.331530897e-38
0.1795159727 -0.2277871668 -0.03462730721 1.331530897e-38
0.04109997302 -0.3431103826 -0.1678745449 1.331530897e-38
0.006536673754 -0.2202765644 0.3062475026 1.331530897e-38
0.05729433894 -0.3636719584 -0.1419062167 1.331530897e-38
-0.255800575 -0.4083318114 0.2639680803 1.331530897e-38
-0.158839196 -0.2819107473 -0.2339000404 1.331530897e-38
-0.1296889633 -0.2274598777 0.3051318526 1.331530897e-38
0.2101456821 -0.2705520391 0.278097868 1.349897856e-38
0.08468385786 -0.3680808246 -0.09825514257 1.349897856e-38
0.1633140445 -0.3136707842 -0.1379021555 1.349897856e-38
-0.2503855824 -0.7315728664 -0.2698116899 1.349897856e-38
0.2230307013 -0.2774447203 0.2678569257 1.349897856e-38
-0.1793705225 -0.4219543338 0.2625125647 1.349897856e-38
0.1008159965 -0.2838446796 -0.2656927109 1.349897856e-38
0.1733728796 -0.2420471311 0.06871938705 1.349897856e-38
0.1727740616 -0.2066345513 -0.1277330369 1.368228942e-38
0.2005171776 -0.3159351647 0.2118043154 1.368228942e-38
-0.1784834862 -0.3202031553 -0.2237483114 1.368228942e-38
0.1449369192 -0.2948040068 -0.2186955512 1.368228942e-38
-0.01935661584 -0.2126762271 0.3060421944 1.368228942e-38
0.04886255413 -0.3194739223 -0.2070882767 1.368228942e-38
0.113824293 -0.2845523655 -0.2552464902 1.368228942e-38
0.05604453385 -0.3544934094 -0.1439776123 1.368228942e-38
0.1055779532 -0.3389669061 -0.106335476 1.386595901e-38
0.1744302511 -0.2820978761 0.2829684317 1.386595901e-38
-0.003971962258 -0.2379260063 0.299944073 1.386595901e-38
-0.3644430935 -0.4461608827 0.2351340503 1.386595901e-38
-0.09539425373 -0.3041301072 -0.357070446 1.386595901e-38
0.1289716065 -0.328210175 -0.1102729887 1.386595901e-38
0.008349765092 -0.2371369302 0.2990110219 1.386595901e-38
0.2335393429 -0.2597952783 0.2741603255 1.386595901e-38
0.151599884 -0.3005364239 0.277598083 1.404926846e-38
0.1653735638 -0.3181610703 -0.1037642807 1.404926846e-38
-0.08040203154 -0.224303484 0.3013996184 1.404926846e-38
-0.09578664601 -0.1990536749 0.3074977398 1.404926846e-38
-0.1686613262 -0.3010569811 -0.2288241684 1.404926846e-38
0.1665077358 -0.2270795107 -0.04507352784 1.404926846e-38
-0.008091708645 -0.2059058249 -0.2719089389 1.404926846e-38
0.1892503947 -0.2425568104 0.145369947 1.404926846e-38
-0.04524990544 -0.2050758302 0.305836916 1.423293806e-38
0.09325622767 -0.339756012 -0.10540241 1.423293806e-38
-0.1084025204 -0.303422451 -0.3675166965 1.423293806e-38
