# .PCD v0.7 - Point Cloud Data file format
VERSION 0.7
FIELDS x y z rgb
SIZE 4 4 4 4
TYPE F F F F
COUNT 1 1 1 1
WIDTH 829
HEIGHT 1
VIEWPOINT 0 0 0 1 0 0 0
POINTS 829
DATA ascii
0.1422782838 -0.4827677011 0.07075610012 1.588380918e-38
-0.2506607175 -0.4833089709 -0.08234842867 1.588380918e-38
-0.4654209316 -0.291033268 -0.1582819372 1.606712004e-38
-0.09985093772 -0.0547436513 -0.2359346896 1.606712004e-38
-0.1896344125 -0.2084386498 -0.07044760883 1.606712004e-38
0.2871424556 -0.06702186167 -0.2565928698 1.606712004e-38
-0.2876279056 -0.4856731296 -0.07954552025 1.606712004e-38
0.2904444933 -0.0806780234 -0.220378831 1.606712004e-38
-0.4741698205 -0.226794064 -0.1728160828 1.606712004e-38
0.2489254624 -0.06020902097 -0.2558662891 1.606712004e-38
0.1601690352 -0.04737138748 -0.2534787655 1.625043089e-38
0.3327631354 -0.3001386523 -0.1714817882 1.625043089e-38
0.3218088448 -0.3039127886 -0.1477889866 1.625043089e-38
-0.181108281 -0.09696818143 -0.2210893482 1.625043089e-38
-0.1753582656 -0.4815666676 -0.06519575417 1.625043089e-38
-0.08752855659 -0.05395559222 -0.2368689924 1.625043089e-38
0.3246634007 -0.3036940396 -0.0815898329 1.625043089e-38
-0.2266482711 -0.1276515275 -0.2111232132 1.625043089e-38
-0.1108634472 -0.7597951889 -0.006047978997 1.643374035e-38
0.2976143062 -0.1156743094 -0.1572536826 1.643374035e-38
-0.2731066346 -0.7655608654 -0.02803979814 1.643374035e-38
-0.09037125856 -0.2036271989 -0.06654280424 1.643374035e-38
0.2923783958 -0.09134808183 -0.2069232911 1.643374035e-38
-0.1109234691 -0.06470873207 -0.2329240888 1.643374035e-38
0.3392745256 -0.2950031757 -0.007022016216 1.643374035e-38
-0.01643695123 -0.1988988221 -0.07214862108 1.643374035e-38
-0.4530985355 -0.2902452052 -0.15921624 1.661705121e-38
-0.1343184114 -0.07546189427 -0.2289791703 1.661705121e-38
0.2210593373 -0.3119291067 -0.1951344907 1.661705121e-38
0.2995482087 -0.1263443679 -0.1437981427 1.661705121e-38
-0.1984882802 -0.7623255253 -0.02226638794 1.661705121e-38
-0.079077214 -0.5108277798 0.05758846551 1.661705121e-38
-0.2012727857 -0.2107197344 -0.0581340678 1.661705121e-38
-0.1798584312 -0.1061452255 -0.2190130353 1.661705121e-38
0.4330851734 -0.3425989449 0.03805825487 1.680036207e-38
-0.4395262897 -0.2986341715 -0.1580742449 1.680036207e-38
0.1355242878 -0.0489475131 -0.2516101599 1.680036207e-38
0.05328528956 -0.482311964 0.0317792818 1.680036207e-38
0.07861416042 -0.4822288752 0.04128990322 1.680036207e-38
-0.1731594354 -0.7622424364 -0.01275570691 1.680036207e-38
-0.4543483555 -0.281068176 -0.1612925529 1.680036207e-38
0.1108794883 -0.050523635 -0.2497415394 1.680036207e-38
-0.485242337 -0.236759156 -0.1698054671 1.698367293e-38
0.3261497915 -0.3004891574 -0.03814913705 1.698367293e-38
-0.05340410769 -0.2012630105 -0.06934571266 1.698367293e-38
0.3190404773 -0.1605526209 -0.08160729706 1.698367293e-38
-0.04108173028 -0.2004749477 -0.07028001547 1.698367293e-38
0.3197566569 -0.2994336486 -0.1819267571 1.698367293e-38
0.2242806703 -0.06178514659 -0.2539976835 1.698367293e-38
0.2580264807 -0.3095649183 -0.1979373991 1.698367293e-38
-0.02807526663 -0.2011799216 -0.05983508378 1.716698239e-38
-0.21307607 -0.1360404789 -0.2099812031 1.716698239e-38
-0.4729199708 -0.2359710932 -0.1707397699 1.716698239e-38
0.3190726042 -0.2979406118 -0.1933059841 1.716698239e-38
-0.2499766797 -0.4848020077 -0.07096916437 1.716698239e-38
-0.3630922735 -0.3122598529 -0.1595274508 1.716698239e-38
-0.284744978 -0.7678419352 -0.01572625339 1.716698239e-38
-0.2475435287 -0.1567587256 -0.2030256838 1.716698239e-38
-0.3300507069 -0.1898062527 -0.1902566403 1.735029324e-38
0.3270126283 -0.1908509731 0.01357927918 1.735029324e-38
-0.2477778047 -0.7654777765 -0.01852916181 1.735029324e-38
-0.1601530015 -0.7629474401 -0.00231076777 1.735029324e-38
0.2903262079 -0.08686896414 -0.2410610318 1.735029324e-38
0.3045824766 -0.09675098211 -0.2285397947 1.735029324e-38
0.06158997118 -0.05367587507 -0.246004343 1.735029324e-38
0.3393928111 -0.2888122499 0.01366017759 1.735029324e-38
-0.01037880965 -0.481773138 0.002313032746 1.75336041e-38
-0.3534456491 -0.2005593777 -0.1863117367 1.75336041e-38
0.01265199482 -0.5172556043 0.142082274 1.75336041e-38
-0.1266543567 -0.2074844241 -0.0523606576 1.75336041e-38
0.3387087286 -0.2873191833 0.002280916087 1.75336041e-38
-0.2536427975 -0.5173814893 0.03653094918 1.75336041e-38
-0.5073874593 -0.2566893399 -0.1637842506 1.75336041e-38
-0.02724378929 -0.4320652485 -0.2408037484 1.75336041e-38
0.1966113597 -0.4223592877 -0.2234834731 1.771655483e-38
-0.06470263004 -0.5145187974 0.09079187363 1.771655483e-38
-0.4148815274 -0.2970580459 -0.1599428505 1.771655483e-38
-0.3507698774 -0.3114717901 -0.1604617536 1.771655483e-38
-0.2118262202 -0.1452175081 -0.2079049051 1.771655483e-38
-0.01492141187 -0.4312771559 -0.2417380512 1.771655483e-38
0.2981801033 -0.1233582869 -0.1665566415 1.771655483e-38
-0.4482751787 -0.2343949676 -0.1726083755 1.771655483e-38
0.32192716 -0.2977218628 -0.1271068156 1.789986569e-38
-0.1636215448 -0.2098485976 -0.04955774546 1.789986569e-38
0.05396934971 -0.4838050008 0.04315851629 1.789986569e-38
0.1696592718 -0.4871637225 0.1144044921 1.789986569e-38
0.3038984239 -0.09525794536 -0.2399190217 1.789986569e-38
0.1244517639 -0.0589126125 -0.2485995442 1.789986569e-38
-0.1847977638 -0.7645235062 -0.0004421621561 1.789986569e-38
0.01230040751 -0.05682811886 -0.2422671169 1.789986569e-38
0.02098830789 -0.5013183951 0.09355472773 1.808317654e-38
0.3372223377 -0.2905240655 -0.04115974903 1.808317654e-38
-0.186996609 -0.4838477373 -0.05288217962 1.808317654e-38
0.4318353236 -0.3334219456 0.03598194942 1.808317654e-38
-0.1761089116 -0.1336763054 -0.2127841264 1.808317654e-38
0.3350518942 -0.2922358811 -0.09597967565 1.808317654e-38
-0.02466677688 -0.05919230357 -0.2394642085 1.808317654e-38
0.3202902973 -0.1697296202 -0.07953099161 1.808317654e-38
-0.495065093 -0.2559012771 -0.1647185534 1.826612727e-38
-0.3645181656 -0.2105244994 -0.183301121 1.826612727e-38
0.3255840242 -0.2928051651 -0.02884621173 1.826612727e-38
0.2773197889 -0.08616398275 -0.251505971 1.826612727e-38
0.1945591867 -0.4178801179 -0.2576211989 1.826612727e-38
-0.259416163 -0.7677588463 -0.006215572357 1.826612727e-38
0.174991101 -0.06493739039 -0.2502604723 1.826612727e-38
-0.274941355 -0.438649416 -0.2241939902 1.826612727e-38
-0.1194963455 -0.09302787483 -0.2257608622 1.844943813e-38
-0.07270646095 -0.07152158767 -0.2336506844 1.844943813e-38
-0.2820110023 -0.1774769723 -0.1960701644 1.844943813e-38
-0.1637865007 -0.1328882426 -0.2137184292 1.844943813e-38
-0.1305688769 -0.1029929817 -0.2227502465 1.844943813e-38
0.3086519539 -0.1720107347 -0.06721742451 1.844943813e-38
0.06283981353 -0.0628529191 -0.2439280301 1.844943813e-38
-0.141641438 -0.1129580587 -0.2197396457 1.844943813e-38
0.3308292329 -0.2894685864 -0.1849373579 1.863274899e-38
0.213208124 -0.07175022364 -0.2509870529 1.863274899e-38
0.3153743148 -0.1931320727 0.02589281648 1.863274899e-38
-0.4593477547 -0.2443600595 -0.1695977747 1.863274899e-38
0.3395110667 -0.2826212645 0.03434234113 1.863274899e-38
0.02932459861 -0.4853811264 0.0450271219 1.863274899e-38
0.3301451802 -0.2879755497 -0.1963165998 1.863274899e-38
-0.06333450228 -0.5175048709 0.1135503873 1.863274899e-38
0.433203429 -0.3364080191 0.0587404184 1.881569971e-38
0.3051482737 -0.1044349596 -0.2378427237 1.881569971e-38
0.3366565704 -0.2828400731 -0.03185681999 1.881569971e-38
0.338827014 -0.2811282277 0.02296310477 1.881569971e-38
0.1450145245 -0.4887398481 0.1162730977 1.881569971e-38
0.3198749721 -0.2932427526 -0.1612445563 1.881569971e-38
0.3130021989 -0.1409242898 -0.1633383334 1.881569971e-38
0.03819500655 -0.06442903727 -0.2420594096 1.881569971e-38
-0.2862597704 -0.4886592031 -0.05678702146 1.899901057e-38
-0.4113080204 -0.2320308089 -0.1754112989 1.899901057e-38
0.2391027361 -0.0793511495 -0.2507793605 1.899901057e-38
0.3112699389 -0.1841738522 -0.04238265008 1.899901057e-38
0.3079679012 -0.170517683 -0.07859668881 1.899901057e-38
-0.3755907118 -0.2204895616 -0.1802905053 1.899901057e-38
-0.1625366509 -0.1420652568 -0.2116421163 1.899901057e-38
-0.1859315783 -0.1528184265 -0.2076971978 1.899901057e-38
0.2042543292 -0.4325917363 -0.07762958109 1.91819627e-38
0.3250182271 -0.2851211727 -0.01954327896 1.91819627e-38
0.3255262375 -0.1940558553 -0.02986138128 1.91819627e-38
0.2035702765 -0.4310986996 -0.08900881559 1.91819627e-38
0.2028862089 -0.4296056628 -0.1003880799 1.91819627e-38
0.3401951492 -0.2841143012 0.04572157562 1.91819627e-38
-0.07634097338 -0.5167999268 0.1031054631 1.91819627e-38
-0.4568480551 -0.2627141178 -0.1654451638 1.91819627e-38
0.4201969802 -0.3357030451 0.04829548672 1.936527215e-38
0.3072838485 -0.1690246463 -0.0899759233 1.936527215e-38
0.2063065171 -0.4370709062 -0.04349184781 1.936527215e-38
0.3220454156 -0.2915309072 -0.1064246297 1.936527215e-38
0.200834021 -0.4251265526 -0.1345258057 1.936527215e-38
-0.304156065 -0.1974071562 -0.1900489479 1.936527215e-38
-0.3632683158 -0.2197014987 -0.181224823 1.936527215e-38
-0.1391417533 -0.1313121319 -0.2155870348 1.936527215e-38
-0.06695649028 -0.4561200738 -0.07775709778 1.954822428e-38
-0.1169966534 -0.1113819405 -0.2216082513 1.954822428e-38
0.324215889 -0.2898190618 -0.05160471052 1.954822428e-38
0.2069905698 -0.4385639429 -0.03211258352 1.954822428e-38
0.2980618179 -0.12954925 -0.1872388124 1.954822428e-38
0.3329997063 -0.2877567708 -0.1301174313 1.954822428e-38
0.06408965588 -0.07202993333 -0.2418517172 1.954822428e-38
-0.01629880629 -0.455953896 -0.05873581022 1.954822428e-38
0.05533747002 -0.4867910743 0.06591699272 1.973153514e-38
0.3175540566 -0.1637574732 -0.1250479519 1.973153514e-38
0.1994659007 -0.4221404791 -0.1572843194 1.973153514e-38
-0.07565691322 -0.5182929635 0.1144846901 1.973153514e-38
0.3138878942 -0.1963369548 -0.01754784212 1.973153514e-38
0.3159400821 -0.2008160651 0.01658989117 1.973153514e-38
-0.2684387565 -0.1858659387 -0.1949281543 1.973153514e-38
0.3241581321 -0.1910697818 -0.0526198782 1.973153514e-38
0.0394448489 -0.07360605896 -0.2399831116 1.991448586e-38
0.08135040104 -0.4882010221 0.0868069008 1.991448586e-38
0.3281442225 -0.2062189579 -0.005026578903 1.991448586e-38
0.04301508889 -0.4875791669 0.06685129553 1.991448586e-38
0.1146290228 -0.07805471867 -0.2435126305 1.991448586e-38
-0.1846817434 -0.1619954407 -0.2056208998 1.991448586e-38
0.3354067206 -0.273663044 -0.03393312544 1.991448586e-38
-0.1356548667 -0.4851746559 -0.02248166502 1.991448586e-38
0.308332026 -0.1242820621 -0.2223108709 2.009743799e-38
0.3278727531 -0.284902364 0.04665587842 2.009743799e-38
0.1463826597 -0.4917259812 0.1390316188 2.009743799e-38
0.3206773102 -0.2885448337 -0.1291831285 2.009743799e-38
-0.2561163902 -0.1850778759 -0.1958624572 2.009743799e-38
0.08998425305 -0.07963083684 -0.2416440248 2.009743799e-38
0.4193368852 -0.2416516542 0.0152188912 2.009743799e-38
0.3234740496 -0.189576745 -0.06399911642 2.009743799e-38
0.1593890786 -0.4924309254 0.149476558 2.028074885e-38
-0.00984471105 -0.0767583102 -0.2362459004 2.028074885e-38
0.3375771642 -0.2719511986 0.02088680118 2.028074885e-38
0.2993116677 -0.1387262642 -0.1851624995 2.028074885e-38
-0.3668418229 -0.2847287655 -0.1657563746 2.028074885e-38
-0.2645970881 -0.5211555958 0.06022378057 2.028074885e-38
0.3338020444 -0.283058852 -0.0980559811 2.028074885e-38
-0.353269577 -0.2931177318 -0.1646143645 2.028074885e-38
0.4182630777 -0.3250329494 0.03483994678 2.046369957e-38
-0.2437939942 -0.184289813 -0.1967967749 2.046369957e-38
-0.1856284887 -0.4868338108 -0.03012371063 2.046369957e-38
0.3301964104 -0.2106980681 0.0291111283 2.046369957e-38
0.336209029 -0.2689651251 -0.001871697139 2.046369957e-38
-0.06895693392 -0.09905267507 -0.2274217755 2.046369957e-38
0.06902803481 -0.4889891148 0.08774120361 2.046369957e-38
0.3347226381 -0.2721700072 -0.04531236365 2.046369957e-38
0.1528460532 -0.08486757427 -0.244239226 2.06466517e-38
0.4189471304 -0.3265259862 0.04621918127 2.06466517e-38
0.02837231942 -0.08357114345 -0.2369725108 2.06466517e-38
0.3078496158 -0.1767086387 -0.09927888215 2.06466517e-38
0.3095818758 -0.1334590912 -0.2202345729 2.06466517e-38
0.3151377439 -0.205513984 -0.01547153853 2.06466517e-38
-0.2671889365 -0.1950429678 -0.1928518564 2.06466517e-38
-0.1602996588 -0.4867507815 -0.0206130594 2.06466517e-38
0.2953255773 -0.1235770881 -0.23275581 2.082996116e-38
-0.06770709157 -0.1082296968 -0.2253454626 2.082996116e-38
0.2979435623 -0.1357401907 -0.2079209983 2.082996116e-38
0.1540958881 -0.09404459596 -0.242162928 2.082996116e-38
-0.3139787912 -0.2165492773 -0.1849620342 2.082996116e-38
0.3340385854 -0.2706769407 -0.05669162422 2.082996116e-38
0.05426691473 -0.09117206931 -0.2367648035 2.082996116e-38
0.03137677908 -0.4898602366 0.07916482538 2.082996116e-38
0.3088978231 -0.1319660544 -0.2316137999 2.101291328e-38
0.3238866329 -0.2697531879 -0.0009373943321 2.101291328e-38
0.3293940723 -0.2153960168 -0.002950269962 2.101291328e-38
-0.1096419692 -0.4865846038 -0.001591771841 2.101291328e-38
0.0801615715 -0.09877295792 -0.2365571111 2.101291328e-38
-0.3421970606 -0.2831526399 -0.1676249802 2.101291328e-38
-0.05538471043 -0.1074416339 -0.2262797654 2.101291328e-38
0.1430233568 -0.1040096954 -0.2391523123 2.101291328e-38
-0.3816638887 -0.26716277 -0.1689746827 2.119586541e-38
0.1307009757 -0.1047977582 -0.2382180095 2.119586541e-38
-0.07360473275 -0.5227720737 0.1486223936 2.119586541e-38
-0.3373736739 -0.2273024321 -0.1810171157 2.119586541e-38
0.1094154567 -0.4940901399 0.1418345273 2.119586541e-38
0.1183785573 -0.105585821 -0.2372837067 2.119586541e-38
0.1686645895 -0.4102792144 -0.2578289211 2.119586541e-38
-0.1821820438 -0.180349499 -0.2014682889 2.119586541e-38
0.03087201156 -0.1019252092 -0.2328198999 2.137881613e-38
-0.2010070682 -0.4339210391 -0.2297998071 2.137881613e-38
-0.007345018908 -0.09511236846 -0.2320932895 2.137881613e-38
0.09373378754 -0.1071619466 -0.2354151011 2.137881613e-38
0.09640902281 -0.4933851361 0.1313895285 2.137881613e-38
-0.01617125422 -0.4221001267 -0.2438143492 2.137881613e-38
-0.02096895687 -0.4393116832 -0.1177083477 2.137881613e-38
0.1886299103 -0.4197236896 -0.112909317 2.137881613e-38
0.1809869707 -0.4094911814 -0.2587632239 2.156176826e-38
-0.02302114107 -0.4348325133 -0.151846081 2.156176826e-38
-0.05898430943 -0.486418426 0.01742948592 2.156176826e-38
0.3108317256 -0.1426361352 -0.21815826 2.156176826e-38
0.03311827779 -0.4189478755 -0.2475515604 2.156176826e-38
0.05676660687 -0.1095261276 -0.2326121926 2.156176826e-38
-0.02438926324 -0.4318464398 -0.1746045798 2.156176826e-38
0.1879458576 -0.4182306528 -0.1242885888 2.156176826e-38
0.01979947649 -0.1118903086 -0.2298092842 2.174471899e-38
-0.02644144744 -0.4273673296 -0.2087423205 2.174471899e-38
-0.1972668171 -0.4891149402 -0.01781014353 2.174471899e-38
-0.09663553536 -0.4872896075 0.008853159845 2.174471899e-38
0.1944223642 -0.4793966413 0.1332180798 2.174471899e-38
0.120878242 -0.1239398643 -0.2331310958 2.174471899e-38
-0.1452149004 -0.1779853404 -0.2042711973 2.174471899e-38
-0.1024279743 -0.4276165962 -0.2372742295 2.174471899e-38
0.3124015033 -0.199541837 -0.06098850816 2.192767111e-38
-0.01162865572 -0.4725961089 0.0002367272973 2.192767111e-38
0.3101476729 -0.1411430836 -0.229537487 2.192767111e-38
0.3018113375 -0.1570803225 -0.1810098886 2.192767111e-38
-0.3829137385 -0.2579857707 -0.1710509807 2.192767111e-38
-0.289334029 -0.2149731517 -0.1868306398 2.192767111e-38
0.323355794 -0.1957676709 -0.08468130976 2.192767111e-38
0.008726948872 -0.1218553856 -0.2267986685 2.192767111e-38
-0.3163024187 -0.2907535434 -0.1674172729 2.211062324e-38
0.04506727681 -0.4920582771 0.1009890512 2.211062324e-38
-0.05253291503 -0.3109124005 -0.178732425 2.211062324e-38
-0.07162664086 -0.4394778609 -0.1367296278 2.211062324e-38
0.3160676658 -0.1669623405 -0.1684886515 2.211062324e-38
-0.3484462798 -0.237267524 -0.1780065 2.211062324e-38
-0.06957446039 -0.4439569712 -0.102591902 2.211062324e-38
-0.1089579016 -0.4880776405 0.009787462652 2.211062324e-38
-0.07299476862 -0.4364917278 -0.1594881415 2.229357396e-38
-0.1932546198 -0.1903145909 -0.1984576732 2.229357396e-38
-0.04056261852 -0.1250076294 -0.2230614573 2.229357396e-38
0.2441021055 -0.1160592511 -0.2424741387 2.229357396e-38
-0.005590381101 -0.4922244549 0.0819677338 2.229357396e-38
0.3094636202 -0.1396500468 -0.240916729 2.229357396e-38
0.02229916491 -0.1302443445 -0.2256566733 2.229357396e-38
-0.2509065568 -0.5233536363 0.08204794675 2.229357396e-38
0.1221280918 -0.1331169009 -0.2310547829 2.247652609e-38
-0.1842603683 -0.4898199439 -0.007365211844 2.247652609e-38
-0.1686098427 -0.1887384653 -0.2003262788 2.247652609e-38
0.1701677889 -0.1207876205 -0.236868307 2.247652609e-38
-0.03931277618 -0.1341846585 -0.2209851593 2.247652609e-38
-0.06889039278 -0.4454500079 -0.09121263772 2.247652609e-38
-0.3705913424 -0.2571977079 -0.1719852835 2.247652609e-38
0.3342751563 -0.2582950592 -0.01532723662 2.247652609e-38
0.1467728913 -0.1315407753 -0.2329234034 2.265947681e-38
-0.2632289827 -0.5241417289 0.08298224956 2.265947681e-38
0.3269614279 -0.2681284547 -0.2118484527 2.265947681e-38
-0.2910133302 -0.4119063616 -0.2294886112 2.265947681e-38
-0.2875096202 -0.4794821739 -0.05886332691 2.265947681e-38
0.2194573432 -0.1176353768 -0.2406055331 2.265947681e-38
0.319545716 -0.2731768489 -0.1105772406 2.265947681e-38
0.07176427543 -0.4949612617 0.1332581341 2.265947681e-38
0.3306438923 -0.2245730162 -0.0008739652112 2.284242894e-38
0.01122663729 -0.1402094513 -0.2226460576 2.284242894e-38
-0.1439650655 -0.1871623397 -0.2021948844 2.284242894e-38
0.3143354356 -0.2102119029 -0.0475329645 2.284242894e-38
0.2971412241 -0.1404381096 -0.2399824262 2.284242894e-38
0.3160071373 -0.271902591 -0.188155666 2.284242894e-38
-0.3446967304 -0.2647986114 -0.1717775911 2.284242894e-38
0.1697775573 -0.4809727669 0.1350866854 2.284242894e-38
-0.06820634007 -0.4469430447 -0.07983340323 2.302537966e-38
-0.2527962923 -0.4187192321 -0.2302151918 2.302537966e-38
-0.2786909044 -0.4111183286 -0.230422914 2.302537966e-38
-0.02574055269 -0.1425736398 -0.2198431492 2.302537966e-38
0.1233779266 -0.1422939301 -0.2289784849 2.302537966e-38
0.3107134402 -0.148827076 -0.238840431 2.302537966e-38
0.135700345 -0.1415058672 -0.2299127877 2.302537966e-38
0.3253730834 -0.2665483356 0.04250327125 2.302537966e-38
-0.01094459463 -0.4740891457 0.01161596179 2.320833179e-38
-0.299349606 -0.4278436899 -0.1809610128 2.320833179e-38
-0.0002361666411 -0.5103597045 0.1523195505 2.320833179e-38
-0.03681308776 -0.1525387168 -0.2168325335 2.320833179e-38
-0.2335499078 -0.4929721951 -0.003628000617 2.320833179e-38
-0.3595187962 -0.2472325861 -0.1749958992 2.320833179e-38
0.0247988496 -0.1485984027 -0.2215040624 2.320833179e-38
-0.19200477 -0.1994916499 -0.1963813603 2.320833179e-38
0.329815954 -0.2679096758 -0.1456492841 2.339092378e-38
0.3183214962 -0.225361079 6.033759564e-05 2.339092378e-38
0.319005549 -0.2268541157 0.01143957302 2.339092378e-38
0.1304475516 -0.4034663439 -0.2571023107 2.339092378e-38
-0.2934296131 -0.4536629319 -0.1199121699 2.339092378e-38
0.2117789984 -0.4490152001 0.04754211754 2.339092378e-38
-0.1673599929 -0.1979155242 -0.1982499808 2.339092378e-38
0.3056791723 -0.1784204692 -0.1540988088 2.339092378e-38
0.316953361 -0.2223750055 -0.02269816026 2.348204041e-38
0.1866960078 -0.4090536237 -0.1263648868 2.348204041e-38
-0.004222256131 -0.4952105284 0.1047262624 2.348204041e-38
0.08115799725 -0.4066185951 -0.2533650994 2.348204041e-38
-0.2757617831 -0.223362118 -0.1856886297 2.348204041e-38
-0.0297434777 -0.4137111902 -0.2449563742 2.348204041e-38
0.3350774944 -0.2535971403 0.01673418842 2.348204041e-38
0.04711945727 -0.4965373874 0.1351267695 2.348204041e-38
0.1926649958 -0.2859741449 -0.199494794 2.348132155e-38
-0.03556323797 -0.1617157459 -0.2147562355 2.348132155e-38
0.1451328099 -0.4825488925 0.136955291 2.348132155e-38
0.179846108 -0.4217860103 -0.0343965888 2.348132155e-38
-0.02495504916 -0.4241624475 -0.1653016508 2.348132155e-38
0.3049951196 -0.1769274324 -0.1654780358 2.348132155e-38
0.3159493804 -0.173153311 -0.1891708374 2.348132155e-38
0.2178172767 -0.4686435461 0.1292731762 2.348132155e-38
0.1961545944 -0.4361470938 0.01226240396 2.348060128e-38
-0.1303928345 -0.1955513358 -0.2010528892 2.348060128e-38
0.31196329 -0.1580041051 -0.2367641181 2.348060128e-38
-0.2281515449 -0.4171431065 -0.2320837975 2.348060128e-38
0.4232046604 -0.2629917562 0.04212996736 2.348060128e-38
0.2096346766 -0.1367774904 -0.2355186194 2.348060128e-38
0.1252023578 -0.4068029523 -0.1010111794 2.348060128e-38
0.001403892413 -0.1593515873 -0.2175591439 2.348060128e-38
-0.2153996825 -0.2102447748 -0.1924364567 2.347952368e-38
0.3277637661 -0.2634305656 -0.17978701 2.347952368e-38
0.3043110371 -0.1754343808 -0.1768572778 2.347952368e-38
-0.02085067891 -0.4331207275 -0.09702616185 2.347952368e-38
-0.07622270286 -0.5106089115 0.1237876192 2.347952368e-38
-0.1057480499 -0.1939752102 -0.2029214948 2.347952368e-38
0.149272576 -0.1498948336 -0.2287707776 2.347952368e-38
0.09028734267 -0.4136462212 -0.06407053024 2.347952368e-38
-0.08998729289 -0.420637548 -0.2175263762 2.347880341e-38
-0.0721924305 -0.4317938089 -0.1274266839 2.347880341e-38
-0.2960475683 -0.4414997697 -0.1447469741 2.347880341e-38
-0.07424461097 -0.4273146987 -0.1615644395 2.347880341e-38
0.4230864048 -0.2691827416 0.02144780755 2.347880341e-38
0.3330253065 -0.2491180301 -0.01740354672 2.347880341e-38
-0.182892248 -0.4928060174 0.01539328694 2.347880341e-38
0.3161254227 -0.2657116354 -0.1674734801 2.347880341e-38
0.3145812452 -0.1701672226 -0.2119293362 2.347808455e-38
0.2737463117 -0.1511912644 -0.2360375226 2.347808455e-38
-0.07003074139 -0.1824339926 -0.2078007162 2.347808455e-38
0.1498471051 -0.4052268267 -0.102879785 2.347808455e-38
0.08823516965 -0.4091671109 -0.09820826352 2.347808455e-38
-0.2927455306 -0.4551559687 -0.1085329056 2.347808455e-38
0.3176118135 -0.262506783 -0.124032788 2.347808455e-38
0.01497616805 -0.1677405238 -0.2164171487 2.347808455e-38
-0.2618608475 -0.5271278024 0.1057407334 2.347700555e-38
-0.1952146292 -0.4935940504 0.01632758975 2.347700555e-38
0.3029429317 -0.1724483073 -0.1996157765 2.347700555e-38
0.1258776188 -0.1606479883 -0.224825874 2.347700555e-38
0.3323412538 -0.2476249933 -0.02878280729 2.347700555e-38
-0.02199102007 -0.1701047122 -0.2136142254 2.347700555e-38
0.03962092102 -0.166164428 -0.2182857543 2.347700555e-38
-0.009668642655 -0.1693166494 -0.2145485282 2.347700555e-38
0.3293684125 -0.2540347278 -0.1156641617 2.347628668e-38
0.07659685612 -0.4114482403 -0.08589470387 2.347628668e-38
-0.06422024965 -0.4620922208 -0.0322401002 2.347628668e-38
0.3149011731 -0.2178958952 -0.05683589354 2.347628668e-38
0.2614239156 -0.1519793123 -0.2351032197 2.347628668e-38
0.1279385984 -0.4127750993 -0.05549418181 2.347628668e-38
-0.153787747 -0.2063044608 -0.1971079707 2.347628668e-38
0.1635376066 -0.4074248075 -0.08105558902 2.347628668e-38
0.3202553988 -0.2360311449 0.01351587661 2.347520768e-38
0.1382000446 -0.1598599255 -0.2257601768 2.347520768e-38
0.08755110204 -0.4076740742 -0.1095875055 2.347520768e-38
0.09918941557 -0.4053930044 -0.1219010651 2.347520768e-38
0.1744919121 -0.403650701 -0.1047483981 2.347520768e-38
0.1354725361 -0.4015357494 -0.1360832155 2.347520768e-38
0.3188872635 -0.2330450714 -0.009242622182 2.347520768e-38
-0.2875930369 -0.4193716049 -0.1725923717 2.347520768e-38
0.1758600324 -0.4066367745 -0.08198989928 2.347448882e-38
-0.1698857695 -0.4935109615 0.02583821118 2.347448882e-38
0.3102310598 -0.2012536526 -0.1158084348 2.347448882e-38
0.3338276446 -0.244420141 0.01465788297 2.347448882e-38
0.0162260104 -0.1769175529 -0.2143408358 2.347448882e-38
0.2653494775 -0.2720687389 -0.2071769238 2.347448882e-38
0.07783794403 -0.1729772389 -0.2190123498 2.347448882e-38
0.3331435919 -0.2429271042 0.003278647549 2.347448882e-38
-0.2488543689 -0.5278327465 0.1161857024 2.347340982e-38
0.1168753356 -0.3950774074 -0.2582443058 2.347340982e-38
0.1724397242 -0.3991715908 -0.1388861239 2.347340982e-38
-0.2805065215 -0.3942573667 -0.2231962681 2.347340982e-38
-0.2954071462 -0.2616463602 -0.1755148023 2.347340982e-38
-0.03030925989 -0.4060271978 -0.2356534302 2.347340982e-38
0.09223052859 -0.396653533 -0.2563757002 2.347340982e-38
-0.1665396094 -0.4132028222 -0.2367553115 2.347340982e-38
0.1291977167 -0.3942893744 -0.2591786087 2.347269095e-38
0.1717556715 -0.3976785541 -0.1502653658 2.347269095e-38
0.328473419 -0.2262848616 -0.05569389462 2.347269095e-38
-0.1069057137 -0.4925567508 0.04392522573 2.347269095e-38
-0.02346864715 -0.4209576249 -0.1218609586 2.347269095e-38
0.3010668159 -0.2605275512 -0.2120561451 2.347269095e-38
0.3185324669 -0.2516179383 -0.07128916681 2.347269095e-38
0.07317654788 -0.4039830565 -0.1427909434 2.347269095e-38
-0.02483676933 -0.4179715514 -0.1446194649 2.347161195e-38
0.00597383827 -0.4021699429 -0.2498355806 2.347161195e-38
0.0663266629 -0.4167154431 -0.05082266405 2.347161195e-38
0.1587491781 -0.3969735503 -0.1607103199 2.347161195e-38
-0.1035595387 -0.4122486115 -0.2186683714 2.347161195e-38
0.2121343464 -0.1551315486 -0.2313659936 2.347161195e-38
0.06153822318 -0.4062641263 -0.1304773986 2.347161195e-38
0.2037375271 -0.276009053 -0.2025054097 2.347161195e-38
0.0834467262 -0.3987158537 -0.1778630018 2.347089308e-38
0.319334805 -0.2469200194 -0.03922773898 2.347089308e-38
0.1710716039 -0.3961855173 -0.1616446227 2.347089308e-38
-0.09055307508 -0.4129536152 -0.2082234025 2.347089308e-38
-0.1192281246 -0.4933447838 0.04485952854 2.347089308e-38
0.1416290849 -0.4149731398 -0.03366998583 2.347089308e-38
0.0827626735 -0.3972228169 -0.1892422438 2.347089308e-38
-0.1525378972 -0.2154815197 -0.1950316727 2.347089308e-38
0.04989990965 -0.4085452557 -0.1181638539 2.346981408e-38
0.07044029236 -0.39801085 -0.188307941 2.346981408e-38
0.05126803741 -0.4115313292 -0.0954053551 2.346981408e-38
0.02315877378 -0.4996065497 0.1483746469 2.346981408e-38
0.02979823388 -0.1853065491 -0.2131988257 2.346981408e-38
-0.2681841552 -0.393469274 -0.2241305709 2.346981408e-38
-0.2953286469 -0.3766913414 -0.2264145911 2.346981408e-38
0.1798553914 -0.3941231966 -0.240157336 2.346981408e-38
-0.08850088716 -0.4174327254 -0.1740856767 2.346909522e-38
-0.140215531 -0.2146934569 -0.1959659755 2.346909522e-38
-0.2481703162 -0.5293257833 0.1275649369 2.346909522e-38
-0.1692017168 -0.4950039983 0.03721744567 2.346909522e-38
-0.1155707389 -0.2131173313 -0.1978345811 2.346909522e-38
0.04853178933 -0.4055591822 -0.1409223378 2.346909522e-38
-0.1032483652 -0.2123292685 -0.1987688839 2.346909522e-38
0.0670107156 -0.4182084799 -0.03944342956 2.346909522e-38
0.05263615772 -0.4145174026 -0.07264685631 2.346801622e-38
0.1283773035 -0.1790020466 -0.2206732631 2.346801622e-38
0.1197298616 -0.3948585987 -0.1920451522 2.346801622e-38
0.03894560039 -0.4123193622 -0.09447105229 2.346801622e-38
0.03415717185 -0.4018681049 -0.1741257906 2.346801622e-38
0.1327362955 -0.3955636024 -0.1816002131 2.346801622e-38
-0.2855844796 -0.2425042391 -0.180601716 2.346801622e-38
0.1450586766 -0.3947755098 -0.1825345159 2.346801622e-38
0.3021405935 -0.1771462262 -0.2316772044 2.346693862e-38
0.3304073513 -0.2369549274 -0.04223834723 2.346693862e-38
-0.2807872891 -0.5006035566 0.03424694389 2.346693862e-38
-0.2128999829 -0.2285988331 -0.1882838458 2.346693862e-38
0.009512420744 -0.4034442306 -0.172257185 2.346693862e-38
-0.2521564066 -0.5141766071 0.07997164875 2.346693862e-38
0.2257065922 -0.163520515 -0.2302239984 2.346693862e-38
-0.2862249017 -0.4223576784 -0.1498338878 2.346693862e-38
0.3194530606 -0.2407290637 -0.01854554936 2.346621835e-38
0.3296050131 -0.2416528165 -0.07429977506 2.346621835e-38
0.1573810577 -0.3939874768 -0.1834688187 2.346621835e-38
-0.276520431 -0.4094065428 -0.1756029725 2.346621835e-38
0.001294413581 -0.4131905437 -0.1030473784 2.346621835e-38
0.1406997293 -0.1782139838 -0.2216075659 2.346621835e-38
-0.1924341917 -0.4056019187 -0.2369630337 2.346621835e-38
0.3121649325 -0.2119237185 -0.1023528874 2.346621835e-38
0.08001716435 -0.418913424 -0.02899846807 2.346514075e-38
-0.2252970189 -0.4169243574 -0.1658846438 2.346514075e-38
-0.2525597513 -0.4063373804 -0.1888508499 2.346514075e-38
-0.01171205379 -0.4124855399 -0.1134923398 2.346514075e-38
0.02662322298 -0.4131074548 -0.09353674948 2.346514075e-38
-0.09321522713 -0.4947547913 0.06574938446 2.346514075e-38
-0.006840227172 -0.4830474257 0.0798914358 2.346514075e-38
-0.07860358059 -0.2107531428 -0.2006374896 2.346514075e-38
0.3177650273 -0.1900143325 -0.1963974684 2.346406175e-38
-0.2847733796 -0.4854543209 -0.01334632933 2.346406175e-38
-0.01923672855 -0.3960621357 -0.238664031 2.346406175e-38
-0.2006522417 -0.4153482318 -0.1677532494 2.346406175e-38
-0.02882286161 -0.4028223157 -0.1922127306 2.346406175e-38
0.3297232687 -0.2354618907 -0.05361758545 2.346406175e-38
-0.2843346298 -0.2516812682 -0.1785254031 2.346406175e-38
0.06633593142 -0.3890526295 -0.2565833926 2.346406175e-38
0.3170809448 -0.1885212809 -0.2077767253 2.346334289e-38
0.06769478321 -0.4197015166 -0.02806416526 2.346334289e-38
0.1813417971 -0.3909183145 -0.1967166662 2.346334289e-38
0.1553196013 -0.4171711206 -0.01184581965 2.346334289e-38
-0.2584400177 -0.2592821717 -0.1783177108 2.346334289e-38
-0.1512880474 -0.2246585488 -0.1929553598 2.346334289e-38
-0.08633042872 -0.41572088 -0.1192657501 2.346334289e-38
-0.09180292487 -0.4037765265 -0.2102997303 2.346334289e-38
-0.04163642228 -0.2083889544 -0.203440398 2.346226389e-38
0.02799134701 -0.4160935283 -0.07077825069 2.346226389e-38
-0.2609397173 -0.2409281135 -0.1824703217 2.346226389e-38
-0.08769854903 -0.4127348065 -0.1420242488 2.346226389e-38
-0.08906666934 -0.4097486734 -0.1647827476 2.346226389e-38
-0.08975073695 -0.4082556367 -0.1761619747 2.346226389e-38
-0.09865283966 -0.416508913 -0.1183314472 2.346226389e-38
-0.1308664382 -0.4956259131 0.05717306584 2.346226389e-38
-0.1486264318 -0.4181681275 -0.1259734631 2.346118629e-38
-0.1992841214 -0.4183343053 -0.1449947506 2.346118629e-38
-0.2706838548 -0.3751152158 -0.2282831967 2.346118629e-38
-0.2060064524 -0.3972129226 -0.2381050289 2.346118629e-38
0.08158747852 -0.2005083561 -0.2127834409 2.346118629e-38
0.2165674418 -0.459466517 0.1271968782 2.346118629e-38
-0.1696836054 -0.2721197903 -0.1807052195 2.346118629e-38
-0.1246657073 -0.4150989652 -0.1392213404 2.346118629e-38
-0.1130273938 -0.4128178358 -0.1515348852 2.346010729e-38
-0.1390403062 -0.4114078879 -0.1724247634 2.346010729e-38
-0.01699164137 -0.2068128586 -0.2053090036 2.346010729e-38
0.3108894825 -0.2413854301 -0.2171430588 2.346010729e-38
0.2394548804 -0.2644678652 -0.207384631 2.346010729e-38
-0.2485736609 -0.4214864969 -0.1412575394 2.346010729e-38
-0.2637947798 -0.5164576769 0.0922851786 2.346010729e-38
-0.2486173362 -0.2401400506 -0.1834046245 2.346010729e-38
-0.0944994539 -0.2765684724 -0.1842347383 2.345938842e-38
-0.008848228492 -0.3846039772 -0.2530538738 2.345938842e-38
-0.02048657276 -0.3868850768 -0.2407403588 2.345938842e-38
-0.2454732955 -0.3812230825 -0.2394547164 2.345938842e-38
0.01716464385 -0.3860139251 -0.2321640253 2.345938842e-38
0.0553724058 -0.4204895496 -0.02712986246 2.345938842e-38
-0.1986000538 -0.419827342 -0.1336155236 2.345938842e-38
0.1301183403 -0.3834004998 -0.2064349949 2.345938842e-38
-0.2178072184 -0.4996492863 0.05233395845 2.345830942e-38
-0.1450388283 -0.2705436945 -0.1825738251 2.345830942e-38
0.06508608162 -0.3798756003 -0.2586596906 2.345830942e-38
0.3134147823 -0.2211007476 -0.1002765894 2.345830942e-38
-0.241487205 -0.3963722587 -0.1918614507 2.345830942e-38
-0.0008019488305 -0.5026757121 0.1616224945 2.345830942e-38
-0.2933113277 -0.4474719763 -0.09922997653 2.345830942e-38
-0.132716462 -0.2697556317 -0.1835081279 2.345830942e-38
0.228206262 -0.1818745732 -0.2260713875 2.345723183e-38
0.19024387 -0.3826650679 -0.2545472085 2.345723183e-38
-0.09813119471 -0.5181572437 0.1711732149 2.345723183e-38
0.3159144819 -0.2394548059 -0.09612397105 2.345723183e-38
-0.2424519956 -0.5012254119 0.05420256406 2.345723183e-38
0.2002589554 -0.4451053739 0.08053787798 2.345723183e-38
0.05425010994 -0.3774588108 -0.2142847478 2.345723183e-38
-0.1709334552 -0.262942791 -0.1827815324 2.345723183e-38
0.1895598173 -0.3811720312 -0.2659264207 2.345615283e-38
0.09515970945 -0.2088973224 -0.2116414309 2.345615283e-38
-0.08342689276 -0.2666033804 -0.1872453541 2.345615283e-38
0.2628497779 -0.2537146807 -0.2113295346 2.345615283e-38
-0.2834052444 -0.4884403944 0.009412169456 2.345615283e-38
-0.01574179903 -0.2159898579 -0.2032327056 2.345615283e-38
0.06569158286 -0.2663236558 -0.1963806897 2.345615283e-38
-0.0823443383 -0.4308700562 -0.07167244703 2.345615283e-38
0.06837883592 -0.4211945534 -0.01668493077 2.345507523e-38
-0.01481240243 -0.4527490139 -0.01529511809 2.345507523e-38
-0.2168424278 -0.394796133 -0.1937300563 2.345507523e-38
-0.05878213793 -0.2650272548 -0.1891139597 2.345507523e-38
-0.02173641697 -0.3777080476 -0.2428166568 2.345507523e-38
0.09121723473 -0.3750946522 -0.2170876563 2.345507523e-38
0.3169626594 -0.1947122216 -0.2284588963 2.345507523e-38
-0.2473674864 -0.2493170798 -0.1813283265 2.345507523e-38
0.1924889237 -0.1934158206 -0.2211921662 2.345399623e-38
0.01591480151 -0.3768368959 -0.2342403233 2.345399623e-38
-0.004788041115 -0.487526536 0.1140291914 2.345399623e-38
0.305324316 -0.1969933212 -0.2161453515 2.345399623e-38
-0.1104536057 -0.5189452767 0.1721075177 2.345399623e-38
-0.2472055256 -0.42447263 -0.1184990406 2.345399623e-38
0.200943023 -0.4465984106 0.09191710502 2.345399623e-38
0.1149811521 -0.2631714344 -0.200117901 2.345399623e-38
0.1643492579 -0.3750641644 -0.2547549009 2.345291723e-38
0.3153486848 -0.2317708135 -0.086821042 2.345291723e-38
0.0391914919 -0.3722746968 -0.2588674128 2.345291723e-38
-0.1548271626 -0.4986950755 0.0704208985 2.345291723e-38
-0.1462886781 -0.2613666654 -0.184650138 2.345291723e-38
0.1636652052 -0.3735711277 -0.2661341429 2.345291723e-38
0.1796002537 -0.4618306756 0.1299997866 2.345291723e-38
0.1759875864 -0.3727830648 -0.2670684457 2.345291723e-38
0.006648626179 -0.4313257933 -0.03269560635 2.345219836e-38
0.106915772 -0.4757360816 0.1376819015 2.345219836e-38
0.1765930802 -0.2592311203 -0.204789415 2.345219836e-38
0.2258826345 -0.2560788691 -0.2085266262 2.345219836e-38
0.03999383375 -0.3675767779 -0.226805985 2.345219836e-38
-0.2337167114 -0.3727510273 -0.2310861051 2.345219836e-38
-0.1034854054 -0.5000219345 0.1008214578 2.345219836e-38
-0.2220783681 -0.3704699278 -0.2433996499 2.345219836e-38
0.2135602683 -0.2568669319 -0.2075923234 2.345111936e-38
0.3263029754 -0.2279966772 -0.1105138138 2.345111936e-38
0.06383624673 -0.370698601 -0.2607360184 2.345111936e-38
0.1444492638 -0.2057450712 -0.2153786421 2.345111936e-38
-0.03530864045 -0.3693190813 -0.243958652 2.345111936e-38
-0.1007486731 -0.2306833267 -0.194616273 2.345111936e-38
0.2171337456 -0.191839695 -0.2230607718 2.345111936e-38
-0.2294455469 -0.5019304156 0.0646474883 2.345111936e-38
0.03794164956 -0.3630976677 -0.2609437108 2.345004176e-38
-0.116491884 -0.4993169904 0.09037647396 2.345004176e-38
0.02747461386 -0.2595108151 -0.1956540793 2.345004176e-38
0.1567716449 -0.2049570084 -0.2163129449 2.345004176e-38
0.03979698569 -0.2587227523 -0.1965883821 2.345004176e-38
-0.09699913859 -0.2582144141 -0.1883873492 2.345004176e-38
-0.2097559869 -0.369681865 -0.2443339527 2.345004176e-38
-0.02492016554 -0.3578609526 -0.2583484948 2.345004176e-38
0.3096396625 -0.232208401 -0.2192193568 2.344896276e-38
0.1139281392 -0.3628484309 -0.2324118018 2.344896276e-38
0.3248165846 -0.2312015295 -0.1539545059 2.344896276e-38
-0.1972319335 -0.4228134155 -0.1108570173 2.344896276e-38
0.3209487498 -0.2098613977 -0.1808656156 2.344896276e-38
-0.0002753846347 -0.356284827 -0.2602171004 2.344896276e-38
0.126053676 -0.2532063425 -0.2031285018 2.344896276e-38
0.3093104064 -0.2121424973 -0.168552056 2.344896276e-38
0.09955358505 -0.3591573536 -0.2656152248 2.344788516e-38
0.08723114431 -0.3599454165 -0.264680922 2.344788516e-38
-0.05077556893 -0.5043349266 0.1539804637 2.344788516e-38
0.1003559232 -0.3544594646 -0.233553797 2.344788516e-38
0.1119942367 -0.3521783352 -0.2458673716 2.344788516e-38
0.3234484494 -0.228215456 -0.1767130047 2.344788516e-38
0.1983250529 -0.434435308 0.06708233804 2.344788516e-38
-0.01412834227 -0.4542420506 -0.003915883601 2.344788516e-38
0.1359549165 -0.3491092026 -0.2591152191 2.344680616e-38
0.03669180721 -0.3539206386 -0.2630200088 2.344680616e-38
0.08666536212 -0.3522614241 -0.2553779781 2.344680616e-38
-0.198077932 -0.2461648583 -0.1850655377 2.344680616e-38
-0.06478603184 -0.4544082284 -0.02293717116 2.344680616e-38
0.3195806146 -0.2068753242 -0.2036241144 2.344680616e-38
-0.18386136 -0.3772827685 -0.2441262603 2.344680616e-38
0.09830373526 -0.3499803543 -0.2676915228 2.344680616e-38
-0.05544572696 -0.4876926541 0.09500793368 2.344572857e-38
-0.1222494245 -0.3733424544 -0.2487977743 2.344572857e-38
-0.09885448217 -0.3625893295 -0.2527426779 2.344572857e-38
-0.1960654557 -0.3718798757 -0.2225097716 2.344572857e-38
-0.184427157 -0.3695987761 -0.2348233163 2.344572857e-38
0.1860026717 -0.435223341 0.06801664084 2.344572857e-38
-0.1857555509 -0.2453767955 -0.1859998405 2.344572857e-38
-0.2860231996 -0.4762773514 -0.01542263478 2.344572857e-38
-0.2820371389 -0.4914264679 0.03217063844 2.344464957e-38
0.08227102458 -0.4773122072 0.1395505071 2.344464957e-38
-0.2815547585 -0.4389999509 -0.0908613503 2.344464957e-38
0.1999879926 -0.2484779656 -0.2087343335 2.344464957e-38
-0.1358216405 -0.3649534881 -0.2499397695 2.344464957e-38
-0.1694868058 -0.3809738159 -0.2109228075 2.344464957e-38
-0.1830590367 -0.3725848794 -0.2120648324 2.344464957e-38
0.3182125092 -0.2038892508 -0.2263825834 2.344464957e-38
-0.0547616668 -0.4891856909 0.1063871607 2.344357197e-38
-0.1481048316 -0.5198164582 0.163531214 2.344357197e-38
-0.159782365 -0.3680226505 -0.2366919219 2.344357197e-38
0.2029952109 -0.4510775208 0.126054883 2.344357197e-38
0.1124814674 -0.2448173761 -0.2042705119 2.344357197e-38
-0.1590982974 -0.3695156872 -0.22531268 2.344357197e-38
-0.1352161467 -0.2514015734 -0.1876607537 2.344357197e-38
0.1371262074 -0.2432412505 -0.2061391175 2.344357197e-38
-0.2893252373 -0.4626211524 -0.05163667351 2.344249297e-38
-0.09949883074 -0.2398603559 -0.1925399601 2.344249297e-38
-0.2704821527 -0.4290348291 -0.093871966 2.344249297e-38
-0.09523253143 -0.4239740968 -0.06143521518 2.344249297e-38
-0.1007491648 -0.5059940815 0.1463384032 2.344249297e-38
-0.1781038195 -0.5032572746 0.095047988 2.344249297e-38
0.09507578611 -0.424097538 0.01558422297 2.344249297e-38
-0.07360420376 -0.2474612594 -0.1923322678 2.344249297e-38
0.3201464117 -0.2145593166 -0.2129270434 2.344141397e-38
-0.06011587754 -0.4710504413 0.03603539616 2.344141397e-38
-0.06410196424 -0.4559012651 -0.01155790687 2.344141397e-38
0.1826662272 -0.2125579119 -0.2161052525 2.344141397e-38
-0.1904262006 -0.5040453672 0.0959822908 2.344141397e-38
-0.1705349684 -0.4257164001 -0.07858789712 2.344141397e-38
0.2689229846 -0.2070414722 -0.2226453722 2.344141397e-38
0.2837450802 -0.2246074677 -0.2194270641 2.344141397e-38
-0.280870676 -0.4404929876 -0.079482086 2.344033637e-38
0.2233829647 -0.2377248406 -0.2126792371 2.344033637e-38
0.1880548447 -0.4397024512 0.1021543518 2.344033637e-38
-0.277366966 -0.5080687404 0.09114318341 2.344033637e-38
-0.2603744566 -0.5239228606 0.1491814256 2.344033637e-38
-0.0255644843 -0.235131979 -0.198145777 2.344033637e-38
-0.01537818834 -0.4450650215 -0.0059921965 2.344033637e-38
0.1210887134 -0.4255074859 0.03647408634 2.344033637e-38
-0.2846550643 -0.4792634249 0.007335864007 2.343925737e-38
-0.1198772788 -0.4255502224 -0.05956660956 2.343925737e-38
0.1627259851 -0.4397855401 0.09264371544 2.343925737e-38
-0.01324210782 -0.2343439162 -0.1990800798 2.343925737e-38
0.05742458627 -0.4249686599 0.007007844746 2.343925737e-38
-0.2574757338 -0.4297397733 -0.08342700452 2.343925737e-38
-0.2273933589 -0.5064095259 0.09878519922 2.343925737e-38
-0.2697981 -0.4305278659 -0.08249270171 2.343925737e-38
-0.09454847872 -0.4254671335 -0.05005598068 2.343817977e-38
-0.1390844733 -0.5053722262 0.1263828278 2.343817977e-38
0.1373971701 -0.439868629 0.08313309401 2.343817977e-38
-0.2821205258 -0.4313158989 -0.0815583989 2.343817977e-38
-0.2596904039 -0.5254158974 0.1605606377 2.343817977e-38
0.02497492172 -0.2411567569 -0.1998066902 2.343817977e-38
-0.1967103332 -0.5244617462 0.1786476374 2.343817977e-38
0.04510215297 -0.4257567525 0.007942147553 2.343817977e-38
-0.1117034554 -0.5097682476 0.1700312197 2.343710077e-38
0.03298145905 -0.4804644585 0.1432877183 2.343710077e-38
0.1851659268 -0.2309119701 -0.2119526416 2.343710077e-38
0.1380812377 -0.4413616657 0.09451232105 2.343710077e-38
0.2098107487 -0.2293358445 -0.2138212472 2.343710077e-38
-0.1191932261 -0.4270432591 -0.04818737507 2.343710077e-38
0.01977334172 -0.4258398414 -0.001568481326 2.343710077e-38
-0.182173267 -0.4279975295 -0.06627433002 2.343710077e-38
-0.01070803497 -0.461707294 0.05298034102 2.343566444e-38
-0.1890580803 -0.5070314407 0.1187408194 2.343566444e-38
0.1962384582 -0.2209468782 -0.2149632424 2.343566444e-38
-0.279984951 -0.4959056377 0.06630840153 2.343566444e-38
0.09712795913 -0.4285766482 0.0497219339 2.343566444e-38
0.1387652904 -0.4428547025 0.105891563 2.343566444e-38
0.2208832651 -0.2193707526 -0.216831848 2.343566444e-38
-0.2872730494 -0.4671003222 -0.01749894023 2.343566444e-38
-0.07960809022 -0.4368422627 -0.02615547925 2.343458544e-38
-0.2137028575 -0.5086075664 0.120609425 2.343458544e-38
0.009384872392 -0.4372979403 0.01282136142 2.343458544e-38
-0.1883740127 -0.5085244775 0.130120039 2.343458544e-38
-0.1691668481 -0.4287024736 -0.05582939833 2.343458544e-38
0.1167384535 -0.4565939307 0.1325950027 2.343458544e-38
-0.1061867774 -0.4277482629 -0.03774241358 2.343458544e-38
0.08480559289 -0.4293647408 0.05065623671 2.343458544e-38
-0.05669556931 -0.4785156846 0.09293162078 2.343350644e-38
0.02239131182 -0.438002944 0.02326635271 2.343350644e-38
0.1044160873 -0.4573820233 0.1335293055 2.343350644e-38
-0.2826028764 -0.4837425351 0.04147356749 2.343350644e-38
-0.05601150915 -0.4800087214 0.1043108627 2.343350644e-38
-0.2437852174 -0.4319378138 -0.06160280854 2.343350644e-38
0.05637636408 -0.4697113037 0.1393428147 2.343350644e-38
0.03346383944 -0.4280378222 0.02025574446 2.343350644e-38
-0.200012356 -0.5108055472 0.1424335837 2.343242884e-38
0.09209370613 -0.4581700563 0.1344636083 2.343242884e-38
-0.2892069519 -0.4564301968 -0.03095450997 2.343242884e-38
-0.07892403007 -0.4383352995 -0.01477621496 2.343242884e-38
0.07316726446 -0.4316458106 0.06296976656 2.343242884e-38
-0.2859049141 -0.4700863957 0.005259558558 2.343242884e-38
-0.1055027246 -0.4292412996 -0.02636317909 2.343242884e-38
0.07977132499 -0.458958149 0.1353979111 2.343242884e-38
0.0608448945 -0.4324339032 0.06390406936 2.343134984e-38
0.05045637861 -0.4438920021 0.07829397172 2.343134984e-38
-0.2677459121 -0.4350069761 -0.04835496843 2.343134984e-38
-0.007971788757 -0.467679441 0.09849733859 2.343134984e-38
0.03744993359 -0.443187058 0.06784898788 2.343134984e-38
-0.1301475018 -0.4308174253 -0.02449457347 2.343134984e-38
-0.2362954468 -0.5146628022 0.1566157341 2.343134984e-38
-0.1677987278 -0.4316886067 -0.03307089955 2.343134984e-38
0.05114043877 -0.4453850389 0.08967321366 2.343027224e-38
-0.01389178447 -0.441860199 0.03744850308 2.343027224e-38
-0.154792279 -0.4323935509 -0.02262596786 2.343027224e-38
0.03241567686 -0.4727804661 0.1525906622 2.343027224e-38
-0.05931353569 -0.466352582 0.06809679419 2.343027224e-38
0.05182449892 -0.4468780756 0.1010524407 2.343027224e-38
-0.2424170971 -0.4349238873 -0.03884433955 2.343027224e-38
0.08046688884 -0.5661031008 0.2800454497 2.343027224e-38
0.03950211778 -0.4476661682 0.1019867435 2.342919324e-38
-0.05794541165 -0.4693386555 0.09085532278 2.342919324e-38
-0.2838527262 -0.474565506 0.03939726204 2.342919324e-38
-0.06193150207 -0.4541894197 0.04326201975 2.342919324e-38
0.05319261923 -0.4498641491 0.1238109246 2.342919324e-38
0.0004827752709 -0.4455512166 0.0706519112 2.342919324e-38
-0.2765646279 -0.5033708215 0.1232046261 2.342919324e-38
-0.1287793815 -0.4338034987 -0.001736074686 2.342919324e-38
-0.07687184215 -0.4428144097 0.01936148852 2.342811565e-38
0.01348924264 -0.4462562203 0.08109688014 2.342811565e-38
-0.2864707112 -0.4624023438 0.0145624876 2.342811565e-38
-0.2637598515 -0.4501562119 -0.0007616579533 2.342811565e-38
0.02786380425 -0.449947238 0.1143002883 2.342811565e-38
-0.2033977658 -0.4370388389 -0.007509484887 2.342811565e-38
0.05582213029 -0.5676792264 0.2819140553 2.342811565e-38
-0.1280953288 -0.4352965355 0.009643159807 2.342811565e-38
-0.06491357088 -0.4882619977 0.1621413827 2.342703665e-38
-0.06056338176 -0.4571754932 0.06602049619 2.342703665e-38
-0.2791825831 -0.4912077188 0.09836979955 2.342703665e-38
-0.01115553826 -0.447832346 0.08296550065 2.342703665e-38
-0.1780689061 -0.43695575 0.002001136541 2.342703665e-38
0.001850899309 -0.4485372901 0.09341042489 2.342703665e-38
-0.0598793216 -0.45866853 0.07739972323 2.342703665e-38
-0.2630757689 -0.4516492486 0.01061757654 2.342703665e-38
-0.1150888503 -0.4360015392 0.02008809149 2.342559891e-38
-0.2020296305 -0.4400249124 0.0152489841 2.342559891e-38
-0.1520560384 -0.4383656979 0.02289099991 2.342559891e-38
0.003903081641 -0.4530164003 0.1275481284 2.342559891e-38
-0.1144047827 -0.437494576 0.03146738559 2.342559891e-38
-0.2778144479 -0.4941937923 0.1211283281 2.342559891e-38
-0.2493852973 -0.4538472295 0.03244174272 2.342559891e-38
-0.2811164856 -0.480537653 0.08491425961 2.342559891e-38
-0.2608219683 -0.5100479722 0.1791665554 2.342452132e-38
-0.08645801246 -0.4495746493 0.0658127889 2.342452132e-38
-0.07345153391 -0.4502795935 0.07625772804 2.342452132e-38
-0.1117868125 -0.4496576786 0.05630216748 2.342452132e-38
-0.2006615102 -0.4430109859 0.03800751269 2.342452132e-38
-0.06616342068 -0.4790849686 0.1600650847 2.342452132e-38
-0.2376286685 -0.4453751445 0.04081042111 2.342452132e-38
-0.1630102992 -0.442139864 0.04658383131 2.342452132e-38
-0.05645901337 -0.4661337137 0.1342959702 2.342344232e-38
-0.09741225839 -0.4533487558 0.0895056203 2.342344232e-38
-0.1753326654 -0.4429279566 0.04751813412 2.342344232e-38
-0.09080819786 -0.4806610942 0.1619336903 2.342344232e-38
0.06927317381 -0.1519578397 0.5331678987 2.342344232e-38
-0.2004598677 -0.4969306588 0.1724187434 2.342344232e-38
-0.08372175694 -0.4555467963 0.1113297865 2.342344232e-38
-0.1623262316 -0.4436329007 0.0579630658 2.342344232e-38
-0.237427026 -0.4992948174 0.1752216518 2.342236472e-38
0.02855645865 -0.1267909408 0.5297418833 2.342236472e-38
-0.01811218634 -0.5724076033 0.2875199318 2.342236472e-38
0.04337854683 -0.1443569362 0.5329601765 2.342236472e-38
-0.07003122568 -0.4577447772 0.1331539452 2.342236472e-38
-0.2239381671 -0.4475732446 0.06263459474 2.342236472e-38
-0.08235363662 -0.4585328698 0.134088248 2.342236472e-38
-0.1986093372 -0.4474901557 0.07214521617 2.342236472e-38
-0.1486357301 -0.4458309412 0.07978723198 2.342128572e-38
-0.106998384 -0.4601089358 0.1359568536 2.342128572e-38
-0.1647425145 -0.4853894114 0.1675395072 2.342128572e-38
-0.1330112815 -0.458698988 0.1150670126 2.342128572e-38
0.003911705688 -0.1283670664 0.5316104889 2.342128572e-38
-0.01867797226 -0.5647236109 0.2968228459 2.342128572e-38
-0.1979252696 -0.4489831924 0.08352445811 2.342128572e-38
0.03355583549 -0.1634990573 0.5380470753 2.342128572e-38
-0.1602740437 -0.448112011 0.09210082144 2.342020812e-38
-0.2576032877 -0.4635935426 0.1016515717 2.342020812e-38
-0.1472676098 -0.4488170147 0.1025457606 2.342020812e-38
-0.1446496397 -0.4609801173 0.1273805499 2.342020812e-38
-0.1849188209 -0.4496881366 0.09396944195 2.342020812e-38
-0.02073307335 -0.129943192 0.5334790945 2.342020812e-38
0.02248330414 -0.1734641492 0.5410577059 2.342020812e-38
-0.2815639973 -0.4666627049 0.1148994043 2.342020812e-38
-0.1465835422 -0.4503100514 0.1139249876 2.341912912e-38
-0.1569720358 -0.4617681503 0.1283148527 2.341912912e-38
-0.256919235 -0.4650865793 0.1130307987 2.341912912e-38
