# .PCD v0.7 - Point Cloud Data file format
VERSION 0.7
FIELDS x y z rgb
SIZE 4 4 4 4
TYPE F F F F
COUNT 1 1 1 1
WIDTH 838
HEIGHT 1
VIEWPOINT 0 0 0 1 0 0 0
POINTS 838
DATA ascii
-0.1765440851 -0.4184682667 0.373886615 1.984127923e-39
-0.1404630095 -0.4270353317 0.3183742762 1.984127923e-39
-0.04479074851 -0.7390679121 -0.1367423534 1.984127923e-39
0.2248410434 -0.7463852167 0.02593491971 1.984127923e-39
-0.1791913956 -0.3676459193 0.461720258 1.984127923e-39
-0.1895449907 -0.4177663028 0.3634301722 1.984127923e-39
-0.02759700641 -0.7211718559 -0.2637916207 1.984127923e-39
-0.1764383018 -0.4122683406 0.3945640922 1.801533128e-39
-0.1910058558 -0.4209969938 0.3199892938 1.801533128e-39
0.06624720991 -0.7045180798 -0.3508655429 1.801533128e-39
-0.200937584 -0.3027601838 0.4366620779 1.801533128e-39
0.0313097164 -0.7113199234 -0.3139446676 1.801533128e-39
-0.01595115289 -0.7189045548 -0.2760985792 1.801533128e-39
0.4817675948 -0.5331937075 -0.1386419833 1.801533128e-39
-0.1755492091 -0.4013531506 0.4473007321 1.801533128e-39
0.1756315976 -0.542108953 -0.3285166919 1.618578199e-39
0.3974307775 -0.5493263006 -0.118697606 1.618578199e-39
0.2488102913 -0.7433351874 0.01270273328 1.618578199e-39
0.01966389455 -0.7135872841 -0.3016377091 1.618578199e-39
-0.0502111353 -0.7271910906 -0.2277960181 1.618578199e-39
0.04134542868 -0.7610948086 0.0625769645 1.618578199e-39
-0.06050186977 -0.732427597 -0.1927256584 1.618578199e-39
0.3864625096 -0.5530781746 -0.09500896931 1.618578199e-39
-0.1978671551 -0.3287829161 0.431538254 1.435982003e-39
-0.1978871077 -0.4123508036 0.1854947805 1.435982003e-39
0.3316862285 -0.7304332852 -0.0506825 1.435982003e-39
-0.196532011 -0.4153200388 0.2082581669 1.435982003e-39
0.1270156801 -0.5467243195 -0.3134340346 1.435982003e-39
0.0009875446558 -0.7560198307 0.008444130421 1.435982003e-39
-0.1761209816 -0.3936686814 0.4565964639 1.435982003e-39
-0.01473054755 -0.4375466704 0.3132937849 1.435982003e-39
-0.01540114358 -0.7478948236 -0.05892086029 1.253028475e-39
-0.179763183 -0.3599614203 0.4710160196 1.253028475e-39
0.02034144104 -0.715071857 -0.2902560234 1.253028475e-39
-0.1589208245 -0.5463880301 -0.2963253856 1.253028475e-39
0.1509007514 -0.7510813475 0.03148637712 1.253028475e-39
0.1025398374 -0.7006853819 -0.3650229573 1.253028475e-39
0.4447568357 -0.7003371716 -0.2306605875 1.253028475e-39
-0.1958327442 -0.395498842 -0.00683356449 1.253028475e-39
-0.09508550167 -0.3661854565 -0.1858863831 1.070432279e-39
0.4674115479 -0.5295225382 -0.1718618721 1.070432279e-39
-0.1902225465 -0.4162817001 0.3520484567 1.070432279e-39
0.3899560273 -0.5543013215 -0.01742292941 1.070432279e-39
0.384429872 -0.5486242771 -0.1291540861 1.070432279e-39
0.01466601249 -0.7582063675 0.03028234839 1.070432279e-39
-0.0475009419 -0.7331295013 -0.1822691709 1.070432279e-39
0.3830747604 -0.5456551313 -0.1519175172 1.070432279e-39
0.0003099981695 -0.7545351982 -0.002937570214 8.874787512e-40
0.1023688614 -0.5482897162 -0.3115835488 8.874787512e-40
-0.1855437905 -0.3280002177 0.4306130111 8.874787512e-40
-0.1762267649 -0.3998685479 0.4359189868 8.874787512e-40
0.07028384507 -0.42289868 0.3047311008 8.874787512e-40
0.2721019387 -0.7388005853 -0.0119111985 8.874787512e-40
-0.2003657967 -0.3104446828 0.4273663461 8.874787512e-40
-0.1999197453 -0.4078969657 0.1513496339 8.874787512e-40
0.3652686477 -0.720662117 -0.1103667766 7.045238224e-40
0.01398846228 -0.756721735 0.01890058815 7.045238224e-40
-0.2016151249 -0.3012755513 0.4252803922 7.045238224e-40
0.4544106722 -0.5288206339 -0.1823183298 7.045238224e-40
-0.1901167631 -0.4100818336 0.372725904 7.045238224e-40
0.4626281559 -0.6839257479 -0.3463281393 7.045238224e-40
-0.1869188398 -0.4085988998 0.1618060768 7.045238224e-40
0.4201101065 -0.7019025683 -0.2288101017 7.045238224e-40
-0.2041137666 -0.2829373479 0.4211084545 5.219290273e-40
-0.02420926467 -0.7285948992 -0.2068830729 5.219290273e-40
0.1413716823 -0.5503954887 -0.2802141309 5.219290273e-40
-0.204535082 -0.3699990213 -0.1341183335 5.219290273e-40
0.1022847593 -0.7556967139 0.04656903446 5.219290273e-40
-0.03517754003 -0.7323468328 -0.1831944138 5.219290273e-40
-0.1663590819 -0.4194316268 0.318138808 5.219290273e-40
0.1536950618 -0.5496127605 -0.2811393738 5.219290273e-40
-0.01256341487 -0.7263276577 -0.2191900462 3.389740985e-40
0.4509822726 -0.6861929893 -0.3340212107 3.389740985e-40
0.178341791 -0.5480474234 -0.2829898596 3.389740985e-40
0.02698938549 -0.7574236393 0.02935710549 3.389740985e-40
0.4420466423 -0.6943987608 -0.2761874199 3.389740985e-40
-0.1892917603 -0.3004928827 0.4243551493 3.389740985e-40
0.0689574033 -0.7104564905 -0.3053386807 3.389740985e-40
0.1988392174 -0.7449813485 0.005021959543 3.389740985e-40
-0.005787935108 -0.7411737442 -0.1053729504 1.56020571e-40
0.3639135659 -0.7176929116 -0.1331302226 1.56020571e-40
-0.1946909577 -0.3486057818 0.4470918775 1.56020571e-40
0.3186852932 -0.7297313809 -0.06113901734 1.56020571e-40
-0.201274842 -0.4049277604 0.1285862327 1.56020571e-40
-0.1915776432 -0.413312465 0.3292850256 1.56020571e-40
-0.01188586466 -0.7278122306 -0.2078083158 1.56020571e-40
0.1139306426 -0.7534294128 0.03426209092 1.56020571e-40
-0.006465481594 -0.7396891117 -0.1167546511 6.490113838e-41
-0.103492856 -0.4246872663 0.3155985475 6.490113838e-41
-0.1807151288 -0.4157605171 0.2849189341 6.490113838e-41
0.1790193319 -0.5495319963 -0.271608144 6.490113838e-41
0.4304008484 -0.6966660619 -0.2638804615 6.490113838e-41
0.08128078282 -0.7096737623 -0.3062639236 6.490113838e-41
0.1167248785 -0.5519608259 -0.2783636451 6.490113838e-41
0.1162183136 -0.7028719187 -0.343184799 6.490113838e-41
-0.1997940391 -0.3181291819 0.4180705547 2.496469266e-40
-0.0002400446683 -0.7255449295 -0.2201152891 2.496469266e-40
0.1306514442 -0.4098161161 0.2980189323 2.496469266e-40
0.05231370404 -0.757342875 0.03888830543 2.496469266e-40
0.09360420704 -0.7088910937 -0.3071891665 2.496469266e-40
-0.1930397302 -0.272985518 0.4180972576 2.496469266e-40
-0.1456283629 -0.3601471186 -0.1842713654 2.496469266e-40
-0.1785767227 -0.4140144289 0.339741528 2.496469266e-40
0.3522677422 -0.7199602127 -0.1208232865 4.340353837e-40
-0.02217661962 -0.733048737 -0.172737956 4.340353837e-40
0.3296535909 -0.7259794474 -0.08482764661 4.340353837e-40
-0.02285416797 -0.7315641642 -0.1841196567 4.340353837e-40
0.1304034144 -0.5541473627 -0.2565254867 4.340353837e-40
0.1174024269 -0.5534454584 -0.2669819295 4.340353837e-40
-0.1813926846 -0.4142758846 0.2735371888 4.340353837e-40
0.2344542891 -0.7396640778 -0.02051717043 4.340353837e-40
0.03931278735 -0.7566409111 0.02843186259 6.184224396e-40
0.08928383887 -0.7549948096 0.03611257672 6.184224396e-40
0.1926978678 -0.5517184734 -0.2497700006 6.184224396e-40
0.3515902162 -0.7184755802 -0.1322049797 6.184224396e-40
0.08195832372 -0.7111583948 -0.2948822379 6.184224396e-40
0.1434043199 -0.554849267 -0.246069029 6.184224396e-40
0.373526752 -0.7109718323 -0.1795822829 6.184224396e-40
-0.1889514774 -0.404145062 0.1276609898 6.184224396e-40
0.4290457368 -0.6936968565 -0.2866438925 8.028094954e-40
0.02495674044 -0.752969861 -0.004788056016 8.028094954e-40
0.008568080142 -0.7448448539 -0.07215304673 8.028094954e-40
0.1513821334 -0.3505316079 -0.2043912262 8.028094954e-40
0.106004633 -0.4113814831 0.2998694181 8.028094954e-40
-0.206017673 -0.3945354819 0.04891426116 8.028094954e-40
0.1735149175 -0.7450621128 -0.004509270191 8.028094954e-40
-0.2201404124 -0.3571587503 -0.1694241762 8.028094954e-40
0.339944303 -0.7207429409 -0.1198980436 9.871979525e-40
0.0703125 -0.7134256959 -0.2825752795 9.871979525e-40
-0.1903065741 -0.4011758268 0.1048975363 9.871979525e-40
0.02427919209 -0.7514852285 -0.01616974175 9.871979525e-40
0.1009296775 -0.7527275085 0.02380564809 9.871979525e-40
-0.2025024444 -0.3744528592 -0.09997318685 9.871979525e-40
-0.1924679577 -0.280670017 0.4088014662 9.871979525e-40
-0.1417123377 -0.41786623 0.3162883222 9.871979525e-40
0.02508427761 -0.7254641056 -0.2105840445 1.171585008e-39
0.08860629797 -0.7535101771 0.02473089099 1.171585008e-39
-0.09550453722 -0.5806339979 -0.08168791234 1.171585008e-39
-0.178365171 -0.4016146064 0.3810963929 1.171585008e-39
0.00450279098 -0.7359371781 -0.140443325 1.171585008e-39
0.07099004835 -0.7149103284 -0.2711935639 1.171585008e-39
0.418118 -0.5326533318 -0.1681609005 1.171585008e-39
-0.1827477813 -0.4113066792 0.2507737875 1.171585008e-39
-0.04062661156 -0.4299429059 0.3130582869 1.355972064e-39
0.3612033725 -0.7117544413 -0.17865704 1.355972064e-39
0.02360164374 -0.750000596 -0.02755144238 1.355972064e-39
0.2091299295 -0.7397447824 -0.03004838526 1.355972064e-39
-0.1929756403 -0.3716592789 0.4192046225 1.355972064e-39
0.4167223573 -0.6944795251 -0.2857186496 1.355972064e-39
-0.1930167675 -0.3952373862 0.05937071517 1.355972064e-39
0.1072826833 -0.7110776305 -0.2853510082 1.355972064e-39
0.02576182596 -0.7269487381 -0.1992023438 1.540360521e-39
0.002470146865 -0.7314833403 -0.1745884418 1.540360521e-39
0.2687142193 -0.7313774824 -0.06881974638 1.540360521e-39
0.1064341515 -0.5571973324 -0.2432933003 1.540360521e-39
0.02814830281 -0.3583585322 -0.1951387972 1.540360521e-39
0.003147695214 -0.7329679728 -0.1632067412 1.540360521e-39
-0.1830451339 -0.3463384509 0.4347849488 1.540360521e-39
-0.1943718642 -0.3922681808 0.03660729155 1.540360521e-39
0.08792874217 -0.7520256042 0.01334913075 1.724747577e-39
0.02643937431 -0.7284333706 -0.1878206283 1.724747577e-39
-0.1794029474 -0.380045712 0.4203653634 1.724747577e-39
0.03660259396 -0.7507025003 -0.01709498465 1.724747577e-39
0.08135789633 -0.4129468799 0.3017199039 1.724747577e-39
0.4050765336 -0.6967468262 -0.2734116912 1.724747577e-39
-0.1942878217 -0.4073740542 0.2837582231 1.724747577e-39
0.3072574139 -0.4081124365 0.06386154145 1.724747577e-39
0.4119795263 -0.6840872765 -0.3653905988 1.909134633e-39
-0.2114380598 -0.3826586008 -0.04213940352 1.909134633e-39
0.4126570821 -0.6855718493 -0.354008913 1.909134633e-39
0.1584378928 -0.5600050688 -0.2014674246 1.909134633e-39
0.1721598208 -0.7420928478 -0.02727265656 1.909134633e-39
-0.1971037835 -0.40763551 0.2175539136 1.909134633e-39
-0.1931454986 -0.2791854143 0.3974197507 1.909134633e-39
-0.187576443 -0.3235464096 0.3964678645 1.909134633e-39
-0.194796741 -0.3548056483 0.4264144003 2.09352309e-39
-0.1943948269 -0.2700162828 0.3953337967 2.09352309e-39
0.2680366635 -0.7298929095 -0.08020144701 2.09352309e-39
-0.1957269609 -0.3892989755 0.01384389587 2.09352309e-39
0.2077748328 -0.7367756367 -0.05281183124 2.09352309e-39
-0.184102878 -0.4083374441 0.228010416 2.09352309e-39
0.39343068 -0.6990141273 -0.2611047328 2.09352309e-39
0.1598363817 -0.742875576 -0.02634741366 2.09352309e-39
0.008666900918 -0.4268121421 0.3093573153 2.277910146e-39
0.2796824872 -0.7276256084 -0.09250837564 2.277910146e-39
0.4852611125 -0.5344167948 -0.06105598807 2.277910146e-39
0.4908089936 -0.5187880397 -0.1757983118 2.277910146e-39
0.1714822799 -0.7406082749 -0.03865435719 2.277910146e-39
0.1960856169 -0.5591415763 -0.1928614527 2.277910146e-39
0.09957456589 -0.7497582436 0.001042187214 2.277910146e-39
0.4016887844 -0.6893237829 -0.3303202391 2.277910146e-39
0.314620018 -0.7208237052 -0.129429251 2.462297202e-39
0.2090865225 -0.5598435402 -0.1824049652 2.462297202e-39
0.3701390028 -0.703548789 -0.2364908308 2.462297202e-39
0.1591154486 -0.5614897013 -0.190085724 2.462297202e-39
0.2666815817 -0.7269237041 -0.1029648408 2.462297202e-39
0.05040859804 -0.7253834009 -0.2010528296 2.462297202e-39
0.03185975552 -0.7403101921 -0.09676698595 2.462297202e-39
-0.1800805032 -0.3785611093 0.4089836478 2.462297202e-39
0.1837621778 -0.5599242449 -0.1919362098 2.646685659e-39
-0.1541779786 -0.5567802787 -0.2166534215 2.646685659e-39
0.06205442175 -0.7231160402 -0.2133597732 2.646685659e-39
-0.1984371543 -0.3833605051 -0.03168294951 2.646685659e-39
-0.1868130714 -0.4023990035 0.1824835688 2.646685659e-39
0.4845835567 -0.5329322219 -0.07243768126 2.646685659e-39
-0.199792251 -0.3803912997 -0.05444637313 2.646685659e-39
-0.1813298315 -0.3693920076 0.4068976939 2.646685659e-39
0.03944028914 -0.7291352749 -0.1773641706 2.830713982e-39
-0.1825791448 -0.3602228761 0.4048117101 2.830713982e-39
0.02982711419 -0.7358564138 -0.1309120804 2.830713982e-39
0.4839060009 -0.531447649 -0.08381938189 2.830713982e-39
0.3900429308 -0.691591084 -0.3180132806 2.830713982e-39
-0.2018266767 -0.313675344 0.3839254677 2.830713982e-39
0.14746961 -0.5637569427 -0.1777787507 2.830713982e-39
0.3025145829 -0.3977201879 -0.01581039652 2.830713982e-39
0.3880102932 -0.6871372461 -0.3521583974 3.015101038e-39
-0.1955800503 -0.3595209122 0.3943552673 3.015101038e-39
0.4607418478 -0.5084765553 -0.2650015056 3.015101038e-39
0.3797521889 -0.6968276501 -0.2829429209 3.015101038e-39
0.09889702499 -0.7482736707 -0.01033951342 3.015101038e-39
0.1940963715 -0.7345890999 -0.0746499896 3.015101038e-39
-0.07168804854 -0.355450958 -0.1898228228 3.015101038e-39
0.3578156233 -0.704331398 -0.2355655879 3.015101038e-39
0.1701271832 -0.7376390696 -0.06141780317 3.199488094e-39
0.3052247763 -0.4036586285 0.02971645072 3.199488094e-39
0.3045472503 -0.402173996 0.01833472401 3.199488094e-39
-0.2043253183 -0.2953371406 0.37975353 3.199488094e-39
0.2497428656 -0.6898084283 -0.3875075877 3.199488094e-39
-0.2097439319 -0.3457223475 -0.1838170886 3.199488094e-39
0.2290339023 -0.727787137 -0.1115708649 3.199488094e-39
0.3461698294 -0.7065987587 -0.2232586443 3.199488094e-39
0.09902459383 -0.7207679749 -0.2161355019 3.383517819e-39
0.1578037441 -0.7384217381 -0.06049256027 3.383517819e-39
0.4661622345 -0.5203534365 -0.1739478409 3.383517819e-39
-0.1926154196 -0.3917436004 0.3685539663 3.383517819e-39
-0.1870046556 -0.3312308788 0.3871721327 3.383517819e-39
-0.1948595941 -0.3996895552 0.2930539548 3.383517819e-39
0.217388019 -0.7300544977 -0.09926386923 3.383517819e-39
0.3783971071 -0.6938583851 -0.305706352 3.383517819e-39
0.2620662451 -0.6890257597 -0.3884328008 3.567904875e-39
0.1170786843 -0.401429683 0.2968582213 3.567904875e-39
0.448418498 -0.5092592239 -0.2640762627 3.567904875e-39
-0.1907526255 -0.3037235439 0.3809142411 3.567904875e-39
-0.09241880476 -0.4147354662 0.3125873506 3.567904875e-39
0.291546315 -0.4014720917 0.00787827 3.567904875e-39
0.2283563465 -0.7263025045 -0.1229525581 3.567904875e-39
0.3770419955 -0.6908891797 -0.3284697533 3.567904875e-39
-0.04704130441 -0.3538855612 -0.1916733086 3.75229193e-39
0.2634213269 -0.6919949651 -0.3656693995 3.75229193e-39
-0.2045568228 -0.391304791 0.09235512465 3.75229193e-39
0.08589610457 -0.7475717068 -0.02079595625 3.75229193e-39
-0.1932512671 -0.2853853106 0.3767423332 3.75229193e-39
0.2408072352 -0.6980141997 -0.3296737969 3.75229193e-39
-0.2090663761 -0.3472069502 -0.172435388 3.75229193e-39
-0.1974205226 -0.3449396491 -0.1847423315 3.75229193e-39
0.1331570148 -0.7399871349 -0.05864207447 3.936320254e-39
0.2024168074 -0.5387974977 -0.2755446136 3.936320254e-39
-0.1846746504 -0.400652945 0.2373061478 3.936320254e-39
0.3113597929 -0.6858949661 -0.3921337724 3.936320254e-39
0.03671476245 -0.433016181 0.07492114604 3.936320254e-39
-0.1962576061 -0.3580363095 0.3829735816 3.936320254e-39
0.275744766 -0.6912122965 -0.3665946722 3.936320254e-39
0.1332691759 -0.4223008156 0.03337408602 3.936320254e-39
-0.2153975815 -0.3675510287 -0.08975221217 4.120708711e-39
-0.1090772524 -0.5722475052 -0.08284863085 4.120708711e-39
0.368146956 -0.5342994928 -0.1758416295 4.120708711e-39
0.1624562591 -0.3405798078 -0.207402423 4.120708711e-39
-0.03471790254 -0.3531028926 -0.1925985515 4.120708711e-39
0.09900926054 -0.4305873215 0.08167662472 4.120708711e-39
0.1098653674 -0.7445217371 -0.03402814269 4.120708711e-39
0.2421623319 -0.7009834051 -0.3069103956 4.120708711e-39
0.3544278741 -0.6969083548 -0.2924741507 4.304737034e-39
0.3380392492 -0.6887834072 -0.3598391414 4.304737034e-39
0.08851590008 -0.3452759683 -0.2018509656 4.304737034e-39
0.2393246293 -0.7225506306 -0.1466411948 4.304737034e-39
0.05853917077 -0.7431986928 -0.0644723177 4.304737034e-39
0.2894232571 -0.6933988333 -0.344756484 4.304737034e-39
0.3331688344 -0.7058968544 -0.2337151021 4.304737034e-39
-0.2062521875 -0.2846833766 0.3662858605 4.304737034e-39
-0.1853522062 -0.3991683125 0.2259244472 4.48912409e-39
0.250970453 -0.7202833295 -0.1589481682 4.48912409e-39
0.1127030551 -0.7229545116 -0.1942973286 4.48912409e-39
0.2901007831 -0.6948834658 -0.3333747685 4.48912409e-39
-0.1808638126 -0.383276403 0.3769244552 4.48912409e-39
-0.220034644 -0.350958854 -0.148746714 4.48912409e-39
0.1680945456 -0.7331852317 -0.09556290507 4.48912409e-39
0.2455500662 -0.7084064484 -0.2500018477 4.48912409e-39
-0.208622098 -0.382397145 0.02406487614 4.673152414e-39
0.2571958899 -0.7061391473 -0.2623087764 4.673152414e-39
0.2742621005 -0.7157487273 -0.1835620701 4.673152414e-39
0.05650652573 -0.7387448549 -0.09861747175 4.673152414e-39
-0.1990306675 -0.3969817758 0.2040862441 4.673152414e-39
-0.1826849282 -0.3664227724 0.3841342926 4.673152414e-39
0.3024241328 -0.6941007376 -0.3343000114 4.673152414e-39
0.1859658062 -0.7167737484 -0.2112305015 4.673152414e-39
0.2695192695 -0.7053564787 -0.2632340193 4.857539469e-39
0.2914558947 -0.6978526115 -0.3106113672 4.857539469e-39
0.07154008746 -0.7439005971 -0.05401585996 4.857539469e-39
-0.1839342415 -0.3572536409 0.3820483387 4.857539469e-39
0.3147475123 -0.6933180094 -0.3352252543 4.857539469e-39
-0.1929109991 -0.3890375197 0.08004818112 4.857539469e-39
0.2852304578 -0.7119967937 -0.2072507143 4.857539469e-39
0.3407494426 -0.694721818 -0.314312309 4.857539469e-39
-0.1942660958 -0.3860682845 0.05728475377 5.041567793e-39
-0.1956858337 -0.3657208383 0.3736777902 5.041567793e-39
0.2928109765 -0.7008218765 -0.2878479362 5.041567793e-39
0.09358887374 -0.4187104702 -0.009377011098 5.041567793e-39
0.2961987257 -0.7082449198 -0.2309393883 5.041567793e-39
0.2599060833 -0.7120776176 -0.2167819589 5.041567793e-39
0.1201560944 -0.7392852306 -0.0690985322 5.041567793e-39
-0.1896090806 -0.3190925717 0.3623227179 5.041567793e-39
0.2831977904 -0.7075430155 -0.2413958609 5.225597518e-39
0.3078445196 -0.7059776187 -0.2432463467 5.225597518e-39
0.1380273402 -0.7228737473 -0.1847660989 5.225597518e-39
-0.1951781511 -0.2747315764 0.3632746637 5.225597518e-39
-0.2106547505 -0.3779433072 -0.01008024439 5.225597518e-39
0.08386346698 -0.7431179285 -0.05494110286 5.225597518e-39
-0.2030742168 -0.3667683601 -0.09067745507 5.225597518e-39
-0.1838913262 -0.3959376216 0.2693652511 5.225597518e-39
0.305811882 -0.7015237808 -0.2773914635 5.409984573e-39
0.08010856807 -0.4037777781 0.29963395 5.409984573e-39
-0.1968293786 -0.3503518105 0.3922693133 5.409984573e-39
-0.1968922317 -0.3952357173 0.2589088082 5.409984573e-39
0.4846892953 -0.5267323256 -0.05176024884 5.409984573e-39
0.1078327149 -0.7400678992 -0.0681732893 5.409984573e-39
-0.2113322914 -0.3764587045 -0.02146196924 5.409984573e-39
0.3181352615 -0.7007410526 -0.2783167064 5.409984573e-39
0.1873209029 -0.7197430134 -0.1884670705 5.594012897e-39
0.1996442676 -0.7189602852 -0.1893923134 5.594012897e-39
-0.1939705163 -0.3887743652 0.345790565 5.594012897e-39
0.202354461 -0.7248986959 -0.1438654661 5.594012897e-39
0.2538985908 -0.4023355544 -0.0007277261466 5.594012897e-39
-0.2094283849 -0.2648605108 0.3507321775 5.594012897e-39
0.1194785386 -0.7378005981 -0.08048023283 5.594012897e-39
0.1051848307 -0.5480282307 -0.2453792691 5.594012897e-39
0.08250837028 -0.7401486635 -0.07770450413 5.77804122e-39
0.4285145402 -0.5212168694 -0.182553798 5.77804122e-39
0.1510282606 -0.7235756516 -0.1743096411 5.77804122e-39
-0.205680415 -0.2923678756 0.3569900692 5.77804122e-39
0.107155174 -0.7385833263 -0.07955498993 5.77804122e-39
-0.2081790566 -0.2740296721 0.3528181612 5.77804122e-39
0.06679725647 -0.7335083485 -0.1336878091 5.77804122e-39
-0.1833624691 -0.3649381697 0.3727525473 5.77804122e-39
0.1756750643 -0.7220102549 -0.1761601269 5.962428276e-39
0.153738454 -0.729514122 -0.1287828088 5.962428276e-39
0.1530609131 -0.7280294895 -0.1401644945 5.962428276e-39
-0.2013606727 -0.3275597692 0.353952229 5.962428276e-39
0.1297692657 -0.7325640917 -0.1155506223 5.962428276e-39
-0.1976538301 -0.3786452413 0.000376210548 5.962428276e-39
0.08194299042 -0.4209777713 0.002929929644 5.962428276e-39
0.2009993643 -0.7219294906 -0.1666288972 5.962428276e-39
0.2228238434 -0.3274972439 -0.2141146064 6.1464566e-39
0.490914762 -0.5125881433 -0.1551208496 6.1464566e-39
0.07912062109 -0.7327256203 -0.134613052 6.1464566e-39
-0.1852464229 -0.3929684162 0.2466018945 6.1464566e-39
-0.1827906966 -0.3726226687 0.3634568155 6.1464566e-39
0.1601320505 -0.5230687857 -0.3431451023 6.1464566e-39
0.1167683452 -0.7318621874 -0.1260070801 6.1464566e-39
0.1724554151 -0.5222860575 -0.3440703452 6.1464566e-39
-0.195855692 -0.273246944 0.3518929183 6.330484923e-39
0.4168686867 -0.52348423 -0.1702468693 6.330484923e-39
-0.2017191201 -0.3697375953 -0.06791403145 6.330484923e-39
0.1051225215 -0.7341294289 -0.1137001365 6.330484923e-39
0.08047571778 -0.7356948853 -0.1118496507 6.330484923e-39
0.0921215415 -0.7334275246 -0.1241565943 6.330484923e-39
0.4799464643 -0.5163400173 -0.1314321905 6.330484923e-39
-0.1481270045 -0.3418088853 -0.1884432882 6.330484923e-39
0.4792689383 -0.5148553848 -0.142813921 6.514514648e-39
0.1885204017 -0.3783952892 0.287134856 6.514514648e-39
0.4813015759 -0.5193092823 -0.1086687893 6.514514648e-39
-0.1994337887 -0.3382135034 0.3674198985 6.514514648e-39
0.2071596533 -0.549189806 -0.1958726645 6.514514648e-39
0.3751339614 -0.5367457867 -0.02066960931 6.514514648e-39
0.4765587449 -0.5089169741 -0.1883407384 6.514514648e-39
0.4971184433 -0.5197497606 -0.03200800717 6.514514648e-39
-0.1852893382 -0.3542844355 0.3592848778 6.698542971e-39
-0.2076072842 -0.2817141414 0.3435224295 6.698542971e-39
-0.2071612328 -0.3791664541 0.06750575453 6.698542971e-39
-0.1358036101 -0.3410261869 -0.1893685311 6.698542971e-39
-0.2085163295 -0.3761972189 0.04474233091 6.698542971e-39
-0.1958973706 -0.3781206608 0.3323229253 6.698542971e-39
-0.1823246926 -0.3865070641 0.3334836364 6.698542971e-39
0.2107806802 -0.5229072571 -0.3240826428 6.698542971e-39
-0.1851835698 -0.3480845392 0.3799623549 6.882571295e-39
0.1035059765 -0.3930432498 0.2956975102 6.882571295e-39
0.09421655536 -0.5517801642 -0.2216905951 6.882571295e-39
-0.06061399728 -0.3454991579 -0.1928340197 6.882571295e-39
0.386779815 -0.5344784856 -0.03297661245 6.882571295e-39
-0.1952839196 -0.2809314728 0.3425971866 6.882571295e-39
0.1761969626 -0.3791779876 0.2880600989 6.882571295e-39
0.1991348565 -0.5251744986 -0.3117757142 6.882571295e-39
0.1338969171 -0.5553705096 -0.1789394915 7.066599618e-39
-0.2016350776 -0.3848434389 0.1792368889 7.066599618e-39
0.3915444314 -0.5235649347 -0.1797780842 7.066599618e-39
-0.1554273069 -0.547611177 -0.2187393755 7.066599618e-39
0.3709629178 -0.5340380073 -0.1096373498 7.066599618e-39
-0.1948378682 -0.3783837855 0.06658051163 7.066599618e-39
-0.2039650977 -0.3154214323 0.3291028738 7.066599618e-39
0.370285362 -0.5325534344 -0.121019043 7.066599618e-39
0.2462212592 -0.3167627156 -0.2180510461 7.250627941e-39
-0.195515424 -0.376899153 0.05519878492 7.250627941e-39
-0.1961929649 -0.3754145503 0.04381708801 7.250627941e-39
-0.1977184862 -0.3612670004 0.3395326734 7.250627941e-39
0.1998123974 -0.5266591311 -0.3003939986 7.250627941e-39
0.2338979095 -0.317545414 -0.2171258032 7.250627941e-39
0.3798985779 -0.5258322954 -0.1674711406 7.250627941e-39
0.121573478 -0.5561531782 -0.1780142486 7.250627941e-39
-0.1975480616 -0.3724453449 0.02105366439 7.434656265e-39
0.108572565 -0.5554512739 -0.1884707212 7.434656265e-39
0.3792210519 -0.5243476629 -0.1788528413 7.434656265e-39
0.4519120157 -0.5104824305 -0.1864902526 7.434656265e-39
0.4841175377 -0.5190478563 -0.04246450961 7.434656265e-39
-0.2070355117 -0.2893986702 0.3342266977 7.434656265e-39
-0.2046426386 -0.3139368296 0.3177211881 7.434656265e-39
-0.1972107887 -0.2702777386 0.3291295171 7.434656265e-39
-0.1988191158 -0.3845819831 0.2454411536 7.618684588e-39
-0.1934628189 -0.2977851033 0.3353874087 7.618684588e-39
-0.1959614605 -0.2794468701 0.331215471 7.618684588e-39
-0.2036460042 -0.3590838313 -0.08138172328 7.618684588e-39
-0.1995807141 -0.3679915071 -0.01309145615 7.618684588e-39
-0.1866444349 -0.3513152003 0.3365214765 7.618684588e-39
-0.09491745383 -0.396397233 0.3084154129 7.618684588e-39
-0.2058919668 -0.3047676682 0.3156352043 7.618684588e-39
0.4950858057 -0.5152958632 -0.06615315378 7.802712912e-39
-0.1980357915 -0.3798667192 0.2775003314 7.802712912e-39
-0.1910699457 -0.3223232329 0.3188818991 7.802712912e-39
-0.200258255 -0.3665069044 -0.02447318099 7.802712912e-39
0.006168255582 -0.4084739387 0.3051854074 7.802712912e-39
-0.187173292 -0.382314682 0.233134225 7.802712912e-39
0.1846043468 -0.3206761777 -0.2134248316 7.802712912e-39
-0.2185737789 -0.3477281928 -0.1053058356 7.802712912e-39
-0.006155114621 -0.4092566073 0.3061106503 7.986382503e-39
0.2025225908 -0.5325975418 -0.2548671663 7.986382503e-39
-0.1992851049 -0.3706976175 0.2754143775 7.986382503e-39
-0.2077130675 -0.2879140675 0.3228449821 7.986382503e-39
-0.1929968297 -0.3116695285 0.30541417 7.986382503e-39
-0.1920219064 -0.3781222999 0.1327847987 7.986382503e-39
0.4827624559 -0.5160785913 -0.06522791088 7.986382503e-39
-0.1941403747 -0.2963004708 0.3240056932 7.986382503e-39
-0.2005344331 -0.361528486 0.2733283937 8.170410826e-39
0.4876328111 -0.4989652038 -0.1913519353 8.170410826e-39
0.2155235261 -0.5332995057 -0.2444106936 8.170410826e-39
-0.1879995316 -0.3483459651 0.3137580454 8.170410826e-39
-0.2096399218 -0.2772603333 0.3093773127 8.170410826e-39
-0.1998152137 -0.2581394017 0.3042801619 8.170410826e-39
0.4149418175 -0.5128304958 -0.1837145239 8.170410826e-39
-0.1933769882 -0.3751530945 0.1100213975 8.170410826e-39
-0.1875335276 -0.3622303903 0.2837848663 8.35443915e-39
-0.09800318629 -0.5622956753 -0.0858598426 8.35443915e-39
-0.1869617403 -0.3699149191 0.2744891346 8.35443915e-39
-0.2083906084 -0.2864294648 0.3114632964 8.35443915e-39
0.08543650806 -0.4222008884 0.08051590621 8.35443915e-39
0.4814073443 -0.513109386 -0.0879913047 8.35443915e-39
-0.1985658854 -0.2673085332 0.3063661158 8.35443915e-39
-0.2021439821 -0.3322750628 0.321893096 8.35443915e-39
0.119696483 -0.4139143825 0.03221336007 8.538467473e-39
-0.2225333005 -0.3326206207 -0.1529186517 8.538467473e-39
-0.2108874768 -0.3303533196 -0.1652255803 8.538467473e-39
-0.207818836 -0.2941139638 0.302167505 8.538467473e-39
0.1095891669 -0.5170304179 -0.3415300846 8.538467473e-39
-0.2035619467 -0.3741897047 0.1657692194 8.538467473e-39
-0.2079246193 -0.3003138304 0.2814900577 8.538467473e-39
-0.1960672438 -0.2856467962 0.3105380535 8.538467473e-39
-0.2031388581 -0.3493901193 0.2484790236 8.722137064e-39
-0.2131533921 -0.3596050739 -0.01425217465 8.722137064e-39
-0.2008946687 -0.3414441645 0.3239790797 8.722137064e-39
-0.2080303729 -0.3065137565 0.2608126402 8.722137064e-39
-0.2028215379 -0.3307904303 0.3105113506 8.722137064e-39
-0.2090681642 -0.2849448323 0.3000815511 8.722137064e-39
-0.161531657 -0.3636341989 0.3046977818 8.722137064e-39
-0.198797375 -0.3632762134 0.01896770298 8.722137064e-39
-0.2055728585 -0.3484300971 -0.09484937787 8.906165387e-39
-0.2025670856 -0.3570746481 0.2391832769 8.906165387e-39
-0.1898206174 -0.3314923644 0.3209678531 8.906165387e-39
0.09233954549 -0.4095413387 -0.0114629725 8.906165387e-39
0.07760992646 -0.3854395449 0.2954620123 8.906165387e-39
0.183529526 -0.5123342276 -0.347081542 8.906165387e-39
0.1465593576 -0.5146823525 -0.3443058133 8.906165387e-39
-0.2004927695 -0.256654799 0.2928984165 8.906165387e-39
-0.1954954714 -0.2933312654 0.3012422621 9.089834978e-39
0.3909726143 -0.5158804655 -0.1704823375 9.089834978e-39
0.08475895971 -0.4207162857 0.06913421303 9.089834978e-39
-0.03205121309 -0.4016528726 0.3058751523 9.089834978e-39
-0.2032446265 -0.3555900455 0.2278015763 9.089834978e-39
-0.1937801391 -0.3163847923 0.2733550668 9.089834978e-39
-0.08775941283 -0.3287262917 -0.1951554716 9.089834978e-39
-0.1913872659 -0.3409229219 0.2568494976 9.089834978e-39
-0.2044939548 -0.3464209139 0.2257156074 9.273863302e-39
-0.2092797011 -0.297344625 0.2587266564 9.273863302e-39
0.1471201032 -0.0420037061 0.3475132287 9.273863302e-39
-0.2048953176 -0.3499146998 -0.08346768469 9.273863302e-39
0.08204876631 -0.4147778451 0.02360739186 9.273863302e-39
0.09296723455 -0.5426110029 -0.223776564 9.273863302e-39
-0.2074586004 -0.3141982555 0.2515168488 9.273863302e-39
0.1833532453 -0.2492449582 0.2570061088 9.273863302e-39
-0.1919161379 -0.3719224036 0.1534622312 9.457532893e-39
-0.1891001761 -0.3716609478 0.2196665704 9.457532893e-39
0.3779717088 -0.5151785612 -0.1809387952 9.457532893e-39
-0.203350395 -0.3617899418 0.2071240991 9.457532893e-39
-0.2051715106 -0.3449362814 0.2143339217 9.457532893e-39
-0.2055945992 -0.3697358668 0.1316240728 9.457532893e-39
0.0697253868 -0.4155605435 0.02453263476 9.457532893e-39
-0.220500648 -0.3370744586 -0.11877352 9.457532893e-39
-0.1640302986 -0.3452959657 0.3005258441 9.641561216e-39
0.05807956681 -0.4178278446 0.03683957458 9.641561216e-39
-0.2105290145 -0.2881755233 0.2566407025 9.641561216e-39
-0.2134919018 -0.3182149827 -0.1900749654 9.641561216e-39
-0.2015075684 -0.3573377728 -0.0265591424 9.641561216e-39
-0.2058490515 -0.3434516788 0.2029521614 9.641561216e-39
-0.2034561783 -0.3679898381 0.1864466518 9.641561216e-39
-0.206949681 -0.3667666614 0.108860679 9.641561216e-39
0.1858518869 -0.2675831914 0.2611780465 9.825230807e-39
0.4096055031 -0.5160594583 -0.02761727571 9.825230807e-39
-0.1504576057 -0.3536823988 0.3016865849 9.825230807e-39
0.3972821236 -0.5168421268 -0.02669203281 9.825230807e-39
0.07244455069 -0.318551302 -0.2071836144 9.825230807e-39
-0.1980998963 -0.2811929584 0.2763929069 9.825230807e-39
-0.1875975728 -0.2635566294 0.2826774418 9.825230807e-39
-0.1932712346 -0.3689531684 0.1306988299 9.825230807e-39
0.4390168488 -0.5035805702 -0.176269263 1.000925913e-38
-0.1993492097 -0.272023797 0.2743069232 1.000925913e-38
-0.2035402209 -0.352883935 -0.06070426479 1.000925913e-38
-0.2103374302 -0.3593435884 0.05195210502 1.000925913e-38
-0.1567042172 -0.3078368306 0.2912567556 1.000925913e-38
-0.1940974593 -0.3349844813 0.2113227099 1.000925913e-38
0.1933478266 -0.3225978911 0.2736938298 1.000925913e-38
-0.1918532699 -0.3270385265 0.2868227065 1.000925913e-38
0.02315101214 -0.3216820657 -0.2034826428 1.019292872e-38
0.1871012002 -0.2767522931 0.2632640004 1.019292872e-38
-0.1917045861 -0.3595226407 0.1948171556 1.019292872e-38
-0.2110149711 -0.3578589857 0.04057040811 1.019292872e-38
-0.204811275 -0.3650206029 0.1636832654 1.019292872e-38
-0.1982056499 -0.2873928249 0.2557154596 1.019292872e-38
-0.1554548889 -0.3170059323 0.2933427095 1.019292872e-38
-0.1970621049 -0.3027618527 0.2371239513 1.019292872e-38
-0.1976338923 -0.2950773239 0.2464196831 1.037659831e-38
-0.1939487755 -0.3674685657 0.1193171293 1.037659831e-38
0.4897712171 -0.4972191155 -0.1365293562 1.037659831e-38
0.4863405824 -0.4511120915 -0.08075489104 1.037659831e-38
-0.1911328137 -0.3672071397 0.1855214089 1.037659831e-38
-0.2072041482 -0.3404824734 0.1801887602 1.037659831e-38
0.4384021759 -0.4572120607 -0.05429052562 1.037659831e-38
0.4021095634 -0.4610447586 -0.04013304412 1.037659831e-38
-0.2118841112 -0.2852063179 0.2338772714 1.056062664e-38
-0.2012760788 -0.2613700926 0.2608392835 1.056062664e-38
-0.1987774372 -0.2797083259 0.2650111914 1.056062664e-38
0.1985630691 -0.5174900293 -0.3024799526 1.056062664e-38
-0.1988832057 -0.2859082222 0.2443337291 1.056062664e-38
-0.192382127 -0.358038038 0.183435455 1.056062664e-38
0.4698672891 -0.5091767311 -0.05500693619 1.056062664e-38
-0.1942032427 -0.3411844075 0.1906452328 1.056062664e-38
0.3966045678 -0.515357554 -0.0380737856 1.074429623e-38
-0.1925308108 -0.3255539238 0.2754410207 1.074429623e-38
-0.1642001569 -0.2528221011 0.2787409723 1.074429623e-38
-0.1936314553 -0.3488689065 0.181349501 1.074429623e-38
-0.1727755666 -0.2811121643 0.2859241068 1.074429623e-38
-0.1740248799 -0.2719430327 0.2838381529 1.074429623e-38
-0.1977396607 -0.3012772501 0.2257422656 1.074429623e-38
-0.203202948 -0.2507163286 0.2473716289 1.074429623e-38
0.09997598827 -0.5237515569 -0.2950780094 1.092796582e-38
0.4649757743 -0.4663004279 -0.04267329723 1.092796582e-38
-0.2019536197 -0.2598854899 0.2494575828 1.092796582e-38
-0.1973365098 -0.3600455225 0.0624085851 1.092796582e-38
-0.124561511 -0.3612861335 0.3019220531 1.092796582e-38
0.4452205598 -0.5107421875 -0.05315645039 1.092796582e-38
0.3719577789 -0.5169229507 -0.03622329235 1.092796582e-38
-0.1924879104 -0.3642379045 0.1627580225 1.092796582e-38
-0.2144027203 -0.3504359424 -0.01633813605 1.111163541e-38
-0.1948807836 -0.3396998048 0.1792635322 1.111163541e-38
-0.1629508287 -0.2619912326 0.280826956 1.111163541e-38
-0.195452556 -0.332015276 0.1885592639 1.111163541e-38
-0.2079874724 -0.345197767 0.1481295824 1.111163541e-38
-0.02540723979 -0.05296140909 0.3604665995 1.111163541e-38
0.1637037247 -0.2874868214 0.26720047 1.111163541e-38
-0.2049599588 -0.3325364888 0.2556887567 1.111163541e-38
-0.1932083517 -0.3240693212 0.2640593052 1.1295305e-38
-0.1617015004 -0.2711603642 0.28291291 1.1295305e-38
-0.2132392079 -0.2822370827 0.2111138701 1.1295305e-38
-0.2002383024 -0.2829390168 0.2215703279 1.1295305e-38
-0.2131334394 -0.2760371864 0.2317913175 1.1295305e-38
-0.1013321131 -0.3203398585 -0.1963161975 1.1295305e-38
0.4082503915 -0.5130902529 -0.05038072169 1.1295305e-38
-0.1518767625 -0.2520394325 0.2778157294 1.1295305e-38
0.4143700302 -0.505145967 -0.1744187772 1.147897319e-38
-0.1109887958 -0.3696725667 0.3030827641 1.147897319e-38
-0.2045580447 -0.2477471232 0.2246081829 1.147897319e-38
0.3910354972 -0.4709965587 -0.03712183982 1.147897319e-38
-0.1961300969 -0.3305306733 0.1771775633 1.147897319e-38
0.4719845355 -0.4474409223 -0.1139747947 1.147897319e-38
0.4815977514 -0.4407198131 -0.1604268551 1.147897319e-38
-0.2008100748 -0.275254488 0.2308660746 1.147897319e-38
0.1687010229 -0.3241632879 0.2755443156 1.166264278e-38
-0.1938430071 -0.3612686694 0.1399945766 1.166264278e-38
0.3787121177 -0.4717792571 -0.03619660437 1.166264278e-38
-0.06436196715 -0.3179917932 -0.1990919113 1.166264278e-38
0.2190758735 -0.2999898493 -0.220372498 1.166264278e-38
0.3644618392 -0.4619082212 -0.04873906821 1.166264278e-38
0.4685122073 -0.5062075853 -0.07777033001 1.166264278e-38
0.2005957216 -0.5219438076 -0.2683348358 1.166264278e-38
0.29040277 -0.3861030638 0.02646976709 1.184631237e-38
-0.149378106 -0.270377636 0.2819876671 1.184631237e-38
-0.2147412151 -0.309045881 -0.1921609342 1.184631237e-38
-0.2107817084 -0.3241534233 -0.1445481479 1.184631237e-38
0.08550319076 -0.04591716826 0.3521394432 1.184631237e-38
-0.2020793557 -0.349653244 -0.01726337895 1.184631237e-38
-0.1950923204 -0.3520995677 0.1379086077 1.184631237e-38
0.4678346515 -0.5047229528 -0.08915203065 1.184631237e-38
-0.2087707818 -0.3499130607 0.1160704568 1.202998196e-38
-0.02415791154 -0.06213054061 0.3625525832 1.202998196e-38
0.4706294537 -0.4444717169 -0.136738196 1.202998196e-38
0.424723655 -0.4550255537 -0.07612867653 1.202998196e-38
-0.139553383 -0.2512567043 0.2768904865 1.202998196e-38
-0.2144885361 -0.2730679512 0.2090279162 1.202998196e-38
0.09584202617 -0.3078167737 -0.211120069 1.202998196e-38
0.395249486 -0.5123883486 -0.06083717942 1.202998196e-38
-0.21002011 -0.3407439291 0.113984488 1.221365155e-38
-0.218236506 -0.2455606014 0.2027700245 1.221365155e-38
-0.1518749595 -0.3143015206 -0.1947011799 1.221365155e-38
-0.2004498541 -0.2953388095 0.1802154183 1.221365155e-38
-0.1383040547 -0.2604258657 0.2789764702 1.221365155e-38
0.213596642 -0.5226457715 -0.2578783631 1.221365155e-38
0.4617367387 -0.491361469 -0.1915874183 1.221365155e-38
-0.2217499763 -0.3279053569 -0.1208594814 1.221365155e-38
-0.0118345134 -0.06134784222 0.3616273403 1.239732115e-38
0.03620967641 -0.04904794693 0.3558404148 1.239732115e-38
-0.2010216266 -0.2876542807 0.1895111501 1.239732115e-38
0.003669608384 -0.3901356757 0.3010134697 1.239732115e-38
-0.2151660919 -0.2715833783 0.1976462156 1.239732115e-38
-0.20546709 -0.3422302008 -0.0741719231 1.239732115e-38
-0.1134874374 -0.3513343334 0.2989108562 1.239732115e-38
-0.2308125496 -0.2823211849 -0.197493583 1.239732115e-38
-0.1333067715 -0.2971023321 0.2873203158 1.258099074e-38
0.1822802126 -0.5031651258 -0.3491675258 1.258099074e-38
0.1244048253 -0.3639705181 0.2875891328 1.258099074e-38
0.448015362 -0.4504909515 -0.1007425636 1.258099074e-38
0.45415622 -0.5025364161 -0.1109902412 1.258099074e-38
0.1329866648 -0.5062959194 -0.3454665542 1.258099074e-38
0.1340596974 -0.2523757219 0.2607070804 1.258099074e-38
-0.2122014314 -0.3038060069 0.1718449146 1.258099074e-38
0.379961431 -0.4809483886 -0.03411063552 1.276466033e-38
-0.2034144849 -0.2631161511 0.2060167044 1.276466033e-38
0.3279863894 -0.2865658402 0.03396830335 1.276466033e-38
0.4583060741 -0.4452544153 -0.1358129531 1.276466033e-38
-0.1958756447 -0.3568148613 0.1058494747 1.276466033e-38
0.1465529203 -0.3440669179 0.2815667093 1.276466033e-38
-0.1965532005 -0.3553302288 0.09446772188 1.276466033e-38
0.454833746 -0.5040210485 -0.09960854053 1.276466033e-38
0.135478884 -0.354018718 0.2845779359 1.294832852e-38
-0.01398895681 -0.2315562665 -0.2224917859 1.294832852e-38
0.4143271148 -0.4664619565 -0.06173577905 1.294832852e-38
-0.2047895491 -0.3437148035 -0.06279022247 1.294832852e-38
-0.2076701522 -0.3265980482 0.2101619989 1.294832852e-38
0.4240460992 -0.4535409212 -0.08751037717 1.294832852e-38
-0.04687322676 -0.3840973377 0.3026284873 1.294832852e-38
0.06210577115 -0.05665168166 0.3560758829 1.294832852e-38
0.4020037651 -0.4672446549 -0.06081053615 1.313163938e-38
0.4431879222 -0.5062883496 -0.08730154485 1.313163938e-38
-0.201127395 -0.293854177 0.1688337177 1.313163938e-38
0.3822485507 -0.5116864443 -0.07129363716 1.313163938e-38
-0.2141283154 -0.2931522727 0.15837726 1.313163938e-38
0.4803695679 -0.4915404618 -0.04872240126 1.313163938e-38
0.3896803856 -0.4680273533 -0.05988529325 1.313163938e-38
-0.2133861184 -0.3120151162 -0.1693975031 1.313163938e-38
0.4117227197 -0.4543236196 -0.08658513427 1.331530897e-38
0.3837094009 -0.5084557533 -0.02785274386 1.331530897e-38
-0.2040920407 -0.2616315484 0.1946350187 1.331530897e-38
-0.1147367656 -0.3421652019 0.2968248725 1.331530897e-38
-0.1900944412 -0.3074804842 -0.19401142 1.331530897e-38
0.449413389 -0.4921441674 -0.1906621754 1.331530897e-38
0.3150911927 -0.2796640396 0.04418934137 1.331530897e-38
-0.2301349938 -0.2838057876 -0.1861118823 1.331530897e-38
0.1952811182 -0.5038670897 -0.3387110233 1.349897856e-38
0.1342295557 -0.3448495865 0.2824919522 1.349897856e-38
-0.1998780668 -0.3030232787 0.1709196717 1.349897856e-38
0.4418328404 -0.5033191442 -0.1100649983 1.349897856e-38
-0.2023767233 -0.2846850753 0.1667477489 1.349897856e-38
-0.1011640653 -0.350551635 0.2979856133 1.349897856e-38
0.4398002028 -0.4988652766 -0.1442101151 1.349897856e-38
-0.1983742863 -0.3384766281 0.1016775519 1.349897856e-38
0.4062177539 -0.508636415 -0.08452581614 1.368228942e-38
-0.2148058563 -0.2916676402 0.1469955593 1.368228942e-38
-0.2203948796 -0.3308745623 -0.09809605777 1.368228942e-38
-0.2094266117 -0.3271226585 -0.1217847243 1.368228942e-38
-0.2047695816 -0.2601469159 0.1832532585 1.368228942e-38
-0.0213150382 -0.2690154314 -0.2132226974 1.368228942e-38
-0.2018049508 -0.2923696041 0.1574520171 1.368228942e-38
0.1219061688 -0.3456322849 0.2834171951 1.368228942e-38
-0.1913437694 -0.2983113527 -0.196097374 1.386595901e-38
0.4905545115 -0.4925038218 -0.1044702232 1.386595901e-38
0.4727896154 -0.4214198589 -0.3083890676 1.386595901e-38
0.02298121341 -0.2292082012 -0.2252675146 1.386595901e-38
0.4323253334 -0.5038403273 -0.04293546826 1.386595901e-38
-0.2095970064 -0.3159443438 0.1966942847 1.386595901e-38
0.3701366782 -0.5000692606 -0.02901346982 1.386595901e-38
0.4288318455 -0.5026171803 -0.1205214411 1.386595901e-38
0.4076786041 -0.5054057837 -0.04108498245 1.404926846e-38
0.003331702203 -0.2674500346 -0.2150731832 1.404926846e-38
-0.2236768454 -0.3172516227 -0.1343271434 1.404926846e-38
0.08743464947 -0.3663185835 0.2903648615 1.404926846e-38
-0.2294574529 -0.2852904201 -0.1747301519 1.404926846e-38
-0.212624535 -0.3286055624 0.08913507313 1.404926846e-38
-0.2209466994 -0.2396221608 0.1572431773 1.404926846e-38
0.08226928115 -0.2994303703 -0.2122807801 1.404926846e-38
0.4178635478 -0.5063691139 -0.09683281183 1.423293806e-38
-0.1995178461 -0.3231076002 0.1202690154 1.423293806e-38
-0.2135136127 -0.3395207822 0.0363984853 1.423293806e-38
0.3643989861 -0.5067921281 -0.1820995063 1.423293806e-38
-0.1999409348 -0.3479071856 0.0375592038 1.423293806e-38
-0.2154834121 -0.2901830375 0.1356137991 1.423293806e-38
0.0393904224 -0.3786184788 0.296151787 1.423293806e-38
0.4906603098 -0.4863039255 -0.08379273862 1.423293806e-38
0.4893051982 -0.4833346903 -0.106556192 1.441624891e-38
0.1403063089 -0.2982213199 0.2711369097 1.441624891e-38
0.3119149804 -0.2598411739 0.02863566205 1.441624891e-38
-0.03454985842 -0.3833146393 0.3017032444 1.441624891e-38
0.3707084358 -0.507753849 -0.03830925375 1.441624891e-38
-0.03738640994 -0.242290765 -0.2185553461 1.441624891e-38
0.1095827445 -0.3464149833 0.284342438 1.441624891e-38
-0.2163295895 -0.339782238 -0.0298058223 1.441624891e-38
-0.2120310217 -0.3149843216 -0.1466341168 1.459991851e-38
0.3805332184 -0.4886328876 -0.04340642691 1.459991851e-38
-0.1024133936 -0.3413825035 0.2958996296 1.459991851e-38
0.4103676081 -0.4513543844 -0.1093485802 1.459991851e-38
0.4777651727 -0.4794021249 -0.07357175648 1.459991851e-38
-0.2275305837 -0.2959441543 -0.1612624973 1.459991851e-38
0.08147698641 -0.4070933461 0.03290312737 1.459991851e-38
-0.2006184906 -0.3464225829 0.02617747709 1.459991851e-38
0.1040412784 -0.5326592326 -0.2267877758 1.478322936e-38
0.3682098091 -0.489415586 -0.04248118401 1.478322936e-38
-0.1025832519 -0.248908639 0.2741147578 1.478322936e-38
-0.1790203899 -0.2975286543 -0.1970226169 1.478322936e-38
-0.2055529207 -0.2648622394 0.1511941254 1.478322936e-38
-0.04970977828 -0.2430734634 -0.2176301032 1.478322936e-38
-0.2073740065 -0.2480085939 0.1584039032 1.478322936e-38
-0.102581434 -0.3111707568 -0.1984021515 1.478322936e-38
0.2089595944 -0.5060535669 -0.3168728948 1.496689755e-38
0.1674516946 -0.3149941564 0.2734583616 1.496689755e-38
0.06915361434 -0.4078760445 0.03382837027 1.496689755e-38
-0.02881097607 -0.2140007317 -0.2257384807 1.496689755e-38
0.4158309102 -0.5019152761 -0.1309778988 1.496689755e-38
0.1069160774 -0.2978649735 -0.2141312659 1.496689755e-38
-0.2171340883 -0.2845077515 -0.1756553948 1.496689755e-38
0.4090125263 -0.448385179 -0.1321119815 1.496689755e-38
0.4770876169 -0.4779175222 -0.08495345712 1.515020841e-38
0.1008374766 -0.2822311521 0.2697407007 1.515020841e-38
0.03405525535 -0.2192563713 -0.2282787263 1.515020841e-38
-0.2113534808 -0.3164689243 -0.1352523863 1.515020841e-38
-0.1979511976 -0.3136770129 0.1843873411 1.515020841e-38
-0.2203749269 -0.2473066896 0.1479474455 1.515020841e-38
0.119239457 -0.2970822752 -0.2150565088 1.515020841e-38
-0.1802697182 -0.2883595526 -0.1991085857 1.515020841e-38
0.419324398 -0.503138423 -0.05339192599 1.533351927e-38
0.005660491064 -0.1933144033 -0.2326861322 1.533351927e-38
-0.1099093258 -0.2863678336 0.2833838761 1.533351927e-38
0.3760019243 -0.4658408165 -0.08172345161 1.533351927e-38
0.3617516458 -0.4559698105 -0.0942658633 1.533351927e-38
-0.2191255987 -0.2564758062 0.1500333995 1.533351927e-38
-0.1469576657 -0.52552104 -0.2465999722 1.533351927e-38
0.2995916009 -0.2606238723 0.02956090122 1.533351927e-38
-0.2019107193 -0.2985694408 0.136774525 1.551683013e-38
0.4035075605 -0.5026979446 -0.1300526559 1.551683013e-38
-0.1586035043 -0.5277882814 -0.2342930287 1.551683013e-38
-0.03113979287 -0.288136363 -0.2081255317 1.551683013e-38
0.3685700297 -0.5094998479 -0.09313184023 1.551683013e-38
0.05262524635 -0.2643192708 -0.2187741548 1.551683013e-38
-0.219231382 -0.2626757026 0.1293559223 1.551683013e-38
0.4362637401 -0.458958149 -0.1091131121 1.551683013e-38
0.04637862742 -0.2184736878 -0.2292039692 1.570049832e-38
-0.2169013619 -0.332097739 -0.02051005885 1.570049832e-38
-0.203328684 -0.3404841423 -0.01934934035 1.570049832e-38
0.37003088 -0.5062692165 -0.04969095439 1.570049832e-38
-0.2146571726 -0.3241517544 0.05498997867 1.570049832e-38
-0.2103803456 -0.3206596076 0.1646351516 1.570049832e-38
-0.1000846028 -0.267246902 0.2782866955 1.570049832e-38
-0.2062304616 -0.2633776069 0.1398124397 1.570049832e-38
0.3850433528 -0.4514351487 -0.1188797951 1.588380918e-38
-0.09009002149 -0.3405998051 0.2949743867 1.588380918e-38
-0.2358098477 -0.2456447333 -0.2058374286 1.588380918e-38
0.1438861936 -0.2955169082 -0.2169069946 1.588380918e-38
-0.2198031396 -0.2549911737 0.1386517137 1.588380918e-38
-0.2210524678 -0.245822072 0.1365657449 1.588380918e-38
-0.06453182548 -0.2255179137 -0.2208767831 1.588380918e-38
0.4756267369 -0.4811481833 -0.1283943355 1.588380918e-38
-0.223571077 -0.3110517263 -0.1136496887 1.606712004e-38
0.2916937768 -0.2903985381 0.04812578112 1.606712004e-38
0.4355862141 -0.4574735165 -0.1204948127 1.606712004e-38
-0.1172354072 -0.3238269985 0.2926529646 1.606712004e-38
-0.2025882602 -0.297084868 0.1253928393 1.606712004e-38
0.4239403009 -0.4597408175 -0.1081878617 1.606712004e-38
0.1973137558 -0.5083209276 -0.3045659065 1.606712004e-38
0.4488204122 -0.4244698882 -0.2951568961 1.606712004e-38
-0.08276391029 -0.3031406701 0.2857052982 1.625043089e-38
0.04887727648 -0.236811921 -0.2250320464 1.625043089e-38
0.4494979382 -0.4259544611 -0.2837751508 1.625043089e-38
0.384365797 -0.4499505758 -0.1302614957 1.625043089e-38
0.2904444337 -0.2812294364 0.04603981972 1.625043089e-38
-0.210675925 -0.3179535568 -0.1238706857 1.625043089e-38
0.07744006813 -0.2929656506 0.2736771703 1.625043089e-38
0.03280593455 -0.2100872695 -0.2303646952 1.625043089e-38
0.3960116208 -0.4476832747 -0.1425684392 1.643374035e-38
-0.2199089229 -0.2611910701 0.1179742217 1.643374035e-38
0.4730223417 -0.4690098763 -0.1532437205 1.643374035e-38
-0.09883527458 -0.2764160037 0.2803726494 1.643374035e-38
-0.05345774442 -0.2155661136 -0.2238879949 1.643374035e-38
0.4232627749 -0.4582561851 -0.1195695624 1.643374035e-38
0.4405623376 -0.4341602325 -0.2259413749 1.643374035e-38
0.4349086583 -0.4559889138 -0.1318764985 1.643374035e-38
-0.2228935212 -0.312536329 -0.1022679955 1.661705121e-38
0.4839906096 -0.4652579427 -0.1769323945 1.661705121e-38
-0.2204806954 -0.2535065413 0.1272699535 1.661705121e-38
-0.2254979461 -0.3003979921 -0.1271173805 1.661705121e-38
-0.2180878371 -0.2780447006 0.1107644439 1.661705121e-38
0.2872682512 -0.2614065707 0.03048614413 1.661705121e-38
0.1033361331 -0.3005694151 0.2739126384 1.661705121e-38
-0.08776120096 -0.2664641738 0.2773614526 1.661705121e-38
0.01940304227 -0.2941747308 -0.2097405344 1.680036207e-38
-0.1568722576 -0.2776250243 -0.2030450404 1.680036207e-38
0.05637321621 -0.2918266356 -0.2125162631 1.680036207e-38
-0.2050869167 -0.2787466049 0.1212209016 1.680036207e-38
-0.2060388774 -0.3345457017 -0.06487618387 1.680036207e-38
-0.07685519755 -0.2263006121 -0.2199515402 1.680036207e-38
0.3720424175 -0.4507332444 -0.1293362528 1.680036207e-38
0.04404984415 -0.292609334 -0.2115910202 1.680036207e-38
0.09476072341 -0.3288594186 0.281095773 1.698367293e-38
-0.04363302141 -0.196445182 -0.2289851606 1.698367293e-38
0.08459813148 -0.225294739 -0.2298937291 1.698367293e-38
-0.2039004415 -0.3327996433 -0.01005360391 1.698367293e-38
-0.203265816 -0.2956002355 0.1140111387 1.698367293e-38
0.4392072558 -0.4311909974 -0.2487047911 1.698367293e-38
-0.2124129832 -0.3162057698 0.130490005 1.698367293e-38
-0.2248204052 -0.3018825948 -0.1157356501 1.698367293e-38
0.4833130538 -0.4637733102 -0.1883140951 1.716698239e-38
-0.2053613216 -0.3360303044 -0.05349446088 1.716698239e-38
-0.1993062943 -0.3107078075 0.1616239399 1.716698239e-38
0.369353354 -0.504784584 -0.06107264757 1.716698239e-38
0.07852131128 -0.2719230056 -0.2185386717 1.716698239e-38
0.05745267868 -0.2085218728 -0.2322151661 1.716698239e-38
0.3014127314 -0.2774775028 0.02235113084 1.716698239e-38
