# .PCD v0.7 - Point Cloud Data file format
VERSION 0.7
FIELDS x y z rgb
SIZE 4 4 4 4
TYPE F F F F
COUNT 1 1 1 1
WIDTH 849
HEIGHT 1
VIEWPOINT 0 0 0 1 0 0 0
POINTS 849
DATA ascii
0.1325065196 -0.3515701592 0.07045253366 8.194878899e-39
0.205282256 -0.3922035694 0.06707512587 8.012284103e-39
0.2419674397 -0.4063006341 0.06535349786 8.012284103e-39
0.1099258214 -0.3751376867 0.1464914829 8.012284103e-39
0.1573420763 -0.3650803566 0.08177932352 8.012284103e-39
0.1330835223 -0.3515358865 0.0829051286 7.829687907e-39
0.112180762 -0.4122154117 0.2338572145 7.829687907e-39
0.2058592588 -0.3921692967 0.07952771336 7.829687907e-39
0.1934503168 -0.3792117238 0.06760510057 7.829687907e-39
0.1127400845 -0.4245861173 0.2588283122 7.647093112e-39
0.157359764 -0.3526754379 0.0692608878 7.647093112e-39
0.1093842015 -0.3503620923 0.1090019643 7.647093112e-39
0.1206745133 -0.3385783434 0.07098251581 7.647093112e-39
0.1105028242 -0.3751034141 0.1589440852 7.464498317e-39
0.121251516 -0.3385440707 0.08343511075 7.464498317e-39
0.1697863936 -0.3532280624 0.06866506487 7.464498317e-39
0.2058769464 -0.3797643483 0.06700927764 7.464498317e-39
0.1127577648 -0.4121811688 0.2463098168 7.281903522e-39
0.1822130233 -0.3537806869 0.06806924194 7.281903522e-39
0.2064539492 -0.3797300756 0.07946187258 7.281903522e-39
0.2673977613 -0.4073716104 0.07661443949 7.281903522e-39
0.1088425815 -0.3255865276 0.07151249796 7.099307325e-39
0.2792474031 -0.4079585373 0.06356602162 7.099307325e-39
0.3040829301 -0.4214687049 0.07489281148 7.099307325e-39
0.2425621301 -0.3938614428 0.06528764963 7.099307325e-39
0.1703810841 -0.340788871 0.06859922409 6.91671253e-39
0.3159326315 -0.4220556021 0.06184439361 6.91671253e-39
0.19462201 -0.3667382598 0.07999185473 6.91671253e-39
0.1110975146 -0.3626642525 0.158878237 6.91671253e-39
0.2064716369 -0.3673251569 0.06694343686 6.734117735e-39
0.2431391329 -0.3938271701 0.07774024457 6.734117735e-39
0.1585491449 -0.3277970552 0.06912919879 6.734117735e-39
0.1099965796 -0.3255179822 0.09641768783 6.734117735e-39
0.1709580868 -0.3407545984 0.08105181158 6.55152294e-39
0.146699518 -0.3272101581 0.08217761666 6.55152294e-39
0.2549888194 -0.3944140673 0.0646918267 6.55152294e-39
0.2070486397 -0.3672908843 0.0793960318 6.55152294e-39
0.1105735824 -0.3254837096 0.1088702828 6.368926744e-39
0.2188982666 -0.3678777814 0.06634761393 6.368926744e-39
0.1952167153 -0.3542990386 0.0799260065 6.368926744e-39
0.2313072085 -0.3808353245 0.07827022672 6.368926744e-39
0.1116922125 -0.3502250314 0.1588123888 6.186331949e-39
0.1833847165 -0.3413072228 0.08045598865 6.186331949e-39
0.109437272 -0.3131473064 0.07144665718 6.186331949e-39
0.2431568205 -0.3814222217 0.06522180885 6.186331949e-39
0.1218639016 -0.3136999607 0.07085083425 6.003737154e-39
0.1122338399 -0.3750006258 0.1963019222 6.003737154e-39
0.207643345 -0.3548516631 0.07933018357 6.003737154e-39
0.1224409044 -0.313665688 0.08330342174 6.003737154e-39
0.1348675936 -0.3142183125 0.08270759881 5.820783626e-39
0.1105912775 -0.3130787611 0.0963518396 5.820783626e-39
0.2076610327 -0.3424467742 0.06681174785 5.820783626e-39
0.183979407 -0.3288680315 0.08039014786 5.820783626e-39
0.112286903 -0.33778584 0.1587465554 5.63818743e-39
0.243751511 -0.3689830601 0.06515596807 5.63818743e-39
0.1139294654 -0.3997077048 0.2586966157 5.63818743e-39
0.2319196016 -0.3559912145 0.06568594277 5.63818743e-39
0.2922686934 -0.3960719705 0.06290435791 5.455592635e-39
0.1124107316 -0.2509513199 0.07111743838 5.455592635e-39
0.1136001199 -0.2260729373 0.07098574936 5.455592635e-39
0.2200876623 -0.3429993987 0.06621592492 5.455592635e-39
0.1147895008 -0.2011945546 0.0708540678 5.272997839e-39
0.3289539516 -0.4101690352 0.06118272245 5.272997839e-39
0.1153841987 -0.1887553334 0.07078821957 5.272997839e-39
0.2082557231 -0.3300075829 0.06674590707 5.272997839e-39
0.1112213507 -0.2758297324 0.07124912739 5.090401643e-39
0.1964060962 -0.3294206858 0.07979432493 5.090401643e-39
0.1230355948 -0.3012264967 0.08323758096 5.090401643e-39
0.1597385406 -0.3029186428 0.06899751723 5.090401643e-39
0.1272161305 -0.201747179 0.07025824487 4.907806848e-39
0.1129877344 -0.2509170771 0.08357003331 4.907806848e-39
0.1278108358 -0.1893079579 0.07019239664 4.907806848e-39
0.2324966043 -0.3559569418 0.0781385377 4.907806848e-39
0.1111859679 -0.3006395996 0.09628599882 4.725212053e-39
0.1150657758 -0.4120440781 0.2961202562 4.725212053e-39
0.304695338 -0.3966245949 0.06230853498 4.725212053e-39
0.2804367542 -0.3830801249 0.06343433261 4.725212053e-39
0.1117983535 -0.2757954597 0.08370171487 4.542257124e-39
0.1254143715 -0.2514697015 0.08297421038 4.542257124e-39
0.1366693676 -0.26449579 0.0699916333 4.542257124e-39
0.1123930439 -0.2633562982 0.08363587409 4.542257124e-39
0.1496906728 -0.2526092231 0.06932996213 4.359662329e-39
0.1139471531 -0.3873027861 0.2461781204 4.359662329e-39
0.2206646651 -0.342965126 0.07866851985 4.359662329e-39
0.1721651554 -0.303471297 0.0684016943 4.359662329e-39
0.1271984428 -0.2141520977 0.08277668059 4.177066133e-39
0.1171682701 -0.1514377594 0.07059068978 4.177066133e-39
0.1248196736 -0.2639089227 0.08304005116 4.177066133e-39
0.1484836042 -0.2898925245 0.08198008686 4.177066133e-39
0.1408322155 -0.1774214208 0.06953072548 3.994471337e-39
0.1153488159 -0.2135652006 0.095825091 3.994471337e-39
0.1129700467 -0.2633220255 0.09608846903 3.994471337e-39
0.1123399734 -0.300571084 0.1211911887 3.994471337e-39
0.1514747441 -0.2152916193 0.06913243234 3.81151781e-39
0.2449232191 -0.3565095663 0.07754271477 3.81151781e-39
0.1123576611 -0.2881661057 0.108672753 3.81151781e-39
0.1727598459 -0.2910320759 0.06833584607 3.81151781e-39
0.1520694494 -0.2028524578 0.06906659156 3.628921614e-39
0.1396251321 -0.214704752 0.08218085021 3.628921614e-39
0.1134409085 -0.3377173245 0.1836517304 3.628921614e-39
0.1414268911 -0.1649821997 0.0694648847 3.628921614e-39
0.1141417399 -0.2508485317 0.1084752232 3.446326818e-39
0.1402198225 -0.2022655606 0.08211500943 3.446326818e-39
0.3171220422 -0.3971772194 0.0617127046 3.446326818e-39
0.160910219 -0.2904451787 0.08138426393 3.446326818e-39
0.1165382043 -0.1886868179 0.09569340944 3.26337189e-39
0.150862366 -0.2401357591 0.08171671629 3.26337189e-39
0.1970007867 -0.3169814646 0.0797284767 3.26337189e-39
0.140814513 -0.1898263395 0.0820491612 3.26337189e-39
0.1177452728 -0.1514034867 0.08304328471 3.080777095e-39
0.1135470495 -0.2632877529 0.1085410565 3.080777095e-39
0.1153311282 -0.225970149 0.1083435267 3.080777095e-39
0.1171328947 -0.1762476265 0.09562756121 3.080777095e-39
0.1420215964 -0.1525430083 0.06939904392 2.898180898e-39
0.1520517468 -0.2152573764 0.08158502728 2.898180898e-39
0.1751386225 -0.2412752807 0.06807247549 2.898180898e-39
0.1626943052 -0.2531275749 0.08118673414 2.898180898e-39
0.1620996147 -0.2655667961 0.08125257492 2.715227371e-39
0.1141240522 -0.2632534802 0.1209936589 2.715227371e-39
0.2691995502 -0.3576490879 0.06389847398 2.715227371e-39
0.16568546 -0.1785266697 0.06833907962 2.715227371e-39
0.1183399707 -0.1389643103 0.08297744393 2.532632576e-39
0.1851687878 -0.3039896488 0.08025845885 2.532632576e-39
0.2094274163 -0.3175340891 0.07913265377 2.532632576e-39
0.173931554 -0.2785586119 0.08072260022 2.532632576e-39
0.1426162869 -0.1401038468 0.06933319569 2.349677647e-39
0.1875652522 -0.2418279052 0.06747665256 2.349677647e-39
0.1140179187 -0.3376830518 0.1961043924 2.349677647e-39
0.1662801504 -0.1660874486 0.06827323884 2.349677647e-39
0.2573676109 -0.3446572721 0.06442844868 2.167082852e-39
0.2455179095 -0.344070375 0.07747687399 2.167082852e-39
0.1769226938 -0.2039577067 0.0678749457 2.167082852e-39
0.1544305235 -0.1655005813 0.0813216567 2.167082852e-39
0.130784288 -0.1271119863 0.06986317784 1.984127923e-39
0.114701055 -0.2632192075 0.133446306 1.984127923e-39
0.1183045879 -0.1637741625 0.1080143154 1.984127923e-39
0.1982078552 -0.2796981335 0.06707835197 1.984127923e-39
0.1763103157 -0.2288018167 0.0804592222 1.801533128e-39
0.1781120747 -0.1790792942 0.06774325669 1.801533128e-39
0.1662624627 -0.1784924269 0.08079167455 1.801533128e-39
0.113493979 -0.3005025387 0.1460964233 1.801533128e-39
0.1975954771 -0.3045422733 0.07966263592 1.618578199e-39
0.1863581687 -0.2791112363 0.08012677729 1.618578199e-39
0.3058670163 -0.3841511011 0.07469528168 1.618578199e-39
0.1188992783 -0.1513349712 0.1079484671 1.618578199e-39
0.2816261649 -0.3582017124 0.06330265105 1.435982003e-39
0.1668571532 -0.1660532057 0.08072583377 1.435982003e-39
0.1893493235 -0.2045103312 0.06727912277 1.435982003e-39
0.1869528592 -0.2666720748 0.08006092906 1.435982003e-39
0.1145772263 -0.3500536978 0.2210754156 1.253028475e-39
0.1151011586 -0.3872342408 0.2710833848 1.253028475e-39
0.221854046 -0.3180867136 0.07853683084 1.253028475e-39
0.1140886694 -0.2880633175 0.1460305899 1.253028475e-39
0.1981901675 -0.2921030521 0.07959678769 1.070432279e-39
0.2697942257 -0.3452098966 0.06383262575 1.070432279e-39
0.1146833673 -0.2756241262 0.1459647417 1.070432279e-39
0.2124185711 -0.2429331839 0.06628499925 1.070432279e-39
0.1195116639 -0.1264908314 0.09536419064 8.874787512e-40
0.114594914 -0.3376487792 0.2085569799 8.874787512e-40
0.2940351069 -0.3711592853 0.07522526383 8.874787512e-40
0.2011813223 -0.217502147 0.06674914062 8.874787512e-40
0.1182692125 -0.1885839999 0.1330512464 7.045238224e-40
0.1438056678 -0.1152254343 0.06920151412 7.045238224e-40
0.1792837828 -0.1666058302 0.08013001084 7.045238224e-40
0.2023707032 -0.1926237643 0.06661745161 7.045238224e-40
0.116449751 -0.2507114708 0.1582856476 5.219290273e-40
0.2822031677 -0.3581674397 0.07575523853 5.219290273e-40
0.1140709817 -0.300468266 0.1585490257 5.219290273e-40
0.1917281002 -0.154753536 0.06701574475 5.219290273e-40
0.1911157072 -0.1795976758 0.07960002869 3.389740985e-40
0.2248452008 -0.2434858084 0.06568917632 3.389740985e-40
0.1194585934 -0.1637056172 0.1329195648 3.389740985e-40
0.1176391393 -0.2258330584 0.1581539661 3.389740985e-40
0.1200886667 -0.1264565587 0.1078167856 1.56020571e-40
0.2118061781 -0.2677773237 0.0788692832 1.56020571e-40
0.2703712285 -0.3451756239 0.07628522068 1.56020571e-40
0.203560099 -0.1677453518 0.0664857626 1.56020571e-40
0.1156781614 -0.3871999681 0.2835359573 6.490113838e-41
0.2147973329 -0.1931763887 0.06602162868 6.490113838e-41
0.1194409057 -0.1761105657 0.1454380006 6.490113838e-41
0.1080529094 -0.3049591482 0.1577533036 6.490113838e-41
0.1207364276 -0.07680258155 0.07019563019 2.496469266e-40
0.2153920233 -0.1807371974 0.0659557879 2.496469266e-40
0.1146302968 -0.312838912 0.1835200489 2.496469266e-40
0.1188285202 -0.2009547055 0.1580222696 2.496469266e-40
0.1923227906 -0.1423143446 0.06694990396 4.340353837e-40
0.2946298122 -0.358720094 0.0751594156 4.340353837e-40
0.3064793944 -0.3593069911 0.06211100519 4.340353837e-40
0.156826973 -0.1033388525 0.06853984296 4.340353837e-40
0.1200355962 -0.1636713445 0.1453721523 6.184224396e-40
0.2354877442 -0.2813560367 0.06529088318 6.184224396e-40
0.2467072904 -0.3191919625 0.07734518498 6.184224396e-40
0.1194232181 -0.1885154843 0.1579564363 6.184224396e-40
0.2580561042 -0.2903703749 0.09677857906 8.028094954e-40
0.2141849548 -0.2180205286 0.07860590518 8.028094954e-40
0.342569977 -0.385843277 0.06045521796 8.028094954e-40
0.354978919 -0.3988008499 0.07237783074 8.028094954e-40
0.1146479845 -0.3004339933 0.1710016131 9.871979525e-40
0.1086475998 -0.292519927 0.1576874554 9.871979525e-40
0.1128104478 -0.2054455727 0.1572265625 9.871979525e-40
0.2147796452 -0.2055813372 0.07854006439 9.871979525e-40
0.2467249781 -0.3067870736 0.06482674927 1.171585008e-39
0.1145945266 -0.168127954 0.1570290327 1.171585008e-39
0.1810678542 -0.1292882413 0.07993248105 1.171585008e-39
0.1928997934 -0.1422800869 0.0794024989 1.171585008e-39
0.1152426749 -0.2879947722 0.1709357649 1.355972064e-39
0.3188884258 -0.372264564 0.07403361052 1.355972064e-39
0.2047317922 -0.1552719176 0.07887251675 1.355972064e-39
0.1692536175 -0.103891477 0.06794402003 1.355972064e-39
0.1246424466 -0.2184373885 0.1566965729 1.540360521e-39
0.1574216783 -0.09089966863 0.06847400218 1.540360521e-39
0.1092422977 -0.2800807357 0.1576216221 1.540360521e-39
0.1086299121 -0.3049248755 0.1702058911 1.540360521e-39
0.1194055229 -0.2009204328 0.170474872 1.724747577e-39
0.2384612113 -0.2191600502 0.06496166438 1.724747577e-39
0.1258318424 -0.193558991 0.1565648913 1.724747577e-39
0.1098369882 -0.2676415741 0.1575557739 1.724747577e-39
0.3189060986 -0.3598596156 0.06151517481 1.909134633e-39
0.1121980697 -0.2302896827 0.1698108315 1.909134633e-39
0.2704827189 -0.2909229994 0.09618275613 1.909134633e-39
0.2390559018 -0.2067208588 0.0648958236 1.909134633e-39
0.2591339946 -0.3197446167 0.0767493546 2.09352309e-39
0.1370690763 -0.218990013 0.15610075 2.09352309e-39
0.1270212233 -0.1686805934 0.1564331949 2.09352309e-39
0.1352849901 -0.2563076019 0.1562982798 2.09352309e-39
0.2502931356 -0.232151866 0.06443168968 2.277910146e-39
0.2384435236 -0.2315649688 0.07748010755 2.277910146e-39
0.2053441703 -0.1304277778 0.0662882328 2.277910146e-39
0.2053264827 -0.1428327262 0.07880666852 2.277910146e-39
0.1181984469 -0.2382037342 0.1831249893 2.462297202e-39
0.1340956092 -0.2811860144 0.1564299762 2.462297202e-39
0.169848308 -0.0914522931 0.06787817925 2.462297202e-39
0.2290080488 -0.1564114094 0.06522827595 2.462297202e-39
0.1489010155 -0.2319818288 0.1555707753 2.646685659e-39
0.2402452826 -0.1818424463 0.06476413459 2.646685659e-39
0.1579986811 -0.09086540341 0.08092659712 2.646685659e-39
0.2473019809 -0.3067528009 0.0772793442 2.646685659e-39
0.2591516674 -0.3073396981 0.06423091888 2.830713982e-39
0.1158016026 -0.1308446378 0.1443789005 2.830713982e-39
0.1580163687 -0.07846047729 0.0684081614 2.830713982e-39
0.1218727455 -0.08913896978 0.1076192558 2.830713982e-39
0.1157839149 -0.1432495862 0.1568973362 3.015101038e-39
0.149495706 -0.2195426524 0.155504927 3.015101038e-39
0.3431646824 -0.3734040856 0.06038936973 3.015101038e-39
0.1394478381 -0.1692332178 0.1558373719 3.015101038e-39
0.117009066 -0.2630821466 0.1832566708 3.199488094e-39
0.1211896017 -0.163602829 0.1702773422 3.199488094e-39
0.1158196777 -0.2879605293 0.1833883673 3.199488094e-39
0.1127750725 -0.2302554101 0.1822634339 3.199488094e-39
0.2514825165 -0.2072734833 0.06430000067 3.383517819e-39
0.1157662198 -0.1556545049 0.169415772 3.383517819e-39
0.1104139909 -0.2676073015 0.1700083613 3.383517819e-39
0.1471169293 -0.2692994475 0.1557683051 3.383517819e-39
0.1216336042 -0.3054432571 0.1820626557 3.567904875e-39
0.2609357238 -0.2700220942 0.06403338909 3.567904875e-39
0.1133697629 -0.2178162187 0.1821975857 3.567904875e-39
0.2490860522 -0.2694351971 0.07708181441 3.567904875e-39
0.2592101097 -0.2903018296 0.1216837689 3.75229193e-39
0.121819675 -0.1263537705 0.1451746225 3.75229193e-39
0.1704253107 -0.09141802788 0.08033077419 3.75229193e-39
0.2296027392 -0.1439722478 0.06516242772 3.75229193e-39
0.2177531123 -0.1433853507 0.07821084559 3.936320254e-39
0.240227595 -0.194247365 0.0772825703 3.936320254e-39
0.1168321669 -0.3871314526 0.3084411621 3.936320254e-39
0.1343524456 -0.05247681588 0.06946811825 3.936320254e-39
0.1098016053 -0.2924514115 0.1825926453 4.120708711e-39
0.1224674359 -0.07669978589 0.1075534075 4.120708711e-39
0.1585933715 -0.07842621207 0.08086074889 4.120708711e-39
0.1340602338 -0.3059958816 0.1814668328 4.120708711e-39
0.1139644533 -0.2053770423 0.1821317375 4.304737034e-39
0.1488833129 -0.2443867922 0.168089211 4.304737034e-39
0.1518744677 -0.1697858423 0.155241549 4.304737034e-39
0.1151538417 -0.1804986447 0.1820000559 4.304737034e-39
0.1187754497 -0.2381694913 0.1955776364 4.48912409e-39
0.1181807593 -0.2506086826 0.1956434846 4.48912409e-39
0.2592278123 -0.2778969109 0.1091653332 4.48912409e-39
0.3555912971 -0.3739567101 0.0597935468 4.48912409e-39
0.1947015524 -0.09255754948 0.06668653339 4.673152414e-39
0.1946838647 -0.1049624756 0.07920496911 4.673152414e-39
0.2301974297 -0.1315330267 0.06509658694 4.673152414e-39
0.2739570737 -0.2581355274 0.06337172538 4.673152414e-39
0.230179742 -0.1439379752 0.07761502266 4.857539469e-39
0.1224143654 -0.1139145792 0.1451087743 4.857539469e-39
0.1710200012 -0.07897883654 0.08026492596 4.857539469e-39
0.2632968426 -0.2326702178 0.07628845423 4.857539469e-39
0.2751464546 -0.2332571149 0.06324003637 5.041567793e-39
0.2733623683 -0.2705747187 0.06343756616 5.041567793e-39
0.1175860688 -0.2630479038 0.1957093328 5.041567793e-39
0.2420116812 -0.156929791 0.07708504051 5.041567793e-39
0.3319097161 -0.3603779674 0.07337194681 5.225597518e-39
0.2538613081 -0.1575166881 0.06403663009 5.225597518e-39
0.2834864259 -0.2914413512 0.1080395207 5.225597518e-39
0.1205595285 -0.2008519173 0.1953801066 5.225597518e-39
0.3437593579 -0.3609648645 0.06032352895 5.409984573e-39
0.2650985718 -0.1829477251 0.06357248873 5.409984573e-39
0.1512620896 -0.1946299821 0.167825833 5.409984573e-39
0.1103786081 -0.2924171388 0.1950452924 5.409984573e-39
0.1530815512 -0.1325025409 0.1425914317 5.594012897e-39
0.134947136 -0.04003760219 0.06940227747 5.594012897e-39
0.1174091697 -0.3870971799 0.3208937943 5.594012897e-39
0.1223612949 -0.151129365 0.1826640815 5.594012897e-39
0.1211542264 -0.1884126961 0.1953142732 5.77804122e-39
0.1145414561 -0.2053427696 0.1945843995 5.77804122e-39
0.150055021 -0.2319132984 0.1804759502 5.77804122e-39
0.123026751 -0.08907043934 0.1325245053 5.77804122e-39
0.1592057496 -0.05358207971 0.06827647239 5.962428276e-39
0.115136154 -0.1929035485 0.1945185512 5.962428276e-39
0.1470638663 -0.3065142334 0.1933236718 5.962428276e-39
0.1952962428 -0.08011836559 0.06662068516 5.962428276e-39
0.2763358355 -0.2083787322 0.06310835481 6.1464566e-39
0.2189424932 -0.1185069531 0.07807916403 6.1464566e-39
0.1231151968 -0.02704578638 0.06993225962 6.1464566e-39
0.110973306 -0.2799779475 0.194979459 6.1464566e-39
0.2426063716 -0.1444905996 0.07701919973 6.330484923e-39
0.1834643185 -0.06712651998 0.06715066731 6.330484923e-39
0.2544559836 -0.1450774968 0.06397078186 6.330484923e-39
0.1169379205 -0.1431810558 0.1818025261 6.330484923e-39
0.1476762444 -0.2816701233 0.1807393283 6.514514648e-39
0.265080899 -0.1953526437 0.07609092444 6.514514648e-39
0.2544382811 -0.1574824154 0.07648921758 6.514514648e-39
0.2845996022 -0.2960057259 0.06297343224 6.514514648e-39
0.2869783938 -0.2462489605 0.06271006167 6.698542971e-39
0.2745340765 -0.2581012547 0.07582432032 6.698542971e-39
0.1229913682 -0.1138803139 0.1575613767 6.698542971e-39
0.1716146916 -0.06653963029 0.08019908518 6.698542971e-39
0.1115679964 -0.2675387561 0.1949136108 6.882571295e-39
0.2857890129 -0.271127373 0.06284174323 6.882571295e-39
0.2840634286 -0.2914070785 0.1204921156 6.882571295e-39
0.118757762 -0.25057441 0.2080960721 6.882571295e-39
0.2656756043 -0.1829134524 0.07602508366 7.066599618e-39
0.1223436072 -0.1635342836 0.1951825768 7.066599618e-39
0.1199471503 -0.2256959975 0.2079643905 7.066599618e-39
0.1536762416 -0.1200633496 0.1425255835 7.066599618e-39
0.1109556109 -0.2923828661 0.2074978948 7.250627941e-39
0.1133343801 -0.2426261008 0.2072345167 7.250627941e-39
0.2959130406 -0.2919939756 0.1074436978 7.250627941e-39
0.1518390924 -0.1945957094 0.1802784204 7.250627941e-39
0.1482709348 -0.269230932 0.18067348 7.434656265e-39
0.2716720998 -0.2660445869 0.09605106711 7.434656265e-39
0.1236568168 -0.0518213883 0.107421726 7.434656265e-39
0.2195548713 -0.09366281331 0.06549488008 7.434656265e-39
0.1597827524 -0.05354781076 0.08072906733 7.618684588e-39
0.1236745119 -0.03941643983 0.09490329027 7.618684588e-39
0.1236037537 -0.08903617412 0.1449770927 7.618684588e-39
0.2432187498 -0.1196464747 0.06443492323 7.618684588e-39
0.1236921996 -0.0270115193 0.0823848471 7.802712912e-39
0.1229382977 -0.1510950923 0.1951167434 7.802712912e-39
0.1211365312 -0.2008176446 0.207832709 7.802712912e-39
0.2550329864 -0.145043239 0.0764233768 7.802712912e-39
0.1500373185 -0.2443182468 0.1929944456 7.986382503e-39
0.1237098873 -0.0146065997 0.06986641139 7.986382503e-39
0.2840811014 -0.2790021598 0.1079736799 7.986382503e-39
0.2775075436 -0.1959052682 0.07549510151 7.986382503e-39
0.1169025376 -0.1679908931 0.2068394572 8.170410826e-39
0.1235683709 -0.1138460413 0.1700139642 8.170410826e-39
0.1299946755 -0.1064846069 0.1561039835 8.170410826e-39
0.1482532471 -0.2816358507 0.1931919754 8.170410826e-39
0.1223259196 -0.1759392321 0.2077010125 8.35443915e-39
0.1722093821 -0.05410043895 0.08013323694 8.35443915e-39
0.1121449992 -0.2675045133 0.2073661983 8.35443915e-39
0.149442628 -0.2567574382 0.1930602938 8.35443915e-39
0.1361188293 -0.02756414935 0.08178902417 8.538467473e-39
0.2905465364 -0.1716137528 0.06231499463 8.538467473e-39
0.2786969244 -0.1710268557 0.0753634125 8.538467473e-39
0.3201892972 -0.293133527 0.09379945695 8.538467473e-39
0.2437957525 -0.1196122095 0.07688751072 8.722137064e-39
0.3083396852 -0.2925466001 0.1068478748 8.722137064e-39
0.1242515147 -0.03938217461 0.1073558778 8.722137064e-39
0.1482355595 -0.2940407693 0.2057104111 8.722137064e-39
0.2083176374 -0.06823177636 0.06595902145 8.906165387e-39
0.2556453645 -0.1201991066 0.0638391003 8.906165387e-39
0.1361365169 -0.01515922882 0.06927058846 8.906165387e-39
0.2556276917 -0.1326040328 0.07635753602 8.906165387e-39
0.2893394828 -0.2088971138 0.07496511936 9.089834978e-39
0.2674773633 -0.1331909299 0.0633091107 9.089834978e-39
0.1241807565 -0.0890019089 0.1574296802 9.089834978e-39
0.1424213052 -0.1070372313 0.1555081606 9.089834978e-39
0.153605476 -0.1696830392 0.192599386 9.273863302e-39
0.2793093026 -0.1461827755 0.062779136 9.273863302e-39
0.1187400743 -0.2629793584 0.2206145078 9.273863302e-39
0.1603951454 -0.02870367654 0.06814478338 9.273863302e-39
0.1542178541 -0.1448389441 0.1800150573 9.457532893e-39
0.2792916298 -0.1585876942 0.07529757172 9.457532893e-39
0.117550686 -0.2878577113 0.2207462043 9.457532893e-39
0.1181453839 -0.27541852 0.220680356 9.457532893e-39
0.1243045777 -0.002167414874 0.06980057061 9.641561216e-39
0.1181096137 -0.1307075769 0.194189325 9.641561216e-39
0.1162901595 -0.192835018 0.2194237411 9.641561216e-39
0.11688485 -0.1803958416 0.2193578929 9.641561216e-39
0.1185631752 -0.3870286345 0.3457989991 9.825230807e-39
0.1846536994 -0.04224812239 0.0670189783 9.825230807e-39
0.121713534 -0.2007833719 0.2202852964 9.825230807e-39
0.1506143212 -0.2442839891 0.2054470479 9.825230807e-39
0.2562400699 -0.1077598855 0.06377325207 1.000925913e-38
0.260434866 -0.2406135648 0.09651520848 1.000925913e-38
0.112722002 -0.2674702406 0.2198188007 1.000925913e-38
0.2616242468 -0.2157351673 0.09638351947 1.000925913e-38
0.1728040874 -0.04166122526 0.08006739616 1.019292872e-38
0.2325585037 -0.09418118 0.07735165209 1.019292872e-38
0.1174795404 -0.1679566205 0.2192920446 1.019292872e-38
0.2562223673 -0.1201648414 0.07629168779 1.019292872e-38
0.1548479199 -0.1075898558 0.1549123377 1.037659831e-38
0.291123569 -0.17157951 0.07476758957 1.037659831e-38
0.1223082319 -0.1883441508 0.2202194482 1.037659831e-38
0.1482178718 -0.306445688 0.2182288468 1.037659831e-38
0.2088946402 -0.06819751859 0.07841160893 1.056062664e-38
0.2965254188 -0.2671498656 0.09485942125 1.056062664e-38
0.3810216188 -0.3750277162 0.07105448842 1.056062664e-38
0.1248462051 -0.02694298699 0.1072900295 1.056062664e-38
0.2798863053 -0.1461485028 0.07523173094 1.074429623e-38
0.1248638928 -0.01453806739 0.09477160126 1.074429623e-38
0.1609721482 -0.02866940945 0.08059737831 1.074429623e-38
0.1523984075 -0.2069664001 0.2052495182 1.074429623e-38
0.1970626414 -0.05520569906 0.07894159108 1.092796582e-38
0.3691895902 -0.3620358706 0.07158447057 1.092796582e-38
0.160989821 -0.01626449078 0.0680789426 1.092796582e-38
0.1429983079 -0.1070029736 0.1679607481 1.092796582e-38
0.1488125622 -0.2940064967 0.2181630135 1.111163541e-38
0.2331531942 -0.08174198866 0.07728580385 1.111163541e-38
0.2449851334 -0.09473380446 0.07675582916 1.111163541e-38
0.2686667442 -0.1083125174 0.06317742914 1.111163541e-38
0.2686490417 -0.1207174733 0.07569586486 1.1295305e-38
0.1175329983 -0.3002626598 0.2332646251 1.1295305e-38
0.1138936952 -0.2549967468 0.2322055399 1.1295305e-38
0.1491578966 -0.00327267684 0.06860892475 1.1295305e-38
0.2610118687 -0.2405792922 0.1089678034 1.147897319e-38
0.2639853358 -0.1783832908 0.1086385846 1.147897319e-38
0.1174618527 -0.1803615838 0.2318104804 1.147897319e-38
0.2651747167 -0.153504923 0.1085068956 1.147897319e-38
0.1733987778 -0.02922203951 0.08000155538 1.166264278e-38
0.2758349478 -0.178970173 0.09559016675 1.166264278e-38
0.2804986835 -0.121304363 0.06264744699 1.166264278e-38
0.1240923032 -0.151026547 0.2200219184 1.166264278e-38
0.1187223867 -0.2753842473 0.2331329584 1.184631237e-38
0.1517860293 -0.2318104953 0.2178337872 1.184631237e-38
0.1253878176 -0.05171858892 0.144779563 1.184631237e-38
0.2923129201 -0.1467011273 0.07463590056 1.184631237e-38
0.155407235 -0.1199605465 0.1798833609 1.202998196e-38
0.1132990047 -0.2674359679 0.2322713882 1.202998196e-38
0.1553895622 -0.1323654652 0.1924018562 1.202998196e-38
0.2971024215 -0.267115593 0.1073120162 1.202998196e-38
0.1976573318 -0.04276648164 0.0788757503 1.221365155e-38
0.3213433027 -0.2930649817 0.1187046468 1.221365155e-38
0.1505966336 -0.2566888928 0.2179654837 1.221365155e-38
0.1228852347 -0.1883098781 0.2326720357 1.221365155e-38
0.1435753107 -0.1069687009 0.1804133505 1.239732115e-38
0.2574117482 -0.09528643638 0.07616000623 1.239732115e-38
0.1156600863 -0.2300840765 0.2445264459 1.239732115e-38
0.3934659064 -0.3631753922 0.05794022977 1.239732115e-38
0.2971201241 -0.2547106743 0.09479358047 1.258099074e-38
0.269243747 -0.1082782522 0.07563002408 1.258099074e-38
0.2337478995 -0.06930277497 0.07721996307 1.258099074e-38
0.2746278644 -0.216253534 0.1082402915 1.258099074e-38
0.2852881849 -0.2417188138 0.09532355517 1.276466033e-38
0.2758172452 -0.1913751364 0.1081086025 1.276466033e-38
0.1858430803 -0.01736974902 0.06688729674 1.276466033e-38
0.1192636192 -0.1306390464 0.2190945148 1.276466033e-38
0.155354172 -0.1571753323 0.2174387276 1.294832852e-38
0.2870722711 -0.20440121 0.09512602538 1.294832852e-38
0.1739934683 -0.01678285375 0.07993570715 1.294832852e-38
0.1204887703 -0.2504715919 0.2454538643 1.294832852e-38
0.288261652 -0.1795228124 0.09499434382 1.313163938e-38
0.1560019255 -0.1075213253 0.1798175126 1.313163938e-38
0.124518618 -0.3052719235 0.2443256825 1.313163938e-38
0.125929445 -0.07649418712 0.1822690219 1.313163938e-38
0.2100840211 -0.04331911355 0.07827991992 1.331530897e-38
0.1559842527 -0.1199262887 0.1923360229 1.331530897e-38
0.126035586 -0.002064615488 0.107158348 1.331530897e-38
0.1379205883 0.02215838805 0.06907305866 1.331530897e-38
0.124669306 -0.1509923041 0.2324745059 1.349897856e-38
0.1192459315 -0.1430439949 0.2316129506 1.349897856e-38
0.2794030905 -0.1043350101 0.09519510716 1.349897856e-38
0.1621615291 -0.00379103981 0.0804656893 1.349897856e-38
0.1181100011 -0.3002284169 0.2457172275 1.368228942e-38
0.2787907124 -0.1291791499 0.1077793837 1.368228942e-38
0.2101017088 -0.03091419674 0.06576148421 1.368228942e-38
0.1260709763 0.02274528146 0.08212147653 1.368228942e-38
0.2580064535 -0.08284725249 0.07609415799 1.386595901e-38
0.1249894872 -0.3796672225 0.3318890035 1.386595901e-38
0.3095467687 -0.2552632987 0.09419775009 1.386595901e-38
0.1132813171 -0.2798408866 0.2447898239 1.386595901e-38
0.1503295898 0.009200833738 0.08099567145 1.404926846e-38
0.2793854177 -0.1167399287 0.1077135429 1.404926846e-38
0.1192282364 -0.1554488987 0.2441313863 1.404926846e-38
0.2977147996 -0.2422714382 0.09472773224 1.404926846e-38
0.1547417939 -0.1820194721 0.2300230116 1.423293806e-38
0.2681481838 -0.09130893648 0.1081776768 1.423293806e-38
0.3456196189 -0.2942045033 0.105060406 1.423293806e-38
0.1499842554 -0.2815330327 0.2305497527 1.423293806e-38
0.2912351191 -0.1173268259 0.09466512501 1.441624891e-38
0.100153856 -0.3661570549 0.3205622137 1.441624891e-38
0.1138760075 -0.2674016953 0.2447239757 1.441624891e-38
0.1252640039 -0.1385531127 0.2324086726 1.441624891e-38
0.116237089 -0.2300498188 0.2569791079 1.459991851e-38
0.2894333303 -0.1670493633 0.1073810905 1.459991851e-38
0.1265595257 -0.03924510628 0.1571663171 1.459991851e-38
0.1240569279 -0.1758364141 0.2450588048 1.459991851e-38
0.1126689315 -0.3046850264 0.2573741674 1.478322936e-38
0.1559311748 -0.1571410745 0.22989133 1.478322936e-38
0.3456372917 -0.2817995846 0.09254197031 1.478322936e-38
0.2900280356 -0.1546101868 0.1073152497 1.478322936e-38
0.1565612406 -0.1198920161 0.2047886103 1.496689755e-38
0.3006882668 -0.1800754368 0.09439852089 1.496689755e-38
0.290622741 -0.1421709657 0.1072494015 1.496689755e-38
0.3012829423 -0.1676362604 0.09433267266 1.496689755e-38
0.2912174165 -0.1297317892 0.1071835607 1.515020841e-38
0.1216604635 -0.2379981577 0.2578406632 1.515020841e-38
0.1498427391 -0.3807724714 0.3306973577 1.515020841e-38
0.2941147089 -0.09697858989 0.06191993505 1.515020841e-38
0.1529400349 -0.2317419648 0.2427389771 1.533351927e-38
0.1222551614 -0.2255589366 0.2577748299 1.533351927e-38
0.3219733834 -0.2558159232 0.09360192716 1.533351927e-38
0.2586188316 -0.05800311267 0.0635098815 1.533351927e-38
0.3101414442 -0.2428240627 0.09413190931 1.551683013e-38
0.1250956208 -0.3052376509 0.2567783296 1.551683013e-38
0.2467692196 -0.05741621926 0.07655829936 1.551683013e-38
0.2918121219 -0.1172925681 0.1071177199 1.551683013e-38
0.1447116286 -0.1193051189 0.2178370208 1.570049832e-38
0.3113308251 -0.2179456949 0.0940002203 1.570049832e-38
0.150941968 0.03404494002 0.0684113875 1.570049832e-38
0.4183014929 -0.3766855896 0.06926701963 1.570049832e-38
0.1228498518 -0.2131197453 0.2577089667 1.588380918e-38
0.1523453295 -0.244181186 0.2428048253 1.588380918e-38
0.1271365285 -0.03921084106 0.1696189046 1.588380918e-38
0.1250071824 -0.3672623038 0.3193705678 1.588380918e-38
0.1255664974 -0.3796329498 0.3443416059 1.606712004e-38
0.1271719038 -0.01440100186 0.1445820332 1.606712004e-38
0.1271542162 -0.02680592053 0.1571004689 1.606712004e-38
0.4064695537 -0.3636937439 0.06979700178 1.606712004e-38
0.3012652695 -0.1800411791 0.1068511084 1.625043089e-38
0.1559134871 -0.1695459783 0.2424097657 1.625043089e-38
0.2988865077 -0.2297979742 0.1071144864 1.625043089e-38
0.2924067974 -0.1048533767 0.1070518717 1.625043089e-38
0.312520206 -0.1930672824 0.09386853874 1.643374035e-38
0.1138583198 -0.2798066139 0.257242471 1.643374035e-38
0.1375222504 -0.3057902753 0.2561824918 1.643374035e-38
0.1180034727 -0.2051371783 0.2693000138 1.643374035e-38
0.1272426546 0.03521873429 0.09450822324 1.661705121e-38
0.211273402 -0.01844074391 0.07814823836 1.661705121e-38
0.1240392402 -0.1882413626 0.2575773001 1.661705121e-38
0.1517506391 -0.2566203773 0.2428706586 1.661705121e-38
0.3024546504 -0.1551628113 0.1067194268 1.680036207e-38
0.3131149113 -0.1806280762 0.09380269051 1.680036207e-38
0.119192861 -0.1802587807 0.2691683173 1.680036207e-38
0.2693375647 -0.06643053889 0.1080459952 1.680036207e-38
0.1144530103 -0.2673674524 0.2571766376 1.698367293e-38
0.1379931122 -0.3801855743 0.3437457681 1.698367293e-38
0.2828774452 -0.07154756039 0.06238407642 1.698367293e-38
0.1746959835 -0.3818777502 0.3295057118 1.698367293e-38
0.1571205556 -0.1322626621 0.2297596335 1.716698239e-38
0.2591958344 -0.05796884745 0.07596247643 1.716698239e-38
0.1252286136 -0.1633629501 0.2574456036 1.716698239e-38
0.322568059 -0.2433766872 0.09353608638 1.716698239e-38
0.2811694741 -0.0794223547 0.1075160131 1.735029324e-38
0.1162193939 -0.2424547672 0.2694975436 1.735029324e-38
0.1197875515 -0.1678195596 0.269102484 1.735029324e-38
0.1876094639 0.007542945445 0.07920820266 1.735029324e-38
0.2930191755 -0.08000925183 0.09446759522 1.75336041e-38
0.3119078279 -0.2179114372 0.1064528152 1.75336041e-38
0.3343999982 -0.2563685477 0.09300610423 1.75336041e-38
0.1276958287 -0.05158152431 0.1945899874 1.75336041e-38
0.1276781559 -0.06398644298 0.2071084231 1.771655483e-38
0.1216427758 -0.2504030764 0.2703590989 1.771655483e-38
0.2473815978 -0.03257208318 0.06397401541 1.771655483e-38
0.2355319709 -0.03198518604 0.07702243328 1.771655483e-38
0.1277312189 -0.02677165344 0.1695530564 1.789986569e-38
0.3225503862 -0.2557816505 0.1060545221 1.789986569e-38
0.3231627643 -0.2309375256 0.0934702456 1.789986569e-38
0.1876271665 0.01994786784 0.06668976694 1.789986569e-38
0.127784282 0.01044316217 0.1319977492 1.808317654e-38
0.1547064185 -0.2068293393 0.2550599575 1.808317654e-38
0.1277665943 -0.001961816102 0.1445161849 1.808317654e-38
0.1498604268 -0.3683675528 0.3181789219 1.808317654e-38
0.1871226728 -0.3824303746 0.3289099038 1.826612727e-38
0.2355496585 -0.01958026923 0.06450399756 1.826612727e-38
0.3048511147 -0.09300109744 0.09393761307 1.826612727e-38
0.1203822419 -0.1553803682 0.2690366507 1.826612727e-38
0.4188961685 -0.3642463684 0.06920117885 1.844943813e-38
0.1558957994 -0.1819509417 0.254928261 1.844943813e-38
0.1276604533 -0.07639138401 0.2196268588 1.844943813e-38
0.3704728782 -0.2953097522 0.1038687602 1.844943813e-38
0.3823224902 -0.2958966792 0.0908203423 1.863274899e-38
0.3048334122 -0.1054060161 0.1064560488 1.863274899e-38
0.1210480854 -0.2628422976 0.2704249322 1.863274899e-38
0.1577152461 -0.1198234856 0.2296938002 1.863274899e-38
0.2699322701 -0.05399132147 0.107980147 1.881569971e-38
0.281781882 -0.05457821861 0.09493173659 1.881569971e-38
0.2953040898 -0.07210019231 0.06178825349 1.881569971e-38
0.1529223323 -0.2441469282 0.2552574873 1.881569971e-38
0.2716225386 -0.05852147937 0.07536664605 1.899901057e-38
0.2936138809 -0.06757006049 0.09440174699 1.899901057e-38
0.2000360936 0.006990317255 0.07861237973 1.899901057e-38
0.2118857801 0.006403418258 0.06556395441 1.899901057e-38
0.1270303875 -0.1136404425 0.2447295785 1.91819627e-38
0.117985785 -0.2175420821 0.2818184495 1.91819627e-38
0.2000537962 0.01939523965 0.06609394401 1.91819627e-38
0.3586586118 -0.2699130177 0.09188029915 1.91819627e-38
0.1173910946 -0.2299812734 0.2818842828 1.936527215e-38
0.1283435971 -0.001927549019 0.1569687724 1.936527215e-38
0.1752729863 -0.3818434775 0.3419583142 1.936527215e-38
0.3166653812 -0.1183978319 0.1059260666 1.936527215e-38
0.3361840546 -0.2190509588 0.09280857444 1.954822428e-38
0.3243344426 -0.2184640616 0.1058569923 1.954822428e-38
0.1747136712 -0.3694728315 0.3169872761 1.954822428e-38
0.3279202878 -0.1314239353 0.092943497 1.954822428e-38
0.2242947221 -0.006554188207 0.07748657465 1.973153514e-38
0.127625078 -0.1012012213 0.2446637452 1.973153514e-38
0.3285149932 -0.1189847142 0.09287765622 1.973153514e-38
0.371049881 -0.2952754796 0.1163213477 1.973153514e-38
0.2958810925 -0.07206591964 0.07424084097 1.991448586e-38
0.1546887159 -0.2192342579 0.2675783634 1.991448586e-38
0.2942085862 -0.05513085052 0.09433590621 1.991448586e-38
0.2243124098 0.005850790069 0.06496813148 1.991448586e-38
0.2124627829 0.006437685341 0.07801654935 2.009743799e-38
0.3373734355 -0.1941725463 0.09267689288 2.009743799e-38
0.1509967446 -0.3807039261 0.3556025624 2.009743799e-38
0.1876996756 -0.382396102 0.3413624763 2.009743799e-38
0.2941908836 -0.06753580272 0.1068543419 2.028074885e-38
0.1327912509 -0.1683379263 0.2809592485 2.028074885e-38
0.1215716302 -0.1305019706 0.2689049542 2.028074885e-38
0.1298177838 -0.2305339128 0.281288445 2.028074885e-38
0.3060404956 -0.06812269986 0.09380592406 2.046369957e-38
0.3291096687 -0.1065455228 0.09281180799 2.046369957e-38
0.3279026151 -0.143828854 0.1054619327 2.046369957e-38
0.1288675368 -0.03910804167 0.2069767416 2.046369957e-38
0.2722349167 -0.033677347 0.06278236955 2.06466517e-38
0.3060227931 -0.08052761853 0.1063243598 2.06466517e-38
0.157662183 -0.1570382714 0.267249167 2.06466517e-38
0.1221840084 -0.1056578457 0.2563206553 2.06466517e-38
0.1380284876 -0.3553757071 0.3187088966 2.082996116e-38
0.3391575217 -0.1568549573 0.09247935563 2.082996116e-38
0.1333859414 -0.1558987349 0.2808933854 2.082996116e-38
0.1162017062 -0.2548596859 0.2820159793 2.082996116e-38
0.3178547621 -0.09351944923 0.1057943851 2.101291328e-38
0.1288321614 -0.06391790509 0.232013613 2.101291328e-38
0.3373557627 -0.2065774649 0.1051953286 2.101291328e-38
0.2367390394 0.005298160017 0.06437230855 2.101291328e-38
0.2829535604 -0.0421047695 0.1073184833 2.119586541e-38
0.3474037051 -0.2568869293 0.1048628762 2.119586541e-38
0.1221663207 -0.1180627942 0.2688391209 2.119586541e-38
0.2829712629 -0.02969984338 0.09480004758 2.119586541e-38
0.3480160832 -0.2320427746 0.09227859229 2.137881613e-38
0.1150123253 -0.2797380686 0.282147646 2.137881613e-38
0.1758499891 -0.3818092048 0.3544109166 2.137881613e-38
0.1268443167 -0.2927298844 0.2816176713 2.137881613e-38
0.2711393237 -0.01670799777 0.09533002228 2.156176826e-38
0.3066174984 -0.06808842719 0.106258519 2.156176826e-38
0.1582568735 -0.1445990801 0.2671833038 2.156176826e-38
0.2964934707 -0.04722178727 0.06165656447 2.156176826e-38
0.3385451436 -0.1816990674 0.1050636396 2.174471899e-38
0.114870809 -0.3789775372 0.3822952807 2.174471899e-38
0.1013432443 -0.3412786424 0.320430547 2.174471899e-38
0.1416497082 -0.2435257435 0.2807585001 2.174471899e-38
0.1576444954 -0.1694431752 0.2797676027 2.192767111e-38
0.3953438103 -0.2840101123 0.09015867114 2.192767111e-38
0.1294976026 -0.001859016716 0.1818739623 2.192767111e-38
0.122148633 -0.1304677129 0.2813575268 2.192767111e-38
0.1295152903 0.01054596156 0.1693555266 2.211062324e-38
0.1552657187 -0.2191999853 0.2800309658 2.211062324e-38
0.3403292298 -0.1443814784 0.1048661098 2.211062324e-38
0.1588692665 -0.1197549552 0.2545990348 2.211062324e-38
0.1877173632 -0.3699911833 0.3288440406 2.229357396e-38
0.129426837 -0.0514787212 0.2319477797 2.229357396e-38
0.1392709464 -0.2932825089 0.2810218334 2.229357396e-38
0.3409239054 -0.131942302 0.104800269 2.229357396e-38
0.1470373273 -0.1067631096 0.2551290393 2.247652609e-38
0.1272975057 -0.3795301616 0.3816994429 2.247652609e-38
0.3527736068 -0.1325291842 0.09175185114 2.247652609e-38
0.3598479927 -0.2450345904 0.09174861014 2.247652609e-38
0.3072122037 -0.05564921722 0.1061926782 2.265947681e-38
0.3072298765 -0.0432442911 0.0936742425 2.265947681e-38
0.2835659385 -0.01726062596 0.09473419935 2.265947681e-38
0.1540763378 -0.2440783828 0.2801626623 2.265947681e-38
0.3716799617 -0.2580264509 0.09121863544 2.284242894e-38
0.3497824669 -0.2071301043 0.1045994982 2.284242894e-38
0.3598303199 -0.2574395537 0.1042670533 2.284242894e-38
0.1227433234 -0.1180285215 0.2812916934 2.284242894e-38
0.360442698 -0.232595399 0.09168276936 2.302537966e-38
0.273406595 -0.02120389417 0.07516911626 2.302537966e-38
0.3421132863 -0.1070639044 0.10466858 2.302537966e-38
0.13003923 -0.02663458884 0.2193634957 2.302537966e-38
0.1261965632 -0.3423838913 0.3192389011 2.320833179e-38
0.1345576346 -0.1434253007 0.2932801545 2.320833179e-38
0.352755934 -0.1449341178 0.1042702869 2.320833179e-38
0.1019379348 -0.3288394511 0.3203646839 2.320833179e-38
0.1300038397 -0.05144445598 0.2444003522 2.339092378e-38
0.364605546 -0.145521 0.09122186899 2.339092378e-38
0.3533506095 -0.1324949265 0.1042044386 2.339092378e-38
0.1594462544 -0.1197206825 0.2670516372 2.339092378e-38
0.3959385157 -0.2715708911 0.09009283036 2.348204041e-38
0.1293737888 -0.08869350702 0.2695031464 2.348204041e-38
0.1521507502 -0.3806354105 0.380507797 2.348204041e-38
0.2841429412 -0.01722636074 0.1071867943 2.348204041e-38
0.3094970882 -0.04774015397 0.07351333648 2.348132155e-38
0.138623178 -0.3429365456 0.3186430633 2.348132155e-38
0.3213467002 -0.04832704738 0.06046491861 2.348132155e-38
0.3095147908 -0.03533523157 0.06099489331 2.348132155e-38
0.3314707577 -0.06919369102 0.1050668731 2.348060128e-38
0.2976828516 -0.02234341763 0.06152487546 2.348060128e-38
0.1469842643 -0.1439779252 0.2926843166 2.348060128e-38
0.354557693 -0.0952116102 0.09155432135 2.348060128e-38
0.1528869569 -0.2689567804 0.2802943587 2.347952368e-38
0.3616143763 -0.220121935 0.1040695235 2.347952368e-38
0.2740013003 -0.008764708415 0.07510327548 2.347952368e-38
0.114364557 -0.3293920755 0.3197688758 2.347952368e-38
0.3740587234 -0.2082696259 0.09095525742 2.347880341e-38
0.3610197008 -0.2325611264 0.1041353643 2.347880341e-38
0.3728693426 -0.2331480235 0.09108694643 2.347880341e-38
0.1233203262 -0.1179942638 0.2937442958 2.347880341e-38
0.1306162328 -0.02660032175 0.2318160832 2.347808455e-38
0.1299684644 -0.07625432312 0.2694372833 2.347808455e-38
0.1305985451 -0.03900524229 0.2443345189 2.347808455e-38
0.1600409448 -0.1072814614 0.266985774 2.347808455e-38
0.3551523685 -0.08277240396 0.09148847312 2.347700555e-38
0.3663896024 -0.1082034111 0.0910243392 2.347700555e-38
0.1149592549 -0.3169528842 0.3197030425 2.347700555e-38
0.1403011233 -0.3800485134 0.3935562074 2.347700555e-38
0.321923703 -0.04829277843 0.07291751355 2.347628668e-38
0.3084192574 -0.01836588979 0.09354255348 2.347628668e-38
0.3337734044 -0.04887967929 0.05986908823 2.347628668e-38
0.3776268661 -0.1336344481 0.09056019783 2.347628668e-38
0.1024972424 -0.3412100971 0.345335722 2.347520768e-38
0.2982775569 -0.009904232807 0.06145903468 2.347520768e-38
0.1155539453 -0.3045136929 0.3196371794 2.347520768e-38
0.3557470739 -0.07033321261 0.09142263234 2.347520768e-38
0.3858906329 -0.2212614864 0.09042528272 2.347448882e-38
0.1305631697 -0.06381510943 0.2693714499 2.347448882e-38
0.3846835792 -0.2585448027 0.1030754074 2.347448882e-38
0.1312109232 -0.014161136 0.2317502499 2.347448882e-38
0.103109628 -0.3163659573 0.3327514529 2.347340982e-38
0.3864853382 -0.2088222504 0.09035943449 2.347340982e-38
0.3669666052 -0.1081691533 0.1034769267 2.347340982e-38
0.3734463453 -0.2331137508 0.1035395414 2.347340982e-38
0.3870800138 -0.196383059 0.0902935937 2.347269095e-38
0.1161486357 -0.2920744717 0.319571346 2.347269095e-38
0.1305454671 -0.0762200579 0.2818898857 2.347269095e-38
0.3758251071 -0.1833569556 0.1032761633 2.347269095e-38
0.3225184083 -0.03585359454 0.07285166532 2.347161195e-38
0.3089962602 -0.01833162457 0.1059951484 2.347161195e-38
0.3343504071 -0.04884541035 0.07232168317 2.347161195e-38
0.3462000191 -0.04943230748 0.0592732653 2.347161195e-38
0.3106864989 -0.0228617806 0.07338164747 2.347089308e-38
0.3876747191 -0.1839438528 0.09022775292 2.347089308e-38
0.2971643507 -0.005339808762 0.1065251231 2.347089308e-38
0.3764197826 -0.1709177792 0.1032103226 2.347089308e-38
0.1883297563 -0.3451470435 0.3162597716 2.346981408e-38
0.1651543677 -0.3811537623 0.3923645616 2.346981408e-38
0.1037043184 -0.3039267957 0.3326855898 2.346981408e-38
0.3882693946 -0.1715046614 0.09016190469 2.346981408e-38
0.4089421928 -0.2720892429 0.1019495949 2.346909522e-38
0.377014488 -0.1584785879 0.1031444818 2.346909522e-38
0.3563240767 -0.07029895484 0.1038752273 2.346909522e-38
0.1888890713 -0.3575176895 0.3412308097 2.346909522e-38
0.3906481862 -0.1217478663 0.08989853412 2.346801622e-38
0.128575325 -0.2926270962 0.3189755082 2.346801622e-38
0.1606002599 -0.1196521521 0.2919568121 2.346801622e-38
0.1640711278 -0.3316026032 0.3173855841 2.346801622e-38
0.1030919328 -0.3287709057 0.3452698886 2.346693862e-38
0.1096335575 -0.1919397265 0.3445456028 2.346693862e-38
0.1311401725 -0.06378084421 0.2818240523 2.346693862e-38
0.3971102238 -0.2590974271 0.1024795771 2.346693862e-38
0.3852782547 -0.2461055666 0.1030095592 2.346621835e-38
0.1090388596 -0.2043789476 0.3446114361 2.346621835e-38
0.1487683356 -0.1066603065 0.2924867868 2.346621835e-38
0.3450867534 -0.04486791417 0.1043393612 2.346621835e-38
0.333254844 -0.03187609836 0.1048693433 2.346514075e-38
0.3681559861 -0.08329077065 0.1033452451 2.346514075e-38
0.3793932498 -0.1087217927 0.1028811038 2.346514075e-38
0.3876570165 -0.1963488013 0.1027461886 2.346514075e-38
0.3586266637 -0.0499849394 0.05867744237 2.346406175e-38
0.334962815 -0.02400130779 0.05973740667 2.346406175e-38
0.3858729601 -0.2336664051 0.1029437184 2.346406175e-38
0.1108229384 -0.1670613289 0.3444139063 2.346406175e-38
0.1041928679 -0.365917176 0.4077304304 2.346334289e-38
0.1410019547 -0.2931797206 0.3183797002 2.346334289e-38
0.368768394 -0.05844662711 0.09076096117 2.346334289e-38
0.104752183 -0.378287822 0.4327014685 2.346334289e-38
0.1114176288 -0.1546221375 0.344348073 2.346226389e-38
0.4018854499 -0.1471788883 0.08943439275 2.346226389e-38
0.1078494787 -0.2292573154 0.3447431326 2.346226389e-38
0.1323826164 -0.001687685028 0.2441369891 2.346226389e-38
0.1889244467 -0.3327078819 0.3161939383 2.346118629e-38
0.1770924479 -0.3197160363 0.316723913 2.346118629e-38
0.3806003332 -0.07143847644 0.09023098648 2.346118629e-38
0.1036512479 -0.3411415815 0.3702408969 2.346118629e-38
0.3338495195 -0.01943688095 0.1048034951 2.346010729e-38
0.1171788201 -0.3788404763 0.4321056306 2.346010729e-38
0.3592036664 -0.04995067418 0.07113003731 2.346010729e-38
0.1072547808 -0.2416965216 0.3448089659 2.346010729e-38
0.3994889855 -0.2093406171 0.1022162065 2.345938842e-38
0.1036689356 -0.3287366331 0.3577224612 2.345938842e-38
0.104210563 -0.3535122275 0.3952119946 2.345938842e-38
0.3456991315 -0.02002377808 0.09175508469 2.345938842e-38
0.3338672221 -0.007031962276 0.09228505939 2.345830942e-38
0.1311047971 -0.08859071136 0.3068609238 2.345830942e-38
0.4000836611 -0.1969014406 0.1021503657 2.345830942e-38
0.1895191371 -0.3202686608 0.3161280751 2.345830942e-38
0.1096158624 -0.2043446898 0.3570640385 2.345723183e-38
0.3811950386 -0.05899925902 0.09016513824 2.345723183e-38
0.1066600904 -0.2541357279 0.3448748291 2.345723183e-38
0.1126070172 -0.1297437549 0.3442163765 2.345723183e-38
0.4030571282 -0.1347054541 0.1018211469 2.345615283e-38
0.1297470331 -0.2801536322 0.3313622773 2.345615283e-38
0.1323118508 -0.05130739138 0.2942107916 2.345615283e-38
0.1782818288 -0.2948376238 0.3165922165 2.345615283e-38
0.3716302812 -0.05050329864 0.07053421438 2.345507523e-38
0.3344442248 -0.006997697055 0.1047376543 2.345507523e-38
0.3834798932 -0.05109019578 0.05748579651 2.345507523e-38
0.1042282507 -0.3411073089 0.3826935589 2.345507523e-38
0.1895014495 -0.3326736093 0.3286465108 2.345399623e-38
0.4042465091 -0.1098270416 0.1016894579 2.345399623e-38
0.1125893295 -0.1421487033 0.3567348123 2.345399623e-38
0.4048588872 -0.08498291671 0.0891051814 2.345399623e-38
0.1042459384 -0.3287023902 0.3701750636 2.345291723e-38
0.4131050408 -0.1850148439 0.1014886945 2.345291723e-38
0.1113822535 -0.1794320047 0.3693849444 2.345291723e-38
0.1101928651 -0.2043104172 0.3695166409 2.345291723e-38
0.3468708396 -0.007550325245 0.1041418314 2.345219836e-38
0.1303240359 -0.2801193595 0.3438148499 2.345219836e-38
0.358720541 -0.008137222379 0.09109341353 2.345219836e-38
0.1095981747 -0.2167495936 0.3695824742 2.345219836e-38
0.1788588315 -0.2948033512 0.3290448189 2.345111936e-38
0.1048052534 -0.3410730362 0.3951461613 2.345111936e-38
0.1090034842 -0.229188785 0.3696483076 2.345111936e-38
0.1053645685 -0.3534436822 0.4201171696 2.345111936e-38
0.1048229411 -0.3286681175 0.3826277256 2.345004176e-38
0.1084087864 -0.2416279912 0.3697141707 2.345004176e-38
0.1912855208 -0.2953559756 0.328448981 2.345004176e-38
0.4083332121 -0.0521954596 0.0562941432 2.345004176e-38
0.3964836001 -0.05160856247 0.06934256107 2.344896276e-38
0.4060305953 -0.0725094676 0.1014919281 2.344896276e-38
0.1544764489 -0.3680934012 0.417799741 2.344896276e-38
0.4066429734 -0.04766533151 0.0889076516 2.344896276e-38
0.1143734008 -0.1048310846 0.3565372825 2.344788516e-38
0.12620534 -0.1178229302 0.3560073078 2.344788516e-38
0.1125539467 -0.1669585407 0.3817717433 2.344788516e-38
0.1137610227 -0.1296752244 0.3691215813 2.344788516e-38
0.142732963 -0.2930769026 0.3557374775 2.344680616e-38
0.1184566468 -0.2919374108 0.3693817258 2.344680616e-38
0.1101751775 -0.2167153358 0.3820351362 2.344680616e-38
0.1510763466 -0.1065232456 0.3422972262 2.344680616e-38
0.1912678331 -0.3077609241 0.3409674168 2.344572857e-38
0.4207598567 -0.05274808779 0.05569832027 2.344572857e-38
0.1059415713 -0.3534094393 0.432569772 2.344572857e-38
0.1053999439 -0.3286338449 0.3950802982 2.344572857e-38
0.3835738003 -0.009242482483 0.08990176767 2.344464957e-38
0.4072199762 -0.04763106629 0.1013602391 2.344464957e-38
0.1551595777 -0.2936295569 0.3551416397 2.344464957e-38
0.1089857891 -0.2415937334 0.3821668029 2.344464957e-38
