# .PCD v0.7 - Point Cloud Data file format
VERSION 0.7
FIELDS x y z rgb
SIZE 4 4 4 4
TYPE F F F F
COUNT 1 1 1 1
WIDTH 831
HEIGHT 1
VIEWPOINT 0 0 0 1 0 0 0
POINTS 831
DATA ascii
-0.2099893391 -0.3913377821 0.2242340744 1.239732115e-38
-0.1900147051 -0.3731194437 0.1633929163 1.239732115e-38
-0.2197335809 -0.2303552926 0.2221590281 1.239732115e-38
-0.1844468564 -0.2138219774 0.1810470372 1.239732115e-38
-0.1942373365 -0.370352149 0.07443526387 1.258099074e-38
0.2504118681 -0.05700416118 -0.2124256045 1.258099074e-38
-0.2207299471 -0.2176792026 0.1952291876 1.258099074e-38
0.388301909 -0.3428715765 -0.1648374796 1.258099074e-38
-0.1935532838 -0.3718451858 0.08581452072 1.258099074e-38
-0.1775620431 -0.134788096 -0.003968106583 1.258099074e-38
0.07414890826 -0.04050591215 -0.205574289 1.258099074e-38
-0.200127393 -0.0379961729 -0.2005514503 1.258099074e-38
-0.2501282394 -0.1425025463 0.02439621091 1.276466033e-38
-0.1474796534 -0.2114577889 0.1782441288 1.276466033e-38
-0.2135279328 -0.390063554 0.1466556638 1.276466033e-38
-0.1444747001 -0.342436105 0.1534267962 1.276466033e-38
-0.1686719805 -0.3578871489 0.1253103018 1.276466033e-38
-0.2183136046 -0.1759227067 0.08565278351 1.276466033e-38
-0.163883552 -0.3683384359 0.2049649954 1.276466033e-38
-0.2142119855 -0.3885704875 0.1352764368 1.276466033e-38
-0.1009073406 -0.06112363935 0.3229426742 1.294832852e-38
-0.2148960531 -0.3870774508 0.1238971353 1.294832852e-38
-0.09836453944 -0.05153876543 -0.1924940348 1.294832852e-38
0.3404181302 -0.07901881635 -0.2127368152 1.294832852e-38
0.340285778 -0.6925228834 -0.3260326982 1.294832852e-38
-0.2143793553 -0.2484905422 0.2925108075 1.294832852e-38
0.020564178 -0.3771834671 -0.1233528256 1.294832852e-38
-0.1990350783 -0.3875636458 0.2005412877 1.294832852e-38
0.4149041772 -0.6892875433 -0.3202592731 1.313163938e-38
-0.197666958 -0.3905497193 0.2232997715 1.313163938e-38
0.3663127124 -0.08661971986 -0.2125291228 1.313163938e-38
-0.2570691705 -0.05857870355 -0.1369073987 1.313163938e-38
-0.08870324492 -0.06652651727 0.3013261557 1.313163938e-38
-0.2021174729 -0.3526427448 0.2719095349 1.313163938e-38
-0.1812309176 -0.3710571229 0.08488021791 1.313163938e-38
0.08453737944 -0.02904779091 -0.2199641317 1.313163938e-38
0.09685975313 -0.02825973183 -0.2208984345 1.331530897e-38
0.2922225296 -0.3675301075 -0.1532104462 1.331530897e-38
-0.001719312742 -0.03456421942 -0.2134239972 1.331530897e-38
-0.1279649734 -0.722469151 -0.2905291319 1.331530897e-38
0.3384842277 -0.06834873557 -0.2261923552 1.331530897e-38
-0.2325699329 -0.1660406888 0.07313148677 1.331530897e-38
-0.04048197716 -0.3888077736 -0.1279842407 1.331530897e-38
-0.1002232805 -0.06261667609 0.3343219161 1.331530897e-38
0.04757019132 -0.03141197562 -0.2171612084 1.349897856e-38
-0.1571519077 -0.3617970049 0.09231454134 1.349897856e-38
-0.2369201332 -0.1971271336 0.1692523956 1.349897856e-38
-0.1002984419 -0.040868707 -0.2059495747 1.349897856e-38
-0.251916647 -0.02279433608 -0.2009668499 1.349897856e-38
-0.1820332557 -0.375755012 0.05281876028 1.349897856e-38
-0.1973350048 -0.2069260627 0.1912842691 1.349897856e-38
-0.08471422642 -0.5119770169 0.07812543213 1.349897856e-38
-0.1798627824 -0.3740431964 0.1076386869 1.368228942e-38
-0.2196152955 -0.2241643369 0.2428412437 1.368228942e-38
-0.1564678401 -0.3632900417 0.1036937684 1.368228942e-38
-0.2362360805 -0.1986201704 0.1806316376 1.368228942e-38
-0.1887648553 -0.3822964728 0.1654692292 1.368228942e-38
-0.08801918477 -0.06801955402 0.3127053976 1.368228942e-38
-0.08334610611 -0.5149630904 0.100883916 1.368228942e-38
-0.2229173183 -0.2105081975 0.2066271752 1.368228942e-38
-0.07565365732 -0.0392925851 -0.2078181803 1.386595901e-38
-0.2008386999 -0.1393502951 0.02065899782 1.386595901e-38
-0.09965749085 -0.07030065358 0.3250189722 1.386595901e-38
-0.1929848045 -0.1758396178 0.09516340494 1.386595901e-38
-0.148903951 -0.04551399127 -0.1908331215 1.386595901e-38
-0.2635549605 -0.02507543564 -0.1886533201 1.386595901e-38
-0.08846669644 -0.05414460599 0.3426905274 1.386595901e-38
-0.1631602347 -0.03563199192 -0.2033543587 1.386595901e-38
-0.1697108746 -0.3749669492 0.05188445747 1.404926846e-38
-0.1603678465 -0.2045618743 0.1884813607 1.404926846e-38
0.3268458843 -0.07062983513 -0.2138788253 1.404926846e-38
-0.240222156 -0.1834709793 0.1330383271 1.404926846e-38
0.3291896582 -0.3651659191 -0.1560133547 1.404926846e-38
-0.179978326 -0.1765445918 0.1056083441 1.404926846e-38
0.2186722606 -0.3903743923 -0.1591093838 1.404926846e-38
-0.1923007369 -0.1773326546 0.1065426469 1.404926846e-38
-0.204623118 -0.1781207174 0.1074769497 1.423293806e-38
-0.01583719626 -0.387231648 -0.1298528463 1.423293806e-38
-0.239594236 -0.02200627327 -0.2019011527 1.423293806e-38
0.3508065939 -0.06756068021 -0.227126658 1.423293806e-38
-0.1624560207 -0.405865401 -0.1165648922 1.423293806e-38
-0.2110614926 -0.410510689 -0.1014484465 1.423293806e-38
0.3009512424 -0.06302893907 -0.2140865177 1.423293806e-38
-0.1366208047 -0.3789254129 0.2279311717 1.423293806e-38
-0.2232296318 -0.1993251443 0.1910765618 1.441624891e-38
-0.1546494812 -0.1764615178 0.1151189655 1.441624891e-38
-0.08266204596 -0.5164561272 0.1122631878 1.441624891e-38
-0.1573884636 -0.3741788864 0.05095015466 1.441624891e-38
-0.1675404012 -0.3732551336 0.1067043841 1.441624891e-38
-0.176442489 -0.38150841 0.1645349264 1.441624891e-38
-0.1862624735 -0.1969609559 0.1882736534 1.441624891e-38
-0.2109072208 -0.1985370815 0.190142259 1.441624891e-38
0.06057668477 -0.03211695328 -0.2067162842 1.459991851e-38
0.04577477276 -0.3832913339 -0.1345243752 1.459991851e-38
-0.1333094686 -0.364918828 0.05838450417 1.459991851e-38
-0.05938538909 -0.5118939281 0.08763606846 1.459991851e-38
0.4402329922 -0.6892044544 -0.3107486367 1.459991851e-38
-0.1984692961 -0.3952476382 0.1912383586 1.459991851e-38
-0.1986971647 -0.3601079583 0.3288057446 1.459991851e-38
0.185050413 -0.03341336176 -0.2139830142 1.459991851e-38
-0.2124770284 -0.1416313946 0.03297256306 1.478322936e-38
-0.06831598282 -0.1284846067 0.3035467565 1.478322936e-38
-0.2201810777 -0.2164803445 0.2521441579 1.478322936e-38
0.3650628626 -0.07744269818 -0.2146054208 1.478322936e-38
-0.1957330555 -0.4012197852 0.2367553115 1.478322936e-38
-0.2109099627 -0.4022266567 0.1714904457 1.478322936e-38
-0.1119367555 -0.04314980656 -0.19363603 1.478322936e-38
0.2731227279 -0.04475796223 -0.2277497649 1.478322936e-38
0.008807586506 -0.3856555223 -0.1317214519 1.496689755e-38
-0.1329546273 -0.3463459313 0.1204310805 1.496689755e-38
-0.01335768774 -0.03684531897 -0.2011104524 1.496689755e-38
-0.2480760515 -0.1469816566 0.05853394419 1.496689755e-38
-0.1878322363 -0.140055269 0.03110395744 1.496689755e-38
-0.2108249366 -0.3981287777 -0.06008405983 1.496689755e-38
-0.194918707 -0.1651695371 0.081707865 1.496689755e-38
0.09560990334 -0.01908271387 -0.2229747325 1.496689755e-38
-0.1317047775 -0.3555229604 0.1225073934 1.515020841e-38
0.07096516341 -0.02065883204 -0.2211061269 1.515020841e-38
-0.03800243884 -0.03842144087 -0.1992418468 1.515020841e-38
0.1707940549 -0.02353136614 -0.2265042514 1.515020841e-38
0.3132736683 -0.06224087626 -0.2150208205 1.515020841e-38
0.0093532186 -0.02459913865 -0.2164346129 1.515020841e-38
-0.1318230629 -0.3617139161 0.1018251628 1.515020841e-38
-0.2267851382 -0.189168036 0.1797160953 1.515020841e-38
-0.09748703241 -0.06858883798 0.3798389137 1.533351927e-38
-0.13058348 -0.5225944519 0.1387588829 1.533351927e-38
-0.132625401 -0.3664118648 0.06976373494 1.533351927e-38
-0.09852592647 -0.08566863835 0.3064130545 1.533351927e-38
-0.2251635343 -0.1886550784 0.1776210219 1.533351927e-38
-0.06694786251 -0.1314706802 0.3263052404 1.533351927e-38
-0.2602529228 -0.03873161972 -0.1524392664 1.533351927e-38
-0.05733320117 -0.5163730383 0.1217738241 1.533351927e-38
-0.08608528227 -0.0786896199 0.3261609674 1.551683013e-38
0.2909962237 -0.6956750751 -0.3222954571 1.551683013e-38
-0.2026919425 -0.3924803436 0.1022806764 1.551683013e-38
-0.2389101684 -0.02349931374 -0.1905219257 1.551683013e-38
-0.08528293669 -0.07399171591 0.3582223952 1.551683013e-38
-0.2447740436 -0.1606377959 0.09474800527 1.551683013e-38
-0.1422218084 -0.5248755813 0.1510724276 1.551683013e-38
-0.2074896544 -0.4096918404 0.2283866853 1.551683013e-38
-0.1443820298 -0.3748838902 0.06139511243 1.570049832e-38
-0.2020078748 -0.3939733803 0.1136599034 1.570049832e-38
-0.1008440703 -0.4019251168 -0.1212364137 1.570049832e-38
-0.1148693189 -0.137609005 0.3528009653 1.570049832e-38
-0.06458112597 -0.02932750434 -0.2108287811 1.570049832e-38
-0.09602624178 -0.1040226817 0.3105656803 1.570049832e-38
-0.1740943342 -0.4081465006 -0.1042513549 1.570049832e-38
-0.09099781513 -0.7201049924 -0.2933320403 1.570049832e-38
-0.1992716342 -0.3999455571 0.1591769159 1.588380918e-38
-0.1501537859 -0.03633697331 -0.1929094195 1.588380918e-38
-0.1644100845 -0.02645497397 -0.2054306567 1.588380918e-38
-0.08459887654 -0.07548475266 0.3696016073 1.588380918e-38
-0.2158166766 -0.3979663253 0.07115355134 1.588380918e-38
-0.1981313825 -0.3677919507 0.3195027709 1.588380918e-38
-0.1800993532 -0.3864251077 0.06627433002 1.588380918e-38
-0.2234312594 -0.1454055309 0.05666533858 1.588380918e-38
-0.1025469378 -0.1368209422 0.3518666625 1.606712004e-38
-0.0961189121 -0.07157491148 0.4025973678 1.606712004e-38
-0.2667387128 -0.005228355527 -0.204185158 1.606712004e-38
0.05932684243 -0.0229399316 -0.2087925822 1.606712004e-38
-0.1415377408 -0.526368618 0.1624516696 1.606712004e-38
0.04700440913 -0.02372799441 -0.2078582793 1.606712004e-38
-0.1979035139 -0.4029316306 0.1819353849 1.606712004e-38
0.2192380428 -0.3980583549 -0.1684123278 1.606712004e-38
-0.1531760395 -0.5286496878 0.1747652441 1.625043089e-38
-0.210377425 -0.4120037258 -0.09006918222 1.625043089e-38
0.2479121834 -0.03865009919 -0.2165782303 1.625043089e-38
-0.2277815044 -0.1764919758 0.15278624 1.625043089e-38
0.3421961069 -0.365870893 -0.1455684155 1.625043089e-38
-0.2219967097 -0.199619323 0.2593708038 1.625043089e-38
-0.1271529198 -0.3783561885 0.1607977152 1.625043089e-38
-0.1045705825 -0.5240043998 0.1596487612 1.625043089e-38
-0.218694672 -0.2132754624 0.2955848575 1.643374035e-38
-0.2270974368 -0.1779850125 0.1641654819 1.643374035e-38
-0.1961685568 -0.1559925228 0.07963155955 1.643374035e-38
-0.08551950008 -0.08637361228 0.3168579936 1.643374035e-38
-0.1141852513 -0.1391020417 0.3641802073 1.643374035e-38
-0.2434059232 -0.1636238694 0.1175064743 1.643374035e-38
-0.09022452682 -0.1360328794 0.3509323597 1.643374035e-38
-0.1371271759 -0.405782342 -0.1070542708 1.643374035e-38
-0.195851326 -0.4074107409 0.2160731405 1.661705121e-38
-0.162870273 -0.3898973763 0.1656769216 1.661705121e-38
-0.01460753009 -0.02766830102 -0.2031867653 1.661705121e-38
-0.1677769721 -0.3856370449 0.06534002721 1.661705121e-38
-0.1965353936 -0.4059177041 0.2046938986 1.661705121e-38
0.03413639963 -0.3855724335 -0.122210823 1.661705121e-38
-0.2011041939 -0.3742016852 0.2326214463 1.661705121e-38
0.4039499164 -0.6930616498 -0.2965664566 1.661705121e-38
-0.0269299075 -0.0284563601 -0.2022524625 1.680036207e-38
0.3379184306 -0.06066475436 -0.2168894261 1.680036207e-38
0.1572218239 -0.01514240727 -0.2276462466 1.680036207e-38
-0.1008642241 -0.03318472579 -0.1966466457 1.680036207e-38
-0.2110282481 -0.4084176123 0.1508082747 1.680036207e-38
0.4162722826 -0.6922736168 -0.2975007594 1.680036207e-38
-0.1903047115 -0.0188540332 -0.205638364 1.680036207e-38
0.02042575367 -0.01463405788 -0.2194452137 1.680036207e-38
-0.2130804211 -0.4039384723 0.1166705191 1.698367293e-38
-0.2227472067 -0.1468985677 0.06804457307 1.698367293e-38
-0.2641207278 -0.01739145815 -0.1793503612 1.698367293e-38
-0.06389706582 -0.03082054481 -0.1994495541 1.698367293e-38
0.387773782 -0.06519649178 -0.2299295813 1.698367293e-38
-0.07621943951 -0.03160860389 -0.1985152513 1.698367293e-38
-0.1162088886 -0.5262855291 0.1719623357 1.698367293e-38
0.1066824421 -0.009117629379 -0.2259853333 1.698367293e-38
-0.08323075622 -0.07847084105 0.3923601508 1.716698239e-38
-0.09555312246 -0.07925888896 0.3932944536 1.716698239e-38
-0.214265421 -0.02192319185 -0.1923905313 1.716698239e-38
-0.2460238785 -0.1514607817 0.09267170727 1.716698239e-38
-0.198249653 -0.3739828765 0.2988206148 1.716698239e-38
-0.2257293165 -0.180971086 0.1869239509 1.716698239e-38
0.1961229295 -0.02344828099 -0.216993615 1.716698239e-38
-0.1887621582 -0.1786068976 0.1841210425 1.716698239e-38
0.3545185328 -0.3650828302 -0.1465027183 1.735029324e-38
-0.1038865224 -0.5254974365 0.1710280329 1.735029324e-38
-0.1694716066 -0.1588955224 0.1119006574 1.735029324e-38
0.1695442051 -0.01435434818 -0.2285805494 1.735029324e-38
-0.1821607947 -0.4096087515 0.2378973067 1.735029324e-38
-0.2104248405 -0.1461105049 0.06711027026 1.735029324e-38
-0.1124823838 -0.4042062163 -0.1089228764 1.735029324e-38
-0.2064387649 -0.1612596959 0.1147035658 1.735029324e-38
-0.04118618742 -0.01857436076 -0.2147736996 1.75336041e-38
0.3761354685 -0.06747759134 -0.2176160365 1.75336041e-38
-0.1571491957 -0.1581074595 0.1109663546 1.75336041e-38
-0.05350856483 -0.01936242357 -0.2138393968 1.75336041e-38
-0.1026361287 -0.7223861217 -0.2810185254 1.75336041e-38
0.119004868 -0.008329566568 -0.226919651 1.75336041e-38
-0.04093499482 -0.1328806579 0.3471951485 1.75336041e-38
-0.07815334201 -0.02093854547 -0.2119707912 1.75336041e-38
-0.0948690623 -0.08075192571 0.4046736956 1.771655483e-38
-0.2192604691 -0.2055914998 0.3048877716 1.771655483e-38
-0.1698384285 -0.4088206887 0.2369630039 1.771655483e-38
-0.08254669607 -0.0799638778 0.4037393928 1.771655483e-38
-0.2220631391 -0.1483916193 0.07942385972 1.771655483e-38
-0.179533571 -0.3941090703 0.0569713749 1.771655483e-38
0.3308236003 -0.3924588561 -0.165441826 1.771655483e-38
-0.1155248284 -0.5277785659 0.1833415776 1.771655483e-38
-0.1514036357 -0.02715995163 -0.1949857324 1.789986569e-38
-0.2082919925 -0.4143897593 0.1963252723 1.789986569e-38
-0.1382254809 -0.3883212507 0.163808316 1.789986569e-38
-0.2406696677 -0.1695960462 0.1630234867 1.789986569e-38
-0.20075804 -0.4031504095 0.1157362163 1.789986569e-38
-0.1604512036 -0.1444513202 0.07475234568 1.789986569e-38
0.1941890121 -0.01277822256 -0.230449155 1.789986569e-38
0.04575456679 -0.01455097646 -0.2099345922 1.789986569e-38
0.1560753435 -0.1304274797 0.01621590927 1.808317654e-38
0.374201566 -0.05680753291 -0.2310715765 1.808317654e-38
0.2811499536 -0.3774952292 -0.1501998305 1.808317654e-38
0.3243461847 -0.05227579549 -0.2180314362 1.808317654e-38
-0.08783759922 -0.4026300907 -0.110791482 1.808317654e-38
-0.2145668268 -0.4071433544 0.07322984934 1.808317654e-38
-0.1147510484 -0.1314180791 0.3734831214 1.808317654e-38
-0.06489568204 -0.1359497905 0.360442996 1.808317654e-38
-0.1974183917 -0.1468155086 0.0775552541 1.826612727e-38
-0.09498734772 -0.08694288135 0.3839915097 1.826612727e-38
-0.0525733009 -0.1351617575 0.3595086932 1.826612727e-38
-0.2038769275 -0.01046507061 -0.2067803741 1.826612727e-38
-0.1068622395 -0.1016058624 0.3549406826 1.826612727e-38
-0.2276632339 -0.1703010201 0.173468411 1.826612727e-38
-0.2093385309 -0.3949239254 -0.01664340496 1.826612727e-38
-0.1279552579 -0.3830540478 0.1287363023 1.826612727e-38
-0.1410151273 -0.01570178568 -0.2093755901 1.844943813e-38
0.1683977842 -0.1296394169 0.01528160274 1.844943813e-38
-0.2393015474 -0.1725821197 0.1857819557 1.844943813e-38
-0.2258645147 -0.1782791913 0.232459709 1.844943813e-38
0.04382065684 -0.003880873322 -0.2233901322 1.844943813e-38
-0.2536488771 -0.06604390591 -0.08001115918 1.844943813e-38
0.01917590387 -0.005456995219 -0.2215215266 1.844943813e-38
0.2706230581 -0.02640389651 -0.2319023758 1.844943813e-38
-0.1028732434 -0.5470563769 0.1317399591 1.863274899e-38
0.04702462256 -0.392468363 -0.1324480623 1.863274899e-38
0.09311021864 -0.0007286295295 -0.2271273434 1.863274899e-38
0.2072988153 -0.1379452944 0.02593423426 1.863274899e-38
-0.2269791663 -0.1717940569 0.1848476529 1.863274899e-38
-0.1932333708 -0.4195738435 0.2409079224 1.863274899e-38
-0.1837278605 -0.1490135193 0.09937942028 1.863274899e-38
-0.2653705776 -0.008214436471 -0.1814266592 1.863274899e-38
0.4169563353 -0.6937666535 -0.2861215472 1.881569971e-38
-0.2083726525 -0.1505896449 0.1012480259 1.881569971e-38
-0.1960502714 -0.1498015821 0.1003137231 1.881569971e-38
-0.232333377 -0.1536587924 0.1144958735 1.881569971e-38
-0.06319282204 -0.4010539651 -0.1126600876 1.881569971e-38
-0.09430328757 -0.08843591809 0.3953707516 1.881569971e-38
-0.082783252 -0.09234577417 0.3623749912 1.881569971e-38
0.155971989 -0.005965385586 -0.2297225595 1.881569971e-38
-0.1939174384 -0.4180808067 0.2295286804 1.899901057e-38
-0.07746928185 -0.02243158221 -0.2005915493 1.899901057e-38
-0.2200109661 -0.1528707445 0.1135615706 1.899901057e-38
-0.1870675087 -0.4053484201 0.1375604421 1.899901057e-38
-0.1952855587 -0.4150947332 0.2067702115 1.899901057e-38
-0.06421161443 -0.137442857 0.371822238 1.899901057e-38
-0.2244963944 -0.1812652647 0.2552182078 1.899901057e-38
0.01005743258 -0.3948325515 -0.129645139 1.899901057e-38
0.1807201654 -0.1288513541 0.01434729993 1.91819627e-38
-0.1700373739 -0.15121153 0.1212035865 1.91819627e-38
-0.07799135149 -0.7208099365 -0.282887131 1.91819627e-38
-0.2193268985 -0.1543637812 0.1249408126 1.91819627e-38
-0.2118305713 -0.4131155014 0.1187468171 1.91819627e-38
0.2046808451 -0.1257822067 0.001099456102 1.91819627e-38
0.3606292605 -0.04841857404 -0.2322135717 1.91819627e-38
0.1963445544 -0.1417194307 0.04962700978 1.91819627e-38
-0.1992885619 -0.3910627067 0.2253948301 1.936527215e-38
-0.04243603721 -0.009397298098 -0.2168500125 1.936527215e-38
0.3107739687 -0.04388681427 -0.2191734314 1.936527215e-38
-0.1570308954 -0.1519165188 0.1316485703 1.936527215e-38
-0.1809916198 -0.1549856812 0.1448964179 1.936527215e-38
-0.2302811891 -0.1581379175 0.148633644 1.936527215e-38
0.233090058 -0.02108410001 -0.2197965235 1.936527215e-38
-0.2056364119 -0.1565617919 0.1467650235 1.936527215e-38
-0.2601346374 -0.032540638 -0.1317570806 1.954822428e-38
0.07235343009 -0.392385304 -0.122937426 1.954822428e-38
0.2293842882 -0.6996153593 -0.3176239431 1.954822428e-38
-0.2031928599 -0.01195811108 -0.1954011321 1.954822428e-38
-0.167985186 -0.1556906551 0.155341357 1.954822428e-38
0.0321823433 -0.006161969155 -0.2110766023 1.954822428e-38
-0.2646865249 -0.009707473218 -0.1700474173 1.954822428e-38
-0.1796234995 -0.1579717547 0.1676549017 1.954822428e-38
-0.2086544782 -0.3964169621 -0.005264141131 1.973153514e-38
0.2071954608 -0.01348320022 -0.2200042307 1.973153514e-38
-0.1403310746 -0.01719482616 -0.1979963481 1.973153514e-38
0.3676667809 -0.6969189048 -0.2823843062 1.973153514e-38
-0.2620685697 -0.02187057957 -0.1452126205 1.973153514e-38
0.2093510032 -0.1424244344 0.06007199362 1.973153514e-38
0.2170619071 -0.7004034519 -0.3166896403 1.973153514e-38
0.2300097048 -0.1256991178 0.01061008498 1.973153514e-38
0.3470570445 -0.04002959281 -0.2333555818 1.991448586e-38
0.2574550807 -0.4048712254 -0.1691389233 1.991448586e-38
-0.2056740224 -0.4265528619 0.2211600542 1.991448586e-38
0.2216733843 -0.1416363716 0.05913769081 1.991448586e-38
-0.09067202359 -0.1221579611 0.3809174597 1.991448586e-38
0.1911086291 -0.1173932403 -4.254281521e-05 1.991448586e-38
0.1689784378 -0.006670363247 -0.2192776203 1.991448586e-38
-0.2548987269 -0.05686688423 -0.08208746463 1.991448586e-38
-0.2090093046 -0.4149897993 -0.06731071323 2.009743799e-38
-0.1885539144 -0.4085533023 0.09411974251 2.009743799e-38
0.1184390858 -0.0006455406547 -0.217616722 2.009743799e-38
0.3553444147 -0.6977069378 -0.2814500034 2.009743799e-38
0.3613133132 -0.04991161451 -0.2208343446 2.009743799e-38
0.3067445755 -0.4017189741 -0.1728761345 2.009743799e-38
-0.2594505847 -0.03403367847 -0.1203778163 2.009743799e-38
0.2052615583 -0.002813141793 -0.2334597707 2.009743799e-38
-0.2210760862 -0.1887304634 0.3121144176 2.028074885e-38
-0.09123781323 -0.1144739687 0.3902204335 2.028074885e-38
-0.01706346869 -0.7153766155 -0.2989378572 2.028074885e-38
-0.2311004549 -0.1539529562 0.1827901006 2.028074885e-38
0.4038080275 -0.3619306087 -0.1502399296 2.028074885e-38
-0.1295599341 -0.3924498856 0.06461341679 2.028074885e-38
0.1594956517 -0.1378926933 0.07311214507 2.028074885e-38
-0.194381848 -0.3953230381 0.3257316947 2.028074885e-38
-0.191983521 -0.4287508726 0.2429842204 2.046369957e-38
-0.1603705883 -0.4082514346 0.1698295474 2.046369957e-38
-0.195184201 -0.4000209272 0.2936702967 2.046369957e-38
0.3095241487 -0.03470979631 -0.2212497443 2.046369957e-38
-0.1762315482 -0.4077652395 0.09318543971 2.046369957e-38
0.1568776816 -0.1257295907 0.04827731475 2.046369957e-38
0.3306995928 -0.699283123 -0.2795813978 2.046369957e-38
-0.09055375308 -0.1159670055 0.4015996754 2.046369957e-38
-0.1858176589 -0.4145254493 0.1396367401 2.06466517e-38
-0.2297323346 -0.1569390297 0.2055485696 2.06466517e-38
-0.1536389291 -0.4017099738 0.05717906728 2.06466517e-38
-0.1973546594 -0.4017327726 0.23885037 2.06466517e-38
0.267719537 -0.7002372742 -0.2976683974 2.06466517e-38
0.1430838406 0.0009305775166 -0.2194853276 2.06466517e-38
0.1936232448 -0.005094237626 -0.2211462259 2.06466517e-38
0.3806732297 -0.6976238489 -0.2719393671 2.06466517e-38
0.1542597264 -0.1135664657 0.02344252914 2.082996116e-38
0.1601797193 -0.13938573 0.08449137211 2.082996116e-38
0.1841404736 -0.1363165677 0.07124352455 2.082996116e-38
-0.04102418572 -0.7184457779 -0.2856900394 2.082996116e-38
-0.2085285485 -0.4267716706 0.1549608856 2.082996116e-38
-0.01835706644 -0.0001371949911 -0.2094156891 2.082996116e-38
0.1288275421 0.01081258059 -0.2320065647 2.082996116e-38
0.2299063057 -0.001237019897 -0.2353283763 2.082996116e-38
0.2114031762 -0.1469035447 0.09420970082 2.101291328e-38
-0.2489787191 -0.08268612623 -0.02103862539 2.101291328e-38
0.3680907488 -0.3734718263 -0.1453607082 2.101291328e-38
-0.2561485469 -0.04768986255 -0.08416377008 2.101291328e-38
-0.1632250994 -0.4084702134 0.1036303788 2.101291328e-38
-0.1289941519 -0.4001338482 0.05531046167 2.101291328e-38
-0.2316662371 -0.1462689787 0.1920930296 2.101291328e-38
-0.07754731923 -0.1166720092 0.4120446146 2.101291328e-38
-0.1368670315 -0.7307224274 -0.2326986045 2.119586541e-38
0.1582458168 -0.1287156641 0.07103583217 2.119586541e-38
0.2177459598 -0.7018964887 -0.3053103983 2.119586541e-38
0.1677723527 -0.7035557032 -0.3129524291 2.119586541e-38
0.2681233585 -0.008049856871 -0.2360549867 2.119586541e-38
-0.1522708088 -0.4046960771 0.07993756235 2.119586541e-38
-0.2037401199 -0.4372229278 0.2346155941 2.119586541e-38
-0.2430587262 -0.1085053831 0.04001019523 2.119586541e-38
-0.2044241726 -0.4357298911 0.2232363522 2.137881613e-38
0.2827838957 -0.4047881365 -0.159628287 2.137881613e-38
0.4043738246 -0.3696146011 -0.1595428586 2.137881613e-38
-0.1962061673 -0.4259836078 0.1540265828 2.137881613e-38
0.2211075872 -0.1339523792 0.06844061613 2.137881613e-38
-0.2120671421 -0.4254974127 0.07738246024 2.137881613e-38
-0.2580824494 -0.03701975942 -0.09761934727 2.137881613e-38
-0.2142699361 -0.1823519766 -0.2743397653 2.137881613e-38
0.3804131448 -0.3726837635 -0.146295011 2.156176826e-38
-0.2410065383 -0.1129845083 0.07414795458 2.156176826e-38
-0.2403224856 -0.114477545 0.08552718908 2.156176826e-38
0.01990368776 -0.7130124569 -0.3017407954 2.156176826e-38
-0.1756657511 -0.4154492319 0.08388248086 2.156176826e-38
-0.2004288137 -0.4232162833 0.06506890059 2.156176826e-38
0.3813572824 -0.6991169453 -0.2605601251 2.156176826e-38
-0.1399484426 -0.4039080143 0.07900325954 2.156176826e-38
-0.1551531702 0.0003711506724 -0.2012146562 2.174471899e-38
-0.1003735512 -0.5654104352 0.1358925551 2.174471899e-38
0.2804457247 -0.007261797786 -0.2369892895 2.174471899e-38
-0.1478213221 -0.7344965935 -0.2090058327 2.174471899e-38
0.2163340747 0.007151983678 -0.2364703864 2.174471899e-38
0.2275100201 -0.1073450595 0.006457470357 2.174471899e-38
-0.1903092265 -0.1792828143 -0.2875875831 2.174471899e-38
0.2545511425 0.0003391057253 -0.2371969819 2.174471899e-38
-0.1245446652 -0.7299343348 -0.2336329073 2.192767111e-38
0.3963465989 -0.03687734902 -0.237092793 2.192767111e-38
-0.1303715855 -0.4248105586 0.2383127064 2.192767111e-38
-0.08554665744 -0.4663485289 0.3243171573 2.192767111e-38
-0.2275618762 -0.1552272141 0.260368526 2.192767111e-38
-0.2322320193 -0.1385850012 0.2013959587 2.192767111e-38
-0.05657403916 0.006675645709 -0.2086890787 2.192767111e-38
0.1807787716 -0.7042607069 -0.3025074899 2.192767111e-38
0.1036169752 0.01692043245 -0.2208350301 2.211062324e-38
-0.1990606934 -0.4262023866 0.08782739937 2.211062324e-38
-0.07322429121 -0.4655604959 0.3233828545 2.211062324e-38
0.3567125499 -0.7006930113 -0.2586915195 2.211062324e-38
0.3067389131 -0.7023522258 -0.2663335204 2.211062324e-38
-0.1454301924 -0.4196264744 0.1937300563 2.211062324e-38
0.2814100981 -0.7024353147 -0.2758441865 2.211062324e-38
-0.1467983127 -0.4166404009 0.1709715426 2.211062324e-38
-0.2245401442 -0.1876191497 -0.2392677218 2.229357396e-38
-0.1825156361 -0.4281816185 0.1758507639 2.229357396e-38
-0.2301798314 -0.1430641115 0.2355337292 2.229357396e-38
-0.1331078261 -0.4188384116 0.1927957535 2.229357396e-38
0.1684564054 -0.7050487399 -0.3015731871 2.229357396e-38
-0.126941964 -0.4046129882 0.08944822848 2.229357396e-38
-0.2402042001 -0.1082866192 0.1062094122 2.229357396e-38
-0.18742235 -0.4239212871 0.07551385462 2.229357396e-38
-0.256714344 -0.04000584036 -0.07486084849 2.247652609e-38
-0.1757840365 -0.4216401577 0.06320029497 2.247652609e-38
-0.1940526217 -0.415388912 0.2750644088 2.247652609e-38
-0.206594646 -0.4374417365 0.1684164405 2.247652609e-38
-0.151020959 -0.413873136 0.08201387525 2.247652609e-38
-0.2122177482 -0.1868310869 -0.2402020246 2.247652609e-38
-0.07379007339 -0.4578765035 0.3326857984 2.247652609e-38
-0.2005794048 -0.1845500022 -0.2525155544 2.247652609e-38
0.2061076015 -0.704177618 -0.2929968834 2.265947681e-38
0.3070244491 -0.01635573059 -0.2254023552 2.265947681e-38
-0.06021781638 -0.4662654996 0.3338277936 2.265947681e-38
0.05687084794 -0.7106482387 -0.3045437038 2.265947681e-38
-0.1926845014 -0.4183749855 0.2978228927 2.265947681e-38
-0.2462424636 -0.08865828812 0.02447834425 2.265947681e-38
-0.124889791 -0.4090920985 0.1235859245 2.265947681e-38
0.1061604023 -0.707496047 -0.308280915 2.265947681e-38
-0.1242057234 -0.4105851352 0.1349652261 2.284242894e-38
0.1405841559 0.01928462088 -0.2236379385 2.284242894e-38
0.3050905466 -0.005685672164 -0.2388578951 2.284242894e-38
-0.2069571167 -0.4194689393 -0.03317295015 2.284242894e-38
0.1438115835 -0.7066248655 -0.2997045815 2.284242894e-38
0.2412005216 -0.1095430702 0.02828164026 2.284242894e-38
-0.1649803817 -0.1791997254 -0.2780769765 2.284242894e-38
-0.1913163811 -0.4213610888 0.3205813766 2.284242894e-38
-0.1410196424 -0.176130563 -0.2913248241 2.302537966e-38
-0.04596153647 -0.4761474729 0.3463490307 2.302537966e-38
-0.05771812424 -0.4846195579 0.3379804194 2.302537966e-38
-0.1578708887 -0.4266054928 0.1739821583 2.302537966e-38
-0.1766187251 -0.1814808249 -0.2657634318 2.302537966e-38
-0.1414441019 -0.4347756803 0.2413233221 2.302537966e-38
-0.2115336955 -0.1883241385 -0.2288227677 2.302537966e-38
-0.09309823811 -0.1699922383 -0.317820549 2.302537966e-38
-0.2274435759 -0.1490362883 0.2810507417 2.320833179e-38
0.3193468153 -0.01556767151 -0.226336658 2.320833179e-38
-0.04539574683 -0.4838314652 0.3370461166 2.320833179e-38
0.03291012719 -0.713717401 -0.2912958562 2.320833179e-38
-0.1526580155 -0.1784116626 -0.2790112793 2.320833179e-38
-0.241454035 -0.09910957515 0.1041330993 2.320833179e-38
-0.1992112696 -0.1875360757 -0.2297570705 2.320833179e-38
0.2274066359 0.01711706072 -0.2394809872 2.320833179e-38
0.1314892173 -0.7074129581 -0.2987702787 2.339092378e-38
0.291518271 0.002703286707 -0.2399998903 2.339092378e-38
-0.01217812393 -0.4539362192 0.3280142844 2.339092378e-38
-0.1833179742 -0.4328795075 0.143789351 2.339092378e-38
-0.1115382314 -0.7306393385 -0.223187983 2.339092378e-38
0.0001442804933 -0.4531481266 0.3270799816 2.339092378e-38
-0.1894838363 -0.4471049309 0.2471368313 2.339092378e-38
0.2451866269 -0.1246922761 0.07587493956 2.339092378e-38
0.2159899324 -0.1034352183 0.03945318237 2.348204041e-38
-0.02381644025 -0.456217289 0.3403278291 2.348204041e-38
-0.1455484629 -0.4258174598 0.1730478555 2.348204041e-38
-0.1388168782 -0.4192759693 0.06039738283 2.348204041e-38
-0.1752505898 -0.1844669133 -0.243004933 2.348204041e-38
-0.09241417795 -0.171485275 -0.3064413071 2.348204041e-38
-0.1280132234 -0.1768355519 -0.280879885 2.348204041e-38
-0.06361678243 -0.7245010138 -0.2496836931 2.348204041e-38
-0.1352782845 -0.420550257 0.1379758418 2.348132155e-38
0.1568180919 -0.7073298693 -0.2892596722 2.348132155e-38
-0.2461241931 -0.08246734738 0.04516056553 2.348132155e-38
0.3957808316 -0.02919336781 -0.2277898639 2.348132155e-38
-0.06845346093 -0.1684161127 -0.3196891546 2.348132155e-38
0.0008283406496 -0.4546411633 0.3384591937 2.348132155e-38
-0.1457691342 -0.7389756441 -0.174868077 2.348132155e-38
0.2779460251 0.01109229028 -0.2411419004 2.348132155e-38
0.2283123583 -0.1026471555 0.03851887211 2.348060128e-38
-0.2440720201 -0.08694646508 0.07929827273 2.348060128e-38
-0.1243239939 -0.4167761207 0.1142830104 2.348060128e-38
-0.1396515369 -0.1791166365 -0.26856637 2.348060128e-38
-0.2087651044 -0.4391535521 0.113596499 2.348060128e-38
0.3698862493 -0.02159244567 -0.2279975712 2.348060128e-38
-0.1156908348 -0.176047489 -0.2818141878 2.348060128e-38
0.2827782333 -0.7054213881 -0.2530857027 2.348060128e-38
-0.1738824844 -0.1874530017 -0.2202464342 2.347952368e-38
-0.1258103997 -0.419980973 0.07084234059 2.347952368e-38
-0.0150112845 -0.7198557258 -0.2648001313 2.347952368e-38
-0.1229558736 -0.4197621942 0.137041539 2.347952368e-38
-0.1506058276 -0.1828908026 -0.2448735535 2.347952368e-38
0.001512400806 -0.4561342001 0.3498384356 2.347952368e-38
-0.2073969841 -0.4421396255 0.136354968 2.347952368e-38
-0.1978431642 -0.1905221641 -0.2069986016 2.347952368e-38
0.3334358633 -0.70525527 -0.2340644002 2.347880341e-38
-0.07525509596 -0.7267821431 -0.2373701334 2.347880341e-38
-0.168943435 -0.4365705848 0.1769927591 2.347880341e-38
0.182146892 -0.7072467804 -0.279749006 2.347880341e-38
0.03824300319 -0.4661519527 0.3056711853 2.347880341e-38
0.2021960914 0.02322492003 -0.2283094525 2.347880341e-38
-0.2480581105 -0.0717972815 0.0317049697 2.347880341e-38
0.01553212851 -0.4783981442 0.3209953606 2.347880341e-38
0.2643738389 0.01948124915 -0.2422839105 2.347808455e-38
-0.2399676442 -0.09590470791 0.1475737393 2.347808455e-38
0.003893811256 -0.480679214 0.3333089054 2.347808455e-38
-0.2053447962 -0.4466187656 0.1704927385 2.347808455e-38
-0.08689345419 -0.7290632725 -0.2250565886 2.347808455e-38
-0.2466899902 -0.0747833699 0.05446349457 2.347808455e-38
-0.2453218699 -0.07776944339 0.07722196728 2.347808455e-38
0.2786300778 0.009599246085 -0.2297626734 2.347808455e-38
-0.2392835766 -0.09739775956 0.1589530259 2.347700555e-38
0.03779549897 -0.4522770047 0.3356562853 2.347700555e-38
-0.05544702709 -0.1691211015 -0.3092442155 2.347700555e-38
-0.01916389912 -0.1652638763 -0.3234263659 2.347700555e-38
-0.2012404352 -0.4555769861 0.238768205 2.347700555e-38
-0.2432696819 -0.08224856853 0.1113597304 2.347700555e-38
-0.1485536397 -0.1873699129 -0.2107358128 2.347700555e-38
-0.2204357684 -0.1965774 -0.1709922254 2.347700555e-38
0.03949284926 -0.4753289819 0.3077475131 2.347628668e-38
0.0145188421 -0.4568392038 0.3602834344 2.347628668e-38
-0.173850134 -0.4323102534 0.07665586472 2.347628668e-38
-0.2346134186 -0.1140399724 0.2179255635 2.347628668e-38
-0.146350801 -0.4305153191 0.1409864426 2.347628668e-38
-0.1725143492 -0.1904390752 -0.1974879503 2.347628668e-38
0.302590847 0.0126684159 -0.2430105209 2.347628668e-38
-0.04312461987 -0.1683330387 -0.3101785183 2.347628668e-38
0.005480853841 -0.1636877656 -0.3252949715 2.347520768e-38
0.3427417278 -0.004814527929 -0.2302815616 2.347520768e-38
-0.00706047006 -0.4844533801 0.3570016623 2.347520768e-38
0.3925970793 -0.009346265346 -0.2433217168 2.347520768e-38
-0.2285751551 -0.1336683035 0.29965657 2.347520768e-38
-0.1942891777 -0.4277708232 0.2337000519 2.347520768e-38
0.2650578916 0.01798820496 -0.2309046686 2.347520768e-38
0.01520290226 -0.4583322406 0.3716626763 2.347520768e-38
-0.2332452983 -0.1170260534 0.2406840324 2.347448882e-38
0.01633446664 -0.4737002254 0.3530567586 2.347448882e-38
0.1875956506 -0.07748025656 0.03509286419 2.347448882e-38
-0.1896021068 -0.4532958865 0.2264546752 2.347448882e-38
0.004130369052 -0.4682973027 0.3746732771 2.347448882e-38
-0.1718302965 -0.191932112 -0.1861087084 2.347448882e-38
-0.2452035695 -0.07157851011 0.09790419042 2.347448882e-38
-0.236547336 -0.1033699065 0.2044699788 2.347448882e-38
-0.1252446175 -0.4276649356 0.06153937802 2.347340982e-38
0.03916362301 -0.4552630782 0.3584148288 2.347340982e-38
-0.2438354492 -0.07456459105 0.1206626594 2.347340982e-38
0.1705085933 -0.7095278502 -0.2674354613 2.347340982e-38
-0.002004848793 -0.7205607295 -0.2543551922 2.347340982e-38
-0.121124357 -0.7373995781 -0.1767366827 2.347340982e-38
-0.2505577803 -0.05344320089 0.02755235136 2.347340982e-38
-0.2183835804 -0.2010565251 -0.1368544996 2.347340982e-38
0.05249929056 -0.476033926 0.3181924224 2.347269095e-38
-0.1094860435 -0.7351184487 -0.1890502423 2.347269095e-38
0.02922265604 -0.4805961251 0.3428195119 2.347269095e-38
-0.1006321833 -0.1812315881 -0.237231493 2.347269095e-38
-0.2067452669 -0.1987754107 -0.1491680592 2.347269095e-38
-0.1759115756 -0.4554938972 0.2482788414 2.347269095e-38
-0.1827845573 -0.1957062483 -0.1624159068 2.347269095e-38
0.3531301916 0.006643593311 -0.2446714044 2.347269095e-38
0.04053174332 -0.4582491517 0.3811732829 2.347161195e-38
-0.07735552639 -0.176669389 -0.2618585825 2.347161195e-38
-0.2305090576 -0.1229982227 0.2862010598 2.347161195e-38
-0.1965609938 -0.4445564449 0.09198001027 2.347161195e-38
0.09872338176 -0.4468436837 0.3196055293 2.347161195e-38
0.08696678281 -0.4553157091 0.311236918 2.347161195e-38
-0.2176995277 -0.2025495619 -0.1254752576 2.347161195e-38
0.08708505332 -0.4491247535 0.3319190741 2.347161195e-38
0.111045748 -0.4460555911 0.3186712265 2.347089308e-38
0.08356778324 -0.7135512233 -0.2722745538 2.347089308e-38
0.2971527874 -0.7091124058 -0.2198822647 2.347089308e-38
-0.1958769411 -0.4460494816 0.103359282 2.347089308e-38
0.07124540955 -0.7143392563 -0.271340251 2.347089308e-38
0.341491878 0.004362486303 -0.2323578745 2.347089308e-38
0.2638080418 0.02716522664 -0.2329809666 2.347089308e-38
0.06586055458 -0.4581660628 0.3906839192 2.347089308e-38
0.1356905699 -0.4444794655 0.3168026209 2.346981408e-38
-0.2524916828 -0.04277314246 0.01409681328 2.346981408e-38
-0.1581397653 -0.1941301376 -0.1642845124 2.346981408e-38
-0.2557937205 -0.02911699936 -0.02211722545 2.346981408e-38
-0.217015475 -0.2040425986 -0.1140960008 2.346981408e-38
0.3654526472 0.007431656122 -0.2456057221 2.346981408e-38
-0.07667146623 -0.1781624258 -0.2504793704 2.346981408e-38
0.1719736308 -0.4406222701 0.3026204705 2.346981408e-38
0.02263993211 -0.7189846039 -0.2562238276 2.346909522e-38
-0.04992629215 -0.7266990542 -0.2278594971 2.346909522e-38
-0.2371131182 -0.09568593651 0.2137729526 2.346909522e-38
0.2464950979 -0.7092785835 -0.2389035523 2.346909522e-38
0.1842960119 -0.4398341775 0.3016861677 2.346909522e-38
0.1603353173 -0.4429033399 0.3149340153 2.346909522e-38
-0.240415141 -0.08202978969 0.1775588989 2.346909522e-38
0.1486970037 -0.4451844692 0.32724756 2.346909522e-38
-0.05271077901 -0.1750932634 -0.2637271881 2.346801622e-38
0.1239339113 -0.4529514909 0.3084340096 2.346801622e-38
0.1047440469 -0.1588762999 -0.321390152 2.346801622e-38
0.06550572813 -0.4767389297 0.3286373615 2.346801622e-38
-0.2364290655 -0.09717898071 0.2251521945 2.346801622e-38
-0.2324429601 -0.1123281568 0.2727454901 2.346801622e-38
-0.2040949464 -0.4557957947 0.1725690514 2.346801622e-38
-0.2490714043 -0.05023834109 0.07099304348 2.346801622e-38
0.1028277427 -0.4558019042 0.3878810108 2.346693862e-38
0.2595015168 -0.7099835873 -0.2284585834 2.346693862e-38
-0.2430331111 -0.06986664981 0.1527241021 2.346693862e-38
-0.001320786774 -0.7220537663 -0.2429759502 2.346693862e-38
-0.109534286 -0.1894848496 -0.1794009507 2.346693862e-38
0.03070905432 -0.477391243 0.3862602115 2.346693862e-38
0.1151501238 -0.4550138116 0.386946708 2.346693862e-38
-0.2470192164 -0.05471746624 0.1051308066 2.346693862e-38
0.2341727167 -0.7100666761 -0.2379692495 2.346621835e-38
-0.1609619558 -0.4392061532 0.06641860306 2.346621835e-38
0.1158341765 -0.4565068483 0.3983259499 2.346621835e-38
0.1993522495 -0.06900821626 0.04346155003 2.346621835e-38
0.1973025054 -0.4405391812 0.3121311069 2.346621835e-38
0.04234737158 -0.4751101732 0.3739466667 2.346621835e-38
-0.01642765291 -0.1712360382 -0.2779093981 2.346621835e-38
-0.1684099734 -0.1993973255 -0.1292124689 2.346621835e-38
-0.2463351488 -0.05621050671 0.1165100411 2.346514075e-38
-0.1909871548 -0.4414269626 0.2699140906 2.346514075e-38
-0.1903030872 -0.4429199994 0.2812933326 2.346514075e-38
0.1617034376 -0.4458894134 0.3376924992 2.346514075e-38
0.06562399864 -0.4705479741 0.3493195474 2.346514075e-38
0.05960709229 -0.7166204453 -0.259026736 2.346514075e-38
-0.1430487782 -0.4441714883 0.1772004664 2.346514075e-38
0.09657427669 -0.714256227 -0.2618296444 2.346514075e-38
-0.08625762165 -0.1849226505 -0.20402807 2.346406175e-38
-0.2530574799 -0.03508915752 0.02339974418 2.346406175e-38
-0.1444168985 -0.4411854148 0.1544419825 2.346406175e-38
-0.1437328458 -0.4426784515 0.1658212245 2.346406175e-38
0.1534854323 -0.4556357265 0.4069023132 2.346406175e-38
0.08011689782 -0.4680480361 0.4032051563 2.346406175e-38
0.1417111754 -0.1565121263 -0.3241930604 2.346406175e-38
-0.1560875773 -0.1986092627 -0.1301467717 2.346406175e-38
0.1134271622 -0.470600605 0.3021416962 2.346334289e-38
-0.02528150752 -0.7251229286 -0.2297281027 2.346334289e-38
-0.1677259207 -0.2008903623 -0.117833212 2.346334289e-38
0.314347446 0.0211404562 -0.2346418798 2.346334289e-38
0.1012230664 -0.4651976824 0.3237581551 2.346334289e-38
0.06630806625 -0.4720410109 0.3606988192 2.346334289e-38
-0.08557356149 -0.1864156872 -0.192648828 2.346334289e-38
-0.07461928576 -0.182641536 -0.2163416445 2.346334289e-38
0.1054281071 -0.1603693366 -0.31001091 2.346226389e-38
0.1658077985 -0.4548476934 0.4059680104 2.346226389e-38
0.1020254046 -0.4604997635 0.3558196127 2.346226389e-38
-0.1869841367 -0.4654589891 0.2512894571 2.346226389e-38
-0.1897203773 -0.4594868422 0.2057725042 2.346226389e-38
0.09038709104 -0.4627808928 0.3681331575 2.346226389e-38
0.1540336013 -0.1557240635 -0.3251273632 2.346226389e-38
-0.1554035246 -0.2001022995 -0.1187675148 2.346226389e-38
0.1747098714 -0.4465944171 0.3481374681 2.346118629e-38
-0.09652781487 -0.1901898235 -0.1689560264 2.346118629e-38
-0.1320945323 -0.440397352 0.1535076797 2.346118629e-38
-0.05065859109 -0.1795723885 -0.2295894772 2.346118629e-38
-0.07393521816 -0.1841345876 -0.2049623728 2.346118629e-38
-0.08488950133 -0.1879087389 -0.1812695712 2.346118629e-38
-0.03902025148 -0.1772912741 -0.2419030219 2.346118629e-38
0.1781301796 -0.4540596008 0.4050337076 2.346118629e-38
0.137506187 -0.461340487 0.3095760047 2.346010729e-38
0.1258678138 -0.4636215568 0.3218895495 2.346010729e-38
0.2601855993 -0.711476624 -0.2170793414 2.346010729e-38
0.1033935249 -0.463485837 0.3785780668 2.346010729e-38
-0.03691981733 -0.7274039984 -0.2174145579 2.346010729e-38
-0.2062654197 -0.4575076103 0.1177491099 2.346010729e-38
0.1718767136 -0.7125139236 -0.2446769625 2.346010729e-38
-0.0957955122 -0.7373164892 -0.1672260463 2.346010729e-38
-0.04997453094 -0.1810654253 -0.2182102501 2.345938842e-38
0.1498285681 -0.4605523944 0.3086417019 2.345938842e-38
0.1506309062 -0.4558545351 0.3407031 2.345938842e-38
-0.107482098 -0.1939639747 -0.1452632248 2.345938842e-38
0.0937897861 -0.1626504511 -0.2976973653 2.345938842e-38
0.1737892628 -0.457483232 0.2953938544 2.345938842e-38
-0.2330087572 -0.1046441793 0.2820484042 2.345938842e-38
0.154717654 -0.1572171003 -0.3137481213 2.345938842e-38
0.3907814324 0.007514737546 -0.2360950857 2.345830942e-38
0.200038746 -0.4465113282 0.3576481044 2.345830942e-38
0.04518428445 -0.1672957242 -0.2825809121 2.345830942e-38
0.2349536866 -0.4396679997 0.3207074404 2.345830942e-38
0.1629532874 -0.4550664425 0.3397687972 2.345830942e-38
0.1869139671 -0.4519972801 0.3265209496 2.345830942e-38
-0.2129110992 -0.2130008489 -0.0458205305 2.345830942e-38
0.2014068663 -0.4494974017 0.3804065883 2.345830942e-38
-0.2462168634 -0.05001956224 0.1371922046 2.345723183e-38
-0.06019647792 -0.7319662571 -0.1927874535 2.345723183e-38
-0.06092878431 -0.1848395616 -0.1945174336 2.345723183e-38
0.1861116439 -0.456695199 0.2944595516 2.345723183e-38
-0.1896344125 -0.2084386498 -0.07044760883 2.345723183e-38
-0.1540353894 -0.2030883729 -0.09600904584 2.345723183e-38
0.1388743073 -0.4643265605 0.3323344886 2.345723183e-38
0.3648868501 0.01511567831 -0.236302793 2.345723183e-38
0.1505126357 -0.4620454311 0.3200209439 2.345615283e-38
-0.002737155184 -0.1734340489 -0.2560851872 2.345615283e-38
0.1272359341 -0.4666076303 0.3446480036 2.345615283e-38
0.08493590355 -0.7165373564 -0.2495160699 2.345615283e-38
0.01168565173 -0.72275877 -0.2325310111 2.345615283e-38
-0.1293905973 -0.2015122473 -0.09787765145 2.345615283e-38
0.2356377393 -0.4411610365 0.3320866823 2.345615283e-38
-0.1533513367 -0.2045814097 -0.08462981135 2.345615283e-38
0.03354597092 -0.1695768237 -0.2702673376 2.345507523e-38
-0.07119897753 -0.1901067495 -0.159445405 2.345507523e-38
-0.2005887032 -0.2122127861 -0.04675483331 2.345507523e-38
0.09447384626 -0.1641434878 -0.2863181233 2.345507523e-38
0.1961684823 -0.04916108772 0.02792964131 2.345507523e-38
0.235540837 -0.7130527496 -0.2152107358 2.345507523e-38
0.01026928425 -0.1741390377 -0.2456402332 2.345507523e-38
-0.09310750663 -0.1976550221 -0.1120598018 2.345507523e-38
0.1191186011 -0.1625673771 -0.288186729 2.345399623e-38
-0.2408626527 -0.06815483421 0.2075440288 2.345399623e-38
-0.1999046504 -0.2137058228 -0.03537559509 2.345399623e-38
0.05819072574 -0.168000713 -0.2721359432 2.345399623e-38
-0.01300734654 -0.1787012368 -0.2210131586 2.345399623e-38
0.2122428417 -0.4519141912 0.3360315859 2.345399623e-38
0.203323096 -0.1525718272 -0.3288645744 2.345399623e-38
0.2370058745 -0.44414711 0.354845196 2.345399623e-38
-0.2014769912 -0.4679588974 0.1974038184 2.345291723e-38
-0.2108589113 -0.217479974 -0.01168277115 2.345291723e-38
0.1889661551 -0.4564763904 0.3606587052 2.345291723e-38
-0.1980566829 -0.4754240811 0.2543000579 2.345291723e-38
-0.07941701263 -0.1998530477 -0.09023562819 2.345291723e-38
-0.2007929236 -0.4694519341 0.208783105 2.345291723e-38
4.733540118e-05 -0.7250398397 -0.2202174664 2.345291723e-38
0.2362035364 -0.4488450289 0.3227837384 2.345291723e-38
-0.2375606298 -0.08181096613 0.2437580526 2.345219836e-38
-0.1752598882 -0.2121296972 -0.03724420816 2.345219836e-38
0.2493282706 -0.443359077 0.3539108932 2.345219836e-38
-0.09105531871 -0.2021341622 -0.07792203873 2.345219836e-38
0.2477235645 -0.4527549148 0.2897880375 2.345219836e-38
-0.1273384392 -0.2059913725 -0.06373989582 2.345219836e-38
0.04655240849 -0.1702818125 -0.2598223984 2.345219836e-38
0.1916847825 -0.1548529267 -0.3165510297 2.345219836e-38
-0.1389767826 -0.2082724869 -0.05142635107 2.345111936e-38
-0.04450203851 -0.1930097491 -0.127176255 2.345111936e-38
-0.1150160506 -0.2052033246 -0.06467419863 2.345111936e-38
-0.04381797835 -0.1945027858 -0.115797013 2.345111936e-38
0.2362249047 -0.7145457864 -0.203831479 2.345111936e-38
-0.09037125856 -0.2036271989 -0.06654280424 2.345111936e-38
0.07119716704 -0.1687057018 -0.261691004 2.345111936e-38
-0.2335745245 -0.09696019441 0.291351378 2.345111936e-38
0.1355935931 -0.7163711786 -0.2304948121 2.345004176e-38
-0.1438511163 -0.4488693774 0.1451390535 2.345004176e-38
-0.03354775906 -0.1892355978 -0.1508690417 2.345004176e-38
-0.1499310136 -0.2120466232 -0.02773357928 2.345004176e-38
0.1832803488 -0.04226517677 0.03816692904 2.345004176e-38
-0.191206798 -0.4626917243 0.1623318046 2.345004176e-38
-0.02259350568 -0.1854614615 -0.1745618582 2.345004176e-38
0.0006831530482 -0.1808992624 -0.1991889477 2.345004176e-38
-0.02190944552 -0.1869544983 -0.1631826162 2.344896276e-38
-0.1376086473 -0.2112585604 -0.02866788208 2.344896276e-38
-0.2088067234 -0.2219590843 0.02245493233 2.344896276e-38
0.02469211631 -0.7234637141 -0.2220860869 2.344896276e-38
0.3617031276 0.03496275842 -0.251834631 2.344896276e-38
-0.2361924946 -0.08479705453 0.2665165663 2.344896276e-38
0.08420360088 -0.1694106758 -0.2512460351 2.344896276e-38
0.3759593964 0.02508075535 -0.2393133938 2.344896276e-38
-0.1467056423 -0.449088186 0.07893987 2.344788516e-38
0.03696627915 -0.1770420372 -0.213371098 2.344788516e-38
0.1444474161 -0.1624842882 -0.2786760628 2.344788516e-38
0.06024290621 -0.1724798381 -0.2379982024 2.344788516e-38
-0.03486763313 -0.7318831682 -0.1832768023 2.344788516e-38
-0.009587038308 -0.1861664355 -0.164116919 2.344788516e-38
-0.1013255492 -0.2074013352 -0.042850025 2.344788516e-38
-0.0198572576 -0.1914336234 -0.1290448606 2.344788516e-38
0.2369089574 -0.7160388231 -0.1924522519 2.344680616e-38
0.2402902842 -0.1502076387 -0.3316674829 2.344680616e-38
-0.1362405419 -0.2142446339 -0.005909353495 2.344680616e-38
-0.1841619313 -0.2203829587 0.02058632672 2.344680616e-38
-0.05340410769 -0.2012630105 -0.06934571266 2.344680616e-38
0.08488766104 -0.1709037125 -0.2398668081 2.344680616e-38
-0.1478788257 -0.2165257335 0.006404183805 2.344680616e-38
-0.1933772564 -0.4644035399 0.1075118929 2.344680616e-38
-0.1761481315 -0.4678758085 0.2069144994 2.344572857e-38
-0.05814429745 -0.7364453077 -0.1586497277 2.344572857e-38
-0.1239181235 -0.2134565711 -0.006843656301 2.344572857e-38
-0.1740959585 -0.4723549187 0.2410522103 2.344572857e-38
0.01305377483 -0.7257448435 -0.2097725123 2.344572857e-38
0.06229509041 -0.1769589484 -0.2038604766 2.344572857e-38
-0.1824229658 -0.4606294036 0.08381909132 2.344572857e-38
0.1616065204 -0.7177811265 -0.209604919 2.344572857e-38
-0.1672460735 -0.4596225321 0.149083972 2.344464957e-38
-0.111595735 -0.2126685232 -0.007777959108 2.344464957e-38
-0.1711555123 -0.2210879326 0.03103126585 2.344464957e-38
0.03901846334 -0.1815211475 -0.1792333722 2.344464957e-38
0.05749739334 -0.1941704601 -0.07775444537 2.344464957e-38
0.2122641504 -0.7176149487 -0.1905836463 2.344464957e-38
-0.1707846522 -0.4583482742 0.07150551677 2.344464957e-38
-0.03418357298 -0.7333761454 -0.1718975604 2.344464957e-38
-0.01643695123 -0.1988988221 -0.07214862108 2.344357197e-38
0.03353664279 -0.1972396225 -0.06450659782 2.344357197e-38
0.006155644078 -0.1928435862 -0.1081549898 2.344357197e-38
0.1095324755 -0.1693275869 -0.2417354286 2.344357197e-38
0.0581814535 -0.1956634969 -0.06637521088 2.344357197e-38
0.1746129692 -0.7184860706 -0.1991599649 2.344357197e-38
0.05681332946 -0.1926774234 -0.08913367987 2.344357197e-38
-0.1651939005 -0.4641016722 0.1832216829 2.344357197e-38
0.09931053221 -0.720228374 -0.2163126469 2.344249297e-38
0.03080039658 -0.1912674606 -0.1100235954 2.344249297e-38
-0.01575288922 -0.2003918737 -0.06076938659 2.344249297e-38
0.08214215189 -0.1925943345 -0.07962305099 2.344249297e-38
-0.1465107203 -0.2195118219 0.02916266024 2.344249297e-38
-0.03902954981 -0.2049540728 -0.03614230454 2.344249297e-38
0.08698809147 -0.721016407 -0.2153783441 2.344249297e-38
0.01710989885 -0.1890694499 -0.131847769 2.344249297e-38
0.03011633642 -0.1897744238 -0.1214028299 2.344141397e-38
0.1937369704 -0.159332037 -0.282413274 2.344141397e-38
0.06845164299 -0.1903963089 -0.1014472693 2.344141397e-38
0.1341772079 -0.1677514613 -0.2436040342 2.344141397e-38
-0.1701005995 -0.4598413408 0.08288478851 2.344141397e-38
0.212948218 -0.7191079855 -0.1792044044 2.344141397e-38
-0.03834548593 -0.2064471245 -0.02476301789 2.344141397e-38
-0.09790524095 -0.2148665339 0.01404620707 2.344141397e-38
-0.04998379946 -0.2087282091 -0.01244948059 2.344033637e-38
0.05954957381 -0.1986495852 -0.04361673445 2.344033637e-38
0.010260012 -0.2018018216 -0.03987952322 2.344033637e-38
