# .PCD v0.7 - Point Cloud Data file format
VERSION 0.7
FIELDS x y z rgb
SIZE 4 4 4 4
TYPE F F F F
COUNT 1 1 1 1
WIDTH 834
HEIGHT 1
VIEWPOINT 0 0 0 1 0 0 0
POINTS 834
DATA ascii
0.4094015956 -0.1639944315 -0.0198719278 8.560068489e-39
0.4280309677 -0.3078407943 -0.009409528226 8.560068489e-39
0.4306489229 -0.3200039268 0.01542527415 8.560068489e-39
-0.3826472759 -0.4273415208 0.4886108041 8.560068489e-39
-0.4090122581 -0.2408148348 0.4243261814 8.377473694e-39
0.3050377369 -0.09997434914 -0.07984533161 8.377473694e-39
0.32519117 0.0293751955 -0.1003372893 8.377473694e-39
0.4106514156 -0.1731714606 -0.01779562235 8.377473694e-39
0.4044191837 -0.08897195756 -0.05525834113 8.377473694e-39
-0.4032939374 -0.2127144933 0.3509637713 8.377473694e-39
0.4187162519 -0.235917598 -0.01464074105 8.377473694e-39
-0.3833313286 -0.425848484 0.4772315621 8.377473694e-39
0.4393051565 -0.3517953455 0.1219911128 8.194878899e-39
0.4446883798 -0.1002639383 -0.02184719592 8.194878899e-39
-0.4096963406 -0.2393217981 0.4129468799 8.194878899e-39
0.4793346524 0.03158551455 0.01154648513 8.194878899e-39
0.4674597979 0.01692251861 -0.0175043568 8.194878899e-39
0.3790903091 -0.08905501664 -0.06476896256 8.194878899e-39
0.3180441856 -0.1006793231 -0.06940039247 8.194878899e-39
0.4216634631 -0.2681466043 -0.04047325253 8.194878899e-39
-0.413682431 -0.224172622 0.3653536439 8.012284103e-39
0.439989239 -0.3532883823 0.1333703548 8.012284103e-39
-0.4044603705 -0.2636480331 0.4626165032 8.012284103e-39
0.4509086013 -0.4158157706 0.202724427 8.012284103e-39
-0.3322775662 -0.2124459147 0.2976391315 8.012284103e-39
0.4078224897 -0.1347514987 0.02871907875 8.012284103e-39
0.3165000677 -0.005134895444 -0.1138562635 8.012284103e-39
-0.3855017722 -0.4275603294 0.4224116206 8.012284103e-39
0.4096381366 -0.1516125351 0.02149245515 7.829687907e-39
0.331050694 -0.101384297 -0.05895543844 7.829687907e-39
-0.325072825 -0.1811406761 0.2677174211 7.829687907e-39
0.4811502695 0.01472449303 0.00431983918 7.829687907e-39
0.4070371985 -0.10113509 -0.03042352945 7.829687907e-39
0.4300831556 -0.3123199344 0.02472820505 7.829687907e-39
0.4533217549 0.03299546242 -0.009343408048 7.829687907e-39
-0.3921379745 -0.2628599703 0.4616822004 7.829687907e-39
-0.3846994638 -0.4228624105 0.4544730186 7.647093112e-39
-0.3954400122 -0.249203831 0.4254682064 7.647093112e-39
-0.4032105207 -0.2728250921 0.464692831 7.647093112e-39
0.4800186753 0.0300924629 0.02292571962 7.647093112e-39
-0.3723770678 -0.4220743477 0.4535387158 7.647093112e-39
0.3440570831 -0.1020893008 -0.0485104993 7.647093112e-39
0.2680706382 -0.1023385376 -0.07704242319 7.647093112e-39
-0.3838970959 -0.4181644917 0.4865344763 7.647093112e-39
-0.3707723618 -0.4126785398 0.5176616311 7.464498317e-39
0.4446593821 -0.369930625 0.1923428923 7.464498317e-39
0.434753269 -0.328962177 0.0837007463 7.464498317e-39
0.4114537835 -0.1684735417 0.01426577941 7.464498317e-39
0.4205318987 -0.2527786493 -0.02186736278 7.464498317e-39
-0.4038946033 -0.2713320553 0.4533135891 7.464498317e-39
0.3693858981 -0.1020062119 -0.03899987787 7.464498317e-39
-0.3715746999 -0.4173764288 0.4856001735 7.464498317e-39
-0.3875861466 -0.2856931686 0.4999725819 7.281903522e-39
-0.4131166339 -0.2318565845 0.3560506701 7.281903522e-39
0.3542695045 0.00192719698 -0.08459771425 7.281903522e-39
0.3524538875 0.0187882036 -0.0773710981 7.281903522e-39
0.4557031393 0.008450478315 -0.02587298304 7.281903522e-39
0.4421309829 0.01683942974 -0.02701499313 7.281903522e-39
-0.4001101851 -0.2325615883 0.3664956689 7.281903522e-39
-0.3844628632 -0.4104804993 0.49583745 7.281903522e-39
-0.3860675693 -0.4198763371 0.4317145348 7.099307325e-39
-0.3868699074 -0.4245742261 0.3996530771 7.099307325e-39
0.4077212214 -0.1026281267 -0.0190442875 7.099307325e-39
0.291855216 -0.006711021066 -0.1119876578 7.099307325e-39
0.2623293996 0.03461191058 -0.09774207324 7.099307325e-39
0.4268994033 -0.2924728394 0.00919635687 7.099307325e-39
0.4224657714 -0.2634486854 -0.008411824703 7.099307325e-39
-0.3722587526 -0.4158833921 0.4742209315 7.099307325e-39
0.4460275173 -0.3729166985 0.2151013613 6.91671253e-39
0.3332560062 -0.03337095678 -0.09718238562 6.91671253e-39
0.430201441 -0.3061289787 0.04541037232 6.91671253e-39
0.3324187994 -0.1043704003 -0.03619696945 6.91671253e-39
0.4282675087 -0.2954589128 0.03195482865 6.91671253e-39
-0.3232572079 -0.1980016679 0.2604907453 6.91671253e-39
-0.4111827314 -0.2425266802 0.3695062399 6.91671253e-39
-0.3265941143 -0.2506470382 0.3173235655 6.91671253e-39
0.4676963091 0.02930440009 0.02386002243 6.734117735e-39
-0.3744292259 -0.4175952375 0.41940099 6.734117735e-39
0.4551341236 -0.1314743459 -0.08771825582 6.734117735e-39
0.4550129771 -0.4247739911 0.2709999084 6.734117735e-39
-0.3955582976 -0.2553947568 0.4047859907 6.734117735e-39
-0.4085647464 -0.2546897829 0.3943410516 6.734117735e-39
0.4208867252 -0.2342057824 0.04017920792 6.734117735e-39
0.4128218889 -0.1714596301 0.03702430427 6.734117735e-39
0.422136575 -0.2433828115 0.0422555171 6.55152294e-39
0.4238339067 -0.2664347887 0.01434667408 6.55152294e-39
-0.3181395531 -0.2285188437 0.2894781828 6.55152294e-39
-0.3858309984 -0.4074944258 0.4730789065 6.55152294e-39
0.4713853598 -0.1031669229 0.01042192429 6.55152294e-39
0.4613833427 -0.1773594916 -0.07733672857 6.55152294e-39
0.4158873558 -0.1974976659 0.03187398612 6.55152294e-39
0.4215707779 -0.2356988192 0.05155844241 6.55152294e-39
0.4626331925 -0.1865365058 -0.07526041567 6.368926744e-39
0.4081109762 -0.01775375009 -0.05004458874 6.368926744e-39
0.4228206277 -0.2448758483 0.05363475159 6.368926744e-39
0.4454617202 -0.3652327061 0.2244042903 6.368926744e-39
-0.3311460018 -0.2278138697 0.2790332735 6.368926744e-39
0.4526315331 -0.400229007 0.2875294685 6.368926744e-39
0.4421596825 -0.3515765667 0.1881902814 6.368926744e-39
-0.3271250129 -0.176661551 0.2335796803 6.368926744e-39
0.3091769814 -0.04263107479 -0.1046167389 6.186331949e-39
-0.3994610012 -0.3003561497 0.4709217548 6.186331949e-39
0.4415619075 -0.1230853647 -0.08886025846 6.186331949e-39
-0.3228445649 -0.2781781554 0.3235524893 6.186331949e-39
0.4362397194 -0.3257572949 0.127141431 6.186331949e-39
0.4545654655 -0.4108990729 0.3009850383 6.186331949e-39
0.4007965326 -0.05492553487 0.09898995608 6.186331949e-39
0.434689641 -0.02684770525 -0.03845765442 6.186331949e-39
0.4329376817 -0.3121011555 0.09092736989 6.003737154e-39
-0.3743109405 -0.4114042819 0.4400831461 6.003737154e-39
-0.4046969712 -0.2760299444 0.4212521315 6.003737154e-39
0.4832024574 0.01024536788 0.03845757246 6.003737154e-39
0.4595677555 -0.1604984701 -0.07011009753 6.003737154e-39
0.4328739643 -0.009986683726 -0.03123099357 6.003737154e-39
0.3707540631 -0.1049922854 -0.01624137908 6.003737154e-39
-0.3881197572 -0.415397197 0.3975768089 6.003737154e-39
-0.3207575083 -0.216355741 0.2646433711 5.820783626e-39
0.2684603333 -0.01746416092 -0.1080427393 5.820783626e-39
0.4165714085 -0.1989907026 0.04325322062 5.820783626e-39
0.4620674253 -0.1788525283 -0.06595748663 5.820783626e-39
0.4290698469 -0.290760994 0.06401628256 5.820783626e-39
-0.1126735806 -0.1359454542 -0.04600270838 5.820783626e-39
0.4552495182 -0.4123921096 0.3123642802 5.820783626e-39
-0.4001450837 -0.2988631129 0.4595425129 5.820783626e-39
0.455252409 -0.1252833754 -0.06703609228 5.63818743e-39
0.4942144752 -0.08472977579 0.01577996463 5.63818743e-39
0.4651328921 -0.204890579 -0.07110780478 5.63818743e-39
0.2447939366 -0.1069007367 -0.05241531879 5.63818743e-39
0.463317275 -0.1880295575 -0.06388118863 5.63818743e-39
0.4246362746 -0.2617368996 0.04640813172 5.63818743e-39
-0.3741926551 -0.4052133262 0.4607653618 5.63818743e-39
0.3960828781 -0.1049091965 -0.006730727851 5.63818743e-39
0.2123557776 0.03295272589 -0.105384104 5.455592635e-39
0.346109271 -0.106568411 -0.01437277347 5.455592635e-39
-0.329896152 -0.2369908988 0.2811095715 5.455592635e-39
0.44224599 -0.1245784014 -0.07748102397 5.455592635e-39
0.457065165 -0.4292531312 0.3051376343 5.455592635e-39
0.4520657957 -0.3925450146 0.2968324423 5.455592635e-39
0.400914818 -0.04873459786 0.1196721792 5.455592635e-39
0.4376078248 -0.3287433684 0.1498999 5.455592635e-39
0.4265701473 -0.2724069357 0.05986367166 5.272997839e-39
-0.3878226876 -0.2980750501 0.4586082101 5.272997839e-39
0.4203209281 -0.22652179 0.04948214069 5.272997839e-39
0.4434958398 -0.1337554455 -0.07540471852 5.272997839e-39
-0.3930586278 -0.2737488151 0.4089385867 5.272997839e-39
-0.4008291364 -0.2973700762 0.448163271 5.272997839e-39
0.4922806025 -0.07405970991 0.002324402332 5.272997839e-39
-0.3124561012 -0.2667199969 0.3091626465 5.272997839e-39
0.4106106758 -0.03610779345 -0.04589197785 5.090401643e-39
0.4178212583 -0.2081677318 0.04532952607 5.090401643e-39
0.2561379671 -0.01825222373 -0.1071084365 5.090401643e-39
0.321464479 -0.1081445366 -0.01250416785 5.090401643e-39
0.4873994589 -0.03116065264 0.01470136642 5.090401643e-39
0.284532249 -0.04420720041 -0.1027481332 5.090401643e-39
0.4566176534 -0.4153781831 0.3351227641 5.090401643e-39
0.4838865399 0.008752331138 0.04983683676 5.090401643e-39
0.4578675032 -0.4245552123 0.3371990323 4.907806848e-39
-0.3748767376 -0.4037202895 0.4493861198 4.907806848e-39
-0.4093670845 -0.2593877017 0.3622795939 4.907806848e-39
0.4850180745 -0.006615638733 0.03123094141 4.907806848e-39
0.4356739223 -0.3180733323 0.13644436 4.907806848e-39
0.4090893865 -0.1056142002 0.003714211285 4.907806848e-39
0.4658169746 -0.2063836157 -0.05972857028 4.907806848e-39
0.4472453892 -0.1612865329 -0.06917579472 4.907806848e-39
-0.1118712425 -0.1312475652 -0.01394126564 4.725212053e-39
0.4382918775 -0.3302364051 0.1612791419 4.725212053e-39
0.448495239 -0.1704635471 -0.06709949672 4.725212053e-39
0.3746218681 -0.1263324469 0.0106697306 4.725212053e-39
0.2005991787 0.02448067069 -0.11375276 4.725212053e-39
0.4553678036 -0.406201154 0.3330464363 4.725212053e-39
0.2425656766 -0.009863272309 -0.1082504317 4.725212053e-39
0.4330559373 -0.3059101999 0.1116095856 4.725212053e-39
0.3740909696 -0.05234694481 -0.07307418436 4.542257124e-39
0.4528105259 -0.2056786269 -0.07017350197 4.542257124e-39
0.423617065 -0.03681279719 -0.03544703871 4.542257124e-39
-0.3305802345 -0.2354978621 0.2697302699 4.542257124e-39
0.4455800056 -0.3590417504 0.245086506 4.542257124e-39
-0.3757717609 -0.3759704232 0.5093564391 4.542257124e-39
0.4190711081 -0.2173447907 0.04740583524 4.542257124e-39
0.4454297423 -0.1444254965 -0.06194917485 4.542257124e-39
0.4621857107 -0.1726615727 -0.04527527094 4.359662329e-39
-0.3754425049 -0.3960362971 0.4586890936 4.359662329e-39
0.4514999986 -0.3848610222 0.3061353564 4.359662329e-39
0.2331556082 -0.109181866 -0.04010177404 4.359662329e-39
0.3433152437 -0.001846939325 -0.06090494245 4.359662329e-39
0.4727534652 -0.1061530262 0.03318042308 4.359662329e-39
0.4466795921 -0.1536025256 -0.05987287313 4.359662329e-39
0.4022829533 -0.05172067508 0.1424306482 4.359662329e-39
0.443048358 -0.1198805049 -0.04541956633 4.177066133e-39
-0.4021972716 -0.2943840027 0.4254047275 4.177066133e-39
-0.3839548528 -0.3194152117 0.48551929 4.177066133e-39
0.43249017 -0.2982262075 0.1209125221 4.177066133e-39
0.4845705628 0.007259294391 0.06121607125 4.177066133e-39
-0.3813369274 -0.3315783143 0.5103541017 4.177066133e-39
0.4875177741 -0.024969697 0.03538355976 4.177066133e-39
0.4540603757 -0.2148556411 -0.06809720397 4.177066133e-39
0.3964726329 -0.02003483474 -0.03773104399 3.994471337e-39
-0.4081172645 -0.2685647309 0.3643558621 3.994471337e-39
-0.3273964524 -0.2553449571 0.2852621675 3.994471337e-39
-0.08722645044 -0.1296714395 -0.01580988616 3.994471337e-39
0.4534946084 -0.2071716785 -0.05879426748 3.994471337e-39
-0.3178451955 -0.3148862422 0.3318577111 3.994471337e-39
0.4659352303 -0.2001926601 -0.03904635459 3.994471337e-39
-0.09818074107 -0.1334455758 0.007882922888 3.994471337e-39
0.1882767975 0.02369260788 -0.1128184572 3.81151781e-39
0.4473636448 -0.1550955772 -0.04849358648 3.81151781e-39
0.4436460733 -0.3483716846 0.2316309661 3.81151781e-39
-0.3758900166 -0.3821613491 0.4886741638 3.81151781e-39
-0.3898748755 -0.2935959399 0.4244704247 3.81151781e-39
0.4035328031 -0.06089769676 0.1445069462 3.81151781e-39
0.2721749842 -0.1112967879 -0.008766956627 3.81151781e-39
0.4136760831 -0.0621458441 -0.05104232579 3.81151781e-39
-0.3846389055 -0.3179221749 0.474140048 3.628921614e-39
0.4528681338 -0.3878470957 0.3288938403 3.628921614e-39
0.4628697932 -0.1741546094 -0.03389603645 3.628921614e-39
0.3753408194 -0.06152392924 -0.07099788636 3.628921614e-39
0.4834390283 0.02262726426 0.07982195169 3.628921614e-39
0.3309928775 -0.002635002136 -0.05997063965 3.628921614e-39
0.3322427273 -0.01181203127 -0.05789432675 3.628921614e-39
0.2649473548 0.02244882286 -0.07290727645 3.628921614e-39
0.4443014264 0.01855126023 0.02780493349 3.446326818e-39
0.425432682 -0.05367381871 -0.04267366976 3.446326818e-39
0.4910307527 -0.06488268077 0.0002480894327 3.446326818e-39
-0.3890147507 -0.3876473308 0.4575470686 3.446326818e-39
-0.09749667346 -0.1349386126 0.01926215738 3.446326818e-39
0.4498633444 -0.1734496355 -0.04434096813 3.446326818e-39
-0.06463387609 -0.1236161739 -0.0518162325 3.446326818e-39
0.4604854584 -0.4367183447 0.3620339036 3.446326818e-39
0.3474774361 -0.1095544845 0.008385725319 3.26337189e-39
0.4094790816 -0.02073982358 -0.02728608996 3.26337189e-39
0.4704325795 0.0233322382 0.06937702 3.26337189e-39
-0.1028508842 -0.1168033332 -0.05108962208 3.26337189e-39
0.4535521865 -0.3893401325 0.3402730823 3.26337189e-39
0.4610541463 -0.1572935879 -0.02666941285 3.26337189e-39
0.4318606853 0.01157224178 0.008057050407 3.26337189e-39
-0.403565377 -0.2913978994 0.4026462436 3.26337189e-39
0.4780243039 -0.06417770684 -0.01019684225 3.080777095e-39
0.4936487079 -0.0770458132 0.02508290112 3.080777095e-39
0.4640591145 -0.2882718742 -0.05148675293 3.080777095e-39
0.4751316309 -0.2783067822 -0.05449735373 3.080777095e-39
0.3588213921 -0.02090598643 -0.04630737752 3.080777095e-39
-0.3081407845 -0.3019350767 0.3060886264 3.080777095e-39
0.4611695409 -0.4382113814 0.3734131455 3.080777095e-39
-0.306206882 -0.3126051426 0.3195441961 3.080777095e-39
0.3974510431 -0.10789527 0.01602774858 2.898180898e-39
0.4581040442 -0.4121733308 0.3785634637 2.898180898e-39
0.2137238979 0.02996663749 -0.08262560517 2.898180898e-39
-0.393860966 -0.278446734 0.3768771887 2.898180898e-39
0.2030988634 0.006126612425 -0.1096001491 2.898180898e-39
-0.3795212805 -0.3484393358 0.5031275153 2.898180898e-39
0.4592384994 -0.1404325813 -0.01944278926 2.898180898e-39
-0.4068674147 -0.2777417302 0.3664321899 2.898180898e-39
-0.1200892627 -0.1409938484 0.05526849627 2.715227371e-39
0.4841230512 0.02113422751 0.09120118618 2.715227371e-39
-0.391242981 -0.2906098366 0.4017119408 2.715227371e-39
0.2339928299 -0.03818242252 -0.10108722 2.715227371e-39
0.1753885746 0.03058853745 -0.1025811955 2.715227371e-39
0.3105102181 -0.1119186729 0.01118863374 2.715227371e-39
-0.3899353743 -0.3985362053 0.4048034549 2.715227371e-39
0.4803324938 -0.4523537159 0.4862712622 2.715227371e-39
0.4813808501 -0.3241919279 -0.04411582649 2.532632576e-39
-0.3772581518 -0.3791752756 0.4659156799 2.532632576e-39
0.4648036659 -0.1848246902 -0.02044048905 2.532632576e-39
0.4745307565 -0.4203434885 0.4459046125 2.532632576e-39
0.479082644 -0.4431766868 0.484194994 2.532632576e-39
-0.3776129782 -0.3977481425 0.4038691521 2.532632576e-39
0.4568542242 -0.4029963017 0.3764871359 2.532632576e-39
0.2981878519 -0.1127067357 0.01212293655 2.532632576e-39
0.4611151814 -0.1084341258 0.04549399018 2.349677647e-39
0.3971567154 -0.02152787149 -0.02635178715 2.349677647e-39
0.4678691626 -0.2108627409 -0.0255908072 2.349677647e-39
0.4660535157 -0.1940017045 -0.0183641836 2.349677647e-39
-0.3773764372 -0.3853662312 0.4452334642 2.349677647e-39
-0.132671088 0.01088701189 -0.07922361046 2.349677647e-39
0.1955043674 -0.1100529879 -0.04867810756 2.349677647e-39
0.2605366111 -0.1135778874 0.003546617925 2.349677647e-39
-0.3847572207 -0.3241131008 0.4534578919 2.167082852e-39
0.2643210888 -0.07480745018 -0.08327134699 2.167082852e-39
-0.3145082891 -0.2622408867 0.2750248909 2.167082852e-39
0.4870702624 -0.01109474897 0.06536868215 2.167082852e-39
-0.310074687 -0.2912650108 0.2926330864 2.167082852e-39
-0.3919270337 -0.2891167998 0.3903326988 2.167082852e-39
0.2352077961 -0.1136609763 -0.005964033306 2.167082852e-39
-0.09612855315 -0.1379246861 0.04202065617 2.167082852e-39
0.3063480854 -0.004211127758 -0.05810203403 1.984127923e-39
0.4774585366 -0.05649371445 -0.0008939057589 1.984127923e-39
-0.1233913004 -0.1273377091 0.01905445009 1.984127923e-39
0.4738818109 -0.2691297829 -0.05657365918 1.984127923e-39
0.4584939778 -0.2438797802 -0.05048904568 1.984127923e-39
0.4514456391 -0.05508376658 -0.02178377658 1.984127923e-39
0.4487317801 -0.1580816507 -0.02573511004 1.984127923e-39
-0.3068909347 -0.3111121058 0.3081649542 1.984127923e-39
0.4629880488 -0.1679636687 -0.01321387291 1.801533128e-39
-0.11940521 -0.1424868852 0.06664776057 1.801533128e-39
0.4357862473 -0.1085172147 0.03598333895 1.801533128e-39
0.4888858795 -0.02795577049 0.05814205483 1.801533128e-39
-0.395829767 -0.3340781927 0.4564684629 1.801533128e-39
0.3000383675 -0.06326623261 -0.08815055341 1.801533128e-39
0.1907764822 0.005338549614 -0.1086658463 1.801533128e-39
-0.3796395361 -0.3546302617 0.48244524 1.801533128e-39
0.466076225 -0.4424717128 0.4737500548 1.618578199e-39
0.2538748085 0.01248371601 -0.06989667565 1.618578199e-39
0.2068483979 -0.02140447497 -0.1033712253 1.618578199e-39
-0.07285189629 -0.133362487 0.01739354432 1.618578199e-39
0.4732809663 -0.4111664593 0.4438282847 1.618578199e-39
0.3358390927 -0.111835584 0.02069926262 1.618578199e-39
0.1636319757 0.02211649716 -0.1109498516 1.618578199e-39
0.2674470544 0.004094749689 -0.06875466555 1.618578199e-39
0.4562884271 -0.3953123093 0.38579005 1.435982003e-39
0.4044533968 -0.05000885949 0.1972505748 1.435982003e-39
-0.06121358275 -0.1310813874 0.005080007017 1.435982003e-39
0.3848342896 -0.0223159343 -0.02541748434 1.435982003e-39
0.4808151126 -0.3165079653 -0.03481289744 1.435982003e-39
-0.3815734684 -0.3439601958 0.4689897299 1.435982003e-39
-0.386125356 -0.3211270273 0.4306993484 1.435982003e-39
0.4378443658 -0.3163614869 0.1912642866 1.435982003e-39
0.4791177511 -0.2934559584 -0.006904058158 1.253028475e-39
-0.1280614585 -0.1106954664 -0.03991808742 1.253028475e-39
0.4745658934 -0.2706228197 -0.04519442469 1.253028475e-39
0.2735431194 -0.1142828614 0.01399154216 1.253028475e-39
0.2098789811 -0.1137440652 -0.01547466964 1.253028475e-39
0.1920263171 -0.003838464618 -0.1065895334 1.253028475e-39
-0.1319870353 0.009393960238 -0.06784436852 1.253028475e-39
0.2080982476 -0.03058151901 -0.1012949124 1.253028475e-39
-0.04957523942 -0.1288002878 -0.007233552635 1.070432279e-39
0.4510524869 -0.3709860742 0.3361204267 1.070432279e-39
-0.3880592287 -0.3104569614 0.4172437787 1.070432279e-39
0.4332288504 0.008586153388 0.03081554919 1.070432279e-39
0.1805640161 -0.09867791831 -0.07257860154 1.070432279e-39
0.3218542635 -0.02327017486 -0.0435044691 1.070432279e-39
0.2358918637 -0.115154013 0.005415223539 1.070432279e-39
0.4734342992 -0.2552548349 -0.02658851445 1.070432279e-39
0.4877542853 -0.01258780062 0.07674793899 8.874787512e-40
0.4923988581 -0.06786878407 0.02300658822 8.874787512e-40
0.423463881 -0.1093052775 0.03691764176 8.874787512e-40
0.3111943007 -0.1134117097 0.02256787568 8.874787512e-40
-0.3230811656 -0.2905600071 0.2821881175 8.874787512e-40
-0.06052951515 -0.1325744241 0.01645924151 8.874787512e-40
0.4703688622 -0.2292167991 -0.0214381963 8.874787512e-40
0.4602745175 -0.4104614854 0.4333833456 8.874787512e-40
0.4576565623 -0.3982983828 0.4085485935 7.045238224e-40
0.5008185506 -0.1120420843 0.08820804954 7.045238224e-40
0.4679874182 -0.2046717703 -0.004908643663 7.045238224e-40
-0.3916327357 -0.3754842281 0.4327122569 7.045238224e-40
0.4506656826 -0.1687517315 -0.0122795701 7.045238224e-40
0.4649219513 -0.1786337197 0.0002416670322 7.045238224e-40
0.1890791357 0.02839051187 -0.08075699955 7.045238224e-40
0.2093480825 -0.03975854814 -0.0992186144 7.045238224e-40
0.2753936052 -0.06484235823 -0.08628194779 5.219290273e-40
-0.1431778669 -0.006762072444 -0.0855159387 5.219290273e-40
0.466558814 -0.3066259623 -0.04733413458 5.219290273e-40
0.4609936774 -0.2622338533 -0.04633643478 5.219290273e-40
-0.3911852241 -0.3893591762 0.4027271271 5.219290273e-40
0.4519155324 -0.1779287457 -0.01020326465 5.219290273e-40
-0.3887432814 -0.3089639246 0.4058645964 5.219290273e-40
0.482183218 -0.3194940686 -0.01205436885 5.219290273e-40
0.4425145388 -0.3330037296 0.2502368093 3.389740985e-40
0.4464686513 -0.127345711 0.01147665828 3.389740985e-40
0.439212501 -0.3193475604 0.2140227556 3.389740985e-40
-0.05984544754 -0.1340674609 0.0278385058 3.389740985e-40
-0.1073422432 0.01097008586 -0.06971297413 3.389740985e-40
0.458340615 -0.3997914195 0.4199278355 3.389740985e-40
0.4111415148 -0.1100933403 0.03785194457 3.389740985e-40
0.474684149 -0.264431864 -0.024512209 3.389740985e-40
-0.2972819209 -0.4694027007 0.3557756841 1.56020571e-40
0.4728685319 -0.2475708425 -0.0172855854 1.56020571e-40
-0.3816917241 -0.3501511514 0.4483075738 1.56020571e-40
-0.1185330898 -0.005185961723 -0.08738455921 1.56020571e-40
-0.3959480524 -0.3402691483 0.4357862473 1.56020571e-40
0.1975565553 -0.114532128 -0.01454036683 1.56020571e-40
0.4339128733 0.007093116641 0.04219478369 1.56020571e-40
0.464356184 -0.1709497571 0.00954464823 1.56020571e-40
0.469237268 -0.2138488144 -0.002832338214 6.490113838e-41
0.2706307769 -0.01575234532 -0.05322281271 6.490113838e-41
0.4684927464 -0.3172960281 -0.03387859464 6.490113838e-41
0.4828673005 -0.3209871054 -0.0006751343608 6.490113838e-41
0.4607248902 -0.1372276992 0.02399789542 6.490113838e-41
0.4957008958 -0.08152492344 0.05922063068 6.490113838e-41
0.4930829406 -0.06936182082 0.03438585252 6.490113838e-41
0.4465006292 -0.3481529057 0.2978301048 6.490113838e-41
0.2365759164 -0.1166470498 0.01679445803 2.496469266e-40
-0.3818100095 -0.3563421071 0.4276253581 2.496469266e-40
0.3348606825 -0.0239751488 -0.03305952996 2.496469266e-40
0.4686714709 -0.2061648071 0.006470583379 2.496469266e-40
0.5015025735 -0.1135351211 0.09958731383 2.496469266e-40
-0.3056410849 -0.3202891648 0.3102412522 2.496469266e-40
-0.3836256564 -0.3394810855 0.4348519444 2.496469266e-40
0.4616777301 -0.2637268901 -0.03495720029 2.496469266e-40
0.4360287488 -0.2995004356 0.1984909028 4.340353837e-40
0.4884961843 -0.1128301471 0.08914235234 4.340353837e-40
-0.1057146788 -0.1446849257 0.08847195655 4.340353837e-40
0.4495341182 -0.1533837467 0.006326340139 4.340353837e-40
-0.1253252178 -0.1166676432 0.005598910153 4.340353837e-40
0.4405806363 -0.3223336339 0.2367812842 4.340353837e-40
-0.00302195549 -0.1196758896 -0.05648774654 4.340353837e-40
0.4065055847 -0.05448798463 0.2313883305 4.340353837e-40
0.4902539849 -0.03094185889 0.08090054989 6.184224396e-40
0.4531046748 -0.3754652143 0.3702582121 6.184224396e-40
0.4556650519 -0.2054598331 -0.003974340856 6.184224396e-40
0.4816174507 -0.3118100464 -0.00275143981 6.184224396e-40
0.4630107582 -0.4164336622 0.478900373 6.184224396e-40
0.4691767991 -0.3187890649 -0.02249935269 6.184224396e-40
-0.3992500603 -0.3266129792 0.3995722532 6.184224396e-40
0.2273539007 -0.07717163861 -0.08046842366 6.184224396e-40
-0.3824940622 -0.3548490703 0.4162461162 8.028094954e-40
0.3618519902 -0.1132455617 0.04158915579 8.028094954e-40
0.4714653194 -0.3943054378 0.4510549307 8.028094954e-40
0.460392803 -0.4042705297 0.4540655017 8.028094954e-40
0.3741743565 -0.1124574989 0.04065485299 8.028094954e-40
-0.3101929724 -0.2974559665 0.2719508708 8.028094954e-40
-0.2812100053 -0.4961457253 0.3610703051 8.028094954e-40
0.4445667267 -0.3374828398 0.2843745947 8.028094954e-40
-0.04683899134 -0.1347724348 0.03828343749 9.871979525e-40
-0.3869276643 -0.3258249164 0.3986379504 9.871979525e-40
-0.3165604472 -0.2577617764 0.2408872098 9.871979525e-40
-0.104960829 -0.01357491314 -0.08624254912 9.871979525e-40
-0.1299953461 -0.1000254005 -0.05337362736 9.871979525e-40
0.4520338178 -0.1717378199 0.01047895104 9.871979525e-40
-0.3030231297 -0.3324522376 0.3350760341 9.871979525e-40
0.4721493721 -0.3957985044 0.4624342322 9.871979525e-40
0.4937669635 -0.07085485756 0.04576508701 1.171585008e-39
0.1078795493 -0.1125833243 -0.0648964718 1.171585008e-39
0.3731959462 -0.02459703386 -0.01310393959 1.171585008e-39
0.2570585608 -0.0073633641 -0.0543648228 1.171585008e-39
-0.1381784827 -0.04347018898 -0.0772107169 1.171585008e-39
0.4496523738 -0.147192806 0.02700851113 1.171585008e-39
0.3985248208 -0.02451394498 -0.003593318164 1.171585008e-39
0.1007701978 0.02735321224 -0.1083546355 1.171585008e-39
-0.3186475337 -0.3195841908 0.299796313 1.355972064e-39
-0.2799601555 -0.5053227544 0.3631466031 1.355972064e-39
-0.3819282949 -0.3625330627 0.4069431424 1.355972064e-39
0.5002527237 -0.104358092 0.09751100093 1.355972064e-39
0.4452507794 -0.3389758766 0.2957538366 1.355972064e-39
-0.3153105974 -0.2669388056 0.2429635078 1.355972064e-39
-0.1037109941 -0.02275194228 -0.08416625112 1.355972064e-39
0.4761737585 -0.11361821 0.09007665515 1.355972064e-39
-0.2954663038 -0.4862637222 0.348549068 1.540360521e-39
-0.3907954693 -0.3044847846 0.3717268109 1.540360521e-39
-0.383743912 -0.3456720412 0.4141697884 1.540360521e-39
0.1859182417 -0.1168132275 -0.002226829529 1.540360521e-39
-0.04641436785 0.01640343666 -0.08576373011 1.540360521e-39
-0.11767295 -0.09923733771 -0.05430793017 1.540360521e-39
-0.2880249918 -0.4425765872 0.3599916995 1.540360521e-39
-0.3961845934 -0.3526510596 0.3944219351 1.540360521e-39
0.4477217197 0.0110860616 0.08470116556 1.724747577e-39
0.4527178705 -0.1732308567 0.02185819298 1.724747577e-39
-0.3856778145 -0.3350019753 0.4007142782 1.724747577e-39
-0.3140607774 -0.2761158347 0.2450398058 1.724747577e-39
0.4394490421 -0.3069656491 0.2553871274 1.724747577e-39
0.1338924319 -0.1139932722 -0.04400657862 1.724747577e-39
-0.2929666042 -0.5046178102 0.3527016938 1.724747577e-39
0.4378384352 -0.1129963249 0.07012106478 1.724747577e-39
-0.3931191266 -0.3786890805 0.3892715573 1.909134633e-39
-0.3882957995 -0.3228388429 0.3758794069 1.909134633e-39
-0.1293690652 -0.002769142389 -0.04300955683 1.909134633e-39
0.2118477672 -0.05811260641 -0.0950660035 1.909134633e-39
-0.3160296082 -0.3317472637 0.3246310949 1.909134633e-39
0.2249376178 -0.1189281493 0.02910799533 1.909134633e-39
-0.1053505689 -0.0984492749 -0.05524223298 1.909134633e-39
-0.398684293 -0.3342970014 0.3902693391 1.909134633e-39
-0.1286272258 -0.103011474 -0.03061512858 2.09352309e-39
0.4598270059 -0.3965865672 0.463368535 2.09352309e-39
-0.04459873587 -0.0004575848579 -0.09299037606 2.09352309e-39
-0.1232730299 -0.1211467534 0.03973664343 2.09352309e-39
-0.1110340208 -0.06024812162 -0.07492671162 2.09352309e-39
0.4729867876 -0.2413799018 0.003396578133 2.09352309e-39
0.494451046 -0.07234789431 0.0571443215 2.09352309e-39
-0.3807967305 -0.3779010177 0.3883372545 2.09352309e-39
-0.2806442082 -0.5038297176 0.3517673612 2.277910146e-39
0.147582978 -0.1161913127 -0.02218241245 2.277910146e-39
0.05858998746 -0.1157355756 -0.06115926057 2.277910146e-39
-0.09996144474 -0.05028302968 -0.07793732733 2.277910146e-39
0.451020509 -0.1501788795 0.04976698011 2.277910146e-39
0.4102551341 -0.08201904595 0.2376172543 2.277910146e-39
0.4676582217 -0.1846058965 0.04575867206 2.277910146e-39
0.4466189146 -0.3419619799 0.3185123205 2.277910146e-39
-0.05481116474 -0.1044740528 -0.05690314621 2.462297202e-39
0.1312744617 -0.1018301696 -0.06884139031 2.462297202e-39
0.4738469124 -0.3354312778 0.03647317737 2.462297202e-39
-0.3968686461 -0.3511580229 0.3830426335 2.462297202e-39
-0.3128109276 -0.285292834 0.2471161038 2.462297202e-39
0.1563089788 -0.01537969708 -0.1017103121 2.462297202e-39
0.1723808944 -0.04212270677 -0.09641570598 2.462297202e-39
-0.0002857074142 -0.1256480664 -0.01097076386 2.462297202e-39
0.3232223988 -0.02625624835 -0.02074597031 2.646685659e-39
-0.004271797836 -0.1104988307 -0.05856405944 2.646685659e-39
-0.04547086358 -0.1377585083 0.06104193628 2.646685659e-39
0.1215700507 -0.114781335 -0.04307227582 2.646685659e-39
0.1575588286 -0.02455671132 -0.09963401407 2.646685659e-39
-0.09302815795 -0.09766121209 -0.05617653579 2.646685659e-39
-0.3096271753 -0.3051399589 0.2626479566 2.646685659e-39
0.1279146969 0.01057526469 -0.1060706303 2.646685659e-39
0.4565249681 -0.382930398 0.4271544218 2.830713982e-39
0.2379440367 -0.1196331233 0.03955295682 2.830713982e-39
0.4484058022 0.00959302485 0.0960804075 2.830713982e-39
0.4933194518 -0.05697990954 0.07575020939 2.830713982e-39
0.4756684899 -0.0009939670563 0.1190466061 2.830713982e-39
-0.05567130446 -0.0104226768 -0.08997976035 2.830713982e-39
0.4712894559 -0.2183279395 0.03130542487 2.830713982e-39
0.4938852787 -0.06466390193 0.0664472878 2.830713982e-39
-0.2870117128 -0.4641355276 0.3207036257 3.015101038e-39
0.4683422744 -0.1860989332 0.0571378991 3.015101038e-39
0.4385225177 -0.1144893616 0.08150033653 3.015101038e-39
-0.09202417731 -0.1468829364 0.1102961227 3.015101038e-39
0.3106285036 -0.1057277173 0.03187082708 3.015101038e-39
-0.1404416263 -0.01273423433 -0.03999895602 3.015101038e-39
0.0514806658 0.02420096099 -0.1046174243 3.015101038e-39
0.4582830369 -0.2176229656 0.02086048573 3.015101038e-39
0.4421852827 -0.3129377961 0.3009041548 3.199488094e-39
0.03462929651 -0.1188047379 -0.04791141301 3.199488094e-39
0.4779861867 -0.2780880332 0.01170179993 3.199488094e-39
0.450605005 -0.357111156 0.3661056161 3.199488094e-39
0.4535202086 -0.1685329229 0.05391959101 3.199488094e-39
0.455901593 -0.1930779517 0.03739004582 3.199488094e-39
0.08969766647 0.01738812029 -0.1053440198 3.199488094e-39
-0.2980842888 -0.4741006196 0.3237142265 3.199488094e-39
0.4731051028 -0.235188961 0.02407879382 3.383517819e-39
0.4098076224 -0.06814412028 0.2676023245 3.383517819e-39
-0.1361262947 -0.04794931412 -0.04307296127 3.383517819e-39
0.4529544115 -0.1608489454 0.06322257966 3.383517819e-39
0.01203670353 -0.1248600036 -0.01190506667 3.383517819e-39
0.4620962739 0.007395014167 0.117904596 3.383517819e-39
-0.09746176004 -0.06863708794 -0.07378471643 3.383517819e-39
0.4905483723 -0.1173092574 0.1232800856 3.383517819e-39
0.3878648281 -0.1146555394 0.06247904897 3.567904875e-39
0.2479198873 -0.02799853683 -0.03789863735 3.567904875e-39
-0.03314849734 -0.1369704455 0.06010763347 3.567904875e-39
-0.3076932728 -0.3158100247 0.2761034966 3.567904875e-39
-0.009871840477 -0.1324082762 0.03548052907 3.567904875e-39
-0.1323767602 -0.07548038661 -0.03684405237 3.567904875e-39
-0.3857960999 -0.3411929011 0.3800320029 3.567904875e-39
0.4512890577 -0.3586041927 0.377484858 3.567904875e-39
-0.1208567172 -0.0793902427 -0.06983979791 3.75229193e-39
0.2983061373 -0.1065157801 0.03280512989 3.75229193e-39
0.02367501706 -0.122578904 -0.02421861142 3.75229193e-39
-0.135442242 -0.04944235086 -0.03169373423 3.75229193e-39
0.07737528533 0.01660005748 -0.104409717 3.75229193e-39
0.3362288475 -0.02696122229 -0.01030103117 3.75229193e-39
0.4542042613 -0.1700259745 0.06529887766 3.75229193e-39
0.4928719997 -0.04310497642 0.1057353318 3.75229193e-39
-0.01995398849 0.001118525863 -0.09485898167 3.936320254e-39
0.03531335667 -0.1202977747 -0.03653215617 3.936320254e-39
0.08198492229 -0.1049824208 -0.06510417908 3.936320254e-39
0.001766473055 -0.1301271766 0.02316699177 3.936320254e-39
0.4099259079 -0.06195318699 0.2882845402 3.936320254e-39
0.4648292661 -0.1461859494 0.09227336198 3.936320254e-39
-0.3024573624 -0.34013623 0.3257730901 3.936320254e-39
-0.06424413621 -0.03874181211 -0.08281654865 3.936320254e-39
0.09760935605 -0.1178505272 -0.02982444316 4.120708711e-39
0.3868864775 -0.02679505944 0.008720248938 4.120708711e-39
0.04763573408 -0.1195097119 -0.03746645898 4.120708711e-39
0.1423470527 -0.09186507761 -0.07185200602 4.120708711e-39
-0.2876957655 -0.4626424909 0.3093243837 4.120708711e-39
0.1780643463 -0.08032388985 -0.07673121244 4.120708711e-39
0.02037298307 -0.1089227051 -0.06043266505 4.120708711e-39
0.4560199082 -0.186886996 0.05807220191 4.120708711e-39
0.2355975062 -0.02878659964 -0.03696433455 4.304737034e-39
0.2200913876 -0.009727552533 -0.05156191438 4.304737034e-39
-0.1347581744 -0.05093538761 -0.02031449229 4.304737034e-39
-0.1189227998 -0.09006030858 -0.05638424307 4.304737034e-39
0.4138777852 -0.1160654873 0.08336894214 4.304737034e-39
-0.1328242719 -0.06160546839 -0.006858922541 4.304737034e-39
0.273661375 -0.1080918759 0.0346737355 4.304737034e-39
0.4655133188 -0.1476789862 0.1036526039 4.304737034e-39
0.4857217968 -0.3207682967 0.0655240193 4.48912409e-39
-0.2820123434 -0.5008436441 0.3290088475 4.48912409e-39
-0.1310086399 -0.07846648991 -0.01408556849 4.48912409e-39
0.4707814753 -0.3093932271 0.04162355512 4.48912409e-39
0.002875164151 0.0195556879 -0.08950094134 4.48912409e-39
0.437214911 -0.006563022733 0.07840885222 4.48912409e-39
-0.2864459455 -0.47181952 0.3114007115 4.48912409e-39
0.4917404056 -0.02773699164 0.1243412197 4.48912409e-39
-0.02108556032 0.01648651063 -0.07625309378 4.673152414e-39
0.4696496725 -0.3774444461 0.4582815766 4.673152414e-39
0.4390305281 -0.02342404425 0.07118220627 4.673152414e-39
0.4106099606 -0.06344622374 0.2996637821 4.673152414e-39
0.4552751184 -0.3737533689 0.4250781536 4.673152414e-39
0.2014592886 -0.06957070529 -0.08067613095 4.673152414e-39
-0.0557410866 -0.1430257112 0.09611397237 4.673152414e-39
0.4607827365 -0.2359770238 0.02501309663 4.673152414e-39
0.1496351659 -0.1206704229 0.01195534319 4.857539469e-39
-0.05192176998 -0.0379537493 -0.08375085145 4.857539469e-39
0.4493551552 -0.3479341269 0.3640292883 4.857539469e-39
0.4111757576 -0.07113020122 0.290360868 4.857539469e-39
0.0250431411 -0.1255649775 -0.001460112631 4.857539469e-39
-0.1303245872 -0.07995952666 -0.002706311643 4.857539469e-39
-0.3083773255 -0.314316988 0.2647242546 4.857539469e-39
-0.1340741217 -0.05242843926 -0.008935235441 4.857539469e-39
0.4703944623 -0.1905780435 0.09127566963 5.041567793e-39
0.03668148071 -0.123283878 -0.01377368718 5.041567793e-39
-0.3154638112 -0.3394312263 0.315328151 5.041567793e-39
0.4102807343 -0.04338032007 0.3503311276 5.041567793e-39
-0.1146167666 -0.1529381722 0.1463024914 5.041567793e-39
-0.08388955891 -0.07702605426 -0.07264270633 5.041567793e-39
0.4602169394 -0.2282930166 0.03431602567 5.041567793e-39
0.01519756764 0.02034373581 -0.09043524414 5.041567793e-39
0.401555419 -0.1168535203 0.08430324495 5.225597518e-39
0.08597101271 -0.1201316267 -0.01751089841 5.225597518e-39
-0.1291930228 -0.09532751143 -0.02131219953 5.225597518e-39
0.4497739077 0.006606951356 0.1188388988 5.225597518e-39
-0.07901771367 -0.1475879103 0.1207410768 5.225597518e-39
-0.05606099963 -0.09529705346 -0.05897944421 5.225597518e-39
0.4112940133 -0.06493926048 0.3110430241 5.225597518e-39
0.3115839958 -0.02853734791 -0.008432425559 5.225597518e-39
0.2739328146 -0.0294084847 -0.01700875908 5.409984573e-39
0.4500392079 -0.3494271636 0.3754085302 5.409984573e-39
0.4916417897 -0.3465875387 0.1265728772 5.409984573e-39
-0.2950187922 -0.5001387 0.3185639381 5.409984573e-39
0.4744732082 -0.2381750345 0.04683727771 5.409984573e-39
0.4919164777 -0.1202953607 0.1460385919 5.409984573e-39
-0.129758805 -0.08764351904 -0.01200927049 5.409984573e-39
0.5056069493 -0.1224933714 0.1678627729 5.409984573e-39
0.4858400822 -0.3145773411 0.08620619029 5.594012897e-39
0.1177022383 -0.09344120324 -0.0699833855 5.594012897e-39
0.4005770087 -0.02899307013 0.03054444492 5.594012897e-39
0.4245370328 -0.05326231942 0.362852335 5.594012897e-39
0.1373127401 -0.1214584857 0.01288965344 5.594012897e-39
0.465631634 -0.1414880455 0.1243348196 5.594012897e-39
-0.1138629317 -0.02182817459 -0.0284120217 5.594012897e-39
0.09897748381 -0.1208366007 -0.007065944374 5.594012897e-39
0.4614667892 -0.2374700606 0.03639233857 5.77804122e-39
-0.3135299087 -0.3501013219 0.3287837207 5.77804122e-39
0.4580720961 -0.1913661063 0.09220997244 5.77804122e-39
0.4125438631 -0.07411628217 0.3131193519 5.77804122e-39
-0.08195564151 -0.08769612014 -0.05918715149 5.77804122e-39
-0.1327059865 -0.05541451275 0.0138232708 5.77804122e-39
0.4923258424 -0.3480805755 0.1379521191 5.77804122e-39
-0.301952064 -0.452760458 0.2968031466 5.77804122e-39
-0.1295222491 -0.07526160777 0.02935511619 5.962428276e-39
0.4131096601 -0.0818002671 0.3038164377 5.962428276e-39
0.07433269918 -0.1224127263 -0.00519733876 5.962428276e-39
-0.2858801484 -0.4795034826 0.3020977676 5.962428276e-39
0.15404585 0.01535627246 -0.06449855119 5.962428276e-39
0.06755257398 -0.002542063594 -0.09932280332 5.962428276e-39
0.4022394419 -0.118346557 0.09568247199 5.962428276e-39
0.3769106269 -0.1184296459 0.08617185056 5.962428276e-39
0.5069751143 -0.1254794449 0.1906212568 6.1464566e-39
0.4142674804 -0.03119111061 0.0523686111 6.1464566e-39
0.4424218833 -0.3005559444 0.3422685266 6.1464566e-39
0.4391488433 -0.01723308861 0.09186439216 6.1464566e-39
0.4252210855 -0.05475535616 0.3742315769 6.1464566e-39
0.1249903589 -0.1222465485 0.01382395625 6.1464566e-39
0.1119839251 -0.1215415746 0.003378994763 6.1464566e-39
0.4833403826 -0.2962232828 0.08205357939 6.1464566e-39
0.07005226612 -0.02089612186 -0.09517019242 6.330484923e-39
0.3093786538 -0.09655068815 0.02979452163 6.330484923e-39
0.2869392633 -0.03011345863 -0.006563819945 6.330484923e-39
-0.3036494255 -0.4297085106 0.3247119784 6.330484923e-39
0.4598877132 -0.2082271278 0.0849833414 6.330484923e-39
0.4942401052 -0.04609104991 0.1284938306 6.330484923e-39
0.4411720335 -0.2913788855 0.3401921988 6.330484923e-39
0.4696498811 -0.2940252721 0.06022941321 6.330484923e-39
0.4253393412 -0.04856441915 0.3949137926 6.514514648e-39
0.3619702458 -0.1070546061 0.06227134541 6.514514648e-39
0.2109527588 -0.03036272526 -0.03509572893 6.514514648e-39
0.4872082174 -0.3175634146 0.1089647189 6.514514648e-39
0.01826303825 -0.005694299936 -0.09558559209 6.514514648e-39
-0.2890638709 -0.4596563876 0.2865659297 6.514514648e-39
-0.06963326037 -0.08690805733 -0.0601214543 6.514514648e-39
-0.04311233759 0.002747297287 -0.04954969138 6.514514648e-39
0.05648004264 -0.01250714064 -0.09631220251 6.698542971e-39
0.4722678661 -0.306188345 0.0850641802 6.698542971e-39
-0.08928793669 -0.1528550833 0.1558131278 6.698542971e-39
0.4143595099 -0.09097728133 0.3058927059 6.698542971e-39
0.3752481341 -0.029076159 0.02103379369 6.698542971e-39
0.4133462012 -0.06941838562 0.3451808095 6.698542971e-39
0.4399221838 -0.2822018564 0.3381159306 6.698542971e-39
0.5043570995 -0.1133163422 0.1657864749 6.698542971e-39
0.05772988498 -0.02168418467 -0.09423588961 6.882571295e-39
-0.1332717836 -0.04773052037 0.02312619984 6.882571295e-39
0.04290779307 -0.004118189216 -0.0974541977 6.882571295e-39
0.4882503152 -0.1528748423 0.253538698 6.882571295e-39
0.4520913959 -0.3539063036 0.4095463157 6.882571295e-39
0.4128987193 -0.05554341897 0.3751658797 6.882571295e-39
-0.2963868976 -0.4971525669 0.2958054543 6.882571295e-39
0.4735177159 -0.3153654039 0.08714049309 6.882571295e-39
0.02076272666 -0.0240483731 -0.09143298119 7.066599618e-39
0.4971873164 -0.0783200413 0.1026613191 7.066599618e-39
0.4782227278 -0.2657061219 0.05306618661 7.066599618e-39
-0.05368889868 -0.1475048214 0.1302517056 7.066599618e-39
0.01912314072 -0.09974570572 -0.06250896305 7.066599618e-39
-0.1300880164 -0.06757761538 0.03865804523 7.066599618e-39
-0.3090963066 -0.3791254461 0.3463918567 7.066599618e-39
0.4149515629 -0.03268414736 0.06374787539 7.066599618e-39
0.1502358317 -0.06205289066 -0.09039447457 7.250627941e-39
0.4773855507 -0.3367055655 0.1140516326 7.250627941e-39
-0.1270225644 -0.09361566603 0.03350772709 7.250627941e-39
0.4475395083 -0.3310731053 0.3712559342 7.250627941e-39
-0.1158666164 -0.1437611431 0.1442261785 7.250627941e-39
0.5057252645 -0.1163024157 0.1885449439 7.250627941e-39
-0.06532721221 -0.149785921 0.1425652653 7.250627941e-39
-0.05731084943 -0.08611999452 -0.06105575711 7.250627941e-39
0.4729519188 -0.3076814115 0.09644348174 7.434656265e-39
0.05609030277 -0.09738151729 -0.06531187147 7.434656265e-39
0.4560774863 -0.3690554798 0.4571396112 7.434656265e-39
0.2724115252 -0.09891487658 0.03259743005 7.434656265e-39
-0.03078997135 0.003535345197 -0.05048399419 7.434656265e-39
-0.006451532245 -0.1398734897 0.09237676114 7.434656265e-39
-0.06207367778 -0.03702998161 -0.02799662203 7.434656265e-39
-0.3122800589 -0.3592783511 0.3308600187 7.434656265e-39
0.08802320063 -0.124610737 0.01662686467 7.618684588e-39
0.1997269988 -0.1128202528 0.04027955979 7.618684588e-39
0.4406062365 -0.2836948931 0.3494951725 7.618684588e-39
0.441082716 -0.02790316939 0.1053199321 7.618684588e-39
-0.0345999822 -0.07387380302 -0.07637993246 7.618684588e-39
-0.01808984578 -0.1421545595 0.1046902984 7.618684588e-39
0.4522735476 -0.01174710691 0.1229915172 7.618684588e-39
0.4847085178 -0.2992093563 0.104812108 7.618684588e-39
0.1133520454 -0.1245276481 0.02613749355 7.802712912e-39
-0.125088647 -0.1042857319 0.04696326703 7.802712912e-39
0.4801566601 -0.2763761878 0.06652172655 7.802712912e-39
0.2622945011 -0.03168958426 -0.004695214331 7.802712912e-39
0.4816462398 -0.1255625337 0.1811106205 7.802712912e-39
0.4760778844 -0.2287792265 0.1109601185 7.802712912e-39
-0.3155820966 -0.3456222117 0.2946459651 7.802712912e-39
0.4954899549 -0.05526807904 0.1305701435 7.802712912e-39
0.4168591797 -0.109331347 0.3100453019 7.986382503e-39
0.4962922931 -0.05057017505 0.1626315713 7.986382503e-39
-0.3048992455 -0.4205314815 0.3226356804 7.986382503e-39
0.4970946312 -0.04587225616 0.1946930289 7.986382503e-39
-0.1001724005 -0.02402620018 -0.006587825716 7.986382503e-39
0.4682495892 -0.1536511481 0.149169594 7.986382503e-39
0.124341175 -0.05445198715 -0.09060218185 7.986382503e-39
-0.1263384968 -0.09510870278 0.04488696158 7.986382503e-39
-0.3175159991 -0.334952116 0.2811903954 8.170410826e-39
0.3759322166 -0.03056919575 0.03241305053 8.170410826e-39
-0.3110302091 -0.36845541 0.3329363167 8.170410826e-39
0.5077773929 -0.1207815558 0.2226827145 8.170410826e-39
0.4157276154 -0.09396336228 0.3286511898 8.170410826e-39
-0.3129641116 -0.3577853143 0.3194807768 8.170410826e-39
0.4748858511 -0.3183515072 0.1098990217 8.170410826e-39
0.4152801037 -0.08008844405 0.3586363196 8.170410826e-39
0.441942811 -0.1219545752 0.1383965611 8.35443915e-39
0.3252745867 -0.0307353735 0.01339176297 8.35443915e-39
-0.04498849064 -0.08533193171 -0.06199005991 8.35443915e-39
-0.01846759021 0.004323408008 -0.05141829699 8.35443915e-39
0.1120187938 -0.05524004996 -0.08966787905 8.35443915e-39
0.1874046326 -0.1136083156 0.0412138626 8.35443915e-39
0.4686398506 -0.1248575598 0.1706656814 8.35443915e-39
0.2477667183 -0.1004910022 0.03446603566 8.35443915e-39
0.4924441576 -0.3418896794 0.1586343348 8.538467473e-39
0.4671502113 -0.2756712139 0.05607680231 8.538467473e-39
-0.05232077837 -0.1504908949 0.1530102044 8.538467473e-39
-0.3060308397 -0.4051634967 0.3412415385 8.538467473e-39
0.08870726079 -0.1261037737 0.02800609916 8.538467473e-39
-0.2925768495 -0.4197434187 0.3217013776 8.538467473e-39
0.1521697342 -0.07272295654 -0.07693891972 8.538467473e-39
0.04078584909 -0.1322420985 0.05450180918 8.538467473e-39
-0.2904320061 -0.4566703141 0.2638073862 8.722137064e-39
0.02914750949 -0.1345232278 0.06681535393 8.722137064e-39
0.2246432602 -0.03256073594 -0.01327153295 8.722137064e-39
0.4495916963 -0.3355522156 0.4053936601 8.722137064e-39
0.4620323479 -0.3285731971 0.4251415133 8.722137064e-39
0.04121044651 0.01893377304 -0.06954535097 8.722137064e-39
0.01218985766 -0.05236752331 -0.08426975459 8.722137064e-39
0.5004892945 -0.09197621047 0.1388753653 8.722137064e-39
0.495062083 -0.3540527523 0.1834691167 8.906165387e-39
0.4693238735 -0.1263505965 0.1820449233 8.906165387e-39
-0.06013977528 -0.04770006239 -0.01454105228 8.906165387e-39
-0.1256544441 -0.09660173953 0.05626622587 8.906165387e-39
0.235444352 -0.101279065 0.03540034592 8.906165387e-39
0.4541435838 -0.3583854139 0.4436839819 8.906165387e-39
0.3633384109 -0.1100406796 0.08502984047 8.906165387e-39
-0.09948833287 -0.02551923692 0.00479143858 8.906165387e-39
-0.2937084436 -0.4043754339 0.3403072357 9.089834978e-39
0.4689336419 -0.1551441848 0.160548836 9.089834978e-39
-0.005083404481 -0.1428595632 0.1151352599 9.089834978e-39
0.4187930822 -0.1200014278 0.3235008717 9.089834978e-39
0.4755699039 -0.3198445439 0.1212782487 9.089834978e-39
-0.0406126529 -0.01560677588 -0.04539708048 9.089834978e-39
0.4989102483 -0.06273327768 0.1874663979 9.089834978e-39
-0.1111266911 -0.02780033648 0.01710497588 9.089834978e-39
0.479590863 -0.2686921954 0.07582465559 9.273863302e-39
0.4690295458 -0.03998318315 0.139665395 9.273863302e-39
-0.3002547324 -0.4758124352 0.2688943148 9.273863302e-39
-0.1138144433 -0.1482402831 0.1783639193 9.273863302e-39
-0.1299697459 -0.06138668954 0.05934023857 9.273863302e-39
0.4994760156 -0.07041727006 0.1781634092 9.273863302e-39
-0.03742889315 -0.03545385599 -0.02986522764 9.273863302e-39
0.478577584 -0.2471332848 0.1151127443 9.273863302e-39
0.01343970001 -0.06154452264 -0.08219344169 9.457532893e-39
0.2231219709 -0.1020671278 0.03633464873 9.457532893e-39
0.4827746153 -0.2885393202 0.09135656804 9.457532893e-39
0.4987919331 -0.06892423332 0.1667841673 9.457532893e-39
0.4166482389 -0.083074525 0.3813948035 9.457532893e-39
0.03683463857 -0.05079139769 -0.0861383602 9.457532893e-39
0.1270425469 -0.1267256588 0.04796168953 9.457532893e-39
0.0794852376 -0.08662836254 -0.06925678998 9.457532893e-39
-0.03931431472 -0.1511958688 0.1634551287 9.641561216e-39
-0.04781740904 -0.04691199958 -0.01547535509 9.641561216e-39
0.4659001529 -0.3499133587 0.4520526528 9.641561216e-39
0.5002783537 -0.06571938097 0.2102248669 9.641561216e-39
0.08939132094 -0.1275968105 0.03938533366 9.641561216e-39
0.1739855707 -0.03272689879 -0.03229282051 9.641561216e-39
0.4412009716 -0.02171219885 0.126002118 9.641561216e-39
0.4627164006 -0.3300662339 0.4365207553 9.641561216e-39
0.4458421767 -0.3080211282 0.3991647363 9.825230807e-39
0.443310976 -0.1249406487 0.1611550599 9.825230807e-39
0.08862388879 -0.06599320471 -0.08572296053 9.825230807e-39
0.4033132792 -0.03496523201 0.07606141269 9.825230807e-39
0.493812263 -0.3448757529 0.1813928187 9.825230807e-39
-0.2861166894 -0.4918853939 0.2607333958 9.825230807e-39
0.3640224338 -0.1115337163 0.09640908241 9.825230807e-39
-0.2956423461 -0.393705368 0.3268516958 9.825230807e-39
0.4786958694 -0.2409423143 0.1357949674 1.000925913e-38
0.4727442265 -0.1338158101 0.2389411628 1.000925913e-38
-0.02829027176 -0.01481871307 -0.04633138329 1.000925913e-38
-0.02699194849 -0.150407806 0.1625208259 1.000925913e-38
-0.08449950814 -0.1633063704 0.2354678214 1.000925913e-38
0.4309045076 -0.09295652807 0.3939161301 1.000925913e-38
0.4710817337 -0.04446229339 0.173803091 1.000925913e-38
0.4207269847 -0.1306714863 0.3369564414 1.000925913e-38
0.4797091484 -0.2625012398 0.09650687128 1.019292872e-38
-0.316950202 -0.3426361084 0.2718874812 1.019292872e-38
0.1147201657 -0.1275137216 0.04889599234 1.019292872e-38
0.3903068304 -0.03426025808 0.06561648101 1.019292872e-38
-0.3046278059 -0.3418480456 0.2709531784 1.019292872e-38
0.4918783605 -0.3342056572 0.1679372489 1.019292872e-38
0.4697681963 -0.2878343165 0.0809115693 1.019292872e-38
0.4183456004 -0.1061264873 0.3534860015 1.019292872e-38
0.4734282494 -0.1353088468 0.2503204048 1.037659831e-38
0.4708675444 -0.1658142805 0.1740044355 1.037659831e-38
0.05379228666 -0.1329471022 0.06494674087 1.037659831e-38
-0.112446323 -0.1512263566 0.2011224031 1.037659831e-38
0.4178980887 -0.09225154668 0.3834711313 1.037659831e-38
0.4646503031 -0.3407363296 0.4499763846 1.037659831e-38
-0.3026939034 -0.3525181413 0.2844087183 1.037659831e-38
0.4465262294 -0.3095141947 0.4105439782 1.037659831e-38
0.05484045669 -0.08820448816 -0.06738818437 1.056062664e-38
0.4509598315 -0.3385382891 0.428152144 1.056062664e-38
0.4597377181 -0.1331108361 0.2284962237 1.056062664e-38
0.4446790814 -0.1279267222 0.1839135289 1.056062664e-38
-0.3007600009 -0.3631882071 0.2978642583 1.056062664e-38
0.4992394447 -0.08279918134 0.1367990524 1.056062664e-38
