# .PCD v0.7 - Point Cloud Data file format
VERSION 0.7
FIELDS x y z rgb
SIZE 4 4 4 4
TYPE F F F F
COUNT 1 1 1 1
WIDTH 837
HEIGHT 1
VIEWPOINT 0 0 0 1 0 0 0
POINTS 837
DATA ascii
-0.10017775 -0.3521864712 -0.2900196016 7.829687907e-39
0.07492683083 -0.2281166017 -0.449976176 7.829687907e-39
-0.1284034401 -0.4017359316 0.4011796713 7.829687907e-39
0.4089868367 -0.2098044902 -0.4524101615 7.829687907e-39
0.05096982419 -0.2311915606 -0.4367308021 7.829687907e-39
0.08724857122 -0.2273275256 -0.4509092569 7.647093112e-39
0.1891845316 -0.7773771286 0.2456034422 7.647093112e-39
0.3227346838 -0.2153281868 -0.4458787739 7.647093112e-39
-0.009999455884 -0.3524461091 0.3466714323 7.647093112e-39
0.3473781347 -0.213749975 -0.4477448761 7.647093112e-39
0.2376090288 -0.2362154722 -0.4579631388 7.647093112e-39
0.2252873033 -0.2370045483 -0.4570300877 7.647093112e-39
-0.1344136 -0.4499182403 0.3548904955 7.647093112e-39
-0.1414723396 -0.4087137282 0.3124670386 7.464498317e-39
-0.03670248389 -0.3495340347 0.3143996596 7.464498317e-39
0.4341935515 -0.2159080952 -0.4635841846 7.464498317e-39
-0.1467104256 -0.2779243886 0.3401135504 7.464498317e-39
0.05165633559 -0.2326883376 -0.4253514707 7.464498317e-39
-0.1345898807 -0.3573435843 0.3332433999 7.464498317e-39
0.2132120132 -0.2254235744 -0.4147226512 7.464498317e-39
0.01400463842 -0.2335588634 -0.4339316189 7.464498317e-39
0.2987776697 -0.2184031308 -0.4326333702 7.281903522e-39
0.2501772046 -0.2230562866 -0.4175218344 7.281903522e-39
0.4350033104 -0.2112198174 -0.4315176904 7.281903522e-39
0.3234211802 -0.2168249339 -0.4344994724 7.281903522e-39
-0.1099463999 -0.3557653725 0.3313772976 7.281903522e-39
0.3727080822 -0.2136685401 -0.4382317066 7.281903522e-39
0.3603863716 -0.2144576311 -0.4372986555 7.281903522e-39
-0.01068596914 -0.350949347 0.3352921605 7.281903522e-39
-0.1155963913 -0.4826518595 0.4056888223 7.099307325e-39
0.03581457585 -0.3972761631 -0.4080256522 7.099307325e-39
0.02833878621 -0.3530723453 0.3666308224 7.099307325e-39
0.009128496982 -0.7719601393 0.1334939897 7.099307325e-39
0.01456792839 -0.2412406802 -0.4432394803 7.099307325e-39
0.1755602509 -0.2262941152 -0.4233027697 7.099307325e-39
0.03706437349 -0.4064546824 -0.4059542418 7.099307325e-39
-0.03738899902 -0.3480372727 0.3030203879 7.099307325e-39
0.04746674001 -0.7725863457 0.1534534395 6.91671253e-39
0.113265045 -0.2287428379 -0.4300167859 6.91671253e-39
0.3238612413 -0.2306917608 -0.4644945562 6.91671253e-39
0.1885685027 -0.2270017713 -0.4128565192 6.91671253e-39
0.08862159401 -0.2303210497 -0.4281506538 6.91671253e-39
0.2268362194 -0.7765066028 0.2541835308 6.91671253e-39
0.3117859066 -0.2191108018 -0.4221871197 6.91671253e-39
0.226220265 -0.2261312455 -0.4042764306 6.91671253e-39
0.3241077065 -0.2183216959 -0.4231201708 6.734117735e-39
0.0214502234 -0.7711710334 0.1325609386 6.734117735e-39
0.3610728979 -0.2159543931 -0.425919354 6.734117735e-39
0.06466458738 -0.2333959937 -0.4149052501 6.734117735e-39
0.2635023296 -0.2438158393 -0.4577578604 6.734117735e-39
0.1385950744 -0.2286614031 -0.4205036163 6.734117735e-39
0.2015768141 -0.2277094275 -0.4024102986 6.734117735e-39
0.001635789871 -0.3501602411 0.3343591094 6.734117735e-39
-0.05316672474 -0.7744088173 0.1267800033 6.55152294e-39
0.02769939788 -0.2357632816 -0.4121060967 6.55152294e-39
0.07698637247 -0.2326068878 -0.415838331 6.55152294e-39
0.08137516677 -0.3774516284 0.3691127896 6.55152294e-39
-0.1421588659 -0.4072169662 0.3010877669 6.55152294e-39
-0.04084499553 -0.773619771 0.1258469522 6.55152294e-39
-0.1460678875 -0.1977291703 -0.3233673275 6.55152294e-39
0.4541904032 -0.3627650142 -0.4304417372 6.55152294e-39
0.1139515564 -0.2302395999 -0.4186374843 6.368926744e-39
-0.1162488833 -0.3254399002 -0.2953007519 6.368926744e-39
0.3001506925 -0.2213966548 -0.4098747671 6.368926744e-39
-0.1214243993 -0.1961509585 -0.3252334595 6.368926744e-39
0.151356861 -0.2417391539 -0.4514317214 6.368926744e-39
0.3245477676 -0.2321885228 -0.4531152546 6.368926744e-39
0.1016298383 -0.2310286909 -0.4177044332 6.368926744e-39
-0.04608454555 -0.3825470507 0.2894804776 6.368926744e-39
0.361512959 -0.2298212349 -0.4559144378 6.186331949e-39
0.324794203 -0.219818458 -0.4117408991 6.186331949e-39
0.3738346696 -0.229032144 -0.4568474889 6.186331949e-39
0.349437654 -0.2182402611 -0.4136070013 6.186331949e-39
0.1766868234 -0.2416577041 -0.4419185519 6.186331949e-39
-0.1346433461 -0.372910887 -0.2830776274 6.186331949e-39
-0.05840627104 -0.3833361566 0.2904135287 6.186331949e-39
0.04066051543 -0.3522832394 0.3656977713 6.186331949e-39
-0.1396592557 -0.4255740643 0.3052305579 6.003737154e-39
-0.1660991311 -0.3209145069 -0.2822605968 6.003737154e-39
-0.1310869157 -0.3972493112 0.2980833054 6.003737154e-39
-0.07504072785 -0.3489077985 0.2944402695 6.003737154e-39
0.2641888559 -0.2453125864 -0.4463785589 6.003737154e-39
0.1643650979 -0.24244681 -0.4409855008 6.003737154e-39
0.1678315401 -0.6755159497 -0.5186752677 6.003737154e-39
0.05346943438 -0.2495486885 -0.4325879812 6.003737154e-39
0.07742644101 -0.2464737296 -0.445833385 5.820783626e-39
0.07767288387 -0.2341036499 -0.4044589996 5.820783626e-39
0.1801532656 -0.6747268438 -0.5196083188 5.820783626e-39
-0.1425209492 -0.3193269074 0.3163327277 5.820783626e-39
0.2171185166 -0.6723595858 -0.5224075317 5.820783626e-39
0.05978846923 -0.7717972398 0.1525203884 5.820783626e-39
-0.1817832887 -0.2092750371 -0.3184967637 5.820783626e-39
-0.1101928502 -0.3681354225 0.2900029719 5.820783626e-39
0.1143916175 -0.2441064417 -0.4486325681 5.63818743e-39
0.3374327421 -0.2390812337 -0.4633561969 5.63818743e-39
0.1023163497 -0.232525453 -0.4063251317 5.63818743e-39
-0.1477213651 -0.3628209233 0.3021100163 5.63818743e-39
0.3497544825 -0.2382921576 -0.464289248 5.63818743e-39
-0.1225145757 -0.3689245284 0.290936023 5.63818743e-39
0.0665538311 -0.3598836064 0.3659030497 5.63818743e-39
0.02696575969 -0.3500788212 0.3438722789 5.63818743e-39
-0.10769324 -0.3864925504 0.2941457629 5.455592635e-39
0.06603761017 -0.2363895178 -0.3921466768 5.455592635e-39
0.4460050464 -0.306196928 -0.4542494416 5.455592635e-39
0.2008197457 -0.7750912905 0.2332910299 5.455592635e-39
-0.01161893643 -0.3618226349 0.2825385034 5.455592635e-39
0.1276463121 -0.232444033 -0.3968119621 5.455592635e-39
-0.1437707543 -0.3101483583 0.3142613173 5.455592635e-39
0.1526066661 -0.2509177029 -0.4493603408 5.455592635e-39
0.1150781289 -0.2456031889 -0.4372532666 5.272997839e-39
-0.1064434424 -0.3956710994 0.2962171733 5.272997839e-39
0.04609370977 -0.7695928216 0.1306948066 5.272997839e-39
-0.118748486 -0.3070827723 -0.299443543 5.272997839e-39
0.06635445356 -0.2564414144 -0.4428289235 5.272997839e-39
0.03997399658 -0.3507864773 0.3543184996 5.272997839e-39
0.1030028611 -0.234022215 -0.3949458301 5.272997839e-39
0.007068957202 -0.7674698234 0.09935614467 5.272997839e-39
0.1027564034 -0.2463922948 -0.4363202155 5.090401643e-39
-0.1446417868 -0.299482435 -0.2996488512 5.090401643e-39
-0.0682284236 -0.4024823606 0.2954894006 5.090401643e-39
-0.00525280647 -0.7682589293 0.1002891958 5.090401643e-39
0.4324335456 -0.2978074551 -0.4553877711 5.090401643e-39
-0.1237643808 -0.3597459793 0.2888646126 5.090401643e-39
-0.1168121696 -0.3177581131 -0.285992831 5.090401643e-39
-0.106426768 -0.3062936664 -0.3003766239 5.090401643e-39
-0.1360861361 -0.3605350852 0.2897976935 4.907806848e-39
0.4491911829 -0.326050818 -0.438727349 4.907806848e-39
0.09244708717 -0.3674839437 0.3661083281 4.907806848e-39
-0.02989629284 -0.769837141 0.1021553278 4.907806848e-39
-0.1530908644 -0.3216221631 -0.2718143761 4.907806848e-39
-0.009119329974 -0.3801797628 0.2866813242 4.907806848e-39
0.1322393417 -0.6808767319 -0.4931175113 4.907806848e-39
-0.09287191927 -0.4040605724 0.2973555326 4.907806848e-39
-0.04221802205 -0.7706261873 0.1030883789 4.725212053e-39
0.1532931775 -0.252414465 -0.4379810393 4.725212053e-39
0.0007028244436 -0.361033529 0.2816054523 4.725212053e-39
-0.01562153548 -0.690345943 -0.4819208086 4.725212053e-39
-0.07930035144 -0.4124500155 0.2984938622 4.725212053e-39
0.03928748518 -0.3492897153 0.342939198 4.725212053e-39
0.03297892213 -0.6856927872 -0.4970323145 4.725212053e-39
0.4372564256 -0.2419470251 -0.4687492549 4.725212053e-39
0.1945345402 -0.6784280539 -0.4864034951 4.542257124e-39
0.01831733622 -0.2687763572 -0.4370252788 4.542257124e-39
-0.1003707275 -0.3489892185 0.2849270999 4.542257124e-39
0.1822128147 -0.6792171001 -0.485470444 4.542257124e-39
0.448627919 -0.3183689713 -0.4294194281 4.542257124e-39
0.1971425414 -0.5194897056 0.3635829091 4.542257124e-39
-0.1199982911 -0.2979042232 -0.3015149534 4.542257124e-39
-0.09699162841 -0.3720403612 -0.2744974792 4.542257124e-39
0.1452476382 -0.6815844178 -0.4826712608 4.359662329e-39
0.128649652 -0.2539926767 -0.4361149371 4.359662329e-39
0.05229578912 -0.3499973714 0.3533854187 4.359662329e-39
0.1329258382 -0.6823735237 -0.4817382097 4.359662329e-39
-0.112692453 -0.3497783244 0.2858601511 4.359662329e-39
-0.1260877103 -0.4339635372 0.3063689172 4.359662329e-39
0.06994411349 -0.6833255291 -0.4998314977 4.359662329e-39
0.09812670946 -0.7724235058 0.1724797487 4.359662329e-39
-0.1579138041 -0.3774825931 -0.2584529221 4.177066133e-39
-0.02876360342 -0.4184722006 0.2968330383 4.177066133e-39
-0.1020248309 -0.4910413027 0.4068271518 4.177066133e-39
0.410289675 -0.3177427649 -0.4493788481 4.177066133e-39
0.06528095156 -0.3398374915 -0.4232532382 4.177066133e-39
0.4311837554 -0.2886288762 -0.4574591815 4.177066133e-39
0.4232979417 -0.3184504211 -0.4389326274 4.177066133e-39
-0.00593931973 -0.7667621374 0.08890992403 4.177066133e-39
0.09596065432 -0.6847407818 -0.4789390266 3.994471337e-39
0.1582558751 -0.6822921038 -0.4722250402 3.994471337e-39
0.1828993261 -0.680713892 -0.4740911424 3.994471337e-39
0.09168448299 -0.2563599646 -0.4333157539 3.994471337e-39
0.4097263813 -0.3100609779 -0.4400709867 3.994471337e-39
0.4385062456 -0.2511255741 -0.4666778445 3.994471337e-39
0.1459341496 -0.6830811501 -0.4712919593 3.994471337e-39
0.07063062489 -0.6848222613 -0.4884522259 3.994471337e-39
0.4493144155 -0.3198657632 -0.4180401564 3.81151781e-39
-0.04290453717 -0.7691294551 0.09170910716 3.81151781e-39
0.114567928 -0.3366811275 -0.4269854724 3.81151781e-39
-0.1798469722 -0.2199503481 -0.3050460517 3.81151781e-39
0.3974046707 -0.3108500838 -0.4391379356 3.81151781e-39
0.05830889568 -0.6856113672 -0.4875191748 3.81151781e-39
0.02490621805 -0.3455885351 0.3097343743 3.81151781e-39
0.09664716572 -0.6862375736 -0.4675597548 3.81151781e-39
0.05160927773 -0.3485006094 0.3420061469 3.628921614e-39
0.2438215166 -0.6752716303 -0.4901357293 3.628921614e-39
0.4299339354 -0.279450357 -0.459530592 3.628921614e-39
0.2917354703 -0.6691217422 -0.5166265368 3.628921614e-39
0.3986544907 -0.3200286031 -0.4370665252 3.628921614e-39
0.3156924248 -0.6660467386 -0.5298719406 3.628921614e-39
0.1589423865 -0.683788836 -0.4608457386 3.628921614e-39
0.0782891959 -0.3405451775 -0.4128070176 3.628921614e-39
0.171264112 -0.6829997301 -0.4617788196 3.446326818e-39
0.3486809731 -0.3216882348 -0.4447135627 3.446326818e-39
0.04667368159 -0.6878972054 -0.4752067924 3.446326818e-39
0.4572533071 -0.3888038993 -0.4356068075 3.446326818e-39
-0.05215725675 -0.4292289317 0.300770551 3.446326818e-39
0.1325984597 -0.384970516 0.3788312376 3.446326818e-39
0.01552415639 -0.3786015511 0.2848151922 3.446326818e-39
0.1219771355 -0.6861561537 -0.4580465853 3.446326818e-39
0.06461751461 -0.3492082953 0.3524523675 3.26337189e-39
0.3040572405 -0.6683326364 -0.517559588 3.26337189e-39
0.1096554101 -0.6869452 -0.4571135044 3.26337189e-39
0.09733368456 -0.6877343655 -0.4561804533 3.26337189e-39
-0.1546401978 -0.2260539532 -0.3162200749 3.26337189e-39
0.3604394197 -0.3132173419 -0.4363387525 3.26337189e-39
-0.1487699747 -0.2734341323 0.3059757054 3.26337189e-39
0.02555215172 -0.265188843 -0.2611708343 3.26337189e-39
0.03503846377 -0.6901830435 -0.4628944397 3.080777095e-39
0.1842723489 -0.6837074161 -0.4513325691 3.080777095e-39
-0.1607129276 -0.2727358341 -0.3049300015 3.080777095e-39
0.3163789511 -0.6675435305 -0.5184926987 3.080777095e-39
0.2684650421 -0.6736934185 -0.4920018315 3.080777095e-39
0.07762575895 -0.3499159515 0.3628985882 3.080777095e-39
-0.04359105229 -0.7676327229 0.08032974601 3.080777095e-39
0.387019217 -0.3223145008 -0.4247541428 3.080777095e-39
0.1275761575 -0.3373887539 -0.4165392518 2.898180898e-39
0.1103419214 -0.6884419918 -0.4457342029 2.898180898e-39
0.3247239888 -0.3247632086 -0.431468159 2.898180898e-39
0.1617949456 -0.7729682922 0.201952368 2.898180898e-39
0.2384718359 -0.3302868903 -0.4249367714 2.898180898e-39
0.2328728139 -0.6790542603 -0.4664441049 2.898180898e-39
-0.1545169652 -0.2198688984 -0.2955328822 2.898180898e-39
-0.1767840683 -0.2459892631 -0.3102111518 2.898180898e-39
0.04334765673 -0.7636057734 0.08517768979 2.715227371e-39
0.01677396148 -0.3877801299 0.2868866026 2.715227371e-39
0.09129748493 -0.3412528038 -0.4023607671 2.715227371e-39
0.1016829088 -0.3297884166 -0.4167445302 2.715227371e-39
-0.01287547871 -0.6963329911 -0.4364036322 2.715227371e-39
-0.1657121181 -0.2360216081 -0.3132156134 2.715227371e-39
0.03572497889 -0.6916798353 -0.451515168 2.715227371e-39
-0.1270743906 -0.3230375051 -0.250921905 2.715227371e-39
0.2015065849 -0.3326541781 -0.4221375883 2.532632576e-39
0.1170906201 -0.3659057617 0.3642422259 2.532632576e-39
0.06393100321 -0.3477115333 0.3410730958 2.532632576e-39
0.0278458856 -0.377812475 0.2838821411 2.532632576e-39
-0.1566640139 -0.3866611421 -0.2563815117 2.532632576e-39
0.02353319153 -0.342595011 0.286975801 2.532632576e-39
0.06540416926 -0.3336524963 -0.4025660455 2.532632576e-39
0.3488042057 -0.3155032396 -0.42402637 2.532632576e-39
0.3500540257 -0.3246817589 -0.4219549894 2.349677647e-39
0.1036192253 -0.3404637277 -0.4032938182 2.349677647e-39
-0.1024309024 -0.3214592934 -0.2527880073 2.349677647e-39
0.1110284328 -0.6899387836 -0.4343549311 2.349677647e-39
0.09870670736 -0.6907278299 -0.43342188 2.349677647e-39
0.3377323151 -0.3254708648 -0.4210219085 2.349677647e-39
0.2372220159 -0.3211083412 -0.427008152 2.349677647e-39
-0.1321437508 -0.3912680149 -0.2789348066 2.349677647e-39
-0.1451437771 -0.3071548343 0.2915026844 2.167082852e-39
0.0673404932 -0.3443278074 -0.3891153634 2.167082852e-39
0.05023624748 -0.3455070853 0.3192475438 2.167082852e-39
0.3254105151 -0.3262599707 -0.4200888574 2.167082852e-39
0.07693924755 -0.3484191895 0.3515193164 2.167082852e-39
0.3618124425 -0.316210866 -0.4135801494 2.167082852e-39
0.09012378752 -0.4417015314 0.3836126328 2.167082852e-39
0.439052254 -0.3251451254 -0.3829692304 2.167082852e-39
0.4124724269 -0.3160480261 -0.3945538104 1.984127923e-39
0.02400306426 -0.3069873452 -0.4173603952 1.984127923e-39
0.4372391701 -0.3082847595 -0.3757327199 1.984127923e-39
-0.1410686672 -0.2344433963 -0.3150817156 1.984127923e-39
0.1363584101 -0.6898573637 -0.4248417318 1.984127923e-39
0.3494907022 -0.3169999719 -0.4126470983 1.984127923e-39
0.014480168 -0.275156498 -0.2581663728 1.984127923e-39
-0.01519204304 -0.4268616438 0.2979713678 1.984127923e-39
-0.1168652475 -0.2189983726 -0.286952734 1.801533128e-39
0.07406319678 -0.6923060417 -0.431555748 1.801533128e-39
-0.1415087283 -0.2205765843 -0.2850866318 1.801533128e-39
-0.1164251864 -0.2328652143 -0.3169478476 1.801533128e-39
0.09198400378 -0.3427495956 -0.3909814954 1.801533128e-39
0.1879350543 -0.324264735 -0.4232759476 1.801533128e-39
-0.101744391 -0.3229560554 -0.2414087504 1.801533128e-39
0.02477625012 -0.6954624653 -0.4278235435 1.801533128e-39
0.1146911457 -0.3304960728 -0.4062982798 1.618578199e-39
0.2021930963 -0.33415097 -0.4107582867 1.618578199e-39
0.06324448436 -0.3462147713 0.3296938241 1.618578199e-39
-0.1318973005 -0.3788979352 -0.2375604659 1.618578199e-39
0.4397387803 -0.3266419172 -0.3715899289 1.618578199e-39
0.1043057442 -0.3419604897 -0.3919145465 1.618578199e-39
-0.148206681 -0.2811159194 0.2966677547 1.618578199e-39
-0.1619800627 -0.3298950791 -0.2139848769 1.618578199e-39
0.0680270046 -0.3458245397 -0.3777360618 1.435982003e-39
0.3878289163 -0.3176262379 -0.3926876783 1.435982003e-39
-0.139818877 -0.2436219454 -0.3130103052 1.435982003e-39
0.07841242105 -0.3343601227 -0.3921198249 1.435982003e-39
0.2937949896 -0.6736119986 -0.482488662 1.435982003e-39
0.01749022491 -0.3398023844 -0.376075238 1.435982003e-39
0.1493667215 -0.69056499 -0.4143955112 1.435982003e-39
-0.1464721859 -0.3489598334 -0.1993958205 1.435982003e-39
-0.1193291247 -0.3657387495 -0.1971191317 1.253028475e-39
0.3177519441 -0.6705370545 -0.4957340658 1.253028475e-39
-0.1274971068 -0.2428328693 -0.3139433861 1.253028475e-39
0.04941973835 -0.6938842535 -0.4296896458 1.253028475e-39
0.1124014631 -0.6929322481 -0.4115963578 1.253028475e-39
-0.1352233291 -0.4546065032 0.3228240609 1.253028475e-39
0.1740101725 -0.6889867783 -0.4162616134 1.253028475e-39
-0.1161787361 -0.2204951346 -0.2755734622 1.253028475e-39
0.1000797376 -0.6937214136 -0.4106633067 1.070432279e-39
0.3755072057 -0.318415314 -0.3917546272 1.070432279e-39
0.129412353 -0.3651166558 0.3633091748 1.070432279e-39
0.44586429 -0.241353035 -0.2701362371 1.070432279e-39
0.2632384896 -0.3225236535 -0.4061156809 1.070432279e-39
0.3656659126 -0.6643871069 -0.5222249031 1.070432279e-39
-0.1230611876 -0.2718653083 -0.2963498533 1.070432279e-39
0.05498286709 -0.7613198757 0.07286530733 1.070432279e-39
0.07543621957 -0.6952996254 -0.4087971449 8.874787512e-40
-0.05090745166 -0.4384075105 0.3028419614 8.874787512e-40
0.01927356422 -0.406137228 0.2910293937 8.874787512e-40
-0.1243283376 -0.3290245533 -0.2054047436 8.874787512e-40
-0.1470354795 -0.3412780464 -0.1900879443 8.874787512e-40
0.2152014077 -0.3348585963 -0.4003120661 8.874787512e-40
0.01817674004 -0.3412991762 -0.3646959364 8.874787512e-40
-0.1436557472 -0.3873688281 -0.2459352762 8.874787512e-40
-0.1606070399 -0.3328886032 -0.1912262887 7.045238224e-40
-0.09718524665 -0.3458034396 -0.2031280547 7.045238224e-40
0.2385950387 -0.3241018653 -0.4042495787 7.045238224e-40
0.3540306687 -0.6666730046 -0.5099125504 7.045238224e-40
0.3521135449 -0.3291720748 -0.3878171146 7.045238224e-40
0.04333642125 -0.4632150233 0.391487658 7.045238224e-40
0.02856220864 -0.3298347294 -0.3790796995 7.045238224e-40
-0.1236418262 -0.3305213153 -0.1940254718 7.045238224e-40
0.376193732 -0.319912076 -0.3803753555 5.219290273e-40
0.2651748359 -0.3331989646 -0.392664969 5.219290273e-40
0.2528531253 -0.3339880705 -0.3917319179 5.219290273e-40
0.2139515877 -0.3256800771 -0.4023834765 5.219290273e-40
0.2944815159 -0.6751087904 -0.4711093903 5.219290273e-40
0.2885685265 -0.3224422336 -0.3966025114 5.219290273e-40
-0.1599205136 -0.3343853652 -0.1798470169 5.219290273e-40
-0.1470181644 -0.2749402821 -0.2831044495 5.219290273e-40
0.3397918344 -0.3299611509 -0.3868840635 3.389740985e-40
-0.1764144003 -0.2274341583 -0.2481495887 3.389740985e-40
0.1666009575 -0.3395117521 -0.3852005303 3.389740985e-40
-0.1640926301 -0.2266450524 -0.2490826696 3.389740985e-40
0.4464275837 -0.249034822 -0.2794440985 3.389740985e-40
0.4417982996 -0.3311321735 -0.337452054 3.389740985e-40
0.2762468159 -0.3232313395 -0.3956694305 3.389740985e-40
0.1056787744 -0.3449540138 -0.3691559434 3.389740985e-40
0.0679911375 -0.7620276213 0.08331158757 1.56020571e-40
0.5251620412 -0.6526321173 -0.5457339287 1.56020571e-40
-0.1271274388 -0.2242777646 -0.251881808 1.56020571e-40
0.01886325143 -0.3427959085 -0.3533166647 1.56020571e-40
0.239281565 -0.3255986273 -0.3928702772 1.56020571e-40
0.1893080771 -0.3272582591 -0.4005173445 1.56020571e-40
0.1022692248 -0.3483377695 0.361032486 1.56020571e-40
0.390309453 -0.6628088951 -0.5240910053 1.56020571e-40
0.05776482075 -0.3511039615 -0.3426651359 6.490113838e-41
-0.1253405511 -0.4277748466 0.396014601 6.490113838e-41
0.203566134 -0.3371444941 -0.3879996836 6.490113838e-41
-0.1463489532 -0.3427748084 -0.1787086725 6.490113838e-41
0.03518090397 -0.3571724296 -0.306661129 6.490113838e-41
0.1283859015 -0.332700491 -0.3844727576 6.490113838e-41
0.4142663479 -0.6597340107 -0.5373364687 6.490113838e-41
0.3528000712 -0.330668807 -0.3764378428 6.490113838e-41
-0.1757279038 -0.2289309204 -0.236770317 2.496469266e-40
0.3138985038 -0.3223608136 -0.3870893419 2.496469266e-40
0.1426439434 -0.342586726 -0.3719551265 2.496469266e-40
0.1407076269 -0.3319114149 -0.3854058087 2.496469266e-40
0.08913103491 -0.6975040436 -0.3869716525 2.496469266e-40
0.4556162655 -0.3271515965 -0.2949393392 2.496469266e-40
0.07680924982 -0.6982930899 -0.3860385716 2.496469266e-40
0.4406717122 -0.3157685995 -0.3188362718 2.496469266e-40
-0.1217055097 -0.3411966264 -0.1805747896 4.340353837e-40
0.1530294269 -0.331122309 -0.3863388598 4.340353837e-40
0.354717195 -0.6681697369 -0.4985332489 4.340353837e-40
-0.1001249105 -0.3135794997 -0.1772757918 4.340353837e-40
0.3392285407 -0.3222793639 -0.3775761724 4.340353837e-40
0.2023163289 -0.3279659152 -0.390071094 4.340353837e-40
0.3015767634 -0.3231499195 -0.3861562908 4.340353837e-40
0.06815022975 -0.3396395445 -0.3570488989 4.340353837e-40
-0.09424557537 -0.3780274093 -0.2289803475 6.184224396e-40
0.3786741495 -0.6650947928 -0.5117786527 6.184224396e-40
0.0488756597 -0.3593768477 -0.2848356068 6.184224396e-40
0.2712110877 -0.6796804667 -0.4464846849 6.184224396e-40
0.3781300783 -0.3305873871 -0.3669246435 6.184224396e-40
-0.112446636 -0.3143686056 -0.1763427407 6.184224396e-40
0.4022102654 -0.3213273883 -0.3594828844 6.184224396e-40
0.03929998726 -0.366152972 -0.2383854091 6.184224396e-40
0.05248940736 -0.3762342632 0.2820160091 8.028094954e-40
-0.1586533785 -0.2772261202 -0.2707920969 8.028094954e-40
0.06730462611 -0.7605308294 0.07193222642 8.028094954e-40
0.289255023 -0.3239389956 -0.3852232099 8.028094954e-40
0.1899946034 -0.3287550211 -0.3891380429 8.028094954e-40
0.02023628168 -0.3457894325 -0.3305580616 8.028094954e-40
0.1630614698 -0.6927694082 -0.392569989 8.028094954e-40
-0.1550445259 -0.3772846162 -0.192248553 8.028094954e-40
0.03555057943 -0.338617295 -0.2445996106 9.871979525e-40
0.456302762 -0.3286483288 -0.2835600376 9.871979525e-40
-0.1105103195 -0.3250438869 -0.1628920585 9.871979525e-40
0.2356188744 -0.6850413084 -0.4209269285 9.871979525e-40
0.03611386567 -0.3462991118 -0.2539075017 9.871979525e-40
0.02447859012 -0.34858495 -0.241595149 9.871979525e-40
-0.009371889755 -0.7592784166 0.03201347589 9.871979525e-40
0.4431713223 -0.3341256976 -0.3146934509 9.871979525e-40
0.02229582332 -0.3502797484 -0.2964202166 1.171585008e-39
0.3191249967 -0.6735305786 -0.4729754925 1.171585008e-39
0.003565333784 -0.7045244575 -0.3690609336 1.171585008e-39
0.3158348501 -0.3330361247 -0.3736386597 1.171585008e-39
-0.1429692209 -0.3888655901 -0.2345559746 1.171585008e-39
0.1433304548 -0.344083488 -0.3605758548 1.171585008e-39
-0.1494118571 -0.3167358935 -0.1735435724 1.171585008e-39
-0.159797281 -0.3282002807 -0.1591598243 1.171585008e-39
-0.1185722202 -0.3996574581 -0.2777964771 1.355972064e-39
0.04899888486 -0.3531918228 -0.2641484141 1.355972064e-39
-0.02039160579 -0.7075994015 -0.3558155298 1.355972064e-39
0.4557394981 -0.3209665418 -0.2742521763 1.355972064e-39
0.1615546048 -0.4186098278 0.3738714755 1.355972064e-39
0.0585745573 -0.3464156687 -0.3105986714 1.355972064e-39
0.4149528742 -0.6612307429 -0.5259571075 1.355972064e-39
0.2295826674 -0.3385598063 -0.3671072423 1.355972064e-39
0.429599762 -0.3257362545 -0.3158318102 1.540360521e-39
0.01458508242 -0.756203413 0.01876801252 1.540360521e-39
0.3769624829 -0.1411449164 -0.3990153074 1.540360521e-39
0.04179958999 -0.3845100999 -0.2342425883 1.540360521e-39
-0.1373896599 -0.2295571566 -0.216810897 1.540360521e-39
0.1987601966 -0.7706009746 0.1991531849 1.540360521e-39
-0.1687395275 -0.237713486 -0.1022902131 1.540360521e-39
0.004251849838 -0.7060211897 -0.357681632 1.540360521e-39
0.4591896236 -0.39947927 -0.4221561253 1.724747577e-39
0.02197898366 -0.3302278519 -0.245737955 1.724747577e-39
-0.1086972281 -0.3419042826 -0.1701285392 1.724747577e-39
0.06257042289 -0.3615812659 -0.2630100846 1.724747577e-39
-0.09363555163 -0.7138307691 -0.3388378918 1.724747577e-39
0.05994758755 -0.3494091928 -0.2878400683 1.724747577e-39
-0.1564177573 -0.2369244099 -0.1032232791 1.724747577e-39
0.2291015685 -0.1506140977 -0.3878186345 1.724747577e-39
-0.1130099297 -0.3066867888 -0.1670348644 1.909134633e-39
0.1565554142 -0.3818955719 0.3655858636 1.909134633e-39
0.27838853 -0.1474577039 -0.3915508687 1.909134633e-39
-0.05667034537 -0.7114634514 -0.3416370749 1.909134633e-39
0.05292332917 -0.7568296194 0.03872746229 1.909134633e-39
0.09119057655 -0.7019942999 -0.3528337777 1.909134633e-39
0.1521127671 -0.6965520382 -0.3688783348 1.909134633e-39
-0.1383399367 -0.3067682385 -0.176548034 1.909134633e-39
0.115834035 -0.7004160881 -0.3546998799 2.09352309e-39
0.0405305773 -0.7021571398 -0.3718601465 2.09352309e-39
0.1281557679 -0.6996270418 -0.355632931 2.09352309e-39
0.216779843 -0.1514031887 -0.3868855536 2.09352309e-39
0.2907102704 -0.1466685981 -0.3924839199 2.09352309e-39
-0.007383365184 -0.7083070874 -0.3453693092 2.09352309e-39
-0.07166710496 -0.7617270947 0.02529941499 2.09352309e-39
0.303031981 -0.1458795071 -0.393416971 2.09352309e-39
0.242590934 -0.3392674625 -0.3566609919 2.277910146e-39
0.06654706597 -0.7035725117 -0.3509676456 2.277910146e-39
0.1544024497 -0.334115833 -0.3635803163 2.277910146e-39
-0.1775158495 -0.1766543239 -0.3570277095 2.277910146e-39
0.267234385 -0.3376892805 -0.3585271239 2.277910146e-39
0.265984565 -0.3285107017 -0.3605985045 2.277910146e-39
-0.1261050403 -0.5003013015 0.3993853927 2.277910146e-39
0.1058019921 -0.3387689888 -0.3484687507 2.277910146e-39
0.2166976482 -0.3316671252 -0.3568662703 2.462297202e-39
0.3677254319 -0.6688774228 -0.4880870283 2.462297202e-39
-0.05411092192 -0.4848913848 0.380336374 2.462297202e-39
0.06049843132 -0.3402277231 0.2841766179 2.462297202e-39
0.04121709242 -0.7036539316 -0.3604808152 2.462297202e-39
-0.1203324795 -0.3441901207 -0.1578162014 2.462297202e-39
-0.1716088057 -0.2379114926 -0.1684945524 2.462297202e-39
-0.1695492566 -0.2424017489 -0.1343566775 2.462297202e-39
0.1181237176 -0.3379799128 -0.3494018316 2.646685659e-39
0.4594888985 -0.3485022187 -0.2680379748 2.646685659e-39
0.1933039427 -0.3424238563 -0.3529287577 2.646685659e-39
0.4048331082 -0.3334994912 -0.3346528709 2.646685659e-39
0.4519181252 -0.6588634253 -0.5287562609 2.646685659e-39
-0.006696851924 -0.7098038197 -0.3339900374 2.646685659e-39
-0.1614698172 -0.2388171554 -0.224252671 2.646685659e-39
0.02958184853 -0.7059397697 -0.3481684923 2.646685659e-39
0.1304454356 -0.3371908069 -0.3503348827 2.830713982e-39
0.4765616059 -0.6572852135 -0.5306224227 2.830713982e-39
0.02622029744 -0.7539175749 0.006455674767 2.830713982e-39
-0.1904008687 -0.1697615981 -0.3467867672 2.830713982e-39
0.1920541376 -0.3332453072 -0.3550001681 2.830713982e-39
0.2842193246 -0.6803881526 -0.4360384345 2.830713982e-39
0.0925636068 -0.704987824 -0.3300751746 2.830713982e-39
0.3536098003 -0.3259805441 -0.3443713188 2.830713982e-39
0.154055804 -0.3635384738 0.3614430428 3.015101038e-39
0.4607387185 -0.3576807678 -0.2659665644 3.015101038e-39
0.08253150433 -0.3433406949 -0.3238440752 3.015101038e-39
0.4590488374 -0.3346353769 -0.2380428761 3.015101038e-39
0.3172078729 -0.3360296488 -0.3508800566 3.015101038e-39
0.1534858048 -0.6995455623 -0.3461197615 3.015101038e-39
0.3289662898 -0.3275587559 -0.3425052166 3.015101038e-39
0.1344054341 -0.7685594559 0.1583012938 3.015101038e-39
0.08721388131 -0.3600030541 -0.2648761868 3.199488094e-39
-0.1149462387 -0.2960114777 -0.1804855466 3.199488094e-39
0.2802426815 -0.3383969367 -0.3480809033 3.199488094e-39
-0.1662676185 -0.2592613399 -0.3383850753 3.199488094e-39
0.3081762791 -0.6773132086 -0.4492838383 3.199488094e-39
0.0179466363 -0.7082256079 -0.3358561397 3.199488094e-39
0.1550889611 -0.3356125951 -0.352200985 3.199488094e-39
0.4279611111 -0.6619384289 -0.5155109167 3.199488094e-39
-0.131263867 -0.2816349864 -0.2271410674 3.383517819e-39
-0.1544812322 -0.3849664032 -0.2015564591 3.383517819e-39
0.1182058901 -0.1577159762 -0.3794210851 3.383517819e-39
0.3425379097 -0.335948199 -0.3413668871 3.383517819e-39
-0.1592870355 -0.2371223867 -0.1694276035 3.383517819e-39
-0.1435855925 -0.2824240923 -0.2262080163 3.383517819e-39
0.5148998499 -0.6579114795 -0.5106630325 3.383517819e-39
-0.04178915918 -0.4841023088 0.3794033229 3.383517819e-39
0.3789397776 -0.3258991241 -0.3348581791 3.567904875e-39
-0.1142597273 -0.2975082397 -0.1691062748 3.567904875e-39
0.09897236526 -0.3515321612 -0.2565013766 3.567904875e-39
0.08527755737 -0.3493277431 -0.2783268988 3.567904875e-39
0.1418505311 -0.70183146 -0.3338074088 3.567904875e-39
-0.1395897269 -0.2975896895 -0.1786194295 3.567904875e-39
-0.03065382689 -0.7128788233 -0.3207446039 3.567904875e-39
0.3919480145 -0.3266068101 -0.3244119287 3.567904875e-39
0.3302161098 -0.3367373049 -0.3404338062 3.75229193e-39
0.4055196345 -0.3349962234 -0.3232735991 3.75229193e-39
0.453239888 -0.3026094437 -0.2783949971 3.75229193e-39
-0.0799407661 -0.7160351872 -0.3170123696 3.75229193e-39
0.1112940982 -0.3507430553 -0.2574344277 3.75229193e-39
0.4402828217 -0.661149323 -0.5164439678 3.75229193e-39
0.1302153021 -0.7041172981 -0.3214950562 3.75229193e-39
0.3419745862 -0.328266412 -0.332058996 3.75229193e-39
0.3178943992 -0.337526381 -0.3395007551 3.936320254e-39
0.1804189235 -0.3355311751 -0.3426878154 3.936320254e-39
0.4772480726 -0.6587820053 -0.5192431211 3.936320254e-39
0.168097198 -0.336320281 -0.3417547643 3.936320254e-39
0.07588306069 -0.3654775321 0.2780784965 3.936320254e-39
0.1425370425 -0.7033281922 -0.3224281371 3.936320254e-39
-0.06003186107 -0.7594412565 0.01298707724 3.936320254e-39
0.4460700154 -0.1922707558 -0.3912521899 3.936320254e-39
-0.1389032304 -0.2990864217 -0.1672401577 4.120708711e-39
0.2439639568 -0.3422609866 -0.3339024186 4.120708711e-39
0.1434536725 -0.337898463 -0.3398886621 4.120708711e-39
0.05981191993 -0.3387309611 0.2727973461 4.120708711e-39
-0.1325309873 -0.3387941718 -0.1361959428 4.120708711e-39
0.1071750149 -0.3417625129 -0.3257101774 4.120708711e-39
0.00699790474 -0.7120082378 -0.3121644855 4.120708711e-39
0.2803658843 -0.3322119117 -0.3273937106 4.120708711e-39
-0.07715921104 -0.7497529984 -0.06573487818 4.304737034e-39
-0.1312110275 -0.2430279851 -0.1143972576 4.304737034e-39
0.1701269448 -0.3902850449 0.3667241931 4.304737034e-39
0.406206131 -0.3364930153 -0.3118942976 4.304737034e-39
0.4046906829 -0.6665101051 -0.4908862114 4.304737034e-39
0.0008903294802 -0.7539989948 -0.003057479858 4.304737034e-39
-0.04228903726 -0.7151646614 -0.3084322512 4.304737034e-39
0.4659843743 -0.3820249438 -0.2163065821 4.304737034e-39
-0.1436029077 -0.3487618566 -0.1331914812 4.48912409e-39
0.4116043746 -0.2129951715 -0.3843102157 4.48912409e-39
-0.06071837246 -0.7579444647 0.00160780549 4.48912409e-39
-0.1453986764 -0.2655637264 -0.2189715058 4.48912409e-39
0.1687837094 -0.3378170133 -0.3303754628 4.48912409e-39
0.1036953256 -0.4500909746 0.3847509623 4.48912409e-39
-0.1577204168 -0.2663528323 -0.2180384547 4.48912409e-39
0.2200070173 -0.3453359604 -0.3206570148 4.48912409e-39
-0.1355765611 -0.2464174926 -0.2240473777 4.673152414e-39
0.1194967404 -0.3409734368 -0.3266432285 4.673152414e-39
-0.1038743183 -0.2860438228 -0.1834900081 4.673152414e-39
-0.1292043328 -0.2861252725 -0.1930031925 4.673152414e-39
-0.1700421572 -0.2671419084 -0.2171053886 4.673152414e-39
0.3808761239 -0.3365744352 -0.3214074969 4.673152414e-39
0.139410764 -0.4385451376 0.3798803985 4.673152414e-39
0.2364118844 -0.7697304487 0.2077333033 4.673152414e-39
-0.09287254512 -0.3810209334 -0.2062217593 4.857539469e-39
-0.1415260434 -0.2869143784 -0.1920701414 4.857539469e-39
-0.1428739429 -0.2485045791 -0.342322588 4.857539469e-39
-0.1109330729 -0.2448393106 -0.2259134948 4.857539469e-39
-0.1441662014 -0.3410800397 -0.123883605 4.857539469e-39
0.1344413012 -0.3523563743 -0.3027463257 4.857539469e-39
-0.0655239746 -0.7474671602 -0.07804721594 4.857539469e-39
0.2434006333 -0.3345791996 -0.3245945275 4.857539469e-39
0.2810524106 -0.3337086737 -0.3160144091 5.041567793e-39
0.3549828231 -0.3289740682 -0.3216127753 5.041567793e-39
0.0378555432 -0.7516317368 -0.005856662989 5.041567793e-39
-0.158970207 -0.2571742535 -0.2201098651 5.041567793e-39
-0.1202622876 -0.2392453551 -0.1380889118 5.041567793e-39
-0.004637308419 -0.7142941356 -0.2998521328 5.041567793e-39
0.3187040985 -0.3328381181 -0.3074342906 5.041567793e-39
0.1201832667 -0.3424701691 -0.3152639568 5.041567793e-39
0.2823022306 -0.3428872228 -0.3139430285 5.225597518e-39
-0.1031878069 -0.2875405848 -0.1721107215 5.225597518e-39
0.4448201954 -0.1830922216 -0.3933236003 5.225597518e-39
-0.01695903391 -0.7150832415 -0.2989190817 5.225597518e-39
-0.1661695242 -0.2884925604 -0.1902040243 5.225597518e-39
-0.02928079665 -0.7158722878 -0.2979860008 5.225597518e-39
0.2687306106 -0.3344977498 -0.315081358 5.225597518e-39
0.4684839547 -0.4003820419 -0.2121637762 5.225597518e-39
0.4435410202 -0.3155705929 -0.2526319325 5.409984573e-39
0.3315891325 -0.339730829 -0.3176752329 5.409984573e-39
-0.06346443295 -0.7519574165 -0.0439093858 5.409984573e-39
0.1941136867 -0.3377355933 -0.3208622932 5.409984573e-39
0.1707200408 -0.3484923244 -0.3169247806 5.409984573e-39
0.3685543835 -0.3373635411 -0.3204744458 5.409984573e-39
0.01252554171 -0.7517131567 -0.01536983252 5.409984573e-39
0.3567767739 -0.6726600528 -0.4643953741 5.409984573e-39
0.3933210373 -0.3296003044 -0.3016533554 5.594012897e-39
-0.131844461 -0.3402909338 -0.124816671 5.594012897e-39
0.1468862444 -0.3453822732 -0.2829921842 5.594012897e-39
-0.115730837 -0.2652834952 -0.3400458992 5.594012897e-39
0.05659720674 -0.161661461 -0.3747557998 5.594012897e-39
-0.04160252213 -0.7166614532 -0.2970529497 5.594012897e-39
0.0442754738 -0.1624505669 -0.3738227487 5.594012897e-39
-0.1419658661 -0.4104142189 -0.2738589346 5.594012897e-39
-0.1025012881 -0.2890373468 -0.1607314199 5.77804122e-39
0.4068926573 -0.3379897475 -0.3005149961 5.77804122e-39
-0.1171569526 -0.1635302603 -0.3637644053 5.77804122e-39
0.3992826343 -0.2137842774 -0.3833771646 5.77804122e-39
0.08651491255 -0.3416430354 0.3050690889 5.77804122e-39
0.1481360495 -0.3545607924 -0.2809208035 5.77804122e-39
0.1694702357 -0.3393138051 -0.318996191 5.77804122e-39
0.1474495381 -0.3530640602 -0.2923000753 5.77804122e-39
0.1467630267 -0.3515672982 -0.3036793768 5.962428276e-39
0.1076313928 -0.7101857662 -0.2854910791 5.962428276e-39
0.1448267102 -0.3408919871 -0.317130059 5.962428276e-39
0.3076321781 -0.3428058028 -0.3044298291 5.962428276e-39
0.2855923772 -0.6833816767 -0.413279891 5.962428276e-39
0.343347609 -0.3312599361 -0.3093004227 5.962428276e-39
0.07135266066 -0.7140498161 -0.2713125944 5.962428276e-39
0.1598945558 -0.3460899293 -0.2725459337 5.962428276e-39
0.3869609237 -0.2145733535 -0.3824440837 6.1464566e-39
-0.1558014303 -0.3433659077 -0.1115712374 6.1464566e-39
0.152805984 -0.3543599248 0.3593716621 6.1464566e-39
0.2330152392 -0.3460436165 -0.3102107942 6.1464566e-39
-0.05457527936 -0.7436845303 -0.1017388999 6.1464566e-39
0.1592080444 -0.3445931673 -0.2839252353 6.1464566e-39
0.1590848267 -0.3507781923 -0.3046124578 6.1464566e-39
-0.1297676116 -0.2784434557 -0.1836953014 6.1464566e-39
0.2144079804 -0.6941033006 -0.3621643484 6.330484923e-39
0.1751261353 -0.4269992709 0.375009805 6.330484923e-39
-0.05554825068 -0.1595847756 -0.3684296906 6.330484923e-39
0.0371690318 -0.7501349449 -0.01723594964 6.330484923e-39
0.05623881519 -0.4037699401 0.2882302403 6.330484923e-39
-0.153918162 -0.255281508 -0.09908045828 6.330484923e-39
0.1618308723 -0.3567652106 -0.2590952516 6.330484923e-39
-0.128228873 -0.1734979302 -0.3607599437 6.330484923e-39
-0.1034091115 -0.2644943893 -0.3409789503 6.514514648e-39
0.450476557 -0.3629601598 -0.2308956087 6.514514648e-39
0.08436090499 -0.7147574425 -0.2608663738 6.514514648e-39
0.4536626637 -0.3828140199 -0.2153735161 6.514514648e-39
-0.1011282653 -0.2920308709 -0.1379728615 6.514514648e-39
-0.1271447837 -0.2906155586 -0.1588653028 6.514514648e-39
-0.1466400325 -0.3103463352 0.2480569184 6.514514648e-39
0.3980328143 -0.2046057284 -0.3854485452 6.514514648e-39
-0.1647965014 -0.2914860845 -0.1674454361 6.698542971e-39
0.2447736561 -0.3375727236 -0.3018359542 6.698542971e-39
0.1056428403 -0.7611570358 0.09189167619 6.698542971e-39
0.1701567471 -0.3408105373 -0.3076168895 6.698542971e-39
0.00887081027 -0.4839394391 0.3984296322 6.698542971e-39
-0.08882995695 -0.7243080735 -0.2591828406 6.698542971e-39
-0.1318020076 -0.2385369241 -0.3453270495 6.698542971e-39
0.08695498109 -0.3555098474 0.2750740349 6.698542971e-39
0.3686775863 -0.3311784863 -0.2997872233 6.882571295e-39
-0.1182729378 -0.3486804366 -0.1236783266 6.882571295e-39
-0.1004417464 -0.293527633 -0.1265935451 6.882571295e-39
0.109004423 -0.7131792307 -0.2627325058 6.882571295e-39
0.5299676657 -0.6631094217 -0.4660789073 6.882571295e-39
0.08504741639 -0.7162542343 -0.2494870722 6.882571295e-39
0.2234036475 -0.7690228224 0.1972870827 6.882571295e-39
0.08582840115 -0.3401462734 0.2936897874 6.882571295e-39
-0.04593584314 -0.2376485467 -0.06831138581 7.066599618e-39
-0.03954298049 -0.7211517096 -0.2629150748 7.066599618e-39
-0.06418647617 -0.7227298617 -0.2610489726 7.066599618e-39
0.4561622441 -0.4011711478 -0.2112307101 7.066599618e-39
-0.1634234786 -0.2944796085 -0.1446868479 7.066599618e-39
0.1838514954 -0.3430149555 -0.2857913673 7.066599618e-39
0.3335063457 -0.6772317886 -0.4397706687 7.066599618e-39
0.1851013005 -0.3521935344 -0.2837199569 7.066599618e-39
0.08820478618 -0.3646884263 0.2771454453 7.250627941e-39
-0.1127634719 -0.2943167388 -0.125660494 7.250627941e-39
-0.129274711 -0.253703326 -0.1009465754 7.250627941e-39
-0.1250852346 -0.2951058149 -0.124727428 7.250627941e-39
0.3937420249 -0.6702927351 -0.4671945572 7.250627941e-39
-0.1374069601 -0.2958949208 -0.1237943769 7.250627941e-39
0.4546641707 -0.6648504734 -0.4832391441 7.250627941e-39
0.02347424068 -0.7479305267 -0.03906150162 7.250627941e-39
0.2267297059 -0.6933141947 -0.3630973995 7.434656265e-39
0.05748861283 -0.4129484892 0.290301621 7.434656265e-39
-0.02443967015 -0.7540804148 -0.01257064939 7.434656265e-39
-0.1653597951 -0.2838042676 -0.1581375301 7.434656265e-39
-0.1562414914 -0.3294990659 -0.08157618344 7.434656265e-39
-0.04911869019 -0.727927804 -0.2164648622 7.434656265e-39
-0.0923371613 -0.2545267344 -0.3439834416 7.434656265e-39
-0.1169529483 -0.2529142201 -0.1018796414 7.434656265e-39
-0.03816995397 -0.724145174 -0.2401564866 7.618684588e-39
0.2862788439 -0.6848784685 -0.4019005895 7.618684588e-39
0.07341220975 -0.7185400724 -0.2371747345 7.618684588e-39
0.2707901597 -0.3389880657 -0.2809434533 7.618684588e-39
-0.1503727585 -0.193433255 -0.3547510207 7.618684588e-39
-0.1035853773 -0.1719197333 -0.3626260459 7.618684588e-39
-0.06212693453 -0.7272201777 -0.2269110978 7.618684588e-39
-0.1725166291 -0.213368535 -0.3487420976 7.618684588e-39
0.0001682881266 -0.72477144 -0.2201970965 7.802712912e-39
0.06177698821 -0.7208259106 -0.2248623967 7.802712912e-39
0.1685535759 -0.7047435045 -0.301535666 7.802712912e-39
-0.03676143289 -0.7548695803 -0.01163759828 7.802712912e-39
0.4287196696 -0.2980025709 -0.2558416724 7.802712912e-39
-0.04875262827 -0.3025367856 0.2292131782 7.802712912e-39
0.02206572145 -0.7172061801 -0.2675803602 7.802712912e-39
0.3241024017 -0.2093403041 -0.3798502088 7.802712912e-39
0.1330324113 -0.7655658722 0.1355427504 7.986382503e-39
-0.1269790679 -0.1826764792 -0.3586885333 7.986382503e-39
0.2883869708 -0.2208861411 -0.374979645 7.986382503e-39
-0.09463279694 -0.3255535662 -0.08624146879 7.986382503e-39
-0.04524932429 -0.2391453087 -0.05693207681 7.986382503e-39
0.2097447515 -0.3506153226 -0.2855860889 7.986382503e-39
0.03713350371 -0.7224041224 -0.2229962796 7.986382503e-39
-0.07138906419 -0.2439150214 -0.09851174057 7.986382503e-39
-0.03744794801 -0.7533727884 -0.02301687002 8.170410826e-39
-0.1509527266 -0.2751288712 0.2511506379 8.170410826e-39
0.01249001734 -0.7239823341 -0.2211301625 8.170410826e-39
0.09106030315 -0.5270969868 0.05961562693 8.170410826e-39
-0.1606774032 -0.3004666567 -0.09916967154 8.170410826e-39
-0.1277080774 -0.2829337418 -0.1495574266 8.170410826e-39
-0.04336642474 -0.2543581426 0.2065438181 8.170410826e-39
0.4568487704 -0.4026678801 -0.1998514235 8.170410826e-39
0.451069206 -0.2289850116 -0.382966578 8.35443915e-39
0.06246350333 -0.7223227024 -0.2134830803 8.35443915e-39
-0.1146997958 -0.283641398 -0.1391112059 8.35443915e-39
-0.1516650021 -0.2860086858 -0.1363120377 8.35443915e-39
-0.1016915515 -0.2843490541 -0.1286649555 8.35443915e-39
0.1220126599 -0.7138869166 -0.2522862554 8.35443915e-39
0.4604394138 -0.4086577892 -0.4200847149 8.35443915e-39
0.3117806017 -0.21012941 -0.3789171576 8.35443915e-39
-0.1328478158 -0.318742305 -0.08551369607 8.538467473e-39
0.3697850108 -0.6733677387 -0.4539491534 8.538467473e-39
-0.1205260903 -0.3179531991 -0.08644676208 8.538467473e-39
-0.05429844558 -0.1687633395 -0.3663582802 8.538467473e-39
0.04641663283 -0.4229161441 0.2933060825 8.538467473e-39
0.4930024147 -0.6654767394 -0.4632797241 8.538467473e-39
0.3635672033 -0.2253301144 -0.3785065711 8.538467473e-39
-0.02718572691 -0.7480933666 -0.05808782578 8.538467473e-39
-0.01991932467 -0.239063859 -0.04741891474 8.722137064e-39
0.2390514314 -0.6925251484 -0.3640304804 8.722137064e-39
-0.1304714382 -0.3432844579 -0.1020580828 8.722137064e-39
-0.1549916863 -0.3386776149 -0.07950477302 8.722137064e-39
-0.08333784342 -0.7362821698 -0.1681485176 8.722137064e-39
-0.1464193463 -0.3103528619 -0.08665204048 8.722137064e-39
0.3821067214 -0.6725785732 -0.4548822045 8.722137064e-39
0.4190719724 -0.6702113152 -0.4576813877 8.722137064e-39
-0.1340976208 -0.309563756 -0.08758510649 8.906165387e-39
-0.06006739289 -0.731710434 -0.1927732229 8.906165387e-39
0.4683589339 -0.6670548916 -0.4614136219 8.906165387e-39
-0.125552997 -0.284429729 -0.334970057 8.906165387e-39
0.01979194582 -0.2426836193 -0.004700912163 8.906165387e-39
-0.1453735381 -0.2301474512 -0.3464654088 8.906165387e-39
-0.0224156566 -0.7308399081 -0.1841930896 8.906165387e-39
0.3598178029 -0.1977944374 -0.3847207725 8.906165387e-39
0.01386304572 -0.7269758582 -0.1983715743 9.089834978e-39
0.1171323955 -0.2411120832 -0.3598454297 9.089834978e-39
-0.08402435482 -0.7347854376 -0.1795278043 9.089834978e-39
0.2391000092 -0.2240425348 -0.371247381 9.089834978e-39
-0.0430502221 -0.2513703406 -0.347715646 9.089834978e-39
0.4066051543 -0.1762809455 -0.3925958276 9.089834978e-39
-0.1612406969 -0.2927848399 -0.08986179531 9.089834978e-39
0.1590488851 -0.7669812441 0.1564351916 9.089834978e-39
-0.1890278459 -0.1727551222 -0.324028194 9.273863302e-39
0.0104659982 -0.7472229004 -0.04950772226 9.273863302e-39
0.493688941 -0.6669734716 -0.4519004226 9.273863302e-39
-0.01715692878 -0.2589707077 -0.3475103676 9.273863302e-39
-0.1415433586 -0.3532521427 -0.09905362129 9.273863302e-39
-0.04499960691 -0.7369084358 -0.1481890976 9.273863302e-39
0.02618480474 -0.7261867523 -0.1993046254 9.273863302e-39
0.1925105155 -0.7016685605 -0.3147810698 9.273863302e-39
-0.1637403071 -0.274427712 -0.09400460124 9.457532893e-39
-0.04705914855 -0.7324181199 -0.1823269725 9.457532893e-39
-0.06109135225 -0.2663664222 0.07217763364 9.457532893e-39
-0.02947865799 -0.2597598135 -0.3465773165 9.457532893e-39
-0.1412793696 -0.4119109809 -0.2624796331 9.457532893e-39
-0.1854016632 -0.2064758539 -0.3385011554 9.457532893e-39
0.06856054068 -0.4029808342 0.2872971594 9.457532893e-39
0.4074367285 -0.6724971533 -0.4453690052 9.457532893e-39
0.5327137113 -0.6690964699 -0.4205617309 9.641561216e-39
0.1786993146 -0.3619602621 0.3595769405 9.641561216e-39
0.2871371508 -0.211707592 -0.3770510256 9.641561216e-39
-0.0733961165 -0.3041149974 0.2310792953 9.641561216e-39
-0.182902053 -0.2248329818 -0.3343583643 9.641561216e-39
0.3942834139 -0.1770700365 -0.3916627765 9.641561216e-39
-0.1784661412 -0.253865391 -0.3167648315 9.641561216e-39
0.1118449494 -0.3415615857 0.3145822287 9.641561216e-39
-0.1047708839 -0.4850542545 0.3613099754 9.825230807e-39
-0.001855727285 -0.7480119467 -0.04857467115 9.825230807e-39
0.2574944794 -0.1765715629 -0.3834705353 9.825230807e-39
-0.1132312417 -0.2836406231 -0.3359031081 9.825230807e-39
0.26981619 -0.1757824719 -0.3844035864 9.825230807e-39
0.06452304125 -0.7268129587 -0.1793452203 9.825230807e-39
-0.08233776689 -0.2476976514 -0.07482009381 9.825230807e-39
0.05690795183 -0.4716044962 0.3926260173 9.825230807e-39
-0.1292216331 -0.3524630368 -0.0999866724 1.000925913e-38
0.2944596708 -0.174204275 -0.3862697184 1.000925913e-38
-0.03405087069 -0.7331258059 -0.1718807518 1.000925913e-38
-0.1368012279 -0.2018226981 -0.3536126614 1.000925913e-38
0.07615826279 -0.7245271206 -0.1916575581 1.000925913e-38
-0.1330518126 -0.2293583751 -0.3473984599 1.000925913e-38
-0.1174632013 -0.3439921439 -0.09161183238 1.000925913e-38
0.3314249218 -0.1718369722 -0.3890688717 1.000925913e-38
0.2992871404 -0.6855860949 -0.391454339 1.019292872e-38
0.03373645991 -0.7426511049 -0.07413239777 1.019292872e-38
-0.0463726297 -0.7339148521 -0.1709476858 1.019292872e-38
0.2753301859 -0.6886610985 -0.3782089353 1.019292872e-38
-0.05318854749 -0.2735043466 0.2116196901 1.019292872e-38
0.3832114935 -0.1870377064 -0.3886583149 1.019292872e-38
0.2624936998 -0.2132858038 -0.3751849234 1.019292872e-38
0.1958858073 -0.1805170476 -0.3788052499 1.019292872e-38
-0.02840515599 -0.1763637066 -0.3661530018 1.037659831e-38
0.0152360741 -0.7299693823 -0.1756129861 1.037659831e-38
0.5334002376 -0.6705932617 -0.4091824293 1.037659831e-38
-0.1285879612 -0.3925667703 -0.2013511807 1.037659831e-38
-0.03015394509 -0.4818164408 0.3670909703 1.037659831e-38
0.3105308115 -0.2009508312 -0.3809885383 1.037659831e-38
-0.1009095162 -0.2828515172 -0.3368361592 1.037659831e-38
-0.1255252957 -0.2812390029 -0.09473237395 1.037659831e-38
0.1931970268 -0.7031652927 -0.3034017682 1.056062664e-38
0.1699266136 -0.707736969 -0.2787770629 1.056062664e-38
-0.1460767537 -0.3180281222 0.2387490422 1.056062664e-38
0.2048322409 -0.7008794546 -0.3157141209 1.056062664e-38
-0.1209046245 -0.4568072855 0.413608104 1.056062664e-38
-0.1408568472 -0.3547489047 -0.08767430484 1.056062664e-38
0.008406458423 -0.7427325845 -0.0836455673 1.056062664e-38
0.3964880705 -0.6762797832 -0.4216774106 1.056062664e-38
0.4450884461 -0.671626687 -0.4367889166 1.074429623e-38
-0.1166359037 -0.410332799 -0.2643457353 1.074429623e-38
0.02824434638 -0.7306770086 -0.1651667655 1.074429623e-38
0.3696105778 -0.3203051686 -0.2470335811 1.074429623e-38
0.117278114 -0.7588711977 0.07957935333 1.074429623e-38
0.1651695669 -0.2287771404 -0.3656490445 1.074429623e-38
0.1008017734 -0.7229489088 -0.1935236752 1.074429623e-38
-0.1226830482 -0.3072713912 0.2348115295 1.074429623e-38
0.02004167065 -0.7404466867 -0.09595796466 1.092796582e-38
0.01592258736 -0.7314661741 -0.1642336994 1.092796582e-38
-0.02090633661 -0.2314350605 -0.3537245691 1.092796582e-38
0.2281027436 -0.6963077784 -0.3403388262 1.092796582e-38
0.311608851 -0.6847970486 -0.3923873901 1.092796582e-38
0.2636948824 -0.6909469366 -0.3658965826 1.092796582e-38
-0.04943913966 -0.3010400236 0.2178338915 1.092796582e-38
-0.08876405656 -0.1894877553 -0.359416306 1.092796582e-38
0.3585679829 -0.1886158884 -0.3867921829 1.111163541e-38
-0.1232296526 -0.2102121413 -0.3524743319 1.111163541e-38
0.008184295148 -0.482442677 0.3870503604 1.111163541e-38
0.07821780443 -0.7290173769 -0.1575196832 1.111163541e-38
0.3851184249 -0.3393699527 -0.2324445248 1.111163541e-38
-0.08858774602 -0.2820624113 -0.3377692103 1.111163541e-38
0.02963043749 -0.2374572158 -0.3553854227 1.111163541e-38
-0.008034352213 -0.7345410585 -0.1509882808 1.111163541e-38
0.0289308615 -0.7321738005 -0.153787449 1.1295305e-38
-0.008584607393 -0.2306459546 -0.35465765 1.1295305e-38
0.007033428177 -0.7397390604 -0.1064041853 1.1295305e-38
0.4704184532 -0.6715452075 -0.4272757471 1.1295305e-38
0.1033820361 -0.5263078809 0.05868257582 1.1295305e-38
-0.1170319915 -0.4781579375 0.4405094683 1.1295305e-38
0.1589779109 -0.711519599 -0.2550854087 1.1295305e-38
-0.1084083319 -0.2277801633 -0.3492645919 1.1295305e-38
