# .PCD v0.7 - Point Cloud Data file format
VERSION 0.7
FIELDS x y z rgb
SIZE 4 4 4 4
TYPE F F F F
COUNT 1 1 1 1
WIDTH 837
HEIGHT 1
VIEWPOINT 0 0 0 1 0 0 0
POINTS 837
DATA ascii
-0.002386210952 -0.4050725996 0.250621736 1.092796582e-38
0.1077808216 -0.5471338034 0.06856295466 1.092796582e-38
0.3452114463 -0.4382817745 0.2332894355 1.111163541e-38
-0.09096417576 -0.4371298254 0.4902929962 1.111163541e-38
-0.1520677656 -0.3512896597 -0.1404433846 1.111163541e-38
0.2773889303 -0.3684595823 0.2282635123 1.111163541e-38
0.1566519588 -0.5437700748 0.06335951388 1.111163541e-38
0.3450924754 -0.3678072691 0.1729676872 1.111163541e-38
-0.001418501139 -0.4222324491 -0.002107117325 1.111163541e-38
-0.1505972445 -0.4272178411 -0.1953839809 1.111163541e-38
0.005824477412 -0.7556141615 -0.07189632952 1.1295305e-38
-0.08675917983 -0.420207113 0.2616460323 1.1295305e-38
-0.00272834301 -0.745818615 -0.1630817652 1.1295305e-38
0.1688697338 -0.5429291725 0.06205865741 1.1295305e-38
0.2663579285 -0.35870713 0.1332618147 1.1295305e-38
-0.1333268583 -0.4628559351 -0.03197286651 1.1295305e-38
0.09906325489 -0.521291256 -0.003662720323 1.1295305e-38
0.3294202685 -0.3409042656 0.168513611 1.1295305e-38
0.1933052689 -0.5412472486 0.05945694447 1.147897319e-38
0.1797290295 -0.3832105696 0.2291905284 1.147897319e-38
0.2810303271 -0.7444602251 -0.03212615848 1.147897319e-38
0.2052337229 -0.3827531636 0.2379869819 1.147897319e-38
-0.09897698462 -0.4210480452 0.2629469037 1.147897319e-38
-0.1349616647 -0.3916698098 -0.2607314885 1.147897319e-38
0.3719002903 -0.7446959019 0.01575872302 1.147897319e-38
0.2639726102 -0.3321876526 0.1389050484 1.147897319e-38
0.1455655694 -0.7524860501 -0.02921488881 1.166264278e-38
0.189459458 -0.4992911816 0.3731564879 1.166264278e-38
0.351836592 -0.4072480202 0.2034372538 1.166264278e-38
0.2688124776 -0.7453011274 -0.030825302 1.166264278e-38
0.03636322916 -0.3427830935 -0.3333892226 1.166264278e-38
0.2388867438 -0.5261867046 0.02953881025 1.166264278e-38
0.06078463793 -0.4923303723 0.3272558749 1.166264278e-38
0.006499746814 -0.3303192258 -0.3782984614 1.166264278e-38
0.03346735239 -0.7576055527 -0.04030354321 1.184631237e-38
0.008061336353 -0.2766034007 -0.2891430855 1.184631237e-38
0.2651711702 -0.3693005145 0.2295643687 1.184631237e-38
0.2529886961 -0.3503000736 0.1326443553 1.184631237e-38
0.2027463764 -0.4996746778 0.383253783 1.184631237e-38
0.2443769574 -0.7469830513 -0.02822358906 1.184631237e-38
-0.1674012989 -0.2396023571 -0.3319000304 1.184631237e-38
0.3160510361 -0.3324972391 0.1678961664 1.184631237e-38
0.1463091522 -0.4864438176 0.3181498647 1.202998196e-38
-0.01815341972 -0.7429862022 -0.1959754378 1.202998196e-38
-0.005324191414 -0.757679522 -0.05919730663 1.202998196e-38
0.1707446873 -0.4847619534 0.3155481517 1.202998196e-38
-0.170736745 -0.282332927 -0.2773332 1.202998196e-38
-0.1101256385 -0.4231134355 0.2756459117 1.202998196e-38
0.2541401684 -0.3595480621 0.1345626712 1.202998196e-38
-0.03571670502 -0.7377049923 -0.251665473 1.202998196e-38
-0.01066970266 -0.7515573502 -0.1161881909 1.221365155e-38
-0.1406000704 -0.4159045219 -0.2100013047 1.221365155e-38
0.05178830773 -0.3456155062 -0.3004955053 1.221365155e-38
-0.01494611427 -0.7466595173 -0.1617809087 1.221365155e-38
0.09850709885 -0.4910319448 0.334751457 1.221365155e-38
0.135160476 -0.4885091782 0.3308488727 1.221365155e-38
-0.1297442913 -0.4441959858 -0.114979282 1.221365155e-38
0.06185373664 -0.4935547709 0.3386540413 1.221365155e-38
-0.1187608317 -0.4052943885 0.1939403862 1.239732115e-38
0.147378251 -0.4876682162 0.3295480311 1.239732115e-38
0.03741819412 -0.4952366352 0.3412557542 1.239732115e-38
-0.1096675023 -0.4295927882 -0.1536938399 1.239732115e-38
-0.1821691394 -0.1978767514 -0.3059961796 1.239732115e-38
0.02231867984 -0.7596709728 -0.02760452032 1.239732115e-38
-0.1176917329 -0.4065188169 0.2053385675 1.239732115e-38
0.1563625932 -0.3861168921 0.2431904078 1.239732115e-38
0.2152309269 -0.3714398146 0.2233696431 1.258099074e-38
0.171813786 -0.485986352 0.3269463181 1.258099074e-38
0.06004112214 -0.7583726048 -0.02010887861 1.258099074e-38
0.2831685245 -0.7469090819 -0.00932982564 1.258099074e-38
-0.1430311501 -0.4438124895 -0.125076592 1.258099074e-38
0.1678464115 -0.4872772694 -0.02862103283 1.258099074e-38
0.303833276 -0.3333381712 0.1691970229 1.258099074e-38
-0.02074927278 -0.7548471093 -0.09209099412 1.258099074e-38
-0.09104655683 -0.4291062951 0.4997728467 1.276466033e-38
-0.03974787891 -0.585844636 0.3375348449 1.276466033e-38
-0.1059055105 -0.5170247555 0.3815807104 1.276466033e-38
0.02529693581 -0.3528719842 -0.3301700354 1.276466033e-38
-0.01145293843 -0.4986003637 0.3464591801 1.276466033e-38
0.08554577082 -0.7579151988 -0.01131242514 1.276466033e-38
0.2432912886 -0.4846805334 -0.01362979412 1.276466033e-38
0.09957619756 -0.492256403 0.3461496234 1.276466033e-38
-0.1593971848 -0.3933517337 -0.2581297755 1.294832852e-38
0.2077894509 -0.4964513481 -0.00780890882 1.294832852e-38
0.023387786 -0.7608953714 -0.0162062943 1.294832852e-38
-0.1289497018 -0.2420203984 -0.2940261662 1.294832852e-38
-0.1007394195 -0.4170550108 -0.17970936 1.294832852e-38
-0.136113137 -0.3824218512 -0.2626498044 1.294832852e-38
-0.09630968422 -0.4310076237 0.4333021045 1.294832852e-38
-0.04686540365 -0.7397703528 -0.2389664352 1.294832852e-38
0.0737792924 -0.3955651224 0.04132368416 1.313163938e-38
-0.02716388367 -0.7475004792 -0.1604800522 1.313163938e-38
-0.1016291007 -0.5219224691 0.4271734357 1.313163938e-38
0.0611102283 -0.7595970631 -0.008710712194 1.313163938e-38
0.1354860067 -0.7557758689 -0.005117684603 1.313163938e-38
-0.02609478496 -0.7487249374 -0.1490818858 1.313163938e-38
0.01116998866 -0.7617363334 -0.01490543783 1.313163938e-38
0.1907953322 -0.3731216788 0.225971356 1.313163938e-38
-0.09211565554 -0.4278818369 0.4883746803 1.331530897e-38
0.1973184794 -0.4855288863 0.3357427716 1.331530897e-38
-0.1218853071 -0.4304337502 -0.1523929685 1.331530897e-38
0.05535567552 -0.2475975752 0.01063072309 1.331530897e-38
0.1110504717 -0.7574577332 -0.002515971661 1.331530897e-38
-0.02367070876 -0.4994413257 0.3477600515 1.331530897e-38
0.2010317445 -0.1091965139 0.1659056246 1.331530897e-38
0.1833538562 -0.4981332123 -0.005207180977 1.331530897e-38
-0.01531230751 -0.5841627717 0.3349331617 1.349897856e-38
-0.1650356203 -0.4175863862 -0.2073995918 1.349897856e-38
-0.01038383693 -0.4998248219 0.3578573465 1.349897856e-38
0.09005279094 -0.5258054733 0.0318326354 1.349897856e-38
-0.1134153232 -0.4114165902 0.2509312928 1.349897856e-38
0.074397102 -0.7599805593 0.001386612654 1.349897856e-38
0.03613922372 -0.4048870504 0.02434823662 1.349897856e-38
-0.04917538166 -0.4998987913 0.338963598 1.349897856e-38
0.1495164484 -0.4901171327 0.3523443639 1.368228942e-38
-0.02859921381 -0.5837792158 0.3248358369 1.368228942e-38
-0.03013044596 -0.4190165699 -0.04509809613 1.368228942e-38
0.1711360961 -0.4989741445 -0.003906324506 1.368228942e-38
0.2210763246 -0.4968348444 0.002288401127 1.368228942e-38
-0.04151988775 -0.7458925247 -0.1819755584 1.368228942e-38
0.1566977501 -0.4893426299 -0.01592195034 1.368228942e-38
0.03774376214 -0.7625033855 0.005289182067 1.368228942e-38
-0.09844788909 -0.4285587668 0.4105057716 1.386595901e-38
-0.02260160819 -0.5006657243 0.3591582179 1.386595901e-38
-0.02869066037 -0.7605858445 -0.04519741237 1.386595901e-38
-0.003094540443 -0.5833218098 0.3336322904 1.386595901e-38
0.1365551203 -0.7570003271 0.006280481815 1.386595901e-38
0.06399194151 -0.4960036874 0.3614503741 1.386595901e-38
0.3181892335 -0.3349460959 0.1906924993 1.386595901e-38
-0.112957187 -0.4178959131 -0.1784085035 1.386595901e-38
0.2120980471 -0.0991075933 0.1626864672 1.404926846e-38
-0.03617437929 -0.7520147562 -0.1249846667 1.404926846e-38
-0.01638140902 -0.5829383135 0.3235349655 1.404926846e-38
0.2574298382 -0.3712449074 0.159277305 1.404926846e-38
0.2551268935 -0.3527489603 0.1554406881 1.404926846e-38
-0.04188608378 -0.5833957195 0.314738512 1.404926846e-38
-0.1222605705 -0.4527670741 -0.03519202396 1.404926846e-38
-0.1510810405 -0.3444905579 -0.1195653453 1.404926846e-38
0.1261499524 -0.4930233955 0.3663442433 1.423293806e-38
0.06324842572 -0.7620459199 0.01408563554 1.423293806e-38
0.1505855471 -0.4913415313 0.3637425303 1.423293806e-38
0.06156149507 -0.3964060545 0.04262454808 1.423293806e-38
-0.03481937945 -0.5015066862 0.3604590893 1.423293806e-38
-0.1064601988 -0.4332661033 -0.1194993109 1.423293806e-38
0.1419242471 -0.3764854074 0.2311747968 1.423293806e-38
0.1139321849 -0.4938643575 0.3676451147 1.423293806e-38
0.1754447371 -0.1016303897 0.1665890217 1.441624891e-38
0.001090421341 -0.7650261521 0.00919175148 1.441624891e-38
0.2231487185 -0.752338171 0.008572638035 1.441624891e-38
0.2730196714 -0.3901243806 0.1732112914 1.441624891e-38
-0.04127914459 -0.4210819304 -0.03239907324 1.441624891e-38
0.2808328569 -0.4307895899 0.2150790393 1.441624891e-38
-0.1112771183 -0.4138654768 0.2737276256 1.441624891e-38
-0.05240879208 -0.3991883397 0.253906846 1.441624891e-38
0.1387913823 -0.1041531861 0.170491606 1.459991851e-38
0.1674288958 -0.3760280013 0.2399712503 1.459991851e-38
0.01437729318 -0.7654096484 0.01928906143 1.459991851e-38
-0.05266855657 -0.7479579449 -0.1692765057 1.459991851e-38
0.04206877574 -0.2472140491 0.0005334205925 1.459991851e-38
-0.04411573708 -0.7577534914 -0.07809111476 1.459991851e-38
-0.04341735691 -0.4186330438 -0.05519543588 1.459991851e-38
0.2005257905 -0.489202261 0.3699373007 1.459991851e-38
0.02285232395 -0.4045035243 0.01425090805 1.478322936e-38
-0.1199123114 -0.3960464001 0.1920220703 1.478322936e-38
0.01618993469 -0.5005918145 0.3780519664 1.478322936e-38
-0.1763293743 -0.2521401346 -0.3058844805 1.478322936e-38
0.02850424685 -0.3565453291 -0.2959755063 1.478322936e-38
0.2221454382 -0.4980592728 0.01368656754 1.478322936e-38
0.1638724357 -0.4917250872 0.373839885 1.478322936e-38
0.02620129474 -0.338049382 -0.2998121083 1.478322936e-38
0.002159522846 -0.7662506104 0.0205899179 1.496689755e-38
-0.1220505238 -0.3935975134 0.1692256927 1.496689755e-38
-0.06462660432 -0.4000292718 0.2552077174 1.496689755e-38
0.2983700633 -0.3390337825 0.2199068666 1.496689755e-38
0.1865110248 -0.0915414989 0.1633698642 1.496689755e-38
0.2077070773 -0.488427788 0.00167094171 1.496689755e-38
-0.03073741496 -0.5813304186 0.3020395041 1.496689755e-38
0.1620754898 -0.09322336316 0.1659715772 1.496689755e-38
-0.04596807808 -0.5035721064 0.3731580973 1.515020841e-38
0.1977098435 -0.499741137 0.01628829539 1.515020841e-38
0.09628652781 -0.4805595875 0.3214349747 1.515020841e-38
-0.1478737295 -0.348163873 -0.08537081629 1.515020841e-38
-0.0326811783 -0.503955543 0.3832554221 1.515020841e-38
-0.1400159895 -0.2521092892 -0.2908070087 1.515020841e-38
0.0340968743 -0.3867381215 -0.2674242258 1.515020841e-38
0.1527237594 -0.4937904477 0.3865389228 1.515020841e-38
0.1597725302 -0.07472740114 0.1621349454 1.533351927e-38
0.2026639879 -0.4916511178 0.3927336335 1.533351927e-38
0.1649415344 -0.4929494858 0.3852380514 1.533351927e-38
0.1842080802 -0.07304553688 0.1595332325 1.533351927e-38
-0.1533852667 -0.2437022626 -0.2914244533 1.533351927e-38
0.1464032382 -0.06632037461 0.1615175009 1.533351927e-38
0.07760441303 -0.7636538744 0.03558115661 1.533351927e-38
0.2074921429 -0.06211569905 0.1550132334 1.533351927e-38
0.3215612769 -0.3546664715 0.2059272826 1.551683013e-38
0.05316887051 -0.7653357387 0.03818286955 1.551683013e-38
0.18181099 -0.4746730328 0.3123289943 1.551683013e-38
-0.007176527753 -0.503498137 0.3920519054 1.551683013e-38
-0.06702455878 -0.7463499904 -0.190771997 1.551683013e-38
0.2619402409 -0.7522642612 0.02746644616 1.551683013e-38
-0.1543707103 -0.3327936828 -0.1442800164 1.551683013e-38
-0.02227604762 -0.7679324746 0.02319164574 1.551683013e-38
0.1509110779 -0.758608222 0.02777600288 1.570049832e-38
-0.1708191186 -0.2743093967 -0.2678533494 1.570049832e-38
0.2001793534 -0.2431926131 0.2079114616 1.570049832e-38
0.2937536836 -0.3366279602 0.1932942122 1.570049832e-38
0.1782283932 -0.4933329821 0.3953353763 1.570049832e-38
-0.1494823843 -0.3740147948 -0.2632672489 1.570049832e-38
0.2209939659 -0.4888112843 0.01176825166 1.570049832e-38
-0.008989146911 -0.7683159709 0.03328895569 1.570049832e-38
0.006985053886 -0.580031991 0.3095350862 1.588380918e-38
0.1233340502 -0.5035623312 0.0126952678 1.588380918e-38
-0.08369051665 -0.5048704147 0.3656625152 1.588380918e-38
-0.1021511182 -0.7357874513 -0.3021520674 1.588380918e-38
0.2497224659 -0.7531052232 0.02876730263 1.588380918e-38
-0.06167904288 -0.7524721622 -0.1337811053 1.588380918e-38
0.06645573676 -0.7657192945 0.0482801795 1.588380918e-38
-0.1774808466 -0.2428921759 -0.3078027964 1.588380918e-38
-0.05731115863 -0.5805633664 0.2818448544 1.606712004e-38
0.1670797318 -0.4953984022 0.4080343843 1.606712004e-38
-0.114566803 -0.4021686018 0.249012962 1.606712004e-38
0.1031091139 -0.7631964684 0.04437761009 1.606712004e-38
0.1774260849 -0.3647146225 0.2253538966 1.606712004e-38
0.2752270997 -0.7526477575 0.03756375611 1.606712004e-38
-0.1102642938 -0.5041034222 0.3454678953 1.606712004e-38
-0.09897647798 -0.4418371916 -0.03971205279 1.606712004e-38
0.2949156165 -0.3112898469 0.2141519338 1.625043089e-38
0.0692557618 -0.3665967584 0.0241705887 1.625043089e-38
-0.04382986575 -0.5060209632 0.3959544897 1.625043089e-38
0.1111162826 -0.5044032335 0.01399613917 1.625043089e-38
0.2751578689 -0.3925732374 0.1960076243 1.625043089e-38
-0.1000129133 -0.7382363081 -0.2793557048 1.625043089e-38
0.006110372022 -0.5038816333 0.4021492302 1.625043089e-38
0.01513494365 -0.3481383026 -0.2965929508 1.625043089e-38
0.01920282468 -0.5791910887 0.3082342148 1.643374035e-38
-0.1175762266 -0.7329550385 -0.3350457251 1.643374035e-38
-0.03449381888 -0.7687734365 0.02449250221 1.643374035e-38
0.2740063965 -0.3833252788 0.1940893084 1.643374035e-38
-0.1642397493 -0.2977031171 -0.2184239924 1.643374035e-38
0.2365014106 -0.4996671975 0.03518210351 1.643374035e-38
0.2818196118 -0.4239904881 0.235957101 1.643374035e-38
0.08890131116 -0.5165575147 0.02991431952 1.643374035e-38
0.2506503761 -0.3516454995 0.2270286083 1.661705121e-38
-0.1522325128 -0.3352425694 -0.1214836463 1.661705121e-38
0.1907129586 -0.3650981486 0.2354512215 1.661705121e-38
0.2795990109 -0.4135180712 0.222640574 1.661705121e-38
-0.09959936887 -0.4193107784 0.4085874557 1.661705121e-38
-0.1656030267 -0.2445432097 -0.2901236117 1.661705121e-38
-0.02589128725 -0.4889689088 0.3344435692 1.661705121e-38
0.309261173 -0.3474839032 0.2167080492 1.661705121e-38
0.1285549402 -0.368078351 0.2305573374 1.680036207e-38
0.2959847152 -0.3125142753 0.2255501002 1.680036207e-38
0.2242836356 -0.5005081892 0.03648295999 1.680036207e-38
-0.06748219579 -0.7606597543 -0.06409117579 1.680036207e-38
0.2077105194 -0.5075764656 0.3270015121 1.680036207e-38
-0.02013784088 -0.7703813314 0.04598802328 1.680036207e-38
0.2838493288 -0.3213787675 0.2173711061 1.680036207e-38
-0.1017114744 -0.5138989687 0.4366532862 1.680036207e-38
0.1049217209 -0.4983785748 0.4031405151 1.698367293e-38
-0.0728277117 -0.7545375824 -0.1210820898 1.698367293e-38
0.0680219084 -0.3493252397 0.03173213452 1.698367293e-38
-0.1511634141 -0.3364669979 -0.1100854799 1.698367293e-38
0.3115641177 -0.3659798503 0.2205446661 1.698367293e-38
-0.03342471272 -0.7699978352 0.03589066863 1.698367293e-38
0.2762269676 -0.3937976956 0.2074057907 1.698367293e-38
0.05774100125 -0.2741170526 0.004987489432 1.698367293e-38
0.127831161 -0.3822765052 0.1120709032 1.716698239e-38
0.2497882694 -0.5000507236 0.04527941346 1.716698239e-38
0.1045471057 -0.393206358 0.116590932 1.716698239e-38
-0.0957365036 -0.7431340814 -0.2337630093 1.716698239e-38
0.2257663757 -0.2507587075 0.2072280645 1.716698239e-38
-0.09056277573 -0.5118335485 0.4239542484 1.716698239e-38
-0.07834500819 -0.5109926462 0.4226534069 1.716698239e-38
-0.04169166461 -0.50846982 0.4187508225 1.716698239e-38
0.2098452896 -0.4908766747 0.02446727455 1.735029324e-38
0.2792434096 -0.2843868434 0.2096978575 1.735029324e-38
0.2826049626 -0.3386933804 0.2059932351 1.735029324e-38
0.2958919108 -0.3390768766 0.2160906047 1.735029324e-38
0.01346200611 -0.7940292358 0.2726507187 1.735029324e-38
0.1635259837 -0.2457154095 0.2118140459 1.735029324e-38
0.1182085946 -0.4987621307 0.4132378399 1.735029324e-38
-0.09466739744 -0.7443585396 -0.2223648131 1.735029324e-38
0.1099648029 -0.4951552749 0.01207782328 1.75336041e-38
-0.06577807665 -0.3907813132 0.2532894015 1.75336041e-38
0.05996157974 -0.2845894396 0.01830396429 1.75336041e-38
0.2939549983 -0.4151260257 0.2441361099 1.75336041e-38
0.117833972 -0.393589884 0.126688242 1.75336041e-38
-0.1113594994 -0.4058419168 0.2832074761 1.75336041e-38
0.1156134009 -0.3831174374 0.1133717597 1.75336041e-38
0.2571003437 -0.3391507864 0.1971967965 1.75336041e-38
-0.139567554 -0.3546779752 -0.2684047222 1.771655483e-38
-0.09334950894 -0.410610348 0.4959362149 1.771655483e-38
-0.1219676808 -0.4224101901 -0.142913118 1.771655483e-38
0.1244911626 -0.7876852751 0.272341162 1.771655483e-38
0.1418418735 -0.3684618771 0.2406546474 1.771655483e-38
-0.1479561031 -0.3401403129 -0.07589095086 1.771655483e-38
-0.1506338567 -0.3647668362 -0.2651855648 1.771655483e-38
0.07455091923 -0.789824605 0.2661464214 1.771655483e-38
0.003777744947 -0.576358676 0.2753405571 1.789986569e-38
-0.00396922417 -0.507171452 0.4262464046 1.789986569e-38
-0.1468870044 -0.3413647711 -0.06449276209 1.789986569e-38
-0.1197378933 -0.3160041869 -0.2786796987 1.789986569e-38
-0.09146009386 -0.7480318546 -0.188170284 1.789986569e-38
-0.135254547 -0.4220266938 -0.153010428 1.789986569e-38
-0.08932188898 -0.7504807711 -0.1653739214 1.789986569e-38
0.0937730521 -0.500443995 0.4158395529 1.789986569e-38
-0.04564251751 -0.7708387971 0.0371915251 1.808317654e-38
0.3028700054 -0.7546392679 0.06915658712 1.808317654e-38
0.2716315389 -0.3222196996 0.2186719626 1.808317654e-38
0.01239289902 -0.7928047776 0.2612524927 1.808317654e-38
-0.1644515544 -0.2537911534 -0.2882052958 1.808317654e-38
0.1855800599 -0.7834805846 0.2658368647 1.808317654e-38
0.1254722625 -0.5060112476 0.03549161553 1.808317654e-38
0.06933745742 -0.5021258593 0.4184412658 1.808317654e-38
-0.07863086462 -0.7627251148 -0.05139215291 1.826612727e-38
0.2013308406 -0.2524405718 0.2098297775 1.826612727e-38
0.2981124818 -0.3495492935 0.2294070721 1.826612727e-38
0.03682844341 -0.7911229134 0.2586507797 1.826612727e-38
-0.03128650784 -0.7724467516 0.05868704617 1.826612727e-38
0.2803125083 -0.2856113017 0.2210960239 1.826612727e-38
0.05596886203 -0.3662132621 0.01407328248 1.826612727e-38
0.2992639542 -0.3587972522 0.2313253731 1.826612727e-38
0.1884923875 -0.3546257317 0.2221347392 1.844943813e-38
0.1731919199 -0.493399471 0.02836985886 1.844943813e-38
-0.04670702666 -0.4069362283 -0.07991007715 1.844943813e-38
-0.1719705909 -0.2650614381 -0.2697716653 1.844943813e-38
0.06126400828 -0.7894410491 0.2560490668 1.844943813e-38
-0.1234120503 -0.4435190558 -0.03711033985 1.844943813e-38
-0.116787374 -0.3916961849 0.2356964946 1.844943813e-38
-0.07542356104 -0.7663984299 -0.01719765365 1.844943813e-38
0.1631947309 -0.5047128201 0.04298724234 1.863274899e-38
0.118534185 -0.7660288215 0.07727125287 1.863274899e-38
-0.04243061692 -0.4118339717 -0.03431738168 1.863274899e-38
0.04597166926 -0.3775266111 0.02869061381 1.863274899e-38
0.006377155893 -0.3764877319 0.2435659319 1.863274899e-38
-0.1378777921 -0.2545581758 -0.2680106461 1.863274899e-38
0.1307519525 -0.7651878595 0.0759703815 1.863274899e-38
0.08915021271 -0.2495365739 0.2082210183 1.863274899e-38
0.1762745976 -0.3554666638 0.2234355956 1.881569971e-38
-0.005859658122 -0.4012876451 -0.02874006703 1.881569971e-38
0.1967287362 -0.7814152241 0.2531378269 1.881569971e-38
0.03383627161 -0.3863911033 0.02051161975 1.881569971e-38
-0.01805841364 -0.3781695962 0.2461676449 1.881569971e-38
0.3172259629 -0.7562471628 0.09065207839 1.881569971e-38
0.1640568376 -0.356307596 0.2247364521 1.881569971e-38
-0.1245909184 -0.2549417019 -0.2579133213 1.881569971e-38
0.2592385709 -0.341599673 0.2199931741 1.899901057e-38
0.03575933725 -0.7898985147 0.2472526133 1.899901057e-38
-0.07328534871 -0.7688473463 0.00559873879 1.899901057e-38
0.08294992149 -0.7697761059 0.09257203341 1.899901057e-38
-0.1024314165 -0.3933041394 0.2571919858 1.899901057e-38
-0.1047470048 -0.7476483583 -0.1982676089 1.899901057e-38
0.02886427566 -0.2548540831 -0.01904377528 1.899901057e-38
-0.06519021094 -0.7929526567 0.2234649956 1.899901057e-38
0.2725254297 -0.3419831991 0.230090484 1.91819627e-38
-0.03027618304 -0.3790105283 0.2474685013 1.91819627e-38
0.2582623065 -0.3138126433 0.2180545032 1.91819627e-38
0.3050082028 -0.7570881248 0.09195291996 1.91819627e-38
-0.01418087073 -0.7920377851 0.2410578728 1.91819627e-38
0.1073855236 -0.768094182 0.08997032046 1.91819627e-38
0.2759798467 -0.3697271049 0.2358454168 1.91819627e-38
-0.07476242632 -0.4923326969 0.3396469951 1.91819627e-38
0.009643241763 -0.7748216987 0.100377202 1.936527215e-38
-0.05679117143 -0.7729041576 0.0498906076 1.936527215e-38
-0.04249397665 -0.3798514605 0.2487693578 1.936527215e-38
0.3182950914 -0.7574716806 0.1020502448 1.936527215e-38
-0.05785568058 -0.4090015888 -0.06721104681 1.936527215e-38
0.1773436964 -0.3566911221 0.234833762 1.936527215e-38
-0.07114715129 -0.7712962031 0.02839507163 1.936527215e-38
-0.1044043675 -0.4276914597 -0.08722308278 1.936527215e-38
0.2078773975 -0.7793498039 0.2404387593 1.954822428e-38
-0.1331071407 -0.3075971603 -0.2792971432 1.954822428e-38
-0.1767412573 -0.2120224833 -0.2584851384 1.954822428e-38
0.1121030077 -0.4976041615 0.03487415612 1.954822428e-38
0.211776495 -0.343695879 0.2176147103 1.954822428e-38
0.1834418625 -0.7810317278 0.2430404723 1.954822428e-38
-0.1766693294 -0.2546321154 -0.2869044244 1.954822428e-38
0.09224693477 -0.3860237598 0.1273716539 1.954822428e-38
-0.0662593171 -0.7917281985 0.2120667696 1.973153514e-38
0.09210862219 -0.5202308893 0.06410887837 1.973153514e-38
0.05366591364 -0.347717315 0.01023666188 1.973153514e-38
-0.1764941216 -0.2360930741 -0.2869247496 1.973153514e-38
0.04268198833 -0.3658297658 0.003975946456 1.973153514e-38
0.1029679328 -0.3605122566 0.2312407494 1.973153514e-38
0.2938595712 -0.7591534853 0.1046519578 1.973153514e-38
0.07180125266 -0.7718414664 0.1052710712 1.973153514e-38
0.1391728371 -0.255420804 0.2049359083 1.991448586e-38
-0.09298687428 -0.7611172199 -0.07288767397 1.991448586e-38
0.2445307672 -0.7768269777 0.236536175 1.991448586e-38
-0.1900386065 -0.2462250739 -0.2875218689 1.991448586e-38
0.1620432585 -0.4954648316 0.04106894135 1.991448586e-38
-0.1633824557 -0.2550156116 -0.2768070996 1.991448586e-38
0.1212838516 -0.78401196 0.2381466031 1.991448586e-38
-0.04624487087 -0.5704745054 0.2786256671 1.991448586e-38
0.04626391083 -0.4746753573 0.3247201145 2.009743799e-38
-0.1529368013 -0.3462709188 -0.2690221965 2.009743799e-38
-0.08764136583 -0.7672393918 -0.01589678228 2.009743799e-38
0.2061968446 -0.7625911832 0.09096163511 2.009743799e-38
-0.1252115518 -0.3562859297 -0.2469092458 2.009743799e-38
0.0351479128 -0.774364233 0.1091736555 2.009743799e-38
-0.0280792024 -0.7761200666 0.09288156033 2.009743799e-38
-0.1354100853 -0.2891011834 -0.283133775 2.009743799e-38
0.02182837389 -0.4763572216 0.3273218274 2.028074885e-38
-0.02853228897 -0.4277516901 0.1138589233 2.028074885e-38
0.09623678774 -0.7701596022 0.1026693583 2.028074885e-38
-0.08657225966 -0.76846385 -0.004498571157 2.028074885e-38
0.30714643 -0.7595369816 0.1147492528 2.028074885e-38
-0.125257358 -0.410713315 -0.1676277518 2.028074885e-38
0.1055338308 -0.3864072561 0.137468949 2.028074885e-38
0.009185595438 -0.7891314626 0.2270579934 2.028074885e-38
0.1084546223 -0.7693186402 0.1013684869 2.046369957e-38
0.1276104599 -0.5084601045 0.05828799307 2.046369957e-38
0.09553661197 -0.3977206051 0.1520863026 2.046369957e-38
0.2402870953 -0.2684137225 0.2097638249 2.046369957e-38
0.1701549143 -0.7806482315 0.2329431772 2.046369957e-38
0.1873409003 -0.345377773 0.2202164233 2.046369957e-38
0.24259004 -0.2869096696 0.2136004418 2.046369957e-38
0.1945905238 -0.7789663076 0.2303414643 2.046369957e-38
-0.1200770661 -0.3799993098 0.2109817863 2.06466517e-38
0.137607649 -0.4971466959 0.0436706543 2.06466517e-38
-0.1640030891 -0.3563598394 -0.2658030093 2.06466517e-38
0.1079969183 -0.7836284637 0.2280493081 2.06466517e-38
0.2668281198 -0.7726962566 0.2111381292 2.06466517e-38
0.2959977686 -0.7616024017 0.1274483204 2.06466517e-38
0.0580567047 -0.7857677341 0.2218545675 2.06466517e-38
0.2338266969 -0.3154945076 0.220656231 2.06466517e-38
0.2827108204 -0.7612189054 0.1173509657 2.082996116e-38
-0.009591528215 -0.5679516792 0.2747231126 2.082996116e-38
-0.08336495608 -0.7721371651 0.029695943 2.082996116e-38
0.1131721139 -0.4988285899 0.04627236724 2.082996116e-38
0.2779767811 -0.7706308961 0.1984391212 2.082996116e-38
0.1398841888 -0.3653885424 0.1297297627 2.082996116e-38
-0.06793984026 -0.7749695778 0.06258963048 2.082996116e-38
0.03001575172 -0.2641020715 -0.01712546311 2.082996116e-38
0.2239118963 -0.3348314166 0.2257937044 2.101291328e-38
0.1828304082 -0.7654974461 0.1049615145 2.101291328e-38
-0.11900796 -0.381223768 0.2223799527 2.101291328e-38
-0.01738817804 -0.78836447 0.2068633139 2.101291328e-38
0.1629053652 -0.3470596373 0.2228181511 2.101291328e-38
0.02033426613 -0.787066102 0.2143589556 2.101291328e-38
0.193946436 -0.4658085108 0.3205079734 2.101291328e-38
0.01841116697 -0.3835586905 -0.01238207892 2.101291328e-38
-0.09557007998 -0.4001379013 0.4826197624 2.119586541e-38
0.2436591685 -0.2881340981 0.2249986082 2.119586541e-38
-0.04288825393 -0.4261437654 0.09236344695 2.119586541e-38
0.2582753003 -0.7629007101 0.1199527085 2.119586541e-38
-0.00517041143 -0.7875235081 0.2055624723 2.119586541e-38
0.1025194675 -0.2579436302 0.2088384777 2.119586541e-38
0.2992050648 -0.7652757168 0.1616428494 2.119586541e-38
0.1690858155 -0.7794237137 0.2215450108 2.119586541e-38
0.222760424 -0.3255834579 0.2238754034 2.137881613e-38
0.1321075708 -0.3871742785 0.1576635689 2.137881613e-38
0.2547255158 -0.2780452073 0.2217794359 2.137881613e-38
0.208335042 -0.76504004 0.1137579679 2.137881613e-38
0.1069278121 -0.7824040055 0.2166511416 2.137881613e-38
-0.006992116105 -0.3680806756 0.2429484725 2.137881613e-38
0.1095237285 -0.7705430984 0.1127666533 2.137881613e-38
0.1384698153 -0.3487415016 0.2254198641 2.137881613e-38
0.01744345203 -0.3663988113 0.2403467596 2.156176826e-38
0.121741496 -0.7697021365 0.1114658117 2.156176826e-38
0.196117267 -0.7658810019 0.1150588095 2.156176826e-38
0.1298869997 -0.3767018616 0.1443471014 2.156176826e-38
0.2057391852 -0.7769009471 0.2176424265 2.156176826e-38
-0.03922789544 -0.7781854868 0.1055806279 2.156176826e-38
0.1386767477 -0.4983711541 0.05506882071 2.156176826e-38
0.06920540333 -0.7837023735 0.2091555297 2.156176826e-38
0.09030169249 -0.2587845623 0.2101393342 2.174471899e-38
-0.1698323935 -0.2675103247 -0.2469753027 2.174471899e-38
0.2737003565 -0.7657331228 0.152846396 2.174471899e-38
0.1838995069 -0.7667219639 0.1163596809 2.174471899e-38
0.2116941214 -0.3356723487 0.2270945609 2.174471899e-38
0.02939511463 -0.3654462695 -0.006121365353 2.174471899e-38
0.01939789578 -0.3767595887 0.008495975286 2.174471899e-38
0.1265149415 -0.3569814861 0.1291123182 2.174471899e-38
-0.1720529646 -0.2570379078 -0.260291785 2.192767111e-38
-0.09458335489 -0.3933388293 0.5034977794 2.192767111e-38
-0.1545354575 -0.3167465925 -0.1253202707 2.192767111e-38
0.114034228 -0.3504233658 0.228021577 2.192767111e-38
0.2425076962 -0.2788861394 0.2230803072 2.192767111e-38
0.1716817319 -0.7675628662 0.1176605225 2.192767111e-38
-0.1762208939 -0.3572007418 -0.2645021677 2.192767111e-38
0.1780467182 -0.2633704245 0.2143498063 2.192767111e-38
0.2093911618 -0.3171763718 0.223257944 2.211062324e-38
0.2168878615 -0.7748355865 0.2049433887 2.211062324e-38
0.05516589433 -0.3651004732 0.2478423566 2.211062324e-38
0.2625516951 -0.767798543 0.165545404 2.211062324e-38
-0.1755897701 -0.221270442 -0.2565668225 2.211062324e-38
0.1142412126 -0.5000530481 0.05767053366 2.211062324e-38
-0.1161498129 -0.5042674541 0.4246376753 2.211062324e-38
0.03038184345 -0.3586471677 0.01475668699 2.211062324e-38
-0.1665427089 -0.27920717 -0.2222606242 2.229357396e-38
-0.07842737436 -0.5029691458 0.4321332574 2.229357396e-38
-0.007011137903 -0.3920396566 -0.03065838292 2.229357396e-38
-0.1534663588 -0.3179710507 -0.1139220968 2.229357396e-38
-0.03281328082 -0.7855321169 0.173969686 2.229357396e-38
0.118076548 -0.780338645 0.2039521039 2.229357396e-38
-0.174603045 -0.21447137 -0.2356887907 2.229357396e-38
0.04461884871 -0.2897806168 -0.02406955697 2.229357396e-38
-0.1357395798 -0.2570070624 -0.2452142984 2.247652609e-38
-0.119357124 -0.5005941391 0.3904431164 2.247652609e-38
-0.1158006564 -0.384897083 0.2565745115 2.247652609e-38
-0.1564828008 -0.4273818731 -0.116214186 2.247652609e-38
0.1994763464 -0.3365132809 0.2283954173 2.247652609e-38
0.1838864684 -0.3176338077 0.2144615054 2.247652609e-38
0.1827349961 -0.308385849 0.2125431895 2.247652609e-38
0.1302943081 -0.779497683 0.2026512325 2.247652609e-38
-0.1632530391 -0.2909040153 -0.1975459754 2.265947681e-38
-0.1267017275 -0.4318222404 -0.06182500347 2.265947681e-38
0.02506831661 -0.7776540518 0.1332708299 2.265947681e-38
0.0803540647 -0.7816369534 0.1964564621 2.265947681e-38
0.198324874 -0.3272653222 0.2264771163 2.265947681e-38
0.04263162613 -0.7829353809 0.18896088 2.265947681e-38
-0.01733847149 -0.4987644553 0.4256289601 2.265947681e-38
-0.05399180949 -0.5012872815 0.4295315444 2.265947681e-38
-0.04114647582 -0.5525260568 0.36405617 2.284242894e-38
0.1425120831 -0.7786567211 0.2013503909 2.284242894e-38
-0.05586322397 -0.3714444339 0.2481519133 2.284242894e-38
0.0954542309 -0.3896970749 0.1615661532 2.284242894e-38
0.09257183969 -0.780796051 0.1951555908 2.284242894e-38
-0.04177404195 -0.5004463196 0.4282306731 2.284242894e-38
-0.111526005 -0.2867133617 0.4368036985 2.284242894e-38
0.00113902986 -0.244839102 -0.04115672782 2.284242894e-38
-0.1575427055 -0.3092790246 -0.2766954303 2.302537966e-38
0.1914983988 -0.2798009813 0.2054874003 2.302537966e-38
-0.05147833377 -0.4814028144 0.3351269662 2.302537966e-38
0.06818597764 -0.4928779006 0.4165229499 2.302537966e-38
-0.02166458406 -0.7834666967 0.1612706482 2.302537966e-38
0.05484940112 -0.782094419 0.1876600087 2.302537966e-38
0.07738091797 -0.3529461622 0.2319241464 2.302537966e-38
-0.04572030902 -0.4001371264 -0.05903205276 2.302537966e-38
0.04156252742 -0.7817108631 0.1775627136 2.320833179e-38
0.1281065345 -0.2655097246 0.2081550658 2.320833179e-38
0.2126114517 -0.7699378133 0.1593506932 2.320833179e-38
0.148315236 -0.7704691887 0.1316604316 2.320833179e-38
0.2180721462 -0.2805680037 0.2256820202 2.320833179e-38
0.1606024057 -0.3285636902 0.2189815342 2.320833179e-38
-0.08906166255 -0.4225003123 -0.04484952614 2.320833179e-38
0.1373183429 -0.3394935131 0.2235015482 2.320833179e-38
0.1791981906 -0.2726183832 0.2162681073 2.339092378e-38
0.03835521638 -0.7780375481 0.1433681548 2.339092378e-38
0.07500855625 -0.7755147815 0.1394655704 2.339092378e-38
-0.1136624515 -0.3873459697 0.2793708444 2.339092378e-38
0.1838040948 -0.3096102774 0.2239413559 2.339092378e-38
0.06279078871 -0.7763557434 0.1407664418 2.339092378e-38
-0.1442558318 -0.3096625209 -0.2665981054 2.339092378e-38
-0.0802987963 -0.3731262982 0.2507536411 2.339092378e-38
0.1116619259 -0.7729919553 0.1355629861 2.348204041e-38
-0.1735339463 -0.2156957984 -0.2242906243 2.348204041e-38
-0.136360243 -0.3583512902 -0.2342102081 2.348204041e-38
-0.05443334207 -0.5521425605 0.3539588451 2.348204041e-38
0.1693657488 -0.2999788225 0.211925745 2.348204041e-38
0.1483846456 -0.3294046223 0.2202823758 2.348204041e-38
-0.1367812902 -0.4351120591 -0.03772778437 2.348204041e-38
0.1826526225 -0.3003623188 0.222023055 2.348204041e-38
0.174889043 -0.7712361813 0.1518550813 2.348132155e-38
-0.06007626653 -0.3985292017 -0.08052752167 2.348132155e-38
0.03942432255 -0.7792620659 0.1547663808 2.348132155e-38
0.06599809229 -0.7800290585 0.1749609709 2.348132155e-38
0.1669804156 -0.2734593153 0.2175689787 2.348132155e-38
-0.03517857566 -0.5603855848 0.2754064798 2.348132155e-38
-0.02296077088 -0.5595446229 0.2741056085 2.348132155e-38
0.1672902703 -0.4570180178 0.3097932041 2.348132155e-38
0.03692460805 -0.3195898831 -0.005615603179 2.348060128e-38
0.02807889134 -0.3401512206 0.01092007011 2.348060128e-38
-0.1082363129 -0.298410207 0.4615183473 2.348060128e-38
0.035773132 -0.3103419244 -0.007533913478 2.348060128e-38
-0.1611148268 -0.2933529019 -0.1747496128 2.348060128e-38
0.06492899358 -0.7788046002 0.1635628045 2.348060128e-38
-0.1697604656 -0.3101199567 -0.2753945589 2.348060128e-38
0.01672887802 -0.2637185752 -0.02722277306 2.348060128e-38
0.1006649733 -0.3420163095 0.2274041176 2.347952368e-38
-0.1153425127 -0.3913764358 -0.1727652401 2.347952368e-38
0.1184191182 -0.4603817463 0.3149966598 2.347952368e-38
-0.01965835132 -0.2663529813 0.2218470722 2.347952368e-38
0.02223913744 -0.2858878076 0.01080837101 2.347952368e-38
0.146081686 -0.3109086454 0.2164457589 2.347952368e-38
-0.1012794301 -0.4233412743 -0.04354866967 2.347952368e-38
0.08176580071 -0.4629045725 0.3188992143 2.347952368e-38
-0.04846544564 -0.5600020289 0.265309155 2.347880341e-38
-0.1699147671 -0.2594867945 -0.2374954373 2.347880341e-38
0.05733020604 -0.4645864367 0.321500957 2.347880341e-38
0.0451124385 -0.4654273391 0.3228017986 2.347880341e-38
-0.1676941812 -0.2699592113 -0.2241789252 2.347880341e-38
-0.02402987331 -0.5583201647 0.2627074718 2.347880341e-38
0.08936453611 -0.777122736 0.1609610915 2.347880341e-38
0.1905743927 -0.4460881948 0.3052731752 2.347880341e-38
-0.1093054116 -0.2971857786 0.4501201808 2.347808455e-38
-0.09589958191 -0.3680437803 0.5205392838 2.347808455e-38
0.01594346762 -0.3490156829 0.002741042525 2.347808455e-38
-0.1600457281 -0.2945773304 -0.1633514315 2.347808455e-38
0.1227975711 -0.3218384981 0.2209657878 2.347808455e-38
0.02692741528 -0.3309032321 0.009001754224 2.347808455e-38
0.02594068646 -0.3377023339 -0.01187629066 2.347808455e-38
-0.1169521287 -0.3756490946 0.2546561956 2.347808455e-38
0.1170401797 -0.2755986154 0.2113742381 2.347700555e-38
0.1302447319 -0.2679586112 0.2309513986 2.347700555e-38
-0.09688629955 -0.3748428822 0.4996611476 2.347700555e-38
-0.1019846946 -0.3927912712 0.4142307043 2.347700555e-38
-0.1134972349 -0.4241821766 -0.04224781319 2.347700555e-38
0.06401161104 -0.3445391357 0.2313067019 2.347700555e-38
-0.007175885141 -0.3759925663 -0.01169867441 2.347700555e-38
-0.0159764681 -0.4696320295 0.3293060958 2.347700555e-38
-0.1710662395 -0.250238806 -0.2394137383 2.347628668e-38
-0.1103745177 -0.2959613204 0.4387220144 2.347628668e-38
0.1459993124 -0.3028851151 0.2259256244 2.347628668e-38
-0.1166129634 -0.3116539717 -0.2350053042 2.347628668e-38
-0.01931127161 -0.3848570585 -0.01987766847 2.347628668e-38
0.138305068 -0.3326944113 0.24437958 2.347628668e-38
0.1094283164 -0.3134314716 0.2203483433 2.347628668e-38
0.1772050858 -0.4376811385 0.3046557307 2.347628668e-38
-0.009314090014 -0.3735437095 -0.03449500725 2.347520768e-38
0.03957606852 -0.346221 0.2339084148 2.347520768e-38
0.09836202115 -0.3235203624 0.2235675007 2.347520768e-38
-0.1202418059 -0.3639522493 0.2299415618 2.347520768e-38
0.1992095709 -0.4639071822 0.3869787157 2.347520768e-38
-0.1026436761 -0.3286030293 0.490069598 2.347520768e-38
-0.1162321866 -0.4962439537 0.4341175258 2.347520768e-38
-0.125669688 -0.3498065174 0.1824305207 2.347520768e-38
-0.04041200876 -0.4713138938 0.3319078088 2.347448882e-38
0.08038686961 -0.2781214118 0.2152768075 2.347448882e-38
-0.008327357471 -0.3667446077 -0.0136169754 2.347448882e-38
-0.05558482185 -0.5428946018 0.3520405293 2.347448882e-38
0.1405517757 -0.4402039051 0.308558315 2.347448882e-38
-0.01786237955 -0.5415961742 0.3595361114 2.347448882e-38
-0.01848994941 -0.4895164371 0.4237106442 2.347448882e-38
-0.06076559052 -0.5528194904 0.2760899067 2.347448882e-38
-0.02329654247 -0.2465209663 -0.03855501115 2.347340982e-38
-0.1194394976 -0.4925706387 0.3999230266 2.347340982e-38
0.006731659174 -0.2750318944 -0.01260543801 2.347340982e-38
0.02133478224 -0.3007104397 -0.01954953559 2.347340982e-38
-0.1557693183 -0.2994751036 -0.1177587286 2.347340982e-38
-0.1183703914 -0.4937950373 0.411321193 2.347340982e-38
-0.01099636406 -0.2537035644 -0.04933572933 2.347340982e-38
0.08499278128 -0.3151133358 0.2229500562 2.347340982e-38
-0.03633005545 -0.5511375666 0.2734881639 2.347269095e-38
0.05595127493 -0.2798033059 0.2178785354 2.347269095e-38
-0.03373061121 -0.3512665927 0.2417135686 2.347269095e-38
0.1959199011 -0.4522103667 0.3622640669 2.347269095e-38
-0.1010803431 -0.3779686391 0.4445885718 2.347269095e-38
-0.1037127823 -0.327378571 0.4786714315 2.347269095e-38
-0.1639120281 -0.2267157733 -0.1217070147 2.347269095e-38
0.05617873371 -0.4553384781 0.3195826411 2.347269095e-38
0.1871199608 -0.4183442593 0.2995182574 2.347161195e-38
-0.04594840854 -0.3521075547 0.243014425 2.347161195e-38
-0.1171895713 -0.2554892302 -0.1686462164 2.347161195e-38
-0.1065791696 -0.3627916276 -0.1798210293 2.347161195e-38
0.007883131504 -0.2842798531 -0.01068712957 2.347161195e-38
0.1636252999 -0.4676544666 0.4022794664 2.347161195e-38
0.06170865893 -0.3260431886 0.227470085 2.347161195e-38
0.04396096617 -0.4561793804 0.3208834827 2.347161195e-38
0.08268982172 -0.2966173887 0.2191134393 2.347089308e-38
0.08153834939 -0.2873694003 0.2171951234 2.347089308e-38
0.0005183964968 -0.3461833 -0.03015263006 2.347089308e-38
0.1749021411 -0.4191851616 0.3008190989 2.347089308e-38
0.009034611285 -0.2935278416 -0.00876881741 2.347089308e-38
-0.1730135828 -0.3608740866 -0.2303076237 2.347089308e-38
-0.05816617608 -0.3529484868 0.2443152815 2.347089308e-38
-0.1135818213 -0.2922880054 0.4045274556 2.347089308e-38
-0.1681060493 -0.2298415303 -0.1767795831 2.346981408e-38
0.01929796487 -0.2823261023 0.2217811048 2.346981408e-38
0.03174319118 -0.4570203424 0.3221843541 2.346981408e-38
0.1737506688 -0.4099372029 0.2989008129 2.346981408e-38
-0.03473635018 -0.3820246756 -0.05277133733 2.346981408e-38
0.01673512347 -0.5446480513 0.3233573437 2.346981408e-38
0.1447092146 -0.3746271729 0.2938292623 2.346981408e-38
0.1592299342 -0.3922821879 0.2963650227 2.346981408e-38
0.04949088395 -0.3268841207 0.2287709415 2.346909522e-38
0.1881890595 -0.4195686579 0.3109164238 2.346909522e-38
-0.159059003 -0.2877782583 -0.1424733996 2.346909522e-38
-0.03427422047 -0.545562923 0.3057644367 2.346909522e-38
-0.1670369506 -0.2310659885 -0.1653814167 2.346909522e-38
0.1926302016 -0.4405134916 0.3375493884 2.346909522e-38
0.01952542551 -0.4578612447 0.3234851956 2.346909522e-38
0.0794628486 -0.4444085956 0.3150626123 2.346909522e-38
0.1514075398 -0.468495369 0.403580308 2.346801622e-38
-0.05516021699 -0.2781237662 0.2276679575 2.346801622e-38
-0.05977885425 -0.5460203886 0.2969679832 2.346801622e-38
-0.09296502918 -0.2713986039 0.229652226 2.346801622e-38
-0.1464398056 -0.361641109 -0.2101130038 2.346801622e-38
-0.1032185405 -0.3755197525 0.421792239 2.346801622e-38
0.1470121592 -0.3931231499 0.297665894 2.346801622e-38
-0.1211479232 -0.2756933868 0.3342200816 2.346801622e-38
-0.01735540293 -0.2848488986 0.2256836891 2.346693862e-38
-0.1070024669 -0.3156816959 0.4539567828 2.346693862e-38
-0.1543353945 -0.3129523396 -0.2425008863 2.346693862e-38
0.1746916026 -0.457565546 0.3990603089 2.346693862e-38
0.1936993003 -0.4417379498 0.3489475548 2.346693862e-38
0.009199358523 -0.3095749319 -0.02772855386 2.346693862e-38
-0.1350462586 -0.2597756684 0.1860437542 2.346693862e-38
-0.1713238209 -0.2607542872 -0.2299135476 2.346693862e-38
-0.1678589284 -0.2539121211 -0.2052192092 2.346621835e-38
0.1132537052 -0.4328458905 0.4725361466 2.346621835e-38
-0.04756108671 -0.5451794267 0.2956671119 2.346621835e-38
-0.1268211603 -0.3405585587 0.1805122197 2.346621835e-38
-0.08928315341 -0.4746776819 0.3371112347 2.346621835e-38
0.09597670287 -0.297000885 0.2292107493 2.346621835e-38
-0.0007457844913 -0.5473903418 0.2581874132 2.346621835e-38
0.1359458715 -0.4032120705 0.3008850515 2.346621835e-38
0.1892581582 -0.4207931161 0.3223145902 2.346514075e-38
0.1947684139 -0.4429624081 0.360345751 2.346514075e-38
-0.1642136425 -0.3947402239 -0.1675617993 2.346514075e-38
0.1881066859 -0.4115450978 0.3203962743 2.346514075e-38
-0.03374962509 -0.3752255738 -0.03189328685 2.346514075e-38
-0.04909235984 -0.3804167509 -0.07426683605 2.346514075e-38
0.04718793929 -0.3083881736 0.2249343246 2.346514075e-38
0.1191221848 -0.3670610785 0.2945126891 2.346514075e-38
0.1248795614 -0.4133009315 0.3041042387 2.346406175e-38
0.1914787292 -0.431265533 0.3356310725 2.346406175e-38
0.04603645951 -0.2991401851 0.2230160087 2.346406175e-38
0.004434977658 -0.5374654531 0.3341380358 2.346406175e-38
-0.09251609445 -0.3947563767 -0.0506044589 2.346406175e-38
-0.1303940713 -0.2631292343 -0.1882234216 2.346406175e-38
-0.166954577 -0.2390895188 -0.1748612821 2.346406175e-38
-0.1268664747 -0.4157751203 -0.04286527261 2.346406175e-38
-0.0007978305221 -0.3208882809 -0.0131111946 2.346334289e-38
-0.1627605408 -0.235963732 -0.1197886989 2.346334289e-38
-0.1134056523 -0.3153272867 -0.2008107752 2.346334289e-38
-0.1080715731 -0.3144572675 0.4425586164 2.346334289e-38
-0.155851692 -0.2914515734 -0.1082788408 2.346334289e-38
0.19797571 -0.4466357231 0.3945402801 2.346334289e-38
0.1103587821 -0.3956459165 0.3015684783 2.346334289e-38
-0.09901308268 -0.3793862462 -0.1095136553 2.346334289e-38
-0.1547825933 -0.2926760316 -0.09688066691 2.346226389e-38
0.09996680915 -0.432462424 0.4624388218 2.346226389e-38
0.02044944279 -0.2915740907 0.2236994207 2.346226389e-38
0.03059171699 -0.4477723241 0.3202660382 2.346226389e-38
-0.1602104753 -0.2785302699 -0.1443917006 2.346226389e-38
-0.03488208726 -0.3420186341 0.2397952676 2.346226389e-38
-0.1033009142 -0.3674962521 0.4312721193 2.346226389e-38
-0.1453707069 -0.3628655374 -0.1987148076 2.346226389e-38
-0.1606223285 -0.2384126186 -0.09699235857 2.346118629e-38
0.01459692139 -0.5421991944 0.3005610108 2.346118629e-38
0.09698954225 -0.3872389197 0.3009510338 2.346118629e-38
-0.1586575806 -0.3624820113 -0.2088121325 2.346118629e-38
-0.1113612503 -0.3027604222 0.4178439379 2.346118629e-38
-0.04709988087 -0.3428595662 0.2410961241 2.346118629e-38
0.06609360874 -0.4360015988 0.314445138 2.346118629e-38
-0.1012336612 -0.3689138293 -0.1228301376 2.346118629e-38
0.02160091698 -0.3008220494 0.2256177217 2.346010729e-38
0.1147541627 -0.4710181952 0.4074828923 2.346010729e-38
-0.05931764841 -0.3437005281 0.2423969805 2.346010729e-38
0.145613566 -0.3598045409 0.3241871595 2.346010729e-38
-0.1399794221 -0.3145602942 -0.2210054249 2.346010729e-38
0.1879419237 -0.3954980373 0.3393560052 2.346010729e-38
0.01558364555 -0.5354000926 0.3214390278 2.346010729e-38
0.1890933961 -0.4047460556 0.3412743211 2.346010729e-38
-0.06024101377 -0.3824821115 -0.06156781316 2.345938842e-38
0.1936169416 -0.4337144494 0.358427465 2.345938842e-38
0.0538757816 -0.4368425012 0.3157460093 2.345938842e-38
0.1243200004 -0.4227569699 0.469317019 2.345938842e-38
-0.1283382326 -0.2575546205 -0.1559471935 2.345938842e-38
-0.158072263 -0.2809791565 -0.1215953454 2.345938842e-38
0.04595408589 -0.2911166549 0.2324958742 2.345938842e-38
-0.05131293833 -0.369944334 -0.08758331835 2.345938842e-38
-0.05917191505 -0.3837065697 -0.05016961694 2.345830942e-38
-0.05024383962 -0.3711687624 -0.07618515193 2.345830942e-38
0.07485695183 -0.4074167013 0.3073893785 2.345830942e-38
0.07600842416 -0.4166647196 0.3093076646 2.345830942e-38
-0.0005316995084 -0.3209998906 0.2320560664 2.345830942e-38
0.07370547205 -0.3981687427 0.3054710627 2.345830942e-38
0.07255399972 -0.388920784 0.3035527468 2.345830942e-38
-0.1349638849 -0.2677991986 0.1765639037 2.345830942e-38
0.07140251994 -0.3796727657 0.3016344309 2.345723183e-38
-0.1360329837 -0.2665747702 0.1651657373 2.345723183e-38
-0.01505244896 -0.3033448756 0.229520306 2.345723183e-38
-0.1033833027 -0.359472692 0.4407519698 2.345723183e-38
-0.1570031643 -0.2822036147 -0.1101971492 2.345723183e-38
-0.1527267545 -0.2871013582 -0.06460445374 2.345723183e-38
0.1613223553 -0.4491584897 0.3984428346 2.345723183e-38
-0.1299456358 -0.3656979203 -0.165821135 2.345723183e-38
0.195755139 -0.4361633062 0.3812237978 2.345615283e-38
0.1466997266 -0.4266497791 0.4344390035 2.345615283e-38
-0.06298616529 -0.542347014 0.2627733946 2.345615283e-38
-0.1537958533 -0.2858769298 -0.07600262016 2.345615283e-38
0.1890110373 -0.3967224956 0.3507542014 2.345615283e-38
-0.107989192 -0.3224808276 0.4330787361 2.345615283e-38
-0.1653651297 -0.3854922056 -0.1694801152 2.345615283e-38
-0.1559340656 -0.2834280431 -0.0987989828 2.345615283e-38
-0.04407699406 -0.4819503427 0.4243940711 2.345507523e-38
-0.007541939616 -0.2814474702 -0.04358080029 2.345507523e-38
0.0626391843 -0.4082576632 0.3086902201 2.345507523e-38
-0.1443016082 -0.3640899658 -0.1873166412 2.345507523e-38
0.1222641692 -0.4283316433 0.4370407462 2.345507523e-38
-0.1046171412 -0.3422012031 0.4483135641 2.345507523e-38
-0.1616090685 -0.2452117205 -0.117870383 2.345507523e-38
-0.1195218638 -0.4845470786 0.4094028771 2.345507523e-38
-0.1410119236 -0.3757868409 -0.1626019776 2.345399623e-38
0.02944024093 -0.4385243654 0.3183477223 2.345399623e-38
-0.128255859 -0.2655781507 -0.1654270589 2.345399623e-38
0.1866257042 -0.3702030182 0.35639745 2.345399623e-38
0.04466397315 -0.3628587127 0.3003995419 2.345399623e-38
-0.110209778 -0.3120083809 0.4197622538 2.345399623e-38
0.02151854523 -0.2927985191 0.2350975871 2.345399623e-38
0.05272430182 -0.4275945425 0.3138276935 2.345399623e-38
-0.1269035488 -0.3325349987 0.1899920702 2.345291723e-38
-0.1614443064 -0.261258781 -0.1368301362 2.345291723e-38
-0.1581546366 -0.2729556262 -0.1121154577 2.345291723e-38
-0.1301108599 -0.3288616836 0.1557975113 2.345291723e-38
-0.01408474147 -0.3205047548 -0.02320852876 2.345291723e-38
-0.02320789173 -0.5354740024 0.3025452495 2.345291723e-38
0.03244620562 -0.3636996448 0.3017003834 2.345291723e-38
-0.1549473256 -0.2766289413 -0.0779209286 2.345291723e-38
0.193534568 -0.4256908894 0.3679073155 2.345219836e-38
0.009300746024 -0.2936394811 0.2363984436 2.345219836e-38
0.1900801361 -0.3979469538 0.3621523678 2.345219836e-38
-0.119703047 -0.2753736675 -0.07424163818 2.345219836e-38
-0.1169516668 -0.396438241 -0.04800274596 2.345219836e-38
0.03474915028 -0.3821955919 0.3055370152 2.345219836e-38
-0.1432325095 -0.365314424 -0.175918445 2.345219836e-38
-0.1123823225 -0.3709791899 -0.1101311147 2.345219836e-38
-0.1521971971 -0.3154012263 -0.2197045535 2.345111936e-38
-0.02611874416 -0.3134337962 0.2327394783 2.345111936e-38
-0.02496726811 -0.3226817548 0.2346577793 2.345111936e-38
0.03820358217 -0.4099395275 0.3112919331 2.345111936e-38
0.04050653428 -0.4284354448 0.3151285648 2.345111936e-38
-0.1306874603 -0.2726969719 0.222156629 2.345111936e-38
0.09567331523 -0.361943841 0.3179924488 2.345111936e-38
-0.1573326588 -0.2501094639 -0.07227769494 2.345111936e-38
-0.061392501 -0.373234123 -0.06348612905 2.345004176e-38
-0.1124189273 -0.3085281849 -0.1799327284 2.345004176e-38
-0.1068262905 -0.3387209773 -0.151381433 2.345004176e-38
-0.0260553807 -0.3454162776 -0.05034726858 2.345004176e-38
0.135386318 -0.4126680791 0.4660978317 2.345004176e-38
0.1876948029 -0.3714274764 0.3677956164 2.345004176e-38
0.1099640206 -0.4211490452 0.4478214383 2.345004176e-38
-0.03948799148 -0.3050267398 0.2321220189 2.345004176e-38
-0.04825136065 -0.3336116076 0.2391778082 2.344896276e-38
-0.05139531195 -0.361920774 -0.07810346037 2.344896276e-38
0.01138961222 -0.5385258794 0.2663664222 2.344896276e-38
0.09774622321 -0.4219899774 0.4491223097 2.344896276e-38
0.1610386372 -0.3626369238 0.357080847 2.344896276e-38
-0.1112788767 -0.3107839525 0.4083640873 2.344896276e-38
0.001131748781 -0.1779545546 0.5136075616 2.344896276e-38
0.1013849154 -0.4626111984 0.4068654478 2.344896276e-38
-0.001897260547 -0.5381423235 0.2562690973 2.344788516e-38
-0.01753916591 -0.292760849 -0.02896345779 2.344788516e-38
0.1934521943 -0.4176673293 0.377387166 2.344788516e-38
