# .PCD v0.7 - Point Cloud Data file format
VERSION 0.7
FIELDS x y z rgb
SIZE 4 4 4 4
TYPE F F F F
COUNT 1 1 1 1
WIDTH 837
HEIGHT 1
VIEWPOINT 0 0 0 1 0 0 0
POINTS 837
DATA ascii
0.4232234359 -0.4741505384 -0.1019574553 1.037659831e-38
-0.2377580106 -0.2567311823 0.3581107855 1.037659831e-38
0.1610869467 -0.2986827195 0.2744945288 1.037659831e-38
0.06501197815 -0.339774549 -0.2894303501 1.056062664e-38
0.3147440553 -0.3183879852 -0.3110333383 1.056062664e-38
0.02402740717 -0.2964566648 0.2730199993 1.056062664e-38
0.1238809302 -0.285626173 0.2743836045 1.056062664e-38
0.04463206604 -0.3751147091 -0.0710484013 1.056062664e-38
0.3724579811 -0.4760162532 0.02183798328 1.056062664e-38
-0.2374214828 -0.2199178785 0.3838506937 1.056062664e-38
0.3727356493 -0.4752137065 -0.01546147838 1.056062664e-38
0.1011184603 -0.3679557145 -0.1652789414 1.074429623e-38
-0.02069632523 -0.2091796994 -0.2728282809 1.074429623e-38
0.3863764703 -0.4481094778 -0.1266435385 1.074429623e-38
0.2064264417 -0.3782805204 -0.04443943873 1.074429623e-38
0.1067467332 -0.3766615987 -0.04551182315 1.074429623e-38
0.3485338092 -0.4488399625 -0.064879857 1.074429623e-38
0.08632720262 -0.2974685133 0.2736902535 1.074429623e-38
-0.2253820896 -0.3646983504 0.1566933692 1.074429623e-38
-0.2258085161 -0.3061963618 0.3322136998 1.092796582e-38
-0.03333019465 -0.2214267701 -0.2732535303 1.092796582e-38
-0.1584514678 -0.2567514479 -0.2754676044 1.092796582e-38
0.2342308909 -0.3479419053 -0.2025381476 1.092796582e-38
0.07629106939 -0.3672834635 -0.1779802293 1.092796582e-38
0.06510453671 -0.3395070136 -0.3018635511 1.092796582e-38
-0.2248802036 -0.2079382986 0.3967090845 1.092796582e-38
0.2565439641 -0.3782874644 -0.08120273799 1.092796582e-38
0.09392777085 -0.3894436955 -0.02107072994 1.111163541e-38
-0.2346472591 -0.3074751794 -0.1779713482 1.111163541e-38
-0.2381871343 -0.2938120067 0.3448039889 1.111163541e-38
0.4112150669 -0.4606961608 -0.1390997916 1.111163541e-38
0.2184348106 -0.3917348981 -0.00729709724 1.111163541e-38
-0.2257271856 -0.2940143943 0.3449380398 1.111163541e-38
0.07369330525 -0.3097155988 0.2732650042 1.111163541e-38
0.06123335287 -0.3095132411 0.2731309533 1.111163541e-38
0.1063877195 -0.3896460533 -0.02093668282 1.1295305e-38
0.246424377 -0.3608612716 -0.1902621239 1.1295305e-38
0.1481053233 -0.3358286917 0.2734869123 1.1295305e-38
-0.2381058037 -0.2816300988 0.3575283885 1.1295305e-38
0.2690964937 -0.3782223165 -0.09350184351 1.1295305e-38
0.4107635021 -0.4739481807 -0.1020915061 1.1295305e-38
0.3599980175 -0.4758138657 0.02170393988 1.1295305e-38
0.2190715075 -0.3779478669 -0.06917173415 1.1295305e-38
0.3599054515 -0.4760813713 0.03413714841 1.147897319e-38
0.06910043955 -0.3887714446 -0.03377198055 1.147897319e-38
-0.238223508 -0.353651613 0.2314495593 1.147897319e-38
-0.1884875149 -0.3428142369 0.2695764005 1.147897319e-38
0.3729207814 -0.4746786654 -0.040327847 1.147897319e-38
0.3739165366 -0.44790712 -0.1267775893 1.147897319e-38
-0.2356429994 -0.3342467248 -0.09152157605 1.147897319e-38
0.09843936563 -0.3225697875 0.2732419074 1.147897319e-38
-0.2249727696 -0.2082058042 0.4091422558 1.166264278e-38
0.4108560681 -0.4736806452 -0.1145246848 1.166264278e-38
-0.2227314562 -0.3211970627 -0.1283958256 1.166264278e-38
-0.1971688122 -0.3728731871 -0.2931189537 1.166264278e-38
-0.2375531048 -0.3756078482 0.09410229325 1.166264278e-38
-0.1511076093 -0.34342134 0.2699785531 1.166264278e-38
0.1774293184 -0.3407933116 -0.3255234063 1.166264278e-38
-0.2338254303 -0.2931531072 -0.2647123337 1.166264278e-38
0.373464942 -0.4611591101 -0.0897692889 1.184631237e-38
-0.225483194 -0.2574685812 0.3831111491 1.184631237e-38
0.1064802855 -0.3893785477 -0.03336983547 1.184631237e-38
0.0777496174 -0.33917436 -0.326595813 1.184631237e-38
0.3475380838 -0.4756115079 0.02156988904 1.184631237e-38
-0.2250005901 -0.3755426705 0.08180318773 1.184631237e-38
0.3474455178 -0.4758790135 0.03400310501 1.184631237e-38
-0.2252782732 -0.376345247 0.119102709 1.184631237e-38
-0.2385349125 -0.3187109232 0.3442215919 1.202998196e-38
-0.2260749638 -0.3189133108 0.3443556428 1.202998196e-38
-0.234369576 -0.3066726327 -0.2152708471 1.202998196e-38
-0.1012677774 -0.3442308009 0.2705147564 1.202998196e-38
-0.2379233539 -0.3766779304 0.1438349634 1.202998196e-38
-0.2382122874 -0.3655660748 0.2062919885 1.202998196e-38
-0.2259486914 -0.3543890417 0.256449908 1.202998196e-38
-0.001414218452 -0.3334002793 0.2718783319 1.202998196e-38
-0.2254018784 -0.2452866882 0.3958355188 1.221365155e-38
0.176526159 -0.3672972918 -0.2515068352 1.221365155e-38
-0.2250653207 -0.2084733248 0.4215754569 1.221365155e-38
-0.2219096273 -0.3068750203 -0.2151367962 1.221365155e-38
0.2311724424 -0.3911347091 -0.04446253926 1.221365155e-38
-0.0961516574 -0.2577632666 -0.2747973502 1.221365155e-38
0.2812899649 -0.3911416233 -0.08122584224 1.221365155e-38
0.1276820302 -0.3397163153 -0.3384927809 1.221365155e-38
-0.2370902896 -0.3742702603 0.03193646297 1.239732115e-38
-0.2383048534 -0.3658335805 0.2187251449 1.239732115e-38
-0.23427701 -0.3064050972 -0.2277040333 1.239732115e-38
-0.2386050075 -0.3428072929 0.3063397408 1.239732115e-38
0.06088557467 -0.3344121277 0.2725485563 1.239732115e-38
-0.2252392173 -0.2209227979 0.4212842584 1.239732115e-38
-0.238501206 -0.3544541895 0.2687490284 1.239732115e-38
-0.22557576 -0.2577361166 0.3955443203 1.239732115e-38
-0.2386274636 -0.3189784586 0.3566548228 1.258099074e-38
0.2688300312 -0.3909392655 -0.08135989308 1.258099074e-38
0.3615491092 -0.4474372268 -0.1393447965 1.258099074e-38
-0.07123173028 -0.2581680119 -0.2745292783 1.258099074e-38
-0.2383974046 -0.3661010861 0.2311583608 1.258099074e-38
0.01972340606 -0.3866243958 -0.09647399932 1.258099074e-38
0.38629511 -0.4602914155 -0.1393678933 1.258099074e-38
-0.2386975735 -0.3430747986 0.3187728822 1.258099074e-38
-0.2376178354 -0.2085384876 0.4338745773 1.276466033e-38
-0.2385461479 -0.3067965209 0.3693791628 1.276466033e-38
0.08848457038 -0.3802028298 -0.1657041907 1.276466033e-38
-0.1337054372 -0.2696056366 -0.2754907012 1.276466033e-38
-0.2260861993 -0.3069989085 0.3695132136 1.276466033e-38
0.3489966393 -0.4475023746 -0.127045691 1.276466033e-38
0.1477575451 -0.3607276082 0.2729045153 1.276466033e-38
0.3606459498 -0.4739412367 -0.06532820314 1.276466033e-38
-0.2257410884 -0.3776828349 0.1812685281 1.294832852e-38
-0.2216319293 -0.3060724437 -0.2524362803 1.294832852e-38
-0.02650800347 -0.3454450071 0.2713190317 1.294832852e-38
-0.2348211557 -0.3199246228 -0.1782625467 1.294832852e-38
0.04409915954 -0.4005486667 -0.04676445574 1.294832852e-38
0.1892637908 -0.3666971326 -0.2886722684 1.294832852e-38
0.1759820282 -0.3808168173 -0.2020653486 1.294832852e-38
0.07611718029 -0.3797329366 -0.1782714278 1.294832852e-38
-0.2382936031 -0.3777479827 0.1935676336 1.313163938e-38
-0.04631181061 -0.2585727572 -0.2742611766 1.313163938e-38
0.3859361112 -0.4732758999 -0.1147927791 1.313163938e-38
0.06937813014 -0.387968868 -0.07107150555 1.313163938e-38
-0.1263615936 -0.3562754989 0.2699554563 1.313163938e-38
0.3611901104 -0.4604216814 -0.1147696823 1.313163938e-38
0.05388952792 -0.222843349 -0.2723152041 1.313163938e-38
-0.1850678921 -0.3860599995 -0.2684097588 1.313163938e-38
0.3359924555 -0.4608195424 -0.07773825526 1.331530897e-38
-0.2259262204 -0.378217876 0.2061348408 1.331530897e-38
0.1760745943 -0.3805493116 -0.2144985348 1.331530897e-38
-0.2255056649 -0.2336397618 0.4334262311 1.331530897e-38
0.3355408609 -0.4740715623 -0.04072998837 1.331530897e-38
-0.1726079434 -0.3862623572 -0.268275708 1.331530897e-38
-0.2353653014 -0.3334441483 -0.128821075 1.331530897e-38
0.06634947658 -0.2230457067 -0.2721811533 1.331530897e-38
0.3738351762 -0.4600890577 -0.1395019442 1.349897856e-38
0.0565591082 -0.4007510245 -0.04663040861 1.349897856e-38
0.3733836114 -0.4733410776 -0.1024936438 1.349897856e-38
0.3365366161 -0.4473000169 -0.127179727 1.349897856e-38
0.1025882363 -0.3517610133 -0.3390520811 1.349897856e-38
-0.2346360236 -0.3193895817 -0.2031288892 1.349897856e-38
0.0762097463 -0.379465431 -0.1907045841 1.349897856e-38
-0.2382208258 -0.2580687702 0.4202766418 1.349897856e-38
0.2440026402 -0.3902670145 -0.09406113625 1.368228942e-38
-0.2388939261 -0.3316954076 0.3687967658 1.368228942e-38
-0.2384787351 -0.3782830238 0.2184339464 1.368228942e-38
0.1600435972 -0.3733794689 0.2727473676 1.368228942e-38
-0.08386556804 -0.2704151273 -0.2749544978 1.368228942e-38
0.1286492646 -0.2240575552 -0.2715108991 1.368228942e-38
-0.2257608771 -0.2582711577 0.4204106629 1.368228942e-38
0.06447906792 -0.365208447 -0.2651464045 1.368228942e-38
0.09791769832 -0.3599181473 0.2723683119 1.386595901e-38
-0.2374493033 -0.3872547448 0.0565116331 1.386595901e-38
-0.2380972505 -0.3891273737 0.1435437649 1.386595901e-38
-0.05160181597 -0.3574897349 0.2707597315 1.386595901e-38
0.1533953249 -0.2369117588 -0.2715339959 1.386595901e-38
-0.2254521698 -0.3887946904 0.118811518 1.386595901e-38
0.2189901769 -0.3901298046 -0.08189608157 1.386595901e-38
0.03227591887 -0.3865592182 -0.1087731346 1.386595901e-38
0.04464330152 -0.3870291412 -0.09620590508 1.404926846e-38
-0.2256373018 -0.3893297315 0.1436778158 1.404926846e-38
-0.2383947223 -0.2705182433 0.4199854434 1.404926846e-38
0.09109553695 -0.2358999252 -0.2722042501 1.404926846e-38
0.3487301767 -0.4602193236 -0.1149037257 1.404926846e-38
-0.2388714552 -0.3555242419 0.3184816837 1.404926846e-38
0.1035554856 -0.2361022979 -0.2720701993 1.404926846e-38
-0.2238085121 -0.3601505458 -0.05467043072 1.404926846e-38
0.06457163393 -0.3649409413 -0.2775796056 1.423293806e-38
-0.2389864922 -0.3319629133 0.3812299371 1.423293806e-38
0.3861212134 -0.4727408886 -0.1396590918 1.423293806e-38
-0.2389051616 -0.3197810054 0.393954277 1.423293806e-38
-0.2389640212 -0.3557917774 0.330914855 1.423293806e-38
0.09439058602 -0.3881061077 -0.08323656023 1.423293806e-38
-0.02668189444 -0.3578944504 0.2710278332 1.423293806e-38
-0.2219909579 -0.3190569282 -0.2278611809 1.423293806e-38
-0.2259149849 -0.3901322782 0.1809773445 1.441624891e-38
0.1158415452 -0.2487541139 -0.2722273469 1.441624891e-38
-0.2254355848 -0.2095433921 0.4713080823 1.441624891e-38
-0.238823846 -0.3075990677 0.406678617 1.441624891e-38
-0.2351801842 -0.332909137 -0.1536874175 1.441624891e-38
0.05710324645 -0.387231499 -0.09607185423 1.441624891e-38
-0.2367200255 -0.3732001781 -0.017796183 1.441624891e-38
-0.2381507456 -0.2339724302 0.458158493 1.441624891e-38
-0.2218983918 -0.3187894225 -0.2402943373 1.459991851e-38
-0.2391603887 -0.3444123864 0.3809387088 1.459991851e-38
-0.00893193949 -0.2591798604 -0.273859024 1.459991851e-38
-0.2387425005 -0.29541713 0.4194030464 1.459991851e-38
0.1281275898 -0.261405915 -0.2723844945 1.459991851e-38
-0.2264002711 -0.3676410317 0.2934582233 1.459991851e-38
0.06956325471 -0.3874338567 -0.09593781084 1.459991851e-38
0.07721669972 -0.3646082878 -0.3023118973 1.459991851e-38
0.1148742884 -0.3644128442 -0.3392092288 1.478322936e-38
0.08831068128 -0.3926522732 -0.1659953892 1.478322936e-38
-0.2384059578 -0.2586038113 0.4451429248 1.478322936e-38
-0.2379880846 -0.2096085548 0.4836072624 1.478322936e-38
0.1404136419 -0.2740577459 -0.2725416422 1.478322936e-38
-0.2386611849 -0.2832351923 0.4321273863 1.478322936e-38
-0.2266191095 -0.3324328363 0.3937971294 1.478322936e-38
-0.2255281359 -0.2098109126 0.4837412834 1.478322936e-38
0.09074775875 -0.2607988119 -0.2727866471 1.496689755e-38
0.1758081317 -0.3932662606 -0.2023565471 1.496689755e-38
-0.2366274744 -0.3729326725 -0.03022933565 1.496689755e-38
0.280398041 -0.4295600653 -0.03236676008 1.496689755e-38
-0.2267930061 -0.3448823094 0.3935059309 1.496689755e-38
0.06582780927 -0.2603940666 -0.2730547488 1.496689755e-38
0.1349497586 -0.3854241669 0.2721880674 1.496689755e-38
-0.2267817557 -0.3567967117 0.3683484197 1.496689755e-38
0.1768150926 -0.3784091771 -0.3139638603 1.515020841e-38
-0.2383358628 -0.2345074564 0.4830248654 1.515020841e-38
0.2679381073 -0.4293577075 -0.0325008072 1.515020841e-38
-0.2258759141 -0.2347098291 0.4831588864 1.515020841e-38
0.3611087799 -0.4726036489 -0.1274940372 1.515020841e-38
0.1030338183 -0.2734506428 -0.2729437947 1.515020841e-38
0.1100298688 -0.3850194216 0.2719199657 1.515020841e-38
-0.1640892476 -0.3805673122 0.2689709067 1.515020841e-38
-0.2388377488 -0.3912675083 0.2430091202 1.533351927e-38
0.336003691 -0.4727339745 -0.1028957888 1.533351927e-38
-0.2240749598 -0.3728674948 -0.04252847284 1.533351927e-38
-0.2256260514 -0.4012441635 0.1185203195 1.533351927e-38
-0.2257186174 -0.4015116692 0.1309534609 1.533351927e-38
-0.009105830453 -0.2716293335 -0.2741502225 1.533351927e-38
-0.2255334854 -0.4009766281 0.1060871631 1.533351927e-38
-0.2263050377 -0.2717906535 0.4698520899 1.533351927e-38
-0.1215932518 -0.2947069407 -0.2759390473 1.551683013e-38
-0.2384562492 -0.4021118581 0.1681189388 1.551683013e-38
-0.2259037495 -0.4020467103 0.1558197737 1.551683013e-38
-0.2393230349 -0.3687762916 0.3554900289 1.551683013e-38
-0.2267228961 -0.3207859397 0.4313878417 1.551683013e-38
0.1254241318 -0.4059763551 -0.1534512937 1.551683013e-38
-0.2385488153 -0.4023793936 0.1805520952 1.551683013e-38
-0.1466870457 -0.3067516387 -0.2764983475 1.551683013e-38
-0.234347105 -0.330501467 -0.2655859292 1.570049832e-38
0.1271603554 -0.3770646751 -0.3393663764 1.570049832e-38
0.1379766315 -0.4059112072 -0.1657503992 1.570049832e-38
0.06019001827 -0.3842099607 0.2713837624 1.570049832e-38
0.003354116809 -0.2718316913 -0.2740161717 1.570049832e-38
-0.2261423767 -0.2474268228 0.4953008592 1.570049832e-38
-0.223530829 -0.3593479991 -0.09196992218 1.570049832e-38
-0.1374046057 -0.4409475923 -0.07010772079 1.570049832e-38
-0.2245265394 -0.3861195147 -0.005520148203 1.588380918e-38
-0.2263975888 -0.2720581889 0.4822853208 1.588380918e-38
0.04073401541 -0.2724387944 -0.2736140192 1.588380918e-38
-0.238776207 -0.2596738935 0.4948756099 1.588380918e-38
-0.2270594537 -0.3575992584 0.4056478739 1.588380918e-38
-0.1091332734 -0.2949092984 -0.2758049965 1.588380918e-38
-0.2395306379 -0.3454824686 0.4306713939 1.588380918e-38
-0.2267341465 -0.3088715374 0.4565453529 1.588380918e-38
0.03527012095 -0.3838052154 0.2711156905 1.606712004e-38
-0.2395081669 -0.3693113029 0.3803563416 1.606712004e-38
0.1347758621 -0.3978736103 0.2718968689 1.606712004e-38
-0.03419964388 -0.2836740315 -0.2747095227 1.606712004e-38
-0.2390314341 -0.2843052745 0.4818600714 1.606712004e-38
-0.134227097 -0.3069539964 -0.2763642967 1.606712004e-38
-0.2374380678 -0.3991691768 0.03135406971 1.606712004e-38
0.3174301684 -0.4550660849 -0.03254700825 1.606712004e-38
-0.1891830713 -0.3926120102 0.2684116066 1.625043089e-38
0.1276059151 -0.2987543046 -0.27325809 1.625043089e-38
0.2677642107 -0.4418071806 -0.03279200569 1.625043089e-38
-0.2271520048 -0.3578667939 0.4180811048 1.625043089e-38
-0.1767230928 -0.3928143978 0.2685456574 1.625043089e-38
0.336188823 -0.4721989334 -0.1277621239 1.625043089e-38
-0.2394969165 -0.3812257349 0.3551988304 1.625043089e-38
0.1770979911 -0.3244626522 -0.2733042836 1.625043089e-38
-0.2392079979 -0.3923375607 0.2927418053 1.643374035e-38
-0.2270369679 -0.3814280927 0.3553328812 1.643374035e-38
-0.2234382629 -0.3590804636 -0.1044031009 1.643374035e-38
0.2919660509 -0.4681808949 0.01662637293 1.643374035e-38
-0.2267453671 -0.2969571054 0.4817029238 1.643374035e-38
-0.2141025662 -0.5123315454 0.5014038682 1.643374035e-38
-0.2393005639 -0.3926050961 0.3051749468 1.643374035e-38
-0.2390116304 -0.4037169814 0.2427179217 1.643374035e-38
-0.2016425878 -0.5125339031 0.501537919 1.661705121e-38
-0.2270819247 -0.3337704241 0.455962956 1.661705121e-38
-0.08950336277 -0.3942309618 0.2694840133 1.661705121e-38
0.176826328 -0.3903235793 -0.3391214013 1.661705121e-38
-0.2270005941 -0.3215884864 0.4686872959 1.661705121e-38
-0.2269192636 -0.3094065785 0.4814117253 1.661705121e-38
-0.2243414223 -0.3855844736 -0.03038648702 1.661705121e-38
0.1026860327 -0.2983495593 -0.2735261917 1.661705121e-38
0.1627227068 -0.4187653959 -0.165773496 1.680036207e-38
-0.1766300946 -0.512671113 0.4893729091 1.680036207e-38
-0.05929345638 -0.2957187593 -0.2752688229 1.680036207e-38
-0.2397746146 -0.3820282817 0.3924982846 1.680036207e-38
-0.2381673306 -0.4132237136 0.1056619138 1.680036207e-38
-0.236708805 -0.3851145804 -0.04295371473 1.680036207e-38
-0.2398083359 -0.3462850153 0.4679708481 1.680036207e-38
-0.2384450287 -0.4140262902 0.1429613829 1.680036207e-38
-0.1393427998 -0.5135457516 0.5022081733 1.698367293e-38
0.1752752215 -0.4187002182 -0.1780726314 1.698367293e-38
-0.2275222689 -0.3589368463 0.4678137004 1.698367293e-38
-0.1517102122 -0.5130758882 0.489640981 1.698367293e-38
-0.2138248831 -0.5115289688 0.4641043842 1.698367293e-38
-0.2233456969 -0.358812958 -0.1168362573 1.698367293e-38
-0.2268293798 -0.4047218859 0.2801514268 1.698367293e-38
-0.2392893285 -0.4045195282 0.2800173759 1.698367293e-38
-0.2247929871 -0.3988364935 0.006621808745 1.716698239e-38
-0.2350763679 -0.3445560038 -0.1912781 1.716698239e-38
-0.2400747687 -0.3590019941 0.4801128805 1.716698239e-38
-0.225707382 -0.4134260714 0.1057959646 1.716698239e-38
-0.2387227118 -0.4148288369 0.1802608967 1.716698239e-38
-0.2242488563 -0.3853169382 -0.04281967133 1.716698239e-38
-0.2272670418 -0.3343054652 0.4808293283 1.716698239e-38
-0.2255222648 -0.4128910303 0.0809295997 1.716698239e-38
-0.2012723386 -0.5114638209 0.4518052936 1.735029324e-38
0.1221420392 -0.4101206958 0.2714716196 1.735029324e-38
-0.1893569529 -0.4050614834 0.2681204379 1.735029324e-38
-0.2261922657 -0.5110591054 0.4515371919 1.735029324e-38
-0.2265404612 -0.4158337414 0.2176944017 1.735029324e-38
-0.2253371328 -0.412356019 0.05606328696 1.735029324e-38
-0.2219684869 -0.3428857923 -0.2781762183 1.735029324e-38
0.005746040493 -0.4505418837 -0.01103189774 1.735029324e-38
-0.2357130796 -0.3583430648 -0.1294034719 1.75336041e-38
-0.2270144969 -0.405256927 0.3050177991 1.75336041e-38
-0.236616239 -0.3848470747 -0.0553868711 1.75336041e-38
-0.2398195565 -0.3343705833 0.4931284189 1.75336041e-38
-0.2136397511 -0.5109939575 0.4392380714 1.75336041e-38
0.1753677875 -0.4184327126 -0.1905057877 1.75336041e-38
-0.2276849151 -0.3833006918 0.4423650205 1.75336041e-38
-0.07695044577 -0.5142900944 0.490445286 1.75336041e-38
-0.2395670116 -0.4053220749 0.3173169196 1.771655483e-38
0.2425777912 -0.4541193843 -0.02091814205 1.771655483e-38
-0.1375785023 -0.4533970356 -0.07039891928 1.771655483e-38
-0.1021372303 -0.4064780772 0.269058764 1.771655483e-38
-0.1886272579 -0.5111311674 0.4270730317 1.771655483e-38
-0.08967725188 -0.4066804349 0.2691928148 1.771655483e-38
0.2801428437 -0.4541914463 -0.04538233578 1.771655483e-38
0.1887421161 -0.4040455222 -0.2895458639 1.771655483e-38
0.3238971829 -0.5146129131 0.2087719589 1.789986569e-38
-0.07721730322 -0.4068828225 0.2693268657 1.789986569e-38
0.1593480408 -0.4231772423 0.2715825737 1.789986569e-38
-0.08438724279 -0.3077634871 -0.2758280933 1.789986569e-38
-0.239278093 -0.4164339304 0.2548598945 1.789986569e-38
0.3365422785 -0.5142802596 0.1840396971 1.789986569e-38
-0.1637073308 -0.5115358829 0.4273411036 1.789986569e-38
0.072302185 -0.409311235 0.2709354162 1.789986569e-38
0.2551303804 -0.4540542662 -0.03321724758 1.808317654e-38
-0.2009946555 -0.5106612444 0.4145057499 1.808317654e-38
-0.2237047106 -0.3717974424 -0.09226112068 1.808317654e-38
-0.1499459147 -0.4529271722 -0.08296611905 1.808317654e-38
-0.2383745164 -0.5100541711 0.4141036272 1.808317654e-38
-0.2251520157 -0.4118209779 0.03119691834 1.808317654e-38
-0.1388799846 -0.5122081637 0.4400423765 1.808317654e-38
-0.1594948173 -0.3314481676 -0.2772147954 1.808317654e-38
0.1766524315 -0.4027730525 -0.3394125998 1.826612727e-38
-0.07676531374 -0.5137550235 0.4655789137 1.826612727e-38
0.1004229039 -0.4177535474 -0.1664437354 1.826612727e-38
-0.1264200509 -0.5124105215 0.4401764274 1.826612727e-38
-0.2258220166 -0.5099890232 0.4018045068 1.826612727e-38
-0.1387874186 -0.5119406581 0.4276092052 1.826612727e-38
-0.1970485747 -0.3432905078 -0.2779081166 1.826612727e-38
0.28633219 -0.5145408511 0.2332361192 1.826612727e-38
0.1344280839 -0.4227725267 0.271314472 1.844943813e-38
-0.1374859363 -0.45312953 -0.0828320682 1.844943813e-38
-0.2019907981 -0.417308569 0.2676951885 1.844943813e-38
0.298977226 -0.5142081976 0.2085038573 1.844943813e-38
-0.1094810516 -0.3198081851 -0.2763873935 1.844943813e-38
-0.1883495748 -0.5103285909 0.389773488 1.844943813e-38
-0.002457559574 -0.4080970287 0.2701311409 1.844943813e-38
-0.2274773121 -0.4065945148 0.3671836257 1.844943813e-38
-0.177070871 -0.4177133143 0.2679632902 1.863274899e-38
-0.2271883935 -0.4177063704 0.3047266006 1.863274899e-38
0.2865172923 -0.5140058398 0.2083698064 1.863274899e-38
0.213956207 -0.3624181449 -0.2737757564 1.863274899e-38
-0.1646109223 -0.4179156721 0.2680973411 1.863274899e-38
-0.2256368846 -0.5094540119 0.376938194 1.863274899e-38
-0.224515304 -0.3980339468 -0.03067768179 1.863274899e-38
-0.2275698781 -0.4068620205 0.379616797 1.863274899e-38
-0.1014075503 -0.5125477314 0.4280113578 1.881569971e-38
-0.2007169574 -0.5098587275 0.3772062957 1.881569971e-38
0.07613965869 -0.4035617709 -0.2285864651 1.881569971e-38
-0.2405964434 -0.396350354 0.479239285 1.881569971e-38
-0.23815611 -0.4251381457 0.08050435036 1.881569971e-38
-0.2387114912 -0.426743269 0.1551033258 1.881569971e-38
-0.1386022866 -0.5114055872 0.4027428329 1.881569971e-38
0.1755529195 -0.4178976715 -0.2153721303 1.881569971e-38
-0.1757970303 -0.510263443 0.3774743974 1.899901057e-38
0.09704824537 -0.4221654236 0.2709123194 1.899901057e-38
0.2866098583 -0.5137383342 0.19593665 1.899901057e-38
-0.2281364948 -0.3965527117 0.4793733358 1.899901057e-38
0.2992549241 -0.5134056807 0.1712043285 1.899901057e-38
-0.2006243914 -0.5095912218 0.3647731543 1.899901057e-38
-0.09702111036 -0.3200105429 -0.2762533426 1.899901057e-38
-0.2403075099 -0.4074622393 0.4167822599 1.899901057e-38
-0.1734073162 -0.4244132936 -0.2318498194 1.91819627e-38
-0.2368826866 -0.3975640535 -0.04324491322 1.91819627e-38
-0.1023111194 -0.4189275205 0.2687675655 1.91819627e-38
0.3119000793 -0.5130729675 0.1464720815 1.91819627e-38
-0.1261423528 -0.5116080046 0.4028768837 1.91819627e-38
-0.2256961614 -0.4253405035 0.08063840121 1.91819627e-38
0.06386483461 -0.4028243721 -0.2535868585 1.91819627e-38
-0.1857746989 -0.4239434004 -0.2444170415 1.91819627e-38
-0.2404000759 -0.4077297449 0.4292154014 1.936527215e-38
0.1756454706 -0.4176301658 -0.2278052717 1.936527215e-38
-0.2256035954 -0.4250729978 0.06820524484 1.936527215e-38
-0.08985114098 -0.4191298783 0.2689016163 1.936527215e-38
0.2741498947 -0.5135359764 0.1958026141 1.936527215e-38
0.1268125772 -0.4019635916 -0.3399487734 1.936527215e-38
-0.2221423835 -0.3553352356 -0.2784674168 1.936527215e-38
-0.2395445555 -0.429150939 0.2670018375 1.936527215e-38
-0.1136823744 -0.5118103623 0.4030109346 1.954822428e-38
-0.1880718917 -0.5095260739 0.3524739742 1.954822428e-38
-0.2404926419 -0.4079972506 0.4416485727 1.954822428e-38
0.2298513949 -0.4666340053 -0.008910234086 1.954822428e-38
-0.2128992528 -0.5088537931 0.3397727311 1.954822428e-38
-0.1733147502 -0.4241457582 -0.2442830056 1.954822428e-38
0.2111096233 -0.5146642327 0.2945976853 1.954822428e-38
-0.2347874492 -0.3556678891 -0.2537351251 1.954822428e-38
-0.07739119232 -0.4193322659 0.2690356672 1.973153514e-38
-0.2377265692 -0.5081815124 0.3270714879 1.973153514e-38
0.005572147667 -0.4629913568 -0.0113230953 1.973153514e-38
-0.2004392743 -0.5090561509 0.3399067819 1.973153514e-38
0.1985571235 -0.5147293806 0.3068968356 1.973153514e-38
-0.2396371216 -0.4294184446 0.279434979 1.973153514e-38
-0.2252666354 -0.5083839297 0.3272055387 1.973153514e-38
-0.2405852079 -0.408264786 0.4540817142 1.973153514e-38
0.06813842803 -0.4512862265 -0.02279481292 1.991448586e-38
0.1143526211 -0.4017612338 -0.3400828242 1.991448586e-38
-0.05156769976 -0.5133572221 0.4285475314 1.991448586e-38
-0.009627500549 -0.3089776933 -0.275023818 1.991448586e-38
-0.227269724 -0.429888308 0.2920022607 1.991448586e-38
-0.2251740694 -0.5081164241 0.3147723675 1.991448586e-38
-0.2402037233 -0.4191091061 0.3791915476 1.991448586e-38
-0.2377858609 -0.4240680933 0.03077167273 1.991448586e-38
-0.07210118324 -0.3204152882 -0.2759852409 2.009743799e-38
-0.2282178253 -0.4087346494 0.4666489363 2.009743799e-38
0.2365849018 -0.5134639144 0.2202667743 2.009743799e-38
-0.2278363407 -0.4195789993 0.3917587399 2.009743799e-38
0.2870726883 -0.5124007463 0.1337708235 2.009743799e-38
-0.05247126892 -0.4197369814 0.2693037391 2.009743799e-38
0.04820450395 -0.5147086382 0.4171867073 2.009743799e-38
0.3883259296 -0.5094718933 -0.07652062178 2.009743799e-38
0.2239398062 -0.5137965679 0.2449990958 2.028074885e-38
0.1987422407 -0.5141943693 0.2820304632 2.028074885e-38
0.009828494862 -0.4207488298 0.2699739933 2.028074885e-38
-0.08866991103 -0.5119475722 0.3908458948 2.028074885e-38
0.1484395862 -0.5147224665 0.3436601162 2.028074885e-38
0.08943267167 -0.4013564885 -0.3403509259 2.028074885e-38
-0.2404814065 -0.4199116826 0.4164910614 2.028074885e-38
0.03574455529 -0.5145062804 0.4170526564 2.028074885e-38
-0.1647848189 -0.4303651452 0.2678061426 2.046369957e-38
-0.1629668325 -0.5093957186 0.3278757632 2.046369957e-38
0.2875354886 -0.5110631585 0.07160499692 2.046369957e-38
-0.2400073707 -0.4304885268 0.3291676641 2.046369957e-38
-0.1972224712 -0.3557399809 -0.2781993151 2.046369957e-38
-0.1877016276 -0.5084559917 0.3027413487 2.046369957e-38
0.1760157347 -0.4165600836 -0.2775379717 2.046369957e-38
0.01082465425 -0.5141015053 0.4167845845 2.046369957e-38
-0.05138257146 -0.5128222108 0.4036811888 2.06466517e-38
0.236770004 -0.5129288435 0.1954004616 2.06466517e-38
0.186282292 -0.5139920115 0.2818964124 2.06466517e-38
-0.001635286957 -0.5138991475 0.4166505337 2.06466517e-38
-0.1376598179 -0.4655790031 -0.0831232667 2.06466517e-38
-0.04718126357 -0.3208200336 -0.275717169 2.06466517e-38
0.1234271228 -0.5145852566 0.3558251858 2.06466517e-38
-0.1381394863 -0.5100679994 0.3405770063 2.06466517e-38
0.1518303156 -0.3489568233 -0.2741547823 2.082996116e-38
0.09315088391 -0.4514234662 -0.03495987132 2.082996116e-38
0.2241249382 -0.5132615566 0.2201327235 2.082996116e-38
0.07578064501 -0.4165462255 -0.2040113211 2.082996116e-38
-0.2407591045 -0.4207142293 0.4537905157 2.082996116e-38
-0.1876090765 -0.5081884861 0.2903081477 2.082996116e-38
0.06084962934 -0.5143759847 0.3924544454 2.082996116e-38
0.161177218 -0.5141223073 0.3064947128 2.082996116e-38
-0.1853118837 -0.4226058125 -0.3065828979 2.101291328e-38
-0.2397184372 -0.4416003823 0.266710639 2.101291328e-38
0.2495076954 -0.5123286843 0.1582349837 2.101291328e-38
0.08441440761 -0.4344125092 0.2704870701 2.101291328e-38
-0.02646267973 -0.5132269263 0.4039492607 2.101291328e-38
-0.1133121178 -0.5107402802 0.3532782495 2.101291328e-38
0.1360722035 -0.5142526031 0.3310929239 2.101291328e-38
-0.2383299917 -0.437587589 0.08021315187 2.101291328e-38
0.2748904228 -0.511395812 0.09633725882 2.119586541e-38
-0.2268882394 -0.4407326579 0.2171120048 2.119586541e-38
-0.2270733565 -0.441267699 0.2419783771 2.119586541e-38
-0.2266105413 -0.4399301112 0.1798125505 2.119586541e-38
0.03592967987 -0.5139712095 0.3921863437 2.119586541e-38
0.04340359941 -0.4503464401 -0.04792924598 2.119586541e-38
-0.2274436057 -0.4423377514 0.2917110622 2.119586541e-38
0.1612697691 -0.5138548017 0.294061482 2.119586541e-38
-0.1626891494 -0.5085932016 0.2905762494 2.137881613e-38
-0.03883006424 -0.5127570033 0.3913820684 2.137881613e-38
-0.1503217667 -0.5090630651 0.3031435013 2.137881613e-38
0.2243100405 -0.5127264857 0.1952664107 2.137881613e-38
0.262245357 -0.5117284656 0.1210695803 2.137881613e-38
-0.2246892005 -0.4104833901 -0.03096888028 2.137881613e-38
0.1110596806 -0.5141153932 0.3432579637 2.137881613e-38
-0.02637011744 -0.5129593611 0.3915161192 2.137881613e-38
0.2879983187 -0.5097255707 0.009439168498 2.156176826e-38
-0.2347762138 -0.3675823212 -0.2788926661 2.156176826e-38
-0.001450160518 -0.5133641362 0.3917842209 2.156176826e-38
-0.08839222789 -0.5111449957 0.3535463512 2.156176826e-38
-0.01391016971 -0.5131617785 0.3916501701 2.156176826e-38
0.3634059727 -0.5090671182 -0.07678870857 2.156176826e-38
0.2626155913 -0.510658443 0.07133690268 2.156176826e-38
-0.2281028032 -0.4322959781 0.4039007127 2.156176826e-38
-0.2245261371 -0.5062437654 0.2277401537 2.174471899e-38
-0.1254944056 -0.5097353458 0.3158447444 2.174471899e-38
-0.2023385763 -0.4422074854 0.2671127915 2.174471899e-38
-0.2121587396 -0.5067136288 0.2403074205 2.174471899e-38
0.2497853935 -0.5115261078 0.1209355295 2.174471899e-38
-0.2251407802 -0.42373541 0.006039413624 2.174471899e-38
0.07358726859 -0.5137757659 0.3552889824 2.174471899e-38
0.04857475311 -0.5136386156 0.3674541116 2.174471899e-38
0.07615089417 -0.4154761732 -0.2537440062 2.192767111e-38
0.2013223171 -0.3746652305 -0.2742009759 2.192767111e-38
-0.225684911 -0.4372549355 0.05548088998 2.192767111e-38
0.04703450948 -0.4338054061 0.2700849473 2.192767111e-38
0.2802466452 -0.4658383727 -0.08297302574 2.192767111e-38
-0.2368009388 -0.5055063367 0.202739805 2.192767111e-38
0.2118501365 -0.512524128 0.1951323748 2.192767111e-38
-0.2241450399 -0.3969638646 -0.08041036129 2.192767111e-38
-0.07593224943 -0.5113473535 0.353680402 2.211062324e-38
-0.05110488459 -0.5120196342 0.3663817048 2.211062324e-38
-0.00135759823 -0.5130966306 0.3793510497 2.211062324e-38
0.1489024013 -0.5133848786 0.2814942896 2.211062324e-38
-0.225592345 -0.4369874001 0.04304773733 2.211062324e-38
0.2499705255 -0.5109910369 0.09606915712 2.211062324e-38
-0.2245966345 -0.4102158546 -0.04340206832 2.211062324e-38
0.1499149203 -0.4434619248 -0.1664899439 2.211062324e-38
0.2373254001 -0.51132375 0.1208014786 2.229357396e-38
-0.06347230077 -0.5115497112 0.3538144529 2.229357396e-38
-0.1774186492 -0.4426122308 0.2673808932 2.229357396e-38
-0.2410255671 -0.4334312081 0.4659324884 2.229357396e-38
0.06121987849 -0.5133059025 0.3427217901 2.229357396e-38
-0.04018520936 -0.4323888421 0.2691465914 2.229357396e-38
0.03620737046 -0.5131686926 0.3548868299 2.229357396e-38
0.350946039 -0.5088647604 -0.07692275941 2.229357396e-38
-0.01526528783 -0.4327935576 0.2694146931 2.247652609e-38
0.09878486395 -0.5133779645 0.3182576001 2.247652609e-38
-0.2369640172 -0.4097459912 -0.05596926808 2.247652609e-38
-0.2411181182 -0.4336987436 0.4783656895 2.247652609e-38
0.1489949673 -0.513117373 0.2690611184 2.247652609e-38
-0.2352390289 -0.368919909 -0.2167268395 2.247652609e-38
0.2502481937 -0.51018852 0.05876970291 2.247652609e-38
0.07377239317 -0.5132407546 0.3304226696 2.247652609e-38
-0.1623188853 -0.5075231194 0.240843609 2.265947681e-38
-0.01372504327 -0.5126267672 0.3667838573 2.265947681e-38
-0.1871462613 -0.5068508983 0.2281423062 2.265947681e-38
-0.1098288298 -0.3447071016 -0.2769697905 2.265947681e-38
-0.1374915242 -0.5081954002 0.253544867 2.265947681e-38
-0.2117884904 -0.5056436062 0.1905747354 2.265947681e-38
0.2882760167 -0.5089229941 -0.02786035463 2.265947681e-38
0.06478446722 -0.335090816 -0.2748019099 2.265947681e-38
-0.1004819199 -0.5098725557 0.3036797047 2.284242894e-38
-0.1400387734 -0.4432193339 0.267783016 2.284242894e-38
-0.2406440675 -0.444275558 0.3910422921 2.284242894e-38
-0.2287507355 -0.434168607 0.4909328818 2.284242894e-38
-0.2254997939 -0.4367198944 0.03061452508 2.284242894e-38
0.2177617252 -0.4653615654 -0.05877692625 2.284242894e-38
-0.2227790803 -0.3691222668 -0.2165927887 2.284242894e-38
0.07386495918 -0.512973249 0.3179895282 2.284242894e-38
-0.2392443866 -0.4521771967 0.1793873012 2.302537966e-38
-0.1275788248 -0.4434216917 0.2679170668 2.302537966e-38
0.1490875334 -0.5128498673 0.2566279769 2.302537966e-38
0.199575305 -0.5117866993 0.1701319516 2.302537966e-38
-0.2407366335 -0.4445430636 0.4034754634 2.302537966e-38
0.1868376732 -0.5123868585 0.2072974294 2.302537966e-38
-0.2236009091 -0.3834443092 -0.1298518181 2.302537966e-38
0.06406120211 -0.4142037332 -0.3036107421 2.302537966e-38
-0.1250315905 -0.508397758 0.2536789179 2.320833179e-38
0.08424051851 -0.4468619525 0.2701958716 2.320833179e-38
-0.2276175022 -0.4547871947 0.2914198637 2.320833179e-38
-0.2387815714 -0.4508396089 0.1172214821 2.320833179e-38
0.06140501052 -0.5127708912 0.3178554773 2.320833179e-38
-0.2268770039 -0.4526470602 0.1919545084 2.320833179e-38
-0.03845981136 -0.5116869807 0.3416493833 2.320833179e-38
0.3384861052 -0.5086624026 -0.07705681026 2.320833179e-38
0.1742850989 -0.5124520659 0.219596535 2.339092378e-38
-0.112664178 -0.5088676214 0.2662461102 2.339092378e-38
-0.2409217507 -0.4450781047 0.4283418059 2.339092378e-38
-0.2264141887 -0.4513094723 0.1297886819 2.339092378e-38
-0.2378671765 -0.4362500012 0.01804732159 2.339092378e-38
0.199760437 -0.511251688 0.1452656537 2.339092378e-38
-0.2410143167 -0.4453456104 0.4407749772 2.339092378e-38
0.0717805177 -0.4466595948 0.2700618207 2.339092378e-38
-0.228369236 -0.4450129569 0.4160427153 2.348204041e-38
0.07679883391 -0.4136035442 -0.3407761753 2.348204041e-38
-0.001079909503 -0.512294054 0.3420515358 2.348204041e-38
0.2124980688 -0.5106514692 0.1081001759 2.348204041e-38
-0.09736888856 -0.3449094594 -0.2768357396 2.348204041e-38
0.1491800994 -0.5125823021 0.2441948056 2.348204041e-38
0.07670627534 -0.4138710499 -0.3283429742 2.348204041e-38
-0.2404477149 -0.4556549191 0.3410184383 2.348204041e-38
-0.1867759973 -0.5057808161 0.1784096807 2.348132155e-38
-0.2411994487 -0.4458806515 0.4656412899 2.348132155e-38
-0.1248464659 -0.5078627467 0.2288125455 2.348132155e-38
-0.09019891918 -0.4440287948 0.2683192194 2.348132155e-38
0.1116150618 -0.5125102401 0.2686589658 2.348132155e-38
0.03648506105 -0.512366116 0.3175873756 2.348132155e-38
-0.1990508288 -0.5050433874 0.1534092724 2.348132155e-38
-0.2385038882 -0.4500370324 0.07992195338 2.348132155e-38
-0.1495812535 -0.5069229603 0.2036781311 2.348060128e-38
-0.2412919998 -0.4461481869 0.478074491 2.348060128e-38
-0.2025124729 -0.4546569288 0.266821593 2.348060128e-38
0.02402510867 -0.5121637583 0.3174533248 2.348060128e-38
-0.13712129 -0.5071253181 0.2038121819 2.348060128e-38
-0.2384113222 -0.4497695267 0.06748880446 2.348060128e-38
0.3762362599 -0.5081994534 -0.1263873428 2.348060128e-38
-0.2239599228 -0.3964288235 -0.1052766964 2.348060128e-38
0.3636836708 -0.5082645416 -0.1140882075 2.347952368e-38
0.2127757668 -0.5098489523 0.07080070674 2.347952368e-38
-0.01344735362 -0.5118241906 0.3294843435 2.347952368e-38
-0.2406328321 -0.4561899602 0.3658847809 2.347952368e-38
-0.07546943426 -0.5100097656 0.2915145755 2.347952368e-38
-0.06310205162 -0.510479629 0.3040818274 2.347952368e-38
-0.1900525242 -0.4548592865 0.2669556439 2.347952368e-38
-0.03827468306 -0.5111519098 0.3167831004 2.347952368e-38
0.09306955338 -0.4636054039 -0.04768425226 2.347880341e-38
-0.137028724 -0.5068578124 0.1913790256 2.347880341e-38
0.08669515699 -0.5121055245 0.2683908939 2.347880341e-38
-0.2377746105 -0.4359824955 0.005614168011 2.347880341e-38
-0.2407253981 -0.4564574659 0.3783179522 2.347880341e-38
-0.2112331092 -0.5040384531 0.1159757674 2.347880341e-38
0.2508035898 -0.5085834265 -0.01582931355 2.347880341e-38
0.03440067172 -0.4460524917 0.269659698 2.347880341e-38
-0.2235079408 -0.503301084 0.09097534418 2.347808455e-38
-0.2408179641 -0.4567250013 0.3907510936 2.347808455e-38
-0.2363273054 -0.3959589601 -0.1178439036 2.347808455e-38
-0.1775925457 -0.4550616741 0.2670896947 2.347808455e-38
-0.1864057481 -0.5047107339 0.1286770105 2.347808455e-38
0.01494461112 -0.3342813253 -0.2753381133 2.347808455e-38
-0.2409105301 -0.456992507 0.4031842649 2.347808455e-38
-0.2372304797 -0.42246297 -0.0438273102 2.347808455e-38
-0.1224626973 -0.3569541872 -0.2773950398 2.347700555e-38
-0.2253146619 -0.4361848533 0.005748216063 2.347700555e-38
-0.08755915612 -0.5087373257 0.2416478992 2.347700555e-38
0.1494577825 -0.5117797852 0.2068952769 2.347700555e-38
-0.05054950714 -0.5104145408 0.2917826772 2.347700555e-38
0.376421392 -0.5076643825 -0.1512536854 2.347700555e-38
-0.1863075942 -0.449377358 -0.2201331109 2.347700555e-38
0.3637762368 -0.507997036 -0.1265213937 2.347700555e-38
-0.1244762167 -0.5067926645 0.1790799201 2.347628668e-38
-0.07519174367 -0.5092072487 0.2542150915 2.347628668e-38
-0.01326222904 -0.5112891197 0.3046180308 2.347628668e-38
-0.1368435919 -0.5063227415 0.1665126681 2.347628668e-38
0.04931525886 -0.5114984512 0.2679887414 2.347628668e-38
0.3135662079 -0.5082576871 -0.07732489705 2.347628668e-38
-0.2109554261 -0.5032359362 0.07867623866 2.347628668e-38
-0.2401587814 -0.4667668045 0.2785613835 2.347628668e-38
-0.2404364645 -0.4675693512 0.3158609271 2.347520768e-38
0.06333193183 -0.4282582998 -0.229302898 2.347520768e-38
0.2004083842 -0.5093790293 0.05823350698 2.347520768e-38
-0.2397885174 -0.4656967223 0.2288287729 2.347520768e-38
-0.1985880136 -0.5037057996 0.09124344587 2.347520768e-38
-0.08737403154 -0.5082023144 0.2167815268 2.347520768e-38
0.1496429145 -0.5112447143 0.1820289791 2.347520768e-38
0.1389247477 -0.427064836 -0.3403971195 2.347520768e-38
0.07442033291 -0.5113680959 0.2433905154 2.347448882e-38
-0.2381336391 -0.44896698 0.03018927947 2.347448882e-38
-0.2353203595 -0.3811018169 -0.2294512093 2.347448882e-38
0.06461057812 -0.3475402594 -0.2750931084 2.347448882e-38
-0.2279765159 -0.467771709 0.315994978 2.347448882e-38
0.3767916262 -0.5065943599 -0.2009863257 2.347448882e-38
-0.236686334 -0.4089434445 -0.09326875955 2.347448882e-38
-0.2270508856 -0.4650965333 0.1916633099 2.347448882e-38
0.1245378852 -0.5113750696 0.2066271901 2.347340982e-38
-0.2391405851 -0.4638241231 0.1417965889 2.347340982e-38
0.0716066286 -0.4591090381 0.2697706223 2.347340982e-38
-0.08728146553 -0.5079348087 0.2043483704 2.347340982e-38
0.07524772733 -0.4419801831 -0.1797274202 2.347340982e-38
-0.2355050594 -0.5017610788 0.02867546678 2.347340982e-38
0.2885536849 -0.5081204176 -0.06515984237 2.347340982e-38
-0.1490258873 -0.5053178668 0.1290791482 2.347340982e-38
-0.2267732024 -0.4642939866 0.1543637812 2.347269095e-38
-0.2107702941 -0.5027008653 0.05380993336 2.347269095e-38
-0.2231380939 -0.3821067214 -0.1920176446 2.347269095e-38
0.1371829659 -0.5110423565 0.1818949282 2.347269095e-38
0.3639613688 -0.5074620247 -0.1513877362 2.347269095e-38
0.126464799 -0.4268624783 -0.3405311704 2.347269095e-38
0.2509887218 -0.5080483556 -0.04069564864 2.347269095e-38
0.3262112737 -0.507924974 -0.1020572037 2.347269095e-38
-0.09955628961 -0.5071973801 0.1793480217 2.347161195e-38
-0.1028327867 -0.4562758803 0.26789397 2.347161195e-38
0.1120778769 -0.5111726522 0.2064931393 2.347161195e-38
-0.2230455279 -0.3818392158 -0.2044508308 2.347161195e-38
-0.0005245301872 -0.5106889606 0.267452538 2.347161195e-38
0.05914667621 -0.4589066505 0.2696366012 2.347161195e-38
0.1626582146 -0.5098420382 0.1075639874 2.347161195e-38
-0.2230451256 -0.5019634962 0.02880951576 2.347161195e-38
0.07460545748 -0.5108330846 0.218524158 2.347089308e-38
0.09961792827 -0.5109702945 0.2063590884 2.347089308e-38
0.1247230172 -0.5108399987 0.1817608774 2.347089308e-38
-0.2361421734 -0.395423919 -0.1427102387 2.347089308e-38
-0.2284393311 -0.4691092968 0.3781608045 2.347089308e-38
0.1140048429 -0.4266600907 -0.3406652212 2.347089308e-38
-0.1118311137 -0.506460011 0.1543476135 2.347089308e-38
-0.2380410731 -0.4486994445 0.01775612496 2.347089308e-38
-0.2387703359 -0.462754041 0.09206391126 2.346981408e-38
-0.1735755205 -0.5038430095 0.07907838374 2.346981408e-38
-0.2105851769 -0.502165854 0.02894356288 2.346981408e-38
-0.1982177645 -0.5026357174 0.04151076451 2.346981408e-38
-0.1902264059 -0.4673087597 0.2666644454 2.346981408e-38
-0.2286244631 -0.4696443379 0.4030271173 2.346981408e-38
0.137553215 -0.5099723339 0.132162258 2.346981408e-38
0.1884055883 -0.4408588111 -0.3152858019 2.346981408e-38
-0.03762674332 -0.5092793107 0.2297508717 2.346909522e-38
0.1501982808 -0.5096396208 0.1074299365 2.346909522e-38
-0.04999412596 -0.5088094473 0.2171836793 2.346909522e-38
-0.1364733428 -0.5052526593 0.1167800426 2.346909522e-38
-0.02807301469 -0.4574900866 0.2686982453 2.346909522e-38
0.02176683396 -0.4582995474 0.2692344487 2.346909522e-38
-0.2287170142 -0.4699118733 0.4154603183 2.346909522e-38
0.1749386787 -0.4555135369 -0.2038125247 2.346909522e-38
0.351501435 -0.5072596669 -0.1515217721 2.346801622e-38
0.1881335527 -0.5086416006 0.03323309496 2.346801622e-38
-0.2263103873 -0.4629563987 0.09219796211 2.346801622e-38
-0.1981251985 -0.5023682117 0.02907761186 2.346801622e-38
-0.2255811244 -0.4489018023 0.01789017394 2.346801622e-38
0.3137513399 -0.5077226162 -0.1021912396 2.346801622e-38
-0.241639778 -0.4710471034 0.477492094 2.346801622e-38
-0.2289021462 -0.4704468846 0.4403266311 2.346801622e-38
0.2510812581 -0.5077808499 -0.05312880501 2.346693862e-38
-0.04990156367 -0.508541882 0.204750523 2.346693862e-38
0.1629359126 -0.5090394616 0.07026451826 2.346693862e-38
0.01230566576 -0.5098212361 0.2178539187 2.346693862e-38
0.3515940011 -0.5069921613 -0.1639549285 2.346693862e-38
-0.08700377494 -0.5071322322 0.1670488566 2.346693862e-38
0.08935663849 -0.360394448 -0.275116235 2.346693862e-38
-0.2262178212 -0.4626888633 0.07976480573 2.346693862e-38
0.1758530736 -0.440923959 -0.3029866815 2.346621835e-38
-0.1980326325 -0.5021007061 0.01664445736 2.346621835e-38
-0.2374969274 -0.4351799488 -0.03168532252 2.346621835e-38
-0.1486556232 -0.5042477846 0.07934647799 2.346621835e-38
-0.02507423423 -0.5092141628 0.2174517661 2.346621835e-38
0.2636337876 -0.5077157021 -0.06542794406 2.346621835e-38
-0.03744161874 -0.5087442398 0.2048845738 2.346621835e-38
0.1755809784 -0.5087068081 0.04553220049 2.346621835e-38
0.06397987157 -0.4263856709 -0.3163350821 2.346514075e-38
-0.2261252552 -0.4624213576 0.06733164936 2.346514075e-38
-0.1485630572 -0.503980279 0.06691332161 2.346514075e-38
0.06242319942 -0.5098281503 0.181090638 2.346514075e-38
-6.171502173e-05 -0.5093513727 0.2052867115 2.346514075e-38
-0.2401475459 -0.4786812067 0.2534039021 2.346514075e-38
0.2761862874 -0.5076505542 -0.07772704959 2.346514075e-38
-0.2405177951 -0.4797512889 0.3031365573 2.346514075e-38
-0.2406103611 -0.4800187945 0.3155697286 2.346406175e-38
-0.1732052714 -0.5027729273 0.02934570611 2.346406175e-38
-0.2400549799 -0.4784137011 0.2409707308 2.346406175e-38
-0.2407954931 -0.4805538356 0.3404360414 2.346406175e-38
0.288738817 -0.5075854063 -0.09002618492 2.346406175e-38
0.1883186847 -0.5081065893 0.008366785944 2.346406175e-38
-0.01252172329 -0.5091490149 0.2051526606 2.346406175e-38
0.01249079034 -0.5092862248 0.1929876059 2.346406175e-38
-0.2396847308 -0.4773436189 0.1912380606 2.346334289e-38
0.1335586309 -0.4850197732 0.2698584795 2.346334289e-38
-0.2275950313 -0.4786160588 0.2411047816 2.346334289e-38
-0.2411657423 -0.4816239178 0.3901686966 2.346334289e-38
-0.2282429785 -0.4804886878 0.3281369209 2.346334289e-38
-0.1978475004 -0.5015656352 -0.008221879601 2.346334289e-38
-0.2275024652 -0.4783485234 0.2286716253 2.346334289e-38
0.07143273205 -0.4715585113 0.2694794536 2.346334289e-38
-0.236501202 -0.4084084034 -0.1181351021 2.346226389e-38
0.1127258241 -0.5093000531 0.119461 2.346226389e-38
-0.02488910779 -0.5086790919 0.1925854534 2.346226389e-38
-0.2273173481 -0.4778135121 0.2038052678 2.346226389e-38
-0.1114608571 -0.5053899288 0.1046149284 2.346226389e-38
-0.2374043614 -0.4349124134 -0.0441185087 2.346226389e-38
-0.012429161 -0.5088815093 0.1927195042 2.346226389e-38
0.1253709495 -0.5089673996 0.09472867846 2.346226389e-38
0.1751237959 -0.4549785256 -0.2286788672 2.346118629e-38
0.1505685449 -0.5085695386 0.05769731849 2.346118629e-38
-0.224492833 -0.421862781 -0.08099275082 2.346118629e-38
-0.2393144816 -0.4762735665 0.1415053904 2.346118629e-38
0.3392266035 -0.5065222383 -0.1765221357 2.346118629e-38
-0.09909347445 -0.5058597922 0.1171821952 2.346118629e-38
0.000123411417 -0.5088163018 0.1804203987 2.346118629e-38
-0.2350422442 -0.500423491 -0.03349036351 2.346118629e-38
-0.2226640433 -0.3926835954 -0.2793410122 2.346010729e-38
-0.2417211235 -0.4832290113 0.4647676945 2.346010729e-38
-0.1855670959 -0.4472372234 -0.3195984364 2.346010729e-38
0.1254635155 -0.508699894 0.08229553699 2.346010729e-38
-0.08672608435 -0.5063297153 0.1297493875 2.346010729e-38
0.288831383 -0.5073179007 -0.1024593413 2.346010729e-38
-0.1605601907 -0.5024402738 0.004613446072 2.346010729e-38
-0.06199128926 -0.5072694421 0.154883787 2.346010729e-38
-0.2249444127 -0.4351147711 -0.04398445785 2.345938842e-38
-0.1852950007 -0.5015005469 -0.02052098885 2.345938842e-38
0.3139364719 -0.5071876049 -0.1270575821 2.345938842e-38
0.3013838828 -0.5072527528 -0.1147584468 2.345938842e-38
0.150661096 -0.5083020329 0.04526410252 2.345938842e-38
-0.1111831665 -0.5045873523 0.0673154667 2.345938842e-38
-0.03716392815 -0.5079417229 0.1675850451 2.345938842e-38
0.03768837452 -0.5088884234 0.1559561789 2.345938842e-38
0.1255560815 -0.5084323883 0.06986238062 2.345830942e-38
-0.1234580204 -0.5038499832 0.04231505096 2.345830942e-38
-0.1904003024 -0.479758203 0.2663732469 2.345830942e-38
-0.1604676247 -0.5021727681 -0.007819738239 2.345830942e-38
0.3395043015 -0.5057197213 -0.2138216496 2.345830942e-38
0.021592943 -0.4707490206 0.2689432502 2.345830942e-38
0.009132934734 -0.4705466628 0.2688091993 2.345830942e-38
0.05024088919 -0.5088232756 0.1436570734 2.345830942e-38
-0.08663352579 -0.50606215 0.117316246 2.345723183e-38
-0.07426611334 -0.506532073 0.1298834383 2.345723183e-38
-0.2231268585 -0.3940211833 -0.2171751857 2.345723183e-38
-0.2232194096 -0.3942886889 -0.2047420293 2.345723183e-38
0.0560599044 -0.4619282484 -0.09781904519 2.345723183e-38
-0.1356402636 -0.5028450489 0.004881542176 2.345723183e-38
0.0757105425 -0.4406425953 -0.2418932468 2.345723183e-38
0.06851991266 -0.4621306062 -0.09768499434 2.345723183e-38
-0.1779403239 -0.4799605608 0.2665072978 2.345615283e-38
-0.2244002819 -0.4215952754 -0.09342590719 2.345615283e-38
0.314029038 -0.5069200993 -0.1394907385 2.345615283e-38
-0.09771666676 -0.3698083758 -0.2774181366 2.345615283e-38
-0.2265768349 -0.4756733477 0.1043399796 2.345615283e-38
0.3267666399 -0.5063198805 -0.1766561866 2.345615283e-38
-0.2382149547 -0.4611489177 0.01746492647 2.345615283e-38
-0.1852024347 -0.5012329817 -0.03295417503 2.345615283e-38
0.1130960733 -0.5082299709 0.06972832978 2.345507523e-38
-0.08654095978 -0.5057946444 0.1048830301 2.345507523e-38
-0.2239486873 -0.4083432257 -0.1304342151 2.345507523e-38
-0.02461141907 -0.507876575 0.1552859396 2.345507523e-38
-0.2264842838 -0.4754058421 0.09190676361 2.345507523e-38
0.150846228 -0.5077670217 0.02039779723 2.345507523e-38
-0.1727424562 -0.5014353395 -0.03282012418 2.345507523e-38
-0.1231803298 -0.5030474067 0.005015589297 2.345507523e-38
-0.2405991107 -0.4919332266 0.2904122174 2.345399623e-38
-0.2406916767 -0.492200762 0.3028453588 2.345399623e-38
0.07598823309 -0.4398400486 -0.2791927457 2.345399623e-38
-0.2418024391 -0.4954109788 0.4520433247 2.345399623e-38
-0.2290647924 -0.4948107898 0.4148779213 2.345399623e-38
0.2388063967 -0.5070434809 -0.07812918723 2.345399623e-38
-0.1975698173 -0.5007631183 -0.04552137479 2.345399623e-38
-0.2419875562 -0.4959460199 0.4769096971 2.345399623e-38
-0.1405604482 -0.4805676937 0.2669094503 2.345291723e-38
-0.0852566883 -0.3700107336 -0.2772840858 2.345291723e-38
-0.228046611 -0.4918680787 0.2781130373 2.345291723e-38
-0.2386665344 -0.4744009376 0.0544732511 2.345291723e-38
-0.2282317281 -0.4924031198 0.3029794097 2.345291723e-38
0.05042601377 -0.5082882047 0.1187907606 2.345291723e-38
0.1013709977 -0.4389072061 -0.3410904706 2.345291723e-38
0.1883242577 -0.453040719 -0.3280101418 2.345291723e-38
-0.2284168601 -0.4929381609 0.3278457224 2.345219836e-38
-0.2099372298 -0.5002932549 -0.05808857456 2.345219836e-38
0.08726733923 -0.4673490226 -0.1677425802 2.345219836e-38
0.05051857978 -0.508020699 0.1063575596 2.345219836e-38
0.1209248081 -0.4972668886 0.2694332302 2.345219836e-38
-0.09826040268 -0.5034521222 0.005283685401 2.345219836e-38
-0.1974772513 -0.5004956126 -0.05795452371 2.345219836e-38
-0.1031805724 -0.4811747968 0.267311573 2.345219836e-38
-0.1477299929 -0.5015726089 -0.04498518631 2.345111936e-38
-0.2371266633 -0.4341098666 -0.08141800016 2.345111936e-38
