# .PCD v0.7 - Point Cloud Data file format
VERSION 0.7
FIELDS x y z rgb
SIZE 4 4 4 4
TYPE F F F F
COUNT 1 1 1 1
WIDTH 847
HEIGHT 1
VIEWPOINT 0 0 0 1 0 0 0
POINTS 847
DATA ascii
0.06001612172 -0.396659404 0.2710925639 7.099307325e-39
0.07736236602 -0.08148115873 0.3049342632 7.099307325e-39
0.1358253509 -0.3444665968 0.3243557811 7.099307325e-39
0.05129527301 -0.1441262364 0.3405097127 7.099307325e-39
0.0601199232 -0.4083063006 0.2335019112 7.099307325e-39
0.0490346998 -0.3059691787 0.3367241621 6.91671253e-39
0.05173562467 -0.1189598441 0.328658998 6.91671253e-39
0.1104450673 -0.4316070378 0.1215572134 6.91671253e-39
0.1359992474 -0.3320171237 0.3246469498 6.91671253e-39
0.05217596889 -0.09379340708 0.3168081641 6.91671253e-39
0.136173144 -0.3195676804 0.3249381185 6.91671253e-39
0.06413331628 -0.03830043226 0.4038689733 6.91671253e-39
0.07482410222 -0.2441266328 0.3384482265 6.91671253e-39
0.1363470256 -0.307118237 0.3252293468 6.734117735e-39
0.06490236521 -0.08127879351 0.304800272 6.734117735e-39
0.06050141528 -0.4191506207 0.1586116701 6.734117735e-39
0.07499799132 -0.2316771597 0.3387394547 6.734117735e-39
0.1105376258 -0.4313395023 0.109124057 6.734117735e-39
0.1365209222 -0.2946687639 0.3255205154 6.734117735e-39
0.05112138391 -0.1565757096 0.340218544 6.734117735e-39
0.06219021231 -0.2563737035 0.3380230069 6.734117735e-39
0.06000489369 -0.384744972 0.2962501347 6.55152294e-39
0.04938248545 -0.2810702622 0.3373065591 6.55152294e-39
0.1366948038 -0.2822193503 0.3258117437 6.55152294e-39
0.1229050085 -0.4318093956 0.1216912642 6.55152294e-39
0.06236410141 -0.2439242601 0.3383141756 6.55152294e-39
0.04877948761 -0.3306005597 0.3237085938 6.55152294e-39
0.06457366049 -0.0131339971 0.392018199 6.55152294e-39
0.06059397385 -0.4188831151 0.1461785138 6.55152294e-39
0.0509474948 -0.1690251529 0.3399273157 6.368926744e-39
0.1244086921 -0.2695674896 0.3259688616 6.368926744e-39
0.05244241655 -0.08107642084 0.3046662211 6.368926744e-39
0.1119487435 -0.2693651319 0.3258348703 6.368926744e-39
0.06010868773 -0.3963918686 0.2586594224 6.368926744e-39
0.0505997166 -0.1939240694 0.3393449187 6.368926744e-39
0.09948878735 -0.2691627741 0.3257008195 6.368926744e-39
0.08590417355 -0.3558390439 0.3110951781 6.368926744e-39
0.0504258275 -0.2063735127 0.33905375 6.186331949e-39
0.04990415275 -0.2437218875 0.3381801248 6.186331949e-39
0.1232840121 -0.356446147 0.3114972711 6.186331949e-39
0.06068653986 -0.4186155796 0.1337453723 6.186331949e-39
0.1357440203 -0.3566485047 0.3116313219 6.186331949e-39
0.05007804185 -0.2312724143 0.3384713531 6.186331949e-39
0.05025193095 -0.2188229859 0.3387625217 6.186331949e-39
0.06439977139 -0.02558343858 0.3917270005 6.186331949e-39
0.08702883869 -0.2689603865 0.3255667686 6.003737154e-39
0.06378553063 -0.0631993413 0.4032865763 6.003737154e-39
0.1353649497 -0.4320117831 0.1218253076 6.003737154e-39
0.135917902 -0.3441990614 0.3119225502 6.003737154e-39
0.05226852745 -0.09352589399 0.3043749928 6.003737154e-39
0.04912726581 -0.305701673 0.3242909908 6.003737154e-39
0.06077910587 -0.418348074 0.1213122234 6.003737154e-39
0.1360917985 -0.3317495883 0.3122137189 6.003737154e-39
0.06499493122 -0.08101127297 0.2923671007 5.820783626e-39
0.0873766169 -0.2440614849 0.3261491656 5.820783626e-39
0.04869816452 -0.3427824974 0.3109841943 5.820783626e-39
0.07728104293 -0.09366311133 0.2922099233 5.820783626e-39
0.0600974597 -0.3844774663 0.2838169336 5.820783626e-39
0.06210888922 -0.2685556412 0.325298667 5.820783626e-39
0.04930116236 -0.2932521999 0.3245822191 5.820783626e-39
0.1364395767 -0.3068507016 0.3127961159 5.820783626e-39
0.07323905826 -0.4185504615 0.1214462668 5.63818743e-39
0.06087166443 -0.4180805385 0.108879067 5.63818743e-39
0.05165430158 -0.131141752 0.3159345388 5.63818743e-39
0.09000744671 -0.08114849776 0.2802020311 5.63818743e-39
0.05104006082 -0.1687576324 0.327494204 5.63818743e-39
0.06020125374 -0.3961243629 0.246226266 5.63818743e-39
0.05253498256 -0.0808089003 0.2922330499 5.63818743e-39
0.1367873549 -0.2819518149 0.3133785129 5.63818743e-39
0.04964894056 -0.2683532834 0.3251646161 5.455592635e-39
0.06466621906 -0.01286648028 0.3795850575 5.455592635e-39
0.06482104212 -0.09346074611 0.2920758724 5.455592635e-39
0.07333161682 -0.4182829261 0.1090131104 5.455592635e-39
0.04982282966 -0.2559038401 0.3254557848 5.455592635e-39
0.1245012432 -0.2692999542 0.3135356903 5.455592635e-39
0.1369612515 -0.2695023417 0.3136697412 5.455592635e-39
0.05069228262 -0.1936565489 0.3269118071 5.455592635e-39
0.08569905907 -0.4187528193 0.1215803176 5.272997839e-39
0.07754749805 -0.08094612509 0.2800679803 5.272997839e-39
0.05051839352 -0.2061059922 0.3266205788 5.272997839e-39
0.147917524 -0.4319466054 0.1095262021 5.272997839e-39
0.05034449697 -0.2185554653 0.3263294101 5.272997839e-39
0.05017060786 -0.2310048938 0.3260381818 5.272997839e-39
0.04904594272 -0.3178835809 0.3115665913 5.272997839e-39
0.08599673212 -0.3555715382 0.2986620069 5.272997839e-39
0.09845668077 -0.355773896 0.2987960577 5.090401643e-39
0.07353678346 -0.3553691506 0.298527956 5.090401643e-39
0.09958135337 -0.2688952386 0.3132675886 5.090401643e-39
0.08983355761 -0.09359796345 0.2799108624 5.090401643e-39
0.06449232996 -0.02531592175 0.379293859 5.090401643e-39
0.1358365864 -0.3563809991 0.2991982102 5.090401643e-39
0.04861683398 -0.3549644351 0.2982598543 5.090401643e-39
0.05236109346 -0.09325837344 0.2919418216 5.090401643e-39
0.08579161763 -0.4184852839 0.1091471612 4.907806848e-39
0.136010468 -0.3439315557 0.2994893789 4.907806848e-39
0.06387809664 -0.06293182075 0.390853405 4.907806848e-39
0.06508749723 -0.08074375987 0.2799339294 4.907806848e-39
0.1602849066 -0.4324164987 0.1220934018 4.907806848e-39
0.07737360895 -0.09339559823 0.2797768116 4.907806848e-39
0.04939372838 -0.2929846644 0.3121489882 4.907806848e-39
0.06220145524 -0.2682881057 0.3128654361 4.907806848e-39
0.04956761748 -0.2805352211 0.3124402165 4.725212053e-39
0.06431844085 -0.0377653949 0.3790026605 4.725212053e-39
0.05174686015 -0.1308742315 0.3035014272 4.725212053e-39
0.09825156629 -0.4186876714 0.1092812121 4.725212053e-39
0.0602938123 -0.3958568275 0.2337931097 4.725212053e-39
0.1603774726 -0.4321489632 0.1096602529 4.725212053e-39
0.1365321428 -0.3065831959 0.3003630042 4.725212053e-39
0.05113262683 -0.1684901118 0.3150609732 4.725212053e-39
0.06058273837 -0.4069687128 0.1713360846 4.542257124e-39
0.04974150658 -0.268085748 0.3127313852 4.542257124e-39
0.05262754858 -0.0805413872 0.2797998786 4.542257124e-39
0.06370420754 -0.07538126409 0.3905622065 4.542257124e-39
0.1367060393 -0.2941337228 0.3006541729 4.542257124e-39
0.04991539568 -0.2556363046 0.3130226135 4.542257124e-39
0.06491360813 -0.09319323301 0.2796427608 4.542257124e-39
0.136879921 -0.2816843092 0.3009454012 4.542257124e-39
0.05008928478 -0.2431868464 0.3133137822 4.359662329e-39
0.05095873773 -0.180939585 0.3147697449 4.359662329e-39
0.05078484863 -0.1933890283 0.3144785762 4.359662329e-39
0.0515729636 -0.1433236748 0.3032101989 4.359662329e-39
0.05026317388 -0.2307373732 0.3136050105 4.359662329e-39
0.06414455175 -0.05021483824 0.378711462 4.359662329e-39
0.05043706298 -0.2182879448 0.3138961792 4.359662329e-39
0.1245938092 -0.2690324485 0.301102519 4.359662329e-39
0.1121338606 -0.2688300908 0.3009684682 4.177066133e-39
0.1727448553 -0.4326188862 0.1222274527 4.177066133e-39
0.09967391193 -0.268627733 0.3008344173 4.177066133e-39
0.123078905 -0.4193599224 0.1219824627 4.177066133e-39
0.09854924679 -0.3555063605 0.2863628864 4.177066133e-39
0.08608929813 -0.3553040028 0.2862288356 4.177066133e-39
0.05245365947 -0.09299086034 0.2795087099 4.177066133e-39
0.1359291524 -0.3561134636 0.286765039 4.177066133e-39
0.1110091954 -0.3557087481 0.2864969373 3.994471337e-39
0.06028258428 -0.3839424253 0.2589506209 3.994471337e-39
0.1234691441 -0.3559111059 0.2866309881 3.994471337e-39
0.06116934866 -0.3548992574 0.2859607339 3.994471337e-39
0.05139907449 -0.1557731479 0.3029190302 3.994471337e-39
0.04948628694 -0.2927171588 0.299715817 3.994471337e-39
0.136103034 -0.3436640203 0.2870562077 3.994471337e-39
0.07475401461 -0.2682229877 0.3005663157 3.994471337e-39
0.1231714711 -0.419092387 0.1095493063 3.81151781e-39
0.06038637832 -0.3955893219 0.2213598937 3.81151781e-39
0.1362769306 -0.3312145472 0.287347436 3.81151781e-39
0.06086042896 -0.4061661661 0.1340365708 3.81151781e-39
0.05183942616 -0.1306067258 0.2910682559 3.81151781e-39
0.05122518539 -0.1682225913 0.3026278019 3.81151781e-39
0.04983406514 -0.2678182423 0.300298214 3.81151781e-39
0.06485135108 -0.01233144291 0.3547186852 3.81151781e-39
0.0637967661 -0.07511375099 0.378129065 3.628921614e-39
0.05105129629 -0.1806720644 0.3023366332 3.628921614e-39
0.05166552961 -0.1430561692 0.2907770276 3.628921614e-39
0.0490571782 -0.3297979832 0.28640908 3.628921614e-39
0.05087740719 -0.1931215078 0.3020454049 3.628921614e-39
0.09028512985 -0.08034594357 0.2429025024 3.628921614e-39
0.05070351809 -0.2055709511 0.3017542362 3.628921614e-39
0.05052962154 -0.2180204242 0.3014630079 3.628921614e-39
0.05035573244 -0.2304698527 0.3011718392 3.446326818e-39
0.06423711777 -0.04994731769 0.3662782907 3.446326818e-39
0.1246863753 -0.2687649131 0.2886693478 3.446326818e-39
0.1122264266 -0.2685625553 0.2885352969 3.446326818e-39
0.06047893688 -0.3953218162 0.2089267522 3.446326818e-39
0.0986418128 -0.3552388549 0.2739297152 3.446326818e-39
0.05149164051 -0.1555056423 0.2904858589 3.446326818e-39
0.1479988545 -0.4197646677 0.1222505569 3.446326818e-39
0.07782518119 -0.0801435709 0.2427684516 3.26337189e-39
0.1111017615 -0.3554412425 0.274063766 3.26337189e-39
0.07350550592 -0.4058334827 0.1093043089 3.26337189e-39
0.1235617101 -0.3556436002 0.2741978168 3.26337189e-39
0.06511779875 0.0003855163231 0.3425767124 3.26337189e-39
0.06126191467 -0.3546317518 0.2735275626 3.26337189e-39
0.08748041838 -0.2557083666 0.2885584235 3.26337189e-39
0.1028376445 -0.08028078824 0.2306033969 3.26337189e-39
0.1480914205 -0.4194971323 0.1098174006 3.080777095e-39
0.04880196601 -0.354429394 0.2733935714 3.080777095e-39
0.04975274205 -0.28000018 0.287573874 3.080777095e-39
0.06057150289 -0.3950542808 0.1964935958 3.080777095e-39
0.07502046973 -0.2555060089 0.2884243727 3.080777095e-39
0.1365433931 -0.3184975982 0.275205493 3.080777095e-39
0.06256046891 -0.2553036213 0.2882903218 3.080777095e-39
0.08596550673 -0.4060358405 0.1094383597 3.080777095e-39
0.05114386231 -0.1804045588 0.2899034619 2.898180898e-39
0.04897585511 -0.3419799507 0.2736847401 2.898180898e-39
0.1367172748 -0.3060481548 0.2754966617 2.898180898e-39
0.09833289683 -0.4065057635 0.1220055595 2.898180898e-39
0.137065053 -0.2811492682 0.2760790586 2.898180898e-39
0.05096997321 -0.1928540021 0.2896122932 2.898180898e-39
0.1023973003 -0.1054472253 0.2424541563 2.898180898e-39
0.1026637554 -0.09273026139 0.2303121984 2.898180898e-39
0.05079608411 -0.2053034455 0.2893210649 2.715227371e-39
0.06477002054 -0.02451336756 0.3419943154 2.715227371e-39
0.1372389495 -0.268699795 0.2763702869 2.715227371e-39
0.09842545539 -0.4062382281 0.1095724031 2.715227371e-39
0.1247789413 -0.2684974074 0.2762362361 2.715227371e-39
0.04932363331 -0.3170810342 0.2742671371 2.715227371e-39
0.06545774639 -0.07967368513 0.2302012593 2.715227371e-39
0.08993735164 -0.1052448526 0.2423201054 2.715227371e-39
0.06519129127 -0.09239067882 0.2423432022 2.532632576e-39
0.1107928455 -0.4067081213 0.1221396104 2.532632576e-39
0.1123189926 -0.2682950497 0.2761021852 2.532632576e-39
0.08627442271 -0.3547689617 0.2613625526 2.532632576e-39
0.04949752241 -0.3046315908 0.2745583057 2.532632576e-39
0.07381447405 -0.3545665741 0.2612285018 2.532632576e-39
0.1111943275 -0.355173707 0.2616306543 2.532632576e-39
0.06084919348 -0.394251734 0.1591940671 2.532632576e-39
0.04967141896 -0.2921821177 0.274849534 2.349677647e-39
0.09890826046 -0.3425218761 0.2617877722 2.349677647e-39
0.0875729844 -0.255440861 0.2761252522 2.349677647e-39
0.1236542761 -0.3553760648 0.2617647052 2.349677647e-39
0.1729187518 -0.4201694131 0.1225186512 2.349677647e-39
0.1108854041 -0.4064405859 0.109706454 2.349677647e-39
0.07801031321 -0.07960852981 0.2179021537 2.349677647e-39
0.06459613144 -0.03696284071 0.3417031467 2.349677647e-39
0.06135447323 -0.3543642163 0.261094451 2.167082852e-39
0.08644831181 -0.3423195183 0.2616537213 2.167082852e-39
0.1113682091 -0.3427242637 0.261921823 2.167082852e-39
0.1022234112 -0.117896691 0.2421629578 2.167082852e-39
0.1238281578 -0.3429266214 0.2620558739 2.167082852e-39
0.1024898663 -0.1051797047 0.2300210148 2.167082852e-39
0.04889452457 -0.3541618586 0.2609604001 2.167082852e-39
0.1115421057 -0.3302747905 0.2622130513 2.167082852e-39
0.1027563214 -0.09246274084 0.2178790569 1.984127923e-39
0.1240020543 -0.3304771483 0.2623470426 1.984127923e-39
0.09908214957 -0.330072403 0.2620790005 1.984127923e-39
0.06265303493 -0.2550361156 0.2758571506 1.984127923e-39
0.05001919717 -0.2672832012 0.275431931 1.984127923e-39
0.06501740217 -0.1048401147 0.2420520037 1.984127923e-39
0.1730113178 -0.4199018776 0.1100854948 1.984127923e-39
0.1241759509 -0.318027705 0.2626382709 1.984127923e-39
0.06528385729 -0.09212315828 0.2299100608 1.801533128e-39
0.1117160022 -0.3178253472 0.26250422 1.801533128e-39
0.07416225225 -0.3296676874 0.2618108988 1.801533128e-39
0.09925603867 -0.3176229596 0.2623701692 1.801533128e-39
0.04906841367 -0.3417124152 0.2612515688 1.801533128e-39
0.1243498325 -0.3055782616 0.2629294395 1.801533128e-39
0.06056027487 -0.3831398785 0.2216510922 1.801533128e-39
0.06398189813 -0.0745787099 0.3532626927 1.801533128e-39
0.1245237291 -0.2931287885 0.2632206678 1.618578199e-39
0.07730351388 -0.1174919605 0.2418948561 1.618578199e-39
0.1233453676 -0.4066429436 0.1098405048 1.618578199e-39
0.09056282043 -0.07954338938 0.2056030482 1.618578199e-39
0.06486258656 -0.02424584888 0.3295611739 1.618578199e-39
0.09942992777 -0.3051735163 0.2626613975 1.618578199e-39
0.1246976107 -0.2806793451 0.2635118365 1.618578199e-39
0.1122376621 -0.2804769874 0.2633777857 1.618578199e-39
0.08714387566 -0.2925216854 0.2628185153 1.435982003e-39
0.07810287178 -0.07934101671 0.2054689974 1.435982003e-39
0.06187614053 -0.3170158565 0.2619680166 1.435982003e-39
0.09977771342 -0.2802745998 0.2632437944 1.435982003e-39
0.1023159772 -0.1176291704 0.2297298163 1.435982003e-39
0.1357127428 -0.4071128666 0.1224077046 1.435982003e-39
0.1248715073 -0.268229872 0.2638030648 1.435982003e-39
0.1025824323 -0.1049121842 0.2175878584 1.435982003e-39
0.08731776476 -0.280072242 0.2631097436 1.253028475e-39
0.06484351307 -0.1172895879 0.2417608351 1.253028475e-39
0.09995160252 -0.2678251565 0.2635349631 1.253028475e-39
0.06510996819 -0.1045725942 0.2296188623 1.253028475e-39
0.0653764233 -0.09185563773 0.2174769044 1.253028475e-39
0.0748578161 -0.2798698843 0.2629756927 1.253028475e-39
0.1854712516 -0.4201042354 0.1102195457 1.253028475e-39
0.06564287096 -0.07913865149 0.2053349465 1.253028475e-39
0.04959008098 -0.3043640554 0.2621251941 1.070432279e-39
0.06061912701 -0.3471291065 0.2846905291 1.070432279e-39
0.1358053088 -0.4068453312 0.1099745482 1.070432279e-39
0.06239781529 -0.2796674967 0.2628416419 1.070432279e-39
0.06065283343 -0.3828723729 0.2092179358 1.070432279e-39
0.0750317052 -0.2674204111 0.2632668614 1.070432279e-39
0.06512904167 -0.01152888965 0.3174192309 1.070432279e-39
0.07358683646 -0.393651545 0.1220286638 1.070432279e-39
0.06121944264 -0.3931816518 0.109461464 8.874787512e-40
0.06257170439 -0.2672180235 0.2631328106 8.874787512e-40
0.04993786663 -0.2794651389 0.2627075911 8.874787512e-40
0.3644967675 -0.08453052491 0.23341842 8.874787512e-40
0.1978386343 -0.4205741286 0.1227867454 8.874787512e-40
0.1024085432 -0.1173616499 0.2172966599 8.874787512e-40
0.06556937844 0.01363751106 0.3055684566 8.874787512e-40
0.06407445669 -0.0743111968 0.3408295512 8.874787512e-40
0.1026749909 -0.1046446711 0.2051547021 7.045238224e-40
0.06074539945 -0.3826048374 0.1967847943 7.045238224e-40
0.06495515257 -0.02397833206 0.3171280324 7.045238224e-40
0.07367939502 -0.3933840096 0.1095955074 7.045238224e-40
0.3769567013 -0.08473289013 0.233552441 7.045238224e-40
0.08968213946 -0.1298762262 0.229304567 7.045238224e-40
0.06546898186 -0.09158812463 0.205043748 7.045238224e-40
0.08604683727 -0.3938539028 0.1221627146 7.045238224e-40
0.1979312003 -0.4203065932 0.1103535891 5.219290273e-40
0.06064159796 -0.3709579408 0.2343755066 5.219290273e-40
0.3894167244 -0.0849352628 0.2336864918 5.219290273e-40
0.102941446 -0.0919277072 0.1930126846 5.219290273e-40
0.0772221908 -0.1296738684 0.2291705161 5.219290273e-40
0.3647632301 -0.07181356102 0.2212764472 5.219290273e-40
0.09048149735 -0.09172533453 0.1928786337 5.219290273e-40
0.08613939583 -0.3935863674 0.1097295582 5.219290273e-40
0.06478126347 -0.03642780706 0.316836834 3.389740985e-40
0.1606326997 -0.4075175822 0.1226757988 3.389740985e-40
0.3772231638 -0.07201593369 0.221410498 3.389740985e-40
0.1022346541 -0.1298110932 0.2170054615 3.389740985e-40
0.4143366218 -0.08534000069 0.2339545935 3.389740985e-40
0.1025011018 -0.1170941368 0.2048635036 3.389740985e-40
0.06522160023 -0.0112613719 0.3049860597 3.389740985e-40
0.08950824291 -0.1423256695 0.2290133685 3.389740985e-40
0.389683187 -0.07221829891 0.2215445489 1.56020571e-40
0.1027675569 -0.1043771505 0.1927214861 1.56020571e-40
0.1607252657 -0.4072500467 0.1102426425 1.56020571e-40
0.06556154788 -0.09132060409 0.1926105469 1.56020571e-40
0.2103912085 -0.4205089808 0.1104876399 1.56020571e-40
0.06548805535 0.001455588266 0.2928440571 1.56020571e-40
0.06416702271 -0.07404367626 0.3283963799 1.56020571e-40
0.06460737437 -0.04887724668 0.3165456355 1.56020571e-40
0.1017943025 -0.1549775153 0.2288562208 6.490113838e-41
0.4146030843 -0.0726230368 0.2218126357 6.490113838e-41
0.06458829343 -0.1419209391 0.2287452668 6.490113838e-41
0.1730926484 -0.4077199697 0.1228098497 6.490113838e-41
0.0893343538 -0.1547751427 0.22872217 6.490113838e-41
0.06102309003 -0.3818022907 0.1594852656 6.490113838e-41
0.1023272127 -0.1295435727 0.2045723051 6.490113838e-41
0.064854756 -0.1292039901 0.2166033089 6.490113838e-41
0.06575450301 0.01417254843 0.2807020843 2.496469266e-40
0.1025936678 -0.1168266162 0.1924302876 2.496469266e-40
0.3773157299 -0.0717484206 0.2089773417 2.496469266e-40
0.06512120366 -0.1164870337 0.204461351 2.496469266e-40
0.1016204134 -0.1674269587 0.2285650223 2.496469266e-40
0.06538765877 -0.10377004 0.1923193485 2.496469266e-40
0.1731852144 -0.4074524343 0.1103766933 2.496469266e-40
0.06443347782 -0.0613267161 0.316254437 2.496469266e-40
0.06487382203 -0.03616028652 0.3044036627 4.340353837e-40
0.4144291878 -0.08507248014 0.2215214521 4.340353837e-40
0.0611156486 -0.381534785 0.1470521092 4.340353837e-40
0.1028601155 -0.10410963 0.1802883297 4.340353837e-40
0.06082672253 -0.3704229295 0.2095091343 4.340353837e-40
0.1018868685 -0.1547100097 0.2164230645 4.340353837e-40
0.4022356868 -0.07215315849 0.2092454433 4.340353837e-40
0.1031265706 -0.09139267355 0.1681463718 4.340353837e-40
0.06468085945 -0.1416534334 0.2163121253 6.184224396e-40
0.1021533161 -0.141993016 0.2042811066 6.184224396e-40
0.09066662192 -0.09119030088 0.168012321 6.184224396e-40
0.0889865756 -0.1796740592 0.228139773 6.184224396e-40
0.06469993293 -0.04860972986 0.3041124642 6.184224396e-40
0.06425958872 -0.07377616316 0.3159632385 6.184224396e-40
0.06120821461 -0.3812672496 0.1346189678 6.184224396e-40
0.1024197787 -0.1292760521 0.1921390891 6.184224396e-40
0.07820667326 -0.09098793566 0.1678782851 8.028094954e-40
0.1012726352 -0.1923258752 0.2279826254 8.028094954e-40
0.06521376967 -0.1162195131 0.19202815 8.028094954e-40
0.1026862264 -0.1165590957 0.1799971312 8.028094954e-40
0.06540672481 -0.01072633546 0.2801196873 8.028094954e-40
0.3774082959 -0.07148090005 0.1965441257 8.028094954e-40
0.1017129794 -0.167159453 0.216131866 8.028094954e-40
0.1010987461 -0.2047753185 0.2276914269 8.028094954e-40
0.06450697035 -0.1541029066 0.2160209268 9.871979525e-40
0.07829923928 -0.09072041512 0.1554451287 9.871979525e-40
0.389868319 -0.07168326527 0.1966781765 9.871979525e-40
0.06496638805 -0.03589276969 0.2919704616 9.871979525e-40
0.06567317992 0.001990623772 0.2679777443 9.871979525e-40
0.101979427 -0.1544424891 0.2039899081 9.871979525e-40
0.06452603638 -0.06105919927 0.3038212657 9.871979525e-40
0.06096690521 -0.32223019 0.2852729261 9.871979525e-40
0.06619825214 -0.07753354311 0.130735904 1.171585008e-39
0.06477341801 -0.1413859129 0.203878969 1.171585008e-39
0.06101185456 -0.3698878884 0.1846428365 1.171585008e-39
0.06583923846 -0.0905180499 0.1553110778 1.171585008e-39
0.09111820161 -0.077938281 0.1310040057 1.171585008e-39
0.3776747584 -0.05876393989 0.1844021678 1.171585008e-39
0.1027787924 -0.1162915826 0.1675639749 1.171585008e-39
0.06557278335 -0.1032350063 0.1674530357 1.171585008e-39
0.07376073301 -0.3812021017 0.1223198622 1.355972064e-39
0.1980125308 -0.4081246853 0.1230779439 1.355972064e-39
0.1022458822 -0.1417254955 0.1918478906 1.355972064e-39
0.4023282528 -0.07188563794 0.1968122274 1.355972064e-39
0.06139333919 -0.3807322085 0.109752655 1.355972064e-39
0.06503988057 -0.128668949 0.1917369515 1.355972064e-39
0.06523283571 -0.02317577787 0.2798284888 1.355972064e-39
0.1015390903 -0.1796089262 0.2158406675 1.355972064e-39
0.08846490085 -0.217022419 0.2272661775 1.540360521e-39
0.06433308125 -0.1665523499 0.2157297283 1.540360521e-39
0.0662908107 -0.07726602256 0.1183027476 1.540360521e-39
0.1025123373 -0.1290085316 0.1797059327 1.540360521e-39
0.07875081152 -0.07746838778 0.1184367985 1.540360521e-39
0.3901347816 -0.05896630883 0.1845362186 1.540360521e-39
0.07600495219 -0.2168200463 0.2271321416 1.540360521e-39
0.06566534936 -0.1029674858 0.1550198793 1.540360521e-39
0.06638337672 -0.07699850202 0.1058695987 1.724747577e-39
0.09121076018 -0.07767076045 0.1185708493 1.724747577e-39
0.06602436304 -0.08998301625 0.1304447055 1.724747577e-39
0.100055404 -0.2794720531 0.2259442508 1.724747577e-39
0.07884337753 -0.07720086724 0.1060036495 1.724747577e-39
0.07385329157 -0.3809345663 0.1098867059 1.724747577e-39
0.1005770713 -0.2421236932 0.2268178314 1.724747577e-39
0.08829101175 -0.2294718623 0.226974979 1.724747577e-39
0.06459952891 -0.153835386 0.2035877705 1.909134633e-39
0.06110441312 -0.369620353 0.1722096801 1.909134633e-39
0.0662060827 0.02742460556 0.2436938286 1.909134633e-39
0.3775008619 -0.0712133795 0.1841109693 1.909134633e-39
0.1036707088 -0.07787312567 0.1187049001 1.909134633e-39
0.06539889425 -0.1156844795 0.1671618372 1.909134633e-39
0.07513550669 -0.2790673375 0.2256761491 1.909134633e-39
0.1026049033 -0.128741011 0.1672727764 1.909134633e-39
0.06647594273 -0.07673098892 0.09343644232 2.09352309e-39
0.1013652012 -0.1920583695 0.215549469 2.09352309e-39
0.1031378061 -0.1033070758 0.1429888755 2.09352309e-39
0.1002292931 -0.2670226097 0.2262354344 2.09352309e-39
0.1484391987 -0.3945982158 0.1103997976 2.09352309e-39
0.08776934445 -0.2668202221 0.2261013985 2.09352309e-39
0.1004031822 -0.2545731664 0.2265266329 2.09352309e-39
0.07893594354 -0.07693335414 0.09357049316 2.09352309e-39
0.1034042612 -0.09059011936 0.130846858 2.277910146e-39
0.0661169216 -0.08971549571 0.1180115491 2.277910146e-39
0.06267550588 -0.2788649499 0.2255420983 2.277910146e-39
0.07530939579 -0.2666178644 0.2259673476 2.277910146e-39
0.1020719931 -0.1541749686 0.1915566921 2.277910146e-39
0.08794323355 -0.2543707788 0.226392597 2.277910146e-39
0.06182512268 -0.2480685264 0.3118864596 2.277910146e-39
0.1023384407 -0.1414579749 0.1794147342 2.277910146e-39
0.06373792142 -0.1111245155 0.315089643 2.462297202e-39
0.07548328489 -0.254168421 0.2262585461 2.462297202e-39
0.06284939498 -0.2664154768 0.2258332968 2.462297202e-39
0.1011913121 -0.2045078129 0.2152582705 2.462297202e-39
0.1037632748 -0.07760560513 0.1062717438 2.462297202e-39
0.06513243914 -0.1284014285 0.1793037951 2.462297202e-39
0.0913958922 -0.07713572681 0.09370454401 2.462297202e-39
0.1026974693 -0.1284735054 0.1548396349 2.462297202e-39
0.102963917 -0.1157565415 0.142697677 2.646685659e-39
0.1016316488 -0.1793414056 0.2034075111 2.646685659e-39
0.06442563981 -0.1662848294 0.203296572 2.646685659e-39
0.0646186024 -0.06079167873 0.2913880646 2.646685659e-39
0.06532540172 -0.02290825918 0.2673953474 2.646685659e-39
0.0660321936 0.01497510076 0.2434026301 2.646685659e-39
0.07565717399 -0.2417189628 0.2265497446 2.646685659e-39
0.1034968197 -0.09032259881 0.1184137017 2.646685659e-39
0.1024310067 -0.1411904544 0.1669815928 2.830713982e-39
0.06630205363 -0.08918046206 0.09314524382 2.830713982e-39
0.06558401883 -0.1151494384 0.1422955245 2.830713982e-39
0.06522500515 -0.1281339079 0.1668706387 2.830713982e-39
0.2105651051 -0.4080595374 0.1107788384 2.830713982e-39
0.06629864872 0.02769212238 0.2312606126 2.830713982e-39
0.0659430325 -0.1021649316 0.1177203506 2.830713982e-39
0.06105946377 -0.3219626844 0.2728397548 2.830713982e-39
0.07876205444 -0.08938282728 0.09327929467 3.015101038e-39
0.06398530304 -0.1914512515 0.2151473314 3.015101038e-39
0.1010174155 -0.2169572711 0.214967072 3.015101038e-39
0.06319717318 -0.2415165901 0.2264156938 3.015101038e-39
0.06199901178 -0.2356190532 0.3121776581 3.015101038e-39
0.06531757116 -0.1278664023 0.1544374824 3.015101038e-39
0.1027900279 -0.1282059848 0.1424064785 3.015101038e-39
0.06567658484 -0.1148819253 0.1298623085 3.015101038e-39
0.09877324104 -0.3813393116 0.1101548001 3.199488094e-39
0.1025235727 -0.1409229487 0.1545484364 3.199488094e-39
0.0912220031 -0.0895851925 0.09341334552 3.199488094e-39
0.1014577597 -0.191790849 0.2031163126 3.199488094e-39
0.1008435264 -0.2294067144 0.2146758735 3.199488094e-39
0.1111406311 -0.3818092048 0.1227219999 3.199488094e-39
0.06541012973 -0.1275988817 0.142004326 3.199488094e-39
0.06444471329 -0.07324112207 0.2910968661 3.199488094e-39
0.06515151262 -0.03535773233 0.2671041489 3.383517819e-39
0.1033229306 -0.1027720422 0.1181225032 3.383517819e-39
0.06612816453 -0.101629898 0.09285405278 3.383517819e-39
0.17326653 -0.3952704966 0.1231010482 3.383517819e-39
0.06109317765 -0.3577059209 0.1973671913 3.383517819e-39
0.06612475961 0.01524261944 0.2309694141 3.383517819e-39
0.06381141394 -0.2039006948 0.2148561329 3.383517819e-39
0.0612895377 -0.3690853417 0.1473433077 3.383517819e-39
0.0657691434 -0.1146144047 0.117429167 3.567904875e-39
0.1022571176 -0.1536399275 0.1666903943 3.567904875e-39
0.2229324877 -0.4085294306 0.1233460382 3.567904875e-39
0.1036819518 -0.08978756517 0.09354738891 3.567904875e-39
0.07858816534 -0.1018322706 0.09298809618 3.567904875e-39
0.06675023586 0.04094411433 0.194252342 3.567904875e-39
0.0650511086 -0.1405833513 0.1665794402 3.567904875e-39
0.06586170942 -0.1143468842 0.1049960032 3.567904875e-39
0.06621731818 0.01551013812 0.2185362577 3.75229193e-39
0.06451820582 -0.1660173088 0.190863356 3.75229193e-39
0.1006696373 -0.2418561876 0.214384675 3.75229193e-39
0.06131469086 -0.2973312736 0.2858553231 3.75229193e-39
0.06471116096 -0.06052416191 0.2789548934 3.75229193e-39
0.1028825939 -0.1279384643 0.1299732625 3.75229193e-39
0.06550269574 -0.1273313612 0.12957111 3.75229193e-39
0.06514367461 -0.1403158456 0.1541462839 3.75229193e-39
0.06541796774 -0.02264074236 0.2549622059 3.936320254e-39
0.1023496836 -0.1533724219 0.1542572379 3.936320254e-39
0.1733590961 -0.3950029612 0.1106678918 3.936320254e-39
0.1019906625 -0.1663568914 0.1788323522 3.936320254e-39
0.1112331897 -0.3815416694 0.110288851 3.936320254e-39
0.08768802136 -0.2790021896 0.2133770436 3.936320254e-39
0.10014797 -0.2792045474 0.2135110945 3.936320254e-39
0.2230250537 -0.4082618952 0.1109128818 3.936320254e-39
0.1034154966 -0.1025045216 0.1056893468 4.120708711e-39
0.1004957482 -0.2543056607 0.2140934914 4.120708711e-39
0.0665763393 0.02849467658 0.1939611584 4.120708711e-39
0.0752280727 -0.2787998319 0.2132429928 4.120708711e-39
0.06363751739 -0.216350168 0.2145649344 4.120708711e-39
0.06478465348 -0.1533003449 0.1787213981 4.120708711e-39
0.1012838706 -0.2042402923 0.2028251141 4.120708711e-39
0.06118574366 -0.3574384153 0.1849340349 4.120708711e-39
0.06523623317 -0.1400483251 0.1417131275 4.304737034e-39
0.06684279442 0.04121163115 0.1818192005 4.304737034e-39
0.1003218591 -0.2667551041 0.2138022929 4.304737034e-39
0.06595087051 0.002793177962 0.2306782156 4.304737034e-39
0.0655952543 -0.1270638406 0.1171379685 4.304737034e-39
0.1236005798 -0.3820115626 0.1228560507 4.304737034e-39
0.06339014322 -0.136023432 0.314507246 4.304737034e-39
0.1020832285 -0.1660893708 0.1663991958 4.304737034e-39
0.06427082419 -0.08569055796 0.2908056676 4.48912409e-39
0.0656844154 -0.0099237822 0.2428202331 4.48912409e-39
0.06497762352 -0.04780717567 0.2668129504 4.48912409e-39
0.06276807189 -0.2785974443 0.2131089419 4.48912409e-39
0.0648772195 -0.1530328244 0.1662882417 4.48912409e-39
0.06568782032 -0.1267963201 0.1047048122 4.48912409e-39
0.06147466972 -0.3685503006 0.1224770099 4.48912409e-39
0.1024422422 -0.1531049013 0.1418240815 4.48912409e-39
0.06123335287 -0.3095132411 0.2731309533 4.673152414e-39
0.07814782113 -0.1269986928 0.1048388556 4.673152414e-39
0.06434431672 -0.178466782 0.1905721575 4.673152414e-39
0.06532879919 -0.1397808045 0.1292799264 4.673152414e-39
0.06191768125 -0.2478010058 0.2994533181 4.673152414e-39
0.06234679744 -0.2107201517 0.3127600551 4.673152414e-39
0.06496978551 -0.1527653188 0.1538550854 4.673152414e-39
0.06666889787 0.0287621934 0.181528002 4.673152414e-39
0.1021757945 -0.1658218652 0.1539660394 4.857539469e-39
0.06461076438 -0.1657497883 0.1784301996 4.857539469e-39
0.1032416075 -0.1149539873 0.1053981483 4.857539469e-39
0.0908742249 -0.114484109 0.09283094853 4.857539469e-39
0.1015503258 -0.1915233284 0.1906830966 4.857539469e-39
0.06453727186 -0.07297360897 0.2786636949 4.857539469e-39
0.1857264638 -0.3954728544 0.1232350916 4.857539469e-39
0.06524407864 -0.0350902155 0.2546710074 4.857539469e-39
0.06693536043 0.0414791517 0.1693859845 5.041567793e-39
0.06311585009 -0.2536985278 0.2136913389 5.041567793e-39
0.06148857996 -0.2848818302 0.2861465216 5.041567793e-39
0.06613599509 0.003328213468 0.2058119029 5.041567793e-39
0.0647033304 -0.1654822677 0.1659970433 5.041567793e-39
0.06577698141 -0.009656263515 0.2303870171 5.041567793e-39
0.1033341736 -0.1146864742 0.09296499193 5.041567793e-39
0.1019093394 -0.178538844 0.1661079973 5.041567793e-39
0.06720180809 0.05419611186 0.1572440267 5.225597518e-39
0.06551392376 -0.1392457634 0.1044136137 5.225597518e-39
0.1022683531 -0.1655543447 0.141532883 5.225597518e-39
0.06365659088 -0.1233064681 0.3023652732 5.225597518e-39
0.06390397251 -0.2036331743 0.2024229765 5.225597518e-39
0.06328973919 -0.2412490845 0.2139825374 5.225597518e-39
0.06409693509 -0.0981400311 0.2905144691 5.225597518e-39
0.1858190298 -0.3952053189 0.1108019426 5.225597518e-39
0.07797392458 -0.1394481361 0.1045476571 5.409984573e-39
0.1028012559 -0.1401203871 0.1172489077 5.409984573e-39
0.06480372697 -0.06025664508 0.2665217519 5.409984573e-39
0.06321624666 -0.1484728754 0.3142160475 5.409984573e-39
0.06649500877 0.01631269045 0.1812368035 5.409984573e-39
0.06479589641 -0.1652147621 0.1535638869 5.409984573e-39
0.1030677184 -0.1274034232 0.1051069498 5.409984573e-39
0.136060521 -0.3822139502 0.1229901016 5.409984573e-39
0.06586953998 -0.009388746694 0.2179538608 5.594012897e-39
0.1016428843 -0.1912558079 0.1782499552 5.594012897e-39
0.1020019054 -0.1782713383 0.1536748409 5.594012897e-39
0.100936085 -0.2291391939 0.202242732 5.594012897e-39
0.06137086824 -0.3569033742 0.1600676626 5.594012897e-39
0.0662285611 0.003595731221 0.1933787614 5.594012897e-39
0.06117450073 -0.345524013 0.2100915313 5.594012897e-39
0.0645294413 -0.1779317409 0.1657058448 5.594012897e-39
0.06488845497 -0.1649472415 0.1411307454 5.77804122e-39
0.06524746865 -0.1519627571 0.1165555716 5.77804122e-39
0.06166246906 -0.2724323571 0.2864376903 5.77804122e-39
0.06729437411 0.05446362868 0.1448108703 5.77804122e-39
0.1023609191 -0.1652868241 0.1290996671 5.77804122e-39
0.06507018954 -0.04753965884 0.2543798089 5.77804122e-39
0.06596210599 -0.009121228009 0.2055207193 5.77804122e-39
0.1026273668 -0.1525698602 0.1169577092 5.77804122e-39
0.06140724942 -0.2970637679 0.2734221518 5.962428276e-39
0.102094464 -0.1780038178 0.1412416846 5.962428276e-39
0.136153087 -0.3819464147 0.1105569452 5.962428276e-39
0.1028938219 -0.1398528665 0.1048157588 5.962428276e-39
0.06658757478 0.01658020914 0.1688035876 5.962428276e-39
0.06498102099 -0.164679721 0.1286975294 5.962428276e-39
0.06685402244 0.02929723077 0.1566616297 5.962428276e-39
0.06462200731 -0.1776642352 0.1532726884 5.962428276e-39
0.09230688959 0.05432640761 0.1326458156 6.1464566e-39
0.06392304599 -0.1105894744 0.2902232707 6.1464566e-39
0.06373007596 -0.2160826474 0.202131778 6.1464566e-39
0.06226545945 -0.2229021043 0.3000357151 6.1464566e-39
0.1018280163 -0.1907207817 0.1533836424 6.1464566e-39
0.1981864125 -0.3956752121 0.1233691424 6.1464566e-39
0.1014689952 -0.2037052512 0.1779587567 6.1464566e-39
0.06348270178 -0.1357559115 0.3020741045 6.1464566e-39
0.09025998414 -0.152099967 0.1043905094 6.330484923e-39
0.06269457936 -0.185821265 0.313342452 6.330484923e-39
0.06462983787 -0.07270608842 0.2662305534 6.330484923e-39
0.10218703 -0.1777362972 0.1288084686 6.330484923e-39
0.08648718148 -0.3686874807 0.1103119478 6.330484923e-39
0.1024534777 -0.1650193036 0.1166665107 6.330484923e-39
0.06569565088 -0.02183818817 0.2176626623 6.330484923e-39
0.06286846846 -0.1733717918 0.3136336505 6.330484923e-39
0.1012025401 -0.21642223 0.1901007146 6.514514648e-39
0.06183635816 -0.2599829137 0.2867288888 6.514514648e-39
0.1002405286 -0.278937012 0.2010779381 6.514514648e-39
0.09213300049 0.04187696427 0.1323546171 6.514514648e-39
0.1485205293 -0.3824163079 0.123124145 6.514514648e-39
0.1004144177 -0.2664875686 0.2013691366 6.514514648e-39
0.1982789785 -0.3954076767 0.110935986 6.514514648e-39
0.07762614638 -0.1643470377 0.1039652675 6.514514648e-39
0.07967299968 0.04207933694 0.1322205663 6.698542971e-39
0.06542920321 -0.03455517814 0.2298046201 6.698542971e-39
0.06668013334 0.01684772782 0.1563704312 6.698542971e-39
0.06355618685 -0.2285320908 0.2018405795 6.698542971e-39
0.06694658846 0.02956474759 0.1442284733 6.698542971e-39
0.06641368568 0.004130767193 0.1685123891 6.698542971e-39
0.06480713189 -0.1771291941 0.1284063309 6.698542971e-39
0.09008609504 -0.1645494103 0.1040993109 6.698542971e-39
0.06286063045 -0.2783299088 0.2006757855 6.882571295e-39
0.1486130953 -0.3821487725 0.1106909961 6.882571295e-39
0.1020131409 -0.1901857406 0.1285172701 6.882571295e-39
0.0651627481 -0.0472721383 0.2419466376 6.882571295e-39
0.06158113852 -0.2846143246 0.2737133503 6.882571295e-39
0.07993944734 0.0547962971 0.1200786158 6.882571295e-39
0.09239944816 0.05459392816 0.1202126667 6.882571295e-39
0.2479449362 -0.4086666405 0.1111809835 6.882571295e-39
0.06303451955 -0.2658804357 0.200966984 7.066599618e-39
0.06747949868 0.05499866605 0.119944565 7.066599618e-39
0.09894713014 -0.3688898683 0.1104459986 7.066599618e-39
0.06408909708 -0.2030981332 0.1775566041 7.066599618e-39
0.062439356 -0.2104526311 0.3003269136 7.066599618e-39
0.06489969045 -0.1768616736 0.1159731746 7.066599618e-39
0.0612445958 -0.3214276433 0.247973457 7.066599618e-39
0.07745225728 -0.1767965108 0.103674069 7.066599618e-39
0.06552176178 -0.03428766131 0.2173714787 7.250627941e-39
0.06201024726 -0.2475334853 0.2870200872 7.250627941e-39
0.06445594877 -0.08515552431 0.2659393549 7.250627941e-39
0.08991220593 -0.1769988835 0.1038081124 7.250627941e-39
0.1048593968 0.05439155921 0.1203467101 7.250627941e-39
0.101028651 -0.2288716733 0.1898095161 7.250627941e-39
0.1021056995 -0.18991822 0.1160841137 7.250627941e-39
0.07949910313 0.02962989546 0.1319293678 7.250627941e-39
0.1013876647 -0.2158871889 0.1652344018 7.434656265e-39
0.1023721546 -0.1772012562 0.1039421633 7.434656265e-39
0.1295128316 0.04126986116 0.1327567548 7.434656265e-39
0.06320840865 -0.2534309924 0.2012581825 7.434656265e-39
0.1044190526 0.02922515757 0.1321974695 7.434656265e-39
0.1113145202 -0.3693597615 0.1230131984 7.434656265e-39
0.06650624424 0.004398284946 0.1560792327 7.434656265e-39
0.2106464207 -0.3958775997 0.1235031858 7.434656265e-39
0.1168790087 0.02902278863 0.1323315203 7.618684588e-39
0.06525531411 -0.04700462148 0.2295134217 7.618684588e-39
0.06463324279 -0.1895786226 0.1281151325 7.618684588e-39
0.06730560958 0.04254922271 0.119653374 7.618684588e-39
0.1018392518 -0.2026351839 0.1282260716 7.618684588e-39
0.06427422911 -0.202563107 0.1526903063 7.618684588e-39
0.07727836818 -0.1892459542 0.1033828706 7.618684588e-39
0.06164855883 -0.3561008275 0.1227682084 7.618684588e-39
0.1014802307 -0.2156196833 0.1528012455 7.802712912e-39
0.06498885155 -0.05972160771 0.2416554391 7.802712912e-39
0.1419727802 0.04106749222 0.1328908056 7.802712912e-39
0.06175502762 -0.2721648514 0.2740045488 7.802712912e-39
0.06125583127 -0.3333420455 0.2228158861 7.802712912e-39
0.06597334146 -0.02103563398 0.1803632081 7.802712912e-39
0.1011212096 -0.2286041528 0.1773763597 7.802712912e-39
0.06145219132 -0.3447214365 0.1727920771 7.802712912e-39
0.1019318104 -0.2023676634 0.1157929152 7.986382503e-39
0.06472580135 -0.189311102 0.1156819761 7.986382503e-39
0.1293389499 0.02882041968 0.1324655563 7.986382503e-39
0.06391520053 -0.2155476063 0.1772654057 7.986382503e-39
0.2107389867 -0.3956100643 0.1110700369 7.986382503e-39
0.1114070788 -0.369092226 0.1105800495 7.986382503e-39
0.06436678767 -0.2022955865 0.1402571499 7.986382503e-39
0.06218413636 -0.2350840122 0.2873112857 7.986382503e-39
0.1171454489 0.04173975065 0.1201895624 8.170410826e-39
0.06149981543 -0.2967962325 0.2609890103 8.170410826e-39
0.1015727893 -0.2153521627 0.1403680891 8.170410826e-39
0.0920516625 0.02969504707 0.1196302697 8.170410826e-39
0.06261324883 -0.1980031878 0.3006181121 8.170410826e-39
0.07932521403 0.01718039624 0.1316381693 8.170410826e-39
0.1012137756 -0.2283366323 0.1649432033 8.170410826e-39
0.1008547619 -0.2413211465 0.1895183176 8.170410826e-39
0.06400776654 -0.2152800858 0.1648322493 8.35443915e-39
0.06174111739 -0.355833292 0.110335052 8.35443915e-39
0.06313491613 -0.160654828 0.3014917076 8.35443915e-39
0.1237744614 -0.3695621192 0.1231472492 8.35443915e-39
0.1734404266 -0.3828210533 0.1233922392 8.35443915e-39
0.06445935369 -0.2020280659 0.127823934 8.35443915e-39
0.06713171303 0.03009978496 0.1193621755 8.35443915e-39
0.1020243764 -0.2021001428 0.1033597663 8.35443915e-39
0.06633235514 -0.008051156998 0.1557880342 8.538467473e-39
0.06659881026 0.004665802699 0.1436460763 8.538467473e-39
0.1296053976 0.04153738171 0.1203236133 8.538467473e-39
0.06364875287 -0.2282645702 0.1894073635 8.538467473e-39
0.06508141756 -0.05945409089 0.2292222381 8.538467473e-39
0.07710447907 -0.2016953975 0.1030916721 8.538467473e-39
0.06410033256 -0.2150125802 0.1523991078 8.538467473e-39
0.06606590748 -0.0207681153 0.1679299921 8.538467473e-39
0.1291650534 0.01637092233 0.1321743578 8.722137064e-39
0.1013063416 -0.2280691266 0.152510047 8.722137064e-39
0.1006808728 -0.2537706196 0.1892271191 8.722137064e-39
0.1017579138 -0.2148171216 0.1155017316 8.722137064e-39
0.06579945236 -0.03348510712 0.1800720096 8.722137064e-39
0.1542589068 0.02841568552 0.132733658 8.722137064e-39
0.06419289112 -0.2147450596 0.1399659514 8.722137064e-39
0.06464447826 -0.2014930248 0.1029576212 8.722137064e-39
0.1420653462 0.04133501276 0.1204576567 8.906165387e-39
0.07420106977 -0.3560356498 0.1104691029 8.906165387e-39
0.06278713793 -0.1855537444 0.3009093106 8.906165387e-39
0.1005069837 -0.266220063 0.1889359206 8.906165387e-39
0.06374131143 -0.2279970497 0.1769742072 8.906165387e-39
0.09161132574 0.004528583493 0.1314810216 8.906165387e-39
0.1735329926 -0.3825535178 0.1109590903 8.906165387e-39
0.06296102703 -0.1731042713 0.3012005091 8.906165387e-39
0.07941777259 0.01744791307 0.1192050204 9.089834978e-39
0.0614184849 -0.3089782 0.2482646555 9.089834978e-39
0.1165312231 0.004123846535 0.1317491233 9.089834978e-39
0.06167370453 -0.2843467891 0.2612802088 9.089834978e-39
0.1294315159 0.02908794023 0.1200324148 9.089834978e-39
0.08656851202 -0.356505543 0.1230363026 9.089834978e-39
0.0655330047 -0.04620206729 0.1922139674 9.089834978e-39
0.06428545713 -0.2144775391 0.1275327355 9.089834978e-39
0.1014914662 -0.2275340855 0.1276436746 9.273863302e-39
0.06695782393 0.01765028015 0.119070977 9.273863302e-39
0.1289911717 0.003921478521 0.1318831742 9.273863302e-39
0.1362344027 -0.3697645068 0.1232812926 9.273863302e-39
0.07693058252 -0.2141448706 0.1028004736 9.273863302e-39
0.06642492115 -0.007783638779 0.1433548778 9.273863302e-39
0.1545253545 0.04113264382 0.1205917075 9.273863302e-39
0.06384171546 -0.1227714345 0.2774989307 9.273863302e-39
0.1540850103 0.01596618444 0.1324424595 9.457532893e-39
0.06615846604 -0.02050059848 0.1554968357 9.457532893e-39
0.06133715436 -0.3211601079 0.2355403006 9.457532893e-39
0.06295319647 -0.2780624032 0.1882425845 9.457532893e-39
0.1011324525 -0.2405185997 0.1522188485 9.457532893e-39
0.1015840247 -0.227266565 0.1152105331 9.457532893e-39
0.06464107335 -0.08462049067 0.2410730571 9.457532893e-39
0.1414511204 0.003719110508 0.1320172101 9.457532893e-39
0.06447058171 -0.213942498 0.1026664227 9.641561216e-39
0.1292576194 0.01663843915 0.1197412163 9.641561216e-39
0.06410817057 -0.1100544408 0.2653569579 9.641561216e-39
0.06312708557 -0.2656129301 0.188533783 9.641561216e-39
0.06562556326 -0.04593455046 0.1797808111 9.641561216e-39
0.09143743664 -0.00792085845 0.1311898232 9.641561216e-39
0.07924388349 0.004998470191 0.1189138293 9.641561216e-39
0.0616373159 -0.3441864252 0.1479257047 9.641561216e-39
0.08666107059 -0.3562380075 0.1106031463 9.825230807e-39
0.1539111286 0.003516741563 0.132151261 9.825230807e-39
0.1008659974 -0.2532355785 0.1643608063 9.825230807e-39
0.104163833 0.004593733232 0.1191819236 9.825230807e-39
0.1916387379 0.02780857868 0.1331357956 9.825230807e-39
0.06253192574 -0.2101851106 0.2878936827 9.825230807e-39
0.1859929264 -0.3827558756 0.1110931337 9.825230807e-39
0.06356742233 -0.2404465228 0.1766830087 9.825230807e-39
0.1013175771 -0.2399835587 0.127352491 1.000925913e-38
0.1288172752 -0.008527962491 0.1315919757 1.000925913e-38
0.06500008702 -0.07163601369 0.2164978832 1.000925913e-38
0.1790049076 0.01556144841 0.1327105612 1.000925913e-38
0.06184759364 -0.271897316 0.2615714073 1.000925913e-38
0.06651748717 -0.007516121026 0.1309217364 1.000925913e-38
0.07675669342 -0.226594314 0.1025092751 1.000925913e-38
0.1363269687 -0.3694969714 0.1108481437 1.000925913e-38
0.06535910815 -0.0586515367 0.191922769 1.019292872e-38
0.1412772238 -0.008730331436 0.1317260116 1.019292872e-38
0.06365998834 -0.2401790023 0.1642498672 1.019292872e-38
0.06625103205 -0.02023307979 0.1430636942 1.019292872e-38
0.06598457694 -0.03295006976 0.1552056372 1.019292872e-38
0.0642041266 -0.2266594619 0.1148083806 1.019292872e-38
0.1014101356 -0.2397160381 0.1149193347 1.019292872e-38
0.1486944109 -0.3699668646 0.1234153435 1.019292872e-38
0.06446718425 -0.09706996381 0.2407818586 1.037659831e-38
0.1537372321 -0.008932700381 0.1318600625 1.037659831e-38
0.09126354754 -0.020370299 0.1308986247 1.037659831e-38
0.0915299952 -0.007653340697 0.1187566742 1.037659831e-38
0.06153352186 -0.3325394988 0.1855164319 1.037659831e-38
0.06429669261 -0.2263919413 0.1023752317 1.037659831e-38
0.1114884093 -0.3569102883 0.1233043969 1.037659831e-38
0.06322748214 -0.1603873074 0.2890584767 1.037659831e-38
0.198360309 -0.3832257986 0.1236603409 1.056062664e-38
0.1037234962 -0.02057266794 0.1310326755 1.056062664e-38
0.1161834449 -0.02077503502 0.1311667264 1.056062664e-38
0.06366782635 -0.1352208704 0.2772077322 1.056062664e-38
0.1039899439 -0.007855708711 0.1188907251 1.056062664e-38
0.178831026 0.003112004604 0.1324193627 1.056062664e-38
0.06420073658 -0.1097869202 0.2529238164 1.056062664e-38
0.09912101924 -0.3564403951 0.1107371971 1.056062664e-38
0.1415436864 0.00398662826 0.1195840687 1.074429623e-38
0.06545166671 -0.05838401988 0.1794896126 1.074429623e-38
0.06509265304 -0.07136850059 0.2040647268 1.074429623e-38
0.1286433786 -0.02097740397 0.1313007772 1.074429623e-38
0.1661971807 -0.009135068394 0.1319941133 1.074429623e-38
0.1004256532 -0.2784020007 0.1762115657 1.074429623e-38
0.06661004573 -0.007248603739 0.11848858 1.074429623e-38
0.1164498925 -0.008058076724 0.1190247759 1.074429623e-38
0.101143688 -0.2524330318 0.1270612925 1.092796582e-38
0.08904275298 -0.2392461598 0.1023521274 1.092796582e-38
0.06393767893 -0.2393764555 0.1269503385 1.092796582e-38
0.235658884 -0.3960148096 0.1113381311 1.092796582e-38
0.0879657045 -0.2781996429 0.1760775149 1.092796582e-38
0.06482619792 -0.08408544958 0.2162066847 1.092796582e-38
0.06607714295 -0.03268255293 0.1427724957 1.092796582e-38
0.1535633355 -0.02138214186 0.131568864 1.092796582e-38
0.1289098412 -0.008260445669 0.1191588193 1.111163541e-38
0.1487869769 -0.3696993291 0.1109821871 1.111163541e-38
0.06321964413 -0.2653454244 0.1761006266 1.111163541e-38
0.1917313039 0.02807609923 0.1207026541 1.111163541e-38
0.1008772328 -0.2651499808 0.13920331 1.111163541e-38
0.198452875 -0.3829582632 0.1112271845 1.111163541e-38
0.1012362465 -0.2521655262 0.1146281362 1.111163541e-38
0.0913561061 -0.02010278217 0.1184654832 1.111163541e-38
0.06429329515 -0.1095194072 0.2404906601 1.1295305e-38
0.1413697898 -0.008462813683 0.1192928702 1.1295305e-38
0.1160095558 -0.03322450817 0.1308755279 1.1295305e-38
0.1660232842 -0.02158450894 0.1317029148 1.1295305e-38
0.06176627055 -0.2840792835 0.2488470376 1.1295305e-38
0.07862965763 -0.03261740133 0.1304733902 1.1295305e-38
0.1038160548 -0.02030514926 0.1185995266 1.1295305e-38
0.1115809679 -0.3566427529 0.1108712479 1.1295305e-38
0.1009697989 -0.2648824751 0.126770094 1.147897319e-38
0.06554423273 -0.05811649933 0.1670563966 1.147897319e-38
0.128469497 -0.03342687711 0.1310095787 1.147897319e-38
0.2163847983 0.01495434344 0.1331126988 1.147897319e-38
0.06367122382 -0.2520934045 0.139092356 1.147897319e-38
0.08805827051 -0.2779321074 0.1636443585 1.147897319e-38
0.1013288125 -0.2518979907 0.1021949798 1.147897319e-38
0.07559832186 -0.2777297497 0.1635103226 1.147897319e-38
0.06182244793 -0.3436513841 0.1230594069 1.166264278e-38
0.06643615663 -0.01969804429 0.1181973815 1.166264278e-38
0.06305359304 -0.1728367507 0.2887672782 1.166264278e-38
0.06331221014 -0.265077889 0.1636674702 1.166264278e-38
0.06491876394 -0.08381793648 0.2037735283 1.166264278e-38
0.06287970394 -0.1852862239 0.2884760797 1.166264278e-38
0.06527777761 -0.0708334595 0.1791984141 1.166264278e-38
0.1911170632 -0.009539805353 0.132262215 1.166264278e-38
0.08886886388 -0.2516956031 0.1020609289 1.184631237e-38
0.2108203173 -0.3834281564 0.1237943843 1.184631237e-38
0.06245058402 -0.2223670632 0.2751693428 1.184631237e-38
0.06152227893 -0.3206250966 0.2106739283 1.184631237e-38
0.06313832104 -0.2775273621 0.1633762717 1.184631237e-38
0.07428240031 -0.3438537419 0.1231934503 1.184631237e-38
0.091182217 -0.03255225345 0.1181742847 1.184631237e-38
0.1007033437 -0.2775994241 0.1389121115 1.184631237e-38
0.06402684748 -0.1222363934 0.252632618 1.202998196e-38
0.09091576934 -0.04526921734 0.1303162426 1.202998196e-38
0.0634939298 -0.1476703137 0.2769165337 1.202998196e-38
0.1612469256 -0.3699017167 0.1111162379 1.202998196e-38
0.1411958933 -0.02091225423 0.1190016717 1.202998196e-38
0.103375718 -0.04547158256 0.1304502785 1.202998196e-38
0.1036421657 -0.0327546224 0.1183083281 1.202998196e-38
0.06438586116 -0.1092518866 0.2280574441 1.202998196e-38
0.2162109166 0.002504899632 0.1328215003 1.221365155e-38
0.08824339509 -0.2773970664 0.1387780607 1.221365155e-38
0.06219537184 -0.2469984442 0.2621538043 1.221365155e-38
0.204017356 0.0154242292 0.120545499 1.221365155e-38
0.06501132995 -0.08355041593 0.191340372 1.221365155e-38
0.1282956004 -0.04587632045 0.1307183802 1.221365155e-38
0.124040924 -0.3568451405 0.1110052913 1.221365155e-38
0.06194015965 -0.2716298103 0.249138236 1.221365155e-38
0.06168494001 -0.2962611914 0.2361226976 1.239732115e-38
0.1536559016 -0.02111462317 0.1191357225 1.239732115e-38
