# .PCD v0.7 - Point Cloud Data file format
VERSION 0.7
FIELDS x y z rgb
SIZE 4 4 4 4
TYPE F F F F
COUNT 1 1 1 1
WIDTH 852
HEIGHT 1
VIEWPOINT 0 0 0 1 0 0 0
POINTS 852
DATA ascii
0.212301597 -0.3455331028 0.3718853891 1.111567956e-38
0.2148086727 -0.3638365567 0.3760627508 1.111567956e-38
0.1999803782 -0.3463084996 0.3728486896 1.093308476e-38
0.2072874308 -0.3089261055 0.3635306358 1.093308476e-38
0.1876592487 -0.3470838964 0.37381199 1.093308476e-38
0.2024874687 -0.3646119535 0.3770260811 1.093308476e-38
0.1937126815 -0.3005497754 0.3624052405 1.093308476e-38
0.1901663244 -0.3653873503 0.3779893517 1.093308476e-38
0.1801380068 -0.2921734154 0.3612798452 1.093308476e-38
0.1058432758 -0.3763828874 0.3570561707 1.093308476e-38
0.1045897305 -0.3672311306 0.3549675047 1.075048997e-38
0.2764144242 -0.3599596024 0.3712462783 1.075048997e-38
0.2739073634 -0.3416561484 0.3670688868 1.075048997e-38
0.1788844764 -0.2830216885 0.3591911495 1.075048997e-38
0.188912794 -0.3562356234 0.3759006858 1.075048997e-38
0.2523176074 -0.3691481054 0.3638997674 1.075048997e-38
0.2442508638 -0.3065999448 0.3606407344 1.075048997e-38
0.190711841 -0.3730250895 0.3687162697 1.075048997e-38
0.2751609087 -0.3508078754 0.3691575825 1.056789517e-38
0.1763773859 -0.2647181749 0.3550137579 1.056789517e-38
0.215899691 -0.3791120052 0.357516557 1.056789517e-38
0.2282208353 -0.3783366084 0.3565532565 1.056789517e-38
0.2565720081 -0.305824548 0.359677434 1.056789517e-38
0.2405419797 -0.3775612116 0.355589956 1.056789517e-38
0.2701467276 -0.3142008781 0.3608028293 1.056789517e-38
0.1831905842 -0.3181146085 0.3561841249 1.056789517e-38
0.1912573427 -0.3806627989 0.3594431579 1.038530038e-38
0.18695122 -0.345569849 0.3624501824 1.038530038e-38
0.2633852065 -0.3592209518 0.3608477712 1.038530038e-38
0.2731993198 -0.340142101 0.355707109 1.038530038e-38
0.1038817167 -0.365717113 0.3436056972 1.038530038e-38
0.1794299781 -0.2906593978 0.3499180377 1.038530038e-38
0.1917511225 -0.289884001 0.3489547372 1.038530038e-38
0.2176470011 -0.2974849641 0.349116832 1.038530038e-38
0.2312216908 -0.3058612943 0.3502422273 1.020306431e-38
0.1781764328 -0.2815076709 0.3478293717 1.020306431e-38
0.2516095638 -0.3676340878 0.3525379896 1.020306431e-38
0.2435428351 -0.3050859272 0.3492789268 1.020306431e-38
0.1769228876 -0.2723559141 0.3457406759 1.020306431e-38
0.1756693572 -0.2632041574 0.3436519802 1.020306431e-38
0.269438684 -0.3126868606 0.3494410217 1.020306431e-38
0.1063887924 -0.3840205669 0.3477830887 1.020306431e-38
0.239833951 -0.376047194 0.3442281783 1.002046952e-38
0.07482980192 -0.1353419125 0.3461087644 1.002046952e-38
0.2521550953 -0.3752717972 0.3432648778 1.002046952e-38
0.2546104193 -0.2951588035 0.3462269604 1.002046952e-38
0.190549314 -0.3791487813 0.3480813503 1.002046952e-38
0.1031736881 -0.3642030954 0.3322439194 1.002046952e-38
0.1799754947 -0.298297137 0.3406449556 1.002046952e-38
0.2046178281 -0.2967463434 0.3387183547 1.002046952e-38
0.2749983668 -0.3569315374 0.3485226929 9.837874723e-39
0.1897378713 -0.1808017194 0.3342889547 9.837874723e-39
0.1862431914 -0.3440558314 0.3510884047 9.837874723e-39
0.1787219644 -0.2891453803 0.3385562599 9.837874723e-39
0.1910430938 -0.2883699834 0.3375929594 9.837874723e-39
0.1909914166 -0.1899534762 0.3363776505 9.837874723e-39
0.1719087362 -0.2357489467 0.3373858929 9.837874723e-39
0.2305136621 -0.3043472767 0.3388804495 9.837874723e-39
0.188750267 -0.3623593152 0.3552657664 9.655279928e-39
0.2737448215 -0.3477798104 0.3464339972 9.655279928e-39
0.2021107525 -0.2784428596 0.3345409632 9.655279928e-39
0.2156854272 -0.2868191898 0.3356663585 9.655279928e-39
0.2020590007 -0.1800263226 0.3333256543 9.655279928e-39
0.2632226944 -0.3653446734 0.3402128816 9.655279928e-39
0.1874967366 -0.3532075584 0.3531771004 9.655279928e-39
0.2755438685 -0.3645692766 0.3392495811 9.655279928e-39
0.07662886381 -0.1521313787 0.3389243484 9.472685133e-39
0.2008572072 -0.2692911029 0.3324522674 9.472685133e-39
0.1749613285 -0.2616901398 0.3322901726 9.472685133e-39
0.2687306702 -0.311172843 0.3380792439 9.472685133e-39
0.2415812612 -0.2944201529 0.3358284533 9.472685133e-39
0.183028087 -0.3242383301 0.3355492353 9.472685133e-39
0.2551559508 -0.3027965128 0.3369538486 9.472685133e-39
0.1737077981 -0.2525384128 0.3302014768 9.472685133e-39
0.1842816174 -0.3333900571 0.3376379013 9.290090338e-39
0.1024656594 -0.3626890779 0.3208821118 9.290090338e-39
0.1037191898 -0.371840775 0.3229708076 9.290090338e-39
0.07412178814 -0.1338278949 0.3347469568 9.290090338e-39
0.2391259223 -0.3745331764 0.3328663707 9.290090338e-39
0.2514470816 -0.3737577796 0.3319030702 9.290090338e-39
0.2539024055 -0.2936447859 0.3348651528 9.290090338e-39
0.07286824286 -0.1246761605 0.3326582909 9.290090338e-39
0.07161469758 -0.1155244038 0.3305695951 9.107495543e-39
0.07036116719 -0.1063726693 0.3284808993 9.107495543e-39
0.226804778 -0.3753085732 0.3338296711 9.107495543e-39
0.2637681961 -0.3729823828 0.3309397995 9.107495543e-39
0.1805210114 -0.3059348464 0.3313718438 9.107495543e-39
0.2692762017 -0.3188105524 0.3288061321 9.107495543e-39
0.1668945849 -0.1991419792 0.3290311396 9.107495543e-39
0.1792674661 -0.2967830896 0.3292831481 9.107495543e-39
0.1915885955 -0.2960076928 0.3283198476 8.924899347e-39
0.2526488602 -0.2844930291 0.3327764571 8.924899347e-39
0.2021624297 -0.3768593669 0.3357562721 8.924899347e-39
0.2039097995 -0.295232296 0.3273565471 8.924899347e-39
0.1902833879 -0.1884394586 0.3250158429 8.924899347e-39
0.2742903233 -0.3554175198 0.3371608853 8.924899347e-39
0.2174844891 -0.3036086559 0.3284819424 8.924899347e-39
0.1712007225 -0.2342349291 0.3260241151 8.924899347e-39
0.1898413002 -0.3776347637 0.3367195725 8.742304551e-39
0.2026562691 -0.286080569 0.3252678514 8.742304551e-39
0.1855351627 -0.3425418139 0.3397265971 8.742304551e-39
0.2298056334 -0.3028332591 0.3275186419 8.742304551e-39
0.2013509721 -0.178512305 0.3219638467 8.742304551e-39
0.2014027238 -0.2769288123 0.3231791854 8.742304551e-39
0.2026045173 -0.1876640618 0.3240525424 8.742304551e-39
0.2149773985 -0.2853051722 0.3243045509 8.742304551e-39
0.2680226564 -0.3096587956 0.3267174363 8.560068489e-39
0.1699471772 -0.2250831723 0.3239354193 8.560068489e-39
0.2285520881 -0.2936815321 0.3254299462 8.560068489e-39
0.2748358548 -0.363055259 0.3278878033 8.560068489e-39
0.2421267778 -0.3020578623 0.3265553415 8.560068489e-39
0.104972735 -0.3809925318 0.3250595033 8.560068489e-39
0.07592083514 -0.1506173611 0.3275625408 8.560068489e-39
0.186788708 -0.3516935408 0.3418152928 8.560068489e-39
0.2272985429 -0.2845297754 0.3233412802 8.377473694e-39
0.07466728985 -0.1414656192 0.3254738748 8.377473694e-39
0.1686936319 -0.2159314454 0.3218467236 8.377473694e-39
0.06965313852 -0.1048586518 0.3171190917 8.377473694e-39
0.188587755 -0.368483007 0.3346308768 8.377473694e-39
0.2698217034 -0.3264482915 0.3195330203 8.377473694e-39
0.1649330258 -0.1884762198 0.3155806661 8.377473694e-39
0.1772541553 -0.1877008229 0.3146173656 8.377473694e-39
0.07341375947 -0.1323138773 0.323385179 8.194878899e-39
0.2396196872 -0.2837543786 0.3223779798 8.194878899e-39
0.2057088614 -0.3120217621 0.3201721311 8.194878899e-39
0.1674401015 -0.2067797035 0.3197580278 8.194878899e-39
0.2710752487 -0.3356000483 0.321621716 8.194878899e-39
0.1798129678 -0.3044208288 0.3200100362 8.194878899e-39
0.2384178936 -0.3730191588 0.3215045333 8.194878899e-39
0.2260967493 -0.3737945557 0.3224678338 8.194878899e-39
0.1895753592 -0.1869254261 0.3136540651 8.012284103e-39
0.213775605 -0.3745699525 0.3234311342 8.012284103e-39
0.2753813863 -0.3706929684 0.3186146319 8.012284103e-39
0.1785594374 -0.2952690721 0.3179213703 8.012284103e-39
0.1704926789 -0.2327209115 0.3146623075 8.012284103e-39
0.2426722795 -0.3096955717 0.3172822595 8.012284103e-39
0.272328794 -0.3447517753 0.3237104118 8.012284103e-39
0.2006429434 -0.1769982874 0.3106020689 8.012284103e-39
0.2549934387 -0.3089201748 0.316318959 7.829687907e-39
0.1760523617 -0.2769655883 0.3137439787 7.829687907e-39
0.1692391485 -0.2235691547 0.3125736117 7.829687907e-39
0.1023031324 -0.3688127398 0.3002471626 7.829687907e-39
0.09979605675 -0.3505092859 0.2960697711 7.829687907e-39
0.1735452712 -0.2586621046 0.3095665872 7.829687907e-39
0.1873342246 -0.3593312502 0.332542181 7.829687907e-39
0.274127841 -0.3615412414 0.3165259361 7.829687907e-39
0.09854251146 -0.3413575292 0.2939811051 7.647093112e-39
0.06894510984 -0.1033446267 0.305757314 7.647093112e-39
0.2278440595 -0.2921675146 0.3140681684 7.647093112e-39
0.07019864023 -0.1124963611 0.3078460097 7.647093112e-39
0.07145218551 -0.1216481179 0.3099346757 7.647093112e-39
0.162971437 -0.1778104305 0.3021301627 7.647093112e-39
0.08993025124 -0.2711716294 0.2999952137 7.647093112e-39
0.1752925813 -0.1770350486 0.3011668622 7.647093112e-39
0.2265905142 -0.2830157578 0.3119794726 7.464498317e-39
0.1860806793 -0.3501795232 0.3304535151 7.464498317e-39
0.09728898108 -0.3322057724 0.2918924093 7.464498317e-39
0.1765461266 -0.1861867905 0.303255558 7.464498317e-39
0.1679856181 -0.2144174278 0.3104849458 7.464498317e-39
0.1654785275 -0.1961139143 0.3063075542 7.464498317e-39
0.2691136599 -0.3249342442 0.3081711829 7.464498317e-39
0.1667320728 -0.205265671 0.30839625 7.464498317e-39
0.1710381955 -0.2403586209 0.3053892255 7.281903522e-39
0.1876137853 -0.1762596518 0.3002035618 7.281903522e-39
0.1803584844 -0.3120585084 0.3107368946 7.281903522e-39
0.1926796138 -0.3112831116 0.3097735941 7.281903522e-39
0.1878797263 -0.3669689894 0.3232690394 7.281903522e-39
0.1828655601 -0.3303619921 0.3149142861 7.281903522e-39
0.2728742957 -0.3523894846 0.3144372702 7.281903522e-39
0.2296431065 -0.3089569509 0.3068836927 7.281903522e-39
0.2253887206 -0.3722805083 0.3111060262 7.099307325e-39
0.2500309944 -0.3707297146 0.309179455 7.099307325e-39
0.1055182368 -0.388630271 0.3157863915 7.099307325e-39
0.2419642508 -0.3081815541 0.3059203923 7.099307325e-39
0.1778514087 -0.2937550545 0.3065595031 7.099307325e-39
0.1999349147 -0.175484255 0.2992402613 7.099307325e-39
0.2746733427 -0.3691789508 0.3072528541 7.099307325e-39
0.1035566777 -0.3779644966 0.3023358583 7.099307325e-39
0.2716207504 -0.3432377577 0.3123485744 6.91671253e-39
0.2542853951 -0.3074061573 0.3049570918 6.91671253e-39
0.1765978634 -0.2846032977 0.3044708073 6.91671253e-39
0.2007463723 -0.3738313019 0.3130326271 6.91671253e-39
0.1015951037 -0.3672987223 0.2888853848 6.91671253e-39
0.09783448279 -0.3398435116 0.2826192975 6.91671253e-39
0.20118846 -0.1846360117 0.3013289571 6.91671253e-39
0.07074415684 -0.1201340854 0.2985728383 6.91671253e-39
0.0732512325 -0.1384375691 0.3027502298 6.734117735e-39
0.09352836013 -0.3047505319 0.285626322 6.734117735e-39
0.08922222257 -0.2696576118 0.2886334062 6.734117735e-39
0.09227481484 -0.295598805 0.2835376263 6.734117735e-39
0.1685311198 -0.2220551372 0.301211834 6.734117735e-39
0.1841191053 -0.3395137787 0.3170029819 6.734117735e-39
0.1728372574 -0.2571480572 0.2982047498 6.734117735e-39
0.186626181 -0.3578172326 0.3211803436 6.734117735e-39
0.09478189051 -0.3139022887 0.2877150178 6.55152294e-39
0.2734197974 -0.360027194 0.3051641583 6.55152294e-39
0.09102126956 -0.2864470482 0.2814489603 6.55152294e-39
0.1715837121 -0.2479963303 0.2961160541 6.55152294e-39
0.1758380979 -0.1846727729 0.2918937802 6.55152294e-39
0.08796869218 -0.2605058551 0.2865447104 6.55152294e-39
0.1647704989 -0.1945998967 0.2949457467 6.55152294e-39
0.1853726506 -0.3486655056 0.3190916479 6.55152294e-39
0.204292804 -0.3089936972 0.2974484861 6.368926744e-39
0.2696591616 -0.3325719833 0.2988981009 6.368926744e-39
0.06627550721 -0.09116484225 0.2809449732 6.368926744e-39
0.2289350778 -0.3074429333 0.295521915 6.368926744e-39
0.1783969104 -0.3013927639 0.2972864211 6.368926744e-39
0.1821575463 -0.3288479745 0.3035524786 6.368926744e-39
0.08976773918 -0.2772953212 0.2793602645 6.368926744e-39
0.2412562221 -0.3066675365 0.2945586145 6.368926744e-39
0.102848649 -0.3764504194 0.2909740508 6.186331949e-39
0.2370018363 -0.3699910939 0.2987809479 6.186331949e-39
0.0867151469 -0.2513541281 0.2844560444 6.186331949e-39
0.08366255462 -0.2254129201 0.2895517647 6.186331949e-39
0.2493229806 -0.3692156971 0.2978176475 6.186331949e-39
0.09712645411 -0.338329494 0.2712574899 6.186331949e-39
0.2721662521 -0.3508754373 0.3030754626 6.186331949e-39
0.261644125 -0.36844033 0.296854347 6.186331949e-39
0.2535773516 -0.3058921397 0.293595314 6.003737154e-39
0.1758898497 -0.2830892801 0.2931090295 6.003737154e-39
0.07379674911 -0.1460752785 0.293477118 6.003737154e-39
0.07003612816 -0.1186200604 0.2872110605 6.003737154e-39
0.2739652991 -0.3676649332 0.2958910465 6.003737154e-39
0.1690766215 -0.2296928465 0.2919386625 6.003737154e-39
0.07128967345 -0.1277717948 0.2892997265 6.003737154e-39
0.1733827591 -0.2647857964 0.288931638 6.003737154e-39
0.09156678617 -0.2940847874 0.2721758485 5.820783626e-39
0.2709127069 -0.3417237103 0.3009867668 5.820783626e-39
0.1615553796 -0.1747823954 0.2794065177 5.820783626e-39
0.2004804462 -0.1831219941 0.2899671793 5.820783626e-39
0.173876524 -0.1740069985 0.2784432173 5.820783626e-39
0.09282033145 -0.3032365143 0.2742645442 5.820783626e-39
0.08115547895 -0.2071094364 0.2853743732 5.820783626e-39
0.1628089249 -0.1839341521 0.2814952135 5.820783626e-39
0.2727117538 -0.3585131764 0.2938023508 5.63818743e-39
0.266444087 -0.3127544522 0.2833589017 5.63818743e-39
0.1751300693 -0.1831587553 0.280531913 5.63818743e-39
0.1678230911 -0.2205410898 0.2898499966 5.63818743e-39
0.08726066351 -0.2589918375 0.275182873 5.63818743e-39
0.1640624702 -0.1930858791 0.2835839093 5.63818743e-39
0.1696221381 -0.2373305559 0.2826655805 5.63818743e-39
0.2282270491 -0.3059288859 0.2841601074 5.63818743e-39
0.07990193367 -0.1979576796 0.2832856774 5.455592635e-39
0.1653160155 -0.2022376359 0.285672605 5.455592635e-39
0.1900100261 -0.2991033494 0.284961313 5.455592635e-39
0.1665695608 -0.2113893628 0.2877613008 5.455592635e-39
0.1001790464 -0.3642706871 0.2661617696 5.455592635e-39
0.1776888967 -0.2998787463 0.2859246135 5.455592635e-39
0.2689511478 -0.3310579658 0.2875362933 5.455592635e-39
0.06682102382 -0.09880255163 0.2716718614 5.455592635e-39
0.1041021794 -0.3856021762 0.2930627465 5.272997839e-39
0.2528693378 -0.3043780923 0.2822335064 5.272997839e-39
0.09767197073 -0.3459671736 0.2619844079 5.272997839e-39
0.1021406204 -0.3749364018 0.279612273 5.272997839e-39
0.0890597105 -0.2757813036 0.267998457 5.272997839e-39
0.2146523744 -0.2975525558 0.2830347121 5.272997839e-39
0.1764353514 -0.2907269895 0.2838359177 5.272997839e-39
0.0680745542 -0.107954286 0.2737605572 5.272997839e-39
0.1751818061 -0.2815752327 0.2817472219 5.090401643e-39
0.1608473659 -0.1732683778 0.26804474 5.090401643e-39
0.09641842544 -0.3368154764 0.2598957121 5.090401643e-39
0.1683686078 -0.228178829 0.2805768847 5.090401643e-39
0.2651905417 -0.3036026955 0.281270206 5.090401643e-39
0.09461937845 -0.3200259805 0.2670801282 5.090401643e-39
0.1726747304 -0.263271749 0.2775698602 5.090401643e-39
0.1731684953 -0.172492981 0.2670814395 5.090401643e-39
0.07864840329 -0.1888059378 0.2811969817 4.907806848e-39
0.07058164477 -0.1262577772 0.2779379487 4.907806848e-39
0.1714212 -0.2541200221 0.2754811645 4.907806848e-39
0.2362938076 -0.3684770763 0.2874191403 4.907806848e-39
0.2239726633 -0.3692524731 0.2883824408 4.907806848e-39
0.08780616522 -0.2666295767 0.2659097612 4.907806848e-39
0.07183517516 -0.135409534 0.2800266445 4.907806848e-39
0.2609360814 -0.3669263124 0.2854925692 4.907806848e-39
0.1744220406 -0.1816447377 0.2691701353 4.725212053e-39
0.1701676548 -0.2449682951 0.2733924687 4.725212053e-39
0.2732572854 -0.3661509156 0.2845292687 4.725212053e-39
0.08170098066 -0.2147471458 0.2761012614 4.725212053e-39
0.09211230278 -0.3017224669 0.2629027367 4.725212053e-39
0.1782343984 -0.3075164557 0.2766515017 4.725212053e-39
0.1671150625 -0.2190270722 0.278488189 4.725212053e-39
0.08960521221 -0.283419013 0.2587253749 4.725212053e-39
0.1794879436 -0.3166682124 0.2787401974 4.542257124e-39
0.1893019974 -0.2975893319 0.2735995352 4.542257124e-39
0.182703048 -0.3364857137 0.2942793667 4.542257124e-39
0.1854896992 -0.1717175841 0.266118139 4.542257124e-39
0.2275190204 -0.3044148684 0.2727983296 4.542257124e-39
0.1689141095 -0.2358165383 0.2713037729 4.542257124e-39
0.2720037401 -0.3569991589 0.282440573 4.542257124e-39
0.09336583316 -0.3108742237 0.2649914324 4.542257124e-39
0.2669895887 -0.3203921914 0.2740857899 4.359662329e-39
0.2016232014 -0.296813935 0.2726362348 4.359662329e-39
0.09821748734 -0.3536049128 0.2527112961 4.359662329e-39
0.06485946476 -0.08813679218 0.2582213879 4.359662329e-39
0.1033941656 -0.3840881586 0.2817009687 4.359662329e-39
0.1724604666 -0.1709789485 0.2557196319 4.359662329e-39
0.1014325917 -0.3734223843 0.2682504654 4.359662329e-39
0.079193905 -0.196443662 0.2719238698 4.359662329e-39
0.2644824982 -0.3020886779 0.2699084282 4.177066133e-39
0.268243134 -0.3295439482 0.2761744857 4.177066133e-39
0.08835168183 -0.2742672563 0.2566366792 4.177066133e-39
0.1857556403 -0.3624269366 0.2891836464 4.177066133e-39
0.1737140119 -0.1801307052 0.2578083277 4.177066133e-39
0.09391134977 -0.3185119629 0.2557183206 4.177066133e-39
0.1626464128 -0.190057829 0.2608603239 4.177066133e-39
0.08224649727 -0.2223848701 0.2668281198 4.177066133e-39
0.0698736161 -0.1247437522 0.2665761411 3.994471337e-39
0.1911010593 -0.314378798 0.2664151192 3.994471337e-39
0.2707501948 -0.3478474021 0.2803518772 3.994471337e-39
0.1775263846 -0.3060024381 0.2652897239 3.994471337e-39
0.1638999581 -0.1992095858 0.2629490197 3.994471337e-39
0.2034222484 -0.3136034012 0.2654518187 3.994471337e-39
0.07112716138 -0.1338955015 0.2686648369 3.994471337e-39
0.09445686638 -0.3261496425 0.2464452237 3.994471337e-39
0.07794037461 -0.1872919202 0.2698352039 3.81151781e-39
0.2144898474 -0.3036762476 0.2623998225 3.81151781e-39
0.2157433927 -0.3128280044 0.2644885182 3.81151781e-39
0.1787799299 -0.3151541948 0.2673784196 3.81151781e-39
0.1664070338 -0.2175130546 0.2671264112 3.81151781e-39
0.1651535034 -0.2083613276 0.2650377154 3.81151781e-39
0.228064537 -0.3120526075 0.2635252178 3.81151781e-39
0.1847816706 -0.1702035517 0.2547563314 3.81151781e-39
0.2527068257 -0.3105018139 0.2615986168 3.628921614e-39
0.2109434903 -0.3685138524 0.2779839635 3.628921614e-39
0.08404554427 -0.2391743213 0.2596437037 3.628921614e-39
0.2479069233 -0.3661876619 0.2750940621 3.628921614e-39
0.2650279999 -0.3097264171 0.2606353164 3.628921614e-39
0.1986222863 -0.3692892492 0.278947264 3.628921614e-39
0.2602280676 -0.3654122651 0.2741307616 3.628921614e-39
0.2391321361 -0.3021254539 0.2604732215 3.628921614e-39
0.09265780449 -0.3093602061 0.2536296546 3.446326818e-39
0.1860352159 -0.1793553084 0.2568450272 3.446326818e-39
0.1594313085 -0.1702403128 0.2453211546 3.446326818e-39
0.2725492716 -0.3646368682 0.2731674612 3.446326818e-39
0.06289789081 -0.07747104019 0.2447708994 3.446326818e-39
0.2662815452 -0.3188781738 0.2627240121 3.446326818e-39
0.2514532804 -0.3013500571 0.2595099211 3.446326818e-39
0.253960371 -0.3196535707 0.2636873126 3.446326818e-39
0.2169969231 -0.3219797313 0.266577214 3.26337189e-39
0.246653378 -0.3570359349 0.2730053663 3.26337189e-39
0.09876298904 -0.3612425923 0.2434381396 3.26337189e-39
0.07543328404 -0.1689884365 0.2656578124 3.26337189e-39
0.07973942161 -0.2040813863 0.2626507282 3.26337189e-39
0.1606848538 -0.1793920696 0.2474098504 3.26337189e-39
0.06415143609 -0.0866227746 0.2468595952 3.26337189e-39
0.2220110893 -0.3585866988 0.2749319673 3.26337189e-39
0.2637744546 -0.3005746603 0.2585466206 3.080777095e-39
0.1863011569 -0.370064646 0.2799105644 3.080777095e-39
0.08279201388 -0.2300225794 0.2575550079 3.080777095e-39
0.1973687559 -0.3601374924 0.2768585682 3.080777095e-39
0.1845021099 -0.3532751799 0.2870949507 3.080777095e-39
0.06665851176 -0.1049262434 0.2510369718 3.080777095e-39
0.1046477109 -0.3932399154 0.2837896645 3.080777095e-39
0.08764365315 -0.2727532387 0.2452748567 3.080777095e-39
0.102686137 -0.382574141 0.2703391612 2.898180898e-39
0.2675350904 -0.3280299306 0.2648127079 2.898180898e-39
0.093203336 -0.3169979453 0.2443565279 2.898180898e-39
0.09374883771 -0.3246356249 0.2350833714 2.898180898e-39
0.07848587632 -0.1949296296 0.2605620325 2.898180898e-39
0.06791205704 -0.1140780002 0.2531256676 2.898180898e-39
0.2552139163 -0.3288053274 0.2657760084 2.898180898e-39
0.08459106088 -0.2468120456 0.2503705919 2.898180898e-39
0.0815384686 -0.2208708525 0.2554663122 2.715227371e-39
0.2428927571 -0.3295806944 0.2667393088 2.715227371e-39
0.2305716127 -0.3303560913 0.2677026093 2.715227371e-39
0.09069624543 -0.2986944318 0.2401791364 2.715227371e-39
0.07041913271 -0.1323814839 0.2573030591 2.715227371e-39
0.270042181 -0.3463333845 0.2689900696 2.715227371e-39
0.2059293389 -0.3319068849 0.2696291804 2.715227371e-39
0.2577209771 -0.3471087813 0.2699533701 2.715227371e-39
0.2453998327 -0.3478841782 0.2709166706 2.532632576e-39
0.2330786884 -0.348659575 0.271879971 2.532632576e-39
0.08028492332 -0.2117190957 0.2533776164 2.532632576e-39
0.08818916976 -0.2803909779 0.2360017598 2.532632576e-39
0.07723234594 -0.1857779026 0.2584733367 2.532632576e-39
0.09194979072 -0.3078461885 0.2422678322 2.532632576e-39
0.1812869906 -0.3334576786 0.2715557814 2.532632576e-39
0.2441463023 -0.3387324512 0.2688280046 2.532632576e-39
0.06218986586 -0.07595700771 0.2334090471 2.349677647e-39
0.0955478847 -0.3414251208 0.2278989553 2.349677647e-39
0.07597880065 -0.1766261607 0.2563846707 2.349677647e-39
0.09805497527 -0.3597285748 0.232076332 2.349677647e-39
0.2195040137 -0.340283215 0.2707545757 2.349677647e-39
0.09249529243 -0.3154838979 0.2329946756 2.349677647e-39
0.07903139293 -0.2025673687 0.2512889504 2.349677647e-39
0.2071828693 -0.3410586119 0.2717178762 2.349677647e-39
0.08208398521 -0.2285085469 0.2461931854 2.167082852e-39
0.06344340742 -0.08510874212 0.2354977429 2.167082852e-39
0.08693562448 -0.2712392211 0.233913064 2.167082852e-39
0.1976483315 -0.177065894 0.244519949 2.167082852e-39
0.08873467147 -0.2880286872 0.2267286032 2.167082852e-39
0.07472525537 -0.167474404 0.254295975 2.167082852e-39
0.1000165343 -0.3703943491 0.2455268055 2.167082852e-39
0.06595048308 -0.1034122109 0.2396751195 2.167082852e-39
0.1019781083 -0.3810601234 0.2589773834 1.984127923e-39
0.08083043993 -0.21935682 0.2441045195 1.984127923e-39
0.06720402837 -0.1125639677 0.2417638153 1.984127923e-39
0.07347172499 -0.158322677 0.2522072792 1.984127923e-39
0.08748112619 -0.2788769305 0.2246399075 1.984127923e-39
0.0856820941 -0.2620874941 0.2318243831 1.984127923e-39
0.09124174714 -0.306332171 0.2309059948 1.984127923e-39
0.06971110404 -0.1308674514 0.245941177 1.984127923e-39
0.07957689464 -0.2102050632 0.2420158237 1.801533128e-39
0.09609340131 -0.34906286 0.2186258584 1.801533128e-39
0.09483985603 -0.3399111032 0.2165371627 1.801533128e-39
0.08262948692 -0.2361462712 0.2369201034 1.801533128e-39
0.07652431726 -0.1842638701 0.247111544 1.801533128e-39
0.3591499925 -0.2954648137 0.1229964048 1.801533128e-39
0.3714711368 -0.2946894169 0.1220331192 1.801533128e-39
0.4207557738 -0.2915878296 0.1181799248 1.801533128e-39
0.3345076442 -0.2970156074 0.1249230057 1.618578199e-39
0.3468287885 -0.2962402105 0.1239597052 1.618578199e-39
0.3837922812 -0.2939140201 0.1210698187 1.618578199e-39
0.3961134255 -0.2931386232 0.1201065183 1.618578199e-39
0.06148183718 -0.07444299012 0.2220472544 1.618578199e-39
0.187723428 -0.3006849587 0.2302409708 1.618578199e-39
0.3221864998 -0.2977909744 0.1258863062 1.618578199e-39
0.200044632 -0.2999095619 0.2292777002 1.618578199e-39
0.08442854881 -0.2529357374 0.2297356874 1.435982003e-39
0.07832336426 -0.2010533363 0.239927128 1.435982003e-39
0.2123657763 -0.299134165 0.2283143997 1.435982003e-39
0.3850458264 -0.3030657768 0.1231585145 1.435982003e-39
0.0880266577 -0.2865146697 0.2153668106 1.435982003e-39
0.285223037 -0.3001171649 0.1287761927 1.435982003e-39
0.06273537874 -0.08359472454 0.2241359502 1.435982003e-39
0.3727246821 -0.3038411736 0.1241218001 1.435982003e-39
0.07527077198 -0.1751121283 0.2450228482 1.253028475e-39
0.2246869206 -0.2983587682 0.2273510993 1.253028475e-39
0.09162475169 -0.3200935721 0.2009979784 1.253028475e-39
0.3604035378 -0.3046165705 0.1250851005 1.253028475e-39
0.2729018927 -0.3008925617 0.1297394931 1.253028475e-39
0.1864698976 -0.2915332317 0.2281523049 1.253028475e-39
0.1889769733 -0.3098367155 0.2323296964 1.253028475e-39
0.2012981772 -0.3090613186 0.2313663661 1.253028475e-39
0.09053373337 -0.3048181534 0.2195442021 1.070432279e-39
0.2136193216 -0.3082859218 0.2304030955 1.070432279e-39
0.08317501843 -0.2437840104 0.2276469916 1.070432279e-39
0.06398890913 -0.0927464515 0.2262246311 1.070432279e-39
0.2605807483 -0.3016679287 0.1307027936 1.070432279e-39
0.2845150232 -0.2986031473 0.1174144074 1.070432279e-39
0.1987911016 -0.2907578349 0.2271890044 1.070432279e-39
0.07706981897 -0.1919015795 0.2378384322 1.070432279e-39
0.08497405052 -0.2605734468 0.2204625309 8.874787512e-40
0.3234400451 -0.3069427311 0.1279750019 8.874787512e-40
0.3337996304 -0.2955015898 0.113561213 8.874787512e-40
0.3091573715 -0.2970523536 0.1154878065 8.874787512e-40
0.3862993717 -0.3122175038 0.1252471954 8.874787512e-40
0.0740172267 -0.1659603715 0.2429341525 8.874787512e-40
0.06524245441 -0.1018981859 0.2283133268 8.874787512e-40
0.2111122459 -0.2899824381 0.226225704 8.874787512e-40
0.3739782274 -0.3129929006 0.1262104958 7.045238224e-40
0.1852163523 -0.282381475 0.2260636091 7.045238224e-40
0.09413182735 -0.3383970857 0.20517537 7.045238224e-40
0.3493358791 -0.3145436645 0.1281370968 7.045238224e-40
0.4077265561 -0.2908492088 0.1077814326 7.045238224e-40
0.2987977862 -0.3084935248 0.129901588 7.045238224e-40
0.4365484715 -0.336774677 0.01195015013 7.045238224e-40
0.2598727345 -0.3001539111 0.1193410009 7.045238224e-40
0.1975375563 -0.2816060781 0.2251003087 5.219290273e-40
0.3584419787 -0.2939507961 0.1116346195 5.219290273e-40
0.3954054117 -0.2916246057 0.1087447256 5.219290273e-40
0.370763123 -0.2931753993 0.1106713191 5.219290273e-40
0.2234333903 -0.2892070413 0.2252624035 5.219290273e-40
0.3830842674 -0.2924000025 0.1097080261 5.219290273e-40
0.08857215941 -0.294152379 0.2060937136 5.219290273e-40
0.08192147315 -0.2346322536 0.2255583107 5.219290273e-40
0.09538537264 -0.3475488424 0.2072640657 3.389740985e-40
0.06774953008 -0.1202016771 0.2324907035 3.389740985e-40
0.4242273271 -0.3375500739 0.0129134506 3.389740985e-40
0.08551956713 -0.2682111859 0.2111894339 3.389740985e-40
0.07276369631 -0.1568086445 0.2408454716 3.389740985e-40
0.07886886597 -0.2086910456 0.230654031 3.389740985e-40
0.1827092767 -0.2640779912 0.2218862176 3.389740985e-40
0.396658957 -0.3007763624 0.1108334213 3.389740985e-40
0.4728039205 -0.3329344988 -0.0023015365 1.56020571e-40
0.06900307536 -0.1293534338 0.2345793992 1.56020571e-40
0.07581628859 -0.1827498525 0.2357497513 1.56020571e-40
0.3246935904 -0.3160944581 0.1300636828 1.56020571e-40
0.3350531757 -0.3046533465 0.1156499088 1.56020571e-40
0.1870153993 -0.2991709411 0.2188791931 1.56020571e-40
0.09663891792 -0.3567005396 0.2093527466 1.56020571e-40
0.3104109168 -0.3062041104 0.1175765023 1.56020571e-40
0.3995849788 -0.3391008675 0.01484005153 6.490113838e-41
0.3843378127 -0.3015517592 0.1117967144 6.490113838e-41
0.07025660574 -0.1385051608 0.2366680801 6.490113838e-41
0.3720166683 -0.3023271561 0.1127600148 6.490113838e-41
0.2857685685 -0.307754904 0.1195030957 6.490113838e-41
0.3123724759 -0.3168698549 0.1310269833 6.490113838e-41
0.07151015103 -0.1476568878 0.2387567759 6.490113838e-41
0.33826828 -0.324470818 0.1311890781 6.490113838e-41
0.1708818972 -0.1740746051 0.2123610973 2.496469266e-40
0.255566597 -0.265060991 0.1223480403 2.496469266e-40
0.3749426901 -0.3406516314 0.01676665246 2.496469266e-40
0.2086051553 -0.2716789544 0.2220483124 2.496469266e-40
0.223978892 -0.2968447506 0.2159892917 2.496469266e-40
0.2470060736 -0.2932916284 0.1295773983 2.496469266e-40
0.07761533558 -0.1995393187 0.2285653353 2.496469266e-40
0.1950304806 -0.2633025944 0.2209229171 2.496469266e-40
0.4235192835 -0.3360360563 0.001551657915 4.340353837e-40
0.3979125023 -0.3099280894 0.1129221097 4.340353837e-40
0.2495131642 -0.3115950823 0.1337547898 4.340353837e-40
0.08606508374 -0.2758488655 0.2019163221 4.340353837e-40
0.185761869 -0.2900192142 0.2167904973 4.340353837e-40
0.08426603675 -0.2590594292 0.2091007382 4.340353837e-40
0.1882689446 -0.3083226979 0.2209678888 4.340353837e-40
0.2432454675 -0.2658363879 0.1233113259 4.340353837e-40
0.2229092717 -0.3024801016 0.1222309023 6.184224396e-40
0.4111981392 -0.3368114531 0.002514958382 6.184224396e-40
0.07456274331 -0.1735981107 0.2336610556 6.184224396e-40
0.2371920198 -0.3123704791 0.1347180754 6.184224396e-40
0.2005901486 -0.3075473011 0.2200045884 6.184224396e-40
0.06202734634 -0.0820806995 0.2127741575 6.184224396e-40
0.1802021861 -0.2457745075 0.2177088559 6.184224396e-40
0.3951163292 -0.3101316094 -0.002787813544 6.184224396e-40
0.2129112929 -0.3067719042 0.2190412879 8.028094954e-40
0.2252324373 -0.3059965074 0.2180779874 8.028094954e-40
0.08786413074 -0.2926383615 0.1947319061 8.028094954e-40
0.3827951849 -0.3109070063 -0.001824520528 8.028094954e-40
0.2112961411 -0.304769516 0.1345559806 8.028094954e-40
0.4720959067 -0.3314204812 -0.01366332918 8.028094954e-40
0.1937769353 -0.2541508377 0.2188342214 8.028094954e-40
0.3732702136 -0.311478883 0.1148487031 8.028094954e-40
0.3609490693 -0.31225425 0.1158119962 9.871979525e-40
0.08246697485 -0.2422699779 0.2162851542 9.871979525e-40
0.3988769352 -0.3375868499 0.003478258848 9.871979525e-40
0.2548585832 -0.2635469735 0.1109862402 9.871979525e-40
0.09342379868 -0.3368830681 0.1938135773 9.871979525e-40
0.2754089832 -0.3191960454 0.1339168847 9.871979525e-40
0.3239855766 -0.3145804405 0.1187018901 9.871979525e-40
0.4456545115 -0.3161817789 -0.004552319646 9.871979525e-40
0.3116644621 -0.3153558373 0.1196651906 1.171585008e-39
0.0763617903 -0.1903875619 0.2264766395 1.171585008e-39
0.1733889878 -0.1923781037 0.2165384889 1.171585008e-39
0.2993433177 -0.3161312342 0.120628491 1.171585008e-39
0.09020869434 -0.317065537 0.1782743484 1.171585008e-39
0.09860047698 -0.3673663139 0.2228032351 1.171585008e-39
0.207351625 -0.2625271976 0.2199596167 1.171585008e-39
0.2309243232 -0.2666117847 0.1242746264 1.171585008e-39
0.3379792273 -0.3429778218 0.01965653896 1.355972064e-39
0.3963698745 -0.3192833662 -0.0006991252303 1.355972064e-39
0.3013048768 -0.3267970085 0.1340789795 1.355972064e-39
0.3840487301 -0.320058763 0.0002641677856 1.355972064e-39
0.2444990128 -0.2749881148 0.1254000217 1.355972064e-39
0.358152926 -0.3124577999 0.0001020729542 1.355972064e-39
0.2543130517 -0.2559092343 0.1202593446 1.355972064e-39
0.08966319263 -0.3094277978 0.1875475049 1.355972064e-39
0.236484006 -0.3108564615 0.1233562827 1.540360521e-39
0.4320798218 -0.3078054488 -0.005677707493 1.540360521e-39
0.2227253616 -0.2876930237 0.2139005959 1.540360521e-39
0.06328088045 -0.09123243392 0.2148628384 1.540360521e-39
0.2105881274 -0.3032554984 0.1231941879 1.540360521e-39
0.3458317816 -0.3132331967 0.001065373421 1.540360521e-39
0.2561121285 -0.2726987004 0.1130749285 1.540360521e-39
0.4469080567 -0.3253335357 -0.002463623881 1.540360521e-39
0.1689203382 -0.1634088308 0.1989106238 1.724747577e-39
0.3594064713 -0.3216095269 0.002190768719 1.724747577e-39
0.4444009662 -0.3070300519 -0.00664100796 1.724747577e-39
0.3820871711 -0.3093929887 -0.01318631321 1.724747577e-39
0.2339769155 -0.2925529778 0.1191789061 1.724747577e-39
0.07330919802 -0.1644463539 0.2315723598 1.724747577e-39
0.3815416396 -0.3017552495 -0.003913208842 1.724747577e-39
0.08121342957 -0.2331182212 0.2141964585 1.724747577e-39
0.4185051322 -0.299429059 -0.006803110242 1.909134633e-39
0.1832547784 -0.2717157006 0.2126131058 1.909134633e-39
0.2060980797 -0.2533754706 0.2178709209 1.909134633e-39
0.06453442574 -0.1003841609 0.2169515342 1.909134633e-39
0.2747009695 -0.3176820278 0.122555092 1.909134633e-39
0.2321778685 -0.2757635117 0.1263633221 1.909134633e-39
0.2186031342 -0.2673871517 0.1252379268 1.909134633e-39
0.07816085219 -0.2071770281 0.2192922384 1.909134633e-39
0.2196727693 -0.2617518306 0.218996346 2.09352309e-39
0.3697660267 -0.3101683855 -0.01222301275 2.09352309e-39
0.08301249146 -0.2499076873 0.2070120424 2.09352309e-39
0.4345869124 -0.3261089325 -0.001500330865 2.09352309e-39
0.2419919223 -0.2566846311 0.1212226301 2.09352309e-39
0.1844566464 -0.1824509501 0.2134864926 2.09352309e-39
0.3981689215 -0.3360728323 -0.007883533835 2.09352309e-39
0.3692204952 -0.3025306463 -0.002949915826 2.09352309e-39
0.2580736876 -0.2833644748 0.126525417 2.277910146e-39
0.2302163094 -0.2650977671 0.1129128337 2.277910146e-39
0.3252391219 -0.3237321973 0.1207905859 2.277910146e-39
0.2214718163 -0.2785412967 0.2118119001 2.277910146e-39
0.182001248 -0.2625639737 0.2105244398 2.277910146e-39
0.3612055182 -0.338398993 -0.004993647337 2.277910146e-39
0.469588846 -0.3131169677 -0.01784070581 2.277910146e-39
0.3451237679 -0.3117191792 -0.01029641926 2.277910146e-39
0.2766625285 -0.3283478022 0.1360055655 2.462297202e-39
0.4308262765 -0.298653692 -0.007766403258 2.462297202e-39
0.224162817 -0.3116318583 0.1243195832 2.462297202e-39
0.2437909991 -0.2734740973 0.114038229 2.462297202e-39
0.3956618607 -0.3177693486 -0.01206091791 2.462297202e-39
0.2507666945 -0.320746839 0.1358434707 2.462297202e-39
0.3372711837 -0.3414638042 0.00829474628 2.462297202e-39
0.1025236249 -0.388697803 0.249704197 2.462297202e-39
0.4099446237 -0.3276597261 0.0004262626171 2.646685659e-39
0.1005620509 -0.3780320883 0.2362537235 2.646685659e-39
0.2125496864 -0.3139212728 0.1366446763 2.646685659e-39
0.104485184 -0.399363637 0.2631547451 2.646685659e-39
0.3488843739 -0.3391743898 -0.00403034687 2.646685659e-39
0.09593088925 -0.355186522 0.1979909539 2.646685659e-39
0.1942707002 -0.1633720696 0.2083458006 2.646685659e-39
0.07510825992 -0.1812358201 0.2243879586 2.646685659e-39
0.07995989919 -0.2239664793 0.2121077627 2.830713982e-39
0.0670415014 -0.1186876521 0.2211289108 2.830713982e-39
0.4431474209 -0.2978782952 -0.008729703724 2.830713982e-39
0.2882756591 -0.3260583878 0.1236804873 2.830713982e-39
0.4449464977 -0.3146677613 -0.01591411233 2.830713982e-39
0.3976234198 -0.328435123 0.001389563084 2.830713982e-39
0.3568993807 -0.3033060431 -0.00198661536 2.830713982e-39
0.2100426108 -0.295617789 0.1324672997 2.830713982e-39
0.420304209 -0.316218555 -0.01398751885 3.015101038e-39
0.2216557413 -0.2933283746 0.1201422065 3.015101038e-39
0.07205566764 -0.155294627 0.2294836789 3.015101038e-39
0.4313718081 -0.3062914312 -0.01703950018 3.015101038e-39
0.1701738834 -0.1725605875 0.2009993196 3.015101038e-39
0.3853022754 -0.3292105198 0.00235286355 3.015101038e-39
0.198266983 -0.3040308952 0.1241574883 3.015101038e-39
0.2062819898 -0.2681625485 0.1262012273 3.015101038e-39
0.1807477027 -0.2534122169 0.208435744 3.199488094e-39
0.06829504669 -0.1278394163 0.2232176065 3.199488094e-39
0.4054759741 -0.2986904383 -0.01720160246 3.199488094e-39
0.4554685652 -0.2971028984 -0.00969299674 3.199488094e-39
0.2048445344 -0.2442237139 0.2157822549 3.199488094e-39
0.09271577001 -0.3353689909 0.182451725 3.199488094e-39
0.2384455651 -0.3215222359 0.1368067712 3.199488094e-39
0.2314698547 -0.2742494941 0.115001522 3.199488094e-39
0.4585211873 -0.3230441213 -0.01478871703 3.383517819e-39
0.08950066566 -0.3155515194 0.1669125557 3.383517819e-39
0.3445782363 -0.30408144 -0.001023322344 3.383517819e-39
0.1850538403 -0.2885051966 0.2054286897 3.383517819e-39
0.1912698597 -0.2358473837 0.2146568596 3.383517819e-39
0.06954857707 -0.1369911432 0.2253062874 3.383517819e-39
0.3685124815 -0.3010166287 -0.01431170851 3.383517819e-39
0.4677897692 -0.2963275015 -0.01065629721 3.383517819e-39
0.3606600165 -0.3307612836 0.004279464483 3.567904875e-39
0.2118416727 -0.3124072552 0.1252828836 3.567904875e-39
0.218419224 -0.2526000738 0.2169076502 3.567904875e-39
0.2500586808 -0.3192328215 0.124481678 3.567904875e-39
0.2759545147 -0.3268337846 0.1246437728 3.567904875e-39
0.1875609159 -0.3068086803 0.2096060812 3.567904875e-39
0.446200043 -0.3238195181 -0.01382541656 3.567904875e-39
0.2122032642 -0.3052578866 0.2076794803 3.567904875e-39
0.07080212235 -0.1461428702 0.2273949832 3.75229193e-39
0.3561913669 -0.3017920256 -0.01334840804 3.75229193e-39
0.4301182628 -0.2971396744 -0.01912819594 3.75229193e-39
0.1967777759 -0.1816755533 0.2125231922 3.75229193e-39
0.09075421095 -0.3247032762 0.1690012515 3.75229193e-39
0.08175896108 -0.2407559603 0.2049233615 3.75229193e-39
0.4338788986 -0.3245949149 -0.01286212355 3.75229193e-39
0.2450445443 -0.282625854 0.1161269173 3.75229193e-39
0.0787063539 -0.2148147523 0.2100190818 3.936320254e-39
0.2245244086 -0.3044824898 0.2067161798 3.936320254e-39
0.3340561092 -0.3216463029 -0.007244430482 3.936320254e-39
0.3224429786 -0.3239357173 0.005080655217 3.936320254e-39
0.3242420256 -0.3407251835 -0.002103753388 3.936320254e-39
0.3204814196 -0.3132699728 -0.00836981833 3.936320254e-39
0.2173495889 -0.2582354248 0.1231492311 3.936320254e-39
0.3845942616 -0.3276965022 -0.009008929133 3.936320254e-39
0.4215577543 -0.3253703117 -0.01189882308 4.120708711e-39
0.2075355202 -0.2773143053 0.1282899082 4.120708711e-39
0.396915406 -0.3269211054 -0.009972222149 4.120708711e-39
0.3722731173 -0.328471899 -0.008045628667 4.120708711e-39
0.3438702226 -0.3025674224 -0.01238511503 4.120708711e-39
0.1866538525 -0.3063203096 0.1364825815 4.120708711e-39
0.2520202398 -0.3298985958 0.1379321665 4.120708711e-39
0.2377375513 -0.3200082183 0.1254449785 4.120708711e-39
0.2220173329 -0.2861790061 0.2025388181 4.304737034e-39
0.3926092386 -0.2918281555 -0.006965197623 4.304737034e-39
0.2191486508 -0.2750248909 0.1159648225 4.304737034e-39
0.226124391 -0.3222976327 0.1377700716 4.304737034e-39
0.4049304426 -0.2910527587 -0.007928498089 4.304737034e-39
0.3599520028 -0.3292472661 -0.007082335651 4.304737034e-39
0.2065918446 -0.1625966728 0.20738253 4.304737034e-39
0.1751880348 -0.2091675401 0.2093540728 4.304737034e-39
0.4172515869 -0.2902773619 -0.008891798556 4.48912409e-39
0.2211102098 -0.2856906652 0.1294153184 4.48912409e-39
0.1859458387 -0.3048062921 0.1251207888 4.48912409e-39
0.09789244831 -0.3658522964 0.2114414424 4.48912409e-39
0.2171656787 -0.2434483171 0.2148189545 4.48912409e-39
0.1977214664 -0.2963931859 0.1334306002 4.48912409e-39
0.1764415801 -0.2183192968 0.2114427686 4.48912409e-39
0.3199358881 -0.3056322336 0.0009032785892 4.48912409e-39
0.3476308584 -0.3300226629 -0.006119035184 4.673152414e-39
0.4547605515 -0.2955888808 -0.02105478942 4.673152414e-39
0.3315490186 -0.3033428192 -0.01142181456 4.673152414e-39
0.07565377653 -0.1888735294 0.2151148468 4.673152414e-39
0.09396931529 -0.3445207477 0.1845404208 4.673152414e-39
0.2327234 -0.2834012508 0.1170902178 4.673152414e-39
0.2530595064 -0.2467575073 0.1181706488 4.673152414e-39
0.4295727313 -0.289501965 -0.009855091572 4.673152414e-39
0.1995205283 -0.313182652 0.1262461841 4.857539469e-39
0.085194543 -0.2804585695 0.1699195802 4.857539469e-39
0.3217349648 -0.3224216998 -0.006281130016 4.857539469e-39
0.08644807339 -0.2896102965 0.172008276 4.857539469e-39
0.1900163144 -0.226695627 0.2125681639 4.857539469e-39
0.1825467646 -0.270201683 0.201251328 4.857539469e-39
0.3795800805 -0.291089505 -0.01736368984 4.857539469e-39
0.2189647406 -0.260237813 0.2076345384 4.857539469e-39
0.4542150199 -0.2879511714 -0.01178168505 5.041567793e-39
0.0805054158 -0.2316042036 0.2028346658 5.041567793e-39
0.4042224288 -0.2895387411 -0.01929029077 5.041567793e-39
0.2396991104 -0.3306739926 0.1388954669 5.041567793e-39
0.06257285178 -0.08971840888 0.2035010457 5.041567793e-39
0.07745280862 -0.2056629956 0.2079303861 5.041567793e-39
0.08230446279 -0.2483936548 0.1956502497 5.041567793e-39
0.185599342 -0.2961428761 0.1961555481 5.041567793e-39
0.2207637876 -0.2770272791 0.2004501224 5.225597518e-39
0.3192278743 -0.304118216 -0.01045851409 5.225597518e-39
0.2513122261 -0.3283845782 0.1265703738 5.225597518e-39
0.1935626715 -0.161858052 0.1969840229 5.225597518e-39
0.1970134526 -0.2948791683 0.1220688075 5.225597518e-39
0.3353096545 -0.3307980597 -0.005155734718 5.225597518e-39
0.2138032317 -0.3230730295 0.1387333721 5.225597518e-39
0.1816397011 -0.2697133422 0.1281278133 5.225597518e-39
0.09200774133 -0.3338549733 0.1710899323 5.409984573e-39
0.2087890655 -0.2864660621 0.1303786039 5.409984573e-39
0.1952143759 -0.2780897021 0.1292532086 5.409984573e-39
0.3236965239 -0.3330874741 0.007169350982 5.409984573e-39
0.4288647175 -0.2879879475 -0.02121688426 5.409984573e-39
0.05810421333 -0.06074914336 0.1858731806 5.409984573e-39
0.1743327081 -0.3070957065 0.137445882 5.409984573e-39
0.1809316874 -0.2681993246 0.1167660281 5.409984573e-39
0.1862557083 -0.1992404163 0.2063020766 5.594012897e-39
0.1879073977 -0.3154720664 0.1385712773 5.594012897e-39
0.1736246943 -0.3055816889 0.1260840893 5.594012897e-39
0.2043204308 -0.2574967742 0.1127507389 5.594012897e-39
0.4411858618 -0.2872125506 -0.02218018472 5.594012897e-39
0.2103524655 -0.1900519133 0.2136485875 5.594012897e-39
0.06382639706 -0.09887014329 0.2055897415 5.594012897e-39
0.3433246911 -0.2949296832 -0.003112010658 5.594012897e-39
0.1875092387 -0.2083921432 0.2083907723 5.77804122e-39
0.1620115191 -0.3078711033 0.1384091824 5.77804122e-39
0.08394099772 -0.2713068128 0.1678308994 5.77804122e-39
0.1945063621 -0.2765756845 0.117891416 5.77804122e-39
0.1373692304 -0.3094218969 0.1403357685 5.77804122e-39
0.0828499794 -0.256031394 0.1863771528 5.77804122e-39
0.1927073002 -0.2597861886 0.125075832 5.77804122e-39
0.4535070062 -0.2864371538 -0.02314347774 5.77804122e-39
0.3229885101 -0.3315734565 -0.004192441702 5.962428276e-39
0.07440023124 -0.1797218025 0.213026166 5.962428276e-39
0.08448651433 -0.2789445519 0.1585577875 5.962428276e-39
0.2130952179 -0.3215590119 0.1273715794 5.962428276e-39
0.1854003221 -0.2971685529 0.1343938857 5.962428276e-39
0.08339548111 -0.2636691332 0.1771040559 5.962428276e-39
0.180039674 -0.2518981993 0.1970739365 5.962428276e-39
0.06507994235 -0.1080219001 0.2076784223 5.962428276e-39
0.125048086 -0.3101972938 0.1412990689 6.1464566e-39
0.2023374587 -0.2259202302 0.2116048634 6.1464566e-39
0.1004057527 -0.3117480576 0.1432256699 6.1464566e-39
0.09985402226 -0.3765180707 0.2248919308 6.1464566e-39
0.1991740912 -0.3045192361 0.1972809434 6.1464566e-39
0.2114952356 -0.3037438393 0.1963176429 6.1464566e-39
0.08574004471 -0.2880962789 0.1606464833 6.1464566e-39
0.2238163799 -0.3029684722 0.1953543425 6.1464566e-39
0.2080810517 -0.2849520445 0.1190168113 6.330484923e-39
0.1613035053 -0.3063570857 0.1270473897 6.330484923e-39
0.3302954733 -0.2941910625 -0.01351050287 6.330484923e-39
0.1693185568 -0.270488739 0.1290911138 6.330484923e-39
0.1919992864 -0.258272171 0.1137140393 6.330484923e-39
0.06633347273 -0.117173627 0.2097671181 6.330484923e-39
0.2037749141 -0.2498590797 0.1220238507 6.330484923e-39
0.07134763896 -0.1537806094 0.2181218863 6.330484923e-39
0.1964679211 -0.2872414589 0.1313419044 6.514514648e-39
0.09326128662 -0.3430067301 0.1731786281 6.514514648e-39
0.08105093241 -0.2392419279 0.1935615689 6.514514648e-39
0.2518059909 -0.2376057655 0.1160819605 6.514514648e-39
0.1037771553 -0.3978495598 0.2517929077 6.514514648e-39
0.1830922663 -0.2778394222 0.1919781566 6.514514648e-39
0.3148795366 -0.3351733685 0.1352043599 6.514514648e-39
0.1732264757 -0.1985017955 0.1959035993 6.514514648e-39
0.06758701801 -0.1263253838 0.2118558139 6.698542971e-39
0.2058838308 -0.1610826552 0.1960207224 6.698542971e-39
0.1803861558 -0.2605615854 0.1260391325 6.698542971e-39
0.1139805019 -0.3201243877 0.1443510652 6.698542971e-39
0.1769870818 -0.2259570062 0.2021696568 6.698542971e-39
0.1796781421 -0.2590475678 0.1146773323 6.698542971e-39
0.1569973677 -0.2712641358 0.1300544143 6.698542971e-39
0.3025583923 -0.3359487653 0.1361676604 6.698542971e-39
0.1016592979 -0.3208997846 0.1453143656 6.882571295e-39
0.1366612166 -0.3079078794 0.1289739758 6.882571295e-39
0.1446762234 -0.2720395327 0.1310177147 6.882571295e-39
0.1675042808 -0.1603807807 0.1761870384 6.882571295e-39
0.2007740736 -0.3223343492 0.128334865 6.882571295e-39
0.1632650644 -0.3170228601 0.1404978782 6.882571295e-39
0.317974329 -0.2949664593 -0.01254720241 6.882571295e-39
0.15094392 -0.3177982569 0.1414611638 6.882571295e-39
0.156289354 -0.2697501183 0.1186926216 7.066599618e-39
0.2030669004 -0.2483450621 0.1106620505 7.066599618e-39
0.2213093042 -0.2846649587 0.1911769509 7.066599618e-39
0.1730791777 -0.2979439497 0.1353571862 7.066599618e-39
0.3913557231 -0.2826763988 -0.009053885937 7.066599618e-39
0.07314670086 -0.1705700755 0.2109374702 7.066599618e-39
0.06061129645 -0.07905265689 0.1900505722 7.066599618e-39
0.1914537698 -0.2506344914 0.1229871362 7.066599618e-39
0.2071373612 -0.170234412 0.1981094182 7.250627941e-39
0.07494573295 -0.1873595119 0.2037530094 7.250627941e-39
0.08268745244 -0.2621550858 0.1657422036 7.250627941e-39
0.08699359 -0.2972480357 0.1627351791 7.250627941e-39
0.2146586031 -0.2251448333 0.2106415629 7.250627941e-39
0.1200339347 -0.2735903263 0.1329443157 7.250627941e-39
0.1673569977 -0.2598229647 0.1156406328 7.250627941e-39
0.1757335365 -0.2168052793 0.200080961 7.250627941e-39
0.1680650115 -0.2613369823 0.127002418 7.434656265e-39
0.3790345788 -0.2834517956 -0.00809058547 7.434656265e-39
0.172371164 -0.2964299321 0.1239953935 7.434656265e-39
0.1705720872 -0.2796404958 0.1311798096 7.434656265e-39
0.2164576501 -0.2419342995 0.2034571469 7.434656265e-39
0.1439682096 -0.2705255151 0.1196559221 7.434656265e-39
0.190745756 -0.249120459 0.111625351 7.434656265e-39
0.1484368443 -0.2994947433 0.1372837871 7.434656265e-39
0.1379147619 -0.3170596361 0.1310626715 7.618684588e-39
0.08214195073 -0.2545173764 0.1750153601 7.618684588e-39
0.2083909065 -0.1793861389 0.2001981139 7.618684588e-39
0.1607579887 -0.2987193465 0.1363204867 7.618684588e-39
0.1848913133 -0.2946288586 0.1847937405 7.618684588e-39
0.3264926374 -0.332883954 0.1228792816 7.618684588e-39
0.277916044 -0.3374995589 0.1380942613 7.618684588e-39
0.1841467768 -0.2880168557 0.1323052049 7.618684588e-39
0.1434226781 -0.2628877759 0.128929019 7.802712912e-39
0.1255936176 -0.3178349733 0.132025972 7.802712912e-39
0.3543923199 -0.2850025892 -0.006163991988 7.802712912e-39
0.1311015338 -0.2636631727 0.1298923194 7.802712912e-39
0.1459297538 -0.2811912596 0.1331064105 7.802712912e-39
0.1557438225 -0.2621123791 0.1279657185 7.802712912e-39
0.3018503785 -0.3344347477 0.1248058677 7.802712912e-39
0.1582508981 -0.2804158926 0.13214311 7.802712912e-39
0.2134050727 -0.2159931064 0.2085528672 7.986382503e-39
0.06186483428 -0.08820438385 0.192139253 7.986382503e-39
0.2143487483 -0.3307107687 0.1294602752 7.986382503e-39
0.1791326255 -0.2514098585 0.1239504367 7.986382503e-39
0.08252494037 -0.2682787776 0.145107314 7.986382503e-39
0.4652827084 -0.2780240178 -0.01483367383 7.986382503e-39
0.2264556736 -0.2376425415 0.1066467613 7.986382503e-39
0.1114734113 -0.3018209338 0.1401736736 7.986382503e-39
0.1132724881 -0.3186103702 0.1329892725 8.170410826e-39
0.1336086094 -0.2819666564 0.1340696961 8.170410826e-39
0.09915222228 -0.3025963306 0.1411369741 8.170410826e-39
0.08197942376 -0.2606410682 0.1543804109 8.170410826e-39
0.2096444517 -0.1885378957 0.2022868097 8.170410826e-39
0.2218548059 -0.2923026979 0.1819038689 8.170410826e-39
0.3420711756 -0.285777986 -0.005200698972 8.170410826e-39
0.1009512693 -0.319385767 0.1339525729 8.170410826e-39
0.08683107793 -0.3033717275 0.1421002746 8.35443915e-39
0.3297499716 -0.2865533829 -0.004237398505 8.35443915e-39
0.1575428843 -0.278901875 0.1207813174 8.35443915e-39
0.4152900577 -0.2796115875 -0.02234227955 8.35443915e-39
0.2027356178 -0.3330001831 0.1417853534 8.35443915e-39
0.07189315557 -0.1614183187 0.2088487744 8.35443915e-39
0.1212874651 -0.2827420533 0.1350329965 8.35443915e-39
0.08628556132 -0.2957339883 0.1513733864 8.35443915e-39
0.3174288273 -0.2873287797 -0.003274098039 8.538467473e-39
0.4399323463 -0.2780607939 -0.02426887304 8.538467473e-39
