# .PCD v0.7 - Point Cloud Data file format
VERSION 0.7
FIELDS x y z rgb
SIZE 4 4 4 4
TYPE F F F F
COUNT 1 1 1 1
WIDTH 835
HEIGHT 1
VIEWPOINT 0 0 0 1 0 0 0
POINTS 835
DATA ascii
0.3239323199 -0.7491384745 0.0320007205 8.742304551e-39
0.4098049998 -0.6990079284 -0.3683823347 8.742304551e-39
0.3303372264 -0.756499052 0.1003674269 8.742304551e-39
0.4472972155 -0.4433243275 -0.1987282634 8.742304551e-39
0.4464561045 -0.40370664 -0.3083148599 8.742304551e-39
0.4417118132 -0.4131360352 -0.2272565365 8.560068489e-39
0.3153924048 -0.7393243909 -0.05915491283 8.560068489e-39
0.3583287597 -0.7142591476 -0.2593464255 8.560068489e-39
0.349314481 -0.7187814713 -0.2238659114 8.560068489e-39
0.4417334199 -0.4755814075 -0.1575084031 8.560068489e-39
0.4395984411 -0.4731279016 -0.1802973151 8.560068489e-39
0.4492058456 -0.4841687679 -0.07774722576 8.560068489e-39
0.4407269657 -0.4199274182 -0.2481323183 8.560068489e-39
0.4453886151 -0.402479887 -0.319709301 8.377473694e-39
0.4385093451 -0.4094557762 -0.2614398897 8.377473694e-39
0.3986557722 -0.701076746 -0.3556907177 8.377473694e-39
0.4492668808 -0.4297415018 -0.1569766849 8.377473694e-39
0.3085131049 -0.7463002801 -0.0008854866028 8.377473694e-39
0.4556718171 -0.4371020794 -0.08860997111 8.377473694e-39
0.303175658 -0.7401664257 -0.05785775185 8.377473694e-39
0.4481167495 -0.4204966128 -0.1588898003 8.377473694e-39
0.4513192177 -0.4241769016 -0.124706462 8.194878899e-39
0.4459817708 -0.418043077 -0.1816787124 8.194878899e-39
0.4087375402 -0.6977811456 -0.3797767758 8.194878899e-39
0.4477715492 -0.4289878607 -0.3253644109 8.194878899e-39
0.3212041855 -0.7311217785 -0.1288187951 8.194878899e-39
0.3392327428 -0.7220770121 -0.1997798383 8.194878899e-39
0.3471795022 -0.7163279057 -0.2466548234 8.194878899e-39
0.3774248064 -0.706441164 -0.3189130425 8.194878899e-39
0.3127830625 -0.7512073517 0.04469233751 8.012284103e-39
0.3138505518 -0.7524340749 0.05608677864 8.012284103e-39
0.4639708102 -0.5258709788 -0.1036621928 8.012284103e-39
0.3302184939 -0.7265993953 -0.1642993093 8.012284103e-39
0.4353068769 -0.4057754874 -0.2956232429 8.012284103e-39
0.4340130091 -0.4429396093 -0.2088255435 8.012284103e-39
0.3190692067 -0.7286682129 -0.1516076773 8.012284103e-39
0.3291510046 -0.7253726721 -0.1756937504 8.012284103e-39
0.2830121815 -0.7467576265 -0.009685605764 7.829687907e-39
0.4590250552 -0.4973825216 -0.2777892351 7.829687907e-39
0.4305841327 -0.4776502252 -0.1448167711 7.829687907e-39
0.2840796709 -0.7479844093 0.001708835363 7.829687907e-39
0.4327191114 -0.4801037312 -0.1220278814 7.829687907e-39
0.4284491539 -0.4751967192 -0.1676056832 7.829687907e-39
0.4353895187 -0.4137936234 -0.3051045835 7.829687907e-39
0.4285102487 -0.4207694829 -0.2468351573 7.829687907e-39
0.3169342279 -0.7262147069 -0.1743965894 7.647093112e-39
0.3037688136 -0.7557296753 0.08017286658 7.647093112e-39
0.2675929368 -0.7439194322 -0.04257175326 7.647093112e-39
0.2697279155 -0.7463729382 -0.01978287101 7.647093112e-39
0.4391851425 -0.4330371022 -0.1328906268 7.647093112e-39
0.4272989929 -0.4659518003 -0.1695187986 7.647093112e-39
0.4359826744 -0.4293568134 -0.16707398 7.647093112e-39
0.4337039292 -0.4733123779 -0.1011520624 7.647093112e-39
0.3016338348 -0.7532761097 0.05738393962 7.464498317e-39
0.4445225894 -0.4391709268 -0.07591836154 7.464498317e-39
0.4379738867 -0.4782193899 -0.05557429045 7.464498317e-39
0.2872821391 -0.7516646981 0.03589221835 7.464498317e-39
0.2734047771 -0.7357168198 -0.1122356877 7.464498317e-39
0.4538890719 -0.5291665196 -0.07957608998 7.464498317e-39
0.3147992492 -0.7237612009 -0.1971855015 7.464498317e-39
0.4528215826 -0.5279397964 -0.09097053111 7.464498317e-39
0.2633229792 -0.7390123606 -0.08814957738 7.281903522e-39
0.4466575682 -0.4416244626 -0.05312942713 7.281903522e-39
0.4587160349 -0.5277553201 -0.1701157838 7.281903522e-39
0.2596461773 -0.7496685386 0.004303172231 7.281903522e-39
0.2904846072 -0.7553449869 0.07007560134 7.281903522e-39
0.4576485455 -0.5265285373 -0.1815102249 7.281903522e-39
0.2521737516 -0.7410812378 -0.07545797527 7.281903522e-39
0.2925007641 -0.7278988361 -0.1718022525 7.281903522e-39
0.2167097926 -0.7747337818 0.2044947445 7.099307325e-39
0.2750653625 -0.7525067329 0.03718939424 7.099307325e-39
0.4220226705 -0.4053907692 -0.3057205379 7.099307325e-39
0.4151433408 -0.4123666286 -0.2474510968 7.099307325e-39
0.2813515365 -0.7299676538 -0.1591106504 7.099307325e-39
0.4269073009 -0.4883064032 -0.05236400664 7.099307325e-39
0.4298472703 -0.5084961057 -0.19413656 7.099307325e-39
0.4152259827 -0.4203847647 -0.2569324374 7.099307325e-39
0.2825377584 -0.7610940933 0.1169505417 6.91671253e-39
0.4279532135 -0.4270877838 -0.1107176393 6.91671253e-39
0.4258182347 -0.4246342778 -0.1335065812 6.91671253e-39
0.4247507453 -0.423407495 -0.1449010223 6.91671253e-39
0.4269683659 -0.4338791966 -0.1315934658 6.91671253e-39
0.4248333871 -0.431425631 -0.1543823481 6.91671253e-39
0.4312383235 -0.4387862086 -0.08601564169 6.91671253e-39
0.4300881922 -0.4295413196 -0.08792874962 6.91671253e-39
0.2474294305 -0.7505105734 0.005600348115 6.734117735e-39
0.4141584933 -0.4191580415 -0.2683268785 6.734117735e-39
0.4226157665 -0.420953989 -0.1676899344 6.734117735e-39
0.363073051 -0.7048296928 -0.3404047489 6.734117735e-39
0.27933532 -0.7574138045 0.08276721835 6.734117735e-39
0.2044930756 -0.7755758762 0.2057919204 6.734117735e-39
0.4107296467 -0.4538686275 -0.2043181062 6.734117735e-39
0.4130910039 -0.4179312587 -0.2797213495 6.734117735e-39
0.4119408727 -0.4086863399 -0.28163445 6.55152294e-39
0.4486342967 -0.5310508609 -0.1460297108 6.55152294e-39
0.4374023378 -0.5251015425 -0.1238567457 6.55152294e-39
0.4268246293 -0.4802882671 -0.04288262874 6.55152294e-39
0.4341998696 -0.5214212537 -0.1580400914 6.55152294e-39
0.1142315865 -0.7908997536 0.2959303856 6.55152294e-39
0.4120235145 -0.4167045057 -0.2911157906 6.55152294e-39
0.2352127135 -0.7513526678 0.006897509098 6.55152294e-39
0.2379408479 -0.7693693638 0.1677170396 6.368926744e-39
0.2266727984 -0.7415385246 -0.08425808698 6.368926744e-39
0.4051442146 -0.4236803651 -0.2328463495 6.368926744e-39
0.4094968438 -0.4366056025 -0.1967498809 6.368926744e-39
0.1365301311 -0.7867621183 0.2705471516 6.368926744e-39
0.2660511136 -0.7570291162 0.07266995311 6.368926744e-39
0.225605309 -0.7403118014 -0.09565252811 6.368926744e-39
0.2187260389 -0.7472876906 -0.03738309443 6.368926744e-39
0.4060679972 -0.4713162184 -0.1327411085 6.186331949e-39
0.2659323514 -0.7271294594 -0.1919968426 6.186331949e-39
0.350856334 -0.7056717873 -0.3391076028 6.186331949e-39
0.4146689773 -0.4267030954 -0.1208149642 6.186331949e-39
0.4136014879 -0.4254763424 -0.1322094053 6.186331949e-39
0.4028655291 -0.4676359296 -0.1669244617 6.186331949e-39
0.441754967 -0.5380268097 -0.08776024729 6.186331949e-39
0.4126166403 -0.4322677255 -0.1530851871 6.186331949e-39
0.2234703302 -0.7378582954 -0.1184414625 6.003737154e-39
0.4114665091 -0.4230228066 -0.1549983025 6.003737154e-39
0.2547830641 -0.729198277 -0.1793052256 6.003737154e-39
0.4385524988 -0.5343465209 -0.1219436228 6.003737154e-39
0.257036835 -0.7615514994 0.1081504226 6.003737154e-39
0.2224028409 -0.7366315126 -0.1298359036 6.003737154e-39
0.3609380722 -0.7023761868 -0.3631936908 6.003737154e-39
0.4374850094 -0.5331197381 -0.133338064 6.003737154e-39
0.3985129297 -0.454710722 -0.2030209303 5.820783626e-39
0.1354626417 -0.7855353355 0.2591527104 5.820783626e-39
0.3710198998 -0.6990805864 -0.3872797489 5.820783626e-39
0.4211565554 -0.442081809 -0.061929591 5.820783626e-39
0.3973627687 -0.4454658031 -0.2049340457 5.820783626e-39
0.2112536132 -0.7387003303 -0.1171443015 5.820783626e-39
0.1800596416 -0.7772600055 0.2083862424 5.820783626e-39
0.1912088692 -0.7751911879 0.1956946254 5.820783626e-39
0.3184761107 -0.7131050229 -0.2896382809 5.63818743e-39
0.2022393048 -0.7432227135 -0.08166375011 5.63818743e-39
0.4076709151 -0.4037793279 -0.3272122741 5.63818743e-39
0.3285578489 -0.7098094225 -0.3137243688 5.63818743e-39
0.3908141255 -0.4845142961 -0.1845899671 5.63818743e-39
0.3939339519 -0.4801764488 -0.1409252733 5.63818743e-39
0.200104326 -0.7407691479 -0.1044526845 5.63818743e-39
0.3897466362 -0.4832875133 -0.1959844232 5.63818743e-39
0.2414988577 -0.728813529 -0.1894025058 5.455592635e-39
0.2426851392 -0.7599400282 0.0866587162 5.455592635e-39
0.4014063776 -0.4887637496 -0.06116411835 5.455592635e-39
0.1990368366 -0.7395423651 -0.1158471256 5.455592635e-39
0.1910900772 -0.7452915311 -0.06897214055 5.455592635e-39
0.3960473239 -0.4201845825 -0.1878845096 5.455592635e-39
0.1900225878 -0.7440647483 -0.08036658168 5.455592635e-39
0.4066034257 -0.4025525451 -0.3386067152 5.455592635e-39
0.2080511451 -0.7350200415 -0.1513276547 5.272997839e-39
0.4036023915 -0.4367900491 -0.1176046878 5.272997839e-39
0.4327406883 -0.5425491333 -0.05227975547 5.272997839e-39
0.4057373703 -0.4392436147 -0.09481574595 5.272997839e-39
0.2404313684 -0.7275868058 -0.2007969469 5.272997839e-39
0.04413366318 -0.7996324301 0.3378967643 5.272997839e-39
0.251580596 -0.7255179882 -0.2134885788 5.272997839e-39
0.2627298832 -0.723449111 -0.2261801958 5.272997839e-39
0.3906488121 -0.4684779644 -0.1656273007 5.090401643e-39
0.4068048596 -0.4404703379 -0.08342130482 5.090401643e-39
0.4284707308 -0.5376421213 -0.09785757959 5.090401643e-39
0.1889550984 -0.7428380251 -0.09176102281 5.090401643e-39
0.2850283384 -0.7193114758 -0.2515634298 5.090401643e-39
0.2235890627 -0.7677579522 0.1462253034 5.090401643e-39
0.3487213552 -0.7032182217 -0.3618965149 5.090401643e-39
0.09987989068 -0.7892882824 0.2744386792 5.090401643e-39
0.4013237059 -0.4807456136 -0.0516827926 4.907806848e-39
0.4242007732 -0.5327350497 -0.1434353739 4.907806848e-39
0.2336708903 -0.7644623518 0.1221392155 4.907806848e-39
0.3588031232 -0.6999226809 -0.385982573 4.907806848e-39
0.4067222178 -0.4324522018 -0.07393997908 4.907806848e-39
0.3062593341 -0.7139470577 -0.288341105 4.907806848e-39
0.1110291258 -0.7872194648 0.2617470622 4.907806848e-39
0.3850850165 -0.5007351041 -0.1244074255 4.907806848e-39
0.3851460516 -0.4463078976 -0.2036368847 4.725212053e-39
0.4089398384 -0.4429238737 -0.06063242257 4.725212053e-39
0.1333276629 -0.7830817699 0.2363637984 4.725212053e-39
0.1846851408 -0.7379309535 -0.1373388469 4.725212053e-39
0.2616623938 -0.7222223878 -0.2375746667 4.725212053e-39
0.05421543866 -0.7963368893 0.3138106465 4.725212053e-39
0.4100073278 -0.4441506267 -0.04923792183 4.725212053e-39
0.1852782667 -0.7534941435 0.0006917268038 4.725212053e-39
0.1842107773 -0.7522673607 -0.01070271432 4.542257124e-39
0.3797475696 -0.4946012497 -0.1813796908 4.542257124e-39
0.3051918447 -0.7127202749 -0.2997355759 4.542257124e-39
0.392640084 -0.5173405409 -0.05412760377 4.542257124e-39
0.3806497455 -0.4797917008 -0.1510225683 4.542257124e-39
0.1936993897 -0.7334085703 -0.1728193909 4.542257124e-39
0.1666566133 -0.7469756603 -0.06637781113 4.542257124e-39
0.09881240129 -0.7880614996 0.2630442381 4.542257124e-39
0.383769542 -0.4754538536 -0.1073578894 4.359662329e-39
0.3795822561 -0.4785649776 -0.1624170095 4.359662329e-39
0.3849807382 -0.4302715659 -0.1846742332 4.359662329e-39
0.3947750628 -0.5197941065 -0.03133866936 4.359662329e-39
0.1895482242 -0.7584012151 0.04626955092 4.359662329e-39
0.3785147667 -0.4773381948 -0.1738114804 4.359662329e-39
0.2271471322 -0.7272021174 -0.2108942568 4.359662329e-39
0.1645216346 -0.7445220947 -0.08916669339 4.359662329e-39
0.3152736425 -0.7094247341 -0.3238216341 4.177066133e-39
0.3902355433 -0.4283872247 -0.1182206348 4.177066133e-39
0.3848980963 -0.4222534299 -0.1751928777 4.177066133e-39
0.1634541452 -0.7432953715 -0.1005611941 4.177066133e-39
0.392370522 -0.4308407605 -0.09543170035 4.177066133e-39
0.3935206532 -0.4400856495 -0.09351858497 4.177066133e-39
0.1623866558 -0.7420685887 -0.1119556352 4.177066133e-39
0.3728682399 -0.5015771389 -0.1231102645 4.177066133e-39
0.1714009047 -0.7375462055 -0.1474361569 3.994471337e-39
0.1709265709 -0.7518826723 -0.02079999447 3.994471337e-39
0.191683203 -0.7608547211 0.06905844808 3.994471337e-39
0.3737704158 -0.48676759 -0.09275311232 3.994471337e-39
0.3727029264 -0.4855408669 -0.104147613 3.994471337e-39
0.3775083125 -0.4216842055 -0.2644353807 3.994471337e-39
0.2037811875 -0.7301130295 -0.196905449 3.994471337e-39
0.1545586288 -0.7777173519 0.1995861232 3.994471337e-39
0.1657078564 -0.7756485939 0.1868944764 3.81151781e-39
0.395655632 -0.4425391853 -0.07072969526 3.81151781e-39
0.2071023881 -0.763692975 0.1019446552 3.81151781e-39
0.3463563025 -0.3435714245 0.03084478527 3.81151781e-39
0.08659568429 -0.788903594 0.2643413842 3.81151781e-39
0.1880064011 -0.7715108991 0.1615112424 3.81151781e-39
0.4092920721 -0.5374418497 -0.02880960703 3.81151781e-39
0.3937902451 -0.5265855193 -0.05221448839 3.81151781e-39
0.3452888131 -0.3423446715 0.01945034228 3.628921614e-39
0.373996824 -0.4483767152 -0.1909452677 3.628921614e-39
0.3715527654 -0.476295948 -0.106060721 3.628921614e-39
0.3955729902 -0.4345210195 -0.06124836951 3.628921614e-39
0.3758227229 -0.4812030196 -0.06048289686 3.628921614e-39
0.3695004582 -0.4818605781 -0.1383309364 3.628921614e-39
0.3798302114 -0.5026193857 -0.1908610165 3.628921614e-39
0.4098490775 -0.5311235785 -0.1649271101 3.628921614e-39
0.01863273606 -0.8000898361 0.3290966749 3.446326818e-39
0.3363572359 -0.3548851609 0.04544950649 3.446326818e-39
0.1311926842 -0.780628264 0.2135748863 3.446326818e-39
0.387874186 -0.4643246531 -0.04281736165 3.446326818e-39
0.3964821994 -0.5227206945 -0.1655430645 3.446326818e-39
0.3802364469 -0.4397009611 -0.1036158651 3.446326818e-39
0.3331547678 -0.3512048721 0.01126617752 3.446326818e-39
0.3771166503 -0.4440388381 -0.1472805589 3.446326818e-39
0.3662979901 -0.4781802893 -0.1725143194 3.26337189e-39
0.380153805 -0.4316828251 -0.09413453192 3.26337189e-39
0.3790863156 -0.4304560423 -0.105528973 3.26337189e-39
0.4077140987 -0.5286700726 -0.1877160072 3.26337189e-39
0.1681984365 -0.7338659763 -0.1816195101 3.26337189e-39
0.4104422331 -0.5466868281 -0.02689647675 3.26337189e-39
0.006415981799 -0.8009318709 0.3303937912 3.26337189e-39
0.3630128503 -0.4664818645 -0.1972163171 3.26337189e-39
0.3230729699 -0.3545004427 0.0353522338 3.080777095e-39
0.1464930773 -0.7535668612 -0.0182056576 3.080777095e-39
0.1970206499 -0.7669885159 0.1260307133 3.080777095e-39
0.4083072543 -0.5442332625 -0.04968541861 3.080777095e-39
0.1496955156 -0.7572470903 0.01597768068 3.080777095e-39
0.3769513369 -0.4280025363 -0.1283179075 3.080777095e-39
0.167249769 -0.7625388503 0.07165277004 3.080777095e-39
0.3293736875 -0.291397512 0.04345218837 3.080777095e-39
0.4029698074 -0.5380994678 -0.1066576838 2.898180898e-39
0.3397860527 -0.320174545 -0.01855924353 2.898180898e-39
0.3285541832 -0.3142252266 0.003613718785 2.898180898e-39
0.3129912317 -0.3577960432 0.05943833664 2.898180898e-39
0.3409362137 -0.3294194341 -0.01664613001 2.898180898e-39
0.1300064027 -0.7495018244 -0.06248631328 2.898180898e-39
0.2919076383 -0.7123355865 -0.309832871 2.898180898e-39
0.3844237626 -0.4365898669 -0.0485567078 2.898180898e-39
0.3573447764 -0.4282754064 -0.2162632495 2.715227371e-39
0.3917379081 -0.5321500897 -0.08448470384 2.715227371e-39
0.3572621346 -0.4202572703 -0.206781894 2.715227371e-39
0.3751685321 -0.5200669765 -0.1192840263 2.715227371e-39
0.3007744849 -0.3586381078 0.06073550507 2.715227371e-39
-0.005800742656 -0.8017739058 0.3316909671 2.715227371e-39
0.3986998498 -0.5331923962 -0.1522354782 2.715227371e-39
0.3108562529 -0.3553425074 0.03664939851 2.715227371e-39
0.3658020496 -0.4300713539 -0.1156263053 2.532632576e-39
0.3019893765 -0.7090400457 -0.3339189291 2.532632576e-39
0.3583296239 -0.4214840531 -0.1953874528 2.532632576e-39
0.3343696594 -0.7016067505 -0.3833882213 2.532632576e-39
0.1156546921 -0.7478903532 -0.08397802711 2.532632576e-39
0.3072404861 -0.3115714788 0.049872756 2.532632576e-39
0.1353438497 -0.7556356192 -0.00551405549 2.532632576e-39
0.1693847477 -0.7649923563 0.0944417119 2.532632576e-39
0.1336832047 -0.738845706 -0.1549390852 2.349677647e-39
0.3648998737 -0.4448809028 -0.145983398 2.349677647e-39
0.3605472445 -0.4319556952 -0.1820798963 2.349677647e-39
0.3616147339 -0.433182478 -0.1706854254 2.349677647e-39
0.3648172021 -0.4368627667 -0.1365020722 2.349677647e-39
0.3637497127 -0.4356359839 -0.1478965133 2.349677647e-39
0.3690045178 -0.4337516427 -0.08144292235 2.349677647e-39
0.1396137774 -0.7605427504 0.04006376863 2.349677647e-39
0.3827235997 -0.536672473 -0.04900420457 2.167082852e-39
0.1199246421 -0.7527974248 -0.03840026259 2.167082852e-39
0.3138717711 -0.2805411518 0.02004730888 2.167082852e-39
0.3187203407 -0.3415752649 -0.0007442338392 2.167082852e-39
0.1406812668 -0.7617694736 0.05145820975 2.167082852e-39
0.3232204318 -0.7036756277 -0.3706966341 2.167082852e-39
0.3816561103 -0.5354456902 -0.06039865315 2.167082852e-39
0.3087212741 -0.3528890014 0.01386051439 2.167082852e-39
0.3722896278 -0.4454500675 -0.05674092472 1.984127923e-39
0.3126389682 -0.2632780969 0.02761551738 1.984127923e-39
0.246243149 -0.7193841934 -0.270460844 1.984127923e-39
0.1179084629 -0.7802435756 0.2034776211 1.984127923e-39
0.1066404358 -0.7524127364 -0.04849754274 1.984127923e-39
0.2874902785 -0.3582534194 0.05063817278 1.984127923e-39
0.2950237691 -0.3124135435 0.05116992071 1.984127923e-39
0.1077079251 -0.7536394596 -0.03710310161 1.984127923e-39
0.2685416639 -0.7152464986 -0.2958440781 1.801533128e-39
0.3733571172 -0.4466768503 -0.04534642398 1.801533128e-39
0.3049401939 -0.2930816412 0.04604652524 1.801533128e-39
0.04994548857 -0.7914298177 0.268232882 1.801533128e-39
0.1571679413 -0.7658344507 0.09573888779 1.801533128e-39
0.3954973817 -0.5295121074 -0.1864188313 1.801533128e-39
0.3166680336 -0.3471398652 -0.03301447257 1.801533128e-39
0.311488837 -0.2540331781 0.025702402 1.801533128e-39
0.3429104388 -0.4186457992 -0.2282736301 1.618578199e-39
0.06109471619 -0.7893610001 0.2555412352 1.618578199e-39
0.3155178726 -0.3378949761 -0.03492758796 1.618578199e-39
0.1098429039 -0.7560930252 -0.01431415975 1.618578199e-39
0.2940389216 -0.3192049265 0.03029410169 1.618578199e-39
0.07224398106 -0.7872921228 0.2428496182 1.618578199e-39
0.2641242743 -0.3611643016 0.06462700665 1.618578199e-39
0.3418429494 -0.4174190462 -0.2396681011 1.618578199e-39
0.1295320392 -0.7638382912 0.06414982677 1.435982003e-39
0.2839571834 -0.3225005269 0.05438020453 1.435982003e-39
0.1315482259 -0.7363921404 -0.1777279973 1.435982003e-39
0.3699532449 -0.4050787389 -0.3347152472 1.435982003e-39
0.3875506222 -0.5352612138 -0.1395438761 1.435982003e-39
0.2882881761 -0.272980392 0.02072852105 1.435982003e-39
0.2854379714 -0.3638180792 0.01836796291 1.435982003e-39
0.2871380448 -0.2637354732 0.0188154038 1.435982003e-39
0.3419255912 -0.425437212 -0.2491494417 1.253028475e-39
0.1449512243 -0.7666765451 0.09703603387 1.253028475e-39
0.3217909634 -0.05320356786 -0.1037851274 1.253028475e-39
-0.00793572329 -0.7993204594 0.308902055 1.253028475e-39
0.3741836846 -0.5268583298 -0.1401598305 1.253028475e-39
0.2842051685 -0.3465549946 0.02593617141 1.253028475e-39
0.2865881026 -0.3730629683 0.02028107457 1.253028475e-39
0.08434190601 -0.7565504313 -0.02311426401 1.253028475e-39
0.1614378989 -0.7707415223 0.1413167119 1.070432279e-39
0.3700358868 -0.413096875 -0.344196558 1.070432279e-39
0.3296262026 -0.4182611108 -0.238370955 1.070432279e-39
0.2904231548 -0.275433898 0.04351745918 1.070432279e-39
0.3796038032 -0.5410103798 -0.09266890585 1.070432279e-39
0.1008286476 -0.7606153488 0.02116633952 1.070432279e-39
0.2870553732 -0.2557173073 0.02829673141 1.070432279e-39
0.2892730236 -0.2661889791 0.04160434008 1.070432279e-39
0.07117649168 -0.78606534 0.2314551771 8.874787512e-40
0.2619892955 -0.3587107658 0.04183806106 8.874787512e-40
0.261823982 -0.3426744938 0.06080077216 8.874787512e-40
0.2922345698 -0.3488239944 -0.03042014316 8.874787512e-40
0.1173153222 -0.7646803856 0.06544700265 8.874787512e-40
0.320723474 -0.05197681487 -0.115179576 8.874787512e-40
0.1193315014 -0.7372342348 -0.1764308512 8.874787512e-40
0.2507573962 -0.3527614772 0.06401105225 8.874787512e-40
0.2684553266 -0.3116441667 0.03097531199 7.045238224e-40
0.06999021024 -0.7549389601 -0.04460602999 7.045238224e-40
0.3095741868 -0.05404563248 -0.102487959 7.045238224e-40
0.3185596168 -0.4283480644 -0.2351606637 7.045238224e-40
0.07105769962 -0.7561656833 -0.03321158886 7.045238224e-40
0.09703303874 -0.74137187 -0.1510476023 7.045238224e-40
0.2820701897 -0.3441014588 0.003147260286 7.045238224e-40
0.3720487058 -0.5244048238 -0.1629487425 7.045238224e-40
0.07319267839 -0.7586191893 -0.0104226619 5.219290273e-40
0.3284222484 -0.02217324078 -0.1336105466 5.219290273e-40
0.2821528316 -0.3521195948 -0.006334066857 5.219290273e-40
0.1183828115 -0.7659071088 0.07684144378 5.219290273e-40
0.1157734841 -0.7777900696 0.1806886792 5.219290273e-40
0.2609218061 -0.3574840128 0.03044361994 5.219290273e-40
0.2799352109 -0.3416479528 -0.0196416527 5.219290273e-40
0.1269227266 -0.7757211924 0.1679970622 5.219290273e-40
0.1040311083 -0.7642956972 0.0553497076 3.389740985e-40
0.2627046108 -0.2654196024 0.02140973136 3.389740985e-40
0.2597716451 -0.3482391238 0.02853050828 3.389740985e-40
0.08967935294 -0.762684226 0.03385800123 3.389740985e-40
-0.04245093837 -0.8043001294 0.3355824947 3.389740985e-40
0.2775559127 -0.7107241154 -0.3313246071 3.389740985e-40
0.2698534429 -0.3449435234 0.004444424994 3.389740985e-40
0.2562385499 -0.3124862313 0.03227248043 3.389740985e-40
0.2687859535 -0.3437167704 -0.00695001753 1.56020571e-40
0.2587041557 -0.3470123708 0.01713606529 1.56020571e-40
0.1294132471 -0.7339386344 -0.2005169094 1.56020571e-40
0.04769174382 -0.7590765953 -0.01922276616 1.56020571e-40
0.07746262848 -0.7635262609 0.03515516222 1.56020571e-40
0.2560732365 -0.2964499295 0.0512351878 1.56020571e-40
-0.01007069834 -0.7968668938 0.2861131728 1.56020571e-40
0.09181433171 -0.765137732 0.05664688349 1.56020571e-40
0.3162881732 -0.03103344142 -0.1417947114 6.490113838e-41
0.03559375554 -0.7898183465 0.246741116 6.490113838e-41
0.2318914533 -0.7177727222 -0.2919525802 6.490113838e-41
0.2666509748 -0.3412632346 -0.02973892912 6.490113838e-41
0.2636894286 -0.2586281896 0.04228555784 6.490113838e-41
0.2476375997 -0.3570993245 0.02034634165 6.490113838e-41
0.2577193379 -0.3538037241 -0.003739733715 6.490113838e-41
0.05089420825 -0.7627568841 0.01496055722 6.490113838e-41
0.1258552372 -0.7744944692 0.1566026211 2.496469266e-40
0.3731988668 -0.5336498022 -0.1610356122 2.496469266e-40
0.2364057004 -0.3511500061 0.04251927882 2.496469266e-40
0.2428717017 -0.3040833771 0.03165653348 2.496469266e-40
0.2464874536 -0.3478544354 0.01843323 2.496469266e-40
0.2328726053 -0.3153971136 0.04626125842 2.496469266e-40
0.285140723 -0.05572976172 -0.09989362955 2.496469266e-40
0.1083010659 -0.7692027092 0.1009275317 2.496469266e-40
0.2764884233 -0.7094973922 -0.3427190483 4.340353837e-40
0.242789045 -0.2960652113 0.04113785923 4.340353837e-40
0.03547499329 -0.7599186897 -0.01792560518 4.340353837e-40
0.2667336464 -0.3492813706 -0.03922025859 4.340353837e-40
0.2438565344 -0.2972919941 0.05253235623 4.340353837e-40
-0.05466768518 -0.8051421642 0.3368796706 4.340353837e-40
0.2465701103 -0.3558725417 0.008951872587 4.340353837e-40
0.2364883572 -0.3591681421 0.03303795308 4.340353837e-40
0.03654248267 -0.7611454725 -0.00653116405 6.184224396e-40
0.08019074798 -0.7815430164 0.1959746182 6.184224396e-40
0.2318051159 -0.3141703606 0.03486681357 6.184224396e-40
0.07959760725 -0.7659797668 0.05794405937 6.184224396e-40
0.2317224592 -0.3061521947 0.04434814304 6.184224396e-40
0.252622813 -0.268715173 0.04549584165 6.184224396e-40
0.3721313775 -0.5324230194 -0.1724300683 6.184224396e-40
0.09133998305 -0.7794741392 0.183283031 6.184224396e-40
0.2394212633 -0.2763486505 0.02591718733 8.028094954e-40
0.09501679242 -0.7688180208 0.09083026648 8.028094954e-40
0.3011051118 -0.3907107413 0.02281014621 8.028094954e-40
0.2544341981 -0.3421052992 -0.02844175696 8.028094954e-40
0.2443524748 -0.3454008996 -0.004355680663 8.028094954e-40
0.3153571486 -0.4246677756 -0.2693440318 8.028094954e-40
0.0960842818 -0.7700448036 0.1022247076 8.028094954e-40
0.02907005697 -0.7525581121 -0.0862923637 8.028094954e-40
0.04923357815 -0.7459669113 -0.1344645023 9.871979525e-40
0.2343533784 -0.3567146063 0.01024904102 9.871979525e-40
0.2393386066 -0.2683304846 0.03539850935 9.871979525e-40
0.3142070174 -0.4154228866 -0.2712571323 9.871979525e-40
-0.04458591715 -0.8018466234 0.3127935529 9.871979525e-40
0.325356245 -0.413354069 -0.2839487195 9.871979525e-40
0.3354380131 -0.4100584686 -0.3080348372 9.871979525e-40
0.2444351315 -0.3534190357 -0.01383703854 9.871979525e-40
0.2231214941 -0.3507653177 0.0324220024 1.171585008e-39
0.08173258603 -0.7684333324 0.08073294163 1.171585008e-39
0.2419731915 -0.7144771218 -0.3160386384 1.171585008e-39
0.2617748082 -0.05864065886 -0.0859048292 1.171585008e-39
0.3456023932 -0.414781034 -0.3416022062 1.171585008e-39
0.2186035663 -0.3218038082 0.01528821327 1.171585008e-39
0.07912325859 -0.7803162336 0.1845801771 1.171585008e-39
0.275420934 -0.708270669 -0.3541135192 1.171585008e-39
0.2918546796 -0.03271757066 -0.1392003894 1.355972064e-39
0.3355206549 -0.4180766344 -0.3175161481 1.355972064e-39
0.1014217287 -0.7761785984 0.1591969728 1.355972064e-39
0.01898831688 -0.755853653 -0.06220626086 1.355972064e-39
0.0838675648 -0.7708868384 0.1035218835 1.355972064e-39
0.01210900582 -0.7628295422 -0.003936827183 1.355972064e-39
0.2808419168 -0.4296475053 -0.242663607 1.355972064e-39
0.06951586157 -0.7692753673 0.08203008771 1.355972064e-39
0.2907045484 -0.02347266674 -0.1411134899 1.540360521e-39
0.02586759441 -0.7488778234 -0.1204756871 1.540360521e-39
-0.03450417146 -0.798551023 0.2887074947 1.540360521e-39
0.01424398087 -0.7652831078 0.01885205507 1.540360521e-39
0.05931532383 -0.7426713109 -0.1585505605 1.540360521e-39
0.07058335096 -0.7705021501 0.09342458844 1.540360521e-39
-0.07910116762 -0.8068263531 0.3394739628 1.540360521e-39
0.3333030343 -0.4076049328 -0.3308237195 1.540360521e-39
-0.1024671271 -0.8097372055 0.3534627557 1.724747577e-39
0.3188246191 -0.4120388031 0.05952253565 1.724747577e-39
0.2743534446 -0.7070438862 -0.3655079603 1.724747577e-39
0.07271832973 -0.7729556561 0.1162134707 1.724747577e-39
0.3105374575 0.01519113779 -0.1513603032 1.724747577e-39
0.2994708121 0.005104154348 -0.1481500268 1.724747577e-39
0.002501606941 -0.7517887354 -0.1064869165 1.724747577e-39
0.3322355449 -0.4063781798 -0.3422181606 1.724747577e-39
-0.004377670586 -0.7587646246 -0.04821747541 1.909134633e-39
0.001434119418 -0.7505619526 -0.1178813577 1.909134633e-39
0.3323181868 -0.4143963456 -0.3516995311 1.909134633e-39
-0.005445158109 -0.7575378418 -0.05961193144 1.909134633e-39
0.2596398294 -0.05618713796 -0.1086937413 1.909134633e-39
0.2175397575 -0.7161612511 -0.3134443164 1.909134633e-39
0.3010054529 -0.4230563343 -0.290835768 1.909134633e-39
-0.007580138743 -0.7550842762 -0.08240086585 1.909134633e-39
0.2871714532 0.01228022575 -0.1373715103 2.09352309e-39
-0.01552690379 -0.7608333826 -0.0355258733 2.09352309e-39
0.2552583218 -0.4220867157 -0.2419824004 2.09352309e-39
0.006297215819 -0.7710322142 0.06572705507 2.09352309e-39
-0.008054479957 -0.769420743 0.0442353189 2.09352309e-39
0.0206489116 -0.7726436853 0.08721876144 2.09352309e-39
-0.0934528634 -0.8052148819 0.3179821968 2.09352309e-39
0.2551218867 -0.0272256285 -0.1258275509 2.09352309e-39
0.03500064462 -0.7742551565 0.1087105274 2.277910146e-39
0.3200187981 -0.4072202444 -0.3409209847 2.277910146e-39
-0.02774365619 -0.761675477 -0.03422871232 2.277910146e-39
-0.003191417083 -0.7898910046 0.2278437316 2.277910146e-39
0.02171640471 -0.7738704681 0.09861326218 2.277910146e-39
-0.005919504911 -0.7718743086 0.06702420115 2.277910146e-39
0.03606813401 -0.7754818797 0.1201049685 2.277910146e-39
0.05255480856 -0.7795468569 0.1643856466 2.277910146e-39
0.32010144 -0.4152383804 -0.3504023552 2.462297202e-39
0.2452054024 -0.04655751586 -0.1207041666 2.462297202e-39
-0.003784529865 -0.774327755 0.08981308341 2.462297202e-39
-0.03414858878 -0.7543148994 -0.1025954187 2.462297202e-39
-0.06000512838 -0.7990083694 0.2799073756 2.462297202e-39
-0.02655740082 -0.7928019166 0.2418324947 2.462297202e-39
0.01910707727 -0.7857533693 0.2024604678 2.462297202e-39
0.2889710665 -0.3995709419 0.01462595165 2.462297202e-39
0.2788892984 -0.4028665423 0.03871202841 2.646685659e-39
0.265203625 -0.02393004298 -0.149913609 2.646685659e-39
0.275421828 -0.4154955745 -0.2901545465 2.646685659e-39
-0.03569042683 -0.7674245834 0.01264628768 2.646685659e-39
-0.03889289498 -0.7637442946 -0.02153709531 2.646685659e-39
-0.03462293744 -0.7686513662 0.02404072881 2.646685659e-39
0.2627380192 0.01059609652 -0.1347771883 2.646685659e-39
0.273887217 0.01266492903 -0.1474688053 2.646685659e-39
0.2463555485 -0.05580243468 -0.1187910363 2.830713982e-39
-0.004258904606 -0.7886642218 0.2164492905 2.830713982e-39
-0.01493379101 -0.7763966322 0.10250476 2.830713982e-39
0.2640534937 -0.01468512416 -0.1518267393 2.830713982e-39
-0.03035298362 -0.7735583782 0.06961855292 2.830713982e-39
0.2516714334 0.0005091279745 -0.1315669119 2.830713982e-39
0.02918882295 -0.7824577689 0.1783744097 2.830713982e-39
0.2643552423 -0.4255825281 -0.2869442701 2.830713982e-39
0.08956062049 -0.7327845097 -0.2308087796 3.015101038e-39
0.242056787 -0.4297201633 -0.2615610361 3.015101038e-39
0.2778218091 -0.4016397893 0.02731758729 3.015101038e-39
-0.04209535941 -0.7600640059 -0.05572043359 3.015101038e-39
-0.04316284508 -0.7588372231 -0.06711486727 3.015101038e-39
0.2309074998 -0.4317890108 -0.2488693893 3.015101038e-39
-0.07222186029 -0.7998504639 0.2812045515 3.015101038e-39
-0.1078045666 -0.8036034107 0.2964904904 3.015101038e-39
0.02812133543 -0.7812310457 0.1669799685 3.199488094e-39
0.1909938008 -0.4850621223 -0.1999317855 3.199488094e-39
0.2429877669 -0.03608584404 -0.1340117157 3.199488094e-39
-0.005326397717 -0.7874374986 0.2050547898 3.199488094e-39
-0.02762489021 -0.7915751338 0.2304380536 3.199488094e-39
-0.003903323784 -0.7444281578 -0.1748536229 3.199488094e-39
0.06619460136 -0.7356954217 -0.2168200016 3.199488094e-39
-0.05004214868 -0.7658131123 -0.008845448494 3.199488094e-39
0.1875433624 -0.4573273659 -0.2056711316 3.383517819e-39
0.2505213022 0.009754031897 -0.1334800124 3.383517819e-39
0.2767543197 -0.4004130065 0.01592311636 3.383517819e-39
0.2409892976 -0.4284934402 -0.2729554772 3.383517819e-39
-0.01612004451 -0.7452701926 -0.1735564619 3.383517819e-39
0.1921439618 -0.4943070412 -0.1980186701 3.383517819e-39
-0.05644708127 -0.7584525347 -0.07721220702 3.383517819e-39
-0.05751457065 -0.7572257519 -0.08860664815 3.383517819e-39
0.1787770092 -0.4859042168 -0.1986346245 3.567904875e-39
-0.03936726227 -0.7780807614 0.105099082 3.567904875e-39
0.2207719535 -0.0482416451 -0.1181098297 3.567904875e-39
-0.0617845282 -0.7523187399 -0.1341844499 3.567904875e-39
0.1531107724 -0.4703252912 -0.1884720773 3.567904875e-39
0.1730262786 -0.4396796227 -0.2082002014 3.567904875e-39
-0.02869237587 -0.7903484106 0.2190436125 3.567904875e-39
0.1619597077 -0.4497666359 -0.2049899101 3.567904875e-39
0.255523324 -0.4057774246 0.05270080641 3.75229193e-39
0.184092924 -0.429592669 -0.2114104927 3.75229193e-39
0.2063913792 -0.4254549742 -0.2367937267 3.75229193e-39
-0.04055352136 -0.7469543219 -0.1709621251 3.75229193e-39
0.2395373285 -0.008351102471 -0.1397510767 3.75229193e-39
0.228772521 -0.429335475 -0.2716583014 3.75229193e-39
0.2733694911 -0.4210601747 -0.3224247694 3.75229193e-39
0.2845187187 -0.4189913273 -0.3351163864 3.75229193e-39
0.2143372893 -0.7124809623 -0.3476276994 3.936320254e-39
-0.06391950697 -0.7498651743 -0.156973362 3.936320254e-39
-0.1099395454 -0.8011498451 0.2737015486 3.936320254e-39
-0.06332636625 -0.7654284239 -0.01894277334 3.936320254e-39
-0.07293376327 -0.7543875575 -0.1214928329 3.936320254e-39
-0.06973129511 -0.7580678463 -0.08730947971 3.936320254e-39
-0.008528860286 -0.7837572098 0.1708714664 3.936320254e-39
0.1230046451 -0.330993861 0.04845442623 3.936320254e-39
0.1718761325 -0.4304347336 -0.2101133168 4.120708711e-39
0.2945178747 -0.4076776206 -0.3497211337 4.120708711e-39
0.1554110646 -0.4888151288 -0.1846458465 4.120708711e-39
-0.06546134502 -0.7629749179 -0.0417316556 4.120708711e-39
-0.01967809722 -0.7858260274 0.1835630834 4.120708711e-39
0.1988579184 -0.4712948799 -0.2373254299 4.120708711e-39
0.2272379547 -0.001175001264 -0.12897259 4.120708711e-39
0.1656333953 -0.03358516097 0.2877788246 4.120708711e-39
-0.08657358587 -0.7982389927 0.2597127855 4.304737034e-39
0.2383871824 0.0008938312531 -0.1416641772 4.304737034e-39
-0.01825502329 -0.7428166866 -0.196345374 4.304737034e-39
0.1829427779 -0.4203477502 -0.213323608 4.304737034e-39
0.2946005166 -0.4156957567 -0.3592024744 4.304737034e-39
-0.07020564377 -0.7724043131 0.03932665288 4.304737034e-39
-0.07340811193 -0.7687240243 0.005143329501 4.304737034e-39
0.2388543189 -0.4260398746 -0.2957443595 4.304737034e-39
0.1084876359 -0.3133461177 0.04592536017 4.48912409e-39
0.2500035763 -0.4239710569 -0.3084359765 4.48912409e-39
-0.06913815439 -0.7736310959 0.05072115362 4.48912409e-39
-0.07613622397 -0.7507072687 -0.1556761861 4.48912409e-39
0.1107052714 -0.3238177598 0.05923291668 4.48912409e-39
-0.05205833912 -0.793259263 0.2330323756 4.48912409e-39
-0.08621797711 -0.7540028691 -0.131590113 4.48912409e-39
-0.07542432845 -0.7961701751 0.2470211685 4.48912409e-39
0.1644832492 -0.02434024215 0.2858656943 4.673152414e-39
0.1707259864 -0.421189785 -0.2120264322 4.673152414e-39
-0.03047174215 -0.7436587214 -0.195048213 4.673152414e-39
-0.06593569368 -0.7773113251 0.0849044919 4.673152414e-39
0.2042564154 -0.4230014682 -0.2595826387 4.673152414e-39
-0.08728546649 -0.7527761459 -0.142984584 4.673152414e-39
0.2711518705 -0.4105885029 -0.3357323408 4.673152414e-39
0.2011582255 -0.4897847176 -0.2334991992 4.673152414e-39
0.2044433355 -0.5014831424 -0.2087971866 4.857539469e-39
0.197790429 -0.4700680971 -0.2487199008 4.857539469e-39
0.2063376009 -0.0386120379 -0.1301202178 4.857539469e-39
0.1585092694 -0.4220318794 -0.2107292712 4.857539469e-39
0.193024531 -0.4170521498 -0.2374096811 4.857539469e-39
0.2154883146 -0.4289507866 -0.2817555964 4.857539469e-39
-0.08135490119 -0.7744731307 0.0520183146 4.857539469e-39
0.1265377402 -0.3667467535 0.04471244663 4.857539469e-39
-0.0430440791 -0.7887369394 0.1975518465 5.041567793e-39
0.1232526228 -0.3550482988 0.02001041919 5.041567793e-39
0.1989405751 -0.4793130159 -0.2468067706 5.041567793e-39
-0.1120745242 -0.7986963987 0.2509126663 5.041567793e-39
0.2600852847 -0.4206754565 -0.3325220644 5.041567793e-39
0.1254702508 -0.3655200005 0.0333180055 5.041567793e-39
-0.09736723453 -0.7560716867 -0.1188985035 5.041567793e-39
-0.06273322552 -0.7809916735 0.1190878451 5.041567793e-39
0.09397061914 -0.2956983447 0.04339629039 5.225597518e-39
-0.01932251267 -0.7415899038 -0.20773983 5.225597518e-39
-0.0770849511 -0.7793802023 0.09759607911 5.225597518e-39
-0.08775983751 -0.7671125531 -0.01634843647 5.225597518e-39
0.2028045058 -0.002859130502 -0.1263782382 5.225597518e-39
0.203188926 -0.4217747152 -0.2709770799 5.225597518e-39
-0.08989480883 -0.7646590471 -0.03913733363 5.225597518e-39
0.1038870439 -0.2763664424 0.03827289119 5.225597518e-39
0.1241594031 -0.4430478811 -0.2030115426 5.409984573e-39
0.1049545333 -0.2775931954 0.04966733605 5.409984573e-39
-0.07755930722 -0.7937166691 0.2242322862 5.409984573e-39
-0.1005697027 -0.752391398 -0.1530818641 5.409984573e-39
0.2244190276 -0.7091853619 -0.3717137575 5.409984573e-39
0.2812336385 -0.4072929025 -0.359818399 5.409984573e-39
-0.108516477 -0.758140564 -0.1062068641 5.409984573e-39
0.1222677901 -0.3618397117 -0.0008653765544 5.409984573e-39
-0.1074489877 -0.7593672872 -0.09481242299 5.594012897e-39
0.1153058559 -0.360797435 0.06688538194 5.594012897e-39
0.1200501621 -0.35136801 -0.014172934 5.594012897e-39
-0.09463912249 -0.7740884423 0.04192098975 5.594012897e-39
-0.1042465195 -0.763047576 -0.06062904 5.594012897e-39
0.1131708771 -0.3583438993 0.04409649596 5.594012897e-39
0.0938879624 -0.2876801789 0.05287761614 5.594012897e-39
0.2144208252 -0.4277240038 -0.2931500375 5.594012897e-39
0.2032715827 -0.4297928512 -0.2804584503 5.77804122e-39
0.1421268433 -0.4884303808 -0.1947431266 5.77804122e-39
0.09963869303 -0.333904773 0.0624432005 5.77804122e-39
-0.008173279464 -0.7395210862 -0.220431447 5.77804122e-39
-0.1164632663 -0.7638896704 -0.05933187902 5.77804122e-39
-0.1207332239 -0.7589825988 -0.1049096957 5.77804122e-39
-0.1297474802 -0.763504982 -0.06942921132 5.77804122e-39
-0.1153957769 -0.7651163936 -0.04793743789 5.77804122e-39
-0.04624654353 -0.7850566506 0.1633685231 5.962428276e-39
0.2115707695 0.02571767569 -0.1334147453 5.962428276e-39
-0.1318824589 -0.7610514164 -0.09221809357 5.962428276e-39
0.1278330237 -0.026866436 0.2897571921 5.962428276e-39
-0.1430316865 -0.763120234 -0.07952648401 5.962428276e-39
-0.1440991759 -0.7618935108 -0.09092092514 5.962428276e-39
-0.06712196767 -0.7461849451 -0.1911567152 5.962428276e-39
0.08175389469 -0.2965404093 0.0446934551 5.962428276e-39
0.2021214366 -0.4205479622 -0.2823715508 6.1464566e-39
0.1388995945 -0.01677946746 0.2865469158 6.1464566e-39
-0.1244100258 -0.7696387768 -0.01245693862 6.1464566e-39
-0.1462341547 -0.7594399452 -0.1137098372 6.1464566e-39
-0.1361524165 -0.7561444044 -0.1377959251 6.1464566e-39
-0.102704674 -0.749937892 -0.1758707613 6.1464566e-39
-0.1376942396 -0.7692540884 -0.02255421877 6.1464566e-39
-0.1036534086 -0.7786108255 0.07740154862 6.1464566e-39
-0.02039000019 -0.740363121 -0.2191342711 6.330484923e-39
0.1189826727 -0.350141257 -0.02556737512 6.330484923e-39
-0.1068558693 -0.7749304771 0.04321816564 6.330484923e-39
0.07290489227 -0.3170990646 0.06121129915 6.330484923e-39
0.07405503839 -0.3263439834 0.06312441826 6.330484923e-39
0.1019389927 -0.3523945808 0.06626942754 6.330484923e-39
0.1218591109 -0.4245580435 -0.2068377733 6.330484923e-39
0.1945053041 -0.4583696723 -0.2734219134 6.330484923e-39
0.2468011081 -0.4202907681 -0.3426193595 6.514514648e-39
0.2245025635 -0.4244284332 -0.3172361255 6.514514648e-39
0.07060459256 -0.2986092269 0.05738506839 6.514514648e-39
-0.05846326798 -0.7858986855 0.1646656692 6.514514648e-39
0.1078334302 -0.3522100747 -0.01287576929 6.514514648e-39
0.2444567382 -0.415864408 0.05591109022 6.514514648e-39
0.1898220628 -0.413371861 -0.2715930343 6.514514648e-39
0.09988667071 -0.3579592109 0.03399921954 6.514514648e-39
0.207954824 -0.4747906327 -0.2822872996 6.698542971e-39
0.08857211471 -0.3439917266 0.06565347314 6.698542971e-39
0.05855319649 -0.3154875934 0.0397195816 6.698542971e-39
0.08422317356 -0.7266507149 -0.2877810597 6.698542971e-39
0.08052108437 -0.2792773247 0.05226166919 6.698542971e-39
0.01412521768 -0.7353833914 -0.2458146811 6.698542971e-39
0.2023083717 -0.4990295768 -0.2315860689 6.698542971e-39
0.1968055964 -0.4768594503 -0.2695956826 6.698542971e-39
0.1096423268 -0.4254001379 -0.2055405974 6.882571295e-39
-0.07174750417 -0.7855139971 0.1545683444 6.882571295e-39
0.09980855137 -0.452750206 -0.2098985612 6.882571295e-39
0.06723681837 -0.2788926363 0.04216439277 6.882571295e-39
-0.04482347518 -0.7420473099 -0.2165399492 6.882571295e-39
0.2045870423 -0.4550740719 -0.2975079715 6.882571295e-39
0.1207089648 -0.4153131545 -0.2087508887 6.882571295e-39
0.1895740777 -0.3893173933 -0.2431490272 6.882571295e-39
0.2057371885 -0.4643189907 -0.295594871 7.066599618e-39
0.04732129723 -0.309538275 0.06189251319 7.066599618e-39
-0.09040439874 -0.4643388987 -0.1226902828 7.066599618e-39
-0.1170563847 -0.7483264208 -0.1973625124 7.066599618e-39
0.2445834577 -0.4098191261 -0.3559269309 7.066599618e-39
-0.09404600412 -0.7896516323 0.179951638 7.066599618e-39
-0.1092524454 -0.4962112904 -0.09156769514 7.066599618e-39
0.09783434868 -0.3635238409 0.001728952862 7.066599618e-39
-0.1547740698 -0.7496258616 -0.2048654556 7.250627941e-39
0.04502100497 -0.2910484374 0.05806628242 7.250627941e-39
0.07643799484 -0.3528519273 0.05746931955 7.250627941e-39
0.08011621237 -0.03947962821 0.2968589664 7.250627941e-39
-0.108184956 -0.4974380136 -0.08017325401 7.250627941e-39
-0.1833939701 -0.4616460204 -0.1933712959 7.250627941e-39
0.05978966877 -0.7283348441 -0.285186708 7.250627941e-39
-0.08933690935 -0.4655656219 -0.1112958416 7.250627941e-39
0.03625472263 -0.3196252584 0.06510280073 7.434656265e-39
0.03740487248 -0.3288701773 0.06701591611 7.434656265e-39
0.1885066032 -0.3880906403 -0.2545434833 7.434656265e-39
-0.1844614446 -0.4604192376 -0.2047657371 7.434656265e-39
0.08660245687 -0.3575744927 0.02390191332 7.434656265e-39
-0.1525555551 -0.4673224688 -0.1275989264 7.434656265e-39
-0.07925516367 -0.462270081 -0.1353819221 7.434656265e-39
-0.1292722374 -0.4563934207 -0.1321063638 7.434656265e-39
-0.1856115907 -0.4511743188 -0.2066788524 7.618684588e-39
-0.1027037799 -0.4571627975 -0.111911796 7.618684588e-39
0.1195588186 -0.4060682654 -0.2106640041 7.618684588e-39
-0.0804053098 -0.4530251622 -0.1372950375 7.618684588e-39
-0.1569081694 -0.4543972611 -0.163695395 7.618684588e-39
-0.1059062481 -0.4534825087 -0.1460951567 7.618684588e-39
-0.1104852557 -0.4789482355 -0.08399947733 7.618684588e-39
-0.1181238741 -0.747099638 -0.2087569535 7.618684588e-39
-0.1360688806 -0.4713874459 -0.08331827074 7.802712912e-39
-0.1414889842 -0.4572355151 -0.1308092028 7.802712912e-39
0.09095507115 -0.3704997003 0.05999838188 7.802712912e-39
-0.1259518862 -0.7827484608 0.1027847528 7.802712912e-39
-0.1238521338 -0.4705453515 -0.08461543173 7.802712912e-39
-0.1425564736 -0.4560087323 -0.1422036439 7.802712912e-39
-0.1070348099 -0.506682992 -0.07826013118 7.802712912e-39
0.1884239465 -0.3800724745 -0.2450621426 7.802712912e-39
-0.1059071422 -0.7462576032 -0.2100541294 7.986382503e-39
-0.07827033103 -0.4554786682 -0.1145061255 7.986382503e-39
-0.08032265306 -0.4610432982 -0.1467763633 7.986382503e-39
-0.1482855976 -0.4722294807 -0.08202110231 7.986382503e-39
-0.1350013912 -0.4726141691 -0.07192382962 7.986382503e-39
-0.118479453 -0.7913358212 0.1825459599 7.986382503e-39
-0.1260697693 -0.4600737095 -0.09792298824 7.986382503e-39
-0.09369039536 -0.7454155684 -0.2113512903 7.986382503e-39
-0.0671210736 -0.4534098506 -0.1271977276 8.170410826e-39
-0.164772287 -0.4681645036 -0.1263017505 8.170410826e-39
0.03165413439 -0.2826455832 0.05745032802 8.170410826e-39
0.1176933572 -0.4901145101 -0.1921487898 8.170410826e-39
-0.1622456014 -0.4482634664 -0.2206676602 8.170410826e-39
-0.1227846444 -0.4717721343 -0.0732209906 8.170410826e-39
0.05493742973 -0.2717165649 0.05294289067 8.170410826e-39
-0.09618098289 -0.7871981263 0.1571626961 8.170410826e-39
0.02412062883 -0.3284854591 0.05691863969 8.35443915e-39
-0.1323920488 -0.4607312679 -0.1757710576 8.35443915e-39
-0.09360685945 -0.4606586099 -0.1568736434 8.35443915e-39
-0.1569090486 -0.7471723557 -0.2276543677 8.35443915e-39
-0.112785548 -0.4604583979 -0.08782571554 8.35443915e-39
-0.06810590625 -0.4602012038 -0.1480735242 8.35443915e-39
-0.1382865161 -0.4609158039 -0.0966258198 8.35443915e-39
-0.1248843893 -0.7839752436 0.1141792536 8.35443915e-39
0.03970516473 -0.3473600149 0.07084214687 8.538467473e-39
0.2101508677 -0.4228169918 -0.3387278616 8.538467473e-39
0.05386994779 -0.2704898119 0.04154844582 8.538467473e-39
0.03058664501 -0.2814188302 0.04605588689 8.538467473e-39
-0.1488787383 -0.4566662908 -0.2200517058 8.538467473e-39
-0.1005688012 -0.4596163034 -0.08912288398 8.538467473e-39
-0.1195469424 -0.7901090384 0.1711515188 8.538467473e-39
-0.06498609483 -0.4558633566 -0.1044088155 8.538467473e-39
0.0008410094306 -0.734998703 -0.2559119761 8.722137064e-39
-0.1083976999 -0.7880401611 0.1584598422 8.722137064e-39
-0.1510963738 -0.4461946487 -0.2333592623 8.722137064e-39
0.1873564571 -0.3788457513 -0.2564565837 8.722137064e-39
0.2045259923 -0.5095012784 -0.2182785273 8.722137064e-39
0.1184086651 -0.3968233168 -0.2125771195 8.722137064e-39
-0.1781391799 -0.4597616792 -0.1269177049 8.722137064e-39
0.255815357 -0.4157684445 -0.3780998886 8.722137064e-39
0.08668511361 -0.3655926585 0.01442058757 8.906165387e-39
-0.1583673507 -0.4755250812 -0.05793505162 8.906165387e-39
-0.1202588454 -0.744646132 -0.2315458655 8.906165387e-39
-0.1328664124 -0.4750677347 -0.04913488775 8.906165387e-39
0.2312992513 -0.4094344079 -0.3660241961 8.906165387e-39
0.1032589972 -0.4804849029 -0.2041592151 8.906165387e-39
-0.1579765379 -0.7459455729 -0.2390488088 8.906165387e-39
-0.1234604269 -0.4481907487 -0.201770246 8.906165387e-39
-0.05276937038 -0.4550213218 -0.1057059839 9.089834978e-39
-0.1632304341 -0.4550548196 -0.2415434569 9.089834978e-39
-0.1909490377 -0.445040524 -0.2636511326 9.089834978e-39
-0.1245279163 -0.4469639957 -0.2131646872 9.089834978e-39
-0.1457597911 -0.7451034784 -0.2403459847 9.089834978e-39
-0.09467434883 -0.4594318271 -0.1682680994 9.089834978e-39
-0.09728367627 -0.4713147879 -0.06442088634 9.089834978e-39
-0.1770716906 -0.460988462 -0.115523234 9.089834978e-39
-0.1521638632 -0.4449678659 -0.2447537333 9.273863302e-39
-0.14401564 -0.4771365523 -0.03644327819 9.273863302e-39
-0.1716515869 -0.4751403928 -0.06803233176 9.273863302e-39
-0.06391860545 -0.4570901394 -0.09301437438 9.273863302e-39
0.1854694486 -0.4004466534 -0.3076894879 9.273863302e-39
0.01091908291 -0.3361189365 0.03734003752 9.273863302e-39
-0.05055173486 -0.4654929638 -0.09239842743 9.273863302e-39
0.2113226205 -0.4945072532 -0.2670666277 9.273863302e-39
-0.1266628951 -0.4445104599 -0.2359535992 9.457532893e-39
-0.08360864967 -0.7421199083 -0.2354373634 9.457532893e-39
-0.08506695181 -0.4704726934 -0.06571804732 9.457532893e-39
0.24359864 -0.4166104794 -0.3768027127 9.457532893e-39
-0.1897988915 -0.4542854428 -0.2617380023 9.457532893e-39
0.2190824598 -0.4102764726 -0.3647270203 9.457532893e-39
-0.0713910237 -0.448502779 -0.1727755517 9.457532893e-39
-0.1100935414 -0.4565936327 -0.2011542916 9.457532893e-39
-0.07139192522 -0.7412778735 -0.2367345393 9.641561216e-39
0.2146077454 -0.506205678 -0.2423645854 9.641561216e-39
-0.1346105635 -0.7430346608 -0.2530376017 9.641561216e-39
-0.1398644596 -0.4521439075 -0.2555322349 9.641561216e-39
0.1310602874 -0.4985173941 -0.1915328503 9.641561216e-39
0.00878410507 -0.3336654007 0.01455112547 9.641561216e-39
0.02313950285 -0.7308610678 -0.2812952101 9.641561216e-39
-0.05917430669 -0.4476607144 -0.1740727127 9.641561216e-39
0.1741549075 -0.3864791989 -0.2760352194 9.825230807e-39
-0.154298842 -0.44251436 -0.2675426006 9.825230807e-39
0.09414047748 -0.4145437479 -0.2289454639 9.825230807e-39
0.06973589212 -0.03740309179 -0.1291589439 9.825230807e-39
-0.0968093276 -0.4569783211 -0.1910570264 9.825230807e-39
0.04415223747 -0.0298423022 -0.1284777522 9.825230807e-39
0.2080158889 -0.4203634262 -0.3615167737 9.825230807e-39
0.2313818932 -0.4174525738 -0.3755055666 9.825230807e-39
-0.1085155904 -0.4653654099 -0.04224789143 1.000925913e-38
-0.1908663809 -0.45305866 -0.2731324732 1.000925913e-38
-0.08399946243 -0.4716994762 -0.05432354659 1.000925913e-38
-0.08574274927 -0.4468913078 -0.1942673028 1.000925913e-38
0.2412983179 -0.3981206417 -0.3806289434 1.000925913e-38
-0.1155136451 -0.4424416423 -0.248645246 1.000925913e-38
-0.1553663313 -0.4412875772 -0.2789371014 1.000925913e-38
-0.07130836695 -0.456520915 -0.1822568774 1.000925913e-38
-0.116581127 -0.4412148595 -0.2600396872 1.019292872e-38
0.0330856666 -0.03992928565 -0.125267446 1.019292872e-38
-0.04687488824 -0.4548367858 -0.1848512143 1.019292872e-38
0.05866925418 -0.04749006033 -0.1259486675 1.019292872e-38
-0.08566009253 -0.4549095035 -0.2037486285 1.019292872e-38
-0.1010792851 -0.4520712495 -0.2366348207 1.019292872e-38
0.2191651165 -0.4182946086 -0.3742083907 1.019292872e-38
0.02207201533 -0.729634285 -0.2926896513 1.019292872e-38
0.2290816009 -0.3989627361 -0.3793317676 1.037659831e-38
-0.07352600247 -0.446049273 -0.1955644637 1.037659831e-38
-0.08787772804 -0.4444378018 -0.217056185 1.037659831e-38
0.008652191609 -0.04161342978 -0.1226731166 1.037659831e-38
-0.1908879578 -0.3906133175 -0.3428806067 1.037659831e-38
0.04437048361 -0.7254966497 -0.3180729151 1.037659831e-38
