# .PCD v0.7 - Point Cloud Data file format
VERSION 0.7
FIELDS x y z rgb
SIZE 4 4 4 4
TYPE F F F F
COUNT 1 1 1 1
WIDTH 829
HEIGHT 1
VIEWPOINT 0 0 0 1 0 0 0
POINTS 829
DATA ascii
-0.02505298331 -0.295912385 0.2715276778 8.194878899e-39
-0.04955325276 -0.2701292634 0.2740311325 8.194878899e-39
-0.113304168 -0.2546800077 0.2888925672 8.012284103e-39
-0.1532095522 -0.278529644 0.2881803215 8.012284103e-39
-0.05081523582 -0.2951389849 0.2722441554 8.012284103e-39
-0.08756567538 -0.2564642727 0.2759993672 8.012284103e-39
-0.037957903 -0.2965365946 0.259709239 7.829687907e-39
-0.1416141987 -0.3049369454 0.2738583982 7.829687907e-39
-0.07533933222 -0.2703667283 0.2625709474 7.829687907e-39
-0.07597032189 -0.282871604 0.261677444 7.829687907e-39
-0.1023636013 -0.2946030796 0.261500448 7.647093112e-39
-0.1403760165 -0.2809380889 0.2634686828 7.647093112e-39
0.1609224081 -0.04521758109 0.1655647159 7.647093112e-39
0.1867085099 -0.04498010874 0.1770249158 7.647093112e-39
0.2137565613 -0.01973288693 0.1902720928 7.464498317e-39
0.1621606052 -0.02121871151 0.1551750004 7.464498317e-39
0.1602676213 -0.05873332173 0.1524945199 7.464498317e-39
0.162136808 -0.02222959138 0.1429982334 7.464498317e-39
0.2266138941 -0.02113046683 0.1777371466 7.281903522e-39
0.2143399566 -0.009249778464 0.1668121815 7.281903522e-39
0.2014350444 -0.009873954579 0.1549937427 7.281903522e-39
0.2181021273 0.06476859003 0.1599964201 7.281903522e-39
0.2168401331 0.03975880891 0.1582094431 7.099307325e-39
0.2253518999 -0.04614021629 0.1759501696 7.099307325e-39
0.2155781537 0.01474909205 0.156422466 7.099307325e-39
0.2058281898 0.07664927095 0.1490713954 7.099307325e-39
0.2401022613 -0.01002318226 0.1660957038 6.91671253e-39
0.1885063052 -0.01150901057 0.130998522 6.91671253e-39
0.1614582241 -0.03675623238 0.1177513525 6.91671253e-39
0.2117684036 -0.06129100919 0.1388847828 6.91671253e-39
0.2246495336 -0.06167770922 0.1385265291 6.734117735e-39
-0.3112173676 -0.3489673138 0.1343919635 6.734117735e-39
-0.313134104 -0.3874928057 0.1195348054 6.734117735e-39
0.2252567261 -0.05018372089 0.1272433251 6.734117735e-39
-0.3080624044 -0.2864429653 0.1388594061 6.55152294e-39
-0.3131578863 -0.3885036707 0.1073581055 6.55152294e-39
-0.2983362675 -0.3493540287 0.1340337247 6.55152294e-39
-0.3099791706 -0.3249684572 0.1240022406 6.55152294e-39
-0.3125269115 -0.3759988248 0.108251594 6.368926744e-39
-0.309348166 -0.3124636114 0.1248957291 6.368926744e-39
-0.2886100411 -0.4122650623 0.1292080283 6.368926744e-39
0.2516500354 -0.03845226765 0.1274203211 6.368926744e-39
-0.2996220291 -0.3753746748 0.1200700402 6.186331949e-39
-0.3138127029 -0.4020194411 0.09428791702 6.186331949e-39
-0.3055384457 -0.2364234924 0.1424333602 6.186331949e-39
-0.3080861866 -0.28745386 0.1266827136 6.186331949e-39
-0.2873480618 -0.3872553408 0.1309950054 6.003737154e-39
-0.1560204923 -0.2271570712 0.3366185725 6.003737154e-39
-0.1479508132 -0.03859505057 -0.007594510913 6.003737154e-39
-0.3125507236 -0.3770096898 0.09607489407 6.003737154e-39
-0.3042764664 -0.2114137411 0.1442203373 5.820783626e-39
-0.1485818028 -0.05109990388 -0.008487999439 5.820783626e-39
-0.2860860825 -0.3622456193 0.1327819824 5.820783626e-39
-0.2945502996 -0.2743248045 0.1393946409 5.820783626e-39
-0.3061932027 -0.2499392629 0.1293631792 5.63818743e-39
-0.1357006431 -0.05148661137 -0.008846245706 5.63818743e-39
-0.1215575188 -0.02686356194 -0.00741751492 5.63818743e-39
-0.3081099987 -0.288464725 0.1145060062 5.63818743e-39
-0.1614867151 -0.05172408372 -0.02030648291 5.455592635e-39
-0.3074789941 -0.2759598494 0.1153994948 5.455592635e-39
-0.3043002486 -0.2124246359 0.1320436448 5.455592635e-39
-0.3068480194 -0.2634549737 0.1162929833 5.455592635e-39
0.2509714365 -0.05297887325 0.1021734327 5.272997839e-39
-0.3093957603 -0.3144853413 0.1005423367 5.272997839e-39
-0.2886576355 -0.4142868221 0.1048546359 5.272997839e-39
-0.134462446 -0.02748774178 -0.01923599839 5.272997839e-39
-0.3036692441 -0.1999197304 0.1329371333 5.090401643e-39
-0.2823001444 -0.2872163653 0.1381429136 5.090401643e-39
-0.2939431071 -0.2628307939 0.128111437 5.090401643e-39
-0.2757526934 -0.413662672 0.1166730821 5.090401643e-39
-0.1363554299 -0.06500234455 -0.02191646397 4.907806848e-39
-0.3106815219 -0.3405059874 0.08657865971 4.907806848e-39
-0.1560680866 -0.2291788161 0.3122651279 4.907806848e-39
-0.2816691399 -0.2747115195 0.1390364021 4.907806848e-39
-0.2725739777 -0.3501274288 0.1333172321 4.725212053e-39
-0.3100505471 -0.3280010819 0.08747214824 4.725212053e-39
-0.3125983179 -0.3790314496 0.07172144204 4.725212053e-39
-0.1591754556 -0.2896814048 0.3321511447 4.725212053e-39
-0.2719429731 -0.3376225531 0.1342107207 4.542257124e-39
-0.1579372585 -0.2656825483 0.3217613995 4.542257124e-39
-0.3011452854 -0.1499002576 0.1365110725 4.542257124e-39
-0.314515084 -0.4175569415 0.05686427653 4.542257124e-39
-0.143794179 -0.241059497 0.3231901526 4.359662329e-39
-0.306240797 -0.2519609928 0.1050097793 4.359662329e-39
-0.2764074802 -0.4271784127 0.1036029011 4.359662329e-39
-0.1105931699 -0.06577574462 -0.0226329565 4.359662329e-39
-0.3005142808 -0.1373953819 0.137404561 4.177066133e-39
-0.3056098223 -0.2394561172 0.1059032604 4.177066133e-39
-0.2990624011 -0.3659024239 0.08443343639 4.177066133e-39
-0.1216051131 -0.02888531797 -0.0317709446 4.177066133e-39
-0.2973355353 -0.07386013865 0.1540487111 3.994471337e-39
-0.2791451812 -0.2246920168 0.1426103562 3.994471337e-39
-0.3024310768 -0.1759209037 0.122547403 3.994471337e-39
-0.3075265884 -0.2779816091 0.09104610234 3.994471337e-39
-0.2901571393 -0.1878015697 0.1334723681 3.81151781e-39
-0.29270491 -0.2388319671 0.1177217141 3.81151781e-39
-0.2603238225 -0.3630190194 0.1320654899 3.81151781e-39
-0.1591992378 -0.2906922996 0.3199744225 3.81151781e-39
-0.2628715634 -0.414049387 0.1163148358 3.628921614e-39
-0.1234980971 -0.06639992446 -0.03445141017 3.628921614e-39
-0.1475325227 -0.3140669465 0.3421826065 3.628921614e-39
-0.2778832018 -0.1996822655 0.1443973333 3.628921614e-39
-0.2596928477 -0.3505141139 0.1329589784 3.446326818e-39
-0.1345100254 -0.02950949408 -0.04358942062 3.446326818e-39
-0.2855264843 -0.3527733386 0.09714537859 3.446326818e-39
-0.3088123798 -0.3040022254 0.07708236575 3.446326818e-39
-0.2764312923 -0.4281892776 0.09142620116 3.26337189e-39
-0.1492841691 -0.06663740426 -0.04591163993 3.26337189e-39
-0.2979903221 -0.08737590164 0.1409785151 3.26337189e-39
-0.2990862131 -0.3669132888 0.0722566843 3.26337189e-39
-0.2973593175 -0.07487101108 0.1418720037 3.080777095e-39
-0.2766212225 -0.174672544 0.1461843103 3.080777095e-39
-0.2882641554 -0.1502869725 0.1361528337 3.080777095e-39
-0.2999070883 -0.125901401 0.1261213571 3.080777095e-39
-0.3132768571 -0.3935580552 0.04647455737 2.898180898e-39
-0.1573538482 -0.2551994026 0.2983014584 2.898180898e-39
-0.302454859 -0.1769317687 0.110370703 2.898180898e-39
-0.1364030093 -0.0670241043 -0.0462698862 2.898180898e-39
-0.2726215422 -0.3521491885 0.1089638323 2.715227371e-39
-0.2959074378 -0.3033780754 0.08890087903 2.715227371e-39
-0.2759902179 -0.1621676385 0.1470777988 2.715227371e-39
-0.2992761135 -0.1133965328 0.1270148456 2.715227371e-39
-0.2785379589 -0.213198036 0.1313271374 2.532632576e-39
-0.3018238544 -0.164426893 0.1112641916 2.532632576e-39
-0.1592230499 -0.2917031646 0.3077976704 2.532632576e-39
-0.297824204 -0.3419035375 0.07404365391 2.532632576e-39
-0.2960973382 -0.04986129701 0.1436589807 2.349677647e-39
-0.2986451089 -0.1008916423 0.1279083341 2.349677647e-39
-0.1463181376 -0.2910789847 0.3196161985 2.349677647e-39
-0.2688117921 -0.2761090994 0.1265014559 2.349677647e-39
-0.2971932292 -0.3293986619 0.07493714243 2.167082852e-39
-0.2764550745 -0.4292001724 0.07924950123 2.167082852e-39
-0.2863712013 -0.112772353 0.1388332993 2.167082852e-39
-0.2656330466 -0.2125738561 0.143145591 2.167082852e-39
-0.2889189422 -0.1638027132 0.1230826452 1.984127923e-39
-0.3005618751 -0.1394171417 0.1130511686 1.984127923e-39
-0.1715207994 -0.2808333337 0.2846960127 1.984127923e-39
-0.2940144837 -0.2658634186 0.0915813446 1.984127923e-39
-0.3056573868 -0.2414778769 0.08154980838 1.801533128e-39
-0.3107528985 -0.3435386121 0.05004850775 1.801533128e-39
-0.2973831296 -0.07588189095 0.1296953112 1.801533128e-39
-0.3016577363 -0.4189545214 0.04432933405 1.801533128e-39
-0.1469491124 -0.3035838604 0.3187226951 1.618578199e-39
-0.2882879674 -0.1512978375 0.1239761338 1.618578199e-39
-0.3133006692 -0.3945689201 0.03429786116 1.618578199e-39
-0.144472748 -0.2555861175 0.2979432046 1.618578199e-39
-0.09712859988 -0.05567935109 -0.04645114392 1.435982003e-39
-0.296752125 -0.06337703764 0.1305887997 1.435982003e-39
-0.2992998958 -0.1144074127 0.1148381457 1.435982003e-39
-0.2927524745 -0.2408537269 0.09336832166 1.435982003e-39
-0.2819304764 -0.02422738075 0.1572644114 1.253028475e-39
-0.2844782174 -0.07525771111 0.1415137649 1.253028475e-39
-0.1451037228 -0.2680909932 0.297049731 1.253028475e-39
-0.2637400925 -0.1750592291 0.1458260566 1.253028475e-39
-0.2870259881 -0.1262880862 0.1257631183 1.070432279e-39
-0.147580117 -0.3160887063 0.3178292215 1.070432279e-39
-0.2895737588 -0.1773184836 0.1100124568 1.070432279e-39
-0.1869258881 -0.3304661214 0.2814803123 1.070432279e-39
-0.1715445817 -0.2818441987 0.2725193202 8.874787512e-40
-0.3063121736 -0.2549936473 0.06847962737 8.874787512e-40
-0.2722042799 -0.08713843673 0.1524387151 8.874787512e-40
-0.2631090879 -0.1625543535 0.1467195451 8.874787512e-40
-0.2997647822 -0.3814399242 0.0470097959 7.045238224e-40
-0.244918704 -0.3133862019 0.1352811903 7.045238224e-40
-0.2889427543 -0.1648135781 0.1109059453 7.045238224e-40
-0.1345576197 -0.03153124452 -0.06794282049 7.045238224e-40
-0.2500142157 -0.4154469371 0.1037798971 5.219290273e-40
-0.275847882 -0.4177061617 0.06796623766 5.219290273e-40
-0.2624780834 -0.1500494778 0.1476130337 5.219290273e-40
-0.2874908149 -0.3933206201 0.05793476105 5.219290273e-40
-0.2857640088 -0.1012783423 0.1275500953 3.389740985e-40
-0.2533829212 -0.2254654169 0.1418938637 3.389740985e-40
-0.3016815484 -0.4199653864 0.03215263784 3.389740985e-40
-0.2868598402 -0.3808157444 0.05882824585 3.389740985e-40
-0.299323678 -0.1154182777 0.1026614457 1.56020571e-40
-0.3126934767 -0.3830749691 0.02301464975 1.56020571e-40
-0.3152412176 -0.4341053367 0.007263938896 1.56020571e-40
-0.1463657022 -0.2931007445 0.295262754 1.56020571e-40
-0.2845019996 -0.07626859099 0.1293370724 6.490113838e-41
-0.3120624721 -0.3705701232 0.02390813455 6.490113838e-41
-0.2779545784 -0.2027148902 0.1078672335 6.490113838e-41
-0.2688593864 -0.2781308293 0.102148056 6.490113838e-41
-0.3037882149 -0.2049741149 0.07205358148 2.496469266e-40
-0.2506690025 -0.4289627075 0.09070970863 2.496469266e-40
-0.2813232541 -0.01273336634 0.1459812075 2.496469266e-40
-0.3063359559 -0.2560045123 0.05630292743 2.496469266e-40
-0.2605851293 -0.1125348732 0.1502934992 4.340353837e-40
-0.3088837564 -0.3070348501 0.04055227339 4.340353837e-40
-0.3023363352 -0.4334811568 0.01908244938 4.340353837e-40
-0.3031572402 -0.192469269 0.07294706255 4.340353837e-40
-0.250037998 -0.4164578021 0.09160319716 6.184224396e-40
-0.2806922793 -0.0002285055816 0.1468746811 6.184224396e-40
-0.1432821453 -0.2336090207 0.2632000744 6.184224396e-40
-0.2849668562 -0.3433011472 0.06150871143 6.184224396e-40
-0.09591419995 -0.03269135207 -0.06901756674 8.028094954e-40
-0.2875145972 -0.394331485 0.04575806111 8.028094954e-40
-0.285787791 -0.1022892222 0.1153733879 8.028094954e-40
-0.1106883436 -0.06981925666 -0.0713397786 8.028094954e-40
-0.2326685786 -0.3262777627 0.1340294629 9.871979525e-40
-0.2999784648 -0.1289340258 0.08959120512 9.871979525e-40
-0.2468592525 -0.3529225886 0.1082473323 9.871979525e-40
-0.09654520452 -0.04519623518 -0.06991105527 9.871979525e-40
-0.2817881107 -0.2797659039 0.07815285027 1.171585008e-39
-0.1580562294 -0.2707369328 0.2608778775 1.171585008e-39
-0.3050739765 -0.230994761 0.05808990449 1.171585008e-39
-0.2959788144 -0.3064107001 0.05237072706 1.171585008e-39
-0.2635977268 -0.4305977523 0.06671450287 1.355972064e-39
-0.2851568162 -0.08978436142 0.1162668765 1.355972064e-39
-0.310169518 -0.3330554664 0.02658860385 1.355972064e-39
-0.2967997193 -0.06539878994 0.1062353998 1.355972064e-39
-0.2320375741 -0.3137729168 0.1349229515 1.540360521e-39
-0.2229423821 -0.3891888261 0.1292037666 1.540360521e-39
-0.301895231 -0.1674595177 0.0747340396 1.540360521e-39
-0.2677873373 0.0003956668079 0.1586931348 1.540360521e-39
-0.3044430017 -0.2184898853 0.05898338929 1.724747577e-39
-0.2586921453 -0.07502025366 0.1529739648 1.724747577e-39
-0.2629667521 -0.4180928767 0.0676079914 1.724747577e-39
-0.2746096849 -0.3937073052 0.05757651106 1.724747577e-39
-0.1616294682 -0.05778934807 -0.09336671978 1.909134633e-39
-0.2779783607 -0.2037257552 0.09569053352 1.909134633e-39
-0.2896213233 -0.1793402135 0.08565900475 1.909134633e-39
-0.1622604579 -0.07029420882 -0.09426020831 1.909134633e-39
-0.108819142 -0.03331552446 -0.08083603531 2.09352309e-39
-0.1562108397 -0.2352440804 0.2392048687 2.09352309e-39
-0.2739787102 -0.3812024593 0.05846999958 2.09352309e-39
-0.2747996151 -0.1401905417 0.1123346761 2.09352309e-39
-0.2980855107 -0.09141940624 0.0922716707 2.277910146e-39
-0.3140030503 -0.4101064801 -0.003125782125 2.277910146e-39
-0.2807160616 -0.001239381731 0.1346979886 2.277910146e-39
-0.2733477056 -0.3686975837 0.05936348811 2.277910146e-39
-0.2832638323 -0.05226974934 0.118947342 2.462297202e-39
-0.2559782565 -0.2785175443 0.1017898098 2.462297202e-39
-0.09656898677 -0.04620711505 -0.08208777755 2.462297202e-39
-0.2567991614 -0.03750564158 0.1556544304 2.462297202e-39
-0.2386087775 -0.1883375049 0.1442160755 2.646685659e-39
-0.2960026264 -0.3074215651 0.04019402713 2.646685659e-39
-0.1439369321 -0.2471247613 0.2501298487 2.646685659e-39
-0.2618946731 -0.1395663619 0.1241531298 2.646685659e-39
-0.2968235016 -0.06640966982 0.0940586403 2.830713982e-39
-0.2204183936 -0.3391693532 0.1327777207 2.830713982e-39
-0.142698735 -0.2231258899 0.2397401184 2.830713982e-39
-0.2811809182 -0.2682718933 0.06686964631 2.830713982e-39
-0.1599491835 -0.3082515299 0.258197397 3.015101038e-39
-0.1610222757 -0.04629536718 -0.1046499684 3.015101038e-39
-0.304466784 -0.2195007503 0.04680669308 3.015101038e-39
-0.282001853 -0.02726000547 0.1207343116 3.015101038e-39
-0.3070145547 -0.2705311179 0.03105604276 3.199488094e-39
-0.2288826108 -0.2512485683 0.1393903792 3.199488094e-39
-0.2521685064 -0.2024774253 0.1193274409 3.199488094e-39
-0.3095622957 -0.3215614855 0.01530533377 3.199488094e-39
-0.3121100664 -0.3725918829 -0.0004453184083 3.383517819e-39
-0.2780021429 -0.20473665 0.08351378143 3.383517819e-39
-0.2689069808 -0.2801525891 0.077794604 3.383517819e-39
-0.2805499136 -0.2557670474 0.06776312739 3.383517819e-39
-0.147510156 -0.03417717665 -0.1041147187 3.567904875e-39
-0.2598117888 -0.3555684984 0.07207542658 3.567904875e-39
-0.3063835502 -0.2580262721 0.03194953129 3.567904875e-39
-0.228251636 -0.2387436926 0.1402838677 3.567904875e-39
-0.2765502334 -0.4332436621 0.03054265305 3.75229193e-39
-0.1224726215 -0.3303778768 0.3040424883 3.75229193e-39
-0.2242519259 -0.4162203372 0.1030633971 3.75229193e-39
-0.1593419909 -0.296757549 0.2469141334 3.75229193e-39
-0.2708237469 -0.318678081 0.06293744594 3.936320254e-39
-0.2941096425 -0.2699069083 0.0428744927 3.936320254e-39
-0.1107359231 -0.07184100896 -0.09569320828 3.936320254e-39
-0.1464370787 -0.2961333692 0.2587326467 3.936320254e-39
-0.2949305475 -0.02889506519 0.09673910588 4.120708711e-39
-0.3000260592 -0.1309557855 0.06523780525 4.120708711e-39
-0.3025738299 -0.1819861531 0.04948715493 4.120708711e-39
-0.2934786379 -0.2574020624 0.04376798123 4.120708711e-39
-0.2710136473 -0.06516131014 0.1176956072 4.304737034e-39
-0.1599729955 -0.3092623949 0.2460206449 4.304737034e-39
-0.2894789577 -0.4348787367 0.0065474445 4.304737034e-39
-0.2786569297 -0.2182524204 0.07044359297 4.304737034e-39
-0.2902998924 -0.1938668489 0.06041212007 4.48912409e-39
-0.3153125942 -0.4371379614 -0.02926615626 4.48912409e-39
-0.2604665756 -0.3690842986 0.05900524184 4.48912409e-39
-0.3044905961 -0.2205116451 0.03462999314 4.48912409e-39
-0.2263586521 -0.2012290657 0.1429643333 4.673152414e-39
-0.2837524414 -0.3203131258 0.03894229233 4.673152414e-39
-0.3070383668 -0.2715419829 0.01887928694 4.673152414e-39
-0.2936685681 -0.003885313869 0.09852608293 4.673152414e-39
-0.1610460728 -0.0473062396 -0.1168266609 4.857539469e-39
-0.2962163091 -0.05491568148 0.08277543634 4.857539469e-39
-0.1354013383 -0.3320129216 0.2800473273 4.857539469e-39
-0.1433535218 -0.2366416603 0.2266699225 4.857539469e-39
-0.1616770625 -0.05981110036 -0.1177201495 5.041567793e-39
-0.1236408502 -0.0724651888 -0.1075116768 5.041567793e-39
-0.268930763 -0.2811634839 0.06561790407 5.041567793e-39
-0.2922166586 -0.2323923111 0.04555495828 5.041567793e-39
-0.2598356009 -0.3565793931 0.05989873037 5.225597518e-39
-0.2581087351 -0.0645371452 0.1295140535 5.225597518e-39
-0.2490135431 -0.139953047 0.1237948835 5.225597518e-39
-0.2930375636 0.008619543165 0.09941957146 5.225597518e-39
-0.3064073622 -0.259037137 0.01977277547 5.409984573e-39
-0.2955853343 -0.04241079837 0.08366892487 5.409984573e-39
-0.308955133 -0.3100675046 0.004022122361 5.409984573e-39
-0.2765740454 -0.4342545569 0.01836595312 5.409984573e-39
-0.2748471797 -0.1422122717 0.08798122406 5.594012897e-39
-0.2773949504 -0.1932426691 0.07223057002 5.594012897e-39
-0.2432870567 -0.02538748085 0.1561896652 5.594012897e-39
-0.300680846 -0.1444715261 0.05216762051 5.594012897e-39
-0.3140506148 -0.4121282101 -0.0274791792 5.77804122e-39
-0.2341918349 -0.1008033976 0.1504704952 5.77804122e-39
-0.3032286167 -0.1955018938 0.03641697019 5.77804122e-39
-0.3057763577 -0.2465322614 0.02066626213 5.77804122e-39
-0.2975020707 -0.08093627542 0.06881175935 5.962428276e-39
-0.3108718693 -0.3485929966 -0.01083503943 5.962428276e-39
-0.2560258508 -0.280539304 0.07743635774 5.962428276e-39
-0.3000498414 -0.1319666505 0.05306110904 5.962428276e-39
-0.2585735917 -0.3315696418 0.06168570742 6.1464566e-39
-0.09787856042 -0.07323859632 -0.1082281694 6.1464566e-39
-0.1599967778 -0.3102732897 0.2338439375 6.1464566e-39
-0.2710374296 -0.06617219001 0.1055189073 6.1464566e-39
-0.2636691034 -0.4336303771 0.03018440679 6.330484923e-39
-0.2619422674 -0.1415880919 0.09979972988 6.330484923e-39
-0.1365457773 -0.07308936119 -0.1193301305 6.330484923e-39
-0.2528470755 -0.2170040607 0.09408055246 6.330484923e-39
-0.1427462995 -0.2251476496 0.2153867185 6.514514648e-39
-0.2579426169 -0.319064796 0.06257919222 6.514514648e-39
-0.307062149 -0.2725528777 0.006702589802 6.514514648e-39
-0.2147394717 -0.2266255021 0.1408191174 6.514514648e-39
-0.1446155012 -0.2616513669 0.2248829603 6.698542971e-39
-0.2263824344 -0.2022399306 0.1307876408 6.698542971e-39
-0.2630381286 -0.4211255014 0.03107789531 6.698542971e-39
-0.2172872424 -0.2776558995 0.1250684708 6.698542971e-39
-0.2987878621 -0.1069569066 0.05484808609 6.882571295e-39
-0.3013356328 -0.1579872668 0.03909743577 6.882571295e-39
-0.1236646473 -0.07347606122 -0.1196883842 6.882571295e-39
-0.2431208789 -0.2799151242 0.08925486356 6.882571295e-39
-0.2930613756 0.007608667016 0.08724287152 7.066599618e-39
-0.3007046282 -0.1454823911 0.0399909243 7.066599618e-39
-0.303252399 -0.1965127885 0.02424021438 7.066599618e-39
-0.3058001399 -0.2475431561 0.008489564061 7.066599618e-39
-0.2831452489 -0.308819145 0.02765908092 7.250627941e-39
-0.3128124475 -0.3881293535 -0.03786892816 7.250627941e-39
-0.2490373552 -0.1409639418 0.1116181836 7.250627941e-39
-0.2943471372 -0.01841192693 0.07327920198 7.250627941e-39
-0.3070859313 -0.2735637426 -0.005474108271 7.434656265e-39
-0.3096336722 -0.3245941103 -0.02122475952 7.434656265e-39
-0.2988116741 -0.1079677716 0.04267138615 7.434656265e-39
-0.2242995203 -0.4182420969 0.07871000469 7.434656265e-39
-0.3115504682 -0.3631196022 -0.03608195111 7.618684588e-39
-0.3140982091 -0.4141499698 -0.05183260143 7.618684588e-39
-0.1494507194 -0.07371354103 -0.1311485767 7.618684588e-39
-0.2134774923 -0.2016157806 0.1426060945 7.618684588e-39
-0.2981806695 -0.09546291083 0.04356487468 7.802712912e-39
-0.2941572368 -0.271928668 0.01852104068 7.802712912e-39
-0.3109194636 -0.3506147563 -0.03518846631 7.802712912e-39
-0.2850620151 -0.3473446369 0.01280186232 7.802712912e-39
-0.2967049778 -0.3229590654 0.00277038943 7.986382503e-39
-0.2742399871 -0.1307182908 0.07669801265 7.986382503e-39
-0.3051929474 -0.2360491455 -0.002793644555 7.986382503e-39
-0.3153839707 -0.4401706159 -0.06579630822 7.986382503e-39
-0.2310368717 -0.03827904165 0.1549379379 8.170410826e-39
-0.2930851579 0.006597790867 0.07506617904 8.170410826e-39
-0.256049633 -0.2815501988 0.0652596578 8.170410826e-39
-0.2543227971 0.01049207151 0.1348749846 8.170410826e-39
-0.2219417095 -0.1136949882 0.149218753 8.35443915e-39
-0.1217954457 -0.03697232902 -0.1291846037 8.35443915e-39
-0.295001924 -0.03192768991 0.06020901352 8.35443915e-39
-0.314752996 -0.4276657104 -0.06490281969 8.35443915e-39
-0.2361323833 -0.140339762 0.1234366298 8.538467473e-39
-0.1365695596 -0.07410024107 -0.1315068305 8.538467473e-39
-0.2801564634 0.008232843131 0.09906132519 8.538467473e-39
-0.2969186902 -0.07045317441 0.04535185173 8.538467473e-39
-0.3013831973 -0.1600090265 0.01474398095 8.722137064e-39
-0.2852519751 -0.09382786602 0.06756002456 8.722137064e-39
-0.2463234365 -0.3444612324 0.0604339689 8.722137064e-39
-0.212215513 -0.1766060293 0.1443930715 8.722137064e-39
-0.2721571028 -0.3467204571 0.0246203728 8.906165387e-39
-0.1236884296 -0.0744869411 -0.1318650842 8.906165387e-39
-0.2729780078 -0.1057085469 0.0784849897 8.906165387e-39
-0.3096812665 -0.32661587 -0.04557818547 8.906165387e-39
-0.3024552763 -0.4385355413 -0.04180112854 9.089834978e-39
-0.243144691 -0.2809259892 0.07707811147 9.089834978e-39
-0.241417855 0.01111624762 0.1466934383 9.089834978e-39
-0.2839899659 -0.06881812215 0.06934700161 9.089834978e-39
-0.306502521 -0.2630806565 -0.02893404663 9.273863302e-39
-0.2115845084 -0.1641011536 0.1452865601 9.273863302e-39
-0.2232274711 -0.1397155821 0.1352550834 9.273863302e-39
-0.3058715165 -0.2505757809 -0.02804056183 9.273863302e-39
-0.1108072996 -0.07487364113 -0.1322233379 9.457532893e-39
-0.2852757573 -0.09483874589 0.05538332835 9.457532893e-39
-0.2291439176 -0.0007644370198 0.1576184034 9.457532893e-39
-0.3005623221 -0.4010209143 -0.03912066296 9.457532893e-39
-0.2541566491 -0.2440355718 0.06794012338 9.641561216e-39
-0.2846447527 -0.08233385533 0.05627681687 9.641561216e-39
-0.2891092896 -0.1718897223 0.02566894516 9.641561216e-39
-0.2942048311 -0.2739504278 -0.005832356401 9.641561216e-39
-0.2734428942 -0.3727410734 0.010656639 9.825230807e-39
-0.2967525721 -0.3249807954 -0.02158300579 9.825230807e-39
-0.2717160285 -0.08069881052 0.08027196676 9.825230807e-39
-0.3007760048 -0.1485150158 0.003460772336 9.825230807e-39
-0.2535256743 -0.2315306962 0.06883361191 1.000925913e-38
-0.2543465793 0.00948119536 0.1226982847 1.000925913e-38
-0.2353352904 -0.3823625445 0.05739525706 1.000925913e-38
-0.2963114977 -0.05895919353 0.03406858444 1.000925913e-38
-0.3065263033 -0.2640915215 -0.04111074656 1.019292872e-38
-0.2710850239 -0.06819394231 0.08116544783 1.019292872e-38
-0.2897640765 -0.1854054928 0.01259875763 1.019292872e-38
-0.1225677803 -0.3344213963 0.2553356886 1.019292872e-38
-0.2948596179 -0.2874661982 -0.01890254393 1.037659831e-38
-0.2974073589 -0.3384965658 -0.03465322405 1.037659831e-38
-0.2967763543 -0.3259916902 -0.03375973552 1.037659831e-38
-0.1096628681 -0.3337971866 0.2671541274 1.037659831e-38
-0.2937637269 -0.007928818464 0.04981929436 1.056062664e-38
-0.09731894732 -0.06376636028 -0.1438648105 1.056062664e-38
-0.3012408912 -0.4155475497 -0.06436757743 1.056062664e-38
-0.2704540491 -0.055689089 0.08205893636 1.056062664e-38
-0.3078120947 -0.2901121378 -0.05507445335 1.074429623e-38
-0.2173348367 -0.2796776295 0.100715071 1.074429623e-38
-0.2613588572 -0.1311050057 0.07633976638 1.074429623e-38
-0.2995140254 -0.1235053018 0.00524774706 1.074429623e-38
-0.292966634 -0.249951601 -0.01622207835 1.092796582e-38
-0.2857406139 -0.3618712425 -0.01244502049 1.092796582e-38
-0.1108310968 -0.07588451356 -0.1444000602 1.092796582e-38
-0.3014307916 -0.1620307863 -0.009609415196 1.092796582e-38
-0.2181557715 -0.03866574168 0.1545796841 1.111163541e-38
-0.2414416671 0.01010537148 0.1345167458 1.111163541e-38
-0.2825618386 -0.2983360291 0.004199118353 1.111163541e-38
-0.2141560614 -0.216142416 0.1173592061 1.111163541e-38
-0.2715499103 -0.3352264464 0.01333710458 1.1295305e-38
-0.2993479371 -0.3780329525 -0.06168711185 1.1295305e-38
-0.2793830931 -0.2348007858 0.02084325626 1.1295305e-38
-0.2762043476 -0.1712655425 0.03748745471 1.1295305e-38
-0.2942523956 -0.2759721875 -0.03018578142 1.147897319e-38
-0.208429575 -0.1015767977 0.1497540027 1.147897319e-38
-0.275573343 -0.1587606668 0.03838093951 1.147897319e-38
-0.2359900773 -0.3958782852 0.04432507604 1.147897319e-38
-0.2857643962 -0.3628821075 -0.02462171763 1.166264278e-38
-0.2963352799 -0.0599700734 0.02189188637 1.166264278e-38
-0.2730256021 -0.1077303067 0.05413158983 1.166264278e-38
-0.2936213911 -0.2634673417 -0.02929229289 1.166264278e-38
-0.2419064939 -0.2569271326 0.06668838859 1.184631237e-38
-0.2685610652 -0.01817444712 0.08473940194 1.184631237e-38
-0.286419183 -0.3763979077 -0.0376919359 1.184631237e-38
-0.3033713698 -0.2015671432 -0.03664330393 1.184631237e-38
-0.2968239486 -0.3280134499 -0.05811315775 1.202998196e-38
-0.1477942467 -0.3251865804 0.2082388103 1.202998196e-38
-0.305288136 -0.240092665 -0.05150049925 1.202998196e-38
-0.2870739698 -0.3899136186 -0.05076212063 1.202998196e-38
-0.2406445146 -0.2319173813 0.06847536564 1.221365155e-38
-0.3008235991 -0.1505367756 -0.02089265361 1.221365155e-38
-0.269215852 -0.03169021755 0.07166922092 1.221365155e-38
-0.2323702276 -0.06632141769 0.116620861 1.221365155e-38
-0.294442296 -0.02245543897 0.02457235195 1.239732115e-38
-0.2232750654 -0.1417373419 0.110901691 1.239732115e-38
-0.248287797 -0.3850084841 0.02122341469 1.239732115e-38
-0.2141798735 -0.217153281 0.1051825136 1.239732115e-38
-0.2877287567 -0.403429389 -0.06383233517 1.258099074e-38
0.1744469702 -0.04687733948 -0.1496010125 1.258099074e-38
-0.3021093607 -0.1765573919 -0.03485632688 1.258099074e-38
-0.2955619693 -0.3030036986 -0.0563261807 1.258099074e-38
-0.2665019631 -0.2351874709 0.02048501 1.276466033e-38
-0.2639542222 -0.1841571331 0.03623571619 1.276466033e-38
-0.2891806662 -0.1749223471 -0.01086114813 1.276466033e-38
-0.2575729191 -0.05607578903 0.08170069009 1.276466033e-38
0.1731849909 -0.07188708335 -0.1513879895 1.294832852e-38
0.2008402199 -0.03514587879 -0.1494240165 1.294832852e-38
-0.3014783859 -0.164052546 -0.03396284208 1.294832852e-38
0.159041822 -0.09651013464 -0.1528167427 1.294832852e-38
0.1866970956 -0.05976893008 -0.1508527696 1.313163938e-38
-0.2728832662 -0.3632688224 -0.0249799639 1.313163938e-38
-0.2633232176 -0.1716522276 0.03712920845 1.313163938e-38
0.2002092302 -0.04765073955 -0.1503175199 1.313163938e-38
-0.1097104475 -0.3358189464 0.2428006828 1.331530897e-38
-0.2586687803 -0.3356131315 0.01297885831 1.331530897e-38
-0.2362037599 -0.1433723867 0.08690647781 1.331530897e-38
-0.2478467524 -0.1189868376 0.07687500119 1.331530897e-38
0.1719230115 -0.09689683467 -0.1531749666 1.349897856e-38
-0.2271085978 -0.2187883258 0.08118730038 1.349897856e-38
0.1995782256 -0.06015563011 -0.1512109935 1.349897856e-38
-0.2387515306 -0.1944027543 0.07115583122 1.349897856e-38
-0.263764292 -0.4376738966 -0.01852244511 1.368228942e-38
0.1577798277 -0.1215198785 -0.1546037197 1.368228942e-38
-0.2942999899 -0.2779939473 -0.05453921109 1.368228942e-38
-0.2205611467 -0.3452346325 0.05971747637 1.368228942e-38
0.1989472359 -0.07266049087 -0.152104497 1.386595901e-38
-0.2580377758 -0.3231082857 0.01387234498 1.386595901e-38
-0.2963828743 -0.06199181825 -0.002461509779 1.386595901e-38
0.1706610173 -0.1219065934 -0.1549619436 1.386595901e-38
-0.2563109398 -0.03106603771 0.08348766714 1.404926846e-38
-0.2665257454 -0.2361983657 0.008308311924 1.404926846e-38
0.1841731369 -0.1097883955 -0.1544267237 1.404926846e-38
-0.2381205559 -0.1818979084 0.07204931974 1.404926846e-38
-0.2599545419 -0.3616337776 -0.000984816812 1.423293806e-38
-0.219930172 -0.3327297568 0.06061096489 1.423293806e-38
-0.2938351035 -0.01096145064 0.01328914147 1.423293806e-38
-0.2872877121 -0.1374077499 -0.00818068441 1.423293806e-38
-0.2567757964 -0.2980985343 0.0156593211 1.441624891e-38
-0.2957518697 -0.04948693514 -0.001568020321 1.441624891e-38
-0.2366686463 -0.4104049206 0.01907819137 1.441624891e-38
0.174423188 -0.04788821936 -0.1617777348 1.441624891e-38
-0.2892044485 -0.1759332418 -0.02303787693 1.459991851e-38
-0.2323940098 -0.06733229756 0.1044441611 1.459991851e-38
-0.2976686358 -0.08801241964 -0.01642521098 1.459991851e-38
-0.2374895513 -0.169393003 0.07294280827 1.459991851e-38
0.2382216603 -0.06131573766 -0.1522857547 1.478322936e-38
0.1879352927 -0.03577005863 -0.161242485 1.478322936e-38
-0.2510492802 -0.1835329533 0.04805416986 1.478322936e-38
-0.2637880743 -0.4386847615 -0.03069914132 1.478322936e-38
0.1737921834 -0.06039310247 -0.1626712084 1.496689755e-38
0.1546248794 -0.1840442419 -0.1590711474 1.496689755e-38
0.1596490145 -0.08501612395 -0.1640999317 1.496689755e-38
0.1957922876 -0.1351848543 -0.1565719247 1.496689755e-38
-0.2550489604 -0.006056293845 0.0852746442 1.515020841e-38
-0.259978354 -0.3626446426 -0.01316151489 1.515020841e-38
0.2093044072 -0.1230666935 -0.1560367048 1.515020841e-38
0.2369596809 -0.08632545173 -0.1540727317 1.515020841e-38
0.1866733134 -0.0607798025 -0.1630294621 1.533351927e-38
0.2646149397 -0.04958424717 -0.1521087587 1.533351927e-38
0.195161283 -0.147689715 -0.1574654281 1.533351927e-38
-0.2821921706 -0.03534702957 0.02332061529 1.533351927e-38
-0.2567995787 -0.2991094291 0.003482623957 1.551683013e-38
-0.2523350716 -0.2095535696 0.0340904966 1.551683013e-38
-0.3008711934 -0.1525585353 -0.04524607956 1.551683013e-38
-0.2841089368 -0.07387250662 0.008463453501 1.551683013e-38
0.1668750644 -0.1969358027 -0.1603228748 1.570049832e-38
0.2639839053 -0.06208913773 -0.1530022323 1.570049832e-38
0.2136975527 -0.0365434587 -0.1619589627 1.570049832e-38
-0.2692634463 -0.03371196985 0.04731582105 1.570049832e-38
0.180387184 -0.184817642 -0.1597876549 1.588380918e-38
-0.2748476267 -0.4038160741 -0.06419058144 1.588380918e-38
-0.256334722 -0.03207691759 0.07131097466 1.588380918e-38
0.1797561944 -0.1973225027 -0.1606811285 1.588380918e-38
-0.2815611959 -0.02284213901 0.02421410568 1.606712004e-38
0.1571250558 -0.1350356191 -0.1676738858 1.606712004e-38
-0.2750137448 -0.1492884159 0.002744277939 1.606712004e-38
0.1847803295 -0.09829441458 -0.1657099128 1.606712004e-38
0.2124355584 -0.06155321002 -0.1637459397 1.625043089e-38
-0.283477962 -0.06136764586 0.009356941096 1.625043089e-38
0.2774960399 -0.04997094721 -0.1524670124 1.625043089e-38
0.193268314 -0.185204342 -0.1601458788 1.625043089e-38
0.1706372201 -0.1229174584 -0.1671386659 1.643374035e-38
0.225947693 -0.04943501949 -0.1632107198 1.643374035e-38
0.2067804337 -0.1730861664 -0.1596106589 1.643374035e-38
0.1841493547 -0.1107992753 -0.1666034162 1.643374035e-38
-0.2938589156 -0.01197232679 0.001112443395 1.661705121e-38
0.2620909512 -0.09960374236 -0.1556827128 1.661705121e-38
-0.2807640433 -0.2648649216 -0.0418272391 1.661705121e-38
-0.2464185953 -0.3485047221 0.01172712166 1.661705121e-38
-0.2826808095 -0.3033904135 -0.05668443441 1.680036207e-38
-0.2659185529 -0.2247043848 -0.002974898554 1.680036207e-38
-0.2809301913 -0.01033727452 0.02510759234 1.680036207e-38
0.1835183501 -0.1233041584 -0.1674968898 1.680036207e-38
0.2111735791 -0.08656293154 -0.1655329168 1.698367293e-38
-0.2510730922 -0.1845438182 0.03587746993 1.698367293e-38
-0.2595372796 -0.09662302583 0.04249013588 1.698367293e-38
0.2246856987 -0.07444477081 -0.1649976969 1.698367293e-38
-0.2697520852 -0.3017553389 -0.03268925101 1.716698239e-38
0.2897461653 -0.0628625378 -0.1537187397 1.716698239e-38
-0.2432398498 -0.2849695086 0.02837131917 1.716698239e-38
-0.2446917892 -0.05646248907 0.08134244382 1.716698239e-38
0.219030574 -0.185977757 -0.1608623862 1.735029324e-38
-0.2801330388 -0.2523600459 -0.0409337543 1.735029324e-38
-0.2341446877 -0.3603854179 0.02265214175 1.735029324e-38
-0.2250494659 -0.4358013868 0.01693296432 1.735029324e-38
0.1822563708 -0.14831388 -0.1692838669 1.75336041e-38
0.2878532112 -0.1003771424 -0.1563991904 1.75336041e-38
-0.2905140519 -0.2029647231 -0.04917827994 1.75336041e-38
-0.214227438 -0.2191750407 0.08082905412 1.75336041e-38
0.2183995843 -0.1984826028 -0.1617558599 1.771655483e-38
-0.2822159827 -0.03635790199 0.01114391815 1.771655483e-38
0.2737101018 -0.1250001937 -0.1578279436 1.771655483e-38
0.2234237194 -0.09945451468 -0.1667846739 1.771655483e-38
0.204256475 -0.2231056541 -0.163184613 1.789986569e-38
0.2510789931 -0.06271331012 -0.1648207009 1.789986569e-38
-0.2284181714 -0.2458198369 0.05504693091 1.789986569e-38
0.2369358838 -0.08733633161 -0.1662494242 1.789986569e-38
-0.2608230412 -0.122643657 0.02852640301 1.808317654e-38
0.3019963503 -0.07575409859 -0.1549704671 1.808317654e-38
0.2454238683 -0.1742462665 -0.1606853902 1.808317654e-38
0.1951375008 -0.14870058 -0.1696421206 1.808317654e-38
0.1533391029 -0.2100648284 -0.173034817 1.826612727e-38
-0.2729546428 -0.366301477 -0.06151011586 1.826612727e-38
0.231280759 -0.1988693178 -0.1621141136 1.826612727e-38
0.1901133657 -0.2477287054 -0.1646133363 1.826612727e-38
0.2086496204 -0.1365824193 -0.1691068709 1.844943813e-38
-0.2244184911 -0.4232964814 0.01782645658 1.844943813e-38
0.1668512821 -0.1979466677 -0.1724995673 1.844943813e-38
-0.2413468659 -0.2474549115 0.03105178103 1.844943813e-38
0.2447928786 -0.186751157 -0.1615788639 1.863274899e-38
-0.2563585043 -0.03308779001 0.059134271 1.863274899e-38
0.2724481225 -0.1500099152 -0.1596149206 1.863274899e-38
-0.2498110831 -0.1595340669 0.03766444698 1.863274899e-38
-0.2983472347 -0.102539055 -0.04167212546 1.881569971e-38
-0.2750375271 -0.1502993107 -0.009432419203 1.881569971e-38
-0.2582752705 -0.07161328197 0.04427710921 1.881569971e-38
-0.2601920664 -0.1101387665 0.02941989154 1.881569971e-38
0.2306497693 -0.2113741636 -0.163007617 1.899901057e-38
0.1520771086 -0.2350745797 -0.174821794 1.899901057e-38
0.2491860241 -0.1002279222 -0.1675011516 1.899901057e-38
0.276841253 -0.06348671764 -0.1655371785 1.899901057e-38
0.2073876262 -0.1615921706 -0.1708938479 1.91819627e-38
0.1655893028 -0.222956419 -0.1742865443 1.91819627e-38
0.3129845262 -0.1136554107 -0.1580091715 1.91819627e-38
-0.2343345881 -0.1068686619 0.07741024345 1.91819627e-38
-0.2407158911 -0.234950006 0.03194527328 1.936527215e-38
0.2208997607 -0.1494739801 -0.170358628 1.936527215e-38
0.2988414168 -0.1382784545 -0.1594379246 1.936527215e-38
-0.2491801083 -0.1470291913 0.03855793551 1.936527215e-38
0.2762102485 -0.0759915784 -0.1664306819 1.954822428e-38
-0.2977162302 -0.09003416449 -0.04077863693 1.954822428e-38
-0.2613117099 -0.3906870186 -0.05147861689 1.954822428e-38
0.2202687562 -0.1619788706 -0.1712521017 1.954822428e-38
0.2479240447 -0.1252376735 -0.1692881286 1.973153514e-38
0.2755792737 -0.08849643171 -0.1673241556 1.973153514e-38
0.2061256468 -0.186601907 -0.172680825 1.973153514e-38
-0.2716926634 -0.3412917256 -0.05972314626 1.973153514e-38
0.2982104421 -0.1507833153 -0.1603313982 1.991448586e-38
0.2029944807 -0.2481153905 -0.16497159 1.991448586e-38
-0.2231565118 -0.3982867301 0.0196134299 1.991448586e-38
-0.2347994745 -0.3739011884 0.009581898339 1.991448586e-38
0.2331499308 -0.1623655707 -0.1716103554 2.009743799e-38
0.2165066153 -0.2359972149 -0.1644363403 2.009743799e-38
-0.2803229988 0.001156706363 0.01382438187 2.009743799e-38
0.1913515478 -0.2237298191 -0.1750030518 2.009743799e-38
0.2884604037 -0.08888313174 -0.1676824093 2.028074885e-38
-0.2148822248 -0.2326907814 0.06775887311 2.028074885e-38
0.2325189412 -0.1748704314 -0.172503829 2.028074885e-38
-0.2625974715 -0.4167076647 -0.06544231623 2.028074885e-38
0.2183757871 -0.1994934678 -0.1739325821 2.046369957e-38
-0.2239774466 -0.1572748423 0.07347805053 2.046369957e-38
-0.2627635896 -0.1621800065 0.001492542215 2.046369957e-38
0.2736862898 -0.1260110736 -0.170004636 2.046369957e-38
0.2318879515 -0.187375322 -0.1733973324 2.06466517e-38
-0.2544655502 0.00442681089 0.06181473657 2.06466517e-38
-0.2309897244 -0.2978610694 0.02711958438 2.06466517e-38
0.2595431805 -0.1506340802 -0.1714333594 2.06466517e-38
-0.2563823164 -0.03409866989 0.04695757478 2.082996116e-38
0.3007105887 -0.1017747298 -0.1689341366 2.082996116e-38
-0.21425125 -0.2201859355 0.06865236163 2.082996116e-38
0.2312569618 -0.1998801827 -0.1742908061 2.082996116e-38
0.1489221603 -0.2975989282 -0.1792892516 2.101291328e-38
0.3271276355 -0.08903235942 -0.1565804482 2.101291328e-38
-0.2769781053 -0.1898356974 -0.03646631166 2.101291328e-38
0.3142226934 -0.08965653926 -0.1683989167 2.101291328e-38
-0.2704306841 -0.3162820041 -0.05793616921 2.119586541e-38
0.2023634911 -0.2606202662 -0.1658650637 2.119586541e-38
-0.2193467617 -0.3222466409 0.03715105727 2.119586541e-38
-0.2303587496 -0.2853562236 0.02801307291 2.119586541e-38
-0.2348232567 -0.3749120831 -0.002594799735 2.137881613e-38
0.3110915422 -0.1511700153 -0.160689652 2.137881613e-38
0.2158756107 -0.2485021055 -0.165329814 2.137881613e-38
-0.2873590887 -0.1404403746 -0.0447108373 2.137881613e-38
0.3135917187 -0.1021614298 -0.1692923903 2.156176826e-38
-0.2575019598 -0.3146469295 -0.03394098952 2.156176826e-38
-0.2407396734 -0.235960871 0.01976851746 2.156176826e-38
-0.259418726 -0.3531724215 -0.04879815131 2.156176826e-38
-0.2157031894 0.008321095258 0.1216235459 2.174471899e-38
0.2428999096 -0.2242657542 -0.1642593443 2.174471899e-38
-0.2678829134 -0.2652516067 -0.04218548536 2.174471899e-38
0.2029706836 -0.2491262853 -0.1771482825 2.174471899e-38
-0.2613354921 -0.3916979134 -0.06365533918 2.192767111e-38
0.3393777609 -0.10192395 -0.1578321755 2.192767111e-38
-0.2595848441 -0.09864478558 0.01813668013 2.192767111e-38
0.2711623311 -0.1760305315 -0.1735785902 2.192767111e-38
-0.2530374229 -0.2250910699 -0.003333145753 2.211062324e-38
0.1476839632 -0.3215978146 -0.1688995063 2.211062324e-38
-0.2932755053 -0.001489225775 -0.02234749496 2.211062324e-38
-0.2212635279 -0.3607721329 0.02229389548 2.211062324e-38
-0.2867280841 -0.127935499 -0.0438173525 2.229357396e-38
0.2299949825 -0.2248899192 -0.1760777831 2.229357396e-38
0.1882203817 -0.2852433026 -0.167293787 2.229357396e-38
-0.2227154672 -0.1322650909 0.07526502013 2.229357396e-38
-0.2587877214 -0.340667516 -0.04790466279 2.247652609e-38
0.3116987348 -0.1396760345 -0.1719728708 2.247652609e-38
0.2570192218 -0.2006535828 -0.1750073135 2.247652609e-38
-0.2439422309 -0.300507009 -0.009052320383 2.247652609e-38
-0.2691687047 -0.2912722528 -0.05614919215 2.265947681e-38
0.3161394894 -0.05113105476 -0.1535417438 2.265947681e-38
-0.2310135365 -0.2988719344 0.01494282763 2.265947681e-38
-0.2206325233 -0.3482672572 0.02318738401 2.265947681e-38
0.323972702 -0.1515567303 -0.1610479057 2.284242894e-38
-0.2627874017 -0.1631909013 -0.01068415586 2.284242894e-38
-0.2460251451 -0.08450483531 0.04302537814 2.284242894e-38
-0.2027982175 0.008945267648 0.1334419996 2.284242894e-38
-0.2220844626 -0.1197602525 0.07615850866 2.302537966e-38
0.1605651528 -0.3219845295 -0.16925776 2.302537966e-38
-0.23054865 -0.03183944523 0.08277117461 2.302537966e-38
-0.2744541168 -0.1398161948 -0.03289235756 2.302537966e-38
0.2699003518 -0.2010402828 -0.1753655672 2.320833179e-38
-0.276370883 -0.1783416867 -0.04774954915 2.320833179e-38
-0.253061235 -0.2261019349 -0.01550984289 2.320833179e-38
0.2834124565 -0.1889221221 -0.1748303175 2.320833179e-38
-0.2848351002 -0.09042086452 -0.0411368832 2.339092378e-38
-0.2932992876 -0.002500101924 -0.03452422097 2.339092378e-38
-0.2484305501 -0.3910737336 -0.05183686316 2.339092378e-38
-0.2653589547 -0.2152321041 -0.03861153126 2.339092378e-38
-0.2588115335 -0.3416784108 -0.06008139253 2.348204041e-38
-0.2803705931 -0.0008650496602 -0.01052904222 2.348204041e-38
-0.2251208425 -0.4388340116 -0.01959718764 2.348204041e-38
0.2686621547 -0.2250391692 -0.164975822 2.348204041e-38
0.3239489198 -0.1525675952 -0.1732245982 2.348132155e-38
-0.2441321611 -0.04699023068 0.04570583999 2.348132155e-38
0.2956864536 -0.2008028179 -0.1639053524 2.348132155e-38
-0.2628111839 -0.1642017663 -0.02286088467 2.348132155e-38
-0.2460489273 -0.08551573008 0.03084862232 2.348060128e-38
0.3283658624 -0.06503351778 -0.1669701636 2.348060128e-38
0.2139826417 -0.2860167027 -0.1680102944 2.348060128e-38
-0.2731921375 -0.114806436 -0.03110538051 2.348060128e-38
0.2274948061 -0.2738985121 -0.1674750447 2.347952368e-38
-0.2350369692 -0.1224061772 0.03998666257 2.347952368e-38
0.3362228274 -0.164448306 -0.162299633 2.347952368e-38
0.2010777146 -0.2866408825 -0.1798287332 2.347952368e-38
-0.2201914787 -0.08224561065 0.07883897424 2.347880341e-38
0.3167466819 -0.03963706642 -0.1648249626 2.347880341e-38
0.3098057508 -0.1771906316 -0.1746533215 2.347880341e-38
-0.2640969753 -0.1902223825 -0.03682455793 2.347880341e-38
-0.2575495541 -0.3166686893 -0.05829441547 2.347808455e-38
0.3233178854 -0.1650724709 -0.1741180718 2.347808455e-38
-0.2492514849 -0.150061816 0.002027784474 2.347808455e-38
-0.2744779289 -0.1408270597 -0.0450690873 2.347808455e-38
-0.2446208 -0.3150336444 -0.03429923579 2.347700555e-38
-0.2104652822 -0.1451566815 0.07401328534 2.347700555e-38
0.2551262379 -0.23816818 -0.1776877642 2.347700555e-38
-0.219560504 -0.0697407499 0.07973246276 2.347700555e-38
0.3085675836 -0.201189518 -0.1642636061 2.347628668e-38
0.2686383724 -0.2260500342 -0.1771525443 2.347628668e-38
-0.2484543324 -0.3920846283 -0.0640135929 2.347628668e-38
-0.2168465853 -0.2732380331 0.02854831144 2.347628668e-38
0.282150507 -0.2139318436 -0.1766172945 2.347520768e-38
-0.2803943753 -0.001875925809 -0.02270574123 2.347520768e-38
0.3419017196 -0.05190445483 -0.1542582512 2.347520768e-38
0.240375936 -0.2742852271 -0.1678332984 2.347520768e-38
-0.2439897954 -0.3025287688 -0.03340574726 2.347448882e-38
-0.2272275686 -0.2238427103 0.020303756 2.347448882e-38
0.2538880706 -0.2621670663 -0.1672980487 2.347448882e-38
-0.2459065616 -0.3410542309 -0.04826290905 2.347448882e-38
-0.231061101 -0.3008936942 -0.009410568513 2.347340982e-38
0.1586721838 -0.3594991267 -0.1719382405 2.347340982e-38
-0.2562875748 -0.2916589677 -0.05650743842 2.347340982e-38
-0.2545369267 0.001394178718 0.02528458461 2.347340982e-38
0.2809123099 -0.23793073 -0.1662275791 2.347269095e-38
0.3361990452 -0.1654591709 -0.1744763255 2.347269095e-38
0.145767197 -0.3601232767 -0.1837566793 2.347269095e-38
-0.2499062717 -0.1635775864 -0.01104240213 2.347269095e-38
-0.2368113995 -0.41647017 -0.05398208648 2.347161195e-38
-0.2350607514 -0.123417072 0.02780990675 2.347161195e-38
-0.2369775176 -0.1619425416 0.01295274589 2.347161195e-38
-0.2286794484 0.004664286971 0.07327494025 2.347161195e-38
-0.2556565702 -0.2791540623 -0.05561394989 2.347089308e-38
-0.2155846059 -0.2482283115 0.03033528849 2.347089308e-38
-0.2641207576 -0.1912332773 -0.04900128767 2.347089308e-38
-0.2492752671 -0.1510727108 -0.0101489136 2.347089308e-38
-0.2213349044 -0.3638047576 -0.01423625555 2.346981408e-38
-0.2596562207 -0.1016774252 -0.01839344203 2.346981408e-38
-0.263489753 -0.1787283719 -0.04810779542 2.346981408e-38
-0.2085723281 -0.107642062 0.07669375092 2.346981408e-38
0.1451362073 -0.3726281822 -0.1846501529 2.346909522e-38
-0.2318820059 -0.05988182127 0.0444541052 2.346909522e-38
0.2120896727 -0.3235313296 -0.1706907451 2.346909522e-38
-0.2590252161 -0.08917253464 -0.01749995351 2.346909522e-38
0.1856726259 -0.3362736404 -0.1830444336 2.346801622e-38
0.2391139567 -0.2992949784 -0.1696202755 2.346801622e-38
-0.2628587782 -0.166223526 -0.04721431062 2.346801622e-38
-0.254560709 0.0003833025694 0.01310788747 2.346801622e-38
-0.2181561589 -0.3002695441 0.002407883294 2.346693862e-38
-0.2499300539 -0.1645884812 -0.02321913093 2.346693862e-38
-0.2331677675 -0.08590243012 0.03049037233 2.346693862e-38
-0.2452993691 -0.32956025 -0.05954615027 2.346693862e-38
-0.213691622 -0.2107136846 0.03301575407 2.346621835e-38
0.1979465485 -0.348154366 -0.1721194685 2.346621835e-38
0.2114586681 -0.3360361755 -0.1715842485 2.346621835e-38
0.1715295017 -0.3608966768 -0.1844731867 2.346621835e-38
0.1438980103 -0.3966270387 -0.1742604375 2.346514075e-38
0.3201867342 -0.2265859693 -0.1664088368 2.346514075e-38
0.1850416362 -0.3487785459 -0.183937937 2.346514075e-38
0.2937696874 -0.239328295 -0.1787625253 2.346514075e-38
0.198553741 -0.3366603553 -0.1834026873 2.346406175e-38
-0.2149774134 -0.236734271 0.01905202121 2.346406175e-38
0.279019326 -0.2754453421 -0.1689080298 2.346406175e-38
-0.2188109457 -0.3137852848 -0.01066230517 2.346406175e-38
-0.2440373898 -0.3045505285 -0.05775917321 2.346334289e-38
0.2925314903 -0.2633271813 -0.1683727801 2.346334289e-38
0.2526022792 -0.2881876826 -0.1812617183 2.346334289e-38
0.1708985269 -0.3734015822 -0.1853666604 2.346334289e-38
-0.2143464088 -0.2242294252 0.01994550973 2.346226389e-38
-0.2245612442 -0.4293617308 -0.05523382127 2.346226389e-38
0.3201629519 -0.2275968343 -0.1785855293 2.346226389e-38
0.2249470502 -0.3249288797 -0.1832256913 2.346226389e-38
0.1831724495 -0.3852822781 -0.1744416952 2.346118629e-38
-0.2177151144 -0.03424789757 0.0580595322 2.346118629e-38
-0.2213824987 -0.3658265173 -0.03858968243 2.346118629e-38
-0.2196318805 -0.07277338207 0.04320237041 2.346118629e-38
0.2237088531 -0.3489277661 -0.1728359759 2.346010729e-38
0.2789955139 -0.276456207 -0.1810847223 2.346010729e-38
0.2925077081 -0.2643380463 -0.1805495024 2.346010729e-38
-0.2486918569 -0.1405895948 -0.03360885009 2.346010729e-38
0.3060198128 -0.2522198856 -0.1800142527 2.345938842e-38
0.1960535794 -0.3856689632 -0.1747999489 2.345938842e-38
-0.2330492437 -0.3424518108 -0.06079788506 2.345938842e-38
-0.2546083033 -0.001638453454 -0.01124553662 2.345938842e-38
0.2095656991 -0.3735508323 -0.1742646992 2.345830942e-38
0.1696365476 -0.3984113038 -0.1871536374 2.345830942e-38
0.1555172205 -0.4220234752 -0.1764056683 2.345830942e-38
-0.241679579 -3.397464752e-06 0.0127496412 2.345830942e-38
-0.2220372856 -0.379342258 -0.05165986717 2.345723183e-38
0.3318058848 -0.2519824207 -0.1685540378 2.345723183e-38
-0.2035243809 -0.007603097707 0.08384165913 2.345723183e-38
-0.2287508547 0.001631654799 0.03674478829 2.345723183e-38
0.2101728916 -0.3620567918 -0.1855479181 2.345615283e-38
0.2771263719 -0.312959969 -0.1715885103 2.345615283e-38
-0.2111914456 -0.1617050767 0.02441294864 2.345615283e-38
-0.2028934062 0.004901759326 0.08473514766 2.345615283e-38
-0.2298704982 -0.2789165676 -0.04415371642 2.345507523e-38
-0.2233230472 -0.4053628743 -0.06562357396 2.345507523e-38
-0.2383346856 -0.1909957826 -0.03754105419 2.345507523e-38
-0.2150249779 -0.2387560308 -0.005301374011 2.345507523e-38
0.169005543 -0.4109161794 -0.1880471408 2.345399623e-38
-0.2552630901 -0.01515418664 -0.02431572229 2.345399623e-38
-0.2487156689 -0.1416004598 -0.04578557983 2.345399623e-38
0.3311749101 -0.2644872665 -0.1694475412 2.345399623e-38
0.1419812441 -0.4351525307 -0.1891176105 2.345291723e-38
0.3047578335 -0.2772296071 -0.1818012297 2.345291723e-38
0.236566186 -0.350325346 -0.1853709221 2.345291723e-38
-0.2164769173 -0.01024902612 0.04766980931 2.345291723e-38
0.2500783205 -0.3382071555 -0.1848356724 2.345219836e-38
-0.2389894724 -0.2045115232 -0.05061126873 2.345219836e-38
-0.2241439819 -0.1643509865 -0.01175889652 2.345219836e-38
0.3041268587 -0.2897344828 -0.1826947033 2.345219836e-38
-0.2112152278 -0.1627159417 0.0122362515 2.345111936e-38
-0.2298943102 -0.2799274623 -0.05633044243 2.345111936e-38
0.140743047 -0.4591513872 -0.178727895 2.345111936e-38
0.2359351963 -0.3628301919 -0.1862643957 2.345111936e-38
-0.2235130072 -0.1518461108 -0.010865408 2.345004176e-38
0.1941606104 -0.4231835902 -0.1774803996 2.345004176e-38
-0.2188823223 -0.3168179095 -0.04719242826 2.345004176e-38
