# .PCD v0.7 - Point Cloud Data file format
VERSION 0.7
FIELDS x y z rgb
SIZE 4 4 4 4
TYPE F F F F
COUNT 1 1 1 1
WIDTH 827
HEIGHT 1
VIEWPOINT 0 0 0 1 0 0 0
POINTS 827
DATA ascii
-0.046158351 -0.3672934473 0.3765666485 6.882571295e-39
0.05391351506 -0.2294220328 0.2449194938 7.066599618e-39
0.05299289525 -0.2403108776 0.1921758801 7.066599618e-39
-0.06089911237 -0.7857987881 0.2073547989 7.066599618e-39
0.1756402701 -0.1327319443 -0.1458343416 7.066599618e-39
-0.04751720279 -0.3366445899 0.1480474174 7.066599618e-39
0.0181449838 -0.3182407022 0.02437097952 7.066599618e-39
0.0532294549 -0.2279289961 0.2335402519 7.066599618e-39
0.02558625862 -0.2745535672 0.03581361845 7.066599618e-39
0.2819948196 -0.3430413902 -0.07164242864 7.250627941e-39
-0.09032301605 -0.7492607832 -0.07619206607 7.250627941e-39
0.003939889371 -0.2310812473 0.2372774631 7.250627941e-39
0.02605094202 -0.7541126013 0.006433159113 7.250627941e-39
-0.02598413825 -0.7789554596 0.1704141349 7.250627941e-39
0.003137551248 -0.2357791364 0.205216065 7.250627941e-39
0.2461771816 -0.2855891883 -0.1142743602 7.250627941e-39
-0.2080651373 -0.7414229512 -0.1815758198 7.250627941e-39
-0.03794034198 -0.357547164 0.3073568344 7.434656265e-39
0.1708169729 -0.1885821819 -0.1324422061 7.434656265e-39
0.0356370993 -0.7473523617 -0.04001815617 7.434656265e-39
0.02525703609 -0.2544876933 0.08648093045 7.434656265e-39
0.02126251347 -0.7436612844 -0.07322154939 7.434656265e-39
-0.4346724749 -0.4443804026 0.06213850155 7.434656265e-39
-0.004075601697 -0.771407187 0.1230285317 7.434656265e-39
-0.06314160675 -0.3237765133 0.1127676666 7.434656265e-39
0.003255829215 -0.2295881808 0.2258982211 7.618684588e-39
0.02673500217 -0.7556055784 0.01781238616 7.618684588e-39
-0.4869168401 -0.3787579834 -0.04783461243 7.618684588e-39
-0.06052364409 -0.3359395862 0.1376024336 7.618684588e-39
-0.4388771355 -0.3664287329 -0.05364812911 7.618684588e-39
0.01326388121 -0.27534163 0.03674792126 7.618684588e-39
0.03632116318 -0.7488453984 -0.02863886952 7.618684588e-39
-0.1163359284 -0.7478508353 -0.09708197415 7.618684588e-39
-0.03588815778 -0.3620262742 0.3414946198 7.802712912e-39
0.2202825993 -0.2779882848 -0.1144820526 7.802712912e-39
0.002453487366 -0.2342860997 0.1938367784 7.802712912e-39
-0.01434578747 -0.7766743898 0.1581005901 7.802712912e-39
-0.169045791 -0.7435379028 -0.1502409875 7.802712912e-39
0.03700522333 -0.7503384352 -0.01725962758 7.802712912e-39
-0.05448536575 -0.3555679321 0.2193334997 7.802712912e-39
0.3235138357 -0.3635104001 -0.03615500033 7.802712912e-39
0.002335213125 -0.2404770553 0.1731546223 7.986382503e-39
0.2067103088 -0.2695993185 -0.1156240553 7.986382503e-39
-0.04558329284 -0.3473146558 0.1615029722 7.986382503e-39
0.05117727444 -0.2234498858 0.1994025558 7.986382503e-39
0.1783160418 -0.2436443567 -0.1199843735 7.986382503e-39
0.05025665462 -0.2343387306 0.1466589272 7.986382503e-39
-0.05335586146 -0.7468966246 -0.07899496704 7.986382503e-39
-0.2087492049 -0.7399299145 -0.1929550618 7.986382503e-39
0.03768928349 -0.7518314719 -0.005880400538 8.170410826e-39
0.02978330106 -0.3159596026 0.01205744222 8.170410826e-39
-0.1300264299 -0.7456527948 -0.1189061403 8.170410826e-39
-0.07868471742 -0.7469797134 -0.08850565553 8.170410826e-39
0.02400718629 -0.2453106642 0.08440461755 8.170410826e-39
-0.02871108055 -0.7453204989 -0.08086357266 8.170410826e-39
0.01201403886 -0.2661646008 0.03467161581 8.170410826e-39
0.2722903788 -0.3559926152 -0.04587331787 8.170410826e-39
-0.03383596987 -0.3665054142 0.3756323457 8.35443915e-39
0.05049321055 -0.2219568193 0.1880232543 8.35443915e-39
-0.2224396914 -0.7377319336 -0.2147792578 8.35443915e-39
-0.1957427412 -0.7406349182 -0.1825101227 8.35443915e-39
-0.04147892445 -0.3562729061 0.2297784388 8.35443915e-39
0.001203645021 -0.2251090705 0.1917604804 8.35443915e-39
0.03290085495 -0.7413802147 -0.08553509414 8.35443915e-39
0.001085363328 -0.2313000262 0.1710783094 8.35443915e-39
-0.4223500788 -0.4435923398 0.06120419875 8.538467473e-39
0.02365235612 -0.2638835013 0.02235807478 8.538467473e-39
0.01088247821 -0.2507966459 0.05327752605 8.538467473e-39
-0.05927379429 -0.3451166451 0.1396787465 8.538467473e-39
0.02344140783 -0.2376266718 0.0937076062 8.538467473e-39
0.1633179039 -0.1335200071 -0.1449000388 8.538467473e-39
0.02252079174 -0.2485155463 0.04096398875 8.538467473e-39
-0.05403992906 -0.7454035878 -0.09037426114 8.538467473e-39
-0.09169113636 -0.7462747097 -0.09895058721 8.722137064e-39
0.01314560324 -0.2815325856 0.016065754 8.722137064e-39
0.02421813831 -0.2715674937 0.01305514574 8.722137064e-39
0.0162110813 -0.3075706363 0.01091543958 8.722137064e-39
-0.04695141688 -0.3443285823 0.1387444437 8.722137064e-39
0.2769605517 -0.3726347983 0.0130992122 8.722137064e-39
0.04727541655 -0.7450712919 -0.05233168602 8.722137064e-39
0.02263906598 -0.2423245609 0.06164615229 8.722137064e-39
-0.04171755537 -0.7446155548 -0.09130856395 8.906165387e-39
0.04900680855 -0.2251617014 0.1445826292 8.906165387e-39
-0.05106505752 -0.3630331159 0.2762297392 8.906165387e-39
-0.01297766715 -0.7796604633 0.180859074 8.906165387e-39
-0.06450972706 -0.32079041 0.09000919014 8.906165387e-39
-0.03942673653 -0.3607520163 0.2639161944 8.906165387e-39
0.04590729624 -0.7420852184 -0.07509016991 8.906165387e-39
-0.1177040637 -0.7448647618 -0.1198404431 8.906165387e-39
0.0247839205 -0.2792514861 0.003752216697 9.089834978e-39
-0.01385497674 -0.2199249864 0.1471778303 9.089834978e-39
0.2720718086 -0.2931901217 -0.114066653 9.089834978e-39
0.03015530854 -0.7630708218 0.07470862567 9.089834978e-39
0.01189576089 -0.2723555565 0.01398944855 9.089834978e-39
0.221185267 -0.3422838151 -0.0349094905 9.089834978e-39
0.01677685976 -0.3152545989 0.00161248073 9.089834978e-39
0.02296829596 -0.2623904645 0.01097884029 9.089834978e-39
-0.0496969372 -0.3660192192 0.2989882231 9.273863302e-39
-0.06879016012 -0.2192738056 3.633229062e-05 9.273863302e-39
0.04844102636 -0.2174777091 0.1538855582 9.273863302e-39
0.03974147141 -0.7563105822 0.02825737 9.273863302e-39
-0.03874267638 -0.3622450531 0.2752954364 9.273863302e-39
0.02183672786 -0.2470224798 0.0295847021 9.273863302e-39
-0.04627662897 -0.3734844029 0.3558844328 9.273863302e-39
-0.05287141353 -0.3185093105 0.07769560069 9.273863302e-39
0.0602818802 -0.7457762361 -0.04188676178 9.457532893e-39
0.06096594408 -0.7472692728 -0.03050747514 9.457532893e-39
0.02138922364 -0.2331475317 0.05956984684 9.457532893e-39
0.03083937429 -0.7645638585 0.08608789742 9.457532893e-39
-0.1834203601 -0.7398468256 -0.1834444255 9.457532893e-39
0.01246154308 -0.2800395489 0.004686519504 9.457532893e-39
0.04042553157 -0.7578036785 0.03963659704 9.457532893e-39
-0.1313945502 -0.7426667213 -0.1416646391 9.457532893e-39
0.009066846222 -0.2339355946 0.06050414965 9.641561216e-39
0.2709222436 -0.3530065417 -0.06863181293 9.641561216e-39
-0.06773042679 -0.7432055473 -0.1121984273 9.641561216e-39
-0.0006552934647 -0.7788723707 0.1799247712 9.641561216e-39
0.2120465636 -0.362918973 -0.01844330505 9.641561216e-39
0.1861519814 -0.3553180695 -0.01865100861 9.641561216e-39
0.3268158734 -0.3771665692 5.907006562e-05 9.641561216e-39
0.008619341999 -0.2200606763 0.09048929811 9.641561216e-39
-0.03488620743 -0.7872087359 0.2282446474 9.825230807e-39
0.02534970269 -0.2869354784 -0.005550738424 9.825230807e-39
0.03152343631 -0.7660568953 0.09746713936 9.825230807e-39
-0.08179660141 -0.2185688317 -0.0104086278 9.825230807e-39
0.2217510343 -0.3499678075 -0.04421241954 9.825230807e-39
0.3151775897 -0.3794476688 0.01237260923 9.825230807e-39
-0.04490850121 -0.3764705062 0.3786429763 9.825230807e-39
-0.06947422773 -0.2177807689 -0.01134293061 9.825230807e-39
0.05137978494 -0.7540295124 0.01594378054 1.000925913e-38
0.01302732527 -0.2877235413 -0.004616435617 1.000925913e-38
-0.002782445401 -0.2099598646 0.1441672295 1.000925913e-38
0.02409985662 -0.2777584195 -0.007627047598 1.000925913e-38
0.02228423581 -0.2608974278 -0.0004003942013 1.000925913e-38
0.07260425389 -0.744988203 -0.04282106459 1.000925913e-38
0.008948564529 -0.2401265502 0.03982198611 1.000925913e-38
0.04247771204 -0.7622827291 0.07377432287 1.000925913e-38
0.2236849368 -0.3606378734 -0.03075687587 1.019292872e-38
-0.07804707438 -0.2460999191 -0.004179711454 1.019292872e-38
0.009396072477 -0.2540014982 0.009836833924 1.019292872e-38
-0.03395424783 -0.3726963401 0.35495013 1.019292872e-38
0.0117774792 -0.2785464823 -0.006692744792 1.019292872e-38
0.06301812828 -0.751748383 0.003630235791 1.019292872e-38
-0.08304645121 -0.2093918025 -0.01248493697 1.019292872e-38
0.009961858392 -0.2616854906 0.0005339086056 1.019292872e-38
0.2185673118 -0.3301206827 -0.05974426493 1.037659831e-38
0.2198171616 -0.3392977118 -0.05766795948 1.037659831e-38
-0.03076326475 -0.7408413887 -0.1150013357 1.037659831e-38
0.04385510832 -0.7376060486 -0.1092279255 1.037659831e-38
-0.05162157118 -0.3276863396 0.07977189869 1.037659831e-38
0.0438458398 -0.7652688026 0.09653283656 1.037659831e-38
0.05343196914 -0.7585086226 0.05008153617 1.037659831e-38
0.07123613358 -0.7420021296 -0.06557953358 1.037659831e-38
-0.05423953384 -0.315523237 0.05493712798 1.056062664e-38
-0.0619751662 -0.2728429437 0.001114902087 1.056062664e-38
-0.0600412488 -0.2835130095 0.01457047462 1.056062664e-38
-0.09374332428 -0.7417956591 -0.1330883205 1.056062664e-38
0.02103438973 -0.2517203987 -0.002476705238 1.056062664e-38
0.06370218843 -0.7532414198 0.01500947773 1.056062664e-38
0.01888953522 -0.2147934735 0.05541723594 1.056062664e-38
-0.01844089106 -0.7400532961 -0.1159356385 1.056062664e-38
0.00713294372 -0.2232655585 0.0470486097 1.074429623e-38
0.02046860754 -0.2440364063 0.006826229393 1.074429623e-38
0.0007128305733 -0.7818584442 0.2026832849 1.074429623e-38
0.08492663503 -0.7442001104 -0.0437553674 1.074429623e-38
0.02160017192 -0.2594043911 -0.0117796585 1.074429623e-38
0.01877125725 -0.2209844589 0.0347350724 1.074429623e-38
-0.08142095804 -0.7410075665 -0.1340226233 1.074429623e-38
0.0199028179 -0.2363524139 0.01612915471 1.074429623e-38
-0.4183639884 -0.4587415457 0.1087974757 1.092796582e-38
-0.3895875812 -0.3632764816 -0.05738534033 1.092796582e-38
-0.0422812663 -0.3609707952 0.1977169812 1.092796582e-38
-0.03258612379 -0.3756824434 0.3777086735 1.092796582e-38
-0.1197562367 -0.7403856516 -0.1539781988 1.092796582e-38
-0.04501751065 -0.3549986482 0.1522000432 1.092796582e-38
-0.0664087534 -0.2438188195 -0.01649324968 1.092796582e-38
0.08629475534 -0.7471861839 -0.02099683881 1.092796582e-38
-0.07197391987 -0.1994267106 -0.01549554523 1.111163541e-38
0.01763969287 -0.2056164593 0.05334093049 1.111163541e-38
-0.0314473249 -0.739348352 -0.1263805628 1.111163541e-38
-0.07873113453 -0.2446068823 -0.01555894688 1.111163541e-38
-0.08373051137 -0.2078987658 -0.0238641724 1.111163541e-38
-0.07140813768 -0.207110703 -0.02479847521 1.111163541e-38
0.0650703162 -0.7562274933 0.03776799142 1.111163541e-38
0.01775796711 -0.1994255036 0.07402309775 1.111163541e-38
0.05617751181 -0.736817956 -0.1101622283 1.1295305e-38
-0.05879140645 -0.2926900387 0.01664678007 1.1295305e-38
0.006448879838 -0.2217725217 0.03566937521 1.1295305e-38
0.05616821721 -0.7644807696 0.09559853375 1.1295305e-38
0.04317104816 -0.7361130118 -0.12060716 1.1295305e-38
-0.1457691342 -0.7389756441 -0.174868077 1.1295305e-38
0.007580440491 -0.2371404767 0.01706345752 1.1295305e-38
0.09588089585 -0.7404259443 -0.06744813919 1.1295305e-38
0.07602456212 -0.7524533272 0.01407517493 1.147897319e-38
0.06986801326 -0.7390159965 -0.08833800256 1.147897319e-38
0.2351046652 -0.2955542803 -0.1112637445 1.147897319e-38
0.04521396011 -0.7682549357 0.1192913204 1.147897319e-38
0.007014658302 -0.2294564843 0.02636639029 1.147897319e-38
-0.04570157453 -0.3535056114 0.1408207566 1.147897319e-38
0.08697882295 -0.7486792207 -0.009617611766 1.147897319e-38
-0.05677616969 -0.7394314408 -0.1358912289 1.147897319e-38
0.01752141118 -0.2118074 0.0326587595 1.166264278e-38
0.06643843651 -0.7592135668 0.06052647531 1.166264278e-38
0.2055608034 -0.3294157088 -0.07018922269 1.166264278e-38
0.09793308377 -0.7449051142 -0.03331038356 1.166264278e-38
0.2905328274 -0.3810237944 0.01424121484 1.166264278e-38
0.004633255303 -0.2049114853 0.04289599881 1.166264278e-38
0.03425968066 -0.7720290422 0.1429841369 1.166264278e-38
0.1828499585 -0.3416619003 -0.05486505106 1.166264278e-38
0.08766287565 -0.7501722574 0.001761630177 1.184631237e-38
-0.08210501075 -0.7395145297 -0.1454018652 1.184631237e-38
-0.06959250569 -0.2239717245 -0.0320250988 1.184631237e-38
-0.1984789819 -0.7346627712 -0.2280270904 1.184631237e-38
-0.3772651851 -0.3624884188 -0.05831965059 1.184631237e-38
-0.07691550255 -0.2614679039 -0.02278556861 1.184631237e-38
0.1082033217 -0.7396379113 -0.068382442 1.184631237e-38
-0.07816535234 -0.2522908747 -0.02486187778 1.184631237e-38
-0.06978259981 -0.7387264967 -0.1463361681 1.202998196e-38
0.07739268988 -0.7554394603 0.03683368862 1.202998196e-38
0.08834694326 -0.7516652942 0.01314087212 1.202998196e-38
-0.07265798002 -0.1979336739 -0.02687478065 1.202998196e-38
0.06849062443 -0.7636927366 0.09466423094 1.202998196e-38
0.09930120409 -0.7478911877 -0.01055191457 1.202998196e-38
0.2463852465 -0.2111467719 -0.1474765092 1.202998196e-38
0.2488849312 -0.2295008302 -0.1433238834 1.202998196e-38
-0.1334467232 -0.7381876111 -0.1758023798 1.221365155e-38
0.195738107 -0.3485578597 -0.06510230899 1.221365155e-38
0.01784220524 -0.7361961007 -0.130117774 1.221365155e-38
-0.09511144459 -0.738809526 -0.1558468193 1.221365155e-38
-0.4067256749 -0.4564604461 0.09648393095 1.221365155e-38
-0.05367375165 -0.3232072294 0.04563419521 1.221365155e-38
0.1976720095 -0.3592279255 -0.05164673552 1.221365155e-38
0.1932384223 -0.3302037716 -0.06925491989 1.221365155e-38
-0.05947547406 -0.2911970019 0.00526751671 1.239732115e-38
0.05549345165 -0.7353249788 -0.1215414628 1.239732115e-38
-0.05105578527 -0.335370332 0.07046897709 1.239732115e-38
-0.1464532018 -0.737482667 -0.1862473339 1.239732115e-38
-0.06793003529 -0.3133251965 0.033112932 1.239732115e-38
0.2139804661 -0.3735890388 -0.004987768829 1.239732115e-38
0.09998525679 -0.7493841648 0.0008273273706 1.239732115e-38
0.2513846159 -0.2478548586 -0.1391712874 1.239732115e-38
-0.06140937656 -0.2805269361 -0.008188024163 1.258099074e-38
0.1205257028 -0.7388498783 -0.0693167448 1.258099074e-38
-0.07179784775 -0.2919850647 0.006201819517 1.258099074e-38
0.06917467713 -0.7651857138 0.1060434729 1.258099074e-38
0.2016580999 -0.3743771017 -0.004053466022 1.258099074e-38
0.003949191421 -0.2034184486 0.03151675686 1.258099074e-38
0.1212097555 -0.7403429151 -0.05793750286 1.258099074e-38
0.209310323 -0.356946826 -0.0639602989 1.258099074e-38
0.2438855618 -0.1927927136 -0.1516291201 1.276466033e-38
0.2526344657 -0.2570319176 -0.1370949745 1.276466033e-38
-0.08614319563 -0.3249827623 -0.1005529463 1.276466033e-38
0.2227822989 -0.2963423431 -0.1103294417 1.276466033e-38
0.1853496432 -0.3600159883 -0.05071243271 1.276466033e-38
0.01910048351 -0.2410503328 -0.01593226939 1.276466033e-38
0.2728561759 -0.3636765778 -0.05517625436 1.276466033e-38
-0.03954502195 -0.3669429719 0.2432339787 1.276466033e-38
0.08150632679 -0.7367348671 -0.1006515995 1.294832852e-38
0.01740313321 -0.2179983556 0.01197654381 1.294832852e-38
-0.08489334583 -0.3341597915 -0.09847663343 1.294832852e-38
0.0356278047 -0.7750151157 0.1657426208 1.294832852e-38
0.1006693244 -0.7508772612 0.01220656931 1.294832852e-38
-0.03281544894 -0.7363622785 -0.1491390765 1.294832852e-38
0.0179689154 -0.225682348 0.00267361477 1.294832852e-38
-0.4129825234 -0.3740296364 -0.05344042927 1.294832852e-38
0.08971506357 -0.7546514273 0.03589938581 1.313163938e-38
0.3238610327 -0.3083918989 -0.1136512607 1.313163938e-38
-0.03886096179 -0.3684360087 0.2546132207 1.313163938e-38
0.1225778908 -0.7433289886 -0.03517898917 1.313163938e-38
-0.08259894699 -0.2232667208 -0.04247006029 1.313163938e-38
0.1068352014 -0.7366517782 -0.09114091098 1.313163938e-38
0.2588836849 -0.3029170632 -0.1267134398 1.313163938e-38
-0.09789979458 -0.3334548175 -0.1089215726 1.313163938e-38
-0.03817689419 -0.3699290454 0.2659925222 1.331530897e-38
-0.06007613242 -0.349814564 0.1076173484 1.331530897e-38
0.005646537989 -0.2264704108 0.003607917577 1.331530897e-38
-0.08566441387 -0.1972286999 -0.03731971234 1.331530897e-38
0.2601335347 -0.3120940626 -0.1246371418 1.331530897e-38
-0.07390782237 -0.1887566447 -0.0289510861 1.331530897e-38
-0.07507063448 -0.3150176704 -0.1035635471 1.331530897e-38
0.1335321367 -0.739554882 -0.05887180567 1.331530897e-38
-0.08557741344 -0.3326667547 -0.1098558754 1.349897856e-38
0.2390622348 -0.2486429214 -0.1382369697 1.349897856e-38
-0.03749283403 -0.3714220822 0.2773717642 1.349897856e-38
0.0924513191 -0.7606235743 0.08141638339 1.349897856e-38
0.09382870793 -0.7359468341 -0.1015859023 1.349897856e-38
-0.08432756364 -0.3418437541 -0.1077795625 1.349897856e-38
0.2721720934 -0.3621835411 -0.06655551493 1.349897856e-38
-0.03680877388 -0.3729151189 0.2887510061 1.349897856e-38
0.2453114539 -0.2945280671 -0.1278554499 1.368228942e-38
0.01615328714 -0.2088213265 0.00990023464 1.368228942e-38
0.2403120846 -0.2578199804 -0.1361606717 1.368228942e-38
-0.06015953422 -0.2897039652 -0.006111718714 1.368228942e-38
-0.08347314596 -0.7365283966 -0.1681603491 1.368228942e-38
-0.0690267235 -0.2316557169 -0.04132805392 1.368228942e-38
-0.0705480054 -0.3011620939 0.008278124966 1.368228942e-38
-0.04582192376 -0.7356572747 -0.1595840305 1.368228942e-38
0.2532002628 -0.2647158802 -0.1463979036 1.386595901e-38
-0.1543884426 -0.264921993 -0.09475817531 1.386595901e-38
0.1191575825 -0.7358638048 -0.09207521379 1.386595901e-38
-0.08807711303 -0.3143126965 -0.1140084863 1.386595901e-38
0.2465613037 -0.303705126 -0.125779137 1.386595901e-38
0.2413858622 -0.1744386405 -0.155781731 1.386595901e-38
-0.05242390558 -0.3323842585 0.04771050811 1.386595901e-38
0.2333787978 -0.210441798 -0.1579214334 1.386595901e-38
0.05890446156 -0.7704529762 0.1411155313 1.404926846e-38
-0.06777688116 -0.2408327162 -0.03925174847 1.404926846e-38
0.0931353718 -0.7621165514 0.09279562533 1.404926846e-38
-0.1471372694 -0.7359895706 -0.1976265758 1.404926846e-38
0.07054279745 -0.7681718469 0.128801927 1.404926846e-38
0.2315631807 -0.1935807467 -0.1506948173 1.404926846e-38
0.2428117692 -0.2761740386 -0.1320080608 1.404926846e-38
-0.06668019295 -0.3225022256 0.03518923372 1.404926846e-38
0.2371283323 -0.2379728556 -0.1516925246 1.423293806e-38
0.01785063371 -0.2318732738 -0.01800857857 1.423293806e-38
0.1355843246 -0.7440339327 -0.02473405004 1.423293806e-38
0.03699592501 -0.7780011892 0.1885010749 1.423293806e-38
-0.09540010989 -0.351808846 -0.1047689617 1.423293806e-38
-0.0700712502 -0.3517257869 -0.09525832534 1.423293806e-38
0.1362683773 -0.745527029 -0.01335482299 1.423293806e-38
0.2303133309 -0.1844037473 -0.1527711153 1.423293806e-38
-0.08307772875 -0.3510207832 -0.1057032645 1.441624891e-38
0.1047736853 -0.7598354816 0.08048208058 1.441624891e-38
0.2407017946 -0.1729456037 -0.1671609581 1.441624891e-38
0.05958852544 -0.7719459534 0.1524947733 1.441624891e-38
-0.05472192168 -0.3679497838 0.177969113 1.441624891e-38
0.04863426834 -0.7757201195 0.1761875302 1.441624891e-38
0.1143598855 -0.753075242 0.0340307802 1.441624891e-38
0.1472226381 -0.7417528629 -0.03704759479 1.441624891e-38
-0.03475658596 -0.377394259 0.322888732 1.459991851e-38
-0.07953347266 -0.2493047714 -0.04762037471 1.459991851e-38
-0.09647956491 -0.7358234525 -0.1786052883 1.459991851e-38
-0.08453284949 -0.2125966847 -0.05592559651 1.459991851e-38
0.004396695644 -0.2172933817 0.001531612128 1.459991851e-38
-0.05540598184 -0.3664567471 0.166589871 1.459991851e-38
0.4765068591 -0.7130099535 -0.119170025 1.459991851e-38
0.259449482 -0.3106010258 -0.1360163689 1.459991851e-38
0.03767998889 -0.7794942856 0.1998803765 1.478322936e-38
-0.07459188253 -0.187263608 -0.0403303206 1.478322936e-38
0.4648684561 -0.7152911425 -0.1068564802 1.478322936e-38
0.2396280169 -0.2563269436 -0.1475398988 1.478322936e-38
0.1595450044 -0.7409647703 -0.03798189759 1.478322936e-38
-0.1445657164 -0.2457798719 -0.09984508902 1.478322936e-38
-0.1016493291 -0.3059237301 -0.1151504815 1.478322936e-38
-0.1218084246 -0.7359064817 -0.1881159395 1.478322936e-38
0.4545982778 -0.7205582857 -0.07178446651 1.496689755e-38
0.08286517859 -0.7673838139 0.1278676242 1.496689755e-38
-0.1738342196 -0.733086586 -0.229895696 1.496689755e-38
0.002015281469 -0.1927483678 0.01806116104 1.496689755e-38
0.1150439382 -0.7545683384 0.04541002214 1.496689755e-38
0.1376364976 -0.7485131025 0.009403660893 1.496689755e-38
0.07122686505 -0.7696648836 0.1401812285 1.496689755e-38
-0.02117713913 -0.7340811491 -0.1614526361 1.496689755e-38
-0.03338846564 -0.3803803325 0.3456472158 1.515020841e-38
-0.09415026009 -0.3609858751 -0.1026926488 1.515020841e-38
0.1444863826 -0.7357807159 -0.08256458491 1.515020841e-38
-0.08114381135 -0.3616908789 -0.09224772453 1.515020841e-38
-0.056090042 -0.3649637103 0.155210644 1.515020841e-38
-0.05335380137 -0.3709358573 0.200727582 1.515020841e-38
-0.05504187942 -0.3202211559 0.02287569642 1.515020841e-38
0.01546922699 -0.2073282897 -0.001478999853 1.515020841e-38
0.1711833775 -0.7386837006 -0.05029548705 1.533351927e-38
0.2877965569 -0.3750516474 -0.03127578273 1.533351927e-38
-0.06882141531 -0.3609028161 -0.09318202734 1.533351927e-38
0.2503108382 -0.3312362134 -0.1195502132 1.533351927e-38
0.2606993318 -0.3197780848 -0.1339400709 1.533351927e-38
0.1609131247 -0.7439508438 -0.01522342861 1.533351927e-38
0.1164120585 -0.7575544119 0.06816850603 1.533351927e-38
-0.06721109897 -0.2485167086 -0.04855467752 1.533351927e-38
0.2394519597 -0.1637685895 -0.169237271 1.551683013e-38
0.2446273863 -0.2930350304 -0.139234677 1.551683013e-38
0.1725514978 -0.7416697741 -0.02753697336 1.551683013e-38
0.01660079136 -0.2226962447 -0.02008488402 1.551683013e-38
0.1615971774 -0.7454439402 -0.003844186664 1.551683013e-38
0.2421277016 -0.2746810019 -0.1433872879 1.551683013e-38
-0.06846094131 -0.2393396795 -0.05063098297 1.551683013e-38
-0.1478213221 -0.7344965935 -0.2090058327 1.551683013e-38
0.2471270859 -0.3113890886 -0.1350820661 1.570049832e-38
0.1568087488 -0.7349926233 -0.08349888772 1.570049832e-38
-0.08578269929 -0.2034196258 -0.05800190568 1.570049832e-38
0.184873879 -0.7408816814 -0.02847127616 1.570049832e-38
-0.1458155513 -0.2366028726 -0.1019213945 1.570049832e-38
-0.06950546801 -0.3594097495 -0.1045612544 1.570049832e-38
0.2992163002 -0.3099680245 -0.1117826551 1.570049832e-38
0.1739196181 -0.7446558475 -0.00477848947 1.570049832e-38
0.01365359873 -0.1904672682 0.005747623742 1.588380918e-38
0.07259498537 -0.7726509571 0.1629397124 1.588380918e-38
0.1438023299 -0.7342876196 -0.0939438194 1.588380918e-38
0.09518755972 -0.7665957212 0.1269333214 1.588380918e-38
0.128050372 -0.7552733421 0.05585496128 1.588380918e-38
0.182821691 -0.7364026308 -0.0626090318 1.588380918e-38
-0.0654303506 -0.3316792846 0.03726554662 1.588380918e-38
0.2283794135 -0.1737336516 -0.1662266552 1.588380918e-38
-0.08989273012 -0.2974516749 -0.1067818552 1.606712004e-38
-0.04445173219 -0.3626826108 0.1428970546 1.606712004e-38
0.1862419993 -0.7438677549 -0.005712792277 1.606712004e-38
-0.06144426018 -0.3468284607 0.08485881984 1.606712004e-38
0.08354924619 -0.768876791 0.1392469257 1.606712004e-38
-0.05266973376 -0.3724289238 0.2121068686 1.606712004e-38
-0.03418357298 -0.7333761454 -0.1718975604 1.606712004e-38
0.2278136462 -0.1660496742 -0.1569237262 1.606712004e-38
-0.07700453699 -0.3043476045 -0.1170190871 1.625043089e-38
0.1177801788 -0.7605404854 0.09092701972 1.625043089e-38
0.1869260669 -0.7453608513 0.005666434765 1.625043089e-38
-0.09114256501 -0.2882746458 -0.1088581681 1.625043089e-38
0.4429599643 -0.7228393555 -0.05947087705 1.625043089e-38
0.2323049605 -0.2938230932 -0.1383003742 1.625043089e-38
0.1068258733 -0.7643146515 0.1146198064 1.625043089e-38
0.1821376383 -0.7349095345 -0.07398827374 1.625043089e-38
-0.08021753281 -0.2478117347 -0.058999639 1.643374035e-38
0.1691311896 -0.7342045903 -0.08443319798 1.643374035e-38
-0.09716363251 -0.7343304157 -0.1899845451 1.643374035e-38
0.05068645254 -0.7801992893 0.2103252858 1.643374035e-38
-0.05745816976 -0.3619776368 0.1324521154 1.643374035e-38
0.2310551256 -0.2846460938 -0.140376687 1.643374035e-38
-0.07527594268 -0.1857705712 -0.05170958489 1.643374035e-38
0.1876101345 -0.746853888 0.01704572141 1.643374035e-38
-0.1186711192 -0.2533808053 -0.09963738918 1.661705121e-38
0.4614481628 -0.7078258991 -0.1637527049 1.661705121e-38
0.4498098493 -0.7101069689 -0.151439175 1.661705121e-38
0.06232476979 -0.77791816 0.1980117708 1.661705121e-38
-0.07164468616 -0.2194925845 -0.06616286188 1.661705121e-38
0.04111886397 -0.7316339016 -0.1547448933 1.661705121e-38
-0.1224924922 -0.7344135046 -0.1994951814 1.661705121e-38
0.4381715357 -0.7123880982 -0.1391256452 1.661705121e-38
0.1184642464 -0.7620334625 0.1023062617 1.680036207e-38
-0.05572593957 -0.3187280893 0.01149643399 1.680036207e-38
0.1882941872 -0.7483469248 0.02842496336 1.680036207e-38
0.1520110667 -0.7522041798 0.04260711372 1.680036207e-38
0.2496267706 -0.3297431767 -0.1309294552 1.680036207e-38
0.2271295786 -0.1645566374 -0.1683029681 1.680036207e-38
0.1410568058 -0.7559782863 0.06629990041 1.680036207e-38
0.1944600046 -0.7341215014 -0.07492257655 1.680036207e-38
-0.1615118235 -0.732298553 -0.2308299989 1.698367293e-38
0.2173068374 -0.1836987734 -0.1632160395 1.698367293e-38
-0.07471016049 -0.1934545338 -0.06101251394 1.698367293e-38
0.1075099409 -0.7658076286 0.1259990185 1.698367293e-38
0.1177894473 -0.7328777313 -0.1148337424 1.698367293e-38
0.4279013276 -0.7176553011 -0.1040535718 1.698367293e-38
0.2360545099 -0.3213542104 -0.1320714504 1.698367293e-38
0.2112442255 -0.3676168919 -0.05050474033 1.698367293e-38
-0.05198567361 -0.3739219606 0.2234861106 1.716698239e-38
-0.1284938008 -0.2725229263 -0.09455047548 1.716698239e-38
-0.08703254163 -0.1942425966 -0.06007821113 1.716698239e-38
-0.09057679772 -0.2959586382 -0.1181610972 1.716698239e-38
0.1749611646 -0.371474117 -0.03632259369 1.716698239e-38
0.224577263 -0.7444896698 0.01424281299 1.716698239e-38
-0.06804832071 -0.3195161223 0.0124307368 1.716698239e-38
-0.06914500147 -0.2378466427 -0.06201024726 1.716698239e-38
-0.03065221943 -0.3863525093 0.3911641836 1.735029324e-38
0.06644770503 -0.7315508127 -0.145234257 1.735029324e-38
-0.06152765453 -0.2867178619 -0.0288702175 1.735029324e-38
0.1526951194 -0.7536971569 0.05398635566 1.735029324e-38
0.201300621 -0.7490519285 0.03886990249 1.735029324e-38
-0.09239241481 -0.2790976167 -0.1109344661 1.735029324e-38
0.06300882995 -0.7794111967 0.209390983 1.735029324e-38
0.09655568004 -0.7695817947 0.1496918648 1.735029324e-38
0.1684471369 -0.7327115536 -0.09581243247 1.75336041e-38
0.4368034303 -0.7094020247 -0.1618840992 1.75336041e-38
0.2368996888 -0.7437016368 0.01330851018 1.75336041e-38
0.09723974764 -0.7710748315 0.1610711068 1.75336041e-38
0.1417408735 -0.757471323 0.07767917216 1.75336041e-38
0.425165087 -0.7116831541 -0.1495705694 1.75336041e-38
0.01296953857 -0.1889742315 -0.005631612614 1.75336041e-38
0.2218410075 -0.7385175228 -0.03127418458 1.75336041e-38
0.2067823857 -0.7333334684 -0.07585687935 1.771655483e-38
0.2211569548 -0.7370244861 -0.04265341163 1.771655483e-38
-0.07251885533 -0.7327542901 -0.1918531507 1.771655483e-38
-0.1224206537 -0.2258497179 -0.1058663055 1.771655483e-38
0.2204728872 -0.7355314493 -0.05403269827 1.771655483e-38
-0.06539546698 -0.2653777301 -0.05578133091 1.771655483e-38
0.2375837415 -0.7451946735 0.02468775213 1.771655483e-38
0.1307866126 -0.7612454891 0.1013719589 1.771655483e-38
0.1896623075 -0.7513329983 0.05118344724 1.789986569e-38
0.4244810343 -0.7101900578 -0.1609497964 1.789986569e-38
-0.06281238049 -0.3438423872 0.06210035086 1.789986569e-38
-0.05130161345 -0.3754149973 0.2348653525 1.789986569e-38
0.09177652001 -0.7314677238 -0.1357236058 1.789986569e-38
0.2240321487 -0.3055193722 -0.1082531363 1.789986569e-38
-0.04581985623 -0.3596965373 0.1201385707 1.789986569e-38
0.4155789614 -0.7184433937 -0.103119269 1.789986569e-38
-0.06732936949 -0.2547076941 -0.06923686713 1.808317654e-38
0.2485380024 -0.7414205074 0.0009949207306 1.808317654e-38
-0.07840190828 -0.2646727562 -0.06622625887 1.808317654e-38
0.186599493 -0.3691930175 -0.04863613471 1.808317654e-38
0.07533123344 -0.7786231041 0.2084566802 1.808317654e-38
0.1540632546 -0.7566832304 0.07674486935 1.808317654e-38
-0.1075985506 -0.2434156835 -0.1026480049 1.808317654e-38
0.2143070549 -0.7497568727 0.04931484163 1.808317654e-38
-0.1161714271 -0.2717348635 -0.09548477829 1.826612727e-38
-0.03486763313 -0.7318831682 -0.1832768023 1.826612727e-38
-0.1050988659 -0.2617697716 -0.09849538654 1.826612727e-38
0.2499061227 -0.7444065809 0.02375344932 1.826612727e-38
-0.07596000284 -0.1842775345 -0.06308881938 1.826612727e-38
0.2334793806 -0.7362364531 -0.04358771443 1.826612727e-38
-0.05640999973 -0.3172350526 0.0001171976328 1.826612727e-38
-0.08033581078 -0.2540026903 -0.07968179882 1.826612727e-38
-0.07357858866 -0.2088225484 -0.07961839437 1.844943813e-38
0.08696955442 -0.7763420343 0.1961431652 1.844943813e-38
0.4189992845 -0.7259085178 -0.0462230444 1.844943813e-38
-0.07453409582 -0.286012888 -0.03931514919 1.844943813e-38
0.1205164343 -0.7665126324 0.1364440173 1.844943813e-38
-0.06027781218 -0.295894891 -0.02679391205 1.844943813e-38
0.4128427207 -0.7124711871 -0.1486362666 1.844943813e-38
0.2152303159 -0.382766068 -0.002911459655 1.844943813e-38
0.2745714784 -0.3115441501 -0.1099140421 1.863274899e-38
0.2622285187 -0.7436185479 0.02281914651 1.863274899e-38
-0.4240550399 -0.3839947283 -0.05042982101 1.863274899e-38
-0.08771660179 -0.1927495599 -0.07145747542 1.863274899e-38
0.2184206992 -0.7310523391 -0.0881704092 1.863274899e-38
0.1858151108 -0.2987065315 -0.1075265333 1.863274899e-38
-0.06607952714 -0.2638846934 -0.06716056168 1.863274899e-38
0.1171053946 -0.731384635 -0.1262129843 1.863274899e-38
-0.04993349314 -0.3784010708 0.2576237917 1.881569971e-38
0.1905855834 -0.3843421936 -0.001042854041 1.881569971e-38
-0.08408534527 -0.2264716029 -0.08591072261 1.881569971e-38
-0.08131985366 -0.2691325247 -0.1139450818 1.881569971e-38
0.4039405882 -0.7207244635 -0.09080572426 1.881569971e-38
-0.06801343709 -0.2532146275 -0.08061610162 1.881569971e-38
-0.08101987094 -0.2525096536 -0.09106106311 1.881569971e-38
-0.1361829787 -0.7322154641 -0.2213193774 1.881569971e-38
0.04043480009 -0.7301408052 -0.1661241651 1.899901057e-38
0.1547565758 -0.7305135131 -0.1176366508 1.899901057e-38
0.2738668323 -0.7413374186 0.01050560176 1.899901057e-38
0.213557303 -0.1561676562 -0.1694449633 1.899901057e-38
0.4231128991 -0.7072039843 -0.1837083101 1.899901057e-38
0.274550885 -0.7428305149 0.02188484371 1.899901057e-38
0.1328388005 -0.7657245994 0.1355097145 1.899901057e-38
-0.07482843846 -0.1996454895 -0.08169470727 1.899901057e-38
0.2396359295 -0.7496737838 0.05882544816 1.91819627e-38
-0.07301281393 -0.216506511 -0.08892133087 1.91819627e-38
-0.1038490161 -0.2709468007 -0.09641908109 1.91819627e-38
0.1787080616 -0.7551071644 0.07487626374 1.91819627e-38
-0.09527618438 -0.2426276505 -0.1035823077 1.91819627e-38
-0.04924942926 -0.3798941076 0.2690030932 1.91819627e-38
0.1910304427 -0.7543190718 0.07394196093 1.91819627e-38
0.1040989608 -0.7306796312 -0.1366579086 1.91819627e-38
-0.1384925693 -0.1991066635 -0.1111609265 1.936527215e-38
0.2519583106 -0.7488857508 0.05789114535 1.936527215e-38
0.2268687189 -0.3804849684 -0.01522500068 1.936527215e-38
-0.07328425348 -0.2951899171 -0.03723884374 1.936527215e-38
0.1109302491 -0.773272872 0.1828952581 1.936527215e-38
0.203352809 -0.7535309792 0.07300765812 1.936527215e-38
0.2307431251 -0.7302643061 -0.08910471201 1.936527215e-38
-0.07135034353 -0.3058600128 -0.02378330007 1.936527215e-38
-0.08601924777 -0.215801537 -0.09936629236 1.954822428e-38
-0.4438110888 -0.4650155604 0.07860465348 1.954822428e-38
0.4012043476 -0.7147523165 -0.1363227218 1.954822428e-38
-0.1125979275 -0.2067075968 -0.1109532267 1.954822428e-38
0.1567994952 -0.762655437 0.1222618073 1.954822428e-38
0.2868732512 -0.7420424223 0.0209505409 1.954822428e-38
0.2156751901 -0.7527429461 0.07207335532 1.954822428e-38
0.2581241429 -0.7346602678 -0.04545632005 1.954822428e-38
-0.07977002859 -0.2616866827 -0.08898475766 1.973153514e-38
-0.08057804406 -0.3693748415 -0.1015506387 1.973153514e-38
0.08833767474 -0.7793281078 0.2189016193 1.973153514e-38
-0.06869749725 -0.2517215908 -0.09199536592 1.973153514e-38
0.2882413864 -0.7450284958 0.04370900989 1.973153514e-38
-0.1481392086 -0.3108071387 -0.08437664062 1.973153514e-38
0.1670790166 -0.7297254801 -0.1185709611 1.973153514e-38
0.2574400902 -0.7331672907 -0.05683560669 1.973153514e-38
0.2403199971 -0.7511668205 0.0702047497 1.991448586e-38
0.285505116 -0.7390563488 -0.00180798769 1.991448586e-38
-0.04856536537 -0.3813871443 0.2803823352 1.991448586e-38
0.2040368617 -0.7550240755 0.08438690007 1.991448586e-38
0.05275720358 -0.7293527722 -0.1670584679 1.991448586e-38
0.3923022747 -0.7230055332 -0.07849218696 1.991448586e-38
0.272498697 -0.7383513451 -0.01225291193 1.991448586e-38
0.2991957068 -0.7412543297 0.02001622319 1.991448586e-38
0.1691218615 -0.761867404 0.1213275045 2.009743799e-38
0.09997598827 -0.7770470381 0.2065880746 2.009743799e-38
-0.4047917724 -0.467130512 0.1099394709 2.009743799e-38
0.4080449641 -0.7296826839 -0.0225302577 2.009743799e-38
-0.08295378089 -0.2418395877 -0.1045166105 2.009743799e-38
-0.05709405988 -0.3157420158 -0.01126203779 2.009743799e-38
-0.09853175282 -0.7313443422 -0.2127430439 2.009743799e-38
0.2734219432 -0.3713606 -0.06447920203 2.009743799e-38
-0.06096187234 -0.2944018543 -0.03817314655 2.028074885e-38
0.4087290168 -0.7311757207 -0.01115103066 2.028074885e-38
0.3130071163 -0.3811594844 -0.04244731739 2.028074885e-38
0.2978275716 -0.7382682562 -0.002742290497 2.028074885e-38
0.3991521597 -0.7102731466 -0.1704604626 2.028074885e-38
0.2047209293 -0.7565170527 0.09576611221 2.028074885e-38
0.07738341391 -0.7831022739 0.242594406 2.028074885e-38
-0.1247442663 -0.3000540137 -0.08832155168 2.028074885e-38
0.2047301978 -0.7288542986 -0.109994635 2.046369957e-38
-0.06825561821 -0.3685867786 -0.1024849415 2.046369957e-38
0.141750142 -0.729808569 -0.1280815899 2.046369957e-38
0.3909341395 -0.7200194597 -0.1012506634 2.046369957e-38
-0.08726909012 -0.2066245079 -0.1014425904 2.046369957e-38
0.3115180731 -0.7404662967 0.01908192039 2.046369957e-38
-0.08840066195 -0.1912565231 -0.08283670992 2.046369957e-38
0.256071955 -0.7301812172 -0.07959408313 2.046369957e-38
0.3128862083 -0.7434523702 0.04184040427 2.06466517e-38
-0.06482967734 -0.2730617523 -0.06508425623 2.06466517e-38
0.08902172744 -0.7808211446 0.2302808613 2.06466517e-38
0.2170433104 -0.7557290196 0.0948318094 2.06466517e-38
0.1930826157 -0.7587982416 0.108079657 2.06466517e-38
0.4101064801 -0.7064989805 -0.1941532642 2.06466517e-38
-0.0693815574 -0.250228554 -0.1033746004 2.06466517e-38
0.2410040498 -0.7526598573 0.08158399165 2.06466517e-38
-0.08420362324 -0.2326625586 -0.106592916 2.082996116e-38
0.2841370106 -0.7360702753 -0.02456645668 2.082996116e-38
-0.06289577484 -0.2837317884 -0.05162871629 2.082996116e-38
-0.03555893153 -0.3820921183 0.2908272743 2.082996116e-38
0.2690784037 -0.7308861613 -0.06914915144 2.082996116e-38
-0.07494671643 -0.2058364451 -0.1023768932 2.082996116e-38
0.1581676155 -0.7656415105 0.1450203508 2.082996116e-38
0.3101499379 -0.7374801636 -0.003676593304 2.082996116e-38
0.1006600559 -0.7785400152 0.2179673165 2.101291328e-38
0.4340671897 -0.7034298182 -0.2074010968 2.101291328e-38
0.3881978989 -0.7140473127 -0.146767661 2.101291328e-38
-0.4444951713 -0.4635225236 0.06722542644 2.101291328e-38
-0.07590221614 -0.2830268145 -0.06207364798 2.101291328e-38
-0.07396831363 -0.2936968803 -0.04861810803 2.101291328e-38
0.2964594662 -0.7352821827 -0.02550075948 2.101291328e-38
-0.0961419493 -0.2515665293 -0.1171633899 2.101291328e-38
0.313570261 -0.7449454069 0.05321963131 2.119586541e-38
0.1122983694 -0.7762589455 0.2056537718 2.119586541e-38
0.2553879023 -0.7286881208 -0.09097331762 2.119586541e-38
0.3977840543 -0.7072870731 -0.1932189614 2.119586541e-38
0.1034148932 -0.7291866541 -0.1480371654 2.119586541e-38
-0.07852017879 -0.2708637118 -0.08690845221 2.119586541e-38
-0.1368670315 -0.7307224274 -0.2326986045 2.119586541e-38
0.2423814535 -0.7279831171 -0.1014182493 2.119586541e-38
0.3820320964 -0.7282727361 -0.04342012107 2.137881613e-38
0.3813480139 -0.7267796993 -0.05479936302 2.137881613e-38
0.1588516831 -0.7671345472 0.1563995928 2.137881613e-38
-0.07010050118 -0.3150370121 -0.02170699835 2.137881613e-38
0.2060890496 -0.7595031857 0.1185245961 2.137881613e-38
-0.05278801546 -0.3786198795 0.1914246678 2.137881613e-38
-0.06813171506 -0.2594055831 -0.1012983024 2.137881613e-38
0.3087818325 -0.7344940901 -0.02643506229 2.137881613e-38
0.249926731 -0.3131202757 -0.1080454364 2.156176826e-38
0.2138621956 -0.3797799945 -0.02566995844 2.156176826e-38
-0.1015254036 -0.1967425048 -0.1139638349 2.156176826e-38
0.3354787827 -0.7373971939 0.005834087729 2.156176826e-38
0.1944507509 -0.7617843151 0.1308382004 2.156176826e-38
0.03708069026 -0.317102164 -0.1098959744 2.156176826e-38
-0.06816659123 -0.3257071078 -0.008251422085 2.156176826e-38
-0.07658627629 -0.2815337777 -0.07345288247 2.156176826e-38
0.1013441086 -0.7800331116 0.2293465585 2.174471899e-38
-0.0616459325 -0.2929088175 -0.04955241084 2.174471899e-38
0.4094224274 -0.7050060034 -0.2055324912 2.174471899e-38
0.3868297637 -0.7110612392 -0.1695261598 2.174471899e-38
0.2663328946 -0.7525767684 0.09109459817 2.174471899e-38
0.2944072783 -0.7308030725 -0.05963853002 2.174471899e-38
0.2677102685 -0.7279000878 -0.09190762043 2.174471899e-38
-0.0890847221 -0.1897634864 -0.09421594441 2.174471899e-38
0.2040461451 -0.7273612618 -0.1213738695 2.192767111e-38
-0.08920300007 -0.195954442 -0.1148981377 2.192767111e-38
0.1828124225 -0.7640653849 0.1431517154 2.192767111e-38
0.03958037868 -0.3354562223 -0.1057433635 2.192767111e-38
0.3703937829 -0.7305538654 -0.03110659122 2.192767111e-38
0.3464330137 -0.7336230278 -0.01785874367 2.192767111e-38
0.332742542 -0.7314249873 -0.03968290985 2.192767111e-38
0.3765595853 -0.7163283825 -0.1344541162 2.192767111e-38
0.3265766799 -0.7456504107 0.06366463006 2.211062324e-38
0.3690256476 -0.7275677919 -0.05386506021 2.211062324e-38
0.3717618883 -0.7335399389 -0.008348122239 2.211062324e-38
0.3587554395 -0.7328349352 -0.01879304647 2.211062324e-38
0.1787173301 -0.7274443507 -0.1308844984 2.211062324e-38
0.3484852016 -0.738102138 0.01627901196 2.211062324e-38
-0.04320188612 -0.3718596697 0.1449733675 2.211062324e-38
0.3854523897 -0.7357379198 0.01347610354 2.211062324e-38
0.1246207952 -0.7754708529 0.204719469 2.229357396e-38
0.3758755326 -0.7148354053 -0.1458333582 2.229357396e-38
0.3731300235 -0.7365260124 0.01441040635 2.229357396e-38
0.05207314342 -0.7278597355 -0.1784376949 2.229357396e-38
0.3190520108 -0.7292269468 -0.06150713563 2.229357396e-38
0.3573873341 -0.7298488617 -0.04155151546 2.229357396e-38
0.3601235747 -0.7358210087 0.003965482116 2.229357396e-38
0.1951348037 -0.7632772923 0.1422174126 2.229357396e-38
-0.1533146352 -0.1815406978 -0.1143792346 2.247652609e-38
0.3505373895 -0.7425812483 0.05041672289 2.247652609e-38
0.1478974223 -0.7709087133 0.1800923496 2.247652609e-38
0.2670169473 -0.7540698051 0.1024738401 2.247652609e-38
0.3614916801 -0.7388070822 0.0267239511 2.247652609e-38
0.2800326347 -0.7271120548 -0.09284192324 2.247652609e-38
-0.0478720367 -0.3552173972 0.08600081503 2.247652609e-38
-0.02322932333 -0.7296020389 -0.195590362 2.247652609e-38
-0.06688186526 -0.2685826123 -0.09922198951 2.265947681e-38
0.1157372743 -0.7283985615 -0.1489714682 2.265947681e-38
0.1910396963 -0.7266563177 -0.1318188012 2.265947681e-38
0.3156224489 -0.7494245172 0.08735738695 2.265947681e-38
-0.06039609015 -0.3020858765 -0.04747610167 2.265947681e-38
-0.1027752459 -0.1875654757 -0.1160401404 2.265947681e-38
0.3656053543 -0.7201025486 -0.1107612923 2.265947681e-38
0.07740195841 -0.7277766466 -0.1689270735 2.265947681e-38
-0.05846218765 -0.3127559423 -0.03402053565 2.284242894e-38
-0.0980758667 -0.2408964634 -0.1306189299 2.284242894e-38
-0.04388594627 -0.3703666329 0.1335941255 2.284242894e-38
-0.2597304285 -0.4193969369 -0.06785163283 2.284242894e-38
-0.07813046873 -0.1859893501 -0.117908746 2.284242894e-38
0.2916616797 -0.7524937391 0.1006052345 2.284242894e-38
-0.03077050298 -0.3925434053 0.3704819679 2.284242894e-38
0.3847776055 -0.7065820694 -0.2036638856 2.284242894e-38
-0.0565282777 -0.3234260082 -0.02056498826 2.302537966e-38
-0.432856828 -0.4612414241 0.05491184816 2.302537966e-38
-0.06087847799 -0.3545124233 0.07555588335 2.302537966e-38
-0.05141989142 -0.3816059828 0.2141831815 2.302537966e-38
0.2923550904 -0.7263239622 -0.09377623349 2.302537966e-38
0.1369431764 -0.7746828794 0.2037851661 2.302537966e-38
-0.1468893737 -0.3199841976 -0.08230033517 2.302537966e-38
-0.06301406026 -0.289922744 -0.07231087983 2.302537966e-38
0.3964159191 -0.7043009996 -0.2159774303 2.320833179e-38
-0.04855610058 -0.3537243605 0.07462158054 2.320833179e-38
-0.06563202292 -0.2777596414 -0.09714568406 2.320833179e-38
0.3546510637 -0.7238767147 -0.08706851304 2.320833179e-38
-0.07670455426 -0.2877247334 -0.09413507581 2.320833179e-38
0.06172547117 -0.3155260384 -0.11176458 2.320833179e-38
0.3176838756 -0.7262408733 -0.08426560462 2.320833179e-38
0.1725421697 -0.7693325281 0.178223744 2.320833179e-38
-0.2604144812 -0.4179038703 -0.07923087478 2.339092378e-38
0.1280596405 -0.7276105285 -0.149905771 2.339092378e-38
-0.07869625092 -0.1783053577 -0.108605817 2.339092378e-38
-0.1163474619 -0.1791765094 -0.117182143 2.339092378e-38
0.2916710377 -0.7248308659 -0.105155468 2.339092378e-38
0.2204636186 -0.7631942034 0.1517280489 2.339092378e-38
0.1609038711 -0.7716137171 0.1905373484 2.339092378e-38
0.03906667978 -0.7271547318 -0.188882634 2.339092378e-38
-0.1422421038 -0.1715756059 -0.1173898429 2.348204041e-38
0.288143754 -0.3199331164 -0.1087720394 2.348204041e-38
0.384093523 -0.7050890923 -0.2150431275 2.348204041e-38
0.1762110144 -0.3806511462 -0.03424628451 2.348204041e-38
0.2807074487 -0.7562678456 0.1242980808 2.348204041e-38
0.08972433209 -0.726988554 -0.1698613763 2.348204041e-38
0.2280068845 -0.7242920995 -0.1346217096 2.348204041e-38
-0.08631922305 -0.2324244082 -0.1222503036 2.348204041e-38
0.3621850312 -0.7126373649 -0.1676575541 2.348132155e-38
0.05138908327 -0.7263666987 -0.1898169369 2.348132155e-38
0.1492655426 -0.7738947868 0.2028508633 2.348132155e-38
-0.1345669627 -0.3191961348 -0.08323463798 2.348132155e-38
0.1527043879 -0.7260344028 -0.1517743766 2.348132155e-38
0.2327859998 -0.7624061704 0.1507937461 2.348132155e-38
0.1848646104 -0.7685444951 0.1772894412 2.348132155e-38
-0.1558143198 -0.1631866395 -0.1185318455 2.348132155e-38
0.2026780099 -0.7243751884 -0.1441323459 2.348060128e-38
0.2252819687 -0.3146964014 -0.1061768308 2.348060128e-38
-0.1299197227 -0.1707875431 -0.1183241457 2.348060128e-38
0.2690691352 -0.758548975 0.1366115957 2.348060128e-38
0.04690340161 -0.297960043 -0.1149828881 2.348060128e-38
0.1773492098 -0.7244582772 -0.1536429971 2.348060128e-38
0.2403292656 -0.7235040665 -0.1355560124 2.348060128e-38
-0.4205344319 -0.4604533613 0.05397754535 2.348060128e-38
0.2876783013 -0.3812425733 -0.05195794627 2.347952368e-38
0.03208130971 -0.2803940177 -0.1182011962 2.347952368e-38
0.4313309193 -0.6974576712 -0.2529180944 2.347952368e-38
-0.07545471191 -0.2969017625 -0.09205877036 2.347952368e-38
-0.1434919387 -0.1623985767 -0.1194661483 2.347952368e-38
0.3608169258 -0.7096512318 -0.1904160529 2.347952368e-38
0.3505467176 -0.7149184942 -0.1553439796 2.347952368e-38
0.3409605324 -0.7216786742 -0.1088926792 2.347952368e-38
0.215000391 -0.7235871553 -0.1450666487 2.347880341e-38
0.2779804468 -0.722632885 -0.1269796789 2.347880341e-38
0.3402764797 -0.7201856375 -0.1202719733 2.347880341e-38
0.1266729832 -0.7799500227 0.2388571948 2.347880341e-38
0.2211476713 -0.7646872997 0.1631072909 2.347880341e-38
0.3163091242 -0.3948156238 -0.006233278662 2.347880341e-38
-0.1754076034 -0.4032104313 -0.08784729242 2.347880341e-38
0.189671576 -0.7236702442 -0.1545773 2.347880341e-38
-0.08700329065 -0.2309313715 -0.1336295456 2.347808455e-38
-0.06244827062 -0.2976067364 -0.08161383122 2.347808455e-38
-0.06632171571 -0.3792568743 -0.08902941644 2.347808455e-38
0.3395923972 -0.7186926007 -0.1316512078 2.347808455e-38
0.03389693797 -0.297255069 -0.1254278272 2.347808455e-38
-0.02391338348 -0.7281090021 -0.2069696039 2.347808455e-38
-0.4398249984 -0.4801647663 0.126197964 2.347808455e-38
-0.09989987314 -0.7283582687 -0.2355015278 2.347808455e-38
0.2649740279 -0.7219278812 -0.137424618 2.347700555e-38
-0.105274938 -0.1692114174 -0.1201927513 2.347700555e-38
-0.08063015342 -0.1676352918 -0.1220613644 2.347700555e-38
0.03083146736 -0.2712170184 -0.1202775091 2.347700555e-38
-0.08652727306 -0.3068668246 -0.0890481621 2.347700555e-38
-0.04525406659 -0.3673805594 0.1108356565 2.347700555e-38
-0.07457104325 -0.7282751799 -0.2259908915 2.347700555e-38
-0.04936770722 -0.386085093 0.2483208925 2.347700555e-38
0.139697969 -0.7253293991 -0.1622193158 2.347628668e-38
-0.06313233078 -0.2961136997 -0.09299307317 2.347628668e-38
0.05979156494 -0.3048559427 -0.1252201349 2.347628668e-38
0.08904027939 -0.7254955769 -0.1812406033 2.347628668e-38
-0.0622465983 -0.3515263498 0.05279741436 2.347628668e-38
0.3156317174 -0.7217617035 -0.1184033677 2.347628668e-38
0.1520203203 -0.7245413661 -0.1631536186 2.347628668e-38
0.3382242918 -0.7157065272 -0.1544096768 2.347628668e-38
0.02606023848 -0.7264497876 -0.1993275881 2.347520768e-38
0.04315387085 -0.2704289556 -0.1212118119 2.347520768e-38
-0.04868364707 -0.3875781298 0.2597001195 2.347520768e-38
0.03264709562 -0.2880780399 -0.1275041252 2.347520768e-38
0.1389953494 -0.7791619301 0.237922892 2.347520768e-38
0.2129595429 -0.3154844642 -0.105242528 2.347520768e-38
0.3594487906 -0.7066651583 -0.2131745219 2.347520768e-38
-0.0709028393 -0.3197349608 -0.05376841873 2.347520768e-38
0.03139724955 -0.2789009809 -0.1295804381 2.347448882e-38
0.07603383809 -0.7247905731 -0.1916855425 2.347448882e-38
0.06672484428 -0.3522341549 -0.1034593582 2.347448882e-38
0.1766651422 -0.7229652405 -0.1650222242 2.347448882e-38
0.2157960981 -0.3904500604 -0.0122143887 2.347448882e-38
0.3149476349 -0.7202687263 -0.1297826022 2.347448882e-38
-0.1200969964 -0.1516454071 -0.1234110668 2.347448882e-38
0.1013627052 -0.7247074842 -0.1821749061 2.347448882e-38
0.02833177894 -0.2528629601 -0.12443012 2.347340982e-38
-0.03636126965 -0.386790067 0.2587658167 2.347340982e-38
0.05172671378 -0.2421098053 -0.1283750236 2.347340982e-38
-0.04731552303 -0.3905642033 0.282458663 2.347340982e-38
-0.0875775069 -0.7275701761 -0.2364358306 2.347340982e-38
-0.4541995525 -0.4764736891 0.09299449623 2.347340982e-38
0.3259019256 -0.7164945602 -0.153475374 2.347340982e-38
-0.1023911685 -0.2056813836 -0.1275449246 2.347340982e-38
0.1985551119 -0.7707425356 0.1991136521 2.347269095e-38
0.1390139014 -0.7238363624 -0.1735985726 2.347269095e-38
0.05371840671 -0.3515291512 -0.1139042974 2.347269095e-38
-0.4411931336 -0.4771786928 0.1034394652 2.347269095e-38
0.2136322707 -0.7206010818 -0.1678251326 2.347269095e-38
0.2512835264 -0.7197299004 -0.159248814 2.347269095e-38
0.0270819366 -0.243685931 -0.126506418 2.347269095e-38
0.2274344862 -0.3881689608 -0.02452795953 2.347269095e-38
0.08835621178 -0.7240024805 -0.1926198453 2.347161195e-38
0.3252178431 -0.7150015831 -0.1648546457 2.347161195e-38
0.1513362676 -0.7230483294 -0.1745328754 2.347161195e-38
-0.04252709448 -0.4010154903 0.3621133566 2.347161195e-38
0.02889756113 -0.2605469227 -0.133733049 2.347161195e-38
0.04246981069 -0.2689359188 -0.1325910538 2.347161195e-38
-0.05427441746 -0.3818247318 0.1479839683 2.347161195e-38
0.1883034557 -0.7206841111 -0.1773357987 2.347161195e-38
0.1285504699 -0.170861125 -0.1608285308 2.347089308e-38
0.3245337903 -0.7135084867 -0.1762338728 2.347089308e-38
