# .PCD v0.7 - Point Cloud Data file format
VERSION 0.7
FIELDS x y z rgb
SIZE 4 4 4 4
TYPE F F F F
COUNT 1 1 1 1
WIDTH 839
HEIGHT 1
VIEWPOINT 0 0 0 1 0 0 0
POINTS 839
DATA ascii
0.04564844817 -0.3640993834 -0.1405460089 9.290090338e-39
0.169454053 -0.3639569879 -0.1590941548 9.290090338e-39
0.148745656 -0.3206401467 -0.2234213203 9.290090338e-39
-0.1867805272 -0.4020240605 -0.1508536339 9.290090338e-39
0.05797182024 -0.363316685 -0.1414712518 9.290090338e-39
0.2542678714 -0.4261247516 -0.008289778605 9.290090338e-39
0.3046403527 -0.4209847748 0.3085742593 9.290090338e-39
0.06464152783 -0.3843626976 -0.04833160713 9.290090338e-39
0.04043960571 -0.3398227096 -0.190244779 9.107495543e-39
0.1730533391 -0.3589802384 -0.06083071604 9.107495543e-39
-0.2323261052 -0.432662189 -0.1408947706 9.107495543e-39
0.1656003147 -0.3426495194 -0.1860295087 9.107495543e-39
0.3058896661 -0.4301538765 0.3106602132 9.107495543e-39
0.2889709175 -0.3094707429 0.2721610069 9.107495543e-39
-0.2472538948 -0.4213065505 -0.1648189127 9.107495543e-39
-0.2186475992 -0.4348487258 -0.1190565825 9.107495543e-39
-0.1861029714 -0.4035086632 -0.1394719332 8.924899347e-39
0.2021776885 -0.3205920756 0.1951826215 8.924899347e-39
0.04903618991 -0.3715224266 -0.08363746107 8.924899347e-39
0.135871619 -0.3737280965 -0.09940987825 8.924899347e-39
-0.2453270108 -0.4319602847 -0.1513512433 8.924899347e-39
-0.1828210056 -0.4171316028 -0.1032408476 8.924899347e-39
0.3039627969 -0.4195001721 0.2971925437 8.924899347e-39
0.05604495108 -0.3526629806 -0.1549389064 8.924899347e-39
0.05015856028 -0.3269016743 -0.2160193771 8.742304551e-39
0.1990014911 -0.3007692099 0.179628998 8.742304551e-39
0.06271465868 -0.3737089634 -0.06179927662 8.742304551e-39
0.04111715406 -0.3413073123 -0.1788630486 8.742304551e-39
0.1924587339 -0.3335130811 0.2209572196 8.742304551e-39
0.04575422406 -0.357899487 -0.1198685467 8.742304551e-39
0.2828941345 -0.3560990393 0.2835160494 8.742304551e-39
0.2773250937 -0.311738044 0.2844679356 8.742304551e-39
-0.1887073815 -0.3913703263 -0.1643213183 8.560068489e-39
0.1635459363 -0.3595014513 0.006298827007 8.560068489e-39
0.1917811781 -0.3320284784 0.209575519 8.560068489e-39
0.2877215743 -0.3003016114 0.2700750232 8.560068489e-39
0.1880332083 -0.3045211434 0.2033176273 8.560068489e-39
0.1696656048 -0.3515571952 -0.1177392602 8.560068489e-39
0.06542484462 -0.379647404 -0.01627245545 8.560068489e-39
0.189854309 -0.321374774 0.1961078644 8.560068489e-39
0.2903900743 -0.411113739 0.2960318327 8.377473694e-39
0.2066031992 -0.3495840132 0.2128222138 8.377473694e-39
0.3108869493 -0.4668303728 0.3190040588 8.377473694e-39
0.1892825365 -0.3136902452 0.2054035962 8.377473694e-39
-0.2439719141 -0.4349294901 -0.1285878271 8.377473694e-39
0.06610239297 -0.3811320066 -0.004890728742 8.377473694e-39
0.2935662866 -0.4309365749 0.3115854561 8.377473694e-39
0.1643509865 -0.3334803879 -0.1881154776 8.377473694e-39
0.1873556674 -0.3030365109 0.1919359267 8.194878899e-39
0.17112647 -0.3483265042 -0.07429838181 8.194878899e-39
0.2012885958 -0.3315072358 0.1424459964 8.194878899e-39
-0.2172925025 -0.4378179312 -0.09629318118 8.194878899e-39
-0.3371385634 -0.4530678988 -0.03013222292 8.194878899e-39
0.277494967 -0.4042119086 0.3062528074 8.194878899e-39
0.04914196581 -0.3653225601 -0.06295999885 8.194878899e-39
-0.1782897264 -0.4399237037 -0.06492376328 8.194878899e-39
0.1984297335 -0.2930847108 0.1889247298 8.012284103e-39
0.1890709847 -0.3260900378 0.1640486717 8.012284103e-39
0.1624241173 -0.3228266537 -0.201583162 8.012284103e-39
0.2744891644 -0.3955673873 -0.02777985483 8.012284103e-39
0.2948155999 -0.4401056767 0.3136714101 8.012284103e-39
0.05479562283 -0.3434938192 -0.1570248753 8.012284103e-39
0.1923529655 -0.3397130072 0.2002797872 8.012284103e-39
0.1351729035 -0.3122537136 -0.2245820314 8.012284103e-39
0.2045705616 -0.3451301754 0.1786770523 7.829687907e-39
0.1860005707 -0.3000673056 0.1691724807 7.829687907e-39
0.2006110549 -0.3300226331 0.1310643107 7.829687907e-39
0.1916754097 -0.3382283747 0.1888980865 7.829687907e-39
-0.3234601319 -0.4552544355 -0.0082940422 7.829687907e-39
0.06146533787 -0.3645398617 -0.06388524175 7.829687907e-39
0.273239851 -0.3863982856 -0.02986581624 7.829687907e-39
-0.3118142784 -0.4529871345 -0.02060098201 7.829687907e-39
0.07175605744 -0.3593033254 -0.09895560145 7.647093112e-39
0.06214288622 -0.3660244644 -0.05250353739 7.647093112e-39
0.1725873351 -0.3450958133 -0.03085752577 7.647093112e-39
0.04450489581 -0.3487303555 -0.1219545007 7.647093112e-39
0.2751667202 -0.39705199 -0.01639815606 7.647093112e-39
0.2025379092 -0.3406763375 0.1445319653 7.647093112e-39
0.2778968513 -0.319422543 0.2751722038 7.647093112e-39
0.2960649431 -0.4492748082 0.315757364 7.647093112e-39
0.1942798197 -0.3503667116 0.2137474418 7.464498317e-39
0.1105261594 -0.3138191104 -0.2227315456 7.464498317e-39
0.1889652163 -0.3322899342 0.1433712393 7.464498317e-39
0.282322377 -0.3484145105 0.2928117812 7.464498317e-39
0.1865723431 -0.3077517748 0.1598767489 7.464498317e-39
0.08587940782 -0.3153845072 -0.2208810598 7.464498317e-39
0.2607460022 -0.3760026693 0.2895384729 7.464498317e-39
-0.2029576302 -0.3814993203 -0.17686373 7.464498317e-39
0.0525297001 -0.3727456033 -0.006051447242 7.281903522e-39
0.2812429368 -0.4317192733 0.312510699 7.281903522e-39
0.06123260409 -0.3169498444 -0.219030574 7.281903522e-39
-0.2374291718 -0.4021856189 -0.1699160784 7.281903522e-39
-0.3288805187 -0.4433775544 -0.09934771061 7.281903522e-39
0.1908920854 -0.3429436684 0.1568389088 7.281903522e-39
0.2780667245 -0.4118964374 0.2969570756 7.281903522e-39
0.04890923947 -0.3177325726 -0.2181053311 7.281903522e-39
0.2643241584 -0.3110361397 0.2740114927 7.099307325e-39
0.136866495 -0.3566130102 -0.02599583566 7.099307325e-39
0.2791461945 -0.3285916746 0.2772581577 7.099307325e-39
-0.3534215093 -0.4387430251 -0.07681976259 7.099307325e-39
0.2793160379 -0.4210655689 0.2990430295 7.099307325e-39
0.05320724845 -0.374230206 0.005330249667 7.099307325e-39
-0.2686187029 -0.4364948571 -0.1267373413 7.099307325e-39
-0.2041858286 -0.4323199391 -0.06515924633 7.099307325e-39
-0.3214274943 -0.4597082734 0.02585108019 6.91671253e-39
0.04789263755 -0.3561534286 -0.0650459528 6.91671253e-39
0.1957195401 -0.2871462703 0.1433978826 6.91671253e-39
0.1992559582 -0.3270533979 0.1083008572 6.91671253e-39
0.149973169 -0.3511150479 0.005138112232 6.91671253e-39
0.2505199015 -0.3986173868 -0.01454767026 6.91671253e-39
0.2011828125 -0.3377071321 0.1217685193 6.91671253e-39
-0.2029365003 -0.4414890707 -0.06307327747 6.91671253e-39
0.2077467591 -0.3649530411 0.1942307353 6.734117735e-39
-0.301417768 -0.4415507019 -0.03499391302 6.734117735e-39
-0.1931117326 -0.422368139 -0.06817045808 6.734117735e-39
0.1978579462 -0.2854002118 0.1982204616 6.734117735e-39
-0.254940182 -0.4386813939 -0.104899168 6.734117735e-39
-0.2282608151 -0.4415698647 -0.07260452211 6.734117735e-39
0.1847512573 -0.2908982038 0.1670865268 6.734117735e-39
0.0499252826 -0.3606072366 -0.03090083599 6.734117735e-39
-0.2652309537 -0.4439179301 -0.06982879341 6.55152294e-39
-0.1827152371 -0.4109317362 -0.08256338537 6.55152294e-39
0.2031096965 -0.3483608663 0.1352362335 6.55152294e-39
0.2503494918 -0.3874390721 0.3039313555 6.55152294e-39
-0.2152810395 -0.3822820187 -0.1759384871 6.55152294e-39
0.06157110631 -0.3583399355 -0.0432077758 6.55152294e-39
0.1960797459 -0.3072305918 0.09274722636 6.55152294e-39
0.1950419843 -0.2856616676 0.1320161819 6.55152294e-39
0.1844339222 -0.3094978929 0.1050541699 6.368926744e-39
0.2675003707 -0.3308589756 0.2895651162 6.368926744e-39
0.18064484 -0.3055686355 -0.2610376477 6.368926744e-39
0.2644939721 -0.4035100043 0.2957963645 6.368926744e-39
0.1840737015 -0.2894135714 0.1557048261 6.368926744e-39
-0.3200723827 -0.4626774788 0.04861450195 6.368926744e-39
0.1691995859 -0.33767277 -0.08776606619 6.368926744e-39
0.1818941534 -0.3147377372 -0.2589516938 6.368926744e-39
0.2499481589 -0.3909328878 -0.005251906812 6.186331949e-39
-0.2925879061 -0.4395448864 -0.1135051399 6.186331949e-39
-0.2665860653 -0.4409486949 -0.09259220958 6.186331949e-39
0.2526782751 -0.3133034408 0.2863184214 6.186331949e-39
0.1462470144 -0.3023018837 -0.2275932431 6.186331949e-39
0.107476905 -0.3477861285 -0.103817299 6.186331949e-39
-0.001707274467 -0.3356472552 -0.2429870814 6.186331949e-39
0.02293947153 -0.3340818584 -0.2448375672 6.186331949e-39
0.2542461455 -0.4474305212 0.2181836963 6.003737154e-39
0.1837563664 -0.3080132604 0.09367246926 6.003737154e-39
0.2153484672 -0.4137678444 0.227423951 6.003737154e-39
0.0855403021 -0.3552899361 -0.05643998459 6.003737154e-39
0.195402205 -0.3057459593 0.08136553317 6.003737154e-39
0.1979008615 -0.3240841925 0.08553745598 6.003737154e-39
-0.2973524928 -0.4504583776 0.03329635784 6.003737154e-39
0.04054538161 -0.3336228132 -0.1695673168 6.003737154e-39
0.2687496841 -0.3400281072 0.2916510701 5.820783626e-39
0.1339235753 -0.3030845821 -0.2266680002 5.820783626e-39
0.2471733093 -0.3676162362 0.288377732 5.820783626e-39
0.009366774932 -0.3256954253 -0.2459982932 5.820783626e-39
0.2076409757 -0.3711529374 0.1735532433 5.820783626e-39
0.1253264397 -0.3526804149 0.00698859524 5.820783626e-39
0.1875043362 -0.3355205953 0.09993036091 5.820783626e-39
-0.2947480381 -0.4625967443 0.05814574286 5.820783626e-39
-0.04975149781 -0.3479471207 -0.2372001559 5.63818743e-39
0.1678444892 -0.3347035348 -0.1105294675 5.63818743e-39
0.1953592896 -0.2670619488 0.1940485388 5.63818743e-39
-0.03617877513 -0.3563335538 -0.2360394299 5.63818743e-39
0.1827186048 -0.286444366 0.1329414248 5.63818743e-39
0.01254296862 -0.3455182612 -0.2304446399 5.63818743e-39
0.1683214605 -0.3063513339 -0.2601124048 5.63818743e-39
-0.01210377645 -0.347083658 -0.2285941541 5.63818743e-39
-0.01028267667 -0.3639372885 -0.2358039618 5.455592635e-39
0.1894312203 -0.3461743295 0.1133980155 5.455592635e-39
0.1092768312 -0.3046499789 -0.2248175144 5.455592635e-39
0.04257802665 -0.3380766213 -0.1354221851 5.455592635e-39
-0.306160599 -0.4311584532 -0.114665851 5.455592635e-39
0.1920356452 -0.3583126962 0.1382474303 5.455592635e-39
0.1959739923 -0.3134304881 0.07206979394 5.455592635e-39
-0.2841182649 -0.4174547195 -0.1413657218 5.455592635e-39
0.2133158296 -0.4093140066 0.1932788044 5.272997839e-39
-0.1846421063 -0.4002779722 -0.09603103995 5.272997839e-39
0.08463007957 -0.3062153459 -0.2229670286 5.272997839e-39
-0.06082554907 -0.3578989506 -0.2341889441 5.272997839e-39
0.2726674378 -0.4600093067 0.3196938336 5.272997839e-39
0.1999546736 -0.3885278106 0.2334730029 5.272997839e-39
0.2178471088 -0.4321061075 0.2315958738 5.272997839e-39
0.2536743879 -0.4397460222 0.2274794281 5.272997839e-39
-0.02760337107 -0.3280435205 -0.2432225645 5.090401643e-39
0.03533653915 -0.3093461394 -0.219266057 5.090401643e-39
0.02668743394 -0.3615892231 -0.2385796756 5.090401643e-39
0.2126382738 -0.4078294039 0.1818971038 5.090401643e-39
0.1720155627 -0.3374113142 -0.02156176046 5.090401643e-39
0.1592479199 -0.303003788 -0.2171367854 5.090401643e-39
-0.01085445192 -0.3562527597 -0.2265082002 5.090401643e-39
-0.009033355862 -0.37310642 -0.2337179929 5.090401643e-39
0.1868914515 -0.3514142036 -0.2506078482 4.907806848e-39
0.1947875321 -0.2593774498 0.2033442706 4.907806848e-39
0.1946400553 -0.3704510331 0.1630967855 4.907806848e-39
0.1825717092 -0.3162223399 -0.2475699633 4.907806848e-39
0.04758626223 -0.3325164914 -0.246688053 4.907806848e-39
0.02361701988 -0.3355664611 -0.2334558368 4.907806848e-39
0.2171695679 -0.4306215048 0.2202141732 4.907806848e-39
0.008117450401 -0.3165263236 -0.2480842471 4.907806848e-39
0.0459657684 -0.3454996645 -0.07851363719 4.725212053e-39
-0.08547231555 -0.3594643176 -0.2323384583 4.725212053e-39
0.1713380218 -0.3359267116 -0.03294348717 4.725212053e-39
-0.03368012607 -0.374671787 -0.2318675071 4.725212053e-39
-0.01335309725 -0.3379145563 -0.230680123 4.725212053e-39
0.04664331675 -0.346984297 -0.06713192165 4.725212053e-39
0.2042744011 -0.4237196743 0.2304351479 4.725212053e-39
0.1939624995 -0.3689664006 0.1517150849 4.725212053e-39
0.2164920121 -0.4291368723 0.2088324726 4.542257124e-39
0.05625649542 -0.3402631283 -0.1135840118 4.542257124e-39
0.2392754555 -0.3973908722 0.3069425821 4.542257124e-39
-0.3472177982 -0.4459046423 0.04629306495 4.542257124e-39
0.1288416833 -0.3325977921 -0.1418988854 4.542257124e-39
0.2158144712 -0.4276522696 0.1974507272 4.542257124e-39
-0.02567649633 -0.3386972547 -0.2297548801 4.542257124e-39
-0.08422299474 -0.3686334491 -0.2302525043 4.542257124e-39
0.1977950782 -0.330284059 0.0648599714 4.359662329e-39
0.002718241885 -0.3646391928 -0.2253474742 4.359662329e-39
0.256426245 -0.3408107758 0.292576313 4.359662329e-39
0.2355274856 -0.3698835373 0.3006846905 4.359662329e-39
-0.3190557659 -0.4242566228 -0.1044448763 4.359662329e-39
0.2107114047 -0.3971756995 0.1684294343 4.359662329e-39
0.1835448295 -0.320413053 0.05231754482 4.359662329e-39
-0.02885269374 -0.3188743889 -0.2453085184 4.359662329e-39
0.1850703657 -0.3345605731 -0.2433980405 4.177066133e-39
0.2101396322 -0.3894911706 0.1777251661 4.177066133e-39
-0.02192853019 -0.3662045896 -0.2234969884 4.177066133e-39
0.05828914046 -0.3447169662 -0.07943888009 4.177066133e-39
-0.04782462865 -0.3586008549 -0.2237324715 4.177066133e-39
0.05008491129 -0.3508546948 -0.2425161302 4.177066133e-39
-0.05832690001 -0.3762371838 -0.2300170213 4.177066133e-39
0.2492488772 -0.4107540548 0.2098398358 4.177066133e-39
0.2125324905 -0.4140293002 0.1612196714 3.994471337e-39
0.2618255317 -0.2926978767 0.269839555 3.994471337e-39
0.2455009073 -0.38324669 0.2035819441 3.994471337e-39
-0.1088697687 -0.3701988459 -0.2284020185 3.994471337e-39
0.2348499298 -0.3683989346 0.2893029749 3.994471337e-39
0.03594044596 -0.3347837925 -0.2343810946 3.994471337e-39
0.1836076975 -0.2755291462 0.1856780499 3.994471337e-39
0.1945131272 -0.3166611493 0.02862891182 3.994471337e-39
-0.03425189853 -0.366987288 -0.2225717455 3.81151781e-39
0.1914426982 -0.2906383872 0.03375271708 3.81151781e-39
-0.03799986839 -0.3394799232 -0.2288296372 3.81151781e-39
0.1573210508 -0.2923501134 -0.2306044549 3.81151781e-39
0.241774112 -0.4157291055 0.31111449 3.81151781e-39
-0.3322899938 -0.4572602808 0.07021719962 3.81151781e-39
0.1920144707 -0.298322916 0.02445698343 3.81151781e-39
-0.1858914346 -0.3911088705 -0.09811700881 3.81151781e-39
0.1185509562 -0.3378342986 -0.1068284959 3.628921614e-39
0.06925741583 -0.3409650922 -0.1031275243 3.628921614e-39
0.08632361889 -0.3505746722 -0.02438082546 3.628921614e-39
0.1547487676 -0.2979648709 -0.2612731457 3.628921614e-39
0.2015642077 -0.4177812338 0.1849083006 3.628921614e-39
-0.02692582086 -0.3295281231 -0.231840834 3.628921614e-39
0.1770667136 -0.3705351651 -0.2455106676 3.628921614e-39
-0.005455244333 -0.3081398904 -0.2492449731 3.628921614e-39
-0.1653105468 -0.4619313776 0.1720061302 3.446326818e-39
-0.1640612185 -0.4711005092 0.1740920991 3.446326818e-39
0.2137818187 -0.4231984317 0.1633056253 3.446326818e-39
0.1758173853 -0.3613660336 -0.2475966364 3.446326818e-39
-0.1911002547 -0.3668321967 -0.1478157789 3.446326818e-39
0.1062275767 -0.338616997 -0.105903253 3.446326818e-39
0.1819999367 -0.3085378408 -0.2382742167 3.446326818e-39
0.032764256 -0.3149609268 -0.2499347329 3.446326818e-39
-0.0177786164 -0.3089225888 -0.2483197302 3.26337189e-39
0.209356308 -0.3942064643 0.145666033 3.26337189e-39
0.05866031349 -0.3225646615 -0.2496992648 3.26337189e-39
0.1977104694 -0.3964737356 0.1579729766 3.26337189e-39
-0.1832870096 -0.4032472074 -0.07326762378 3.26337189e-39
-0.1878183037 -0.3804551363 -0.1115846932 3.26337189e-39
0.2131042778 -0.421713829 0.1519239247 3.26337189e-39
0.1841166019 -0.3280975521 0.04302180931 3.26337189e-39
-0.1199438199 -0.380150646 -0.2253908068 3.080777095e-39
0.1957624406 -0.325830251 0.03071487322 3.080777095e-39
-0.1795607656 -0.4520603418 0.1594637185 3.080777095e-39
0.005216890946 -0.3829774559 -0.2211755514 3.080777095e-39
0.04009032249 -0.2775017619 -0.2592038512 3.080777095e-39
0.1795012802 -0.2901995778 -0.2424461395 3.080777095e-39
0.02901628427 -0.2874535918 -0.2561926246 3.080777095e-39
-0.3737913966 -0.4368162751 0.03467588499 3.080777095e-39
0.1926490963 -0.2611235082 0.1485216916 2.898180898e-39
0.1919298619 -0.3645125628 0.1175699458 2.898180898e-39
-0.1002943367 -0.3419087827 -0.2355851382 2.898180898e-39
-0.3442742825 -0.4181374907 -0.09329865873 2.898180898e-39
-0.2067056 -0.3539919555 -0.1831216216 2.898180898e-39
-0.07689688355 -0.3311742842 -0.2395215929 2.898180898e-39
0.164743349 -0.3713178337 -0.2445854247 2.898180898e-39
0.03026560508 -0.2966226935 -0.2541066706 2.898180898e-39
0.212426722 -0.4202292264 0.1405421793 2.715227371e-39
0.190722242 -0.2504698038 0.135054037 2.715227371e-39
0.1867210269 -0.340235889 0.06787116826 2.715227371e-39
0.2401016951 -0.4313595891 0.2263186872 2.715227371e-39
0.03968840837 -0.3622911274 -0.2281232029 2.715227371e-39
-0.1126177385 -0.3426914811 -0.2346598953 2.715227371e-39
0.1918029338 -0.3107227087 -0.01689793542 2.715227371e-39
0.1634940207 -0.3621487021 -0.2466713935 2.715227371e-39
-0.1106908694 -0.3533451855 -0.2211922109 2.532632576e-39
0.00754567422 -0.3088418245 -0.2387885004 2.532632576e-39
0.05366302282 -0.285888195 -0.2580431104 2.532632576e-39
0.1857479066 -0.3360452056 -0.2320163399 2.532632576e-39
0.1894729137 -0.2413006723 0.1329680681 2.532632576e-39
0.2421760261 -0.3309397399 0.2800338864 2.532632576e-39
-0.04407665506 -0.3861082196 -0.2174745798 2.532632576e-39
0.1888183206 -0.3620679379 -0.2371401489 2.532632576e-39
-0.06582283974 -0.3212224841 -0.2425328046 2.349677647e-39
0.2441028953 -0.3415934741 0.2935015559 2.349677647e-39
0.1937297881 -0.3213764131 -0.003430275479 2.349677647e-39
0.1944073439 -0.3228610158 0.007951449603 2.349677647e-39
0.1510007977 -0.270457536 -0.2675310373 2.349677647e-39
-0.3005286753 -0.4306355417 0.01774270087 2.349677647e-39
-0.3458627164 -0.4488738775 0.06905648857 2.349677647e-39
0.1789077669 -0.3038208783 -0.006676963065 2.349677647e-39
0.2055025697 -0.3728989959 0.1187306643 2.167082852e-39
0.04641059041 -0.2993943095 -0.2222772688 2.167082852e-39
-0.05474878848 -0.3112706542 -0.2455440015 2.167082852e-39
-0.05640002713 -0.386890918 -0.2165493369 2.167082852e-39
0.1938567311 -0.3751663268 0.1310376078 2.167082852e-39
0.198938638 -0.3456531167 0.04626849666 2.167082852e-39
0.191125378 -0.3092380762 -0.02827963419 2.167082852e-39
0.02986363135 -0.3814120591 -0.2230260372 2.167082852e-39
0.1900446862 -0.2489851862 0.1236723363 1.984127923e-39
0.06598638743 -0.2851054966 -0.2589683533 1.984127923e-39
-0.2998511195 -0.4321201444 0.02912442759 1.984127923e-39
0.1375017464 -0.2381180674 -0.2421949953 1.984127923e-39
0.2351043969 -0.3946831226 0.2179748416 1.984127923e-39
0.2067518979 -0.3820680976 0.1208166331 1.984127923e-39
-0.09461949766 -0.3800698519 -0.2158595771 1.984127923e-39
-0.007276339456 -0.2912862897 -0.2420351654 1.984127923e-39
0.1803257167 -0.2619062066 0.1494469345 1.801533128e-39
0.09687980264 -0.3293857276 -0.2503890395 1.801533128e-39
0.1191015691 -0.2855290174 -0.2299146801 1.801533128e-39
0.1771495342 -0.2420833707 0.133893311 1.801533128e-39
0.1931791902 -0.3736816943 0.1196559072 1.801533128e-39
0.1881607324 -0.2770154476 -0.002478364855 1.801533128e-39
0.1202772334 -0.3186511993 -0.2543254793 1.801533128e-39
0.1665951759 -0.3255344331 -0.1126154363 1.801533128e-39
-0.3907518983 -0.4210068285 -0.02339337766 1.618578199e-39
0.1872927994 -0.3479204178 0.05857543275 1.618578199e-39
0.0697343573 -0.3126128614 -0.2527104616 1.618578199e-39
-0.05724743009 -0.292932421 -0.2497159243 1.618578199e-39
-0.3900743425 -0.4224914312 -0.01201168075 1.618578199e-39
0.1923746914 -0.3184072077 -0.02619367279 1.618578199e-39
-0.1138670668 -0.3335223496 -0.2367458642 1.618578199e-39
0.1904478371 -0.3077534735 -0.03966135904 1.618578199e-39
-0.1483385563 -0.354208678 -0.2297982126 1.435982003e-39
0.2022206038 -0.3592760563 0.0824996084 1.435982003e-39
0.1909767091 -0.2767540216 0.06372594833 1.435982003e-39
0.1511705816 -0.3629314005 -0.2457461357 1.435982003e-39
0.09445482492 -0.2870944142 -0.2280641943 1.435982003e-39
0.1785046309 -0.245052591 0.1566567123 1.435982003e-39
0.2301070988 -0.3580066562 0.209630996 1.435982003e-39
0.165917635 -0.3240498304 -0.1239971519 1.435982003e-39
0.06723571569 -0.2942746282 -0.2568823993 1.253028475e-39
-0.1445905864 -0.381716013 -0.223540321 1.253028475e-39
0.09563048929 -0.3202165961 -0.2524749935 1.253028475e-39
0.1165292636 -0.2911438346 -0.2605833709 1.253028475e-39
-0.01959971339 -0.2920689583 -0.2411099374 1.253028475e-39
0.1796481758 -0.2604215741 0.1380652338 1.253028475e-39
-0.2984960079 -0.4350893795 0.05188784748 1.253028475e-39
0.1505026519 -0.2388199717 -0.2317385226 1.253028475e-39
0.1645625383 -0.3210805953 -0.1467605829 1.070432279e-39
0.09937845916 -0.3477239311 -0.2462171018 1.070432279e-39
-0.1328389645 -0.3732488155 -0.2151698023 1.070432279e-39
0.1652400792 -0.3225651979 -0.1353788525 1.070432279e-39
-0.2528229356 -0.3769455552 -0.1638670266 1.070432279e-39
0.1879491806 -0.2894152403 -0.04383328557 1.070432279e-39
-0.03067379072 -0.3020207882 -0.2380987257 1.070432279e-39
-0.09421757609 -0.2952805161 -0.2469401956 1.070432279e-39
0.1017072424 -0.2735882998 -0.2638300657 8.874787512e-40
0.1925433278 -0.2673234344 0.1278442591 8.874787512e-40
0.1054552123 -0.3010956645 -0.2575721741 8.874787512e-40
-0.2978184819 -0.4365739822 0.06326954812 8.874787512e-40
0.104205884 -0.291926533 -0.259658128 8.874787512e-40
-0.08189417422 -0.2944978178 -0.2478654385 8.874787512e-40
-0.1261904389 -0.334305048 -0.2358206213 8.874787512e-40
0.135099262 -0.3362067342 -0.2510787845 8.874787512e-40
0.07173488289 -0.2993135452 -0.212746039 7.045238224e-40
-0.1119401902 -0.3441760838 -0.2232781798 7.045238224e-40
0.233028844 -0.3515452743 0.2965127528 7.045238224e-40
0.1892196685 -0.3585741222 0.07204309851 7.045238224e-40
0.1845826209 -0.3419819772 0.01304861531 7.045238224e-40
-0.1808100939 -0.4428912103 0.1573777497 7.045238224e-40
0.1864254624 -0.3375298083 -0.2206346393 7.045238224e-40
0.03884100169 -0.2683326602 -0.2612898052 7.045238224e-40
0.1885209531 -0.2970997691 -0.05312902108 5.219290273e-40
0.11977911 -0.2870136499 -0.2185329795 5.219290273e-40
0.152429536 -0.2494737208 -0.2182708532 5.219290273e-40
0.2317795306 -0.3423761725 0.2944267988 5.219290273e-40
-0.1704866737 -0.374112308 -0.223775804 5.219290273e-40
0.04969255626 -0.3130172491 -0.1860461831 5.219290273e-40
-0.2042075396 -0.4536257386 0.1613142043 5.219290273e-40
-0.1495878696 -0.3450395763 -0.2318841815 5.219290273e-40
-0.3866865933 -0.4299144745 0.0448968634 3.389740985e-40
-0.1242635623 -0.3449587822 -0.2223529369 3.389740985e-40
-0.1286890805 -0.3159668148 -0.239992559 3.389740985e-40
0.1987270862 -0.3580529094 0.004913577344 3.389740985e-40
0.1074557304 -0.2877963185 -0.2176077366 3.389740985e-40
0.199404642 -0.3595375121 0.01629530266 3.389740985e-40
0.1738264561 -0.2520385385 -0.2621717155 3.389740985e-40
-0.1697360426 -0.4329394102 0.1543665528 3.389740985e-40
-0.02084903792 -0.2828998566 -0.2431958914 1.56020571e-40
0.1808563769 -0.293168813 -0.2196827233 1.56020571e-40
0.1910195947 -0.3154379725 -0.04895709455 1.56020571e-40
0.1802199483 -0.2681061029 0.128769502 1.56020571e-40
0.1886895895 -0.246015951 0.1009088829 1.56020571e-40
0.1812148243 -0.2509910464 0.2021835595 1.56020571e-40
-0.1397631317 -0.3259186447 -0.2369813472 1.56020571e-40
-0.1058633998 -0.2975478172 -0.2346332371 1.56020571e-40
-0.3302573264 -0.4617140889 0.1043623239 6.490113838e-41
-0.1729853153 -0.355774045 -0.2279477268 6.490113838e-41
0.04674909264 -0.3407844305 -0.0464544557 6.490113838e-41
0.2077896595 -0.4036370218 0.08154767007 6.490113838e-41
0.2047192603 -0.3776142895 0.0866715312 6.490113838e-41
-0.1652047634 -0.4557314813 0.1926835626 6.490113838e-41
0.1940054148 -0.4076504111 0.0390320532 6.490113838e-41
-0.2971409261 -0.4380585849 0.0746512413 6.490113838e-41
-0.3036836982 -0.4708024561 0.1159795225 2.496469266e-40
0.2042961568 -0.4024139047 0.003961690236 2.496469266e-40
-0.3594354093 -0.4404874444 0.06789576262 2.496469266e-40
-0.2926096618 -0.460850656 0.1129683256 2.496469266e-40
0.1388568431 -0.2410872877 -0.2194315791 2.496469266e-40
0.179436639 -0.2728213966 0.09671031684 2.496469266e-40
-0.3038106561 -0.4170125723 -0.01848838106 2.496469266e-40
0.2114525139 -0.3791334331 0.2932394445 2.496469266e-40
-0.1750294864 -0.4748524427 0.1977807432 4.340353837e-40
0.1782930791 -0.2574523687 0.11530184 4.340353837e-40
0.1875460446 -0.230646953 0.1195004135 4.340353837e-40
0.0908029899 -0.3760139942 -0.2390339673 4.340353837e-40
0.1356806457 -0.2212644517 -0.2349852175 4.340353837e-40
0.2006539702 -0.3687066138 0.01838126034 4.340353837e-40
-0.02277590707 -0.2722461224 -0.2566635907 4.340353837e-40
0.2311019748 -0.3408915699 0.2830450833 4.340353837e-40
-0.1587350518 -0.3656450808 -0.2154052854 6.184224396e-40
-0.1709853709 -0.4237703085 0.152280584 6.184224396e-40
0.1884363592 -0.3632894456 0.03998396546 6.184224396e-40
-0.4165422022 -0.4072031677 -0.002951400355 6.184224396e-40
-0.2325805575 -0.4063779712 -0.06956665218 6.184224396e-40
0.2102031857 -0.3699643016 0.2911534607 6.184224396e-40
0.2337704748 -0.4517036676 0.3090018928 6.184224396e-40
-0.1981090307 -0.3856916726 -0.07651430368 6.184224396e-40
-0.08121662587 -0.2959824204 -0.2364837229 8.028094954e-40
0.2033641487 -0.3746450543 0.06390808523 8.028094954e-40
0.2362691164 -0.4700419307 0.3131738305 8.028094954e-40
0.1883523166 -0.3481835425 -0.2071669549 8.028094954e-40
0.04810418189 -0.3437536359 -0.02369106188 8.028094954e-40
0.1992988735 -0.3657374084 -0.004382162821 8.028094954e-40
0.09265489131 -0.3302305937 -0.1070639789 8.028094954e-40
0.1903632283 -0.37394315 0.05345162377 8.028094954e-40
0.1154497936 -0.3744486272 -0.2408844531 9.871979525e-40
0.1929676384 -0.3860814571 0.07830098271 9.871979525e-40
-0.1949540079 -0.3455247283 -0.1747511327 9.871979525e-40
-0.09104138613 -0.3151033223 -0.2313865572 9.871979525e-40
0.2361838669 -0.31137833 0.1982759386 9.871979525e-40
-0.1690585017 -0.4344240129 0.1657482535 9.871979525e-40
0.2025808245 -0.379360348 0.03184891865 9.871979525e-40
0.1815339327 -0.2946534157 -0.2083010226 9.871979525e-40
0.2038301528 -0.3885294497 0.0339348875 1.171585008e-39
0.1783577353 -0.2748305798 -0.2238546461 1.171585008e-39
0.08507429063 -0.3414055705 -0.02646678686 1.171585008e-39
0.214458853 -0.3064823747 0.2870081961 1.171585008e-39
-0.1951334178 -0.375677675 -0.2219253182 1.171585008e-39
0.1934336424 -0.3999659121 0.04832781106 1.171585008e-39
0.1914227456 -0.3742063046 -0.2122907788 1.171585008e-39
0.2150306255 -0.3141669035 0.2777124643 1.171585008e-39
0.2039359212 -0.3823295832 0.05461234227 1.355972064e-39
0.1859165281 -0.2849614024 -0.07797840238 1.355972064e-39
-0.1681578606 -0.2999766767 -0.2413887531 1.355972064e-39
-0.3295798004 -0.4631987214 0.1157440394 1.355972064e-39
0.1759002209 -0.2329142392 0.1318073422 1.355972064e-39
-0.1090395972 -0.2777249515 -0.2501868904 1.355972064e-39
0.1745451242 -0.2299450189 0.1090439558 1.355972064e-39
0.04945927858 -0.3467228413 -0.0009276382625 1.355972064e-39
-0.1033647582 -0.3158860207 -0.2304613143 1.540360521e-39
-0.09478935599 -0.2875959873 -0.2376444489 1.540360521e-39
0.2022635043 -0.3979600668 -0.03018343076 1.540360521e-39
0.1556057334 -0.2692965865 -0.2027172148 1.540360521e-39
0.1361794323 -0.2782590091 -0.290709883 1.540360521e-39
0.1928618699 -0.3922813833 0.05762354657 1.540360521e-39
0.1909337938 -0.2380699962 0.1764089614 1.540360521e-39
-0.3215544224 -0.4059183896 -0.108616814 1.540360521e-39
-0.1754839718 -0.3374358118 -0.2321196496 1.724747577e-39
0.062460199 -0.3474247754 0.009528844617 1.724747577e-39
0.1344313323 -0.2120953202 -0.2370711714 1.724747577e-39
0.1864883155 -0.2926459312 -0.08727414161 1.724747577e-39
-0.413154453 -0.4146262407 0.05395714566 1.724747577e-39
0.1860851645 -0.233877629 0.0760595277 1.724747577e-39
0.174503997 -0.2535231113 -0.25079 1.724747577e-39
-0.17030783 -0.4252549112 0.1636622846 1.724747577e-39
-0.1415842175 -0.3090649843 -0.2297715545 1.909134633e-39
-0.2938589752 -0.4516815245 0.1108823568 1.909134633e-39
-0.08439281583 -0.2761595845 -0.2520373762 1.909134633e-39
0.173761785 -0.2346603274 0.0769847706 1.909134633e-39
0.1382850707 -0.2334027737 -0.2101358175 1.909134633e-39
0.1890298724 -0.3496681452 -0.1957852542 1.909134633e-39
0.1457810104 -0.2884174585 -0.1976200491 1.909134633e-39
0.1790352911 -0.2763152122 -0.2124729455 1.909134633e-39
0.2723278105 -0.2750615776 0.27612409 2.09352309e-39
0.2015859634 -0.3964754641 -0.04156515747 2.09352309e-39
0.1626356542 -0.310426861 -0.1602282375 2.09352309e-39
0.1905106902 -0.2628695965 0.09369911253 2.09352309e-39
0.1998706311 -0.3734219372 -0.01367789879 2.09352309e-39
0.1537846327 -0.252442956 -0.195507437 2.09352309e-39
-0.196880877 -0.3348709941 -0.1882187873 2.09352309e-39
0.1896016449 -0.3573526442 -0.205080986 2.09352309e-39
0.1779328585 -0.237368077 0.1659525037 2.277910146e-39
-0.2429982275 -0.3578246236 -0.1689641923 2.277910146e-39
0.1349293888 -0.2437328696 -0.2728636563 2.277910146e-39
0.2221246511 -0.4539709687 0.3213088214 2.277910146e-39
-0.1626003534 -0.4678698182 0.2175329775 2.277910146e-39
-0.2645751536 -0.4667083025 0.1680263728 2.277910146e-39
0.0006215088069 -0.2615115941 -0.2606000304 2.277910146e-39
0.1474745274 -0.3327767849 0.0009661857039 2.277910146e-39
0.2016917318 -0.390275538 -0.02088769339 2.462297202e-39
0.1921631545 -0.3308070004 -0.06754858792 2.462297202e-39
-0.3946056068 -0.3996993601 -0.05032872781 2.462297202e-39
0.1897273809 -0.2675848603 0.06163997576 2.462297202e-39
0.1883094013 -0.309499532 -0.09448393434 2.462297202e-39
-0.1664540917 -0.4465623796 0.1905976087 2.462297202e-39
0.2069852501 -0.4550151229 0.2560297847 2.462297202e-39
-0.1878073514 -0.3382185102 -0.2311944067 2.462297202e-39
0.2009084076 -0.3949908316 -0.05294685438 2.646685659e-39
-0.3009946644 -0.4167511463 0.04771592468 2.646685659e-39
0.2233739793 -0.4631400704 0.3233948052 2.646685659e-39
0.1855563223 -0.2648771107 -0.02732774988 2.646685659e-39
-0.3030273318 -0.4122973084 0.013570779 2.646685659e-39
0.1884581 -0.3419836462 -0.1864894927 2.646685659e-39
-0.2931814194 -0.4531661272 0.1222640574 2.646685659e-39
0.1840954423 -0.2681077719 -0.07076863199 2.646685659e-39
0.1730842441 -0.2331757098 0.06560306996 2.830713982e-39
-0.1683809459 -0.4359086156 0.1771299541 2.830713982e-39
-0.3016722202 -0.4152665138 0.03633420169 2.830713982e-39
0.197266221 -0.3612835705 -0.03852728382 2.830713982e-39
-0.1792319417 -0.3099284768 -0.2383775413 2.830713982e-39
0.1331820041 -0.2029262185 -0.2391571254 2.830713982e-39
0.1720053554 -0.2351849079 -0.2549619377 2.830713982e-39
0.2246233076 -0.472309202 0.3254807591 2.830713982e-39
-0.1206854507 -0.2799922824 -0.237879917 3.015101038e-39
0.1897074133 -0.3511527777 -0.1844035238 3.015101038e-39
0.1895587295 -0.3186686635 -0.09239797294 3.015101038e-39
-0.01170185953 -0.2622942924 -0.2596747875 3.015101038e-39
-0.184631139 -0.3580413461 -0.2156407684 3.015101038e-39
-0.1926347762 -0.394015938 -0.2177533954 3.015101038e-39
0.1880550385 -0.3898679316 0.2971758842 3.015101038e-39
-0.1638496667 -0.4587006867 0.2154470235 3.015101038e-39
0.1479303837 -0.2444348037 -0.2624071836 3.199488094e-39
-0.1988813877 -0.3481703401 -0.2281832099 3.199488094e-39
0.2002308667 -0.3935062289 -0.06432855129 3.199488094e-39
-0.2626482844 -0.4773620367 0.1814940423 3.199488094e-39
-0.2062075138 -0.3856294751 -0.2189141214 3.199488094e-39
0.1739322245 -0.2458386421 -0.2414942682 3.199488094e-39
-0.1674803197 -0.3014612794 -0.2300070226 3.199488094e-39
-0.0006278119981 -0.2523424923 -0.2626860142 3.199488094e-39
0.2257873714 -0.3228147924 0.2126688957 3.383517819e-39
0.06098909676 -0.2484290302 -0.2673122287 3.383517819e-39
-0.1808831841 -0.3855487108 -0.2093828768 3.383517819e-39
0.1732329428 -0.2656598091 -0.02640250698 3.383517819e-39
0.1351511627 -0.3335594833 0.001891428605 3.383517819e-39
0.2386825085 -0.329716593 0.2024478614 3.383517819e-39
0.2078743428 -0.4440999329 0.3087664247 3.383517819e-39
0.1927349269 -0.3384914994 -0.07684432715 3.383517819e-39
-0.3865808249 -0.423714608 0.06557432562 3.567904875e-39
0.1937298775 -0.4280290008 0.3169014454 3.567904875e-39
-0.1662309915 -0.3106303811 -0.2279210687 3.567904875e-39
0.1545788944 -0.2054910064 -0.2830580175 3.567904875e-39
0.05172520131 -0.317471087 -0.1519010514 3.567904875e-39
0.1767264456 -0.266882956 0.05118346959 3.567904875e-39
0.1743335724 -0.2423448265 0.06768903136 3.567904875e-39
0.1408894807 -0.2455411106 -0.1852864325 3.567904875e-39
0.1927778423 -0.3771755099 -0.1895273626 3.75229193e-39
0.1090333238 -0.2361291498 -0.2730991542 3.75229193e-39
-0.1708796024 -0.4175703824 0.1729580313 3.75229193e-39
-0.1649816632 -0.3197994828 -0.2258350998 3.75229193e-39
-0.1796338558 -0.3947178423 -0.2072969079 3.75229193e-39
-0.2185308784 -0.3864121735 -0.2179888785 3.75229193e-39
-0.4293315709 -0.3941014707 0.02794704214 3.75229193e-39
0.1857049912 -0.2973611951 -0.1193333194 3.75229193e-39
0.1745046973 -0.2788801491 -0.2707222104 3.936320254e-39
-0.300888896 -0.4105512202 0.06839336455 3.936320254e-39
0.04007937759 -0.3197383881 -0.1395941228 3.936320254e-39
-0.1858804673 -0.3488722444 -0.2177267224 3.936320254e-39
0.1356069446 -0.2452174872 -0.2614819407 3.936320254e-39
0.174693808 -0.2624291182 0.01703837328 3.936320254e-39
-0.2190295905 -0.436070174 0.1580675244 3.936320254e-39
0.1920573711 -0.3370068967 -0.08822605014 3.936320254e-39
0.1331185251 -0.3291056454 -0.03225371987 4.120708711e-39
0.2070910335 -0.4488152266 0.276707232 4.120708711e-39
-0.2884380221 -0.382262826 -0.1383278817 4.120708711e-39
0.184455663 -0.2881920934 -0.1214192882 4.120708711e-39
-0.4300091267 -0.392616868 0.01656531543 4.120708711e-39
0.1215361208 -0.2051935196 -0.2268501818 4.120708711e-39
0.1862767637 -0.3050456941 -0.1286290586 4.120708711e-39
0.2251098156 -0.3213301599 0.2012871355 4.120708711e-39
-0.3069868386 -0.3971897364 -0.03404200077 4.304737034e-39
0.1740162522 -0.2609445155 0.005656649824 4.304737034e-39
0.07704949379 -0.3173903227 -0.1423698366 4.304737034e-39
-0.134935692 -0.2701212168 -0.2504223585 4.304737034e-39
0.19106251 -0.3541219831 -0.1616401374 4.304737034e-39
-0.1853202432 -0.4800889492 0.2328511328 4.304737034e-39
0.1498578936 -0.2804455161 -0.2688717246 4.304737034e-39
0.1835236698 -0.2604233027 -0.06147287041 4.304737034e-39
0.2125319839 -0.2958286703 0.2735405266 4.48912409e-39
-0.2742941082 -0.4796293378 0.1938009858 4.48912409e-39
0.143504858 -0.2154428363 -0.2800467908 4.48912409e-39
0.1704798341 -0.221037358 0.04075365514 4.48912409e-39
0.1828032136 -0.2202546746 0.03982841223 4.48912409e-39
0.1228277832 -0.3343421817 0.00281666778 4.48912409e-39
0.1324307472 -0.2253946364 -0.277035594 4.48912409e-39
0.2141415477 -0.3250820935 0.2249758244 4.48912409e-39
0.1894529611 -0.3248685598 -0.1130754352 4.673152414e-39
0.2122146785 -0.3144283593 0.2115081698 4.673152414e-39
-0.09796554595 -0.2677731514 -0.2531980872 4.673152414e-39
-0.219102636 -0.3787276745 -0.2086931169 4.673152414e-39
0.1939842552 -0.3476606309 -0.0747583583 4.673152414e-39
0.1913798302 -0.335522294 -0.09960775077 4.673152414e-39
0.1853018552 -0.2385929078 0.04400033876 4.673152414e-39
-0.2547504306 -0.4475873709 0.1629292071 4.673152414e-39
0.2110505402 -0.4639227688 0.3243200481 4.857539469e-39
0.1551397145 -0.2554121614 -0.1727440208 4.857539469e-39
0.1415670216 -0.2470257282 -0.1739047319 4.857539469e-39
0.2122998685 -0.4730919003 0.326406002 4.857539469e-39
0.08676850796 -0.3044692874 -0.1681444496 4.857539469e-39
0.1865511686 -0.2477620244 0.04608630016 4.857539469e-39
0.1232835725 -0.2460001856 -0.2605566978 4.857539469e-39
-0.3145462573 -0.4683544636 0.1603456587 4.857539469e-39
0.1825287938 -0.2775383592 -0.1348869503 5.041567793e-39
-0.2202789187 -0.4269010723 0.1559815556 5.041567793e-39
-0.4163306653 -0.394803375 0.03840349615 5.041567793e-39
0.1726182401 -0.2192912996 0.09557624161 5.041567793e-39
0.1862339377 -0.3730142713 0.3043856621 5.041567793e-39
-0.1576555818 -0.2823403478 -0.2351041883 5.041567793e-39
-0.221528247 -0.4177319407 0.1538955867 5.041567793e-39
-0.3002113402 -0.4120358229 0.07977508754 5.041567793e-39
0.1868485361 -0.3127302229 -0.1379247904 5.225597518e-39
-0.3034933209 -0.3984129131 0.04354400188 5.225597518e-39
-0.1740557998 -0.3977475464 0.157404393 5.225597518e-39
0.1613863409 -0.3012577593 -0.1623142064 5.225597518e-39
-0.2597259283 -0.3896051347 -0.07188808918 5.225597518e-39
0.1839467585 -0.2356236875 0.02123694122 5.225597518e-39
-0.2172815502 -0.395581305 -0.2159029096 5.225597518e-39
0.1490629613 -0.3020404577 -0.1613889635 5.225597518e-39
0.05375784636 -0.3219249249 -0.1177559346 5.409984573e-39
0.1176823825 -0.1838860512 -0.253785491 5.409984573e-39
0.04741641134 -0.240042612 -0.2684729397 5.409984573e-39
0.1952335835 -0.3568297327 -0.07267240435 5.409984573e-39
0.1916342825 -0.3618064821 -0.1709358543 5.409984573e-39
-0.3356989026 -0.3898474574 -0.1004817784 5.409984573e-39
-0.3567252159 -0.446425885 0.1134226024 5.409984573e-39
-0.2203519642 -0.369558543 -0.2107790709 5.409984573e-39
-0.3021382391 -0.4013821185 0.0663073957 5.594012897e-39
0.1833749712 -0.2279391736 0.03053268045 5.594012897e-39
0.1855563968 -0.3715296686 0.2930039465 5.594012897e-39
-0.210454151 -0.4077801406 0.1508843899 5.594012897e-39
0.171623379 -0.2364063859 0.02216218412 5.594012897e-39
0.184518531 -0.2433082014 0.01194120385 5.594012897e-39
0.1955509782 -0.4448826313 0.3096916676 5.594012897e-39
0.2263591439 -0.3304992914 0.2033731043 5.594012897e-39
0.1220342591 -0.236831069 -0.2626426518 5.77804122e-39
-0.2099670172 -0.481654346 0.2347016186 5.77804122e-39
0.1719406992 -0.2178066969 0.08419454098 5.77804122e-39
0.1409952641 -0.2393412143 -0.1646090001 5.77804122e-39
0.1695169061 -0.319073081 -0.02573368698 5.77804122e-39
0.1814481169 -0.2172854543 0.01706501655 5.77804122e-39
0.02469654195 -0.252261728 -0.2531547546 5.77804122e-39
0.1970546693 -0.3736833632 -0.07988219708 5.77804122e-39
0.1825916618 -0.2326544672 -0.001526481472 5.962428276e-39
-0.3287964761 -0.4584834278 0.1478031725 5.962428276e-39
0.1726611555 -0.2579752803 -0.01710677333 5.962428276e-39
0.1945560277 -0.35534513 -0.08405412734 5.962428276e-39
0.1924176067 -0.3570912182 -0.1388767064 5.962428276e-39
0.1843069941 -0.2557079792 -0.029413715 5.962428276e-39
0.1911682934 -0.3479220867 -0.1409626752 5.962428276e-39
0.1584326476 -0.2267984748 -0.2561226487 5.962428276e-39
0.1631543189 -0.177200973 -0.290241152 6.1464566e-39
-0.2326022834 -0.4276837707 0.1569067985 6.1464566e-39
0.1037289351 -0.3202787638 -0.1100751758 6.1464566e-39
0.1813423336 -0.2234853506 -0.003612441011 6.1464566e-39
0.182908982 -0.2140547782 0.06050590053 6.1464566e-39
-0.172319293 -0.4807908833 0.2433075905 6.1464566e-39
0.0855191797 -0.2953001559 -0.1702304184 6.1464566e-39
0.1097108796 -0.2376137674 -0.2617174387 6.1464566e-39
0.0571455881 -0.3293479681 -0.06084739044 6.330484923e-39
0.1501424313 -0.21873568 -0.1810878664 6.330484923e-39
0.2012463957 -0.318180263 0.235196799 6.330484923e-39
-0.1921270788 -0.3030266762 -0.2281565368 6.330484923e-39
-0.2178533226 -0.3878967762 -0.2066071481 6.330484923e-39
-0.2129310817 -0.3681361079 -0.07976098359 6.330484923e-39
0.1670080572 -0.1985084265 -0.2633057833 6.330484923e-39
0.1683733612 -0.3037040532 -0.007142191753 6.330484923e-39
0.1804961413 -0.2730845213 -0.1690320671 6.514514648e-39
-0.2227775604 -0.408562839 0.1518096328 6.514514648e-39
-0.1699789613 -0.2831230164 -0.2341789454 6.514514648e-39
0.190596506 -0.3402375877 -0.1316668987 6.514514648e-39
-0.3560476601 -0.4479104877 0.1248043031 6.514514648e-39
-0.3281189203 -0.4599680603 0.1591849327 6.514514648e-39
0.08744605631 -0.3059539199 -0.156762749 6.514514648e-39
-0.02459700406 -0.2553924918 -0.249453783 6.514514648e-39
0.2024957091 -0.3273493946 0.2372827828 6.698542971e-39
-0.173378244 -0.3992321491 0.1687860936 6.698542971e-39
0.1807076931 -0.2606847286 -0.1276771724 6.698542971e-39
-0.3981208503 -0.4197819531 0.09855872393 6.698542971e-39
0.1819570214 -0.2698538303 -0.1255912185 6.698542971e-39
0.1670182645 -0.300734818 -0.02990561351 6.698542971e-39
0.1948093474 -0.3447242379 0.2972025275 6.698542971e-39
0.166446507 -0.2930503488 -0.02060987428 6.698542971e-39
0.1646576226 -0.4006024301 0.301112324 6.882571295e-39
0.112494722 -0.2195991427 -0.1896938384 6.882571295e-39
0.1812365651 -0.2296852469 -0.02428990416 6.882571295e-39
0.1801987886 -0.2081163377 0.01497905515 6.882571295e-39
-0.2988562584 -0.4150050581 0.1025385112 6.882571295e-39
-0.2793971598 -0.4491527677 0.1647796929 6.882571295e-39
0.1837352067 -0.2480234802 -0.02011797763 6.882571295e-39
0.1987271756 -0.4647054672 0.325245291 6.882571295e-39
0.1701842546 -0.2183312774 -0.2477521449 7.066599618e-39
0.1692305058 -0.2118682563 0.03866769373 7.066599618e-39
-0.2722614706 -0.4840831757 0.2279461324 7.066599618e-39
0.1794154793 -0.2128316313 -0.01708010398 7.066599618e-39
0.04888749868 -0.3390383124 0.008368122391 7.066599618e-39
0.176642403 -0.2517770827 -0.1959674209 7.066599618e-39
0.1209643334 -0.1975089908 -0.2175544202 7.066599618e-39
0.170162499 -0.2396370471 -0.02127870172 7.066599618e-39
0.167685613 -0.1999930441 -0.2519240975 7.250627941e-39
0.1207849309 -0.2276619375 -0.2647286355 7.250627941e-39
0.1824442893 -0.4503805935 0.2785577178 7.250627941e-39
0.1714118272 -0.2488061786 -0.01919273473 7.250627941e-39
0.1778917462 -0.2609461844 -0.1938814521 7.250627941e-39
0.1564948112 -0.2583813667 -0.1499805897 7.250627941e-39
0.1281000376 -0.2324394137 -0.1543879956 7.250627941e-39
-0.20320113 -0.3129784465 -0.22514534 7.250627941e-39
0.16855295 -0.2103836387 0.0272859931 7.434656265e-39
-0.2019518018 -0.322147578 -0.2230593711 7.434656265e-39
0.1127703488 -0.3058731258 -0.1472315341 7.434656265e-39
-0.1663483083 -0.4403624535 0.2112751007 7.434656265e-39
0.03815250844 -0.3090846837 -0.1530617774 7.434656265e-39
-0.4305808842 -0.3849323392 0.02586108074 7.434656265e-39
0.1628365219 -0.3837487996 0.3083221018 7.434656265e-39
0.1843711585 -0.4610343277 0.2920253873 7.434656265e-39
-0.3067753017 -0.3847899437 0.007312887348 7.618684588e-39
0.1801359355 -0.2530002296 -0.1183814108 7.618684588e-39
0.1041096896 -0.1754996479 -0.254946202 7.618684588e-39
0.1836922914 -0.2093394697 0.09256503731 7.618684588e-39
-0.3485940397 -0.382945627 -0.0902607888 7.618684588e-39
0.162158981 -0.3822641969 0.2969404161 7.618684588e-39
0.1164330542 -0.1747169495 -0.2558714449 7.618684588e-39
0.1448701024 -0.3206384778 -0.02388319746 7.618684588e-39
-0.1618170142 -0.4631545246 0.2495921105 7.802712912e-39
0.160242781 -0.2858887315 -0.143722713 7.802712912e-39
-0.2130258828 -0.3320993781 -0.2200481743 7.802712912e-39
0.1669863164 -0.2198142111 -0.03683232144 7.802712912e-39
0.1112453938 -0.2104300261 -0.1917797923 7.802712912e-39
0.127433449 -0.1887181699 -0.2853794396 7.802712912e-39
-0.2715839148 -0.4855678082 0.2393278331 7.802712912e-39
-0.2943249941 -0.4377970994 0.140855521 7.802712912e-39
-0.1675976366 -0.4311933517 0.2091891319 7.986382503e-39
0.1753930897 -0.2426079661 -0.1980533749 7.986382503e-39
0.150418058 -0.3050096631 -0.1386255324 7.986382503e-39
0.1517624706 -0.3937005997 0.3113332987 7.986382503e-39
0.1896005124 -0.3204475641 0.2475037575 7.986382503e-39
0.1774886847 -0.3088304698 0.2897839248 7.986382503e-39
-0.02029754221 -0.3087844849 -0.360147059 7.986382503e-39
0.1696549207 -0.4372788966 0.3094561696 7.986382503e-39
0.1534353495 -0.1901220083 -0.2644664943 8.170410826e-39
0.1572781354 -0.2536660731 -0.1179214418 8.170410826e-39
0.144277215 -0.2529641688 -0.1283778995 8.170410826e-39
0.1531282514 -0.3109481037 -0.09309871495 8.170410826e-39
0.1663087606 -0.2183296084 -0.04821401834 8.170410826e-39
0.1675580889 -0.2274987251 -0.04612805694 8.170410826e-39
0.02152034454 -0.2324388623 -0.2687084079 8.170410826e-39
0.161915198 -0.2702582479 -0.05892692134 8.170410826e-39
0.1792039275 -0.2252314091 -0.05843502656 8.35443915e-39
0.1779545993 -0.2160622925 -0.06052098423 8.35443915e-39
0.0492265597 -0.2991328537 -0.1560729891 8.35443915e-39
0.1594063491 -0.1496936083 -0.2964990139 8.35443915e-39
-0.2994280457 -0.407320559 0.1118342429 8.35443915e-39
-0.1709641963 -0.4837600887 0.2660710514 8.35443915e-39
0.1524507105 -0.309463501 -0.1044804156 8.35443915e-39
0.1700138152 -0.2071529627 0.07072687894 8.35443915e-39
0.1617036611 -0.2826580703 -0.1002818346 8.538467473e-39
0.117036961 -0.2001545876 -0.2709865272 8.538467473e-39
-0.245582059 -0.4869716167 0.2602407634 8.538467473e-39
0.1195458323 -0.3207192421 -0.03341444209 8.538467473e-39
0.1171105951 -0.1762015522 -0.2444897741 8.538467473e-39
0.1305141002 -0.3169673085 -0.05710307881 8.538467473e-39
0.1603485644 -0.2796888351 -0.1230452359 8.538467473e-39
0.1532340348 -0.3047481775 -0.07242125273 8.538467473e-39
0.1281110048 -0.1902027875 -0.2739977241 8.722137064e-39
-0.4096609652 -0.4158493876 0.1315431297 8.722137064e-39
-0.1956109703 -0.4853254557 0.2679215372 8.722137064e-39
0.1560397744 -0.2022603452 -0.2396171093 8.722137064e-39
0.1585274637 -0.2628352046 -0.1158354729 8.722137064e-39
0.1693362743 -0.2056683451 0.05934517458 8.722137064e-39
0.1767052859 -0.2068931758 -0.06260694563 8.722137064e-39
0.1379248351 -0.213318482 -0.1594851613 8.722137064e-39
0.2176138759 -0.2663154602 0.1887713671 8.906165387e-39
0.1142428815 -0.2857628167 -0.2433325648 8.906165387e-39
-0.3831930757 -0.4311376512 0.122482866 8.906165387e-39
0.1805590987 -0.3348532319 0.2846601009 8.906165387e-39
0.1509469301 -0.2740101814 -0.03523825854 8.906165387e-39
0.1656312197 -0.2168449908 -0.05959574506 8.906165387e-39
0.180241704 -0.2468003333 -0.09770395607 8.906165387e-39
0.1541129053 -0.1916066259 -0.2530848086 8.906165387e-39
-0.2141804099 -0.3589670062 -0.08184695244 9.089834978e-39
0.07149137557 -0.2307927161 -0.2610276639 9.089834978e-39
-0.2786132693 -0.3631418943 -0.1434250474 9.089834978e-39
0.1632600874 -0.1710010767 -0.2695636749 9.089834978e-39
0.14052926 -0.2254568189 -0.1346357763 9.089834978e-39
0.1510526985 -0.2678102851 -0.01456080005 9.089834978e-39
-0.192138046 -0.3452632725 -0.1085468233 9.089834978e-39
0.05084587634 -0.4487407506 0.3562803864 9.089834978e-39
0.1767892987 -0.2219990641 0.1845439672 9.273863302e-39
-0.2579054236 -0.4877543151 0.2611659765 9.273863302e-39
0.1734662205 -0.231954217 -0.2115210444 9.273863302e-39
0.04086270183 -0.3150231242 -0.1075349301 9.273863302e-39
0.1761334985 -0.1992086768 -0.05331118777 9.273863302e-39
0.1714760065 -0.4541325271 0.3022464216 9.273863302e-39
0.1422656924 -0.3085001111 -0.04873258993 9.273863302e-39
0.1685958654 -0.2490676343 -0.08539701253 9.273863302e-39
0.1154805422 -0.3118115664 -0.1017046869 9.457532893e-39
0.1251994967 -0.2988905311 -0.1274793148 9.457532893e-39
-0.2948967516 -0.4301126301 0.1501513124 9.457532893e-39
0.181808427 -0.3440223336 0.2867460549 9.457532893e-39
0.1643819064 -0.2076758593 -0.06168171018 9.457532893e-39
-0.01961999387 -0.3102690876 -0.3487653732 9.457532893e-39
-0.4122653902 -0.4037110507 0.1066937596 9.457532893e-39
-0.0442667678 -0.3118344843 -0.3469148874 9.457532893e-39
0.1157876328 -0.1909854859 -0.2730724812 9.641561216e-39
-0.1772319824 -0.3779247105 0.1418507844 9.641561216e-39
0.1765995026 -0.2130930722 -0.08328440785 9.641561216e-39
-0.03194336593 -0.3110517859 -0.3478401303 9.641561216e-39
0.1360089183 -0.1604281068 -0.2925625741 9.641561216e-39
0.1795641482 -0.2453157157 -0.1090856791 9.641561216e-39
-0.1702866405 -0.4852447212 0.2774527371 9.641561216e-39
0.1161580831 -0.3132961988 -0.09032298625 9.641561216e-39
0.1045122594 -0.3155634999 -0.07801601291 9.825230807e-39
0.1262789518 -0.215585798 -0.1471782178 9.825230807e-39
0.009874464944 -0.2347061783 -0.2564014494 9.825230807e-39
0.2457541227 -0.2659732401 0.2645069063 9.825230807e-39
0.1299423277 -0.3092827797 -0.04780734703 9.825230807e-39
-0.1065612212 -0.3142633438 -0.3536703885 9.825230807e-39
0.1567173302 -0.2037449628 -0.2282354087 9.825230807e-39
