# .PCD v0.7 - Point Cloud Data file format
VERSION 0.7
FIELDS x y z rgb
SIZE 4 4 4 4
TYPE F F F F
COUNT 1 1 1 1
WIDTH 836
HEIGHT 1
VIEWPOINT 0 0 0 1 0 0 0
POINTS 836
DATA ascii
0.06408706307 -0.7275699377 -0.1792146564 2.898180898e-39
-0.1980917156 -0.7365833521 -0.2166931033 2.898180898e-39
-0.06933867931 -0.4226006567 0.246618554 2.898180898e-39
0.07437779009 -0.7223333716 -0.2142850161 2.898180898e-39
0.006535435095 -0.740391016 -0.1062981933 2.715227371e-39
-0.3275510073 -0.7585544586 -0.1040800512 2.715227371e-39
-0.3898454607 -0.7609833479 -0.1108355597 2.715227371e-39
0.01682616398 -0.7351545095 -0.1413685679 2.715227371e-39
-0.05440393463 -0.7457890511 -0.0902902931 2.715227371e-39
-0.04275810719 -0.7435218096 -0.1025972217 2.715227371e-39
-0.08308123052 -0.3217403591 0.2236729711 2.715227371e-39
0.0314604491 -0.3906399906 0.3205359578 2.715227371e-39
-0.2419648468 -0.7515910268 -0.1219384745 2.532632576e-39
-0.07837314904 -0.7488390803 -0.07705804706 2.532632576e-39
-0.09540463239 -0.3225230575 0.224598214 2.532632576e-39
0.03660259396 -0.7507025003 -0.01709498465 2.532632576e-39
0.05072915554 -0.4971773028 0.4552126527 2.532632576e-39
-0.07268472016 -0.3103039265 0.2092800587 2.532632576e-39
0.01060072239 -0.7492986917 -0.03800795972 2.532632576e-39
-0.1090401262 -0.1595243216 -0.1378660202 2.532632576e-39
0.07370024174 -0.7208487988 -0.2256667465 2.349677647e-39
-0.1219782457 -0.31343472 0.2129810303 2.349677647e-39
0.02360164374 -0.750000596 -0.02755144238 2.349677647e-39
-0.1425727308 -0.7193084359 -0.323754698 2.349677647e-39
0.01174691692 -0.3302080929 0.3296228945 2.349677647e-39
-0.2782574594 -0.7554237247 -0.1077810228 2.349677647e-39
-0.1302493662 -0.7185257673 -0.3246799409 2.349677647e-39
-0.01946642995 -0.7389872074 -0.1272111088 2.349677647e-39
0.05860589445 -0.407412827 0.3228573799 2.167082852e-39
-0.09807182848 -0.1557724178 -0.1615546942 2.167082852e-39
0.04079538584 -0.7321044803 -0.1546007395 2.167082852e-39
-0.05894216895 -0.411164254 0.2322256565 2.167082852e-39
-0.06808240712 -0.7436025739 -0.112128444 2.167082852e-39
-0.05237128958 -0.7502429485 -0.05614514649 2.167082852e-39
0.04011783749 -0.7306199074 -0.1659824699 2.167082852e-39
-0.2750882208 -0.4634138048 0.2686055601 2.167082852e-39
-0.3022266924 -0.7584737539 -0.09454883635 1.984127923e-39
0.01895766146 -0.4215756357 0.2742869854 1.984127923e-39
0.03944028914 -0.7291352749 -0.1773641706 1.984127923e-39
0.2289063334 -0.7552928329 0.09422515333 1.984127923e-39
-0.2652565539 -0.7561256289 -0.09732456505 1.984127923e-39
0.2467776537 -0.7388813496 -0.02144241333 1.984127923e-39
-0.05643657967 -0.7413352728 -0.1244353876 1.984127923e-39
-0.205672279 -0.7477583289 -0.1360958964 1.984127923e-39
-0.1023423821 -0.7518891096 -0.06382587552 1.801533128e-39
0.06692476571 -0.7060026526 -0.3394838274 1.801533128e-39
-0.1844132543 -0.7387698889 -0.19485493 1.801533128e-39
-0.05779167637 -0.7383660078 -0.1471988112 1.801533128e-39
-0.08433055133 -0.3125712574 0.2215870023 1.801533128e-39
-0.1453756988 -0.3241692185 0.2169174701 1.801533128e-39
-0.2147206366 -0.4503312111 0.2618933618 1.801533128e-39
0.1253469884 -0.493965745 0.4610429108 1.801533128e-39
-0.2406097651 -0.7545602322 -0.09917505085 1.618578199e-39
0.01195582002 -0.7522678971 -0.01524449885 1.618578199e-39
-0.2464184314 -0.1512803137 -0.1204785556 1.618578199e-39
0.03808519244 -0.7261660099 -0.2001275867 1.618578199e-39
0.1376704276 -0.4931830466 0.4601176679 1.618578199e-39
-0.3015491366 -0.7599583268 -0.08316713572 1.618578199e-39
-0.2769023478 -0.75839293 -0.08501762152 1.618578199e-39
-0.1166984141 -0.7482179403 -0.09704577178 1.618578199e-39
-0.1666764021 -0.4380313158 0.2561064363 1.435982003e-39
-0.1940264255 -0.7454910278 -0.1484028697 1.435982003e-39
0.02425109781 -0.3796626627 0.2308727652 1.435982003e-39
-0.1542185992 -0.721575737 -0.3114477396 1.435982003e-39
-0.1057301164 -0.7444660664 -0.1207344159 1.435982003e-39
0.0613768734 -0.7216314673 -0.2247415036 1.435982003e-39
-0.2522555888 -0.7568275332 -0.08686810732 1.435982003e-39
0.08263587952 -0.7126430273 -0.2835005224 1.435982003e-39
-0.117375955 -0.7467333078 -0.1084274724 1.253028475e-39
-0.2166405618 -0.7515102625 -0.1124072373 1.253028475e-39
-0.3261958957 -0.7615237236 -0.08131664991 1.253028475e-39
-0.1576990783 -0.3249519169 0.217842713 1.253028475e-39
-0.4268155992 -0.7633314133 -0.1080598384 1.253028475e-39
-0.1781878173 -0.7246257067 -0.2982155681 1.253028475e-39
-0.2399322093 -0.7560448647 -0.08779335022 1.253028475e-39
-0.05101620033 -0.7532121539 -0.03338174522 1.253028475e-39
0.23513183 -0.7411486506 -0.009135469794 1.070432279e-39
0.0066629434 -0.7128853798 -0.3120941818 1.070432279e-39
0.1375434846 -0.4393931627 0.3256497681 1.070432279e-39
-0.1180534959 -0.745248735 -0.119809173 1.070432279e-39
6.269663572e-06 -0.2964386642 0.2016426474 1.070432279e-39
-0.1768327206 -0.7275949717 -0.275452137 1.070432279e-39
-0.06333957613 -0.7539948225 -0.03245650232 1.070432279e-39
-0.1761551797 -0.7290795445 -0.2640704513 1.070432279e-39
-0.1399900764 -0.7527525425 -0.07243183255 8.874787512e-40
0.02631183341 -0.7559390068 0.01797534525 8.874787512e-40
0.0003099981695 -0.7545351982 -0.002937570214 8.874787512e-40
-0.1070852131 -0.7414968014 -0.1434978396 8.874787512e-40
0.03673009574 -0.7231968641 -0.2228910178 8.874787512e-40
-0.3131949604 -0.7622256279 -0.07086019218 8.874787512e-40
0.1350660026 -0.4810447097 0.4352682829 8.874787512e-40
-0.01798379794 -0.714450717 -0.310243696 8.874787512e-40
-0.1536685526 -0.7505660057 -0.09427004308 7.045238224e-40
-0.07214769721 -0.7346949577 -0.1804186851 7.045238224e-40
-0.1077627689 -0.7400121689 -0.15487957 7.045238224e-40
-0.07282523811 -0.7332103252 -0.1918004155 7.045238224e-40
0.001361362636 -0.2994078994 0.2244060338 7.045238224e-40
-0.1543460935 -0.7490813732 -0.1056517437 7.045238224e-40
-0.1420227289 -0.7482987046 -0.1065769866 7.045238224e-40
0.01963520609 -0.4230602384 0.2856687009 7.045238224e-40
0.0353750065 -0.7202275991 -0.2456544042 5.219290273e-40
0.06002177671 -0.718662262 -0.24750489 5.219290273e-40
-0.0488560386 -0.730160296 -0.2050325871 5.219290273e-40
-0.07566297054 -0.7547775507 -0.03153125942 5.219290273e-40
0.01276087575 -0.7262468338 -0.2096588016 5.219290273e-40
-0.07350279391 -0.7317256927 -0.2031821162 5.219290273e-40
-0.2632239163 -0.7605794668 -0.06317941844 5.219290273e-40
-0.1194085926 -0.7422795296 -0.1425725967 5.219290273e-40
-0.1427002698 -0.7468141317 -0.1179586872 3.389740985e-40
-0.1550236344 -0.7475968003 -0.1170334443 3.389740985e-40
0.008581670001 -0.2681486011 0.1944595128 3.389740985e-40
0.09682533145 -0.4142338932 0.322167635 3.389740985e-40
-0.1186322197 -0.4257314205 0.2503195107 3.389740985e-40
-0.04263056815 -0.7160161138 -0.30839324 3.389740985e-40
0.05934422836 -0.7171776295 -0.2588866353 3.389740985e-40
-0.1624766737 -0.7312660813 -0.2422322631 3.389740985e-40
-0.08582618833 -0.7325083613 -0.2022568733 1.56020571e-40
-0.21528548 -0.7544794679 -0.08964383602 1.56020571e-40
0.07099004835 -0.7149103284 -0.2711935639 1.56020571e-40
-0.1617991179 -0.7327506542 -0.2308505327 1.56020571e-40
-0.3125174046 -0.7637102604 -0.05947844684 1.56020571e-40
-0.01133585535 -0.7568024993 0.009369373322 1.56020571e-40
-0.04966109619 -0.7561813593 -0.01061829925 1.56020571e-40
0.02169653773 -0.7180410624 -0.2674925923 1.56020571e-40
0.04566575959 -0.7149910927 -0.2807247937 6.490113838e-41
-0.1342586428 -0.1534051895 -0.1267197877 6.490113838e-41
-0.1899611354 -0.7543987036 -0.08011262864 6.490113838e-41
-0.132409513 -0.7415776253 -0.1530290842 6.490113838e-41
-0.1570215374 -0.3264365196 0.2292244136 6.490113838e-41
0.1471983492 -0.3277983665 0.2987677455 6.490113838e-41
-0.1590889245 -0.7386891246 -0.1853237152 6.490113838e-41
-0.2022845447 -0.7551813722 -0.07918737829 6.490113838e-41
-0.1082356945 -0.4142950177 0.2359266132 2.496469266e-40
-0.010658307 -0.7582870722 0.02075107396 2.496469266e-40
-0.0009175911546 -0.724060297 -0.2314969897 2.496469266e-40
-0.0419530198 -0.7175006866 -0.2970114946 2.496469266e-40
0.008695587516 -0.7173391581 -0.277949065 2.496469266e-40
0.03319694847 -0.4736832976 0.4064391255 2.496469266e-40
-0.1502808034 -0.757989049 -0.03736150265 2.496469266e-40
0.01800447889 -0.3338170648 0.2204429507 2.496469266e-40
-0.1515084058 -0.7275141478 -0.2659209371 4.340353837e-40
0.259778589 -0.7395832539 -0.0109859556 4.340353837e-40
-0.4131371379 -0.7655179501 -0.08622165769 4.340353837e-40
-0.1309555918 -0.4265141189 0.2512447536 4.340353837e-40
-0.1494757533 -0.7319679856 -0.2317757756 4.340353837e-40
0.01385459118 -0.3910990655 0.2452656776 4.340353837e-40
0.008031072095 -0.320453912 0.3175456822 4.340353837e-40
-0.1501533091 -0.7304834127 -0.243157506 4.340353837e-40
-0.1357972473 -0.734154582 -0.2099376172 6.184224396e-40
-0.01527360454 -0.7203891873 -0.2647168636 6.184224396e-40
-0.03598262742 -0.7583678961 0.01121985912 6.184224396e-40
-0.1693449169 -0.327219218 0.2301496565 6.184224396e-40
-0.0502111353 -0.7271910906 -0.2277960181 6.184224396e-40
0.01981462538 -0.3929072917 0.3328428864 6.184224396e-40
0.1987116933 -0.7724870443 0.2108179778 6.184224396e-40
0.06951008737 -0.3049871922 0.2980613112 6.184224396e-40
-0.1626042128 -0.7587717772 -0.03643625975 8.028094954e-40
-0.1496032625 -0.7594736814 -0.02597980201 8.028094954e-40
0.01878780313 -0.3291017711 0.2525021136 8.028094954e-40
-0.2495453954 -0.7627660036 -0.04134126008 8.028094954e-40
0.04486334324 -0.3065525591 0.299911797 8.028094954e-40
-0.200929448 -0.7581505775 -0.05642393231 8.028094954e-40
-0.1879284978 -0.7588524818 -0.04596747458 8.028094954e-40
-0.09523477405 -0.414996922 0.2463830858 8.028094954e-40
-0.03924283013 -0.723439157 -0.2514846921 9.871979525e-40
-0.3741343319 -0.7676236629 -0.05485223234 9.871979525e-40
-0.04059792683 -0.7204699516 -0.2742481232 9.871979525e-40
-0.1601977199 -0.3066136539 0.2136707902 9.871979525e-40
-0.04719054326 -0.4026970565 0.2405961454 9.871979525e-40
-0.2080932111 -0.1519014537 -0.100490883 9.871979525e-40
-0.03462753072 -0.7613371015 0.03398332 9.871979525e-40
-0.1282248497 -0.2675891221 0.2025512159 9.871979525e-40
-0.1255065352 -0.728918016 -0.2450079918 1.171585008e-39
-0.097903274 -0.3041847944 0.2204262763 1.171585008e-39
0.01838588156 -0.4138911366 0.2835827172 1.171585008e-39
-0.1742500365 -0.7610390782 -0.02412931621 1.171585008e-39
0.1336256564 -0.3194119334 0.2976070344 1.171585008e-39
-0.187250942 -0.7603371143 -0.03458577394 1.171585008e-39
0.08575128764 -0.4241856933 0.3251788318 1.171585008e-39
-0.08527615666 -0.7614986897 0.01492083073 1.171585008e-39
-0.1639456898 -0.279106319 0.2074129134 1.355972064e-39
-0.04928727448 -0.299569428 0.205343619 1.355972064e-39
-0.132882461 -0.4158604145 0.237777099 1.355972064e-39
-0.1971678734 -0.3089617491 0.2164465189 1.355972064e-39
-0.1405482441 -0.2683718204 0.2034764588 1.355972064e-39
-0.1268616319 -0.7259488106 -0.2677714229 1.355972064e-39
0.01379051246 -0.2924252748 0.2441582829 1.355972064e-39
-0.2646917105 -0.4519773722 0.2542126477 1.355972064e-39
-0.2365444899 -0.7634679079 -0.03088480234 1.540360521e-39
0.02560619079 -0.3826318681 0.2536361516 1.540360521e-39
-0.09692199528 -0.7637659311 0.02722777426 1.540360521e-39
-0.1244768947 -0.295096457 0.2088091075 1.540360521e-39
0.02367931791 -0.3719781339 0.240168497 1.540360521e-39
0.02050312795 -0.352155298 0.2246148735 1.540360521e-39
0.2844253182 -0.7380179167 -0.0128364414 1.540360521e-39
-0.1528716236 -0.269154489 0.2044017017 1.540360521e-39
-0.1491236687 -0.2966618538 0.2106595933 1.724747577e-39
-0.1004019231 -0.285846591 0.2162543535 1.724747577e-39
-0.1735724807 -0.7625236511 -0.01274757087 1.724747577e-39
-0.1860937923 -0.2990099192 0.213435322 1.724747577e-39
-0.1988968104 -0.762604475 -0.02227883041 1.724747577e-39
-0.1496954411 -0.288977325 0.2199553251 1.724747577e-39
-0.4247829616 -0.7677852511 -0.07391472161 1.724747577e-39
-0.1092453748 -0.7645486593 0.02815301716 1.724747577e-39
0.02060889639 -0.3459553719 0.2452923208 1.909134633e-39
0.02021654323 -0.3081179261 0.3017622828 1.909134633e-39
-0.0775680691 -0.722818017 -0.2714723945 1.909134633e-39
-0.05303524435 -0.2720620632 0.1990857273 1.909134633e-39
-0.08807852119 -0.2850638628 0.2153291106 1.909134633e-39
0.0157064274 -0.3453156352 0.377235651 1.909134633e-39
-0.1982192546 -0.7640890479 -0.01089708507 1.909134633e-39
0.02687668614 -0.4517907798 0.369512558 1.909134633e-39
-0.08921392262 -0.7250853181 -0.2591654062 2.09352309e-39
-0.02571999654 -0.3813088238 0.2231920362 2.09352309e-39
0.2515204847 -0.7492736578 0.05822952092 2.09352309e-39
-0.2767823339 -0.3008538485 0.1823402345 2.09352309e-39
-0.01538755372 -0.2711986303 0.2076916993 2.09352309e-39
-0.3098072112 -0.7696486712 -0.0139516592 2.09352309e-39
0.01906342991 -0.4153757393 0.2949644327 2.09352309e-39
-0.05235769972 -0.2735466957 0.210467428 2.09352309e-39
-0.1361855119 -0.1427514702 -0.1401874721 2.277910146e-39
-0.2893384993 -0.453542769 0.2560631335 2.277910146e-39
0.02606124058 -0.4387528896 0.343272686 2.277910146e-39
-0.1322049201 -0.4173450172 0.2491588145 2.277910146e-39
-0.1417975724 -0.2592026889 0.2013904899 2.277910146e-39
-0.2698588371 -0.3228270411 0.2240839452 2.277910146e-39
-0.2243133038 -0.2921888828 0.2141250819 2.277910146e-39
-0.1598940194 -0.7647101879 0.009090587497 2.277910146e-39
-0.06269013882 -0.3836568892 0.2259677649 2.462297202e-39
-0.2221884727 -0.7671390772 0.002335101366 2.462297202e-39
0.009957941249 -0.3311076164 0.3310133517 2.462297202e-39
-0.09525586665 -0.1555109471 -0.09535038471 2.462297202e-39
0.0941568315 -0.3034217954 0.2962108254 2.462297202e-39
-0.2721595168 -0.7687852383 -0.005345627666 2.462297202e-39
-0.1645174772 -0.2714218199 0.2167086452 2.462297202e-39
-0.04985905066 -0.2918849289 0.2146393508 2.462297202e-39
0.007607975975 -0.3452534676 0.2348358482 2.646685659e-39
-0.07308664173 -0.395093292 0.2403606623 2.646685659e-39
-0.2088136971 -0.3112290502 0.2287534624 2.646685659e-39
-0.007319839671 -0.3338978291 0.2109117359 2.646685659e-39
0.01992040128 -0.3867073953 0.3535203636 2.646685659e-39
-0.2874109149 -0.4895535111 0.2495986223 2.646685659e-39
-0.0375356786 -0.2911022305 0.2137141079 2.646685659e-39
-0.1715398431 -0.7669775486 0.02139753103 2.646685659e-39
-0.2600334585 -0.3290631175 0.199054569 2.830713982e-39
-0.01663687453 -0.2620295286 0.2056057304 2.830713982e-39
-0.1041498929 -0.2583392262 0.2099964768 2.830713982e-39
-0.1838632077 -0.7677601576 0.02232275903 2.830713982e-39
-0.02963779308 -0.2613275647 0.1951492876 2.830713982e-39
-0.2584810853 -0.7709717751 0.0164925307 2.830713982e-39
-0.2338342965 -0.7694063783 0.0146420449 2.830713982e-39
-0.09182649106 -0.2575565279 0.2090712339 2.830713982e-39
0.06826076657 -0.2958180606 0.2959753573 3.015101038e-39
-0.2961287498 -0.7718352079 0.007886558771 3.015101038e-39
0.01351615041 -0.1502127945 -0.1585001349 3.015101038e-39
-0.1578613818 -0.7691640258 0.04323573411 3.015101038e-39
-0.276337564 -0.4542446733 0.2665195763 3.015101038e-39
0.26452142 -0.7499755621 0.06868602335 3.015101038e-39
-0.270804435 -0.7717544436 0.0174177736 3.015101038e-39
-0.2792809904 -0.2825156152 0.1781683117 3.015101038e-39
0.02413437143 -0.4280991554 0.3298050463 3.199488094e-39
0.02242999338 -0.3628090024 0.238082543 3.199488094e-39
0.017633304 -0.3559693992 0.3907033801 3.199488094e-39
-0.2085099965 -0.769325614 0.02417324483 3.199488094e-39
-0.1955090612 -0.7700275183 0.03462971747 3.199488094e-39
-0.1698525846 -0.4182084799 0.2405528277 3.199488094e-39
-0.006240345538 -0.2505930662 0.1912128329 3.199488094e-39
-0.2055734545 -0.4297256768 0.2454145104 3.199488094e-39
0.008857300505 -0.3544225991 0.2369218171 3.383517819e-39
-0.2578035295 -0.7724563479 0.02787421644 3.383517819e-39
-0.2454801202 -0.7716736794 0.02694897354 3.383517819e-39
-0.04553930834 -0.3270767927 0.2116014957 3.383517819e-39
-0.2886609435 -0.4550273716 0.2674448192 3.383517819e-39
0.0178141091 -0.4062066376 0.2928784788 3.383517819e-39
-0.2612834573 -0.2945369482 0.2169008106 3.383517819e-39
-0.2736061513 -0.3206766844 0.1978938431 3.383517819e-39
-0.09375336021 -0.2469028085 0.1956035644 3.567904875e-39
0.01820507273 -0.3636538982 0.3814075887 3.567904875e-39
-0.2268119454 -0.2738506794 0.2099531591 3.567904875e-39
-0.2536176443 -0.4420255721 0.2512014508 3.567904875e-39
-0.08250945061 -0.3294248581 0.2143772244 3.567904875e-39
-0.1464551836 -0.4074739814 0.236616388 3.567904875e-39
0.0106354896 -0.3325922191 0.3423950374 3.567904875e-39
-0.3014290929 -0.3024192452 0.1841907203 3.567904875e-39
0.01253023371 -0.3254927993 0.3616820276 3.75229193e-39
0.01396037079 -0.384899199 0.2659431398 3.75229193e-39
-0.1568516791 -0.4189103842 0.2510092854 3.75229193e-39
-0.3974260092 -0.7721582651 -0.03023836017 3.75229193e-39
-0.005392970517 -0.3445515633 0.2243794054 3.75229193e-39
0.1143787205 -0.4977176785 0.4847315848 3.75229193e-39
0.01203349419 -0.374245435 0.2524754107 3.75229193e-39
0.008391300216 -0.3405382037 0.266895026 3.75229193e-39
-0.3263086677 -0.4558908343 0.2588388622 3.936320254e-39
0.02139222063 -0.341240108 0.2773514688 3.936320254e-39
-0.001603281125 -0.2671852708 0.2502073348 3.936320254e-39
-0.3026784062 -0.2932501137 0.1821047515 3.936320254e-39
-0.3077745736 -0.774102509 0.02019350231 3.936320254e-39
-0.3844251037 -0.7728601694 -0.01978188753 3.936320254e-39
-0.1053992137 -0.2491701096 0.2079105079 3.936320254e-39
-0.08689199388 -0.1396206915 -0.1438884288 3.936320254e-39
0.03129059076 -0.2981661558 0.298751086 4.120708711e-39
0.1868370324 -0.436262399 0.3219487965 4.120708711e-39
-0.2194782794 -0.7730774879 0.04786194861 4.120708711e-39
-0.2938280702 -0.3258770108 0.2373161167 4.120708711e-39
0.02366837114 -0.4142147601 0.3597782552 4.120708711e-39
-0.2859302163 -0.296102345 0.2187512964 4.120708711e-39
-0.05718512833 -0.3293440938 0.2239084393 4.120708711e-39
-0.2514586747 -0.2754160464 0.2118036449 4.120708711e-39
-0.2470331639 -0.3044080138 0.2294432223 4.304737034e-39
-0.2817727327 -0.7755063772 0.04110640287 4.304737034e-39
0.2134106308 -0.4453507364 0.3335659802 4.304737034e-39
0.01513465866 -0.3376311362 0.3865314424 4.304737034e-39
0.008793218061 -0.2557488084 0.2358144373 4.304737034e-39
-0.0009257346392 -0.2686698437 0.2615890205 4.304737034e-39
-0.08553689718 -0.1425899267 -0.1211250126 4.304737034e-39
-0.2687717676 -0.7762082815 0.05156292021 4.304737034e-39
-0.3133077025 -0.4565927386 0.269295305 4.48912409e-39
-0.257534802 -0.3474013507 0.2032264918 4.48912409e-39
-0.3150017858 -0.2940327823 0.1830299944 4.48912409e-39
-0.05536402762 -0.3461977243 0.2166986614 4.48912409e-39
-0.1457776278 -0.4089585841 0.2479980737 4.48912409e-39
-0.2384577692 -0.2761179805 0.2222601026 4.48912409e-39
0.0929075107 -0.2942526937 0.2941248715 4.48912409e-39
-0.2809329331 -0.3327788413 0.227095142 4.48912409e-39
0.02741634101 -0.4417221248 0.3660361469 4.673152414e-39
-0.1251114756 -0.1327996552 -0.143198669 4.673152414e-39
-0.2964318097 -0.3390956819 0.1925345659 4.673152414e-39
0.009068848565 -0.3420228064 0.2782767117 4.673152414e-39
-0.08058258146 -0.3400785923 0.2278448939 4.673152414e-39
0.03002075478 -0.4538604617 0.3908855021 4.673152414e-39
-0.2112693638 -0.1320786178 -0.1160445064 4.673152414e-39
-0.2773548067 -0.2678123116 0.2115681618 4.673152414e-39
-0.1244339198 -0.1342842579 -0.1318169534 4.857539469e-39
-0.09233421087 -0.3485457897 0.2194743901 4.857539469e-39
0.1645189971 -0.3636921644 0.3061863482 4.857539469e-39
-0.3194204271 -0.7763698101 0.03250043094 4.857539469e-39
0.02002617344 -0.3805075288 0.3741978109 4.857539469e-39
-0.3577456474 -0.7757486701 0.01251277328 4.857539469e-39
-0.2834308743 -0.339797616 0.2029910088 4.857539469e-39
-0.3260758817 -0.3039846122 0.1860412061 4.857539469e-39
0.02127549425 -0.3896766305 0.3762837648 5.041567793e-39
-0.2896781862 -0.2685949802 0.2124934047 5.041567793e-39
-0.2909268141 -0.2847828865 0.1904752403 5.041567793e-39
-0.04236311466 -0.3468996286 0.2271551192 5.041567793e-39
-0.1052293554 -0.3416439891 0.2296953797 5.041567793e-39
0.1670176536 -0.3820303977 0.3103582859 5.041567793e-39
-0.29757604 -0.2983696461 0.231058225 5.041567793e-39
-0.2932563126 -0.3335615396 0.2280203849 5.041567793e-39
0.00360555388 -0.2914619148 0.2999061048 5.225597518e-39
-0.3830699921 -0.7758294344 0.002981558442 5.225597518e-39
-0.3051770627 -0.2749118507 0.1779328287 5.225597518e-39
-0.333974421 -0.3084022403 0.224538222 5.225597518e-39
-0.2982529104 -0.3222420514 0.1997443289 5.225597518e-39
-0.252030462 -0.2677315474 0.2210993767 5.225597518e-39
0.00732139498 -0.3012161255 0.3119832575 5.225597518e-39
0.1732642651 -0.4278759658 0.3207880855 5.225597518e-39
0.009174617007 -0.3358228803 0.298954159 5.409984573e-39
-0.1332221478 -0.2309126407 0.1942073703 5.409984573e-39
-0.02821864374 -0.3629705906 0.2190201133 5.409984573e-39
-0.2295426428 -0.4327756464 0.2586466968 5.409984573e-39
0.2140881866 -0.4468353689 0.3449477255 5.409984573e-39
-0.09108489007 -0.3577149212 0.221560359 5.409984573e-39
-0.3327251077 -0.3175713718 0.2266241908 5.409984573e-39
-0.01589524187 -0.3621878922 0.2180948704 5.409984573e-39
0.2884905934 -0.7469255328 0.05545379221 5.594012897e-39
-0.1004647017 -0.1312342584 -0.1450491548 5.594012897e-39
-0.1938218176 -0.4212584794 0.2537850142 5.594012897e-39
0.0263895113 -0.3779165745 0.2856953442 5.594012897e-39
0.01128091291 -0.3163236976 0.3595960736 5.594012897e-39
0.1570230573 -0.3086774349 0.2936705649 5.594012897e-39
-0.2378430218 -0.1229902729 -0.1276616901 5.594012897e-39
-0.01913552172 -0.2436912656 0.2014338076 5.594012897e-39
0.1273796409 -0.4984195828 0.4951880574 5.77804122e-39
-0.1085754111 -0.2293472588 0.1923568845 5.77804122e-39
-0.1470269561 -0.3997894526 0.2459121197 5.77804122e-39
0.00553242676 -0.302115649 0.3133737445 5.77804122e-39
-0.2548669875 -0.4328564405 0.249115482 5.77804122e-39
-0.3055796921 -0.3343442082 0.2289456278 5.77804122e-39
-0.2798527777 -0.2748310864 0.1874640435 5.77804122e-39
-0.3074007928 -0.3174905777 0.2361554056 5.77804122e-39
-0.170424372 -0.4105239809 0.2498485595 5.962428276e-39
-0.1810964942 -0.3356864154 0.2217791677 5.962428276e-39
0.1755931228 -0.3537403345 0.3031751513 5.962428276e-39
-0.3175004423 -0.2756945491 0.1788580716 5.962428276e-39
-0.2286330462 -0.2569970489 0.2171629369 5.962428276e-39
-0.3111487627 -0.2899832428 0.229897514 5.962428276e-39
0.2114837766 -0.4346970022 0.3200983107 5.962428276e-39
-0.3371499181 -0.3139364123 0.189052403 5.962428276e-39
-0.01521769445 -0.3636724949 0.2294765711 6.1464566e-39
-0.3022336662 -0.4466409385 0.2662841082 6.1464566e-39
0.02446263842 -0.3672628403 0.2722276747 6.1464566e-39
-0.3136473894 -0.2716450095 0.2257255912 6.1464566e-39
-0.08983556181 -0.3668840528 0.2236463279 6.1464566e-39
0.02459023148 -0.1402609646 -0.1615113467 6.1464566e-39
0.02630491368 -0.444106251 0.3788082898 6.1464566e-39
-0.3359005749 -0.3231055439 0.1911383718 6.1464566e-39
0.3042017817 -0.7535659075 0.1114370972 6.330484923e-39
-0.3506175578 -0.2739930749 0.2285013199 6.330484923e-39
-0.3259707987 -0.2724276781 0.2266508341 6.330484923e-39
-0.3320475519 -0.3190559745 0.2380058914 6.330484923e-39
-0.2821815312 -0.3489667475 0.2050769776 6.330484923e-39
-0.3064263761 -0.265742749 0.1758468598 6.330484923e-39
-0.1496524811 -0.1281651407 -0.1206707209 6.330484923e-39
0.2939109802 -0.7588024139 0.1465074867 6.330484923e-39
-0.3632788062 -0.4582388997 0.2616145909 6.514514648e-39
-0.1695147604 -0.2347453386 0.2083647996 6.514514648e-39
-0.2675300539 -0.2486913651 0.2064709961 6.514514648e-39
0.005617020652 -0.2359259576 0.2202607542 6.514514648e-39
-0.1248788312 -0.3798858225 0.2398897111 6.514514648e-39
0.1693464965 -0.3078947663 0.292745322 6.514514648e-39
-0.3302264512 -0.335909605 0.2307961136 6.514514648e-39
-0.3875876963 -0.2763411403 0.2312770486 6.514514648e-39
0.008898990229 -0.2495489269 0.2564918697 6.698542971e-39
-0.1892270297 -0.1183748916 -0.1427443773 6.698542971e-39
0.002335056663 -0.222303018 0.1840296984 6.698542971e-39
-0.2080720961 -0.4113874435 0.2412426025 6.698542971e-39
0.02245117165 -0.4227987826 0.3518729806 6.698542971e-39
-0.2184685916 -0.4228238463 0.2556355 6.698542971e-39
-0.1409501731 -0.353161186 0.2345570624 6.698542971e-39
-0.3850890696 -0.2946794033 0.2354489714 6.698542971e-39
0.001404326409 -0.1385956854 -0.1162200123 6.882571295e-39
0.0115674939 -0.3603610396 0.2824486494 6.882571295e-39
-0.3677683473 -0.3305731714 0.2428675741 6.882571295e-39
-0.1250057071 -0.1265997589 -0.1225212067 6.882571295e-39
0.01859742962 -0.401491344 0.3249376416 6.882571295e-39
-0.1140374243 -0.1228478476 -0.1462098807 6.882571295e-39
-0.2707055509 -0.2542255521 0.1709851772 6.882571295e-39
0.02514018677 -0.368747443 0.2836093605 6.882571295e-39
-0.242205739 -0.2486106008 0.216002211 7.066599618e-39
-0.1769036651 -0.1175922006 -0.1436696202 7.066599618e-39
-0.1372022033 -0.3806685209 0.240814954 7.066599618e-39
-0.2665128112 -0.4351237416 0.2614224255 7.066599618e-39
-0.2044939548 -0.3464209139 0.2257156074 7.066599618e-39
0.3357515037 -0.739340961 0.01760773361 7.066599618e-39
-0.3490278423 -0.4934669733 0.254224807 7.066599618e-39
0.1202439219 -0.4634891748 0.4320216179 7.066599618e-39
-0.05860431492 -0.2277010977 0.2000376135 7.250627941e-39
0.1039816141 -0.2843008637 0.2911136448 7.250627941e-39
-0.4193625748 -0.7796621323 0.01713897288 7.250627941e-39
-0.3642953336 -0.2971635759 0.186730966 7.250627941e-39
0.1279719919 -0.3412406445 0.3916719258 7.250627941e-39
-0.1017140299 -0.1220651567 -0.1471351236 7.250627941e-39
-0.3057495356 -0.2418703288 0.207160756 7.250627941e-39
0.03759114817 -0.1409628838 -0.1510549039 7.250627941e-39
-0.2203954607 -0.4121701419 0.2421678454 7.434656265e-39
-0.1461173147 -0.2240108401 0.204428345 7.434656265e-39
-0.1014813855 -0.369151324 0.2359532565 7.434656265e-39
-0.3334019482 -0.3414437771 0.1953102946 7.434656265e-39
-0.4063616693 -0.7803640366 0.02759543061 7.434656265e-39
0.1292213202 -0.350409776 0.3937578797 7.434656265e-39
-0.1214705557 -0.2224454582 0.2025778592 7.434656265e-39
-0.3469746411 -0.333057344 0.1941495687 7.434656265e-39
0.3165251613 -0.7527831793 0.1105118543 7.618684588e-39
0.005638195202 -0.2959157228 0.3340511918 7.618684588e-39
-0.1830874681 -0.2263589203 0.2072040737 7.618684588e-39
-0.3544705808 -0.2780426443 0.1816338003 7.618684588e-39
-0.002746833488 -0.2518162429 0.2687987983 7.618684588e-39
-0.3133070171 -0.4819497764 0.2493631244 7.618684588e-39
0.0268445611 -0.434037596 0.3753318787 7.618684588e-39
-0.3803597987 -0.7817678452 0.04850836098 7.618684588e-39
-0.1603675634 -0.2141397893 0.1918859184 7.802712912e-39
-0.1850143373 -0.2157051712 0.1937364042 7.802712912e-39
-0.4166600108 -0.2489145696 0.2154879421 7.802712912e-39
-0.04628094286 -0.2269184142 0.1991123706 7.802712912e-39
-0.1520242393 -0.3631129861 0.2375682741 7.802712912e-39
-0.2681018412 -0.241006881 0.2157667279 7.802712912e-39
-0.01284590736 -0.1287246346 -0.1287624389 7.802712912e-39
-0.1963204741 -0.4029202163 0.2496130913 7.802712912e-39
-0.001877643168 -0.1249727234 -0.152451098 7.986382503e-39
-0.1618489772 -0.3822339177 0.2426654398 7.986382503e-39
0.2377144545 -0.7745927572 0.2421873957 7.986382503e-39
-0.1982473284 -0.3922665119 0.2361454219 7.986382503e-39
0.1422010511 -0.2911219001 0.2904238999 7.986382503e-39
0.0238799192 -0.4018149674 0.4011331797 7.986382503e-39
0.1267226636 -0.3320715427 0.389585942 7.986382503e-39
0.3254607618 -0.7445774674 0.05267806351 7.986382503e-39
-0.02163416892 -0.2253530324 0.1972618848 8.170410826e-39
-0.2161398232 -0.348688215 0.2380225658 8.170410826e-39
-0.3667939901 -0.2788253129 0.1825590432 8.170410826e-39
-0.06474387646 -0.1197170764 -0.1499108523 8.170410826e-39
-0.2021221668 -0.1114730611 -0.1325233877 8.170410826e-39
-0.2219844759 -0.2180532515 0.1965121329 8.170410826e-39
0.150428459 -0.144572407 -0.1459143907 8.170410826e-39
0.01016948931 -0.3187078238 0.3723682463 8.170410826e-39
-0.3256303966 -0.4827324748 0.2502883673 8.35443915e-39
-0.2450422347 -0.4137355387 0.2440183312 8.35443915e-39
0.0202377215 -0.3681077361 0.4155527353 8.35443915e-39
0.1150768399 -0.3343388438 0.4018929005 8.35443915e-39
0.348752439 -0.7400428653 0.02806419134 8.35443915e-39
0.01235081442 -0.355645746 0.3145078421 8.35443915e-39
-0.2959248126 -0.2227494121 0.2020635903 8.35443915e-39
-0.2086438835 -0.4037029147 0.2505383193 8.35443915e-39
-0.147366643 -0.2148417085 0.2023423761 8.538467473e-39
0.01331355795 -0.3207775354 0.3937412202 8.538467473e-39
-0.2019952983 -0.364759177 0.2298875451 8.538467473e-39
-0.3082481921 -0.2235320956 0.2029888332 8.538467473e-39
-0.2939331532 -0.3574339151 0.1967064887 8.538467473e-39
-0.2105707377 -0.3930492103 0.2370706648 8.538467473e-39
-0.2693511546 -0.2318377644 0.213680774 8.538467473e-39
0.2726520002 -0.7677909136 0.2052665204 8.538467473e-39
-0.2673602104 -0.3411652446 0.228255868 8.722137064e-39
0.02752210945 -0.4355222285 0.3867135942 8.722137064e-39
-0.420809865 -0.3061965704 0.240310654 8.722137064e-39
0.1121032387 -0.1439512521 -0.1659020782 8.722137064e-39
0.0104457289 -0.1241900325 -0.1533763409 8.722137064e-39
0.1634294391 -0.1452743113 -0.1354579329 8.722137064e-39
0.2064864784 -0.3980205357 0.3117544651 8.722137064e-39
-0.04009710625 -0.1181516945 -0.1517613381 8.722137064e-39
0.005722796544 -0.2297260761 0.2409382463 8.906165387e-39
0.1304706335 -0.3595788777 0.3958438337 8.906165387e-39
-0.3452183306 -0.2258801758 0.2057645619 8.906165387e-39
0.100457415 -0.1462185532 -0.1535951495 8.906165387e-39
-0.2148904949 -0.3578573167 0.2401085198 8.906165387e-39
0.0118008256 -0.1271592528 -0.1306129098 8.906165387e-39
0.003817100078 -0.2790621221 0.3412609696 8.906165387e-39
-0.3864434659 -0.3170671761 0.1927533746 8.906165387e-39
-0.1630983055 -0.3730647862 0.240579471 9.089834978e-39
0.01245659031 -0.3494458497 0.3351852596 9.089834978e-39
-0.03874200955 -0.1211209148 -0.128997907 9.089834978e-39
-0.1864957511 -0.3837992847 0.2445159107 9.089834978e-39
-0.4049083591 -0.2404473871 0.223858431 9.089834978e-39
-0.2232337892 -0.2088841349 0.1944261789 9.089834978e-39
0.1358493268 -0.476329416 0.4673274755 9.089834978e-39
-0.1651520282 -0.1091249883 -0.1352991164 9.089834978e-39
0.3384616971 -0.7452794313 0.06313459575 9.273863302e-39
0.1538680643 -0.3488443792 0.3919073939 9.273863302e-39
-0.2725273371 -0.2120149136 0.1981271505 9.273863302e-39
-0.2732042074 -0.2358873188 0.1668132544 9.273863302e-39
-0.4191586673 -0.2305763364 0.2113160193 9.273863302e-39
-0.09999997169 -0.2010572255 0.1851737499 9.273863302e-39
-0.1016082466 -0.1158652604 -0.1264576614 9.273863302e-39
-0.2800855339 -0.4267373085 0.2602616847 9.273863302e-39
-0.3335718215 -0.2489699125 0.1735254228 9.457532893e-39
0.02330813929 -0.3941304386 0.4104289114 9.457532893e-39
-0.3771905303 -0.2902617455 0.1969519407 9.457532893e-39
-0.1754216701 -0.3738474846 0.2415047139 9.457532893e-39
-0.3734425604 -0.3177691102 0.2032098174 9.457532893e-39
-0.07831656933 -0.1113306582 -0.1510715634 9.457532893e-39
-0.2479598522 -0.1636815667 -0.4313512444 9.457532893e-39
-0.1022394076 -0.1773411036 -0.2708032727 9.457532893e-39
-0.08991603553 -0.1765584052 -0.2717285156 9.641561216e-39
-0.4536301494 -0.2512626648 0.2182636708 9.641561216e-39
-0.1029169559 -0.175856486 -0.2821849883 9.641561216e-39
-0.2932556272 -0.3589185476 0.2080881894 9.641561216e-39
-0.3568641841 -0.2281474918 0.2180715054 9.641561216e-39
-0.4393798709 -0.2611336708 0.2308060825 9.641561216e-39
-0.4482931495 -0.4728868902 0.2701772451 9.641561216e-39
-0.07962527871 -0.1713218838 -0.3067988753 9.641561216e-39
-0.124853529 -0.1833603084 -0.2348076403 9.825230807e-39
-0.4479553103 -0.2894237638 0.237989217 9.825230807e-39
-0.1609393358 -0.2064552903 0.2011816651 9.825230807e-39
-0.09330377728 -0.1691353619 -0.3286370635 9.825230807e-39
0.01084703393 -0.3201924264 0.3837499619 9.825230807e-39
0.005743971094 -0.2897158563 0.3547286689 9.825230807e-39
-0.3047323227 -0.4283027053 0.2621121705 9.825230807e-39
0.3302036226 -0.7549697161 0.1323500723 9.825230807e-39
-0.0666243583 -0.172023803 -0.2963424027 1.000925913e-38
-0.3587910533 -0.2174937576 0.2046038359 1.000925913e-38
-0.1282412708 -0.1759372652 -0.2917161882 1.000925913e-38
-0.1063046977 -0.1684334278 -0.3390935361 1.000925913e-38
-0.4492046237 -0.2802546024 0.2359032631 1.000925913e-38
-0.3075441122 -0.1720488667 -0.3925798833 1.000925913e-38
-3.664009273e-05 -0.2577546835 0.3143256307 1.000925913e-38
0.1649421006 -0.3388925791 0.3888961971 1.000925913e-38
-0.2472823262 -0.1651661694 -0.4199695289 1.019292872e-38
-0.4504539669 -0.2710855007 0.2338172942 1.019292872e-38
-0.4170618951 -0.3337039351 0.2465685457 1.019292872e-38
-0.2244831175 -0.1997150183 0.1923402101 1.019292872e-38
-0.141919747 -0.1737507284 -0.3135543764 1.019292872e-38
-0.1625012308 -0.1842237711 -0.2434136569 1.019292872e-38
-0.1118526235 -0.1840622425 -0.2243511975 1.019292872e-38
-0.3191899359 -0.1743161678 -0.3802729547 1.019292872e-38
-0.3438367248 -0.1758815348 -0.3784224689 1.037659831e-38
0.148501575 -0.1339186579 -0.1593820751 1.037659831e-38
-0.09932242334 -0.2025418282 0.1965554506 1.037659831e-38
-0.07555998862 -0.1802295446 -0.2385086119 1.037659831e-38
-0.1652114242 -0.1782853305 -0.2889404595 1.037659831e-38
-0.02481036261 -0.2055301666 0.1817082614 1.037659831e-38
-0.1549206823 -0.1730488241 -0.324010849 1.037659831e-38
-0.1658889651 -0.1768007278 -0.3003222048 1.037659831e-38
-0.3788424432 -0.3405249715 0.2458787709 1.056062664e-38
0.1983669102 -0.1384724081 -0.1723787785 1.056062664e-38
-0.1281818897 -0.106776908 -0.1380748302 1.056062664e-38
-0.2395372242 -0.3594227135 0.2419590056 1.056062664e-38
-0.1775348186 -0.1790680289 -0.2880152166 1.056062664e-38
0.1119006425 -0.3145159781 0.386339277 1.056062664e-38
-0.06302982569 -0.1987091452 0.1823980212 1.056062664e-38
-0.2582505643 -0.1689180881 -0.3962808549 1.056062664e-38
0.202844277 -0.3643133044 0.3261740804 1.074429623e-38
-0.3431591988 -0.1773661524 -0.3670407534 1.074429623e-38
-0.1782123595 -0.1775834262 -0.2993969619 1.074429623e-38
-0.05362343788 -0.1727257222 -0.2858859599 1.074429623e-38
-0.08699905127 -0.2017591298 0.1956302077 1.074429623e-38
-0.1891806424 -0.18133533 -0.275708288 1.074429623e-38
0.01206423342 -0.3116084039 0.3916552365 1.074429623e-38
0.2089851201 -0.4163587689 0.3159264028 1.074429623e-38
-0.2219579965 -0.1650854051 -0.4104382992 1.092796582e-38
-0.4843536913 -0.2994562984 0.2314691991 1.092796582e-38
-0.2796829045 -0.3673049808 0.2092489004 1.092796582e-38
-0.05294588953 -0.1742103398 -0.2745042443 1.092796582e-38
-0.460616529 -0.4736695886 0.271102488 1.092796582e-38
-0.201504007 -0.1821180284 -0.2747830451 1.092796582e-38
0.1388883889 -0.140639782 -0.1129299849 1.092796582e-38
0.0006409063935 -0.2592392862 0.3257073462 1.092796582e-38
-0.486852318 -0.2811180949 0.2272972763 1.111163541e-38
-0.3066591918 -0.4176490009 0.2486445457 1.111163541e-38
-0.2938656509 -0.1742353737 -0.370741725 1.111163541e-38
-0.2336038053 -0.1673527062 -0.3981313407 1.111163541e-38
0.12737903 -0.2735663652 0.2871772051 1.111163541e-38
-0.04134642705 -0.1089825779 -0.1538472921 1.111163541e-38
-0.2247956842 -0.1866526306 -0.2501691282 1.111163541e-38
-0.1856653839 -0.1612527072 -0.4245957136 1.111163541e-38
-0.1459850222 -0.1648430824 -0.3818446398 1.1295305e-38
-0.1734695286 -0.1879757047 -0.219724983 1.1295305e-38
-0.210439682 -0.19032377 -0.2169492543 1.1295305e-38
-0.3650957644 -0.1848699749 -0.3196634352 1.1295305e-38
-0.4615280032 -0.2810373008 0.2368284911 1.1295305e-38
-0.1822776496 -0.1686757654 -0.3676871955 1.1295305e-38
-0.318579942 -0.3589993119 0.1985569745 1.1295305e-38
-0.3178348541 -0.1772853732 -0.3575095236 1.1295305e-38
-0.2138274163 -0.1829007268 -0.2738578022 1.147897319e-38
-0.3664508462 -0.1819007695 -0.3424268663 1.147897319e-38
-0.4248957336 -0.4621523619 0.2662408054 1.147897319e-38
-0.3644182086 -0.1863545924 -0.3082817495 1.147897319e-38
-0.4627773464 -0.2718681991 0.2347425371 1.147897319e-38
-0.3970105052 -0.2106727064 0.2052936107 1.147897319e-38
-0.1836327463 -0.1657065451 -0.3904505968 1.147897319e-38
-0.3437984586 -0.3528802097 0.2097031921 1.147897319e-38
-0.1358218044 -0.1871122271 -0.211119011 1.166264278e-38
-0.2048917413 -0.1746949852 -0.3316915929 1.166264278e-38
-0.1719868928 -0.163439244 -0.4027575552 1.166264278e-38
-0.2610882819 -0.1904853284 -0.2360117137 1.166264278e-38
-0.2568954825 -0.1718873084 -0.3735174537 1.166264278e-38
-0.3910975754 -0.1834661365 -0.3405763805 1.166264278e-38
-0.2268283367 -0.1821987927 -0.284314245 1.166264278e-38
-0.3747089505 -0.1915911138 -0.27321136 1.166264278e-38
-0.1604685783 -0.188677609 -0.2092685252 1.184631237e-38
-0.3723637462 -0.2091073245 0.2034431249 1.184631237e-38
-0.2345399261 -0.39609918 0.2503028512 1.184631237e-38
-0.2445721328 -0.17110461 -0.3744426966 1.184631237e-38
-0.2344089001 -0.1933737695 -0.2037170678 1.184631237e-38
-0.03999133781 -0.1119517982 -0.1310838759 1.184631237e-38
-0.2744535208 -0.2267181873 0.1647272855 1.184631237e-38
-0.4451339543 -0.1762046367 -0.416547358 1.184631237e-38
0.3315587044 -0.7579389811 0.1551134735 1.202998196e-38
-0.2685413063 -0.1741546094 -0.3612104952 1.202998196e-38
-0.2579374015 -0.4068336785 0.254239291 1.202998196e-38
0.1142416596 -0.1422051787 -0.111079514 1.202998196e-38
-0.4418784976 -0.2427954525 0.2266341597 1.202998196e-38
-0.4782769084 -0.2528280318 0.2201141566 1.202998196e-38
-0.1721144319 -0.19094491 -0.1969615519 1.202998196e-38
0.002895880491 -0.272224158 0.2943436801 1.202998196e-38
-0.3114236593 -0.2290662825 0.1675030142 1.221365155e-38
-0.471352756 -0.3001582325 0.2419256568 1.221365155e-38
-0.2777567208 -0.3526016772 0.2426487654 1.221365155e-38
-0.4574573338 -0.1769873202 -0.4156221151 1.221365155e-38
-0.2234658897 -0.3861473799 0.2472916394 1.221365155e-38
-0.243894577 -0.1725892276 -0.363060981 1.221365155e-38
-0.4301004112 -0.1813603938 -0.3719457686 1.221365155e-38
-0.2207303941 -0.1955602914 -0.1818788946 1.221365155e-38
-0.2788355052 -0.461263448 0.2424154878 1.239732115e-38
-0.02766795829 -0.1111691147 -0.1320091039 1.239732115e-38
-0.4294228852 -0.1828449965 -0.3605640531 1.239732115e-38
-0.1104975268 -0.1870314479 -0.2015877664 1.239732115e-38
-0.4691032171 -0.1792546362 -0.4033151567 1.239732115e-38
-0.1837602556 -0.1932122111 -0.1846546233 1.239732115e-38
-0.2843799591 -0.1950199306 -0.2113977969 1.239732115e-38
-0.4410686791 -0.1851122975 -0.3482570946 1.239732115e-38
-0.4116790891 -0.1939391941 -0.2704356313 1.258099074e-38
-0.1128951535 -0.194155395 0.1953947246 1.258099074e-38
-0.426035136 -0.1902680546 -0.303655535 1.258099074e-38
-0.2870901525 -0.18908149 -0.256924659 1.258099074e-38
-0.3144471049 -0.1847084314 -0.3006009758 1.258099074e-38
-0.3493846059 -0.1915103346 -0.2636801302 1.258099074e-38
0.1164319366 -0.3373080492 0.4246563017 1.258099074e-38
-0.2761218846 -0.1853295714 -0.2806132734 1.258099074e-38
-0.337738812 -0.1892430335 -0.2759870589 1.276466033e-38
-0.0912117362 -0.1044288278 -0.1408505589 1.276466033e-38
-0.4599389732 -0.4751541913 0.2824841738 1.276466033e-38
-0.4701034129 -0.309327364 0.2440116256 1.276466033e-38
-0.001285966486 -0.248585552 0.3122396767 1.276466033e-38
-0.2823473215 -0.1994737536 -0.1772526801 1.276466033e-38
0.01152458228 -0.3216770291 0.3951316476 1.276466033e-38
-0.2877677083 -0.1875968724 -0.2683063447 1.276466033e-38
-0.4930723906 -0.1823046356 -0.3900829852 1.294832852e-38
-0.3243195415 -0.1968074441 0.1976561844 1.294832852e-38
-0.1830827147 -0.1946968287 -0.1732728928 1.294832852e-38
0.01466865093 -0.3237467408 0.4165046215 1.294832852e-38
-0.4240024984 -0.1947218776 -0.2695103884 1.294832852e-38
-0.4376809299 -0.1925353557 -0.2913485467 1.294832852e-38
-0.3021237254 -0.1839257479 -0.3015262187 1.294832852e-38
-0.4663930237 -0.1851930767 -0.3577883244 1.294832852e-38
0.1501200795 -0.3213370144 0.3856495023 1.313163938e-38
-0.305981636 -0.4191336036 0.2600262165 1.313163938e-38
-0.2665086687 -0.1786084473 -0.3270653784 1.313163938e-38
0.1397024095 -0.2727836668 0.2862519622 1.313163938e-38
0.1317199618 -0.3687479794 0.3979298174 1.313163938e-38
-0.3561218679 -0.3536629081 0.210628435 1.313163938e-38
-0.03791229799 -0.179366082 -0.2299026549 1.313163938e-38
-0.2651535571 -0.1815776527 -0.3043019474 1.313163938e-38
-0.3014461994 -0.1854103506 -0.2901445329 1.331530897e-38
-0.4372191131 -0.4629350603 0.2671660483 1.331530897e-38
-0.5060732961 -0.1816027164 -0.400539428 1.331530897e-38
-0.3069940805 -0.2010391355 -0.1754021943 1.331530897e-38
-0.4780388474 -0.1874603778 -0.3454813659 1.331530897e-38
-0.4349707365 -0.1984737962 -0.2458217442 1.331530897e-38
-0.3117369115 -0.1906468719 -0.2550741732 1.331530897e-38
-0.3366429508 -0.1975901276 0.1985814273 1.331530897e-38
-0.3233827651 -0.192914173 -0.242767185 1.349897856e-38
-0.3569651842 -0.2026852965 -0.1830829233 1.349897856e-38
-0.3466744125 -0.1974487752 -0.2181532979 1.349897856e-38
0.3205904663 -0.761690855 0.1788021475 1.349897856e-38
-0.3343510628 -0.1966660917 -0.2190785259 1.349897856e-38
-0.1098199785 -0.1885160655 -0.1902060807 1.349897856e-38
0.1243938804 -0.4062071443 0.4071989059 1.349897856e-38
0.3432045281 -0.7556716204 0.1428065151 1.349897856e-38
-0.4616501927 -0.1955853403 -0.2781163752 1.368228942e-38
-0.1461125612 -0.1923487484 -0.1760486215 1.368228942e-38
-0.2743484676 -0.195161283 0.2053369135 1.368228942e-38
-0.3802568018 -0.2072198987 -0.1584690213 1.368228942e-38
-0.181727618 -0.197666049 -0.1505095065 1.368228942e-38
0.2281012684 -0.7813138962 0.2886394262 1.368228942e-38
-0.4883295894 -0.1926968992 -0.3104110062 1.368228942e-38
-0.2506113052 -0.3693745434 0.2449702173 1.368228942e-38
-0.3183049858 -0.4199162722 0.2609514594 1.386595901e-38
-0.4602950811 -0.1985545754 -0.2553529441 1.386595901e-38
0.01412900724 -0.3338153958 0.4199810624 1.386595901e-38
-0.4806057215 -0.3269636631 0.2377270907 1.386595901e-38
-0.2803146839 -0.2039275914 -0.1431075633 1.386595901e-38
-0.026266478 -0.1770987809 -0.2422095835 1.386595901e-38
-0.2516285479 -0.1829421818 0.1900187731 1.386595901e-38
-0.4589399993 -0.2015237957 -0.2325895131 1.386595901e-38
-0.1933734268 -0.1999333501 -0.1382025331 1.404926846e-38
-0.4726184607 -0.1993372589 -0.2544277012 1.404926846e-38
0.01506100409 -0.3615841866 0.3600346148 1.404926846e-38
0.100932315 -0.3182678819 0.4100279212 1.404926846e-38
-0.006494801491 -0.2243088931 0.2625409067 1.404926846e-38
-0.4320537746 -0.2236745209 0.221536994 1.404926846e-38
-0.3277277946 -0.3542478383 0.2349680364 1.404926846e-38
0.3541728258 -0.7519197464 0.1191179007 1.404926846e-38
-0.2269817591 -0.181376785 0.1881682873 1.423293806e-38
0.008348388597 -0.3018541932 0.3795780241 1.423293806e-38
-0.3982598484 -0.2015035897 0.2032076418 1.423293806e-38
-0.4034892321 -0.3420903683 0.2477292567 1.423293806e-38
-0.4315830171 -0.2058968395 -0.1889131963 1.423293806e-38
-0.2673137486 -0.2046295106 -0.1326510757 1.423293806e-38
0.2029500604 -0.3581133783 0.3468514979 1.423293806e-38
-0.3672559261 -0.2079218328 -0.1480125636 1.423293806e-38
-0.3612897098 -0.1991555244 0.2004319131 1.441624891e-38
-0.009099220857 -0.2121705264 0.2376915663 1.441624891e-38
-0.3049614429 -0.2054929733 -0.1412570775 1.441624891e-38
0.1078564674 -0.3655980825 0.4318394363 1.441624891e-38
0.007947087288 -0.1058518142 -0.1575482637 1.441624891e-38
0.2360146195 -0.1376089454 -0.1637728065 1.441624891e-38
-0.3406229913 -0.3473460078 0.245189026 1.441624891e-38
-0.4086563289 -0.2129400074 0.2176005393 1.441624891e-38
-0.4835867584 -0.2030891776 -0.2307390422 1.459991851e-38
-0.2677614391 -0.4513116479 0.2394042611 1.459991851e-38
-0.4575848877 -0.204493016 -0.2098261118 1.459991851e-38
-0.335965395 -0.1990747452 0.209963128 1.459991851e-38
-0.3172848225 -0.2062756717 -0.1403318346 1.459991851e-38
-0.001984689385 -0.1871111542 0.1870675534 1.459991851e-38
0.0270882342 -0.4393909574 0.4108674824 1.459991851e-38
0.2041993737 -0.3672825098 0.3489374816 1.459991851e-38
0.2094409466 -0.1285205781 -0.1753899902 1.478322936e-38
0.208519116 -0.4024743736 0.3458996117 1.478322936e-38
0.02044926584 -0.3557079136 0.45690763 1.478322936e-38
-0.04191819951 -0.101298064 -0.1445515305 1.478322936e-38
0.2030558288 -0.3519135118 0.3675289452 1.478322936e-38
0.112747997 -0.4084744751 0.4195058346 1.478322936e-38
-0.3419315815 -0.2078410536 -0.1384813488 1.478322936e-38
-0.07654303312 0.02075122297 0.257586956 1.478322936e-38
-0.2666361928 -0.2061141133 -0.1212693751 1.496689755e-38
-0.2734369636 -0.387793541 0.2396109104 1.496689755e-38
0.1676106155 -0.4497046471 0.4148529768 1.496689755e-38
0.001297280192 -0.2007341236 0.223298654 1.496689755e-38
0.3096221685 -0.7654427886 0.2024907917 1.496689755e-38
-0.07217225432 -0.1876525879 -0.1816000789 1.496689755e-38
-0.2386276275 -0.1836440861 0.2004752308 1.496689755e-38
0.2024840564 -0.3442289829 0.3768247366 1.496689755e-38
0.03519827873 -0.1164247543 -0.1345493644 1.515020841e-38
-0.3164831996 -0.4621269405 0.2338095009 1.515020841e-38
0.05614954233 -0.509054184 0.546266377 1.515020841e-38
0.1171094924 -0.3387926817 0.4360380471 1.515020841e-38
-0.3126730025 -0.219897151 0.1654170454 1.515020841e-38
-0.2880262434 -0.218331784 0.1635665596 1.515020841e-38
0.2129446417 -0.431466341 0.3635392189 1.515020841e-38
-0.4952325225 -0.2053564787 -0.2184320986 1.515020841e-38
-0.1324340701 -0.1945352852 -0.1542104632 1.533351927e-38
0.2103402168 -0.4193280041 0.3386898637 1.533351927e-38
-0.2879211605 -0.1867748499 0.2041762024 1.533351927e-38
-0.3912251294 -0.2109718174 -0.1347803771 1.533351927e-38
0.09931387007 -0.1308495402 -0.1350036561 1.533351927e-38
-0.4930989444 -0.235272482 0.2168674618 1.533351927e-38
-0.260436058 -0.3884954453 0.2500673532 1.533351927e-38
0.1372044235 -0.4792986512 0.4900908768 1.533351927e-38
-0.4418737292 -0.2111333609 -0.1538428068 1.551683013e-38
0.21215114 -0.1344590187 -0.1298631728 1.551683013e-38
0.146541968 -0.386303544 0.4011764824 1.551683013e-38
0.2476604581 -0.1353416443 -0.1760797501 1.551683013e-38
-0.4678756297 -0.2097295374 -0.1747557521 1.551683013e-38
-0.3852588832 -0.2022055089 0.2136640996 1.551683013e-38
-0.3125679195 -0.1883402467 0.2060266882 1.551683013e-38
-0.3214811981 -0.4000934362 0.2453978509 1.551683013e-38
0.01341933012 -0.3145776391 0.4144186378 1.570049832e-38
0.001974828541 -0.2022187263 0.2346803546 1.570049832e-38
-0.480876565 -0.2090276182 -0.1852122247 1.570049832e-38
-0.3011541665 -0.3633361757 0.2465852052 1.570049832e-38
0.2490155548 -0.1383108497 -0.1533163339 1.570049832e-38
0.2217643857 -0.1277378798 -0.1763152331 1.570049832e-38
0.2036276013 -0.3595980108 0.3582332134 1.570049832e-38
-0.4786788225 -0.3376173973 0.2511947453 1.570049832e-38
-0.2159875631 -0.2059525698 -0.1022069231 1.588380918e-38
-0.4586274326 -0.2145861685 0.2099198103 1.588380918e-38
-0.2782820463 -0.2083814144 -0.1089624092 1.588380918e-38
0.126892522 -0.4245453775 0.4113708138 1.588380918e-38
-0.3964380324 -0.2437142432 0.1760656685 1.588380918e-38
-0.3515264988 -0.4751287401 0.2500528991 1.588380918e-38
-0.2566874027 -0.4413598478 0.2363930643 1.588380918e-38
0.1563667059 -0.3671825826 0.3960793316 1.588380918e-38
-0.4801990092 -0.2105122209 -0.1738305092 1.606712004e-38
0.1125570238 -0.2560108304 0.2839305103 1.606712004e-38
0.1203497052 -0.4572892785 0.4526990652 1.606712004e-38
-0.2961568832 -0.4000126421 0.2549290657 1.606712004e-38
0.01919994503 -0.3465388119 0.454821676 1.606712004e-38
-0.1646873057 -0.1789479256 0.1949237734 1.606712004e-38
-0.1310789734 -0.1975044906 -0.131447047 1.606712004e-38
-0.3995091617 -0.192334488 0.2011216879 1.606712004e-38
0.01537832804 -0.3429844975 0.4220670462 1.625043089e-38
-0.3029288054 -0.2099468112 -0.1071119234 1.625043089e-38
-0.3393736482 -0.3565151393 0.2472749799 1.625043089e-38
-0.2875814736 -0.3717226088 0.247745946 1.625043089e-38
0.01149245724 -0.3039239049 0.4009509683 1.625043089e-38
-0.2980837524 -0.3893589377 0.2414613962 1.625043089e-38
-0.05917133391 -0.188354522 -0.1711436212 1.625043089e-38
-0.1187556013 -0.1967218071 -0.1323722899 1.625043089e-38
