# .PCD v0.7 - Point Cloud Data file format
VERSION 0.7
FIELDS x y z rgb
SIZE 4 4 4 4
TYPE F F F F
COUNT 1 1 1 1
WIDTH 832
HEIGHT 1
VIEWPOINT 0 0 0 1 0 0 0
POINTS 832
DATA ascii
0.2286310792 -0.4666743279 -0.07685979456 1.056789517e-38
0.2156274468 -0.4661559463 -0.08871656656 1.056789517e-38
0.2552153468 -0.4676767588 -0.04069363698 1.056789517e-38
0.3404653966 -0.4616821706 -0.1763450503 1.056789517e-38
0.3575080335 -0.4619606435 -0.07732003927 1.038530038e-38
0.3398883939 -0.4617164135 -0.1887976676 1.038530038e-38
0.3482582867 -0.4749138355 -0.2640432715 1.038530038e-38
0.3335059881 -0.4869031906 -0.3007394075 1.038530038e-38
0.2049318254 -0.4655005038 -0.05076293647 1.020306431e-38
0.3575257063 -0.4495556951 -0.08983850479 1.020306431e-38
0.1275608689 -0.4436644614 -0.08891738951 1.020306431e-38
0.141141504 -0.4441485405 -0.06460800022 1.020306431e-38
0.1252528578 -0.4438015223 -0.1387277991 1.002046952e-38
0.3462177217 -0.4737444222 -0.0393005684 1.002046952e-38
0.3500069976 -0.4624061286 -0.2392039001 1.002046952e-38
0.3352546692 -0.4743954837 -0.2759000659 1.002046952e-38
0.1139801741 -0.4431803226 -0.1132267788 9.837874723e-39
0.3581204116 -0.4371165037 -0.08990435302 9.837874723e-39
0.1287148744 -0.443595916 -0.06401217729 9.837874723e-39
0.1330634654 -0.4446282685 -0.2389444709 9.837874723e-39
0.3462530971 -0.4489345551 -0.06433746964 9.655279928e-39
0.1676518917 -0.4638426304 -0.04897546023 9.655279928e-39
0.1319094598 -0.4446968138 -0.2638496757 9.655279928e-39
0.3317766786 -0.5022526979 0.07270468026 9.655279928e-39
0.1417361945 -0.4317093194 -0.064673841 9.472685133e-39
0.3592920899 -0.4246430397 -0.07751756907 9.472685133e-39
0.3473894298 -0.4612709582 -0.02691381797 9.472685133e-39
0.3482759893 -0.4625089169 -0.2765617371 9.472685133e-39
0.3604284227 -0.4369794428 -0.04009392112 9.290090338e-39
0.1359661669 -0.4320519865 -0.1891998947 9.290090338e-39
0.3474071026 -0.4488660097 -0.03943225369 9.290090338e-39
0.1812325269 -0.4643267095 -0.02466607094 9.290090338e-39
0.1524495035 -0.4199598134 -0.1151459441 9.107495543e-39
0.1121752858 -0.4619747698 -0.1711182147 9.107495543e-39
0.3358493745 -0.4619562924 -0.275965929 9.107495543e-39
0.1353891641 -0.4320862591 -0.2016524822 9.107495543e-39
0.3476989865 -0.4625431895 -0.2890143394 8.924899347e-39
0.3381750584 -0.449414283 -0.2386739105 8.924899347e-39
0.1942361444 -0.4648450911 -0.01280929893 8.924899347e-39
0.3610054255 -0.4369451702 -0.02764132991 8.924899347e-39
0.2086448967 -0.4938161075 -0.2947153151 8.742304551e-39
0.08277988434 -0.4424520135 -0.2490137815 8.742304551e-39
0.3494476676 -0.450035423 -0.264174968 8.742304551e-39
0.361600101 -0.4245059788 -0.02770717256 8.742304551e-39
0.2465195209 -0.4830347896 -0.2965686321 8.560068489e-39
0.07778042555 -0.4601455629 -0.1070677191 8.560068489e-39
0.3428264558 -0.4243302643 -0.1640899777 8.560068489e-39
0.1495644897 -0.4201311469 -0.1774089634 8.560068489e-39
0.06304572523 -0.4597299695 -0.1562823206 8.377473694e-39
0.0500420928 -0.4592116177 -0.1681390852 8.377473694e-39
0.07258740067 -0.4604539573 -0.2191411704 8.377473694e-39
0.04492294043 -0.440828383 -0.2596789002 8.377473694e-39
0.03307331726 -0.4402414858 -0.2466304898 8.194878899e-39
0.1524671912 -0.4075548649 -0.1276643723 8.194878899e-39
0.106095694 -0.4610452056 -0.03354374692 8.194878899e-39
0.3529450595 -0.4250199795 -0.21449624 8.194878899e-39
0.2595408559 -0.4711482525 -0.2972303033 8.012284103e-39
0.1959671527 -0.4647422731 0.02454850823 8.012284103e-39
0.02576584369 -0.4580720961 -0.1544948518 8.012284103e-39
0.3616531789 -0.387291193 -0.06526251137 8.012284103e-39
0.3469008803 -0.3992805779 -0.1019586474 7.829687907e-39
0.01449322142 -0.4574509263 -0.1289938092 7.829687907e-39
0.3352900445 -0.4495856166 -0.3009369373 7.829687907e-39
0.2471142113 -0.4705955982 -0.2966344953 7.829687907e-39
0.1513131857 -0.4076233804 -0.152569592 7.647093112e-39
0.002066534944 -0.4568983018 -0.1283979863 7.647093112e-39
0.007643064484 -0.4391705096 -0.2578914165 7.647093112e-39
0.1565238982 -0.3949100971 -0.05301460996 7.647093112e-39
0.1542158872 -0.395047158 -0.1028250083 7.464498317e-39
0.2349781096 -0.4662973881 0.06011887267 7.464498317e-39
0.003220540471 -0.4568297863 -0.1034927741 7.464498317e-39
0.3488883674 -0.437664777 -0.2891460061 7.464498317e-39
0.36396119 -0.3871541023 -0.01545211021 7.281903522e-39
0.1191731989 -0.4428719282 -0.001153330784 7.281903522e-39
0.132176891 -0.4433903098 0.01070343517 7.281903522e-39
0.1330988407 -0.4198184013 -0.2639813423 7.281903522e-39
0.1841175407 -0.464155376 0.03759692609 7.099307325e-39
0.02922786027 -0.4578664899 -0.07977920771 7.099307325e-39
0.04223148897 -0.4583848715 -0.0679224357 7.099307325e-39
-0.02336372435 -0.4558272958 -0.1396589279 7.099307325e-39
0.1571185887 -0.3824709058 -0.05308045074 6.91671253e-39
0.2098342776 -0.4689377248 -0.2948470116 6.91671253e-39
0.360516876 -0.3749547899 -0.1026861593 6.91671253e-39
0.1490051746 -0.4077604711 -0.2023799866 6.91671253e-39
0.3357803226 -0.5268226862 0.1849098206 6.734117735e-39
0.06881575286 -0.4593873024 -0.0317562744 6.734117735e-39
0.3506370485 -0.4251570404 -0.2643066347 6.734117735e-39
0.03366801143 -0.4278022647 -0.2466963232 6.734117735e-39
0.08685428649 -0.4174022675 -0.1868824363 6.55152294e-39
0.2477089018 -0.4581564367 -0.2967003286 6.55152294e-39
0.3552884758 -0.4000730515 -0.1897227168 6.55152294e-39
0.0654630512 -0.4160914123 -0.1109751761 6.55152294e-39
0.1457575262 -0.4438744187 0.03501285613 6.368926744e-39
0.2352822721 -0.4576037824 -0.2961044908 6.368926744e-39
0.06604005396 -0.4160571396 -0.09852255136 6.368926744e-39
0.06373204291 -0.4161942005 -0.1483329833 6.368926744e-39
0.07442765683 -0.416849643 -0.1862866133 6.186331949e-39
0.1208303273 -0.4614607692 0.01567085832 6.186331949e-39
0.342861861 -0.399520427 -0.1891268939 6.186331949e-39
-0.05333613232 -0.4363388121 -0.230007112 6.186331949e-39
0.017955238 -0.4572453499 -0.0542781651 6.003737154e-39
0.1530795693 -0.3827107847 -0.1402486563 6.003737154e-39
0.09377831966 -0.416991055 -0.03745117784 6.003737154e-39
0.0732736513 -0.4169181585 -0.211191833 6.003737154e-39
-0.05391313508 -0.4363730848 -0.2424597144 5.820783626e-39
0.1067819446 -0.4175094664 -0.02559440956 5.820783626e-39
0.07211964577 -0.4169867039 -0.2360970378 5.820783626e-39
0.1333308965 -0.4433217943 0.03560867906 5.820783626e-39
0.3541344702 -0.4001415968 -0.2146279216 5.63818743e-39
0.3518087566 -0.4126835763 -0.2519198954 5.63818743e-39
0.06777106225 -0.4159543514 -0.06116474792 5.63818743e-39
0.03153587133 -0.457729429 -0.02996880561 5.63818743e-39
0.08135168999 -0.4164384305 -0.03685535491 5.455592635e-39
0.04784333706 -0.4158471823 -0.2224527746 5.455592635e-39
0.3611292541 -0.3501106799 -0.1152704358 5.455592635e-39
-0.07480130345 -0.4537195861 -0.1746334434 5.455592635e-39
0.3393821418 -0.4121309519 -0.2513240874 5.272997839e-39
0.151348561 -0.3828135729 -0.1776064932 5.272997839e-39
0.3364794254 -0.4247072041 -0.3010686338 5.272997839e-39
-0.06230077147 -0.4355805814 -0.154695645 5.272997839e-39
0.01910924166 -0.4571768045 -0.02937298268 5.090401643e-39
0.3512317538 -0.412717849 -0.2643724978 5.090401643e-39
0.1470176727 -0.369376272 -0.01519263349 5.090401643e-39
0.3605522513 -0.3501449525 -0.127723068 5.090401643e-39
0.3652036488 -0.3250609338 -0.05313910544 4.907806848e-39
0.2234502882 -0.4446119368 -0.2955745161 4.907806848e-39
-0.02904218622 -0.425073415 -0.256169796 4.907806848e-39
0.02818310633 -0.4144335091 -0.1091876999 4.907806848e-39
0.3446282446 -0.3746077716 -0.1768059582 4.725212053e-39
0.2613249421 -0.4338306487 -0.2974278331 4.725212053e-39
-0.0001321649179 -0.4135338664 -0.1827116758 4.725212053e-39
-0.04814310744 -0.4360304177 -0.1179336607 4.725212053e-39
0.2757200897 -0.4677496552 0.1330470145 4.542257124e-39
0.353913337 -0.3368447125 -0.01511965971 4.542257124e-39
-0.0504334271 -0.4237625301 -0.1802625358 4.542257124e-39
-0.04146881402 -0.4245207608 -0.2555739582 4.542257124e-39
0.3377412856 -0.3654557467 0.05952780694 4.359662329e-39
0.354152143 -0.3877366483 -0.2271463573 4.359662329e-39
0.1605806053 -0.3822652996 0.02163516358 4.359662329e-39
-0.0849199146 -0.453029871 -0.1242272258 4.359662329e-39
0.3017273545 -0.4687864184 0.1567605585 4.177066133e-39
0.3605699241 -0.3377400041 -0.1402415037 4.177066133e-39
0.05913370848 -0.4040634036 -0.2604722381 4.177066133e-39
0.2743462324 -0.4219440818 -0.2980895042 4.177066133e-39
0.2638703883 -0.4671627581 0.1460954398 3.994471337e-39
0.3481433094 -0.3371873796 -0.1396456808 3.994471337e-39
0.3495007455 -0.412820667 -0.301730305 3.994471337e-39
0.09713108093 -0.4602869749 0.04176769033 3.994471337e-39
0.01748748869 -0.4137780964 -0.07123403996 3.81151781e-39
0.161157608 -0.3822310567 0.03408781812 3.81151781e-39
0.3634903431 -0.3127588034 -0.1030153781 3.81151781e-39
0.1487663686 -0.3568685353 0.009646708146 3.81151781e-39
0.1377856284 -0.3699245155 -0.2144343257 3.628921614e-39
0.1334724128 -0.3440822959 -0.06453892589 3.628921614e-39
0.3458176255 -0.349729389 -0.1769376397 3.628921614e-39
0.3529981375 -0.3878051639 -0.2520515919 3.628921614e-39
-0.0967695415 -0.4524430037 -0.1111787707 3.446326818e-39
0.368124038 -0.3000797331 -0.01591301337 3.446326818e-39
-0.007942829281 -0.4127071202 -0.08249501139 3.446326818e-39
0.161104545 -0.4194458127 0.07164312899 3.446326818e-39
0.009427143261 -0.4018529058 -0.2580889463 3.26337189e-39
0.1210457236 -0.3435296714 -0.06394309551 3.26337189e-39
0.1226352155 -0.442666322 0.07356228679 3.26337189e-39
-0.05883875489 -0.435375005 -0.07998003066 3.26337189e-39
0.3464123011 -0.3372901976 -0.1770034879 3.080777095e-39
0.3417432308 -0.3747791052 -0.2390689701 3.080777095e-39
0.0473017171 -0.3910715878 -0.2599422634 3.080777095e-39
0.3681594133 -0.2752698958 -0.0409498848 3.080777095e-39
0.2749409378 -0.4095048904 -0.2981553376 2.898180898e-39
0.3670054078 -0.2753384411 -0.06585510075 2.898180898e-39
0.1226529032 -0.4302614033 0.06104384735 2.898180898e-39
0.1383803189 -0.3574853241 -0.214500159 2.898180898e-39
0.356513232 -0.3503848016 -0.2148912996 2.715227371e-39
0.366428405 -0.275372684 -0.07830769569 2.715227371e-39
0.361182332 -0.3128958642 -0.1528258026 2.715227371e-39
0.3562921286 -0.2870879173 -0.01538303308 2.715227371e-39
0.1086190939 -0.342977047 -0.06334727257 2.532632576e-39
0.3411662281 -0.3748133481 -0.2515216172 2.532632576e-39
0.1300103962 -0.3442879021 -0.1392545402 2.532632576e-39
0.1490759403 -0.3581407666 -0.252453804 2.532632576e-39
0.3676001132 -0.26289922 -0.06592094153 2.349677647e-39
0.1372263134 -0.3575538695 -0.2394053787 2.349677647e-39
0.3512671292 -0.3879079819 -0.289409399 2.349677647e-39
0.3516761065 -0.2873620689 -0.1150038317 2.349677647e-39
0.03442088515 -0.4575580955 0.0322942175 2.167082852e-39
0.3401023746 -0.3281039 0.07178287208 2.167082852e-39
-0.0657274127 -0.4109763205 -0.2544481754 2.167082852e-39
0.3646973968 -0.275475502 -0.1156655028 2.167082852e-39
0.1622939259 -0.39456743 0.07151143998 1.984127923e-39
-0.1470531225 -0.4502667189 -0.1212480962 1.984127923e-39
0.3464300036 -0.3248852193 -0.1895219535 1.984127923e-39
-0.1606337428 -0.4497826397 -0.145557493 1.984127923e-39
-0.0571077466 -0.435272187 -0.04262222722 1.801533128e-39
0.3676177859 -0.2504943013 -0.07843937725 1.801533128e-39
0.3382635117 -0.3873896301 -0.3012661636 1.801533128e-39
0.2755356431 -0.3970656991 -0.2982212007 1.801533128e-39
-0.01586268842 -0.4553818405 0.02222492173 1.618578199e-39
0.1277023852 -0.344424963 -0.1890649647 1.618578199e-39
-0.1510182619 -0.4318149984 -0.1878826916 1.618578199e-39
-0.1374375969 -0.4322990775 -0.1635733247 1.618578199e-39
0.3134102523 -0.3862843812 -0.3000745177 1.435982003e-39
0.3429326117 -0.3499007225 -0.2392006665 1.435982003e-39
0.1243662238 -0.4425635338 0.1109201238 1.435982003e-39
0.05880638957 -0.4151961207 0.01414669491 1.435982003e-39
0.1248693466 -0.4612208903 0.1028390676 1.253028475e-39
-0.01863844879 -0.4120516777 -0.04454138502 1.253028475e-39
0.347024709 -0.312446028 -0.1895877868 1.253028475e-39
0.3411839008 -0.3624083996 -0.2640400529 1.253028475e-39
-0.04408639669 -0.4233855903 -0.04328389466 1.070432279e-39
0.3481963873 -0.299972564 -0.1772010177 1.070432279e-39
0.3693841696 -0.225581646 -0.06611847132 1.070432279e-39
0.3537360728 -0.2913732231 0.05853692442 1.070432279e-39
0.3522884846 -0.2625179291 -0.1275881529 8.874787512e-40
0.2885569334 -0.3851791024 -0.2988828719 8.874787512e-40
0.3557858765 -0.2375024557 -0.07790940255 8.874787512e-40
0.08145783097 -0.3420088291 -0.1119660586 8.874787512e-40
0.103426069 -0.3432854414 -0.1754207313 7.045238224e-40
-0.1589027345 -0.4496798515 -0.108199656 7.045238224e-40
0.09215345234 -0.3426642716 -0.1499196887 7.045238224e-40
-0.001810104121 -0.3764218986 -0.257624805 7.045238224e-40
-0.1498642564 -0.431746453 -0.1629775017 5.219290273e-40
0.1634302437 -0.4069038033 0.1089351252 5.219290273e-40
0.3476193845 -0.3000068069 -0.189653635 5.219290273e-40
0.3543307483 -0.2789340317 0.05847108364 5.219290273e-40
0.151056692 -0.3691363931 0.07197558135 3.389740985e-40
-0.0142367892 -0.3758692741 -0.2570289969 3.389740985e-40
0.3499627709 -0.2750599384 -0.1648801118 3.389740985e-40
0.07249322534 -0.3412505984 -0.03665459156 3.389740985e-40
-0.07582832873 -0.3978816569 -0.2165603787 1.56020571e-40
0.1385239214 -0.4430133998 0.1476820707 1.56020571e-40
0.3670761585 -0.2257187068 -0.1159288734 1.56020571e-40
-0.1906061769 -0.4302941561 -0.2359056473 1.56020571e-40
0.08539070934 -0.4161985815 0.05031288415 6.490113838e-41
0.07857281715 -0.3421801627 -0.1742290854 6.490113838e-41
0.3682478666 -0.2132452428 -0.1035421267 6.490113838e-41
0.0667231977 -0.3415932655 -0.1611806303 6.490113838e-41
-0.1351295859 -0.4321620166 -0.1137628928 2.496469266e-40
0.02094950527 -0.4135724902 0.00348157296 2.496469266e-40
-0.05314259976 -0.4537239671 0.02401239425 2.496469266e-40
0.06614619493 -0.3416275382 -0.1736332625 2.496469266e-40
-0.1707523912 -0.4490929544 -0.09515123069 4.340353837e-40
-0.1979136914 -0.4481247663 -0.1437700242 4.340353837e-40
0.1118136793 -0.3440779448 -0.263184756 4.340353837e-40
0.3406246006 -0.3500377834 -0.289011091 4.340353837e-40
0.3559716046 -0.3256091774 -0.2523807883 6.184224396e-40
-0.1973366886 -0.4480904937 -0.131317392 6.184224396e-40
0.05429650843 -0.3410406411 -0.1605848074 6.184224396e-40
0.09938704967 -0.3435253203 -0.262588948 6.184224396e-40
0.1645665616 -0.4192402363 0.1463587433 8.028094954e-40
0.3581469655 -0.200150609 -0.06565433741 8.028094954e-40
-0.03750912845 -0.4330067337 -0.2830622196 8.028094954e-40
0.0441778861 -0.3403509557 -0.1101785824 8.028094954e-40
-0.07581064105 -0.3854767382 -0.2290788442 9.871979525e-40
0.3505751491 -0.2502157986 -0.1774643809 9.871979525e-40
0.3400475979 -0.3500720561 -0.3014636934 9.871979525e-40
-0.05198859423 -0.4536554217 0.0489175804 9.871979525e-40
0.1011701003 -0.4600471258 0.1289359629 1.171585008e-39
0.04186987504 -0.3404880166 -0.1599889845 1.171585008e-39
0.1141737327 -0.4605654776 0.1407927275 1.171585008e-39
0.1261149198 -0.4300557971 0.1357594728 1.171585008e-39
0.04129287228 -0.3405222893 -0.1724416018 1.355972064e-39
-0.1249755919 -0.4080418348 -0.189206019 1.355972064e-39
-0.224497959 -0.4471222758 -0.1799361706 1.355972064e-39
0.3723222613 -0.1881955266 -0.04141078889 1.355972064e-39
0.09044013172 -0.3303621709 -0.1997959316 1.540360521e-39
0.03059725463 -0.3398668766 -0.1344879419 1.540360521e-39
0.3558389544 -0.2002876699 -0.1154647395 1.540360521e-39
0.3593186438 -0.1876771748 -0.05326755717 1.540360521e-39
0.3027677238 -0.3484141529 -0.2996762097 1.724747577e-39
0.3436705172 -0.2534687519 0.0713878125 1.724747577e-39
-0.1527138799 -0.4071079195 -0.2502774 1.724747577e-39
-0.07406194508 -0.3729690313 -0.2042394727 1.724747577e-39
0.3476547599 -0.2751969993 -0.2146905363 1.909134633e-39
-0.07521595061 -0.3730375767 -0.2291446775 1.909134633e-39
0.01759362593 -0.339348495 -0.1463447511 1.909134633e-39
0.3717629611 -0.175824821 -0.06638184935 1.909134633e-39
-0.09099951386 -0.4521003366 0.01334727369 2.09352309e-39
-0.01240067091 -0.4551762342 0.09694053978 2.09352309e-39
0.04968048632 -0.3413147926 -0.2602056265 2.09352309e-39
0.01874763146 -0.3392799795 -0.1214395314 2.09352309e-39
0.3529362381 -0.2128639519 -0.1652093232 2.277910146e-39
0.005166998133 -0.3387958407 -0.1457489282 2.277910146e-39
0.1137059778 -0.417098254 0.1238368526 2.277910146e-39
-0.07684187591 -0.452550143 0.05010922998 2.277910146e-39
0.3599133492 -0.1752379537 -0.05333340168 2.462297202e-39
0.3541079462 -0.2003904581 -0.152822569 2.462297202e-39
-0.01182367001 -0.4551419616 0.1093931347 2.462297202e-39
0.1533823907 -0.3565944135 0.1092675701 2.462297202e-39
0.3653805554 -0.2010116279 -0.1783235818 2.646685659e-39
0.1148422956 -0.4294346273 0.1612605304 2.646685659e-39
0.3441573679 -0.3002124131 -0.2643692493 2.646685659e-39
-0.1814480126 -0.4484375417 -0.0571976006 2.646685659e-39
-0.2030151188 -0.4173365831 -0.2478282452 2.830713982e-39
0.2909356952 -0.3354223371 -0.299146235 2.830713982e-39
0.3688779473 -0.1759961545 -0.1286448687 2.830713982e-39
0.3476724625 -0.2627920508 -0.227208972 2.830713982e-39
-0.1249579042 -0.3956368864 -0.2017244846 3.015101038e-39
0.3706266284 -0.1634884477 -0.1038054973 3.015101038e-39
-0.1028491706 -0.4515134394 0.02639569156 3.015101038e-39
-0.1463845521 -0.4191358984 -0.1007803231 3.015101038e-39
-0.2204589397 -0.4468824267 -0.09276793897 3.199488094e-39
0.1260067523 -0.3197179437 -0.2514596879 3.199488094e-39
0.348267138 -0.2503528893 -0.2272748202 3.199488094e-39
0.1013854966 -0.3421160281 0.04932199791 3.199488094e-39
0.3424086869 -0.3127201796 -0.2892086208 3.383517819e-39
0.3612884581 -0.2384662926 -0.2279364765 3.383517819e-39
0.03521327674 -0.339592725 -0.03486711904 3.383517819e-39
-0.1678673774 -0.4489216208 -0.03288821131 3.383517819e-39
-0.04910358042 -0.4534840882 0.1111806035 3.567904875e-39
-0.2623548806 -0.4454986751 -0.1906013042 3.567904875e-39
0.3605080247 -0.1627987623 -0.05339924246 3.567904875e-39
0.3163837194 -0.3240883946 -0.3004037142 3.567904875e-39
0.3447520733 -0.2877732515 -0.2644351125 3.75229193e-39
0.2157812119 -0.3445457518 -0.2955054343 3.75229193e-39
-0.06776798517 -0.4098068774 -0.02970546857 3.75229193e-39
-0.07453386486 -0.4524130821 0.09991966188 3.75229193e-39
-0.04006506875 -0.4355506897 0.05640280992 3.936320254e-39
-0.2198819369 -0.4468481541 -0.08031534404 3.936320254e-39
0.06284540892 -0.4149562716 0.1013149694 3.936320254e-39
-0.002749805339 -0.4123986959 0.02957840823 3.936320254e-39
0.151454702 -0.3083839715 -0.2527171671 4.120708711e-39
0.3735293448 -0.1509121954 -0.05406091362 4.120708711e-39
0.3712213337 -0.1510492563 -0.1038713381 4.120708711e-39
0.008629015647 -0.3385902643 -0.07103327662 4.120708711e-39
0.2288025171 -0.3326591849 -0.2961671054 4.304737034e-39
0.370644331 -0.151083529 -0.116323933 4.304737034e-39
0.3648212254 -0.1886409819 -0.2032946348 4.304737034e-39
-0.175836131 -0.4058998525 -0.211727947 4.304737034e-39
0.1284583062 -0.4051088691 0.1605330259 4.48912409e-39
-0.04794957489 -0.4534155726 0.1360858381 4.48912409e-39
-0.06117299199 -0.4070230722 -0.2820022702 4.48912409e-39
0.01533759665 -0.4561101794 0.1580119133 4.48912409e-39
0.358794719 -0.1504966319 -0.1032755151 4.673152414e-39
0.3659929335 -0.1761674881 -0.1909078956 4.673152414e-39
0.1155254319 -0.3549708128 0.09860245138 4.673152414e-39
0.1550957114 -0.368896544 0.1591438502 4.673152414e-39
0.3616797328 -0.1503252983 -0.04101249576 4.857539469e-39
0.3523946106 -0.1880883574 -0.2026988119 4.857539469e-39
0.3582177162 -0.1505309045 -0.1157281101 4.857539469e-39
0.3299997449 -0.2997626066 -0.3011312485 4.857539469e-39
0.07756242156 -0.4277767539 0.1630479991 5.041567793e-39
-0.06037623808 -0.4528629184 0.1366816759 5.041567793e-39
0.3689133227 -0.1511863172 -0.15368177 5.041567793e-39
0.04994791374 -0.3400082886 0.01434745826 5.041567793e-39
0.3735470176 -0.138507247 -0.06657937914 5.225597518e-39
-0.1395520866 -0.4498212636 0.04063575715 5.225597518e-39
0.3712390065 -0.1386443079 -0.1163897738 5.225597518e-39
0.1421097666 -0.3559732437 0.1347685754 5.225597518e-39
0.3460669816 -0.1913070083 0.05860600248 5.409984573e-39
0.3570637107 -0.1505994499 -0.1406333297 5.409984573e-39
0.2921251059 -0.3105439544 -0.2992779315 5.409984573e-39
-0.08580648899 -0.4517919421 0.1254207194 5.409984573e-39
0.3441927433 -0.2754026055 -0.2894061506 5.594012897e-39
-0.143517226 -0.4313695133 -0.02599883452 5.594012897e-39
-0.05247403309 -0.4225931168 0.04448019713 5.594012897e-39
0.3588123918 -0.1380916834 -0.1157939509 5.594012897e-39
-0.159370482 -0.4062126279 -0.1251555234 5.77804122e-39
-0.06829191744 -0.372626394 -0.07971342653 5.77804122e-39
0.02726115659 -0.4380054474 0.165497154 5.77804122e-39
0.3589804471 -0.2386033535 -0.2777469158 5.77804122e-39
-0.1735281199 -0.4057627916 -0.1619175375 5.962428276e-39
-0.00322066783 -0.3380033672 -0.05798486248 5.962428276e-39
-0.1192055643 -0.4076991677 -0.06467997283 5.962428276e-39
0.01299529709 -0.3272177279 -0.2584840059 5.962428276e-39
0.1514723897 -0.2959790528 -0.2652356029 6.1464566e-39
0.3570813835 -0.1381944716 -0.1531517953 6.1464566e-39
-0.2996347845 -0.4438407719 -0.1888138205 6.1464566e-39
-0.04396256804 -0.3365511 -0.1309130043 6.1464566e-39
-0.06771491468 -0.3725921214 -0.06726080179 6.330484923e-39
0.3472563624 -0.1664285958 0.05847431719 6.330484923e-39
0.13904576 -0.2954264283 -0.2646397948 6.330484923e-39
0.3453821242 -0.2505242229 -0.289537847 6.330484923e-39
-0.1226145104 -0.3706899881 -0.1769509614 6.514514648e-39
-0.1423632205 -0.4313009977 -0.001093618572 6.514514648e-39
0.3741594255 -0.1136631072 -0.07916365564 6.514514648e-39
-0.2001124173 -0.4047603011 -0.1980836987 6.514514648e-39
0.3187624812 -0.2743315995 -0.3006671071 6.698542971e-39
-0.1214781925 -0.3830263615 -0.139527306 6.698542971e-39
0.1172210649 -0.3796778619 0.1609971672 6.698542971e-39
0.3608546853 -0.154507786 0.07026524097 6.698542971e-39
0.3553503752 -0.1382972896 -0.1905096024 6.882571295e-39
-0.2305775732 -0.4461927414 -0.04236168414 6.882571295e-39
0.1266191304 -0.2948738039 -0.264043957 6.882571295e-39
0.3701204062 -0.1139029786 -0.1663318872 6.882571295e-39
0.3477432132 -0.2131723464 -0.2772827744 7.066599618e-39
0.3317838311 -0.2624450326 -0.3013287783 7.066599618e-39
-0.06657859683 -0.3849284649 -0.02983715385 7.066599618e-39
0.2554399073 -0.29644683 -0.2975562811 7.066599618e-39
0.3634461164 -0.125412643 -0.02869158983 7.250627941e-39
0.3628868163 -0.1130419523 -0.05366262048 7.250627941e-39
-0.1762549877 -0.4481291175 0.05487582088 7.250627941e-39
0.03972316161 -0.4137481749 0.1398643851 7.250627941e-39
0.2430132776 -0.2958942056 -0.2969604731 7.434656265e-39
-0.03660305217 -0.4353450835 0.1311184317 7.434656265e-39
0.0663074255 -0.4147506654 0.1760305762 7.434656265e-39
0.3584211171 -0.2262327075 -0.3027179539 7.434656265e-39
-0.04223155975 -0.336448282 -0.09355519712 7.618684588e-39
0.05330379307 -0.4142323136 0.1641738117 7.618684588e-39
-0.1842237711 -0.4051073492 -0.1239638776 7.618684588e-39
0.07806657255 -0.2925947309 -0.2367554754 7.618684588e-39
-0.1367544532 -0.3578352034 -0.2262314111 7.802712912e-39
0.3506813049 -0.1757861972 -0.2525750995 7.802712912e-39
-0.2560078502 -0.4451217651 -0.05362265557 7.802712912e-39
-0.1886816472 -0.447576493 0.05547164381 7.802712912e-39
0.04030016437 -0.413713932 0.1523169875 7.986382503e-39
0.3606141806 -0.08836917579 -0.1285099536 7.986382503e-39
-0.06767953932 -0.3477822244 -0.09229770303 7.986382503e-39
0.3640584946 -0.1005685031 -0.04127587005 7.986382503e-39
0.2814825475 -0.2726737261 -0.2988796234 8.170410826e-39
0.3477609158 -0.2007673979 -0.2898012102 8.170410826e-39
0.3594778478 -0.07603275776 -0.1659335941 8.170410826e-39
0.07748956978 -0.2926290035 -0.2492080629 8.170410826e-39
0.3612088561 -0.0759299621 -0.1285758018 8.35443915e-39
-0.1243101433 -0.3459829092 -0.2393456697 8.35443915e-39
0.0514645651 -0.3039972186 -0.2604031563 8.35443915e-39
0.1054068208 -0.3542810977 0.1490086466 8.35443915e-39
0.003933664411 -0.3475902379 -0.2853105962 8.538467473e-39
-0.2016852796 -0.4470581412 0.04361487553 8.538467473e-39
0.09240318835 -0.3537627161 0.1371518821 8.538467473e-39
0.3589008451 -0.07606703043 -0.1783861965 8.538467473e-39
0.3748248518 -0.05160419643 -0.1293033063 8.722137064e-39
-0.04729869962 -0.4346896708 0.1690720916 8.722137064e-39
0.3496174514 -0.1290767491 0.07072937489 8.722137064e-39
0.3559627831 -0.1134531498 -0.2030938715 8.722137064e-39
-0.1258975565 -0.4316137433 0.08547876775 8.906165387e-39
-0.05465821922 -0.3358956277 -0.09295936674 8.906165387e-39
-0.1503351182 -0.3573511243 -0.2505407631 8.906165387e-39
0.06583656371 -0.3403553069 0.08846725523 8.906165387e-39
-0.2684344947 -0.4445691407 -0.05302683264 9.089834978e-39
-0.128187865 -0.4193458557 0.02314989828 9.089834978e-39
0.37655586 -0.05150139332 -0.09194549918 9.089834978e-39
0.347183913 -0.2008016706 -0.3022538126 9.089834978e-39
0.362398237 -0.05105156451 -0.1287074834 9.273863302e-39
-0.1276108623 -0.419311583 0.03560249135 9.273863302e-39
-0.2950187624 -0.4435666502 -0.08919299394 9.273863302e-39
-0.2775749862 -0.4140208066 -0.2442533076 9.273863302e-39
0.3618389368 -0.03868091106 -0.1536785364 9.457532893e-39
0.2696506381 -0.2596818805 -0.2983496487 9.457532893e-39
0.01695498452 -0.335703671 -0.2859722674 9.457532893e-39
0.3624159396 -0.03864664584 -0.1412259191 9.457532893e-39
-0.2243887037 -0.4036208093 -0.1844394356 9.641561216e-39
0.3760142624 -0.02672582306 -0.1294349879 9.641561216e-39
0.06448594481 -0.2921106517 -0.2610648274 9.641561216e-39
-0.1467856765 -0.4489602447 0.1533050388 9.641561216e-39
0.3783045709 -0.03899367526 -0.06710612774 9.825230807e-39
-0.1597893387 -0.4484418929 0.1414482594 9.825230807e-39
-0.1373137683 -0.3454645574 -0.2512024343 9.825230807e-39
0.1305788159 -0.3033597469 -0.2915322185 9.825230807e-39
0.3536370695 -0.1259951591 -0.2403858453 1.000925913e-38
0.05340993032 -0.3398026824 0.08906307817 1.000925913e-38
-0.3363377154 -0.4421486259 -0.1745737642 1.000925913e-38
0.004528354853 -0.3351510465 -0.2853764296 1.000925913e-38
0.3788461983 -0.06376928091 -0.0296166297 1.019292872e-38
0.3548087776 -0.1135216802 -0.2279990911 1.019292872e-38
0.2193493545 -0.269910574 -0.2959004939 1.019292872e-38
0.3760496378 -0.001915926114 -0.1544718891 1.019292872e-38
-0.118575491 -0.3704501092 -0.08978272229 1.037659831e-38
-0.1163205504 -0.4075278342 -0.002416954376 1.037659831e-38
-0.1247435436 -0.4315452278 0.1103840098 1.037659831e-38
0.3748956323 -0.001984458417 -0.179377079 1.037659831e-38
-0.03334628046 -0.3459323347 -0.2835231125 1.056062664e-38
0.1057255119 -0.302254498 -0.2903405428 1.056062664e-38
0.3696141541 -0.06431753933 -0.2288582921 1.056062664e-38
0.02836000174 -0.2903842032 -0.2343721837 1.056062664e-38
0.07999426126 -0.3408051431 0.1252292544 1.074429623e-38
0.2069227248 -0.2693579495 -0.2953046858 1.074429623e-38
-0.198223263 -0.446852535 0.1183304936 1.074429623e-38
-0.1852196306 -0.4473709166 0.1301873177 1.074429623e-38
0.3660813868 -0.1141428426 -0.2535001338 1.092796582e-38
0.3664195836 -0.063216649 -0.02902080677 1.092796582e-38
0.05449317768 -0.3893539011 0.1640421301 1.092796582e-38
-0.2253845483 -0.445884347 0.06971177459 1.092796582e-38
-0.2938647568 -0.4434981048 -0.06428778172 1.111163541e-38
0.3559981585 -0.088643305 -0.2281307876 1.111163541e-38
0.2453920543 -0.2461374402 -0.2972238362 1.111163541e-38
-0.04854321107 -0.3120153844 -0.2555707395 1.111163541e-38
-0.03936423734 -0.3486818969 -0.01877374016 1.1295305e-38
-0.06484758854 -0.3848256767 0.007520654704 1.1295305e-38
0.356592834 -0.07620409131 -0.2281966209 1.1295305e-38
0.2199440598 -0.2574713528 -0.295966357 1.1295305e-38
-0.3493413329 -0.4416302741 -0.1864305288 1.147897319e-38
0.1187468916 -0.2903679013 -0.291002214 1.147897319e-38
-0.1976462603 -0.4468182921 0.1307831407 1.147897319e-38
0.2714346945 -0.2223642766 -0.2985471785 1.147897319e-38
0.3713982403 -0.02699995413 -0.2290558219 1.166264278e-38
0.3669965863 -0.06318238378 -0.0165682137 1.166264278e-38
0.05456393585 -0.3397341669 0.1139683202 1.166264278e-38
0.3624866903 0.01097308844 -0.1912997216 1.166264278e-38
-0.2531228364 -0.4449504316 0.008640364744 1.184631237e-38
-0.008829401806 -0.4114691615 0.1671529263 1.184631237e-38
-0.1383065134 -0.4186561704 0.07355615497 1.184631237e-38
0.01535637304 -0.2898658514 -0.2462289482 1.184631237e-38
0.003506748006 -0.2892789543 -0.2331805378 1.202998196e-38
0.381278038 0.02320231125 -0.06743533909 1.202998196e-38
0.3607380092 -0.001534627751 -0.216139093 1.202998196e-38
-0.2498189807 -0.4025498033 -0.195700407 1.202998196e-38
-0.1547544599 -0.4059384763 -0.02553469874 1.221365155e-38
0.3690548241 -0.05194685608 -0.25382936 1.221365155e-38
0.3572052121 -0.05135996267 -0.2407809049 1.221365155e-38
0.3655768335 -0.07980404794 0.0947753638 1.221365155e-38
-0.1377295107 -0.4186218977 0.0860087499 1.239732115e-38
0.3513290584 -0.12613222 -0.2901962698 1.239732115e-38
-0.2508148253 -0.4448133409 0.05845076591 1.239732115e-38
-0.2224995345 -0.4457130134 0.1319747865 1.239732115e-38
-0.1807617545 -0.4049017429 -0.04924826697 1.258099074e-38
0.3110934198 -0.1742653847 -0.3005980253 1.258099074e-38
0.372605294 0.01028339565 -0.2417059392 1.258099074e-38
-0.01276228204 -0.3372794092 0.00487398589 1.258099074e-38
-0.1367190778 -0.3330253363 -0.2512682676 1.276466033e-38
0.3824320436 0.02327084541 -0.04253012687 1.276466033e-38
-0.2485068291 -0.44467628 0.1082611978 1.276466033e-38
-0.3765965104 -0.4927209318 -0.266579926 1.276466033e-38
-0.3611909747 -0.4410433471 -0.1733821183 1.294832852e-38
-0.3458793163 -0.4414246678 -0.1117149144 1.294832852e-38
-0.1937653869 -0.4043833911 -0.06110503152 1.294832852e-38
-0.2632414699 -0.4442607164 0.05904658884 1.294832852e-38
-0.02462960035 -0.3490974605 0.03044083714 1.313163938e-38
0.03026999533 -0.3509995639 0.1401309967 1.313163938e-38
-0.2219225317 -0.4456787407 0.1444273889 1.313163938e-38
0.2986667156 -0.1737127304 -0.3000021875 1.313163938e-38
-0.1876150221 -0.3556932211 -0.2487533092 1.331530897e-38
-0.1309667528 -0.3450876176 -0.1142238006 1.331530897e-38
-0.02347559296 -0.349028945 0.0553460829 1.331530897e-38
0.1720215529 -0.2179432511 -0.2937805951 1.331530897e-38
-0.3257005811 -0.4700530469 -0.2690948844 1.349897856e-38
-0.260356456 -0.4440893829 0.1213096157 1.349897856e-38
0.004786612466 -0.3871433735 0.1664254218 1.349897856e-38
0.09567765146 -0.2519450486 -0.2900080979 1.349897856e-38
0.1211256608 -0.240611136 -0.2912656069 1.368228942e-38
0.382973671 -0.001504728571 -0.005040602759 1.368228942e-38
-0.2752492726 -0.4014787972 -0.2069613487 1.368228942e-38
-0.03705623001 -0.3485448062 0.03103666194 1.368228942e-38
0.3829559684 -0.01390970685 0.007477832958 1.386595901e-38
-0.3238371909 -0.4240096211 -0.1546359658 1.386595901e-38
-0.2733600736 -0.4435710013 0.1094528437 1.386595901e-38
0.3679362237 -0.02720555291 -0.3037714362 1.386595901e-38
-0.06196257845 -0.3846543431 0.06978368014 1.404926846e-38
0.3705470562 -0.0009520985186 -0.004444779828 1.404926846e-38
-0.1292357445 -0.3449848294 -0.07686599344 1.404926846e-38
-0.1507154405 -0.4056986272 0.06163353845 1.404926846e-38
-0.3866212666 -0.4399723709 -0.18464306 1.423293806e-38
0.3705116808 -0.02576199546 0.02059209161 1.423293806e-38
0.1732109338 -0.1930648386 -0.2939122617 1.423293806e-38
-0.06023157015 -0.3845515549 0.1071415171 1.423293806e-38
-0.06943681091 -0.3193960786 -0.2818673253 1.441624891e-38
0.0968670398 -0.2270666659 -0.2901397943 1.441624891e-38
-0.3860442638 -0.4399380982 -0.1721904576 1.441624891e-38
-0.1501384377 -0.4056643546 0.07408613712 1.441624891e-38
-0.1870203316 -0.3432540298 -0.2488191426 1.459991851e-38
-0.1637190729 -0.4051802754 0.04977677017 1.459991851e-38
-0.06136788428 -0.3722151816 0.06971783936 1.459991851e-38
0.371124059 -0.0009178314358 0.008007815108 1.459991851e-38
0.3424882889 -0.03853948042 -0.302513957 1.478322936e-38
0.01992844604 -0.2735076845 -0.2863014638 1.478322936e-38
-0.07220710814 -0.286031723 -0.2545107603 1.478322936e-38
-0.05641545355 -0.3075094819 -0.2825289965 1.478322936e-38
0.1046991125 -0.4155026078 0.4702568352 1.496689755e-38
-0.2180416733 -0.4032438695 -0.04746079445 1.496689755e-38
0.3847400546 0.02340791002 0.007280303165 1.496689755e-38
0.3577662408 -0.07897728682 0.1949920505 1.496689755e-38
0.384722352 0.01100299135 0.01979873888 1.515020841e-38
-0.03189858049 -0.3730463088 0.1681470573 1.515020841e-38
0.2501496077 -0.1466238499 -0.2977505922 1.515020841e-38
-0.2840557098 -0.4429155886 0.1474065036 1.515020841e-38
-0.341840297 -0.4411848187 -0.02454667538 1.533351927e-38
0.263170898 -0.1347372681 -0.2984122634 1.533351927e-38
-0.04432523623 -0.3724936843 0.1687428802 1.533351927e-38
-0.06019619107 -0.3597416878 0.08210458606 1.533351927e-38
-0.1739989817 -0.3313674629 -0.2494808137 1.551683013e-38
-0.3242206573 -0.4414290488 0.08693095297 1.551683013e-38
-0.38315925 -0.4397667646 -0.1099274457 1.551683013e-38
-0.04717487097 -0.3478551209 0.08144292235 1.551683013e-38
-0.3236436546 -0.4413947761 0.0993835479 1.570049832e-38
-0.3401092887 -0.4410820305 0.01281113271 1.570049832e-38
-0.04279944301 -0.2831837237 -0.283256501 1.570049832e-38
0.04716047272 -0.2248561382 -0.2877565026 1.570049832e-38
0.08562979102 -0.2016356587 -0.289675653 1.588380918e-38
-0.3203751743 -0.4238040149 -0.0799203217 1.588380918e-38
-0.3389552832 -0.4410134852 0.03771634772 1.588380918e-38
0.0601818487 -0.2129695714 -0.2884181738 1.588380918e-38
-0.05846518278 -0.3596388996 0.119462423 1.606712004e-38
0.3330351114 0.02420913428 -0.3022473454 1.606712004e-38
-0.2706332505 -0.4012046754 -0.1073405147 1.606712004e-38
0.1319135278 -0.3792560399 0.4813202322 1.606712004e-38
0.3858233094 -0.02614329383 0.08225929737 1.625043089e-38
0.3728373647 -0.01322001126 0.05788408965 1.625043089e-38
-0.06017849967 -0.3473367691 0.06958615035 1.625043089e-38
-0.1879953593 -0.404040724 0.06342101097 1.625043089e-38
0.08622448891 -0.1891964376 -0.2897414863 1.643374035e-38
0.3206084967 0.0247617662 -0.3016515076 1.643374035e-38
-0.1552253366 -0.3315431476 -0.1130979955 1.643374035e-38
0.2927817106 -0.03632896021 -0.3001306355 1.643374035e-38
0.3733612895 -0.05040050298 0.1078919917 1.661705121e-38
-0.1110921428 -0.3824095726 0.08461957425 1.661705121e-38
-0.1269277334 -0.3448477387 -0.02705556341 1.661705121e-38
-0.318644166 -0.4237012267 -0.04256251454 1.661705121e-38
-0.1219313666 -0.296226114 -0.2396090478 1.680036207e-38
-0.1099381372 -0.3823410571 0.1095248163 1.680036207e-38
-0.3119521737 -0.3997866511 -0.1927212775 1.680036207e-38
-0.1688059568 -0.3310590386 -0.1374073923 1.680036207e-38
0.08681917936 -0.1767572463 -0.2898073494 1.698367293e-38
0.21405904 -0.120087564 -0.296094805 1.698367293e-38
-0.1067167222 -0.3177381754 -0.2800798714 1.698367293e-38
-0.1682289541 -0.3310247958 -0.1249547601 1.698367293e-38
-0.1104974523 -0.3699703813 0.08455372602 1.716698239e-38
-0.09369540215 -0.3058516085 -0.2807415426 1.716698239e-38
0.137715131 -0.1540893614 -0.2923223376 1.716698239e-38
0.04894454777 -0.1875385344 -0.2879540324 1.716698239e-38
-0.4085895121 -0.4386957884 -0.1211883873 1.735029324e-38
0.3875543177 -0.02604049444 0.1196171343 1.735029324e-38
-0.3932778835 -0.4390770793 -0.05952118337 1.735029324e-38
-0.3157591522 -0.4235298932 0.01970050856 1.735029324e-38
0.3746037483 0.01169268414 0.07020499557 1.75336041e-38
-0.1070531234 -0.3821697235 0.1717878431 1.75336041e-38
-0.2400099337 -0.4019672871 0.01599387825 1.75336041e-38
-0.3785432279 -0.4394926429 -0.01030660793 1.75336041e-38
-0.108766444 -0.3698675931 0.121911563 1.771655483e-38
0.3811060786 0.02504748106 -0.06581434608 1.771655483e-38
0.2430751324 -0.03411844 -0.2977473438 1.771655483e-38
-0.1257737279 -0.3447792232 -0.002150347456 1.771655483e-38
-0.1969600022 -0.4032824934 0.1387324631 1.789986569e-38
0.2022271007 -0.1070957184 -0.2955648303 1.789986569e-38
-0.3304938078 -0.4231143296 -0.02951409668 1.789986569e-38
-0.1081894413 -0.3698333204 0.1343641579 1.789986569e-38
-0.4227471948 -0.4382459521 -0.1579503715 1.808317654e-38
0.2578805983 0.01508572698 -0.2986065447 1.808317654e-38
0.1383098364 -0.141650185 -0.292388171 1.808317654e-38
-0.1806556135 -0.3304721713 -0.1243589371 1.808317654e-38
0.1637577713 -0.1303162277 -0.2936456501 1.826612727e-38
-0.392123878 -0.4390085638 -0.03461597115 1.826612727e-38
-0.0007619932294 -0.1853280365 -0.2855707407 1.826612727e-38
-0.2813288569 -0.4005492628 -0.06938688457 1.826612727e-38
-0.1399136931 -0.3319244385 -0.05143079534 1.844943813e-38
-0.0664633438 -0.2572000921 -0.2821965516 1.844943813e-38
-0.2325265855 -0.4139267206 0.1903962046 1.844943813e-38
-0.1251967251 -0.3447449505 0.01030224562 1.844943813e-38
0.03711261228 -0.1745467484 -0.2874240577 1.863274899e-38
-0.06586865336 -0.2447608709 -0.2822623849 1.863274899e-38
-0.327608794 -0.422942996 0.03274892643 1.863274899e-38
-0.3903928697 -0.4389057457 0.002741837874 1.863274899e-38
0.3692564666 0.02563437819 -0.05276592821 1.881569971e-38
0.3828370869 0.02515028045 -0.02845653519 1.881569971e-38
-0.1686869264 -0.4033447504 0.4833649695 1.881569971e-38
0.1915845573 -0.06922550499 -0.2951665223 1.881569971e-38
0.05013393238 -0.1626601517 -0.2880857289 1.899901057e-38
-0.2241212726 -0.4023143053 0.09011366963 1.899901057e-38
-0.2449532151 -0.4133740962 0.1909920275 1.899901057e-38
-0.1393366903 -0.3318901658 -0.03897820413 1.899901057e-38
-0.1473616511 -0.2951551378 -0.2508699894 1.91819627e-38
-0.2223902643 -0.4022115171 0.1274715066 1.91819627e-38
-0.1337632984 -0.2832342982 -0.2390790582 1.91819627e-38
-0.0001673027873 -0.1728888452 -0.285636574 1.91819627e-38
-0.1467846483 -0.2951208651 -0.238417387 1.936527215e-38
-0.2218132615 -0.4021772444 0.139924109 1.936527215e-38
0.1785631627 -0.08111209422 -0.2945048511 1.936527215e-38
0.3736050427 0.0246020183 -0.227698192 1.936527215e-38
-0.1930822432 -0.329919517 -0.1237631142 1.954822428e-38
-0.4511563778 -0.4894051552 -0.2630049586 1.954822428e-38
0.1394992173 -0.1167717874 -0.2925198674 1.954822428e-38
0.3527908325 0.02594713867 -0.1393383145 1.954822428e-38
-0.3239164948 -0.4327354431 -0.2692924142 1.973153514e-38
-0.4181311727 -0.4379718006 -0.05832953751 1.973153514e-38
0.3623324335 0.02522318065 -0.2021971643 1.973153514e-38
0.3724510372 0.02453348413 -0.2526034117 1.973153514e-38
-0.3099891245 -0.4231872261 0.1442265511 1.991448586e-38
0.1951526999 0.005409691483 -0.2955615819 1.991448586e-38
0.3718740344 0.02449921891 -0.2650560141 1.991448586e-38
-0.06408457458 -0.2074432671 -0.2824599147 1.991448586e-38
-0.3310531378 -0.4107436538 -0.0544851236 2.009743799e-38
-0.3748124242 -0.4554032981 -0.2667774558 2.009743799e-38
0.1821313202 -0.006476920098 -0.2948999107 2.009743799e-38
-0.157017976 -0.3279668391 -0.2776307166 2.009743799e-38
-0.4169771671 -0.437903285 -0.03342432156 2.028074885e-38
0.1827260107 0.005962323397 -0.2949657738 2.028074885e-38
-0.07710589468 -0.219329834 -0.2817982435 2.028074885e-38
-0.1597882807 -0.2946025133 -0.2502741516 2.028074885e-38
-0.1095280647 -0.3780329227 0.4069144428 2.046369957e-38
-0.04680017382 -0.3683568537 0.4038694799 2.046369957e-38
-0.1461899579 -0.2826816738 -0.2384832352 2.046369957e-38
-0.008034810424 -0.3666724861 0.4500805736 2.046369957e-38
0.183320716 0.01840151101 -0.2950316072 2.06466517e-38
0.1412832886 -0.07945420593 -0.2927173972 2.06466517e-38
-0.1205806956 -0.3444708288 0.1099231094 2.06466517e-38
-0.3486551046 -0.3980945051 -0.1784811914 2.06466517e-38
0.1424726695 -0.05457580462 -0.2928490639 2.082996116e-38
0.08979263902 -0.1145612672 -0.2901365757 2.082996116e-38
-0.02046143822 -0.3661198318 0.4506763816 2.082996116e-38
-0.3287451267 -0.4106065929 -0.004674723838 2.082996116e-38
-0.02442589402 -0.1593443751 -0.2845107615 2.101291328e-38
-0.3363431394 -0.4321828187 -0.2686966062 2.101291328e-38
-0.3275911212 -0.4105380476 0.02023049071 2.101291328e-38
-0.1043379456 -0.2679813802 -0.2803432345 2.101291328e-38
0.3262065649 0.02694959939 -0.1755045056 2.119586541e-38
0.3461342156 0.02684243768 -0.01421644073 2.119586541e-38
0.1714887768 0.03139332309 -0.2945016325 2.119586541e-38
0.3331305981 0.02736079693 -0.02607323974 2.119586541e-38
0.103408657 -0.09023549408 -0.2908640802 2.137881613e-38
-0.1083563641 -0.3655594587 0.419301182 2.137881613e-38
-0.2590931952 -0.4005193412 0.1417115778 2.137881613e-38
-0.3463470936 -0.3979574144 -0.1286707819 2.137881613e-38
0.3201268911 0.02787916362 -0.03793000802 2.156176826e-38
-0.1580395848 -0.2820947766 -0.2254348248 2.156176826e-38
-0.273827821 -0.4001037776 0.09249696881 2.156176826e-38
-0.2173585296 -0.3287799954 -0.1101188734 2.156176826e-38
0.3238985538 0.02681253478 -0.2253149003 2.174471899e-38
-0.2732508183 -0.400069505 0.1049495637 2.174471899e-38
0.3071232736 0.02839752287 -0.04978680611 2.174471899e-38
0.3025072515 0.02812339365 -0.1494076401 2.174471899e-38
0.07855540514 -0.0891302377 -0.2896724343 2.192767111e-38
-0.3124760985 -0.362606138 -0.2427292168 2.192767111e-38
0.3048152626 0.02826046199 -0.0995972082 2.192767111e-38
-0.1019591838 -0.2182245851 -0.2806065977 2.192767111e-38
0.04008607566 -0.112350747 -0.2877532542 2.211062324e-38
0.005581231788 -0.342346698 0.4493530393 2.211062324e-38
-0.1572835892 -0.3427786827 0.1241631731 2.211062324e-38
-0.1161698848 -0.2549895644 -0.2798132598 2.211062324e-38
-0.08199994266 -0.3509175181 0.453589648 2.229357396e-38
-0.4565650821 -0.4363824725 -0.08144728094 2.229357396e-38
-0.1567065865 -0.34274441 0.1366157681 2.229357396e-38
0.2929656506 0.02884735912 -0.08654879034 2.229357396e-38
-0.03566313535 -0.133913368 -0.2840466201 2.247652609e-38
-0.1561295837 -0.3427101374 0.1490683556 2.247652609e-38
-0.282792449 -0.3993455768 0.1678084135 2.247652609e-38
-0.3200900853 -0.4100925922 0.1821143776 2.247652609e-38
0.04068076983 -0.0999115333 -0.2878191173 2.265947681e-38
0.09514487535 -0.00260851346 -0.2907291651 2.265947681e-38
0.01523282006 -0.1112454906 -0.2865616083 2.265947681e-38
-0.342885077 -0.397751838 -0.05395514518 2.265947681e-38
-0.1549755782 -0.3426416218 0.173973605 2.284242894e-38
-0.1838678867 -0.3417761922 0.08799698204 2.284242894e-38
0.2871956229 0.02850469202 -0.211074844 2.284242894e-38
0.2978912294 0.02784926072 -0.2490284741 2.284242894e-38
-0.1601509154 -0.3305450678 0.04938171059 2.302537966e-38
0.006175923627 -0.3299075067 0.4492872059 2.302537966e-38
0.05548616499 -0.05070739239 -0.2886783183 2.302537966e-38
-0.2427888066 -0.3277090192 -0.121379815 2.302537966e-38
0.09633426368 0.02226991579 -0.2908608317 2.320833179e-38
-0.4375403225 -0.4650793672 -0.2637324929 2.320833179e-38
0.04187015444 -0.07503316551 -0.287950784 2.320833179e-38
-0.4848803878 -0.4354828298 -0.154971242 2.320833179e-38
-0.4120923579 -0.4537454247 -0.2649899721 2.339092378e-38
0.3094312847 0.0285345912 2.362485975e-05 2.339092378e-38
-0.4678376913 -0.4357613027 -0.05594624579 2.339092378e-38
-0.1552339047 -0.2906492651 -0.2778282464 2.339092378e-38
0.2747690082 0.02905731648 -0.2104790062 2.348204041e-38
-0.2197458744 -0.3376428783 -0.2745857537 2.348204041e-38
-0.1714235693 -0.329923898 0.07488272339 2.348204041e-38
-0.03447374701 -0.1090349704 -0.2841783166 2.348204041e-38
0.2704204023 0.03008968383 -0.03554671258 2.348132155e-38
-0.06778923422 -0.3141525388 0.4527963102 2.348132155e-38
-0.3359610438 -0.3973406255 0.09547609091 2.348132155e-38
-0.05476788431 -0.3022659719 0.452134639 2.348132155e-38
-0.06719454378 -0.3017133474 0.4527304769 2.348060128e-38
0.3484422266 0.02697950229 0.03559399024 2.348060128e-38
0.3100082874 0.02856885642 0.01247621793 2.348060128e-38
-0.4978840053 -0.4349644184 -0.1668280512 2.348060128e-38
0.003995548934 -0.08581446111 -0.2860974669 2.347952368e-38
0.004590239376 -0.07337527722 -0.2861633301 2.347952368e-38
-0.183850199 -0.3293712437 0.07547854632 2.347952368e-38
-0.4967299998 -0.4348959029 -0.1419228315 2.347952368e-38
0.2279474437 0.03143917024 -0.1458326876 2.347880341e-38
-0.3497560322 -0.3609482646 -0.2409417331 2.347880341e-38
-0.04630568624 -0.09604312479 -0.2836483419 2.347880341e-38
-0.2326347977 -0.3035888374 -0.1968229711 2.347880341e-38
-0.0587323457 -0.09549049288 -0.2830525041 2.347808455e-38
-0.01847896725 -0.03495240211 -0.285169214 2.347808455e-38
-0.2529074252 -0.3270193338 -0.07097359002 2.347808455e-38
-0.207746163 -0.279884249 -0.2230515182 2.347808455e-38
-0.1939688474 -0.3286815584 0.1258848011 2.347700555e-38
-0.2664881051 -0.3265351951 -0.09528298676 2.347700555e-38
0.3886071146 0.02549294755 0.09606954455 2.347700555e-38
0.213212803 0.03185473382 -0.1950472742 2.347700555e-38
0.2597247362 0.03074511141 0.002406922169 2.347628668e-38
-0.004268232733 0.001812525094 -0.2859625518 2.347628668e-38
-0.3225593567 -0.3371065557 -0.2173598856 2.347628668e-38
0.2059791982 0.03271576762 -0.08237802237 2.347628668e-38
-0.12264961 -0.1300449669 -0.2798758745 2.347520768e-38
-0.3491613567 -0.3485090435 -0.2410075814 2.347520768e-38
-0.1794924736 -0.277104795 -0.2767024338 2.347520768e-38
-0.003673538566 0.01425176859 -0.286028415 2.347520768e-38
-0.1658764631 -0.2527790368 -0.2774299681 2.347448882e-38
-0.2207497954 -0.2793658972 -0.2349082977 2.347448882e-38
0.2857320607 0.02970837802 0.0261204578 2.347448882e-38
0.2472981066 0.03129774332 0.003002745099 2.347448882e-38
-0.06878020614 -0.0451810956 -0.2827200592 2.347340982e-38
0.1889364868 0.03299427032 -0.181403026 2.347340982e-38
-0.2647570968 -0.3264324069 -0.0579251498 2.347340982e-38
-0.2431160659 -0.3388417065 0.153239131 2.347340982e-38
0.363753885 0.02659820393 0.09726119041 2.347269095e-38
-0.3215377331 -0.3829786479 -0.2695558071 2.347269095e-38
0.2212908417 0.03233446926 -0.02071082219 2.347269095e-38
-0.1634976864 -0.2030222416 -0.2776933312 2.347269095e-38
-0.3349860013 -0.3365539312 -0.2167640626 2.347161195e-38
-0.1629029959 -0.1905830503 -0.2777591646 2.347161195e-38
-0.1084388793 -0.09327997267 -0.2806692123 2.347161195e-38
-0.3428319991 -0.3605370522 -0.09151051193 2.347161195e-38
0.2082872093 0.03285283595 -0.0325675942 2.347089308e-38
0.2218678445 0.03236873448 -0.008258200251 2.347089308e-38
-0.2555427253 -0.3382890821 0.1538349539 2.347089308e-38
-0.1078441888 -0.08084079623 -0.2807350755 2.347089308e-38
-0.1344815493 -0.1170531139 -0.27934587 2.346981408e-38
-0.2549657226 -0.3382548392 0.1662875414 2.346981408e-38
-0.3324636519 -0.372325182 0.1451548338 2.346981408e-38
-0.05338010937 0.0164622888 -0.2836450934 2.346981408e-38
-0.2919183671 -0.3254642189 -0.1065439284 2.346909522e-38
-0.3072300255 -0.3250829279 -0.1682111323 2.346909522e-38
0.1606212109 0.03389392793 -0.2549270093 2.346909522e-38
-0.1765190065 -0.2149088085 -0.2770316601 2.346909522e-38
-0.2976706922 -0.3134019673 -0.2435884178 2.346801622e-38
-0.30607602 -0.3250143826 -0.1433059126 2.346801622e-38
-0.2699147165 -0.301930964 -0.1950355023 2.346801622e-38
-0.2827039957 -0.337320894 0.1052161679 2.346801622e-38
0.136921972 0.03506771475 -0.2288301587 2.346693862e-38
-0.3462586403 -0.3359327614 -0.19126302 2.346693862e-38
-0.3594123721 -0.3937599361 -0.2677024901 2.346693862e-38
-0.1599295288 -0.1283870637 -0.2780883908 2.346693862e-38
0.2490291148 0.03140054643 0.04036058113 2.346621835e-38
-0.3422373235 -0.348097831 -0.09157635272 2.346621835e-38
0.1256492883 0.03568887711 -0.2033291161 2.346621835e-38
0.2880400717 0.02984544635 0.07593088597 2.346621835e-38
-0.3295609355 -0.3597489297 0.1948994249 2.346514075e-38
0.1704302579 0.03447645158 -0.0432327427 2.346514075e-38
0.1421149969 0.03537610918 -0.1167567074 2.346514075e-38
0.2886170745 0.02987971157 0.08838348091 2.346514075e-38
-0.102491945 0.0311119929 -0.2813276649 2.346406175e-38
-0.344527632 -0.3358299732 -0.1539052129 2.346406175e-38
-0.3020370007 -0.3247745335 -0.05613767728 2.346406175e-38
0.09906502068 0.03669134527 -0.2394952774 2.346406175e-38
-0.3280619681 -0.3361427486 -0.0673328042 2.346334289e-38
-0.3479719758 -0.323630631 -0.2411392778 2.346334289e-38
0.087792404 0.03731250018 -0.2139942497 2.346334289e-38
-0.3318512738 -0.3474810421 0.1325705498 2.346334289e-38
