# .PCD v0.7 - Point Cloud Data file format
VERSION 0.7
FIELDS x y z rgb
SIZE 4 4 4 4
TYPE F F F F
COUNT 1 1 1 1
WIDTH 830
HEIGHT 1
VIEWPOINT 0 0 0 1 0 0 0
POINTS 830
DATA ascii
-0.3837626278 -0.157929495 0.1487381756 1.239732115e-38
-0.2223973572 -0.1981761456 0.1620403528 1.239732115e-38
-0.02382615954 -0.2514794171 0.1754534841 1.239732115e-38
-0.4692434072 -0.0320183821 0.1507118046 1.258099074e-38
0.4388220608 -0.3139913082 -0.1567381918 1.258099074e-38
-0.2348573357 -0.1979737729 0.161906302 1.258099074e-38
-0.1104316488 -0.212446928 0.1629555821 1.258099074e-38
0.122229442 -0.4192284644 0.3349076509 1.258099074e-38
-0.02472931705 -0.277983427 0.24947007 1.258099074e-38
-0.4327329993 -0.09487275034 0.1496579647 1.258099074e-38
-0.2973310351 -0.2094114125 0.1609448642 1.258099074e-38
-0.122799024 -0.2119770646 0.1503883898 1.276466033e-38
-0.03665635735 -0.2523471117 0.2250521183 1.276466033e-38
-0.3713952303 -0.1583993733 0.1613053679 1.276466033e-38
-0.2098448575 -0.1981110126 0.1497412473 1.276466033e-38
-0.272318542 -0.2095486373 0.1487798095 1.276466033e-38
-0.3591091633 -0.1710512042 0.1611482203 1.276466033e-38
0.1113794446 -0.3546386957 0.2367642671 1.276466033e-38
-0.4448451996 -0.06977146864 0.1501063108 1.276466033e-38
-0.3713026643 -0.1581318676 0.1488722116 1.294832852e-38
-0.3467305303 -0.1834355146 0.1485579163 1.294832852e-38
-0.3590165973 -0.1707836986 0.1487150639 1.294832852e-38
0.1605938375 -0.3811496198 0.2740175724 1.294832852e-38
-0.2847784758 -0.2093462646 0.1486457586 1.294832852e-38
-0.02374483086 -0.2392974645 0.1881778389 1.294832852e-38
-0.4080682993 -0.1199088842 0.136910513 1.294832852e-38
-0.4265960157 0.09012030065 -0.3435919285 1.294832852e-38
-0.444763869 -0.05758954585 0.1628306657 1.313163938e-38
-0.5022814274 0.08865932375 -0.2200645357 1.313163938e-38
-0.03638990223 -0.2396301329 0.2129101604 1.313163938e-38
-0.3343631327 -0.1839053929 0.1611251235 1.313163938e-38
-0.02544735 -0.3039524257 0.2986203432 1.313163938e-38
-0.3096171021 -0.1967595667 0.1611020267 1.313163938e-38
-0.489636302 0.08899199963 -0.2447968274 1.313163938e-38
-0.09787910432 -0.212381795 0.1506564766 1.313163938e-38
-0.4203656018 -0.09534264356 0.1622251719 1.331530897e-38
-0.3957934976 -0.1206462905 0.1619108766 1.331530897e-38
0.0002831388265 -0.2781206667 0.2373050004 1.331530897e-38
-0.03737439215 -0.2783161104 0.2742024064 1.331530897e-38
-0.5151116252 0.08779162914 -0.1704659462 1.331530897e-38
-0.5050583482 0.0806337893 0.1529304385 1.331530897e-38
-0.444671303 -0.05732202902 0.1503975093 1.331530897e-38
0.06206126511 -0.3164808452 0.2371016592 1.331530897e-38
-0.3712213337 -0.14594993 0.1615965664 1.349897856e-38
-0.4325591326 -0.08242331445 0.1499491632 1.349897856e-38
-0.5023739934 0.08839181066 -0.2076313794 1.349897856e-38
-0.3957009315 -0.1203787699 0.1494777203 1.349897856e-38
0.1362994015 -0.3550434113 0.2370323688 1.349897856e-38
-0.3465566337 -0.1709860712 0.1488491148 1.349897856e-38
-0.489728868 0.08872447908 -0.2323636711 1.349897856e-38
-0.5155744553 0.0864540413 -0.1083001122 1.349897856e-38
-0.5047806501 0.08143634349 0.1156309247 1.368228942e-38
0.1608602852 -0.368432641 0.2618756294 1.368228942e-38
0.1224033386 -0.406779021 0.3351988792 1.368228942e-38
-0.3218106329 -0.183840245 0.148826018 1.368228942e-38
-0.03773340583 -0.2913005948 0.2987775207 1.368228942e-38
-0.07305177301 -0.2130540311 0.1633577347 1.368228942e-38
-0.1599236876 -0.1867385507 0.1630017906 1.368228942e-38
-0.5024665594 0.08812429011 -0.195198223 1.368228942e-38
-0.02491444349 -0.2785184681 0.2743364573 1.386595901e-38
-0.3341892362 -0.1714559495 0.161416322 1.386595901e-38
-0.4393336475 0.08952011168 -0.3064264655 1.386595901e-38
-0.420191735 -0.08289320022 0.1625163704 1.386595901e-38
-0.5163149238 0.08431389183 -0.008834786713 1.386595901e-38
-0.4079056382 -0.09554500878 0.1623592228 1.386595901e-38
-0.371047467 -0.1335004568 0.1618877649 1.386595901e-38
-0.234590888 -0.1852568239 0.1497643441 1.386595901e-38
-0.02464799024 -0.2658014596 0.2621945143 1.404926846e-38
-0.2720633447 -0.1849172264 0.1617953628 1.404926846e-38
-0.04821317643 -0.2256407142 0.1509014815 1.404926846e-38
0.09926727414 -0.3295373917 0.2372126132 1.404926846e-38
-0.4200178385 -0.07044372708 0.1628075689 1.404926846e-38
-0.420099169 -0.08262567967 0.150083214 1.404926846e-38
-0.5026516914 0.08758925647 -0.1703318954 1.404926846e-38
-0.370954901 -0.1332329512 0.1494546086 1.404926846e-38
-0.4443235099 -0.03242311627 0.1509799063 1.423293806e-38
-0.4927722216 0.06798198074 0.1527732909 1.423293806e-38
-0.383240968 -0.1205811426 0.1496117562 1.423293806e-38
0.4516298473 -0.2892947495 -0.156021744 1.423293806e-38
-0.4519787431 0.08918745071 -0.2816941738 1.423293806e-38
-0.5027442575 0.08732173592 -0.1578987092 1.423293806e-38
-0.4442422092 -0.02024119161 0.1637042612 1.423293806e-38
0.4391698539 -0.2890923917 -0.1561557949 1.423293806e-38
-0.2595108151 -0.1848520935 0.1494962573 1.441624891e-38
-0.5028368235 0.08705421537 -0.1454655528 1.441624891e-38
-0.4772689342 0.08852211386 -0.2322296202 1.441624891e-38
0.1489332318 -0.3427963555 0.2374575883 1.441624891e-38
-0.5031145215 0.08625166863 -0.1081660613 1.441624891e-38
-0.02500700578 -0.2787859738 0.2867695689 1.441624891e-38
-0.3954457045 -0.09574738145 0.1624932587 1.441624891e-38
-0.3831596375 -0.1083992198 0.1623361111 1.441624891e-38
-0.1722097695 -0.1740867347 0.1631589383 1.459991851e-38
-0.06049923599 -0.2129888982 0.1510586292 1.459991851e-38
-0.04813184589 -0.2134587765 0.1636258215 1.459991851e-38
-0.3463014066 -0.1463546604 0.1618646681 1.459991851e-38
-0.4520713091 0.08891993016 -0.2692610025 1.459991851e-38
-0.2094970793 -0.1732121259 0.1503236443 1.459991851e-38
-0.221957013 -0.1730097532 0.1501895934 1.459991851e-38
-0.4076392055 -0.08282804489 0.1502172649 1.459991851e-38
-0.159749791 -0.1742891073 0.1632929891 1.478322936e-38
-0.4196700454 -0.0455448404 0.163389951 1.478322936e-38
-0.02447409928 -0.2533520162 0.262485683 1.478322936e-38
-0.03702661023 -0.2534171641 0.2747848034 1.478322936e-38
-0.2968093753 -0.1720630527 0.1618184596 1.478322936e-38
-0.3214628398 -0.1589413434 0.149408415 1.478322936e-38
-0.4799532592 0.0807640925 0.1283321679 1.478322936e-38
-0.1969558001 -0.1612325311 0.1631820351 1.478322936e-38
-0.4906544983 0.08604930341 -0.1080320105 1.496689755e-38
-0.03738562763 -0.2664016783 0.2993599176 1.496689755e-38
-0.4908396006 0.08551426232 -0.0831656754 1.496689755e-38
-0.2967168093 -0.171795547 0.1493853033 1.496689755e-38
-0.1844958216 -0.1614348888 0.1633160859 1.496689755e-38
-0.4194035828 -0.03282785416 0.151248008 1.496689755e-38
-0.03711917251 -0.2536846995 0.2872179151 1.496689755e-38
-0.03649370372 -0.2279832214 0.2505007982 1.496689755e-38
-0.3706071079 -0.1083340645 0.1500370055 1.515020841e-38
0.4391586185 -0.2771779895 -0.1309982836 1.515020841e-38
-0.3950053751 -0.07058094442 0.1506424993 1.515020841e-38
-0.427058816 0.08878271282 -0.2814260721 1.515020841e-38
0.161474511 -0.3308167458 0.2503160238 1.515020841e-38
0.0501229912 -0.2789301276 0.2378412038 1.515020841e-38
-0.4674932659 0.08056171983 0.1284662187 1.515020841e-38
-0.2217018008 -0.1483783424 0.1632051468 1.515020841e-38
-0.4192297161 -0.02037841082 0.1515391916 1.533351927e-38
-0.4674006999 0.08082924038 0.1160330623 1.533351927e-38
-0.4649940431 0.08778470755 -0.2072292417 1.533351927e-38
-0.3459536433 -0.1214557663 0.1624470651 1.533351927e-38
-0.4779168665 0.08664948493 -0.1451974511 1.533351927e-38
-0.259163022 -0.159953177 0.1500786543 1.533351927e-38
0.03783693165 -0.2662782967 0.2379983515 1.533351927e-38
-0.4019537568 0.08891300857 -0.306024313 1.533351927e-38
0.07486905158 -0.2917843163 0.237818107 1.551683013e-38
-0.3826379776 -0.07105083019 0.1632097065 1.551683013e-38
-0.3947501481 -0.04594957829 0.1636580527 1.551683013e-38
-0.2466217279 -0.147973612 0.1629370451 1.551683013e-38
-0.1594833285 -0.1615721285 0.1511510313 1.551683013e-38
-0.2216092348 -0.1481108367 0.1507719904 1.551683013e-38
-0.427151382 0.08851519227 -0.2689929008 1.551683013e-38
-0.3212076426 -0.1343099326 0.1624239534 1.551683013e-38
-0.4524415731 0.08784985542 -0.2195283473 1.570049832e-38
-0.2840829194 -0.1595484465 0.1498105526 1.570049832e-38
0.09961505234 -0.304638505 0.2377950102 1.570049832e-38
-0.2590817213 -0.1477712393 0.1628029943 1.570049832e-38
0.02555087395 -0.2536264658 0.2381554991 1.570049832e-38
0.4519776106 -0.264395833 -0.1554393619 1.570049832e-38
-0.3825454116 -0.07078330964 0.1507765502 1.570049832e-38
-0.1966893524 -0.1485155821 0.1510400921 1.570049832e-38
-0.382464081 -0.05860138685 0.163500905 1.588380918e-38
-0.3768487275 0.08904330432 -0.3306225538 1.588380918e-38
0.1612893939 -0.3313517869 0.2751823664 1.588380918e-38
-0.1594020128 -0.1493901908 0.1638753861 1.588380918e-38
-0.0230380334 -0.2014140338 0.1641851217 1.588380918e-38
-0.4665676355 0.08323690295 0.004134558141 1.588380918e-38
-0.02376730368 -0.2154686153 0.238492921 1.588380918e-38
-0.03540541977 -0.2009441704 0.1516179144 1.588380918e-38
0.0502968803 -0.2664806545 0.2381324023 1.606712004e-38
-0.2339878827 -0.1357265115 0.1633622944 1.606712004e-38
-0.370178014 -0.07125320286 0.1633437574 1.606712004e-38
-0.3894938231 0.08871064335 -0.3058902621 1.606712004e-38
-0.3944836855 -0.03323258832 0.1515160948 1.606712004e-38
-0.1966080219 -0.1363336146 0.1637644321 1.606712004e-38
0.1245349497 -0.3050432503 0.2380631119 1.606712004e-38
-0.3944023848 -0.02105066553 0.1642404497 1.606712004e-38
-0.2020390779 0.08728022128 -0.3784785867 1.625043089e-38
-0.2714490891 -0.1473013759 0.1502358019 1.625043089e-38
-0.3391911685 0.0892387554 -0.3675199151 1.625043089e-38
-0.4659196734 0.08510952443 -0.08289758116 1.625043089e-38
-0.370085448 -0.07098568231 0.150910601 1.625043089e-38
-0.03560177982 -0.1895647943 0.201641798 1.625043089e-38
-0.4526266754 0.08731482178 -0.1946620345 1.625043089e-38
-0.2962877154 -0.134714663 0.1626920551 1.625043089e-38
-0.3943098187 -0.02078314684 0.1518072933 1.643374035e-38
-0.02385986596 -0.2157361358 0.2509260774 1.643374035e-38
-0.02295670658 -0.189232111 0.1769094765 1.643374035e-38
-0.02421888337 -0.2287206203 0.2755012512 1.643374035e-38
-0.4424808025 0.08042450249 0.116301164 1.643374035e-38
0.02572476305 -0.2411770076 0.2384466976 1.643374035e-38
-0.2713677883 -0.1351194084 0.1629601568 1.643374035e-38
-0.1716880947 -0.136738345 0.1640325338 1.643374035e-38
-0.4541077018 0.08303453773 0.004268607125 1.661705121e-38
-0.0724375397 -0.1754381806 0.1517981738 1.661705121e-38
-0.3895863891 0.0884431228 -0.2934571505 1.661705121e-38
-0.4540151358 0.08330205083 -0.008164547384 1.661705121e-38
0.4521515071 -0.2519464195 -0.1551481634 1.661705121e-38
-0.3085737526 -0.1220628694 0.1628492028 1.661705121e-38
-0.2088940889 -0.1236818209 0.1639215797 1.661705121e-38
-0.3332272172 -0.108941175 0.1504391581 1.661705121e-38
0.1122488976 -0.2923914194 0.2382202595 1.680036207e-38
0.1614632905 -0.3189023435 0.2754735947 1.680036207e-38
0.01343871094 -0.2285251617 0.2386038452 1.680036207e-38
-0.4529043734 0.08651226759 -0.1573625207 1.680036207e-38
-0.121929571 -0.1497297883 0.1518443674 1.680036207e-38
-0.2837351561 -0.1346495301 0.1503929496 1.680036207e-38
-0.0365049392 -0.2160688192 0.2756583691 1.680036207e-38
-0.1467681676 -0.1371430904 0.1643006355 1.680036207e-38
-0.1964341402 -0.1238841787 0.1640556306 1.698367293e-38
0.1247088462 -0.2925937772 0.2383543104 1.698367293e-38
-0.1896716952 0.08681033552 -0.3659113646 1.698367293e-38
-0.09710221738 -0.1504020393 0.1645456254 1.698367293e-38
-0.4148765504 0.08777778596 -0.2439925373 1.698367293e-38
-0.03578690439 -0.1900998205 0.2265080959 1.698367293e-38
-0.4533672035 0.08517467976 -0.09519668669 1.698367293e-38
-0.1343082339 -0.1373454481 0.1644346714 1.698367293e-38
-0.05997756124 -0.1756405383 0.1519322097 1.716698239e-38
-0.4537374377 0.08410460502 -0.04546403885 1.716698239e-38
0.1613707244 -0.3191698492 0.2879067063 1.716698239e-38
0.07521682978 -0.2668853998 0.238400504 1.716698239e-38
-0.07235620916 -0.1632562131 0.1645225137 1.716698239e-38
-0.1591355503 -0.1366732121 0.1517334282 1.716698239e-38
-0.3574515879 -0.05873860791 0.1513358504 1.716698239e-38
-0.4402592778 0.08684492856 -0.1820948124 1.716698239e-38
-0.2337214351 -0.1230095625 0.1512203366 1.735029324e-38
-0.3694824576 -0.02145540342 0.1645085514 1.735029324e-38
-0.3771264255 0.08824075013 -0.2933230996 1.735029324e-38
-0.09700965136 -0.1501345336 0.1521124691 1.735029324e-38
-0.023685975 -0.2032866627 0.2512172461 1.735029324e-38
-0.4403518438 0.08657741547 -0.169661656 1.735029324e-38
-0.4276141822 0.08717760444 -0.2068271041 1.735029324e-38
-0.3330533206 -0.0964917019 0.1507303417 1.735029324e-38
0.06293071806 -0.2542335689 0.2385576516 1.75336041e-38
-0.2087201923 -0.1112323776 0.1642127782 1.75336041e-38
-0.1838815957 -0.1238190457 0.151756525 1.75336041e-38
-0.3450841904 -0.05920849368 0.1639030427 1.75336041e-38
-0.1590542346 -0.1244912818 0.1644577831 1.75336041e-38
-0.2586413622 -0.1226048246 0.1509522349 1.75336041e-38
-0.2336401045 -0.1108276397 0.1639446914 1.75336041e-38
-0.3083072901 -0.1093459055 0.1507072449 1.75336041e-38
-0.3520213664 0.08837105334 -0.3179213405 1.771655483e-38
-0.03552045301 -0.1773828715 0.214366138 1.771655483e-38
-0.4024165869 0.08757542074 -0.2438584864 1.771655483e-38
-0.4406295419 0.08577486128 -0.1323621571 1.771655483e-38
-0.02296794392 -0.1773177236 0.2020670325 1.771655483e-38
-0.02341952175 -0.1905696988 0.2390752882 1.771655483e-38
-0.1714216471 -0.1240214035 0.1518905759 1.771655483e-38
0.1616371721 -0.3064529002 0.2757647634 1.771655483e-38
-0.4409072399 0.08497230709 -0.09506263584 1.789986569e-38
-0.02413755655 -0.2165386975 0.2882255912 1.789986569e-38
-0.3394688368 0.08843620121 -0.3302204013 1.789986569e-38
0.00132648088 -0.2034238875 0.2390521914 1.789986569e-38
-0.4051934779 0.07954987884 0.129136458 1.789986569e-38
-0.2210875601 -0.1107624844 0.1516455859 1.789986569e-38
-0.3205120862 -0.08451214433 0.1635887474 1.789986569e-38
-0.2585600317 -0.1104229018 0.1636765897 1.789986569e-38
-0.3646664619 0.08803838491 -0.2931890488 1.808317654e-38
-0.07218232006 -0.1508067697 0.1648137122 1.808317654e-38
-0.1216743514 -0.1250983924 0.1648599207 1.808317654e-38
-0.2710199952 -0.1102205366 0.1635425389 1.808317654e-38
0.1498026848 -0.2805490792 0.2389135808 1.808317654e-38
-0.09683576226 -0.1376850605 0.1524036676 1.808317654e-38
-0.2334662229 -0.09837816656 0.1642358899 1.808317654e-38
0.02607254498 -0.2162780911 0.2390290946 1.808317654e-38
0.1622626334 -0.2807514369 0.2390476316 1.826612727e-38
-0.202224195 0.08674518019 -0.3536122441 1.826612727e-38
-0.3773115575 0.08770571649 -0.2684567571 1.826612727e-38
-0.2709274292 -0.109953016 0.1511093974 1.826612727e-38
-0.1340417713 -0.1246285066 0.1522927135 1.826612727e-38
-0.4152467847 0.08670771122 -0.1942598969 1.826612727e-38
-0.4280770123 0.08584000915 -0.1446612626 1.826612727e-38
0.1125966758 -0.2674925029 0.2388026565 1.826612727e-38
-0.1711664349 -0.09939000756 0.1649061292 1.844943813e-38
-0.03525400162 -0.1646658778 0.2022241801 1.844943813e-38
0.4524993002 -0.2270474881 -0.1545657665 1.844943813e-38
0.01378648914 -0.2036262602 0.2391862422 1.844943813e-38
-0.2956734598 -0.09709880501 0.1511324942 1.844943813e-38
-0.2833060324 -0.09756869823 0.1636997014 1.844943813e-38
-0.4167278111 0.08242742717 0.00467075035 1.844943813e-38
-0.3270088732 0.08823382854 -0.3300863504 1.844943813e-38
-0.3323577642 -0.04669390246 0.1518951356 1.863274899e-38
-0.1215004623 -0.1126489565 0.1651511192 1.863274899e-38
-0.1091218442 -0.1250332445 0.1525608152 1.863274899e-38
-0.02324563265 -0.1781202704 0.2393664867 1.863274899e-38
-0.2271441072 0.08714991808 -0.3538803458 1.863274899e-38
-0.2207397819 -0.08586357534 0.1522279829 1.863274899e-38
-0.2768913507 0.08822691441 -0.3668496609 1.863274899e-38
0.1375166327 -0.2678972483 0.2390707284 1.863274899e-38
-0.05962978303 -0.1507416368 0.1525146067 1.881569971e-38
-0.2831321657 -0.08511925489 0.163990885 1.881569971e-38
-0.3077042997 -0.05981559679 0.1643051952 1.881569971e-38
-0.03489498422 -0.1516813934 0.1776490211 1.881569971e-38
-0.2331997603 -0.08566120267 0.152093932 1.881569971e-38
-0.1338678747 -0.1121790633 0.152583912 1.881569971e-38
-0.332102567 -0.02206250839 0.164910689 1.881569971e-38
-0.2081985176 -0.07388398796 0.1650863737 1.881569971e-38
-0.2206584513 -0.07368162274 0.1649523228 1.899901057e-38
-0.1586138904 -0.09932485968 0.1526070237 1.899901057e-38
0.1003106162 -0.2548407018 0.2389598042 1.899901057e-38
-0.3307279944 -0.1017181948 -0.1852563322 1.899901057e-38
0.1620775163 -0.2812864482 0.2639139891 1.899901057e-38
-0.2830395997 -0.08485173434 0.1515577435 1.899901057e-38
0.16243653 -0.2683019638 0.2393388301 1.899901057e-38
-0.2952443659 -0.06001796573 0.1644392461 1.899901057e-38
-0.04716983438 -0.1509439945 0.1526486576 1.91819627e-38
-0.1461539418 -0.0995272249 0.1527410597 1.91819627e-38
-0.1089479551 -0.1125838012 0.1528520137 1.91819627e-38
-0.2147766948 0.08668003976 -0.3413131237 1.91819627e-38
-0.4157096148 0.08537012339 -0.1320940554 1.91819627e-38
0.1127705723 -0.2550430596 0.239093855 1.91819627e-38
0.4526731968 -0.2145980448 -0.154274568 1.91819627e-38
-0.3431066275 -0.08933386207 -0.1726660281 1.91819627e-38
-0.1460726112 -0.0873453021 0.1654654145 1.936527215e-38
-0.2894439101 0.08816175908 -0.3545505404 1.936527215e-38
-0.416357547 0.08349749446 -0.04506189749 1.936527215e-38
0.05099243671 -0.2166828364 0.2392971963 1.936527215e-38
-0.1774893999 0.08580540866 -0.3284777999 1.936527215e-38
-0.1956460029 -0.07381884009 0.1527872682 1.936527215e-38
-0.1708186418 -0.07449109852 0.1654885262 1.936527215e-38
0.08802455664 -0.242188856 0.2391169518 1.936527215e-38
-0.3397465348 0.08763364702 -0.2929209471 1.954822428e-38
-0.2272366732 0.08688240498 -0.3414471745 1.954822428e-38
-0.2951517999 -0.05975044891 0.1520060897 1.954822428e-38
-0.3902343214 0.08657050133 -0.2064249516 1.954822428e-38
0.125230521 -0.2552454174 0.2392278761 1.954822428e-38
-0.4041752815 0.08249257505 -0.007628356107 1.954822428e-38
-0.3308205605 -0.1019857079 -0.1728231907 1.954822428e-38
-0.2769839168 0.08795939386 -0.3544165492 1.954822428e-38
-0.02343075909 -0.1786553115 0.2642328739 1.973153514e-38
-0.2204845697 -0.0612321794 0.1652435213 1.973153514e-38
-0.2950704694 -0.04756852612 0.1647304296 1.973153514e-38
-0.08412059397 -0.1132560596 0.1655532569 1.973153514e-38
-0.04708850384 -0.138762027 0.1653730124 1.973153514e-38
-0.3305540979 -0.08926872164 -0.1849651337 1.973153514e-38
-0.3431991935 -0.08960138261 -0.1602328569 1.973153514e-38
-0.2704057693 -0.07260462642 0.151982978 1.973153514e-38
0.1237944514 -0.3071833849 0.3375284672 1.991448586e-38
-0.3271940053 0.0876987949 -0.3052200079 1.991448586e-38
-0.02307174169 -0.1656707972 0.2396576852 1.991448586e-38
-0.03562425077 -0.1657359451 0.2519568205 1.991448586e-38
0.1376905292 -0.2554478049 0.2393619269 1.991448586e-38
0.001674260944 -0.1785250008 0.2396345884 1.991448586e-38
-0.367721051 0.07921029627 0.1171054542 1.991448586e-38
-0.2826918066 -0.05995281786 0.1521401256 1.991448586e-38
-0.3776818216 0.08663564175 -0.2187240571 2.009743799e-38
-0.365036726 0.08696831763 -0.2434563488 2.009743799e-38
-0.2948965728 -0.03511905298 0.1650216281 2.009743799e-38
-0.07174197584 -0.1256403476 0.1529629529 2.009743799e-38
-0.1651220173 0.08533553034 -0.3159105778 2.009743799e-38
-0.03462853283 -0.1389643997 0.1655070633 2.009743799e-38
-0.3904194534 0.08603546023 -0.181558609 2.009743799e-38
-0.07166065276 -0.1134584248 0.1656873077 2.009743799e-38
0.06345238537 -0.2168851942 0.2394312471 2.028074885e-38
-0.02316430584 -0.1659383178 0.2520908713 2.028074885e-38
-0.02271272615 -0.1526863277 0.2150825858 2.028074885e-38
-0.2327706516 -0.04858036712 0.165400669 2.028074885e-38
-0.4036198854 0.08409768343 -0.08222734183 2.028074885e-38
-0.1581847817 -0.0622440204 0.1659137607 2.028074885e-38
-0.2452306002 -0.04837799817 0.165266633 2.028074885e-38
-0.4032496512 0.08516775817 -0.1319600195 2.028074885e-38
-0.4033422172 0.08490023762 -0.1195268333 2.046369957e-38
-0.1952982247 -0.04891995341 0.1533696651 2.046369957e-38
0.01413427107 -0.1787273735 0.2397686392 2.046369957e-38
-0.03616839647 -0.1792554855 0.3013982773 2.046369957e-38
-0.145724833 -0.06244639307 0.1660478115 2.046369957e-38
-0.1828382462 -0.04912232235 0.153503716 2.046369957e-38
-0.02361588553 -0.1791903526 0.2890991569 2.046369957e-38
-0.1704708636 -0.04959220812 0.1660709083 2.046369957e-38
-0.0592006743 -0.1136607975 0.1658213586 2.06466517e-38
-0.2823440135 -0.0350539051 0.1527225226 2.06466517e-38
-0.2325967699 -0.03613089398 0.1656918675 2.06466517e-38
-0.2896290123 0.08762672544 -0.3296842575 2.06466517e-38
-0.2075842917 -0.03626811504 0.1535268128 2.06466517e-38
-0.365221858 0.08643327653 -0.2185900062 2.06466517e-38
0.1621588469 -0.2691045105 0.276638329 2.06466517e-38
-0.3399316669 0.08709861338 -0.2680546045 2.06466517e-38
-0.2200442255 -0.0360657461 0.1533927619 2.082996116e-38
-0.3184531927 -0.1024555936 -0.1602559537 2.082996116e-38
-0.257516712 -0.03572615981 0.1654237807 2.082996116e-38
-0.120886229 -0.07503304631 0.1535915583 2.082996116e-38
-0.09614019841 -0.08788725734 0.1535684615 2.082996116e-38
-0.02289785258 -0.1532213539 0.2399488837 2.082996116e-38
-0.02207602002 -0.1388992667 0.1532079577 2.082996116e-38
-0.05910811573 -0.1133932769 0.1533882022 2.082996116e-38
-0.3914376497 0.08309276402 -0.04479379952 2.101291328e-38
-0.0219946932 -0.126717329 0.1659322977 2.101291328e-38
-0.1949504465 -0.02402104251 0.1539520621 2.101291328e-38
-0.3906971514 0.08523290604 -0.144259125 2.101291328e-38
-0.2197890133 -0.01143435203 0.1664083153 2.101291328e-38
-0.03554292768 -0.1535540223 0.2646812201 2.101291328e-38
-0.3400242329 0.08683109283 -0.2556214333 2.101291328e-38
-0.2196964473 -0.01116683427 0.1539751589 2.101291328e-38
-0.0342807509 -0.1140655354 0.1660894603 2.119586541e-38
-0.1948691308 -0.01183908898 0.166676417 2.119586541e-38
0.05134022236 -0.1917839199 0.2398795933 2.119586541e-38
-0.04664816335 -0.1135956421 0.153522253 2.119586541e-38
-0.03482489288 -0.1275850385 0.2155309319 2.119586541e-38
-0.03446587548 -0.114600569 0.1909557581 2.119586541e-38
-0.3186383247 -0.1029906273 -0.1353896409 2.119586541e-38
-0.2025944591 0.0856751129 -0.303879559 2.119586541e-38
-0.1452844888 -0.03727995604 0.1541970521 2.137881613e-38
-0.02344199456 -0.1667408794 0.2893903852 2.137881613e-38
-0.08359892666 -0.07590767741 0.1664268523 2.137881613e-38
0.08837233484 -0.2172899395 0.2396993488 2.137881613e-38
-0.2196151167 0.001015090151 0.1666995138 2.137881613e-38
-0.1823165864 -0.01177393924 0.1543773115 2.137881613e-38
-0.2523417473 0.08675210923 -0.3168489337 2.137881613e-38
-0.2320750952 0.001217458863 0.1665654629 2.137881613e-38
-0.02308297902 -0.153756395 0.2648152709 2.156176826e-38
-0.2195225507 0.001282607787 0.1542663574 2.156176826e-38
-0.1204571202 -0.03795221075 0.1668983102 2.156176826e-38
-0.2445350438 0.001419826876 0.1664314121 2.156176826e-38
-0.1080785096 -0.05033653229 0.1543080062 2.156176826e-38
-0.03455843776 -0.1148680896 0.2033889741 2.156176826e-38
-0.0218208041 -0.1142679006 0.1662234962 2.156176826e-38
-0.177767083 0.08500285447 -0.2911782861 2.156176826e-38
-0.277261585 0.08715684712 -0.3171170354 2.174471899e-38
-0.3790702522 0.08262287825 -0.03222656995 2.174471899e-38
-0.03418818861 -0.1137980148 0.1536563039 2.174471899e-38
-0.2275143713 0.08607985079 -0.3041476607 2.174471899e-38
0.002022041008 -0.1536260843 0.2402169853 2.174471899e-38
-0.1821426898 0.0006755025825 0.15466851 2.174471899e-38
-0.3789776862 0.08289039135 -0.0446597524 2.174471899e-38
0.06380017102 -0.1919862777 0.2400136441 2.174471899e-38
-0.2568211257 0.01407163776 0.1665885597 2.192767111e-38
-0.03465100378 -0.1151356027 0.2158221304 2.192767111e-38
-0.09553720057 -0.03835694864 0.167166397 2.192767111e-38
-0.3275642693 0.08662872016 -0.2554873824 2.192767111e-38
-0.1450292766 -0.01264856197 0.1672126055 2.192767111e-38
0.1625991911 -0.2439381033 0.2647876143 2.192767111e-38
-0.02209849283 -0.1150704548 0.2035230249 2.192767111e-38
-0.08333247155 -0.06319071352 0.1542848945 2.192767111e-38
0.0267681051 -0.166480273 0.2401938885 2.211062324e-38
-0.3783297539 0.08476302028 -0.1316919178 2.211062324e-38
-0.3150117695 0.08669387549 -0.2677865028 2.211062324e-38
-0.02172823995 -0.11400038 0.1537903547 2.211062324e-38
-0.2899067104 0.08682417125 -0.2923847437 2.211062324e-38
-0.1653997004 0.08453297615 -0.278611064 2.211062324e-38
-0.3785148859 0.08422798663 -0.1068255827 2.211062324e-38
-0.1945213377 0.0130597949 0.1672587991 2.211062324e-38
-0.277354151 0.08688932657 -0.3046838641 2.229357396e-38
-0.3403019309 0.08602853864 -0.2183219194 2.229357396e-38
0.4535426497 -0.1523507833 -0.1528185755 2.229357396e-38
-0.2524343133 0.08648458868 -0.3044157624 2.229357396e-38
-0.03438454866 -0.1024186164 0.2036801726 2.229357396e-38
-0.05867900699 -0.0763124153 0.166694954 2.229357396e-38
-0.02255007252 -0.1283224374 0.2405312806 2.229357396e-38
-0.2191747725 0.02618149295 0.1548487544 2.229357396e-38
-0.256647259 0.02652107924 0.1668797582 2.247652609e-38
-0.02183203958 -0.1023534611 0.1913810074 2.247652609e-38
-0.231634751 0.02638386004 0.1547147036 2.247652609e-38
-0.2932389975 0.07719352841 0.1552092582 2.247652609e-38
0.01448204927 -0.153828457 0.2403510362 2.247652609e-38
0.1382121891 -0.2180994153 0.2402355224 2.247652609e-38
-0.3544280231 0.08141558617 0.005340989679 2.247652609e-38
0.4537165165 -0.1399013102 -0.152527377 2.247652609e-38
-0.03519514576 -0.1286551058 0.265263617 2.265947681e-38
-0.3025517762 0.08649151027 -0.267652452 2.265947681e-38
-0.02192460187 -0.1026209816 0.2038142234 2.265947681e-38
0.10100618 -0.2050428391 0.2401245683 2.265947681e-38
0.002195931971 -0.1411766112 0.2405081838 2.265947681e-38
-0.02155435085 -0.1015509069 0.1540815383 2.265947681e-38
-0.09518942237 -0.01345803589 0.167748794 2.265947681e-38
-0.02300165221 -0.1415744424 0.2775396109 2.265947681e-38
-0.1032850295 0.08298609406 -0.2530745268 2.284242894e-38
-0.1199354529 -0.0006038568681 0.1677718908 2.284242894e-38
-0.03456967324 -0.1029536501 0.2285464853 2.284242894e-38
-0.1157449707 0.08318845928 -0.2532085776 2.284242894e-38
0.1627730876 -0.2314886302 0.265078783 2.284242894e-38
-0.2684929669 0.06433935463 0.1551861614 2.284242894e-38
0.162414059 -0.2444731444 0.2896538973 2.284242894e-38
-0.04612649232 -0.07624725997 0.1543958485 2.284242894e-38
-0.05833122134 -0.0514135249 0.167277351 2.302537966e-38
-0.1321289837 0.01231547073 0.1554958969 2.302537966e-38
-0.2440133691 0.03876821324 0.1673050076 2.302537966e-38
-0.169427529 0.02510450035 0.1678180993 2.302537966e-38
-0.03466223925 -0.1032211706 0.2409796268 2.302537966e-38
0.4416968822 -0.1145325452 -0.164512217 2.302537966e-38
-0.1196689978 0.01211310271 0.1556299329 2.302537966e-38
-0.05823866278 -0.05114600807 0.1548441947 2.302537966e-38
0.002369821072 -0.1287271827 0.2407993823 2.320833179e-38
-0.3405795991 0.08522598445 -0.1810224205 2.320833179e-38
-0.02210972831 -0.1031560153 0.2286805362 2.320833179e-38
-0.08272947371 -0.0136604039 0.1678828448 2.320833179e-38
-0.2276994884 0.08554481715 -0.2792813182 2.320833179e-38
-0.009916234761 -0.1160753816 0.24095653 2.320833179e-38
-0.02175071277 -0.09017154574 0.2041054219 2.320833179e-38
-0.3419680595 0.08121322095 0.0054750368 2.320833179e-38
-0.2561255693 0.06386946887 0.1677533537 2.339092378e-38
-0.1655848324 0.08399793506 -0.253744781 2.339092378e-38
-0.03394420445 -0.07725217938 0.1918293536 2.339092378e-38
-0.03358519077 -0.0642677024 0.1672542393 2.339092378e-38
-0.2930116057 -0.06551194191 -0.1591142565 2.339092378e-38
-0.2028721422 0.08487255871 -0.2665800452 2.339092378e-38
-0.2558591366 0.0765864253 0.1556113958 2.339092378e-38
-0.2057415992 0.07657950372 0.1188480705 2.339092378e-38
-0.09091760963 0.08251620829 -0.2405073047 2.348204041e-38
-0.02318677679 -0.1421094686 0.3024058938 2.348204041e-38
-0.218201533 0.07678187639 0.1187140197 2.348204041e-38
-0.1691610664 0.03782152012 0.1556761414 2.348204041e-38
-0.09474907815 0.01170836575 0.1558980346 2.348204041e-38
-0.1319550872 0.02476491407 0.1557870954 2.348204041e-38
-0.2806329429 -0.07789626718 -0.1717045903 2.348204041e-38
-0.20628573 0.06305999309 0.1682895422 2.348204041e-38
-0.2936370671 -0.09121341258 -0.1223971695 2.348132155e-38
-0.2650793791 0.08615192026 -0.2796834707 2.348132155e-38
-0.2432140261 0.07691908628 0.1308790743 2.348132155e-38
-0.3028294742 0.08568895608 -0.2303529531 2.348132155e-38
-0.2436655909 0.06366710365 0.1678874046 2.348132155e-38
-0.3052163124 -0.04067821056 -0.1462327689 2.348132155e-38
0.4417782128 -0.1023505926 -0.1517878324 2.348132155e-38
-0.1933742166 0.07610961795 0.1314152777 2.348132155e-38
-0.2184792161 0.0759793222 0.1560135484 2.348060128e-38
-0.03520638123 -0.116740711 0.2904211283 2.348060128e-38
-0.3535949588 0.08382324874 -0.1065574884 2.348060128e-38
-0.09484164417 0.011440848 0.1683311909 2.348060128e-38
-0.3536875248 0.0835557282 -0.09412430227 2.348060128e-38
-0.03448834643 -0.09077172726 0.2412708253 2.348060128e-38
0.0148298312 -0.1289295405 0.2409334332 2.348060128e-38
0.002543712035 -0.1162777469 0.2410905808 2.348060128e-38
-0.1807291061 0.07644228637 0.1066830084 2.347952368e-38
0.1136400104 -0.1927957535 0.2405498177 2.347952368e-38
-0.03412933275 -0.07778721303 0.2166957259 2.347952368e-38
-0.03341129795 -0.05181826279 0.1675454378 2.347952368e-38
-0.1282975078 0.08312331885 -0.2409094423 2.347952368e-38
-0.1809142381 0.07590724528 0.1315493137 2.347952368e-38
-0.1935593337 0.07557458431 0.1562816352 2.347952368e-38
-0.04560482502 -0.03889890388 0.155269444 2.347952368e-38
-0.009742343798 -0.1036259085 0.2412477285 2.347880341e-38
-0.1689871848 0.05027096346 0.1559673399 2.347880341e-38
-0.05771698803 -0.01379762311 0.1557177901 2.347880341e-38
-0.03458090872 -0.09103924036 0.2537040114 2.347880341e-38
-0.2810845077 -0.09114826471 -0.1346963048 2.347880341e-38
-0.03350386024 -0.05208578333 0.1799785942 2.347880341e-38
-0.2527119815 0.08568203449 -0.2671162486 2.347880341e-38
0.05186188966 -0.1544355601 0.2407531887 2.347880341e-38
-0.08238169551 0.01123847906 0.1684652418 2.347808455e-38
-0.02238741703 -0.1039585695 0.2659800649 2.347808455e-38
-0.2060358673 -0.1034743562 -0.1963490397 2.347808455e-38
-0.3416903615 0.08201577514 -0.03182442486 2.347808455e-38
-0.03386287764 -0.06507025659 0.204553768 2.347808455e-38
-0.1565272063 0.05006859452 0.1561013907 2.347808455e-38
-0.02103267983 -0.06420255452 0.1549551338 2.347808455e-38
-0.1688132882 0.06272040308 0.1562585384 2.347808455e-38
-0.1434417963 0.07556766272 0.1195183098 2.347700555e-38
-0.05754309893 -0.001348181046 0.1560089886 2.347700555e-38
-0.09466775507 0.02389029041 0.1686223894 2.347700555e-38
-0.2778169811 0.08555173874 -0.2425180227 2.347700555e-38
-0.1689058542 0.06245288625 0.1686916947 2.347700555e-38
0.002717601135 -0.1038282737 0.2413817793 2.347700555e-38
-0.2278846204 0.08500977606 -0.2544150054 2.347700555e-38
-0.2803777158 -0.05326487124 -0.1586890221 2.347700555e-38
0.1013539582 -0.1801439524 0.2407069653 2.347628668e-38
-0.03314484656 -0.03910127282 0.1554034799 2.347628668e-38
-0.03395543993 -0.06533777714 0.2169869244 2.347628668e-38
-0.3413200974 0.08308584243 -0.0815571025 2.347628668e-38
-0.3414126635 0.08281832933 -0.06912394613 2.347628668e-38
-0.02247998118 -0.10422609 0.2784131765 2.347628668e-38
-0.1681765914 0.07650743425 0.09438390285 2.347628668e-38
-0.1441598237 0.04959870875 0.1686685979 2.347628668e-38
-0.2403445691 0.08521214128 -0.2545490563 2.347520768e-38
-0.329322964 0.08154588193 -0.01925722323 2.347520768e-38
-0.03440701962 -0.07858976722 0.2539951801 2.347520768e-38
-0.0210439153 -0.05228814855 0.180112645 2.347520768e-38
-0.1687319726 0.07490232587 0.1689828932 2.347520768e-38
-0.05736920983 0.01110126078 0.1563001722 2.347520768e-38
-0.1159300953 0.08265342563 -0.2283422351 2.347520768e-38
-0.03512505442 -0.1045587584 0.3031454682 2.347520768e-38
0.1138139069 -0.1803463101 0.2408410162 2.347448882e-38
-0.1066873819 0.04925911874 0.1566375792 2.347448882e-38
-0.1192398891 0.04919397086 0.1689366847 2.347448882e-38
0.1634798646 -0.1936052293 0.2410860211 2.347448882e-38
-0.02068489976 -0.03930364177 0.1555375308 2.347448882e-38
-0.03414056823 -0.06587281078 0.2418532223 2.347448882e-38
-0.08194135129 0.03640494123 0.1566144824 2.347448882e-38
-0.1187069863 0.07462789118 0.144652769 2.347448882e-38
-0.3157522678 0.08455373347 -0.1683211774 2.347340982e-38
-0.2030572742 0.08433752507 -0.2417137325 2.347340982e-38
-0.0942274034 0.04905674979 0.15677163 2.347340982e-38
-0.03315608203 -0.02718686685 0.1805609912 2.347340982e-38
-0.3287675977 0.08315099031 -0.09385620803 2.347340982e-38
-0.2279771864 0.08474226296 -0.2419818193 2.347340982e-38
-0.09360194206 0.07475818694 0.1200544983 2.347340982e-38
-0.3290452659 0.08234843612 -0.05655671656 2.347340982e-38
-0.08152882755 -0.1057655588 -0.1825753748 2.347269095e-38
-0.03387411684 -0.05315585434 0.2297112644 2.347269095e-38
-0.03262317553 -0.001752918004 0.1562770754 2.347269095e-38
-0.1936684847 -0.103944242 -0.1837818176 2.347269095e-38
-0.0940535143 0.06150619686 0.1570628285 2.347269095e-38
-0.08203391731 0.03613742441 0.1690476388 2.347269095e-38
0.1387338638 -0.1807510555 0.2411091179 2.347269095e-38
-0.0343256928 -0.06640784442 0.2667195797 2.347269095e-38
-0.2654496133 0.08508184552 -0.2299508154 2.347161195e-38
-0.09110273421 0.0819811672 -0.2156409621 2.347161195e-38
-0.02168062143 -0.06607518345 0.2419872731 2.347161195e-38
-0.02239865437 -0.09204416722 0.2911375761 2.347161195e-38
-0.0811419934 0.07455582172 0.1201885492 2.347161195e-38
-0.2551913857 -0.04095264524 -0.1705629081 2.347161195e-38
-0.2429052889 -0.05360445753 -0.1707200557 2.347161195e-38
-0.2554578483 -0.05366960913 -0.1584209204 2.347161195e-38
-0.02141416818 -0.05335821956 0.2298453152 2.347089308e-38
-0.08186002821 0.04858686775 0.1693388224 2.347089308e-38
-0.04414895922 -0.1063726619 -0.1821732372 2.347089308e-38
-0.2529896796 0.0848794803 -0.2298167646 2.347089308e-38
-0.3163076639 0.08294862509 -0.09372215718 2.347089308e-38
-0.0341518037 -0.05395840853 0.267010808 2.347089308e-38
-0.06930751354 0.04865201563 0.1570397168 2.347089308e-38
-0.2655421793 0.08481432498 -0.2175176293 2.347089308e-38
-0.06877460331 0.07408593595 0.1327557564 2.346981408e-38
-0.08141967654 0.07375326753 0.157488063 2.346981408e-38
-0.02114771493 -0.04064123333 0.2177033573 2.346981408e-38
-0.2156097591 0.08427237719 -0.229414627 2.346981408e-38
-0.09408134222 -0.1058307067 -0.1702762693 2.346981408e-38
-0.02222476341 -0.07959469408 0.2914287448 2.346981408e-38
-0.06868204474 0.0743534565 0.1203226 2.346981408e-38
-0.02025579102 -0.002222803887 0.1688442826 2.346981408e-38
-0.2302714437 -0.04135738313 -0.1702948213 2.346909522e-38
-0.03316731751 -0.01527243108 0.205718562 2.346909522e-38
-0.08095686883 0.07509085536 0.09532223642 2.346909522e-38
0.04316332191 -0.1075217202 -0.1936680824 2.346909522e-38
-0.02159929276 -0.05389325321 0.254711628 2.346909522e-38
-0.08151224256 0.07348574698 0.1699212193 2.346909522e-38
-0.08162139356 -0.1060330719 -0.1701422334 2.346909522e-38
-0.06940007955 0.0483844988 0.1694728732 2.346909522e-38
-0.04456148297 0.03579783812 0.15701662 2.346801622e-38
-0.1658625156 0.08319538087 -0.2164452523 2.346801622e-38
0.1635611951 -0.1814233065 0.2538103461 2.346801622e-38
-0.03397791088 -0.04150893539 0.2673019767 2.346801622e-38
-0.02169185691 -0.05416077375 0.2671448588 2.346801622e-38
-0.1562072486 -0.09236939251 -0.1706553102 2.346801622e-38
0.003239272162 -0.06647992134 0.2422553748 2.346801622e-38
-0.02034835517 -0.00249032164 0.181277439 2.346801622e-38
-0.06922619045 0.06083394215 0.1697640717 2.346693862e-38
-0.2782797813 0.08421414346 -0.1803521812 2.346693862e-38
-0.06849692017 0.07488849014 0.09545628726 2.346693862e-38
-0.3042179048 0.08167618513 -0.04385546595 2.346693862e-38
0.08941567689 -0.1425931901 0.24144651 2.346693862e-38
-0.05622206628 0.07415108383 0.1204566509 2.346693862e-38
-0.1429789811 0.07690525055 0.05735247582 2.346693862e-38
-0.2919431031 0.08093877882 -0.01885508001 2.346693862e-38
-0.02008190192 0.01022663713 0.1691354811 2.346621835e-38
-0.034336932 -0.05449344218 0.2918770909 2.346621835e-38
-0.2909249067 0.08388147503 -0.1556198895 2.346621835e-38
-0.2055254281 -0.05421156064 -0.1703179181 2.346621835e-38
-0.02070737071 -0.01547480002 0.205852598 2.346621835e-38
-0.1058457643 -0.05583050847 -0.1692455262 2.346621835e-38
-0.02142540365 -0.04144378379 0.2550027966 2.346621835e-38
-0.1684933305 -0.0797175765 -0.1704981625 2.346621835e-38
0.1018756256 -0.1427955627 0.2415805608 2.346514075e-38
-0.2301901281 -0.02917543054 -0.1575704366 2.346514075e-38
-0.1432256401 -0.05522340536 -0.1696476787 2.346514075e-38
-0.04438759387 0.04824727774 0.1573078185 2.346514075e-38
-0.1056718752 -0.04338106513 -0.1689543426 2.346514075e-38
-0.1181318164 -0.04317869991 -0.1690883785 2.346514075e-38
-0.09323168546 0.07582826167 0.07032182068 2.346514075e-38
0.163468644 -0.181690827 0.266243577 2.346514075e-38
0.02798533626 -0.07933410257 0.242232278 2.346406175e-38
-0.04406763613 -0.09419070929 -0.1694488823 2.346406175e-38
-0.05635369569 -0.08153889328 -0.1692917347 2.346406175e-38
-0.1180590466 0.07650051266 0.05762057751 2.346406175e-38
-0.07882791758 0.08124376833 -0.1906405985 2.346406175e-38
0.1143355817 -0.1429979354 0.2417146116 2.346406175e-38
-0.03442949057 -0.05476096272 0.3043102622 2.346406175e-38
0.0306108091 -0.1075868756 -0.181368947 2.346406175e-38
0.01569928415 -0.06668228656 0.2423894256 2.346334289e-38
-0.04376212135 0.07394871861 0.1205906868 2.346334289e-38
-0.05617980659 -0.06908942759 -0.1690005362 2.346334289e-38
-0.04448015243 0.04797976092 0.1697409749 2.346334289e-38
0.08958957344 -0.1301437467 0.2417377084 2.346334289e-38
-0.2671157718 0.08026652038 -0.006153830327 2.346334289e-38
-0.04394724965 0.07341368496 0.1454570591 2.346334289e-38
-0.1055991054 0.07629814744 0.05775462091 2.346334289e-38
-0.291757971 0.08147381246 -0.04372141883 2.346226389e-38
-0.03353757039 -0.01634250209 0.2554512024 2.346226389e-38
-0.04357699677 0.07448375225 0.09572438151 2.346226389e-38
0.0430707559 -0.1077892408 -0.1812348962 2.346226389e-38
-0.1308582425 -0.05569329113 -0.1570804417 2.346226389e-38
-0.1191863865 -0.1059610099 -0.1456780285 2.346226389e-38
0.06501740217 -0.1048401147 0.2420520037 2.346226389e-38
0.1020495221 -0.1303461194 0.2418717593 2.346226389e-38
-0.1940387338 -0.1050143093 -0.1340491623 2.346118629e-38
-0.2913877368 0.0825438872 -0.09345406294 2.346118629e-38
-0.03255308419 0.02234341204 0.1941589266 2.346118629e-38
-0.1557781398 -0.05528855696 -0.1573485434 2.346118629e-38
0.04044528306 -0.07953646779 0.2423663288 2.346118629e-38
-0.0312095806 0.07401386648 0.1082915813 2.346118629e-38
0.04324465245 -0.09533977509 -0.1809436977 2.346118629e-38
-0.1065525562 -0.09371390194 -0.145252794 2.346118629e-38
-0.1303339005 0.07723791897 0.03262021765 2.346010729e-38
-0.0329121016 0.009358935058 0.2187341005 2.346010729e-38
-0.2055366635 -0.04229715839 -0.145160377 2.346010729e-38
-0.0317537263 0.06049435213 0.1577330679 2.346010729e-38
-0.09313055873 -0.0314014852 -0.1560959071 2.346010729e-38
-0.01973412 0.03512558341 0.1697178781 2.346010729e-38
-0.07892047614 0.08097624779 -0.1782074124 2.346010729e-38
-0.04413237423 0.07287864387 0.1703233719 2.346010729e-38
-0.02143663913 -0.02952937782 0.2801603675 2.345938842e-38
-0.03187411278 -0.1071100682 -0.1571728587 2.345938842e-38
-0.1178739145 0.0770355463 0.03275426477 2.345938842e-38
-0.02071860619 -0.003560393583 0.2310101092 2.345938842e-38
-0.08067061752 -0.03160385415 -0.1559618562 2.345938842e-38
-0.03372269496 -0.01687753946 0.2803175449 2.345938842e-38
0.01805829816 -0.1076520234 -0.1690698415 2.345938842e-38
-0.04398630559 -0.0820087865 -0.1567244977 2.345938842e-38
-0.03300466388 0.009091417305 0.2311672568 2.345830942e-38
-0.1184908301 -0.05616317689 -0.1445132494 2.345830942e-38
-0.1930767149 -0.04249952361 -0.1450263262 2.345830942e-38
-0.01845214888 -0.04479764402 -0.1680160016 2.345830942e-38
-0.2421958297 0.07986178249 -0.005885734223 2.345830942e-38
-0.1054139733 0.07683318108 0.03288831189 2.345830942e-38
-0.02179565467 -0.04251385853 0.3047354817 2.345830942e-38
-0.02117018588 -0.01681238972 0.2680184245 2.345830942e-38
-0.1924485862 0.07878480107 0.007083611563 2.345723183e-38
-0.2669306397 0.08080156147 -0.03102013841 2.345723183e-38
-0.01982668415 0.03485806286 0.1821510196 2.345723183e-38
-0.2534524798 0.08354189247 -0.167650938 2.345723183e-38
-0.09357091039 -0.05656791478 -0.1442451477 2.345723183e-38
-0.03345624357 -0.00416057976 0.268175602 2.345723183e-38
-0.02045215294 0.009156566113 0.2188681513 2.345723183e-38
0.003309363499 -0.04238355532 0.2801373005 2.345723183e-38
0.1553029716 -0.109343037 -0.1924616545 2.345615283e-38
-0.2792054117 0.08153896779 -0.05602052435 2.345615283e-38
-0.03273820877 0.02180837654 0.219025299 2.345615283e-38
-0.08058661222 0.0761609301 0.04558956623 2.345615283e-38
-0.03247175738 0.03452539816 0.2068833411 2.345615283e-38
-0.2660975754 0.08320921659 -0.1429186463 2.345615283e-38
-0.1786001623 0.0825951919 -0.1792798042 2.345615283e-38
-0.006382251158 0.07334160805 0.1209928393 2.345615283e-38
-0.1675286591 0.07838006318 0.007351705804 2.345507523e-38
-0.1661402136 0.08239282668 -0.1791457534 2.345507523e-38
-0.03354880586 -0.004428097513 0.2806087136 2.345507523e-38
-0.2048159689 0.07925467938 -0.005483590998 2.345507523e-38
-0.01938633993 0.06002446637 0.1703002602 2.345507523e-38
-0.08093707263 -0.04432084039 -0.1438198984 2.345507523e-38
-0.2035200894 0.08299992979 -0.179547891 2.345507523e-38
-0.2421032637 0.08012930304 -0.01831888966 2.345507523e-38
0.006467744708 -0.04520238191 -0.1677478999 2.345399623e-38
-0.03083076887 -0.0324133262 -0.1554256678 2.345399623e-38
-0.03256431967 0.03425787762 0.2193164974 2.345399623e-38
-0.2662827075 0.08267418295 -0.1180523038 2.345399623e-38
-0.1798960418 0.07884994149 -0.005215494893 2.345399623e-38
0.1255333573 -0.1826888323 0.3404404521 2.345399623e-38
-0.02135531232 -0.01734742522 0.2928847671 2.345399623e-38
0.06536518037 -0.07994120568 0.2426344007 2.345399623e-38
-0.2663752437 0.08240666986 -0.1056191549 2.345291723e-38
0.01892775111 -0.04540475085 -0.1676138639 2.345291723e-38
0.03121380694 -0.05805656314 -0.1677710116 2.345291723e-38
-0.01947890408 0.05975694582 0.1827334166 2.345291723e-38
-0.2664678097 0.08213914931 -0.0931859687 2.345291723e-38
-0.05409312248 0.0803039968 -0.1655061692 2.345291723e-38
-0.08040148765 0.07669596374 0.02072325349 2.345291723e-38
-0.1911526918 0.08253005147 -0.1669806987 2.345291723e-38
-0.2666529417 0.08160411566 -0.06831966341 2.345219836e-38
-0.09276887029 0.07716584951 0.008155994117 2.345219836e-38
-0.03239043057 0.04670731723 0.2196076959 2.345219836e-38
-0.03265688196 0.0339903608 0.2317496538 2.345219836e-38
-0.02037082613 0.02133848891 0.2315925062 2.345219836e-38
0.06789809465 -0.1084614918 -0.168533653 2.345219836e-38
-0.02072984353 0.008354012854 0.2561675906 2.345219836e-38
0.1552104056 -0.1096105576 -0.1800284684 2.345219836e-38
-0.1922634542 0.07931983471 -0.01778269745 2.345111936e-38
-0.02144787461 -0.01761494204 0.3053178787 2.345111936e-38
0.01567680947 -0.04285344109 0.292704463 2.345111936e-38
0.04384765029 -0.04580948874 -0.1673457623 2.345111936e-38
-0.05689783394 -0.09505841136 -0.1198502555 2.345111936e-38
0.1520632654 -0.1187061667 0.2426991612 2.345111936e-38
0.1273171902 -0.1058519557 0.242722258 2.345111936e-38
0.1025711894 -0.09299778193 0.2427453548 2.345111936e-38
-0.06794153899 0.07649359852 0.02085730433 2.345004176e-38
0.01831351779 -0.0830206275 -0.1560542583 2.345004176e-38
0.005892569199 0.07260420918 0.1459932476 2.345004176e-38
-0.0432067439 0.07555382699 0.04599170387 2.345004176e-38
0.1178305 -0.1090034544 -0.1804306209 2.345004176e-38
-0.006752503105 0.07227153331 0.1707255095 2.345004176e-38
0.08035809547 -0.1086638644 -0.1683996022 2.345004176e-38
-0.08021636307 0.07723099738 -0.004143112339 2.345004176e-38
-0.2411776334 0.0828044787 -0.1426505446 2.344896276e-38
-0.03409294784 -0.01794761047 0.33005023 2.344896276e-38
0.05325300992 -0.05483994633 0.2430827469 2.344896276e-38
-0.03230910003 0.05888924375 0.2323320508 2.344896276e-38
-0.254285574 0.0811342299 -0.05575243011 2.344896276e-38
0.01844514348 0.07266934961 0.1336940825 2.344896276e-38
-0.01993048191 0.04650494829 0.2197417468 2.344896276e-38
-0.03284201026 0.03345532715 0.2566159368 2.344896276e-38
0.1397771984 -0.1060543284 0.2428563088 2.344788516e-38
-0.1049511582 0.07817077637 -0.02927751653 2.344788516e-38
-0.2046308368 0.07978972048 -0.03034989908 2.344788516e-38
-0.03382649273 -0.005230650306 0.3179082274 2.344788516e-38
0.1636312902 -0.1573269516 0.2916923165 2.344788516e-38
0.005800005049 0.07233668864 0.158426404 2.344788516e-38
0.006549069658 -0.03302042931 -0.1550235301 2.344788516e-38
0.09028512985 -0.08034594357 0.2429025024 2.344788516e-38
0.1553842872 -0.09716108441 -0.1797372699 2.344680616e-38
-0.01975659281 0.05895439163 0.2200329453 2.344680616e-38
-0.005919435993 0.07467919588 0.05882700533 2.344680616e-38
0.03033311851 -0.1083894297 -0.144069463 2.344680616e-38
0.02813675441 -0.04305581003 0.2928385139 2.344680616e-38
-0.1173185408 0.07864065468 -0.04184474796 2.344680616e-38
0.1641642004 -0.1318930089 0.267408371 2.344680616e-38
-0.04172573611 0.07983411103 -0.1529389322 2.344680616e-38
-0.1546984166 0.07924775779 -0.04224689305 2.344572857e-38
-0.128945455 0.08125068992 -0.1538772732 2.344572857e-38
-0.0182868205 0.0751490891 0.04625980556 2.344572857e-38
-0.2162577063 0.08239974827 -0.142382443 2.344572857e-38
0.00570744276 0.07206916809 0.1708595604 2.344572857e-38
-0.2418255806 0.08093185723 -0.05561837927 2.344572857e-38
-0.1796183437 0.07965249568 -0.04251498729 2.344572857e-38
0.1644306481 -0.1191760525 0.2552663684 2.344572857e-38
0.03090508841 0.07246698439 0.1338281333 2.344464957e-38
-0.1296859533 0.0791105479 -0.05441195145 2.344464957e-38
-0.2415478826 0.08173441142 -0.09291787446 2.344464957e-38
-0.05529643595 0.07682625949 -0.003875017166 2.344464957e-38
-0.1047660336 0.07870581001 -0.05414385349 2.344464957e-38
0.0802655369 -0.108931385 -0.155966416 2.344464957e-38
0.139951095 -0.09360488504 0.2431475073 2.344464957e-38
0.06571295857 -0.05504231527 0.2432167977 2.344464957e-38
-0.0917506814 0.08010854572 -0.1286088228 2.344357197e-38
-0.007030192763 0.07146897912 0.2080250382 2.344357197e-38
-0.04292905331 0.07635638118 0.008692184463 2.344357197e-38
-0.07929073274 0.0799061805 -0.128474772 2.344357197e-38
-0.2289953679 0.08179956675 -0.1052170098 2.344357197e-38
0.006282618269 -0.04573741928 -0.1428815722 2.344357197e-38
0.00561487861 0.07180165499 0.1832927167 2.344357197e-38
-0.1919857711 0.0801223889 -0.05508219078 2.344357197e-38
0.0438278541 0.07360221446 0.07179635018 2.344249297e-38
-0.0202081725 0.04570239782 0.2570412159 2.344249297e-38
-0.1914303899 0.08172749728 -0.1296811998 2.344249297e-38
-0.2291804999 0.08126452565 -0.08035067469 2.344249297e-38
0.06815331429 -0.08383010328 -0.1555180699 2.344249297e-38
-0.1171334162 0.07917569578 -0.06671108305 2.344249297e-38
0.01874262653 -0.04593978822 -0.1427475214 2.344249297e-38
-0.2039829046 0.08166234195 -0.1173820645 2.344249297e-38
0.006633073092 0.07474435121 0.0465278998 2.344141397e-38
-0.03374516964 0.006951272953 0.330632627 2.344141397e-38
-0.0418182984 0.07956659049 -0.1405057907 2.344141397e-38
-0.2040754557 0.08139482886 -0.1049489155 2.344141397e-38
-0.2043531537 0.08059227467 -0.06764942408 2.344141397e-38
-0.02030073479 0.04543487728 0.2694744468 2.344141397e-38
-0.01810169406 0.07568412274 0.02139349282 2.344141397e-38
-0.02003428154 0.05815184116 0.2573323846 2.344141397e-38
0.06850109249 -0.0589311868 -0.1549356729 2.344033637e-38
-0.1669732779 0.07998517156 -0.06724727899 2.344033637e-38
-0.05437080562 0.07950144261 -0.1282066703 2.344033637e-38
