# .PCD v0.7 - Point Cloud Data file format
VERSION 0.7
FIELDS x y z rgb
SIZE 4 4 4 4
TYPE F F F F
COUNT 1 1 1 1
WIDTH 831
HEIGHT 1
VIEWPOINT 0 0 0 1 0 0 0
POINTS 831
DATA ascii
0.1790865362 -0.3569239974 -0.05154763162 6.186331949e-39
0.1760276109 -0.4154033959 -0.007310912013 6.186331949e-39
0.1630991399 -0.4170394242 -0.03130505979 6.003737154e-39
0.189539656 -0.4032849073 -0.006775598973 6.003737154e-39
0.1790394932 -0.3589463532 -0.07590012252 6.003737154e-39
0.1630756259 -0.4180505872 -0.04348132014 6.003737154e-39
0.1747664064 -0.440413028 -0.009098213166 5.820783626e-39
0.1789924651 -0.360968709 -0.1002526209 5.820783626e-39
0.2030281574 -0.3921775818 -0.01841655374 5.820783626e-39
0.1900997013 -0.3938136101 -0.04241070151 5.820783626e-39
0.1931115836 -0.3373565674 -0.1109998897 5.63818743e-39
0.1648498327 -0.3855920136 -0.1016815826 5.63818743e-39
0.1789689362 -0.361979872 -0.1124288514 5.63818743e-39
0.2072306871 -0.3137444258 -0.1217471585 5.63818743e-39
0.1728746146 -0.477927506 -0.01177917421 5.455592635e-39
0.1900526583 -0.3958359659 -0.06676317006 5.455592635e-39
0.1912433058 -0.3738598526 -0.1015046164 5.455592635e-39
0.2288146019 -0.3919390738 -0.006956979632 5.455592635e-39
0.2029576153 -0.3952111304 -0.05494528264 5.272997839e-39
0.2053624094 -0.3502477109 -0.1122518852 5.272997839e-39
0.2201121151 -0.3141307533 -0.1221055016 5.272997839e-39
0.1906127036 -0.3863646686 -0.1023982689 5.272997839e-39
0.1770771444 -0.39949435 -0.1151098087 5.090401643e-39
0.2158625573 -0.3945862651 -0.04312738776 5.090401643e-39
0.1900056303 -0.3978583217 -0.09111566097 5.090401643e-39
0.1623039097 -0.4366224706 -0.1174324229 5.090401643e-39
0.2329936028 -0.3145171106 -0.1224638447 4.907806848e-39
0.2287440449 -0.3949725926 -0.04348573089 4.907806848e-39
0.2311488539 -0.350009203 -0.1007923409 4.907806848e-39
0.2545774579 -0.3927117586 -0.007673665881 4.907806848e-39
0.1604356468 -0.4731257558 -0.1079371497 4.725212053e-39
0.2286970019 -0.3969949484 -0.06783819944 4.725212053e-39
0.1598050445 -0.4856305718 -0.1088308021 4.725212053e-39
0.2821850777 -0.3579922915 -0.03006188571 4.725212053e-39
0.2815780044 -0.3694859147 -0.0187793076 4.542257124e-39
0.2416019589 -0.3963701129 -0.05602031201 4.542257124e-39
0.2292805612 -0.3865124583 -0.0912970379 4.542257124e-39
0.1603886038 -0.4751481116 -0.1322896183 4.542257124e-39
0.2668282986 -0.4056028724 -0.008925661445 4.359662329e-39
0.2433996797 -0.3629003763 -0.1020443365 4.359662329e-39
0.244006753 -0.3514066935 -0.1133269146 4.359662329e-39
0.2821615338 -0.3590034544 -0.04223814607 4.359662329e-39
0.2286499739 -0.3990173042 -0.09219069034 4.177066133e-39
0.2815544903 -0.3704971075 -0.03095553815 4.177066133e-39
0.2803403139 -0.3934844136 -0.00839035213 4.177066133e-39
0.2950665653 -0.3583786488 -0.03042023629 4.177066133e-39
0.2674118578 -0.3951204419 -0.03238449991 3.994471337e-39
0.2544834018 -0.3967564702 -0.05637865514 3.994471337e-39
0.2415549159 -0.3983924687 -0.08037280291 3.994471337e-39
0.2427690774 -0.3754051924 -0.1029379889 3.994471337e-39
0.2286264598 -0.400028497 -0.1043669507 3.81151781e-39
0.2815309465 -0.3715082705 -0.04313179851 3.81151781e-39
0.2950430214 -0.3593898118 -0.04259649664 3.81151781e-39
0.2415314019 -0.3994036317 -0.09254903346 3.81151781e-39
0.256888181 -0.351793021 -0.1136852577 3.628921614e-39
0.2421384752 -0.3879100084 -0.1038316414 3.628921614e-39
0.2802932858 -0.3955067694 -0.03274284303 3.628921614e-39
0.2790791094 -0.4184940457 -0.01017765701 3.628921614e-39
0.2931982875 -0.3948819041 -0.02092495933 3.446326818e-39
0.2544363439 -0.398778826 -0.08073114604 3.446326818e-39
0.2950195074 -0.3604010046 -0.05477272719 3.446326818e-39
0.2710072994 -0.3281809092 -0.1244325265 3.446326818e-39
0.2839122415 -0.3275560439 -0.1126146391 3.26337189e-39
0.2820909917 -0.362037003 -0.07876687497 3.26337189e-39
0.291960597 -0.418880403 -0.01053600386 3.26337189e-39
0.269769609 -0.3521793485 -0.1140436009 3.26337189e-39
0.2820674777 -0.363048166 -0.09094310552 3.080777095e-39
0.282674551 -0.3515545428 -0.1022257134 3.080777095e-39
0.2838887274 -0.3285672367 -0.1247908697 3.080777095e-39
0.2673177719 -0.3991651535 -0.08108948916 3.080777095e-39
0.2925441563 -0.408397913 -0.0339948386 2.898180898e-39
0.2913300097 -0.4313851893 -0.01142965257 2.898180898e-39
0.2685319483 -0.3761778474 -0.1036546752 2.898180898e-39
0.2949724793 -0.3624233603 -0.07912521809 2.898180898e-39
0.2918900251 -0.4219139218 -0.04706475884 2.715227371e-39
0.2912359238 -0.4354299009 -0.06013464183 2.715227371e-39
0.3846295774 -0.3725765646 -0.02164605632 2.715227371e-39
0.3833918869 -0.3965750635 -0.01125710085 2.715227371e-39
0.2923795283 -0.4154761434 -0.1192285493 2.532632576e-39
0.396296829 -0.3959501982 0.0005607865751 2.532632576e-39
0.3846060634 -0.3735877573 -0.0338222906 2.532632576e-39
0.3827612698 -0.4090798795 -0.01215075329 2.532632576e-39
0.2899041772 -0.4634730816 -0.09845066816 2.349677647e-39
0.3833683729 -0.3975862265 -0.02343336493 2.349677647e-39
0.3821306825 -0.4215847254 -0.01304440573 2.349677647e-39
0.2911183536 -0.4404857755 -0.1210158542 2.349677647e-39
0.409178257 -0.3963365257 0.0002024434507 2.167082852e-39
0.2904877365 -0.4529905915 -0.1219095066 2.167082852e-39
0.409154743 -0.3973477185 -0.0119737871 2.167082852e-39
0.1487611234 -0.02826556005 0.215514034 2.167082852e-39
0.3851425648 -0.3651276827 -0.08163361996 1.984127923e-39
0.3943815231 -0.4344758689 -0.01429640129 1.984127923e-39
0.4091312289 -0.3983588815 -0.02415005118 1.984127923e-39
0.2898336351 -0.4665066302 -0.1349793971 1.984127923e-39
0.4220362306 -0.3977340758 -0.01233213395 1.801533128e-39
0.1352255642 -0.04139521718 0.2028024495 1.801533128e-39
0.3851190507 -0.3661388457 -0.09380985051 1.801533128e-39
0.3962027431 -0.3999949098 -0.04814419895 1.801533128e-39
0.1487375945 -0.02927674167 0.2033377439 1.618578199e-39
0.4220127165 -0.3987452388 -0.0245083943 1.618578199e-39
0.3850955367 -0.3671500385 -0.1059861109 1.618578199e-39
0.4349176586 -0.3981204033 -0.01269047707 1.618578199e-39
0.3986075521 -0.3550315201 -0.1054508016 1.435982003e-39
0.3980004787 -0.3665251732 -0.09416819364 1.435982003e-39
0.1867983937 -0.04091818631 0.2257215828 1.435982003e-39
0.3814060092 -0.4381342232 -0.0626430437 1.435982003e-39
0.3979769647 -0.367536366 -0.106344454 1.253028475e-39
0.3838343322 -0.3921596408 -0.1077734157 1.253028475e-39
0.1364397407 -0.0184079241 0.1802372932 1.253028475e-39
0.1358091384 -0.03091276623 0.1793436408 1.253028475e-39
0.3967392743 -0.3915347755 -0.09595549852 1.070432279e-39
0.1351785362 -0.04341757298 0.1784499884 1.070432279e-39
0.3832037449 -0.4046644866 -0.1086670682 1.070432279e-39
0.1861442626 -0.05443418026 0.2126516998 1.070432279e-39
0.1615955085 -0.0306742508 0.1908031702 8.874787512e-40
0.4606805146 -0.3988930583 -0.01340716332 8.874787512e-40
0.1609649062 -0.04317905754 0.1899095178 8.874787512e-40
0.4102278054 -0.3804275095 -0.1075964496 8.874787512e-40
0.4096207023 -0.391921103 -0.09631384164 7.045238224e-40
0.4477520585 -0.4005290866 -0.0374013111 7.045238224e-40
0.1364162266 -0.01941910386 0.1680610478 7.045238224e-40
0.1474293619 -0.05630872399 0.1771979928 7.045238224e-40
0.1351550221 -0.04442875087 0.1662737429 5.219290273e-40
0.174477011 -0.03106058203 0.1904448271 5.219290273e-40
0.4089901149 -0.4044259489 -0.09720749408 5.219290273e-40
0.3825496137 -0.4181804657 -0.1217369512 5.219290273e-40
0.1738464087 -0.04356539249 0.1895511746 3.389740985e-40
0.1492976546 -0.01980543509 0.1677027047 3.389740985e-40
0.3800977767 -0.4651662409 -0.08878283948 3.389740985e-40
0.4218951166 -0.4038011432 -0.08538960665 3.389740985e-40
0.4735384285 -0.4002905488 -0.0259417668 1.56020571e-40
0.1996327788 -0.04332687706 0.2010107189 1.56020571e-40
0.3819190264 -0.4306853116 -0.1226306036 1.56020571e-40
0.1731922925 -0.05708138645 0.1764813066 1.56020571e-40
0.1996092647 -0.04433805496 0.1888344884 6.490113838e-41
0.1363691837 -0.02144146524 0.1437085271 6.490113838e-41
0.1860737205 -0.0574677214 0.1761229634 6.490113838e-41
0.1492506117 -0.02182779647 0.143350184 6.490113838e-41
0.1486200094 -0.03433264047 0.1424565315 2.496469266e-40
0.1479894221 -0.04683744907 0.1415628791 2.496469266e-40
0.1995857507 -0.04534923285 0.1766582578 2.496469266e-40
0.3793966174 -0.4807045758 -0.1262052059 2.496469266e-40
0.1989551485 -0.05785404891 0.1757646203 4.340353837e-40
0.1744064391 -0.03409411758 0.1539161354 4.340353837e-40
0.1615014374 -0.03471896797 0.1420981884 4.340353837e-40
0.1731452495 -0.05910374224 0.1521288306 4.340353837e-40
0.1608708501 -0.04722377658 0.141204536 6.184224396e-40
0.1995622218 -0.04636041075 0.1644820273 6.184224396e-40
0.1989316195 -0.05886522681 0.1635883749 6.184224396e-40
0.2124436498 -0.04674673826 0.1641236842 6.184224396e-40
0.174359411 -0.03611648083 0.1295636147 8.028094954e-40
0.1860031635 -0.0605012551 0.1395941973 8.028094954e-40
0.1737288237 -0.04862128943 0.1286699623 8.028094954e-40
0.187240839 -0.03650280833 0.1292052716 8.028094954e-40
0.1866102517 -0.04900761694 0.1283116192 9.871979525e-40
0.3153692484 -0.3027132154 0.2638943195 9.871979525e-40
0.2122236043 -0.3036672771 0.2180560976 9.871979525e-40
0.1999492496 -0.2917872965 0.2071318477 9.871979525e-40
0.2123966217 -0.0487691015 0.1397711635 1.171585008e-39
0.3159763217 -0.2912195623 0.2526117563 1.171585008e-39
0.3288577199 -0.2916058898 0.2522534132 1.171585008e-39
0.3282271028 -0.3041107059 0.2513597608 1.171585008e-39
0.2109388858 -0.3296880722 0.2040925473 1.355972064e-39
-0.08226694167 -0.01450315677 0.004579126835 1.355972064e-39
-0.0700160712 -0.0273942966 0.003327131271 1.355972064e-39
-0.08541993797 -0.07702726871 0.0001108646393 1.355972064e-39
-0.07253848016 -0.07741360366 -0.0002474784851 1.540360521e-39
-0.08857293427 -0.1395513713 -0.004357397556 1.540360521e-39
-0.06940901279 -0.01590066776 -0.007955446839 1.540360521e-39
-0.08983413875 -0.1645610183 -0.006144702435 1.540360521e-39
-0.0763220787 -0.1524425149 -0.00560939312 1.724747577e-39
-0.08670465648 -0.1030481011 -0.01385267079 1.724747577e-39
-0.0725620091 -0.07842478156 -0.01242370903 1.724747577e-39
-0.09235653281 -0.2145802826 -0.009719312191 1.724747577e-39
-0.07821387053 -0.1899569631 -0.008290350437 1.909134633e-39
-0.08357517421 -0.04153516144 -0.02156066895 1.909134633e-39
-0.0885964632 -0.1405625492 -0.01653362811 1.909134633e-39
-0.07884447277 -0.2024618089 -0.009184002876 1.909134633e-39
-0.07006311417 -0.02941665612 -0.02102535963 2.09352309e-39
-0.08483637869 -0.0665447861 -0.02334797382 2.09352309e-39
-0.07508440316 -0.1284440309 -0.01599831879 2.09352309e-39
-0.08546698093 -0.0790496245 -0.02424162626 2.09352309e-39
-0.09487892687 -0.2645996213 -0.01329392195 2.277910146e-39
-0.0757150054 -0.1409488767 -0.01689197123 2.277910146e-39
-0.09048825502 -0.1780769974 -0.01921458542 2.277910146e-39
-0.08073627949 -0.239976272 -0.01186496019 2.277910146e-39
-0.08609758317 -0.09155443311 -0.0251352787 2.462297202e-39
-0.09111885726 -0.1905818135 -0.02010823786 2.462297202e-39
-0.08672817051 -0.104059279 -0.02602893114 2.462297202e-39
-0.07760679722 -0.1784633398 -0.01957292855 2.462297202e-39
-0.087989375 -0.1290688962 -0.02781623602 2.646685659e-39
-0.08422929049 -0.05505115539 -0.03463055193 2.646685659e-39
-0.09364126623 -0.2406011075 -0.02368284762 2.646685659e-39
-0.07447731495 -0.11695043 -0.0272809267 2.646685659e-39
-0.08388927579 -0.302500397 -0.01633322239 2.830713982e-39
-0.09866252542 -0.3396285474 -0.01865583658 2.830713982e-39
-0.07949860394 -0.2159778029 -0.02225388587 2.830713982e-39
-0.09427185357 -0.2531059384 -0.02457650006 2.830713982e-39
-0.08988118172 -0.166583389 -0.03049719334 3.015101038e-39
-0.08515046537 -0.3275100589 -0.01812052727 3.015101038e-39
-0.08612109721 -0.092565611 -0.03731150925 3.015101038e-39
-0.0911423713 -0.1915930063 -0.03228449821 3.015101038e-39
-0.08641166985 -0.3525197208 -0.01990783215 3.199488094e-39
-0.09616366029 -0.2906204164 -0.02725745738 3.199488094e-39
-0.08704227209 -0.365024507 -0.02080148458 3.199488094e-39
-0.0823610127 -0.01854787208 -0.04412585497 3.199488094e-39
-0.09177297354 -0.2040978521 -0.03317815065 3.383517819e-39
-0.07763031125 -0.1794745326 -0.0317491889 3.383517819e-39
-0.08299160004 -0.03105268441 -0.04501950741 3.383517819e-39
-0.09240357578 -0.2166026533 -0.03407180309 3.383517819e-39
-0.0732396394 -0.09295194596 -0.03766985238 3.567904875e-39
-0.09742484987 -0.3156300485 -0.02904476225 3.567904875e-39
-0.08328220248 -0.2910067737 -0.0276158005 3.567904875e-39
-0.08362220228 -0.04355752468 -0.04591315985 3.567904875e-39
-0.09805545211 -0.3281348944 -0.02993841469 3.75229193e-39
-0.09303417802 -0.2291074991 -0.03496545553 3.75229193e-39
-0.08864349127 -0.1425849199 -0.04088611901 3.75229193e-39
-0.09366478026 -0.2416123003 -0.03585910797 3.75229193e-39
-0.08927409351 -0.1550897211 -0.04177977145 3.936320254e-39
-0.07011014223 -0.03143901378 -0.04537785053 3.936320254e-39
-0.0942953676 -0.2541171312 -0.03675276041 3.936320254e-39
-0.08078332245 -0.2419986278 -0.0362174511 3.936320254e-39
-0.08614461124 -0.0935767889 -0.0494877696 4.120708711e-39
-0.08706580102 -0.36603567 -0.03297771513 4.120708711e-39
-0.09681777656 -0.3041364253 -0.04032737017 4.120708711e-39
-0.08893406391 -0.402538985 -0.0234824419 4.120708711e-39
-0.08238454163 -0.01955904998 -0.05630208552 4.304737034e-39
-0.09179648757 -0.20510903 -0.0453543812 4.304737034e-39
-0.09242708981 -0.2176138312 -0.04624803364 4.304737034e-39
-0.08301512897 -0.03206386417 -0.05719573796 4.304737034e-39
-0.1030767262 -0.4271622896 -0.02491140366 4.48912409e-39
-0.09934017062 -0.3541557193 -0.04390197992 4.48912409e-39
-0.08519750834 -0.3295324147 -0.04247301817 4.48912409e-39
-0.08956466615 -0.4150438309 -0.02437609434 4.48912409e-39
-0.1024696529 -0.4156686366 -0.03619398177 4.673152414e-39
-0.08929760754 -0.156100899 -0.0539560318 4.673152414e-39
-0.07013367116 -0.03245019168 -0.05755408108 4.673152414e-39
-0.09494948387 -0.2676331401 -0.0498226434 4.673152414e-39
-0.08895759284 -0.403550148 -0.03565867245 4.857539469e-39
-0.07641614974 -0.1564872414 -0.05431437492 4.857539469e-39
-0.08206802607 -0.2680194676 -0.05018098652 4.857539469e-39
-0.08679872751 -0.1070928127 -0.06255765259 4.857539469e-39
-0.08240805566 -0.02057022788 -0.06847831607 5.041567793e-39
-0.08958819509 -0.4160549939 -0.03655232489 5.041567793e-39
-0.1024931669 -0.4166798294 -0.04837024212 5.041567793e-39
-0.08805993199 -0.1321024299 -0.06434495747 5.041567793e-39
-0.0789385438 -0.2065065354 -0.05788898468 5.225597518e-39
-0.08459042013 -0.3180387318 -0.05375559628 5.225597518e-39
-0.07391726971 -0.1074791402 -0.06291599572 5.225597518e-39
0.4950788021 -0.3206267059 0.2579838634 5.225597518e-39
-0.08522102237 -0.3305435777 -0.05464924872 5.409984573e-39
-0.08429984748 -0.05808468908 -0.07115927339 5.409984573e-39
-0.1006248891 -0.3801765144 -0.05786551535 5.409984573e-39
-0.08083035052 -0.2440209836 -0.060569942 5.409984573e-39
-0.1031237692 -0.4291846454 -0.04926389456 5.594012897e-39
-0.08146093786 -0.2565258145 -0.06146359444 5.594012897e-39
-0.07078778744 -0.04596621543 -0.07062396407 5.594012897e-39
-0.0820915401 -0.2690306604 -0.06235724688 5.594012897e-39
-0.08961170912 -0.4170661867 -0.04872858524 5.77804122e-39
-0.102516681 -0.4176909924 -0.06054647267 5.77804122e-39
-0.09247413278 -0.219636187 -0.07060052454 5.77804122e-39
-0.08900462091 -0.4055725038 -0.06001116335 5.77804122e-39
-0.07833147049 -0.1950128675 -0.06917156279 5.962428276e-39
-0.08745284379 -0.1206087992 -0.07562753558 5.962428276e-39
-0.0824315697 -0.0215814095 -0.08065457642 5.962428276e-39
-0.09875659645 -0.343673259 -0.06736081839 5.962428276e-39
-0.1055991203 -0.4771815836 -0.02848601341 6.1464566e-39
-0.08808344603 -0.1331136078 -0.07652118802 6.1464566e-39
-0.08461393416 -0.3190499246 -0.06593185663 6.1464566e-39
-0.09938719869 -0.3561780751 -0.06825447083 6.1464566e-39
-0.09208706021 -0.4650630951 -0.0279507041 6.330484923e-39
-0.0852445364 -0.3315547705 -0.06682550907 6.330484923e-39
-0.1000178009 -0.3686828911 -0.06914812326 6.330484923e-39
-0.07520198822 -0.1334999353 -0.07687953115 6.330484923e-39
-0.08963522315 -0.4180773497 -0.06090481579 6.514514648e-39
-0.08085387945 -0.2450321764 -0.07274617255 6.514514648e-39
-0.09148000181 -0.453569442 -0.03923328221 6.514514648e-39
-0.08650574088 -0.3565644324 -0.06861281395 6.514514648e-39
-0.07583259046 -0.1460047811 -0.07777318358 6.698542971e-39
-0.085584566 -0.08410552144 -0.08512283862 6.698542971e-39
-0.1019095927 -0.4061973691 -0.07182908058 6.698542971e-39
-0.0908729136 -0.442075789 -0.05051589012 6.698542971e-39
-0.1037778854 -0.4427006245 -0.06233377755 6.882571295e-39
-0.08274567127 -0.2825466394 -0.07542712986 6.882571295e-39
-0.09249764681 -0.2206473649 -0.08277675509 6.882571295e-39
-0.09814952314 -0.332179606 -0.0786433965 6.882571295e-39
-0.08245508373 -0.0225925874 -0.09283080697 7.066599618e-39
-0.08965873718 -0.4190885425 -0.07308107615 7.066599618e-39
-0.09150351584 -0.4545806348 -0.05140954256 7.066599618e-39
-0.09941072762 -0.3571892381 -0.08043070138 7.066599618e-39
-0.079616189 -0.2210337073 -0.08313509822 7.250627941e-39
-0.0887375623 -0.1466296315 -0.08959110081 7.250627941e-39
-0.1044084877 -0.4552054703 -0.06322742999 7.250627941e-39
-0.09089642763 -0.443086952 -0.06269212067 7.250627941e-39
-0.1006719321 -0.3821988702 -0.08221800625 7.434656265e-39
-0.08999876678 -0.1716392785 -0.09137840569 7.434656265e-39
-0.09565064311 -0.2831715047 -0.08724501729 7.434656265e-39
-0.08715987206 -0.3700803816 -0.08168269694 7.434656265e-39
-0.09125995636 -0.1966488957 -0.09316571057 7.618684588e-39
-0.09691184759 -0.3081811368 -0.08903232217 7.618684588e-39
-0.08623868227 -0.09762150794 -0.09819272161 7.618684588e-39
-0.105039075 -0.4677102864 -0.06412108243 7.618684588e-39
-0.1056696773 -0.4802151024 -0.06501473486 7.802712912e-39
-0.1025637239 -0.4197133482 -0.08489896357 7.802712912e-39
-0.09754243493 -0.3206859529 -0.08992597461 7.802712912e-39
0.4182326198 -0.3138932884 0.1636176109 7.802712912e-39
-0.09152702987 -0.4555917978 -0.06358577311 7.986382503e-39
-0.07272662222 -0.08550303429 -0.09765741229 7.986382503e-39
-0.06959715486 -0.02399010025 -0.1053654104 7.986382503e-39
-0.09315176308 -0.2341633886 -0.09584666789 7.986382503e-39
-0.08466097713 -0.3210722804 -0.09028431773 8.170410826e-39
-0.1038249284 -0.4447229803 -0.08668626845 8.170410826e-39
-0.09276470542 -0.4795902967 -0.05319684744 8.170410826e-39
-0.09943424165 -0.3582004309 -0.09260693192 8.170410826e-39
-0.07963970304 -0.2220448852 -0.09531135857 8.35443915e-39
0.2383584082 -0.3030580878 0.08429439366 8.35443915e-39
-0.08529157937 -0.3335771263 -0.09117797017 8.35443915e-39
-0.09441295266 -0.2591730058 -0.09763397276 8.35443915e-39
-0.08939167857 -0.1601456106 -0.1026609838 8.538467473e-39
-0.105062589 -0.4687214792 -0.07629734278 8.538467473e-39
-0.09215761721 -0.4680966139 -0.06447942555 8.538467473e-39
-0.08090090752 -0.2470545322 -0.09709866345 8.538467473e-39
-0.09567415714 -0.2841826677 -0.09942127764 8.722137064e-39
-0.07587961853 -0.1480271369 -0.1021256745 8.722137064e-39
-0.08500100672 -0.07362303883 -0.1085816771 8.722137064e-39
-0.08153149486 -0.2595593333 -0.09799231589 8.722137064e-39
-0.08563160896 -0.08612787724 -0.1094753295 8.906165387e-39
0.4188396931 -0.3023996651 0.1523350328 8.906165387e-39
-0.0915505439 -0.4566029906 -0.07576203346 8.906165387e-39
-0.1019566357 -0.4082197249 -0.09618154168 8.906165387e-39
-0.08250212669 -0.02461494692 -0.1171832979 9.089834978e-39
-0.0862622112 -0.09863268584 -0.110368982 9.089834978e-39
-0.06962066889 -0.02500127815 -0.1175416559 9.089834978e-39
-0.09191407263 -0.2101649195 -0.1062355936 9.089834978e-39
0.4182090759 -0.3149044812 0.1514413804 9.273863302e-39
-0.08689279854 -0.1111375317 -0.1112626344 9.273863302e-39
-0.07777141035 -0.1855416 -0.1048066318 9.273863302e-39
-0.08342330158 -0.2970738411 -0.1006732732 9.273863302e-39
-0.09254467487 -0.2226697206 -0.107129246 9.457532893e-39
-0.07840201259 -0.1980464011 -0.1057002842 9.457532893e-39
-0.1038484424 -0.4457341731 -0.098862499 9.457532893e-39
-0.09317527711 -0.2351745665 -0.1080228984 9.457532893e-39
0.4175785184 -0.327409327 0.1505477279 9.641561216e-39
-0.08376331627 -0.04962459207 -0.1189706028 9.641561216e-39
-0.07088185847 -0.05001092702 -0.1193289608 9.641561216e-39
-0.08970578015 -0.4211108983 -0.09743353724 9.641561216e-39
-0.07401134074 -0.1115238592 -0.1116209775 9.825230807e-39
0.4575310946 -0.3015363216 0.1756124645 9.825230807e-39
0.2506092787 -0.3159492314 0.0830423981 9.825230807e-39
-0.09281173348 -0.4816126525 -0.07754933834 9.825230807e-39
0.4169479012 -0.3399141431 0.1496540755 1.000925913e-38
-0.0853150934 -0.3345882893 -0.1033542305 1.000925913e-38
-0.1057402343 -0.483248651 -0.1015434563 1.000925913e-38
-0.1000883579 -0.3717164099 -0.1056768447 1.000925913e-38
-0.07527254522 -0.136533469 -0.1134082824 1.019292872e-38
-0.105109632 -0.470743835 -0.1006498039 1.019292872e-38
-0.07214306295 -0.07502055168 -0.1211162508 1.019292872e-38
-0.09004580975 -0.1736616343 -0.1157308966 1.019292872e-38
-0.09569767118 -0.2851938605 -0.1115975082 1.037659831e-38
-0.07590314746 -0.1490383148 -0.1143019348 1.037659831e-38
-0.08155500889 -0.2605705261 -0.1101685464 1.037659831e-38
-0.09096698463 -0.4461205006 -0.09922084212 1.037659831e-38
-0.0765337497 -0.1615431309 -0.1151955873 1.056062664e-38
-0.08315622807 -0.03813093156 -0.1302531809 1.056062664e-38
-0.08628572524 -0.09964386374 -0.1225452125 1.056062664e-38
-0.07340426743 -0.1000301987 -0.1229035556 1.056062664e-38
-0.102610752 -0.4217357039 -0.1092514545 1.074429623e-38
-0.08281621337 -0.285580188 -0.1119558513 1.074429623e-38
-0.09220466018 -0.4701189697 -0.08883191645 1.074429623e-38
-0.0884680897 -0.3971123993 -0.1078224927 1.074429623e-38
-0.08691631258 -0.1121487096 -0.1234388798 1.092796582e-38
0.4955918193 -0.3131777346 0.1979963034 1.092796582e-38
-0.09256820381 -0.2236808985 -0.1193055063 1.092796582e-38
-0.08344681561 -0.2980850339 -0.1128495038 1.092796582e-38
-0.105133146 -0.471754998 -0.1128260642 1.111163541e-38
-0.08407741785 -0.3105898201 -0.1137431562 1.111163541e-38
-0.07466545701 -0.1250398457 -0.1246908754 1.111163541e-38
-0.1045025587 -0.4592501819 -0.1119324118 1.111163541e-38
-0.09159758687 -0.4586253464 -0.1001144946 1.1295305e-38
-0.08470800519 -0.3230946362 -0.1146368086 1.1295305e-38
-0.079686746 -0.224067241 -0.1196638495 1.1295305e-38
0.2493480593 -0.3409588933 0.08125509322 1.1295305e-38
-0.07529605925 -0.1375446469 -0.1255845129 1.147897319e-38
0.4820563197 -0.3263074458 0.1852847636 1.147897319e-38
-0.09445999563 -0.2611953914 -0.1219864637 1.147897319e-38
-0.09099049866 -0.4471316636 -0.1113971025 1.147897319e-38
-0.09509059787 -0.2737002373 -0.1228801161 1.166264278e-38
-0.08596920967 -0.3481042981 -0.1164241135 1.166264278e-38
-0.07592666149 -0.1500494927 -0.1264781803 1.166264278e-38
0.4691513181 -0.3269322813 0.1734668165 1.166264278e-38
-0.08094795048 -0.249076888 -0.1214511544 1.184631237e-38
-0.08157853782 -0.2615817189 -0.1223448068 1.184631237e-38
-0.1020036638 -0.4102420807 -0.1205340326 1.184631237e-38
-0.09133051336 -0.1996824294 -0.129694432 1.184631237e-38
-0.07718786597 -0.1750591397 -0.1282654852 1.202998196e-38
-0.0828397423 -0.2865913808 -0.1241321117 1.202998196e-38
-0.07468897104 -0.1260510236 -0.136867106 1.202998196e-38
-0.1058107913 -0.4862821996 -0.1380722076 1.202998196e-38
-0.09225168824 -0.4721413255 -0.1131844074 1.221365155e-38
-0.09761299193 -0.3237195015 -0.1264547259 1.221365155e-38
-0.07781845331 -0.1875639558 -0.1291591376 1.221365155e-38
-0.07844905555 -0.2000687569 -0.1300527751 1.221365155e-38
-0.07531957328 -0.1385558248 -0.1377607584 1.239732115e-38
-0.08410094678 -0.3116010129 -0.1259194165 1.239732115e-38
-0.08570215106 -0.08916141093 -0.1460040659 1.239732115e-38
-0.08975280821 -0.4231332541 -0.1217860281 1.239732115e-38
-0.09887419641 -0.3487291634 -0.1282420307 1.258099074e-38
-0.07907965779 -0.2125736028 -0.1309464425 1.258099074e-38
-0.08883163333 -0.1506743431 -0.1382960677 1.258099074e-38
-0.07971026003 -0.2250784189 -0.1318400949 1.258099074e-38
-0.09290580451 -0.4856573641 -0.1262542903 1.276466033e-38
-0.08383387327 -0.05265813321 -0.1554993391 1.276466033e-38
-0.08034086227 -0.2375832498 -0.1327337474 1.276466033e-38
-0.07095241547 -0.05304446816 -0.1558576822 1.276466033e-38
-0.09227520227 -0.4731525183 -0.1253606379 1.294832852e-38
0.4691277742 -0.3279434443 0.161290586 1.294832852e-38
-0.1007660031 -0.3862436116 -0.1309229881 1.294832852e-38
-0.08097146451 -0.2500880957 -0.1336273998 1.294832852e-38
-0.1058343053 -0.4872933626 -0.150248453 1.313163938e-38
-0.07721138 -0.1760703176 -0.1404417157 1.313163938e-38
0.5090803504 -0.3020704389 0.1863553822 1.313163938e-38
-0.1045496017 -0.4612725675 -0.1362849027 1.313163938e-38
-0.07221361995 -0.07805408537 -0.1576449871 1.331530897e-38
-0.09135402739 -0.2006936073 -0.1418706626 1.331530897e-38
-0.08822454512 -0.1391806751 -0.1495786607 1.331530897e-38
-0.09292933345 -0.4866685569 -0.1384305507 1.331530897e-38
-0.102657795 -0.4237580895 -0.1336039454 1.349897856e-38
-0.07847256958 -0.2010799348 -0.1422290206 1.349897856e-38
-0.07284422219 -0.09055892378 -0.1585386395 1.349897856e-38
-0.07597368956 -0.1520718485 -0.1508306712 1.349897856e-38
-0.08349385858 -0.3001073897 -0.1372020096 1.368228942e-38
-0.08635628223 -0.1026773974 -0.1590739489 1.368228942e-38
-0.1039189994 -0.4487677217 -0.1353912503 1.368228942e-38
-0.0766042918 -0.1645766646 -0.1517243236 1.368228942e-38
-0.08977633715 -0.4241444468 -0.1339622885 1.386595901e-38
-0.09011635184 -0.176695168 -0.1522596329 1.386595901e-38
-0.08761747181 -0.1276870519 -0.1608612537 1.386595901e-38
-0.07473601401 -0.1280733794 -0.1612195969 1.386595901e-38
-0.09074693918 -0.1891999692 -0.1531532854 1.404926846e-38
-0.07786548138 -0.1895863116 -0.1535116285 1.404926846e-38
0.4967824817 -0.2912016511 0.1632548571 1.404926846e-38
-0.08664685488 -0.3626314998 -0.1416702718 1.404926846e-38
-0.09576822817 -0.2882274091 -0.1481262296 1.423293806e-38
-0.09639883041 -0.3007322252 -0.149019897 1.423293806e-38
-0.08727745712 -0.375136286 -0.1425639242 1.423293806e-38
-0.1020507067 -0.4122644365 -0.1448865235 1.423293806e-38
-0.1052272171 -0.4757997394 -0.1615310162 1.441624891e-38
-0.08288677037 -0.2886137366 -0.1484845877 1.441624891e-38
-0.0926387459 -0.2267144322 -0.1558342427 1.441624891e-38
-0.0885386467 -0.4001459479 -0.1443512291 1.441624891e-38
0.4703419209 -0.3049561679 0.1387254298 1.459991851e-38
-0.08351737261 -0.3011185825 -0.1493782401 1.459991851e-38
-0.09013988078 -0.1777063459 -0.1644358635 1.459991851e-38
0.4948906898 -0.3287161291 0.1605738997 1.459991851e-38
-0.09892122447 -0.3507515192 -0.1525944918 1.478322936e-38
0.4697113037 -0.3174609542 0.1378317773 1.478322936e-38
-0.07788901031 -0.1905974895 -0.1656878591 1.478322936e-38
-0.09043045342 -0.4376603961 -0.1470321864 1.478322936e-38
-0.08540916443 -0.3386330307 -0.1520591974 1.496689755e-38
-0.09140107036 -0.2027159631 -0.1662231684 1.496689755e-38
-0.09234575927 -0.4761860669 -0.1618893743 1.496689755e-38
-0.07851961255 -0.2031022906 -0.1665815115 1.496689755e-38
-0.08227968216 -0.2771200836 -0.1597671956 1.515020841e-38
-0.1052507311 -0.4768109024 -0.1737072766 1.515020841e-38
-0.0829102844 -0.2896248996 -0.160660848 1.515020841e-38
0.4832234383 -0.3053424954 0.1383670866 1.515020841e-38
-0.1039660275 -0.4507900774 -0.1597437114 1.533351927e-38
-0.09705294669 -0.3142482042 -0.1620898098 1.533351927e-38
-0.09329287708 -0.240230456 -0.1689041257 1.533351927e-38
-0.09171517193 -0.4636812508 -0.1609957218 1.533351927e-38
0.4825928211 -0.3178473115 0.1374734342 1.551683013e-38
-0.08417148888 -0.3146345317 -0.1624481529 1.551683013e-38
-0.1046201438 -0.4643060863 -0.172813639 1.551683013e-38
-0.0923692733 -0.4771972299 -0.1740656346 1.551683013e-38
-0.09455406666 -0.265240103 -0.1706914306 1.570049832e-38
-0.08982336521 -0.4261668026 -0.1583147645 1.570049832e-38
-0.09894473851 -0.3517626822 -0.1647707522 1.570049832e-38
-0.09957534075 -0.3642674983 -0.1656644195 1.570049832e-38
-0.100205943 -0.3767723143 -0.166558072 1.588380918e-38
-0.09302340448 -0.4907132685 -0.1871355027 1.588380918e-38
-0.09581527114 -0.2902497649 -0.1724787354 1.588380918e-38
-0.1039895415 -0.4518012404 -0.1719199717 1.588380918e-38
-0.09173868597 -0.4646924138 -0.1731719822 1.606712004e-38
-0.08795508742 -0.3896634579 -0.1678100675 1.606712004e-38
-0.09707647562 -0.315259397 -0.1742660403 1.606712004e-38
0.4954742193 -0.318233639 0.1371150911 1.606712004e-38
0.5077486038 -0.3301136494 0.1480393112 1.625043089e-38
-0.08482560515 -0.3281505406 -0.1755180359 1.625043089e-38
-0.09896826744 -0.352773875 -0.1769469976 1.625043089e-38
-0.08545620739 -0.3406553864 -0.1764116883 1.625043089e-38
-0.09047748148 -0.4396827519 -0.1713846773 1.643374035e-38
-0.08608680964 -0.3531602025 -0.1773053408 1.643374035e-38
-0.0917622149 -0.4657036066 -0.1853482127 1.643374035e-38
-0.1008600742 -0.3902883232 -0.179627955 1.643374035e-38
0.5083556771 -0.3186199665 0.136756748 1.661705121e-38
-0.08797861636 -0.3906746507 -0.1799862981 1.661705121e-38
-0.1033824682 -0.4403076172 -0.1832025647 1.661705121e-38
-0.09113161266 -0.4531987607 -0.1844545603 1.661705121e-38
-0.08987040818 -0.4281891584 -0.1826672554 1.680036207e-38
0.4830822945 -0.3114095628 0.06530962884 1.680036207e-38
0.1025201306 -0.4784913361 0.201936394 1.680036207e-38
0.1037813351 -0.4534816742 0.2037236989 1.680036207e-38
0.1044119298 -0.4409768879 0.2046173513 1.698367293e-38
0.1056731343 -0.415967226 0.2064046562 1.698367293e-38
0.1018660218 -0.4920073748 0.188866511 1.698367293e-38
0.115401566 -0.4788776636 0.2015780509 1.698367293e-38
0.1075649261 -0.3784527779 0.2090856135 1.716698239e-38
0.1160321534 -0.4663728476 0.2024717033 1.716698239e-38
0.1043884158 -0.4419880807 0.1924411207 1.716698239e-38
0.1166627556 -0.4538680315 0.2033653557 1.716698239e-38
0.1185545623 -0.4163535535 0.206046313 1.735029324e-38
0.1191851646 -0.4038487375 0.2069399655 1.735029324e-38
0.1282830536 -0.4792639911 0.2012197077 1.735029324e-38
0.1094567329 -0.3409382999 0.2117665708 1.735029324e-38
0.1049954966 -0.4304944277 0.1811585426 1.75336041e-38
0.1075414121 -0.3794639707 0.1969093829 1.75336041e-38
0.102449581 -0.4815248847 0.1654076427 1.75336041e-38
0.1147239357 -0.4934048653 0.1763319373 1.75336041e-38
0.1210769564 -0.3663342893 0.2096209228 1.771655483e-38
0.1288901269 -0.4677703977 0.1899371147 1.771655483e-38
0.1166157275 -0.4558903873 0.1790128946 1.771655483e-38
0.1217075586 -0.3538294435 0.2105145752 1.771655483e-38
0.1223381609 -0.3413246274 0.2114082277 1.789986569e-38
0.1068872958 -0.3929799199 0.1838395 1.789986569e-38
0.1094332039 -0.3419494927 0.1995903403 1.789986569e-38
0.1147004068 -0.4944160581 0.1641556472 1.789986569e-38
0.1307819337 -0.4302559197 0.192618072 1.808317654e-38
0.1276054233 -0.4937911928 0.1759735793 1.808317654e-38
0.115331009 -0.4819112122 0.1650492996 1.808317654e-38
0.1081484929 -0.3679703176 0.1856268048 1.808317654e-38
0.1275818944 -0.4948023856 0.1637972891 1.826612727e-38
0.1352196485 -0.3417109847 0.2110498846 1.826612727e-38
0.1172228009 -0.444396764 0.1677302569 1.826612727e-38
0.1223146468 -0.3423358202 0.1992319971 1.826612727e-38
0.1068637818 -0.3939911127 0.1716632098 1.844943813e-38
0.1094096899 -0.3429606557 0.1874141097 1.844943813e-38
0.1178534031 -0.431891948 0.1686239094 1.844943813e-38
0.1074943766 -0.3814863265 0.1725568622 1.844943813e-38
0.128843084 -0.4697927535 0.165584594 1.863274899e-38
0.1313890219 -0.4187622368 0.1813355088 1.863274899e-38
0.1294736862 -0.4572879076 0.1664782614 1.863274899e-38
0.1320196241 -0.4062574506 0.1822291464 1.863274899e-38
0.1197451949 -0.39437747 0.1713048667 1.881569971e-38
0.1093861759 -0.3439718485 0.1752378196 1.881569971e-38
0.1597213149 -0.3674932718 0.2085458785 1.881569971e-38
0.1339114159 -0.3687429726 0.1849101037 1.881569971e-38
0.1603519171 -0.3549884558 0.2094395459 1.899901057e-38
0.1319960952 -0.4072686434 0.1700528562 1.899901057e-38
0.1087320596 -0.3574878275 0.1621679366 1.899901057e-38
0.1326266825 -0.3947637975 0.1709465235 1.899901057e-38
0.1351726204 -0.3437333405 0.1866974086 1.91819627e-38
0.1093626618 -0.3449830115 0.163061589 1.91819627e-38
0.1074473411 -0.3835086823 0.1482044011 1.91819627e-38
0.1596978009 -0.3685044646 0.196369648 1.91819627e-38
0.1209828854 -0.3703790009 0.160915941 1.936527215e-38
0.1719486266 -0.3813956082 0.1951176524 1.936527215e-38
0.1093391329 -0.3459942043 0.1508853585 1.936527215e-38
0.1854841709 -0.3682659566 0.2078291923 1.936527215e-38
0.1725792289 -0.3688908219 0.1960113049 1.954822428e-38
0.1074238196 -0.3845198452 0.1360281557 1.954822428e-38
0.1861147732 -0.3557611108 0.2087228596 1.954822428e-38
0.1732098311 -0.3563859761 0.1969049722 1.954822428e-38
0.1738404334 -0.34388116 0.1977986246 1.973153514e-38
0.1086850241 -0.3595101833 0.1378154606 1.973153514e-38
0.1203052551 -0.3849061728 0.1356698126 1.973153514e-38
0.1989962608 -0.3561474383 0.2083645016 1.973153514e-38
0.1860912591 -0.3567723036 0.1965466291 1.991448586e-38
0.1209358573 -0.3724013567 0.136563465 1.991448586e-38
0.1738169193 -0.344892323 0.1856223792 1.991448586e-38
0.1977115422 -0.382168293 0.1944009662 1.991448586e-38
0.1073767841 -0.3865422308 0.111675635 2.009743799e-38
0.1989727467 -0.3571586311 0.196188271 2.009743799e-38
0.1209123284 -0.3734125495 0.1243872344 2.009743799e-38
0.1080073863 -0.3740374148 0.1125692874 2.009743799e-38
0.199603349 -0.344653815 0.1970819235 2.028074885e-38
0.1866983473 -0.3452786505 0.1852640361 2.028074885e-38
0.1215429306 -0.3609077036 0.1252808869 2.028074885e-38
0.1737933904 -0.3459035158 0.1734461039 2.028074885e-38
0.2105929703 -0.3825546205 0.194042623 2.046369957e-38
0.1479834914 -0.3471532166 0.1498103142 2.046369957e-38
0.1350785494 -0.3477780521 0.1379924268 2.046369957e-38
0.1221735328 -0.3484028876 0.1261745393 2.046369957e-38
0.1092685834 -0.3490277529 0.1143565923 2.06466517e-38
0.2112235725 -0.3700498044 0.1949362755 2.06466517e-38
0.2247591168 -0.3569200933 0.2076478153 2.06466517e-38
0.2118541747 -0.3575449586 0.1958299279 2.06466517e-38
0.212484777 -0.3450401425 0.1967235804 2.082996116e-38
0.1215194166 -0.3619188964 0.1131045967 2.082996116e-38
0.1737698764 -0.3469146788 0.1612698585 2.082996116e-38
0.2234743983 -0.382940948 0.1936842799 2.082996116e-38
0.1608649343 -0.3475395441 0.1494519711 2.101291328e-38
0.1479599774 -0.3481643796 0.1376340836 2.101291328e-38
0.1350550205 -0.3487892449 0.1258161962 2.101291328e-38
0.1221500188 -0.3494140804 0.1139982492 2.101291328e-38
0.2241050005 -0.370436132 0.1945779324 2.119586541e-38
0.1092450693 -0.3500389159 0.1021803617 2.119586541e-38
0.1202346981 -0.3879397213 0.09914106131 2.119586541e-38
0.1073297486 -0.3885645866 0.08732317388 2.119586541e-38
0.1866513044 -0.3473010063 0.1609115154 2.137881613e-38
0.1085909531 -0.3635549247 0.08911047876 2.137881613e-38
0.1608414203 -0.3485507071 0.1372757405 2.137881613e-38
0.2498913854 -0.3701975942 0.2060374767 2.137881613e-38
0.2492607981 -0.3827024102 0.2051438242 2.156176826e-38
0.2505219579 -0.3576927781 0.2069311291 2.156176826e-38
0.2376170009 -0.3583176136 0.1951132417 2.156176826e-38
0.1208417863 -0.3764460981 0.0878584832 2.156176826e-38
0.2382476181 -0.3458128273 0.1960068941 2.174471899e-38
0.199532792 -0.3476873338 0.1605531722 2.174471899e-38
0.1737228483 -0.3489370346 0.1369173974 2.174471899e-38
0.108567439 -0.3645660877 0.07693424821 2.174471899e-38
0.1608178914 -0.3495618999 0.12509951 2.192767111e-38
0.1479129344 -0.3501867652 0.1132815629 2.192767111e-38
0.1091980338 -0.3520612717 0.07782790065 2.192767111e-38
0.250498414 -0.3587039709 0.1947548985 2.192767111e-38
0.225319162 -0.3474488556 0.1720127165 2.211062324e-38
0.1866042763 -0.3493233621 0.1365590543 2.211062324e-38
0.1736993194 -0.3499482274 0.1247411668 2.211062324e-38
0.1085439175 -0.3655772805 0.06475801766 2.211062324e-38
0.1220794618 -0.3524475992 0.07746955752 2.229357396e-38
0.262118727 -0.3840999305 0.1926092505 2.229357396e-38
0.2769154906 -0.3459606171 0.2071080953 2.229357396e-38
0.2750236988 -0.383475095 0.204427138 2.229357396e-38
0.1994857639 -0.3497096896 0.1362007111 2.247652609e-38
0.1865807474 -0.3503345549 0.1243828237 2.247652609e-38
0.1214253455 -0.365963608 0.06439967453 2.247652609e-38
0.1736758053 -0.3509594202 0.1125648767 2.247652609e-38
0.1220559478 -0.353458792 0.06529332697 2.265947681e-38
0.1015132517 -0.5071750879 0.006222854368 2.265947681e-38
0.1021438465 -0.4946702123 0.007116506808 2.265947681e-38
0.1072356775 -0.3926092982 0.03861818835 2.265947681e-38
0.1034050509 -0.4696605504 0.008903811686 2.284242894e-38
0.1607473493 -0.3525954485 0.0885707587 2.284242894e-38
0.1478423774 -0.353220284 0.07675287127 2.284242894e-38
0.1091274768 -0.3550948203 0.04129914567 2.284242894e-38
0.2768684328 -0.3479829729 0.1827556342 2.302537966e-38
0.2639634907 -0.3486078382 0.1709376872 2.302537966e-38
0.2897733748 -0.3473581374 0.1945735216 2.302537966e-38
0.1052968502 -0.4321461022 0.011584769 2.302537966e-38
0.2252486199 -0.3504823744 0.1354840249 2.320833179e-38
0.1994387209 -0.3517320752 0.1118481904 2.320833179e-38
0.108473368 -0.3686107993 0.02822926268 2.320833179e-38
0.1478188634 -0.3542314768 0.06457664073 2.320833179e-38
0.1272761673 -0.5079477429 0.005506164394 2.339092378e-38
0.1349139214 -0.3548563123 0.05275868997 2.339092378e-38
0.3014171422 -0.371742934 0.2046041042 2.339092378e-38
0.1220089197 -0.3554811478 0.04094080254 2.339092378e-38
0.1065580472 -0.4071364403 0.01337207295 2.348204041e-38
0.2897498608 -0.3483693004 0.1823972911 2.348204041e-38
0.2639399767 -0.3496190012 0.1587614566 2.348204041e-38
0.1207241863 -0.3815019727 0.02697726712 2.348204041e-38
0.1078192443 -0.382126838 0.01515937783 2.348132155e-38
0.2123201489 -0.3521184027 0.1114898473 2.348132155e-38
0.1994152069 -0.3527432382 0.09967195988 2.348132155e-38
0.1291679591 -0.4704332352 0.008187125437 2.348132155e-38
0.3013935983 -0.3727541268 0.1924278736 2.348060128e-38
0.105903931 -0.4206524491 0.0003021894954 2.348060128e-38
0.1607003063 -0.3546178043 0.0642182976 2.348060128e-38
0.1348904073 -0.3558675051 0.04058245942 2.348060128e-38
0.1194394678 -0.4075227976 0.01301372983 2.347952368e-38
0.1219853908 -0.3564923108 0.02876457199 2.347952368e-38
0.1065345332 -0.4081476033 0.001195841935 2.347952368e-38
0.1090804413 -0.3571171761 0.01694668271 2.347952368e-38
0.1278832555 -0.4964540303 -0.005776410922 2.347880341e-38
0.1304291636 -0.4454236031 0.00997442659 2.347880341e-38
0.107165128 -0.395642817 0.002089494374 2.347880341e-38
0.2639164627 -0.3506301939 0.1465852261 2.347880341e-38
0.2381065339 -0.3518798947 0.1229494512 2.347808455e-38
0.1027038991 -0.485198915 -0.02851859294 2.347808455e-38
0.1864866763 -0.3543792665 0.0756778419 2.347808455e-38
0.1058804095 -0.4216636419 -0.01187410019 2.347808455e-38
0.1297750473 -0.4589395821 -0.003095457563 2.347700555e-38
0.1348668784 -0.3568786681 0.02840622887 2.347700555e-38
0.3149056137 -0.3606356084 0.1929631829 2.347700555e-38
0.1304056495 -0.4464347661 -0.002201805124 2.347700555e-38
0.3278106451 -0.3600107729 0.2047810704 2.347628668e-38
0.1155853122 -0.4855852425 -0.02887693606 2.347628668e-38
0.2380830199 -0.3528910875 0.1107731611 2.347628668e-38
0.3265494704 -0.3850204051 0.2029937655 2.347628668e-38
0.2251780629 -0.353515923 0.09895527363 2.347520768e-38
0.108402811 -0.3716443479 -0.008299490437 2.347520768e-38
0.1272056103 -0.5109812617 -0.03102258779 2.347520768e-38
0.1322974414 -0.4089202881 0.0004791556858 2.347520768e-38
0.1090334058 -0.3591395319 -0.007405837998 2.347448882e-38
0.3284177184 -0.3485171497 0.1934984922 2.347448882e-38
0.1329280436 -0.396415472 0.0013728044 2.347448882e-38
0.3277871013 -0.3610219657 0.1926048398 2.347448882e-38
0.3271565139 -0.3735267818 0.1917111874 2.347340982e-38
0.2896793187 -0.351402849 0.1458685398 2.347340982e-38
0.3265259266 -0.3860315979 0.1908175349 2.347340982e-38
0.2767743766 -0.3520276845 0.1340506524 2.347340982e-38
0.2638694346 -0.3526525497 0.122232765 2.347269095e-38
0.3154892027 -0.350153178 0.1695043147 2.347269095e-38
0.3413226902 -0.3478922844 0.2053163797 2.347269095e-38
0.1290974021 -0.473466754 -0.02834162675 2.347269095e-38
0.1864396483 -0.3564016223 0.05132531747 2.347161195e-38
0.1193689108 -0.4105563164 -0.02351502143 2.347161195e-38
0.3154656887 -0.351164341 0.1573280841 2.347161195e-38
0.2638459206 -0.3536637425 0.1100564748 2.347161195e-38
0.2509408891 -0.354288578 0.09823858738 2.347089308e-38
0.1206301153 -0.3855466843 -0.02172771655 2.347089308e-38
0.238035962 -0.3549134433 0.08642069995 2.347089308e-38
0.3400379419 -0.3739131093 0.1913528442 2.347089308e-38
0.2122260779 -0.3561631143 0.0627849251 2.346981408e-38
0.3283706903 -0.3505395055 0.1691459715 2.346981408e-38
0.1212607175 -0.3730418384 -0.02083406411 2.346981408e-38
0.1606062353 -0.3586625159 0.01551330835 2.346981408e-38
0.1477012783 -0.3592873514 0.003695420455 2.346909522e-38
0.3542041481 -0.3482786119 0.2049580365 2.346909522e-38
0.3535735309 -0.360783428 0.2040643841 2.346909522e-38
0.1347963363 -0.3599122167 -0.008122526109 2.346909522e-38
0.3529429436 -0.3732882738 0.2031707317 2.346801622e-38
0.1218913198 -0.3605370224 -0.01994041167 2.346801622e-38
0.1457859576 -0.3978129923 -0.01116182841 2.346801622e-38
0.2896322906 -0.3534252048 0.1215160787 2.346801622e-38
0.1464165598 -0.3853081763 -0.01026817411 2.346693862e-38
0.2638223767 -0.3546749055 0.09788024426 2.346693862e-38
0.238012448 -0.3559246063 0.0742444694 2.346693862e-38
0.2251075059 -0.3565494716 0.06242657825 2.346693862e-38
0.2122025639 -0.3571742773 0.05060863122 2.346621835e-38
0.3541806042 -0.3492898047 0.192781806 2.346621835e-38
0.3535499871 -0.3617946208 0.1918881536 2.346621835e-38
0.1863926053 -0.3584239781 0.02697285451 2.346621835e-38
0.3529193997 -0.3742994666 0.1909945011 2.346514075e-38
0.3522888124 -0.3868042529 0.1901008487 2.346514075e-38
0.1476777643 -0.3602985442 -0.008480869234 2.346514075e-38
0.1457624286 -0.3988241553 -0.02333805896 2.346514075e-38
0.3670855761 -0.3486649394 0.2045996934 2.346406175e-38
0.1592980027 -0.3856945038 -0.0106265191 2.346406175e-38
0.1463930309 -0.3863193393 -0.02244440466 2.346406175e-38
0.2121790498 -0.3581854701 0.03843239695 2.346406175e-38
0.1992740929 -0.3588103056 0.02661450952 2.346334289e-38
0.1863690913 -0.3594351709 0.0147966221 2.346334289e-38
0.1734641492 -0.3600600064 0.002978734206 2.346334289e-38
0.1605592072 -0.3606848717 -0.008839212358 2.346334289e-38
0.1476542354 -0.3613097072 -0.02065709978 2.346226389e-38
0.3670620322 -0.3496761322 0.1924234629 2.346226389e-38
0.1715488285 -0.3985856473 -0.01187851466 2.346226389e-38
0.3283001482 -0.3535730243 0.1326172799 2.346226389e-38
0.3024902046 -0.3548227251 0.1089814454 2.346118629e-38
0.1721794307 -0.3860808611 -0.01098486222 2.346118629e-38
0.1592744738 -0.3867056668 -0.02280274965 2.346118629e-38
0.2250604779 -0.3585718274 0.03807405382 2.346118629e-38
0.1844302565 -0.3989719748 -0.01223685779 2.346010729e-38
0.3799434602 -0.3500624597 0.1920651197 2.346010729e-38
0.3024666607 -0.3558338881 0.09680521488 2.346010729e-38
0.3786822557 -0.3750721216 0.1902778149 2.346010729e-38
0.1721559018 -0.3870920241 -0.02316109277 2.345938842e-38
0.3411815763 -0.3539593518 0.1322589368 2.345938842e-38
0.3780516684 -0.3875769377 0.1893841624 2.345938842e-38
0.2637518346 -0.3577084541 0.06135154143 2.345938842e-38
0.185691461 -0.3739623427 -0.01044955105 2.345830942e-38
0.2379419059 -0.3589581549 0.0377157107 2.345830942e-38
0.2250369489 -0.3595829904 0.02589782327 2.345830942e-38
0.3922178745 -0.3619424105 0.2029893547 2.345830942e-38
0.1973117441 -0.3993583322 -0.01259520091 2.345723183e-38
0.3024431467 -0.3568450809 0.08462898433 2.345723183e-38
0.2895382047 -0.3574699163 0.07281108201 2.345723183e-38
0.3540630341 -0.3543456793 0.1319005936 2.345723183e-38
0.2250134349 -0.3605941832 0.01372159086 2.345615283e-38
0.2101931721 -0.3997446597 -0.01295354404 2.345615283e-38
0.1972882152 -0.4003694952 -0.02477143146 2.345615283e-38
0.4044687152 -0.3748335838 0.2017373592 2.345615283e-38
0.3411345482 -0.3559817374 0.1079064161 2.345507523e-38
0.3153245747 -0.3572314382 0.08427064121 2.345507523e-38
0.2507998049 -0.3603556454 0.02518113703 2.345507523e-38
0.3798729181 -0.3530959785 0.1555363685 2.345507523e-38
0.2378948778 -0.3609805107 0.01336324774 2.345399623e-38
0.2120849788 -0.3622301817 -0.01027258672 2.345399623e-38
0.2230746001 -0.4001309872 -0.01331188716 2.345399623e-38
0.2101696432 -0.4007558227 -0.02512977459 2.345399623e-38
0.3927779198 -0.3524711728 0.1673542559 2.345291723e-38
0.2237052023 -0.3876261711 -0.01241823472 2.345291723e-38
0.354016006 -0.3563680649 0.1075480729 2.345291723e-38
0.2108002454 -0.3882510066 -0.02423612215 2.345291723e-38
0.4179807305 -0.3627150953 0.2022726685 2.345219836e-38
0.2894911766 -0.3594922721 0.04845856875 2.345219836e-38
0.2243358046 -0.3751213253 -0.01152458228 2.345219836e-38
0.2765862346 -0.3601171374 0.0366406776 2.345219836e-38
0.2114308476 -0.3757461607 -0.02334246971 2.345111936e-38
0.2636812925 -0.3607419729 0.02482279018 2.345111936e-38
0.237871334 -0.3619916737 0.001187016722 2.345111936e-38
0.2249664068 -0.362616539 -0.01063092984 2.345111936e-38
0.2230510712 -0.4011421502 -0.02548811771 2.345004176e-38
0.2365866154 -0.3880124986 -0.01277657785 2.345004176e-38
0.2236816734 -0.3886373341 -0.02459446527 2.345004176e-38
0.4056593478 -0.3528575003 0.1669959128 2.345004176e-38
0.3023726046 -0.3598785996 0.04810022563 2.344896276e-38
0.4314927757 -0.3505966067 0.2028079778 2.344896276e-38
0.4308621585 -0.3631014228 0.2019143254 2.344896276e-38
0.2507527471 -0.3623780012 0.0008286735974 2.344896276e-38
0.4185642898 -0.352232635 0.1788138598 2.344788516e-38
0.2359325141 -0.4015284777 -0.02584646083 2.344788516e-38
0.4056358337 -0.3538686633 0.1548196822 2.344788516e-38
0.2365631014 -0.3890236616 -0.0249528084 2.344788516e-38
0.3668738902 -0.3577655554 0.09501349926 2.344680616e-38
0.4314692318 -0.3516077995 0.1906317472 2.344680616e-38
0.2765392065 -0.3621394932 0.01228821464 2.344680616e-38
0.4185407758 -0.3532438278 0.1666375697 2.344680616e-38
0.4443742037 -0.3509829342 0.2024496347 2.344572857e-38
0.4437435865 -0.3634877503 0.2015559822 2.344572857e-38
0.3668503761 -0.3587767482 0.08283726871 2.344572857e-38
0.2494445294 -0.3894099891 -0.02531115152 2.344572857e-38
0.3539454341 -0.3594015837 0.07101936638 2.344464957e-38
0.3281355202 -0.3606512845 0.04738353938 2.344464957e-38
0.2629801035 -0.3762803376 -0.01259961165 2.344464957e-38
0.3152305186 -0.3612761497 0.03556564823 2.344464957e-38
0.4185172617 -0.3542549908 0.1544613391 2.344357197e-38
0.2636107206 -0.3637755215 -0.01170596294 2.344357197e-38
0.4055888057 -0.3558910191 0.1304672211 2.344357197e-38
0.4314222038 -0.3536301553 0.1662792265 2.344357197e-38
0.2752309442 -0.3891715109 -0.01385161094 2.344249297e-38
0.4572556913 -0.3513692617 0.2020912915 2.344249297e-38
0.3668268621 -0.3597879112 0.07066102326 2.344249297e-38
0.2629565895 -0.3772915006 -0.0247758422 2.344249297e-38
0.4443271458 -0.35300529 0.1780971736 2.344141397e-38
0.2893970907 -0.3635369837 -0.0002463592682 2.344141397e-38
0.2874817848 -0.4020626545 -0.01510360278 2.344141397e-38
0.4566015303 -0.3648852706 0.1890214086 2.344141397e-38
0.3797082901 -0.3601742387 0.07030268013 2.344033637e-38
0.3280884922 -0.3626736403 0.02303107455 2.344033637e-38
0.3151834905 -0.3632985055 0.0112131862 2.344033637e-38
0.2893735766 -0.3645481765 -0.01242264919 2.344033637e-38
0.2874582708 -0.4030738175 -0.02727983333 2.343925737e-38
0.4184467196 -0.3572885394 0.1179326326 2.343925737e-38
0.366779834 -0.361810267 0.04630851001 2.343925737e-38
0.3280649781 -0.363684833 0.01085484307 2.343925737e-38
0.4571851194 -0.3544028103 0.1655625403 2.343817977e-38
0.3022550046 -0.364934504 -0.01278099231 2.343817977e-38
0.2893500626 -0.3655593395 -0.02459887974 2.343817977e-38
0.4442566037 -0.3560388386 0.1415684223 2.343817977e-38
0.4313281476 -0.3576748669 0.1175742894 2.343710077e-38
