# .PCD v0.7 - Point Cloud Data file format
VERSION 0.7
FIELDS x y z rgb
SIZE 4 4 4 4
TYPE F F F F
COUNT 1 1 1 1
WIDTH 835
HEIGHT 1
VIEWPOINT 0 0 0 1 0 0 0
POINTS 835
DATA ascii
-0.1340098679 -0.3744016886 -0.2714693546 1.092796582e-38
0.09862646461 -0.7187353373 -0.2276919037 1.092796582e-38
0.08607624471 -0.516530931 -0.01975989342 1.092796582e-38
0.2314457446 -0.6764317155 -0.4892469645 1.092796582e-38
-0.1677497178 -0.2827898562 -0.1672496796 1.111163541e-38
0.1749774963 -0.3604981601 0.2821520269 1.111163541e-38
0.3046681881 -0.7531986833 0.1110501736 1.111163541e-38
-0.1551160663 -0.3772521019 -0.1920223236 1.111163541e-38
0.03836354241 -0.4156113267 -0.4036427438 1.111163541e-38
0.2732013762 -0.6845188141 -0.4123951495 1.111163541e-38
0.1670882851 -0.7020626664 -0.3243317008 1.111163541e-38
0.1903649122 -0.6975004673 -0.3489587903 1.111163541e-38
0.2266480327 -0.6936432123 -0.3631409407 1.1295305e-38
0.2722642124 -0.3747725189 0.2261053026 1.1295305e-38
0.0376720801 -0.2861474156 -0.006485041231 1.1295305e-38
0.1664042175 -0.7005696297 -0.3357109427 1.1295305e-38
0.05344126746 -0.730845809 -0.1556791961 1.1295305e-38
0.2615629733 -0.6867998838 -0.4000815749 1.1295305e-38
0.2574585974 -0.6778416634 -0.4683570862 1.1295305e-38
0.2143256515 -0.6944313049 -0.3622066379 1.1295305e-38
0.1784609854 -0.132789284 0.2341933697 1.147897319e-38
0.1676279008 -0.5606737733 0.007774338126 1.147897319e-38
0.1657201648 -0.6990765929 -0.3470901847 1.147897319e-38
0.03271982074 -0.2561742663 -0.3517452478 1.147897319e-38
-0.163645342 -0.2917481065 -0.098974213 1.147897319e-38
0.2581426799 -0.6793347597 -0.4569778442 1.147897319e-38
-0.02889212221 -0.2601145506 -0.3470737338 1.147897319e-38
0.2608789206 -0.6853069067 -0.4114608467 1.147897319e-38
0.008075008169 -0.257750392 -0.3498766422 1.166264278e-38
-0.1070763469 -0.3649227917 -0.1978358477 1.166264278e-38
0.05067854747 -0.2868523896 0.003959916532 1.166264278e-38
0.2451362312 -0.678629756 -0.4674227834 1.166264278e-38
0.1725960821 -0.3359531462 0.298681587 1.166264278e-38
0.3668501973 -0.3366320133 -0.3531977534 1.166264278e-38
-0.0320651941 -0.3322818279 -0.02463542297 1.166264278e-38
0.2595107853 -0.6823208332 -0.4342193007 1.166264278e-38
0.201319173 -0.6937263012 -0.372651577 1.184631237e-38
0.05207314342 -0.7278597355 -0.1784376949 1.184631237e-38
0.01314560324 -0.2815325856 0.016065754 1.184631237e-38
0.2376022935 -0.6898690462 -0.3868337274 1.184631237e-38
-0.1333258152 -0.3758947253 -0.2600901127 1.184631237e-38
-0.1449641138 -0.3781758249 -0.2477765381 1.184631237e-38
-0.06870312989 -0.3547118604 -0.07249982655 1.184631237e-38
0.1104036644 -0.2789769769 -0.3511221409 1.184631237e-38
0.1417594105 -0.7021457553 -0.3338423371 1.202998196e-38
0.2916616797 -0.7524937391 0.1006052345 1.202998196e-38
0.2369182408 -0.6883760691 -0.3982129693 1.202998196e-38
0.1133389771 -0.527117908 0.003206342459 1.202998196e-38
-0.1545502841 -0.3849360645 -0.2013252676 1.202998196e-38
0.2779712081 -0.750295639 0.07878108323 1.202998196e-38
0.08493590355 -0.7165373564 -0.2495160699 1.202998196e-38
0.1745152771 -0.2933907211 -0.3516410589 1.202998196e-38
0.06234333664 -0.7225925922 -0.2135097384 1.221365155e-38
0.1759903431 -0.6938093901 -0.3821622133 1.221365155e-38
-0.03093362972 -0.3476497829 -0.04324131086 1.221365155e-38
0.1191668361 -0.7082009912 -0.2978359759 1.221365155e-38
-0.1504459232 -0.393894285 -0.1330497861 1.221365155e-38
0.02811242267 -0.7309288979 -0.1651898623 1.221365155e-38
0.04180292413 -0.7331269383 -0.1433656514 1.221365155e-38
0.2203377783 -0.5649867654 0.06093336642 1.221365155e-38
0.1801039875 -0.6751048565 -0.5196474791 1.239732115e-38
-0.1443983465 -0.3858598173 -0.2570795119 1.239732115e-38
0.05002096295 -0.7233806252 -0.2125754356 1.239732115e-38
0.1661386192 -0.133577317 0.2351276726 1.239732115e-38
0.03573624045 -0.4311110377 -0.2227167785 1.239732115e-38
0.08732609451 -0.5257079601 -0.01768358052 1.239732115e-38
0.03769855946 -0.7241686583 -0.2116411328 1.239732115e-38
-0.1394916326 -0.3901201487 -0.1567425877 1.239732115e-38
0.2004098594 -0.3009916246 -0.3514333367 1.258099074e-38
-0.1360713243 -0.3975853622 -0.09984634817 1.258099074e-38
0.04933689535 -0.7218875885 -0.2239546925 1.258099074e-38
0.01579001918 -0.7317169905 -0.1642555445 1.258099074e-38
-0.1216967702 -0.4012764096 -0.06664292514 1.258099074e-38
-0.138807565 -0.3916131854 -0.1453633457 1.258099074e-38
0.05549345165 -0.7353249788 -0.1215414628 1.258099074e-38
-0.1658158004 -0.2934599221 -0.1537941396 1.258099074e-38
0.1807880551 -0.6765978932 -0.5082682371 1.276466033e-38
0.134900257 -0.7425409555 -0.03611329198 1.276466033e-38
0.1061604023 -0.707496047 -0.308280915 1.276466033e-38
0.0719294697 -0.7158323526 -0.2599610388 1.276466033e-38
0.2232277244 -0.6861780286 -0.4200371504 1.276466033e-38
-0.09635865688 -0.3735305667 -0.2628930211 1.276466033e-38
0.2923457325 -0.7539867163 0.1119844764 1.276466033e-38
-0.05228706449 -0.2708677053 -0.3431288004 1.276466033e-38
-0.01531990524 -0.2685035169 -0.3459317088 1.294832852e-38
0.06029115245 -0.7181134224 -0.2476474643 1.294832852e-38
-0.01905876026 -0.3329868019 -0.01419048943 1.294832852e-38
0.003086332232 -0.3130565882 -0.02021171525 1.294832852e-38
-0.08894562721 -0.7245841026 -0.2591943145 1.294832852e-38
0.1814721078 -0.67809093 -0.4968889952 1.294832852e-38
0.1171146631 -0.7037218809 -0.3319737315 1.294832852e-38
0.162192896 -0.2941787839 -0.3507067561 1.294832852e-38
0.002783581614 -0.7310119867 -0.1747004688 1.313163938e-38
-0.03081535175 -0.3414587975 -0.02255911753 1.313163938e-38
0.05960709229 -0.7166204453 -0.259026736 1.313163938e-38
0.005586020648 -0.3314106762 -0.01605909504 1.313163938e-38
0.328368783 -0.4251894355 0.223446697 1.313163938e-38
-0.01792719588 -0.3483547568 -0.03279634938 1.313163938e-38
0.04728471488 -0.7174084783 -0.2580924332 1.313163938e-38
-0.1100584567 -0.3989953101 -0.07895645499 1.313163938e-38
0.01484295726 -0.3045845628 -0.01184305921 1.331530897e-38
0.02948054671 -0.7339149714 -0.1424313486 1.331530897e-38
-0.1312736273 -0.3803738356 -0.225952372 1.331530897e-38
0.08151560277 -0.709072113 -0.3064123094 1.331530897e-38
-0.129905507 -0.3833599389 -0.2031938732 1.331530897e-38
0.09315396845 -0.7067910433 -0.318725884 1.331530897e-38
-0.01022285596 -0.730306983 -0.1851454079 1.331530897e-38
0.1965307444 -0.683275044 -0.4523063004 1.331530897e-38
-0.04257194325 -0.3499308825 -0.03092774563 1.349897856e-38
0.2599418461 -0.3755605817 0.2270396054 1.349897856e-38
-0.08552531898 -0.732049346 -0.2022980899 1.349897856e-38
-0.153984502 -0.3926200569 -0.2106282115 1.349897856e-38
-0.06745328009 -0.3638888896 -0.07042352855 1.349897856e-38
0.1465831548 -0.3345431983 0.2777917385 1.349897856e-38
0.3804224133 -0.3450209796 -0.3520557284 1.349897856e-38
-0.1204469204 -0.4104534388 -0.06456662714 1.349897856e-38
0.1967062652 -0.5881217718 0.02351389825 1.368228942e-38
0.05823896825 -0.7136343122 -0.2817852199 1.368228942e-38
0.1745299995 -0.3466232121 0.3121371269 1.368228942e-38
-0.02322932333 -0.7296020389 -0.195590362 1.368228942e-38
0.06987728179 -0.7113531828 -0.2940987647 1.368228942e-38
0.08575890958 -0.2805530727 -0.3492535353 1.368228942e-38
-0.07525509596 -0.7267821431 -0.2373701334 1.368228942e-38
-0.1127946973 -0.3930231631 -0.1244734526 1.368228942e-38
0.1471489519 -0.3422271907 0.2684887946 1.386595901e-38
-0.09842011333 -0.3967142403 -0.09127002954 1.386595901e-38
0.1041082293 -0.7030168772 -0.3424186707 1.386595901e-38
-0.1134787649 -0.3915300965 -0.1358526945 1.386595901e-38
0.03222606331 -0.7122243643 -0.3026750982 1.386595901e-38
0.184892416 -0.6855561733 -0.4399927557 1.386595901e-38
-0.1018404067 -0.3892490268 -0.1481662542 1.386595901e-38
-0.1686703265 -0.2936787307 -0.2199933082 1.386595901e-38
-0.0006367266178 -0.723546803 -0.2315967083 1.404926846e-38
-0.08609773219 -0.3959261775 -0.09220433235 1.404926846e-38
0.1933305115 -0.3427927792 0.2234058976 1.404926846e-38
0.008949405514 -0.7167865634 -0.2780480087 1.404926846e-38
-0.001320786774 -0.7220537663 -0.2429759502 1.404926846e-38
-0.09236593544 -0.7171189189 -0.316090554 1.404926846e-38
0.1140230373 -0.5286109447 0.0145855695 1.404926846e-38
0.06986801326 -0.7390159965 -0.08833800256 1.404926846e-38
0.02784939483 -0.3052895367 -0.001398127526 1.423293806e-38
-0.02459744364 -0.7266159654 -0.2183488607 1.423293806e-38
0.278093785 -0.3237943649 -0.3508102298 1.423293806e-38
0.06782510132 -0.7068741322 -0.3282364905 1.423293806e-38
-0.02733368799 -0.7206437588 -0.2638658285 1.423293806e-38
-0.05456512794 -0.3707848191 -0.0806607455 1.423293806e-38
-0.05444685742 -0.3645938635 -0.05997858942 1.423293806e-38
-0.02528150752 -0.7251229286 -0.2297281027 1.423293806e-38
-0.01569534838 -0.718362689 -0.2761794031 1.441624891e-38
-0.007302131504 -0.3245147169 -0.0058218427 1.441624891e-38
0.03521950543 -0.2745283246 -0.3475925922 1.441624891e-38
-0.0150112845 -0.7198557258 -0.2648001313 1.441624891e-38
0.3074044585 -0.7591708302 0.1565671712 1.441624891e-38
-0.1266034693 -0.3970160782 -0.1669798493 1.441624891e-38
-0.08814992011 -0.3914470673 -0.1263420582 1.441624891e-38
-0.1438418627 -0.4212065935 -0.06062170491 1.441624891e-38
-0.07183478773 -0.7342473269 -0.1804738939 1.459991851e-38
-0.1272875369 -0.3955230415 -0.1783590913 1.459991851e-38
-0.09293834865 -0.3809957802 -0.2059967965 1.459991851e-38
-0.05403066054 -0.7177407742 -0.2961349487 1.459991851e-38
0.05481866002 -0.7061691284 -0.3386814594 1.459991851e-38
-0.09441812336 -0.7126398087 -0.3502283096 1.459991851e-38
-0.1673021913 -0.2966648042 -0.1972348094 1.459991851e-38
-0.1286556572 -0.392536968 -0.2011175752 1.459991851e-38
0.04249628261 -0.706957221 -0.3377471566 1.478322936e-38
-0.1493143588 -0.4092622697 -0.151655674 1.478322936e-38
0.1485907584 -0.7447389364 -0.0142891258 1.478322936e-38
0.01853556372 -0.7100263834 -0.3244992793 1.478322936e-38
0.03017387912 -0.707745254 -0.3368128538 1.478322936e-38
0.3039883971 -0.3313952982 -0.3506025672 1.478322936e-38
0.109571442 -0.7426239848 -0.04562397301 1.478322936e-38
-0.02639243379 -0.2784686089 -0.3429210782 1.478322936e-38
-0.1129129827 -0.3992140889 -0.1451556534 1.496689755e-38
0.07500372082 -0.5264959931 -0.01674927771 1.496689755e-38
0.139607355 -0.3169208765 0.209534958 1.496689755e-38
0.04385510832 -0.7376060486 -0.1092279255 1.496689755e-38
-0.1666181386 -0.298157841 -0.1858555675 1.496689755e-38
-0.01774753258 -0.7138835788 -0.3103171289 1.496689755e-38
0.09656494856 -0.7419190407 -0.05606889725 1.496689755e-38
-0.1067471206 -0.3849886656 -0.2485031486 1.496689755e-38
-0.05882835761 -0.7349523306 -0.1700289547 1.515020841e-38
0.1400359571 -0.5300208926 0.03547543287 1.515020841e-38
0.06645697355 -0.7038880587 -0.3509950042 1.515020841e-38
0.006213160232 -0.7108144164 -0.3235649765 1.515020841e-38
0.1644707173 -0.3781472445 0.2758597136 1.515020841e-38
-0.08141165972 -0.7133448124 -0.3397833705 1.515020841e-38
0.1803240776 -0.3420878053 0.2129609734 1.515020841e-38
-0.06772115827 -0.7155427933 -0.3179591596 1.515020841e-38
-0.09907693416 -0.2923740149 -0.3352389932 1.533351927e-38
0.02909923717 -0.314466536 0.000678177923 1.533351927e-38
0.0611141026 -0.2821291983 -0.3473849297 1.533351927e-38
-0.01843159273 -0.712390542 -0.3216963708 1.533351927e-38
-0.08347314596 -0.7365283966 -0.1681603491 1.533351927e-38
-0.1363078803 -0.4099672437 -0.1412107348 1.533351927e-38
0.176463902 -0.357293278 0.3255927265 1.533351927e-38
0.1492934078 -0.6909064054 -0.4144313335 1.533351927e-38
-0.06977334619 -0.7110636234 -0.3520969152 1.551683013e-38
0.03159892559 -0.3328206241 0.004830792546 1.551683013e-38
0.1342607886 -0.3353312612 0.2787260413 1.551683013e-38
0.1013719738 -0.6970447302 -0.3879356384 1.551683013e-38
0.1394701898 -0.5223369002 0.04477842152 1.551683013e-38
-0.168788597 -0.2998696864 -0.2406754941 1.551683013e-38
0.180960685 -0.1511433423 0.2383459806 1.551683013e-38
-0.1046949327 -0.3894678056 -0.2143654227 1.551683013e-38
-0.03281544894 -0.7363622785 -0.1491390765 1.570049832e-38
-0.123985514 -0.4091792107 -0.1421450377 1.570049832e-38
0.01648337953 -0.7055472136 -0.3586370349 1.570049832e-38
-0.1413328648 -0.4118978977 -0.26222983 1.570049832e-38
0.1348265707 -0.3430152535 0.2694230974 1.570049832e-38
0.09384730458 -0.6806212664 -0.5131073594 1.570049832e-38
-0.05745096877 -0.7102755904 -0.3530312181 1.570049832e-38
0.02812169492 -0.7032661438 -0.3709505796 1.570049832e-38
-0.1101494655 -0.302339077 -0.3322283626 1.588380918e-38
0.1524766237 -0.523041904 0.05522334576 1.588380918e-38
0.1198601723 -0.6820312738 -0.4922174811 1.588380918e-38
0.1479512751 -0.3375292718 0.3005501926 1.588380918e-38
-0.1116631329 -0.4083911479 -0.1430793405 1.588380918e-38
0.2916660309 -0.3321833611 -0.3496682644 1.588380918e-38
0.2611916959 -0.3847376108 0.2291159183 1.588380918e-38
0.07672716677 -0.6986207962 -0.3860670328 1.588380918e-38
-0.0198090151 -0.7370672226 -0.1386941373 1.606712004e-38
-0.02843394503 -0.3660038114 -0.03908869997 1.606712004e-38
0.03976003826 -0.7009850144 -0.3832641244 1.606712004e-38
-0.1522871554 -0.415672034 -0.2385370135 1.606712004e-38
-0.09934072196 -0.407603085 -0.1440136433 1.606712004e-38
0.02743763477 -0.7017730474 -0.3823298216 1.606712004e-38
-0.1290104985 -0.4111098349 -0.2631641328 1.606712004e-38
0.01511525642 -0.7025611401 -0.3813955188 1.606712004e-38
0.1492748111 -0.7462319732 -0.002909883857 1.625043089e-38
0.01746092364 -0.3167476654 0.01299174502 1.625043089e-38
0.1472412348 -0.6864272952 -0.4485690892 1.625043089e-38
0.03360348567 -0.6875476837 -0.4856773615 1.625043089e-38
0.04585160315 -0.2673751414 0.203617245 1.625043089e-38
-0.01568607986 -0.690699935 -0.4819401503 1.625043089e-38
-0.006802547723 -0.7377722263 -0.1282491684 1.625043089e-38
-0.1179472357 -0.428807497 -0.06041400507 1.625043089e-38
0.0952154249 -0.6836073399 -0.4903488755 1.643374035e-38
0.253448993 -0.3253704906 -0.3489416242 1.643374035e-38
0.1511203647 -0.3041438758 -0.3476961255 1.643374035e-38
-0.04019052908 -0.3744758666 -0.0474573262 1.643374035e-38
0.1011348739 -0.5217149854 0.02482280135 1.643374035e-38
-0.1660523564 -0.3058418632 -0.1951584965 1.643374035e-38
0.1362869143 -0.6902014017 -0.4248762727 1.643374035e-38
0.02921751887 -0.3082756102 0.02136037126 1.643374035e-38
0.07368011028 -0.2856461108 0.2172804922 1.661705121e-38
0.1436672211 -0.5637429357 0.02102218568 1.661705121e-38
-0.06426952779 -0.3837359846 -0.05489167571 1.661705121e-38
-0.164684236 -0.3088279366 -0.1723999977 1.661705121e-38
0.1674358547 -0.3351918459 0.2231982052 1.661705121e-38
0.0219651442 -0.6898287535 -0.4733638167 1.661705121e-38
-0.06978259981 -0.7387264967 -0.1463361681 1.661705121e-38
0.0876814872 -0.6948466897 -0.4097598195 1.661705121e-38
-0.1350580454 -0.4191442728 -0.1391344219 1.680036207e-38
-0.1357420981 -0.4176512361 -0.1505136639 1.680036207e-38
0.2813915014 -0.7577608824 0.1356772929 1.680036207e-38
0.06303666532 -0.6964228153 -0.4078912139 1.680036207e-38
-0.02732439339 -0.6929810047 -0.4696265459 1.680036207e-38
-0.1212220266 -0.3123041987 -0.329217732 1.680036207e-38
0.05071429163 -0.6972109079 -0.4069569111 1.680036207e-38
-0.01542751119 -0.3667087853 -0.02864373848 1.680036207e-38
-0.1682228148 -0.3075536489 -0.2499784231 1.698367293e-38
0.2793436348 -0.3329713941 -0.3487339616 1.698367293e-38
-0.01912495121 -0.7385603189 -0.1273148656 1.698367293e-38
-0.02390408516 -0.7004462481 -0.4127303362 1.698367293e-38
0.1272849739 -0.3177089393 0.2104692608 1.698367293e-38
-0.01158170775 -0.6996581554 -0.413664639 1.698367293e-38
0.2957660556 -0.7614519596 0.168880716 1.698367293e-38
-0.1043657064 -0.4095337093 -0.2650327384 1.698367293e-38
-0.1598958075 -0.3192792237 -0.09274529666 1.716698239e-38
0.08725232631 -0.2940350771 0.2184224874 1.716698239e-38
0.1537264585 -0.5322189331 0.05729965866 1.716698239e-38
0.1765821874 -0.3511023521 0.3462748826 1.716698239e-38
0.1544294208 -0.334486872 0.2127532661 1.716698239e-38
-0.0608599335 -0.2991868258 -0.3359655738 1.716698239e-38
0.02264920436 -0.6913217902 -0.4619845748 1.716698239e-38
0.1584892869 -0.5813089013 0.02424050868 1.716698239e-38
-0.02664032951 -0.6944740415 -0.458247304 1.735029324e-38
-0.1392806768 -0.416377008 -0.2280920744 1.735029324e-38
0.1623258442 -0.3412203491 0.3337536454 1.735029324e-38
0.05961636081 -0.688957572 -0.4647874832 1.735029324e-38
0.3052382469 -0.3405722976 -0.3485262394 1.735029324e-38
0.03771919012 -0.2928823531 -0.3434399962 1.735029324e-38
-0.03621515259 -0.2976107299 -0.3378341794 1.735029324e-38
-0.01157037076 -0.2960346043 -0.339702785 1.735029324e-38
0.08494523168 -0.6888744831 -0.4552768469 1.75336041e-38
0.2820755541 -0.7592539191 0.1470565349 1.75336041e-38
-0.002421032637 -0.3674137592 -0.01819880679 1.75336041e-38
0.1237540394 -0.3529803157 0.2724336982 1.75336041e-38
0.04347379878 -0.3181576133 0.0338816084 1.75336041e-38
0.01169494912 -0.6950959563 -0.4382917583 1.75336041e-38
0.03290085495 -0.7413802147 -0.08553509414 1.75336041e-38
-0.06245389953 -0.4005970061 -0.06211829558 1.75336041e-38
-0.1502349675 -0.4201511741 -0.2043992877 1.771655483e-38
0.267021209 -0.3337594867 -0.3477995992 1.771655483e-38
0.07330685854 -0.6911556721 -0.4429632723 1.771655483e-38
0.2624415457 -0.3939146399 0.2311922163 1.771655483e-38
0.1239460111 -0.746315062 -0.01242052019 1.771655483e-38
-0.04376973584 -0.740136385 -0.12544626 1.771655483e-38
0.1109395772 -0.7456100583 -0.02286544442 1.771655483e-38
0.09793308377 -0.7449051142 -0.03331038356 1.771655483e-38
-0.1488668472 -0.4231372476 -0.1816407889 1.789986569e-38
0.2288042158 -0.3269466162 -0.3470730186 1.789986569e-38
0.05891375989 -0.7427901626 -0.06464523077 1.789986569e-38
0.2156751901 -0.7527429461 0.07207335532 1.789986569e-38
-0.1648025066 -0.3150188625 -0.1930821985 1.789986569e-38
-0.04956575111 -0.4074929357 -0.07235552371 1.789986569e-38
0.1018308178 -0.3072960973 -0.3439589143 1.789986569e-38
0.1833705902 -0.567350924 0.06373627484 1.789986569e-38
0.04590729624 -0.7420852184 -0.07509016991 1.808317654e-38
0.1283975989 -0.532302022 0.04778903723 1.808317654e-38
-0.1358603686 -0.4238422215 -0.1711958647 1.808317654e-38
-0.05918406323 -0.2768651247 0.08579443395 1.808317654e-38
-0.03076326475 -0.7408413887 -0.1150013357 1.808317654e-38
0.06079557911 -0.354077667 0.04125252739 1.808317654e-38
-0.1627503335 -0.3194980025 -0.1589444578 1.808317654e-38
-0.1365444362 -0.4223491848 -0.1825750917 1.808317654e-38
-0.1221698821 -0.4260402322 -0.1493716687 1.826612727e-38
-0.03882240877 -0.3774619401 -0.02469882742 1.826612727e-38
-0.06120405719 -0.4097740352 -0.06004199013 1.826612727e-38
0.05129141361 -0.3012713194 -0.3422979712 1.826612727e-38
0.05305806175 -0.4670310616 -0.2153458595 1.826612727e-38
0.1597391367 -0.59048599 0.02631680667 1.826612727e-38
0.1822579652 -0.3527578712 0.2264165133 1.826612727e-38
0.1278318018 -0.5246180296 0.05709196627 1.826612727e-38
-0.06391468644 -0.3651631474 0.007154900581 1.844943813e-38
0.1013903245 -0.3101080358 0.2102615684 1.844943813e-38
-0.09684103727 -0.4259571433 -0.1398610324 1.844943813e-38
0.1958301961 -0.3611468375 0.2275585085 1.844943813e-38
-0.1009453982 -0.4169989228 -0.2081364989 1.844943813e-38
0.1415412575 -0.3275909424 0.2229905128 1.844943813e-38
0.1277254075 -0.3148970604 -0.3437511921 1.844943813e-38
0.1506429464 -0.7492181063 0.01984864473 1.844943813e-38
-0.1118996888 -0.4207730591 -0.1844436973 1.863274899e-38
-0.09889321029 -0.4214780331 -0.1739987731 1.863274899e-38
-0.1125837564 -0.4192800224 -0.1958229542 1.863274899e-38
0.07718600333 -0.3088722229 -0.3420903087 1.863274899e-38
-0.02468440309 -0.3935349286 -0.03285977617 1.863274899e-38
0.2094024122 -0.3695358038 0.2287005186 1.863274899e-38
0.1285348237 -0.3268859684 0.2125455737 1.863274899e-38
-0.04819763079 -0.4104790092 -0.04959705472 1.863274899e-38
0.1636939645 -0.3442064226 0.3565121293 1.881569971e-38
0.1692514867 -0.3520528972 0.2159715742 1.881569971e-38
-0.0476318486 -0.4181630015 -0.05889998749 1.881569971e-38
-0.06051999703 -0.411267072 -0.04866275564 1.881569971e-38
0.02371014282 -0.3626328111 0.02337327972 1.881569971e-38
0.1233065277 -0.3391053975 0.3024187982 1.881569971e-38
-0.1310447156 -0.3314463496 -0.3241308331 1.881569971e-38
0.2772636116 -0.4114806354 0.2344105393 1.881569971e-38
0.1030687764 -0.5323850513 0.03827835619 1.899901057e-38
0.09062812477 -0.5393640995 0.01853048801 1.899901057e-38
-0.1642367393 -0.3227028549 -0.2023851424 1.899901057e-38
0.01183524355 -0.3772957921 -0.005677567795 1.899901057e-38
0.02126251347 -0.7436612844 -0.07322154939 1.899901057e-38
0.1734296232 -0.5926839709 0.04814097285 1.899901057e-38
0.1830423623 -0.4232443273 0.2853069305 1.899901057e-38
0.1710482091 -0.568138957 0.06467057765 1.899901057e-38
0.1918370277 -0.3293108046 -0.3442701101 1.91819627e-38
-0.05836024135 -0.3175409436 -0.3318129778 1.91819627e-38
0.007068784907 -0.2528783083 0.2136467844 1.91819627e-38
0.02120679058 -0.268951267 0.2054858655 1.91819627e-38
0.1824765652 -0.4155603349 0.2946098745 1.91819627e-38
0.1474167556 -0.5912740231 0.02725110948 1.91819627e-38
-0.1573961228 -0.3376332521 -0.08859268576 1.91819627e-38
0.003251696005 -0.3136005998 -0.3364844918 1.91819627e-38
-0.05983592942 -0.4127601087 -0.03728349134 1.936527215e-38
-0.1567120552 -0.3391262889 -0.07721342146 1.936527215e-38
-0.1650390625 -0.3274007738 -0.2344465703 1.936527215e-38
0.09300953895 -0.5639091134 0.002000927925 1.936527215e-38
0.07843585312 -0.3180493116 -0.3400139809 1.936527215e-38
-0.1658414155 -0.3320986629 -0.2665079832 1.936527215e-38
0.0001969337463 -0.3795769215 0.006635997444 1.936527215e-38
-0.04807934538 -0.4042880535 -0.02891486511 1.936527215e-38
0.1026401743 -0.3192850649 0.2123378664 1.954822428e-38
0.1563633233 -0.3451569676 0.2262088209 1.954822428e-38
0.09187797457 -0.5485411286 0.02060680091 1.954822428e-38
-0.1297948658 -0.340623349 -0.3220545053 1.954822428e-38
-0.05813858286 -0.4358121157 -0.065192312 1.954822428e-38
0.2581148744 -0.7623230815 0.1603043824 1.954822428e-38
0.0732883215 -0.7464811802 -0.03144177794 1.954822428e-38
0.210652262 -0.3787128329 0.2307768166 1.954822428e-38
-0.1585947424 -0.2511787713 0.1347587854 1.973153514e-38
0.04960113764 -0.2949062288 0.2098461688 1.973153514e-38
0.07887154073 -0.5478361249 0.01016186178 1.973153514e-38
0.1327129006 -0.5675170422 0.04471497238 1.973153514e-38
0.145719409 -0.5682220459 0.05515994132 1.973153514e-38
0.1548698992 -0.3316749632 -0.3414672017 1.973153514e-38
0.1031870618 -0.5261941552 0.05896057189 1.973153514e-38
0.1481008083 -0.5927670598 0.03863035142 1.973153514e-38
0.2436263114 -0.3445126116 -0.3438547254 1.991448586e-38
0.1043305025 -0.3256502151 -0.3398063183 1.991448586e-38
-0.003382241353 -0.7452374697 -0.07135294378 1.991448586e-38
-0.1616187543 -0.3348659575 -0.1775503308 1.991448586e-38
-0.160250634 -0.3378520608 -0.1547918469 1.991448586e-38
-0.1568303257 -0.3453172445 -0.09789560735 1.991448586e-38
0.01682391576 -0.3219895959 -0.3353424668 1.991448586e-38
-0.02014321089 -0.3243537843 -0.3325395584 1.991448586e-38
-0.007820835337 -0.3235657215 -0.3334738612 2.009743799e-38
0.05097286403 -0.3732197583 0.04633944109 2.009743799e-38
0.0936935991 -0.5654021502 0.01338016987 2.009743799e-38
0.1259981841 -0.7507941723 0.02171725035 2.009743799e-38
-0.04501387849 -0.4303261042 -0.03406518325 2.009743799e-38
0.03495303541 -0.7458593249 -0.05139738321 2.009743799e-38
0.1807645112 -0.3392758965 -0.3412594795 2.009743799e-38
0.1820290685 -0.4016853869 0.3245949745 2.009743799e-38
-0.04103349149 -0.746108532 -0.07992926985 2.028074885e-38
0.2661910653 -0.4214457273 0.2374211401 2.028074885e-38
0.1129917502 -0.7500891685 0.01127226651 2.028074885e-38
0.1016089171 -0.3729104996 0.2784549296 2.028074885e-38
0.08012138307 -0.557013154 0.01223815978 2.028074885e-38
-0.1647098362 -0.3474666476 -0.2851138711 2.028074885e-38
-0.1624211073 -0.3395638764 -0.2096117735 2.028074885e-38
0.07397238165 -0.7479742765 -0.020062536 2.028074885e-38
0.2184114307 -0.7587151527 0.1175902933 2.046369957e-38
0.08697882295 -0.7486792207 -0.009617611766 2.046369957e-38
0.1617913246 -0.5949651003 0.06045456231 2.046369957e-38
0.06736332923 -0.3280143738 -0.3370034099 2.046369957e-38
0.09031780064 -0.3200731277 0.2132721692 2.046369957e-38
0.07955560088 -0.5493291616 0.02154110372 2.046369957e-38
0.1844104826 -0.4262304008 0.3080654144 2.046369957e-38
0.1464034617 -0.5697150826 0.06653918326 2.046369957e-38
0.02263063379 -0.7466473579 -0.05046308041 2.06466517e-38
0.1983298808 -0.3795008957 0.2317111194 2.06466517e-38
0.01558477432 -0.4048268795 0.0005513466895 2.06466517e-38
-0.1639074981 -0.3427687585 -0.2530524731 2.06466517e-38
-0.1610529721 -0.3425499499 -0.1868532747 2.06466517e-38
-0.08050531149 -0.3374711275 -0.3257917166 2.06466517e-38
0.1446067393 -0.3536290228 0.2178401798 2.06466517e-38
0.1055803522 -0.3348272145 -0.3377299905 2.06466517e-38
0.2615351677 -0.7697882652 0.217200622 2.082996116e-38
-0.1603689194 -0.3440429866 -0.1754740328 2.082996116e-38
-0.1562645435 -0.3530012369 -0.1071985438 2.082996116e-38
0.1266822517 -0.7522872686 0.03309647739 2.082996116e-38
0.1310345232 -0.3452400565 0.2166981846 2.082996116e-38
-0.1555804908 -0.3544942737 -0.09581930935 2.082996116e-38
0.2622192502 -0.7712813616 0.2285798639 2.082996116e-38
-0.1535283029 -0.3589734137 -0.06168157607 2.082996116e-38
-0.03121577576 -0.3343188763 -0.3295289278 2.101291328e-38
-0.05543452874 -0.3043962121 0.09202335775 2.101291328e-38
0.01807375811 -0.331166625 -0.333266139 2.101291328e-38
0.2464765459 -0.7646042109 0.1726179272 2.101291328e-38
-0.1632234305 -0.3442618251 -0.2416732013 2.101291328e-38
0.005751384422 -0.3319546878 -0.3323318362 2.101291328e-38
0.0356370993 -0.7473523617 -0.04001815617 2.101291328e-38
0.009568473324 -0.2712323666 0.2177993953 2.101291328e-38
0.08565528691 -0.3399765491 0.2938424945 2.119586541e-38
-0.04034942761 -0.7476016283 -0.06855003536 2.119586541e-38
0.1292481124 -0.3650677502 0.1503734887 2.119586541e-38
0.005078032613 -0.4224759638 -0.005740966648 2.119586541e-38
0.1173732281 -0.3797307611 0.1213226914 2.119586541e-38
-0.06775690615 -0.3051842749 0.09295766056 2.119586541e-38
0.174469471 -0.4515634775 0.2924701571 2.119586541e-38
0.09324609488 -0.5515272021 0.0433652699 2.119586541e-38
0.07910808921 -0.5354542732 0.05152624846 2.137881613e-38
0.1494689435 -0.5957531929 0.06138886511 2.137881613e-38
0.134081021 -0.5705031753 0.06747348607 2.137881613e-38
-0.03132334724 -0.4325241148 -0.01224098913 2.137881613e-38
0.131718576 -0.3467330933 0.2280774266 2.137881613e-38
-0.1572266221 -0.2541648448 0.1575172693 2.137881613e-38
0.1364624351 -0.5950481892 0.05094389617 2.137881613e-38
-0.1396175623 -0.35976547 -0.3169676065 2.137881613e-38
0.2498968542 -0.7720693946 0.2295141667 2.156176826e-38
-0.05540233478 -0.4417842627 -0.0196753405 2.156176826e-38
-0.154330641 -0.3636713326 -0.09374299645 2.156176826e-38
-0.156382829 -0.3591922224 -0.1278807223 2.156176826e-38
0.1187121496 -0.3460281193 0.2176324874 2.156176826e-38
0.106830202 -0.3440042734 -0.3356536627 2.156176826e-38
0.06636074185 -0.3984697759 0.04025482759 2.156176826e-38
-0.06499417126 -0.7491777539 -0.06668142974 2.156176826e-38
0.1143598855 -0.753075242 0.0340307802 2.174471899e-38
-0.1536465734 -0.3651643693 -0.08236376196 2.174471899e-38
0.1540632546 -0.7566832304 0.07674486935 2.174471899e-38
0.1730010211 -0.3795839846 0.222200498 2.174471899e-38
0.02870952338 -0.3993409276 0.03167850152 2.174471899e-38
0.1757193059 -0.4607405066 0.2945464849 2.174471899e-38
0.2341541201 -0.7653922439 0.17355223 2.174471899e-38
0.01932360046 -0.3403436542 -0.3311898708 2.174471899e-38
0.007001226768 -0.341131717 -0.330255568 2.192767111e-38
0.2204636186 -0.7631942034 0.1517280489 2.192767111e-38
-0.01433652267 -0.7490115762 -0.04766017199 2.192767111e-38
0.07534050941 -0.75096035 0.002695932984 2.192767111e-38
0.08834694326 -0.7516652942 0.01314087212 2.192767111e-38
0.03852854669 -0.3048713207 0.2128567845 2.192767111e-38
0.2551185489 -0.4314108193 0.2404317558 2.192767111e-38
0.08702342212 -0.3429626226 0.3166009486 2.192767111e-38
-0.1026503965 -0.3574013114 -0.319770515 2.211062324e-38
0.1193962023 -0.3475211561 0.2290117294 2.211062324e-38
0.1053584516 -0.400441587 0.2846838534 2.211062324e-38
0.0428475216 -0.4154138565 0.02351754531 2.211062324e-38
-0.1565425694 -0.2556578815 0.1688964963 2.211062324e-38
-0.02665889636 -0.7497996092 -0.04672586918 2.211062324e-38
0.0792452693 -0.3300382197 0.2162827849 2.211062324e-38
0.1007139087 -0.3451606631 0.3384251595 2.211062324e-38
0.09178623557 -0.3920526206 0.2835418582 2.229357396e-38
0.1711930335 -0.3992685974 0.3689699769 2.229357396e-38
0.1080800369 -0.3531812727 -0.3335773945 2.229357396e-38
-0.1622101516 -0.3658207059 -0.2809612751 2.229357396e-38
-0.01576036587 -0.2713154554 0.2082887739 2.229357396e-38
-0.1510286033 -0.377327472 -0.05752895772 2.229357396e-38
-0.06469142437 -0.3312223256 0.08780734241 2.229357396e-38
0.1144044548 -0.3473586738 0.3602493405 2.229357396e-38
-0.1551329792 -0.3683692217 -0.1258044243 2.247652609e-38
0.1485748589 -0.4439625442 0.2922624648 2.247652609e-38
-0.1558170468 -0.3668761849 -0.1371836811 2.247652609e-38
-0.0389813073 -0.7505877018 -0.04579156637 2.247652609e-38
-0.1578692198 -0.3623970449 -0.1713214219 2.247652609e-38
0.1742508709 -0.3887610137 0.2242768109 2.247652609e-38
-0.1585532874 -0.3609040082 -0.1827006638 2.247652609e-38
0.0452182591 -0.3479445577 -0.3309821486 2.247652609e-38
0.1601128429 -0.372688055 0.2324377298 2.265947681e-38
0.09461422265 -0.5545133352 0.06612378359 2.265947681e-38
0.01167638227 -0.750421524 -0.02677024901 2.265947681e-38
-0.0529348366 -0.3227502704 0.09617596865 2.265947681e-38
-0.1614078134 -0.361122787 -0.2488998473 2.265947681e-38
0.1498247087 -0.4531396031 0.2943387628 2.265947681e-38
0.1864626706 -0.4307095408 0.3422031701 2.265947681e-38
0.0194525905 -0.4261670411 0.02746246383 2.265947681e-38
-0.04861951992 -0.3579653502 0.0931019634 2.284242894e-38
0.03977838904 -0.3140483499 0.2149330825 2.284242894e-38
0.02468281984 -0.7511265278 -0.01632532477 2.284242894e-38
0.2292238623 -0.4238099158 0.2402240485 2.284242894e-38
0.186015144 -0.4168345928 0.3721882701 2.284242894e-38
-0.1558585018 -0.2571509182 0.1802757382 2.284242894e-38
0.1858968735 -0.4230255485 0.351506114 2.284242894e-38
0.1900939047 -0.4644315839 0.3277498782 2.284242894e-38
0.08049511164 -0.3392152488 0.2183590978 2.302537966e-38
0.05597224087 -0.4099279046 0.05464467034 2.302537966e-38
0.05879048258 -0.356333524 -0.3298401833 2.302537966e-38
0.2020794153 -0.4070319831 0.2379400432 2.302537966e-38
0.2266201675 -0.7766315937 0.2541412711 2.302537966e-38
0.0658916384 -0.3844517469 0.283334136 2.302537966e-38
0.1890729815 -0.4063269794 0.227495119 2.302537966e-38
-0.1600396931 -0.3641088903 -0.2261413485 2.302537966e-38
0.04534721375 -0.4337679446 0.02767015621 2.320833179e-38
-0.08907818049 -0.3657902479 -0.3186285496 2.320833179e-38
-0.1518309563 -0.3820253611 -0.08959038556 2.320833179e-38
0.1588706523 -0.4000566602 0.3699042797 2.320833179e-38
0.05069572479 -0.7525364161 0.004564538598 2.320833179e-38
0.0218232926 -0.3586977124 -0.3270372748 2.320833179e-38
-0.1593556255 -0.365601927 -0.2147620916 2.320833179e-38
0.08229184896 -0.5553013682 0.0670580864 2.320833179e-38
0.1199911982 -0.3918938637 0.1461574584 2.339092378e-38
0.1164120585 -0.7575544119 0.06816850603 2.339092378e-38
0.1329976469 -0.3925988376 0.1566023976 2.339092378e-38
0.09428592026 -0.4104067087 0.2876944542 2.339092378e-38
0.05106957629 -0.3668857515 0.2801158428 2.339092378e-38
-0.1579875052 -0.3685880005 -0.1920036077 2.339092378e-38
-0.06754959375 -0.2561136186 0.2078733593 2.339092378e-38
0.1871467233 -0.4322025776 0.353582412 2.339092378e-38
0.1188596338 -0.3765258789 0.1647633314 2.348204041e-38
-0.124795489 -0.3773314953 -0.3137493134 2.348204041e-38
0.02536688 -0.7526195049 -0.00494608283 2.348204041e-38
0.1913437545 -0.473608613 0.3298261762 2.348204041e-38
0.06714147329 -0.3936287463 0.2854104638 2.348204041e-38
0.2304737121 -0.4329869449 0.2423003614 2.348204041e-38
0.06004032493 -0.3655105829 -0.3277638555 2.348204041e-38
0.09711390734 -0.5728673339 0.07027639449 2.348204041e-38
0.04771795124 -0.3662986457 -0.3268295527 2.348132155e-38
0.06438624859 -0.7547345161 0.02638876438 2.348132155e-38
0.121895887 -0.3658751845 0.2331643403 2.348132155e-38
0.01304450352 -0.7534075975 -0.004011780024 2.348132155e-38
0.0835416913 -0.5644783974 0.06913439929 2.348132155e-38
0.0760691613 -0.3467367589 0.3402937651 2.348132155e-38
0.1045817137 -0.3665007651 0.3653362691 2.348132155e-38
0.1626125425 -0.3910421133 0.2365903407 2.348132155e-38
0.1517586112 -0.4638096392 0.3077943027 2.348060128e-38
0.1620467603 -0.3833581209 0.2458932847 2.348060128e-38
0.1767505556 -0.4071150422 0.2284294218 2.348060128e-38
-0.1498970538 -0.3926954269 -0.07613484561 2.348060128e-38
0.1978710592 -0.7692494988 0.1877344102 2.348060128e-38
0.189646408 -0.4505566061 0.357735008 2.348060128e-38
0.06839132309 -0.4028057754 0.2874867618 2.348060128e-38
0.08975966275 -0.3489347994 0.3621179461 2.348060128e-38
-0.1523455083 -0.2970639169 0.1451403201 2.347952368e-38
0.0226752311 -0.3409307897 0.2757555246 2.347952368e-38
-0.1553695351 -0.3807511032 -0.167168811 2.347952368e-38
0.038747143 -0.3676738143 0.2810501456 2.347952368e-38
0.1920278221 -0.4751016498 0.3412054181 2.347952368e-38
0.1103578359 -0.4371497035 0.2929890752 2.347952368e-38
0.04671533778 -0.4367540181 0.050428655 2.347952368e-38
0.06306272745 -0.346031785 0.3298488557 2.347952368e-38
0.2012913525 -0.7767146826 0.2446306497 2.347880341e-38
0.09409660101 -0.3842929602 0.145949766 2.347880341e-38
0.09678561985 -0.428760767 0.29184708 2.347880341e-38
0.2019754201 -0.7782077193 0.2560098767 2.347880341e-38
0.04227808118 -0.3324024081 0.2190857083 2.347880341e-38
0.2181513309 -0.4337750077 0.2432346642 2.347880341e-38
-0.04925149307 -0.755854845 -0.01071950793 2.347880341e-38
0.02870585583 -0.3240134418 0.2179436982 2.347880341e-38
0.04124682769 -0.3860278428 0.2852027416 2.347808455e-38
-0.1590263993 -0.3856678307 -0.2654293776 2.347808455e-38
0.06964117289 -0.4119828045 0.2895630598 2.347808455e-38
0.09176725149 -0.7591304779 0.07003711164 2.347808455e-38
0.1862327307 -0.7715306282 0.2000479549 2.347808455e-38
0.147798121 -0.4100217223 0.3729148805 2.347808455e-38
0.05606894568 -0.4035938382 0.2884210646 2.347808455e-38
0.1876008511 -0.7745167017 0.2228064388 2.347808455e-38
-0.150699392 -0.3973933458 -0.1081962734 2.347700555e-38
-0.1516614556 -0.2985569537 0.156519562 2.347700555e-38
-0.1520675123 -0.3944072723 -0.1309547722 2.347700555e-38
0.1910145283 -0.4535426795 0.3804934919 2.347700555e-38
-0.1534356326 -0.391421169 -0.1537132412 2.347700555e-38
-0.1510956734 -0.3062409461 0.147216633 2.347700555e-38
-0.04543577507 -0.3778124452 0.1086338013 2.347700555e-38
-0.1548037529 -0.3884350955 -0.17647174 2.347700555e-38
0.04249667004 -0.3952048719 0.2872790694 2.347628668e-38
-0.02433321252 -0.2996345758 0.2154519856 2.347628668e-38
-0.07389627397 -0.7574310303 -0.008850902319 2.347628668e-38
0.09478066862 -0.3857859969 0.157329008 2.347628668e-38
-0.1568559408 -0.3839559853 -0.2106094807 2.347628668e-38
-0.1505298913 -0.3139249384 0.1379136443 2.347628668e-38
-0.05775814131 -0.378600508 0.1095681041 2.347628668e-38
0.1933959424 -0.4780877233 0.3639639318 2.347628668e-38
0.1922567189 -0.4261741042 0.2430269569 2.347520768e-38
0.05731879547 -0.4127708673 0.2904973626 2.347520768e-38
0.17391029 -0.7723186612 0.2009822577 2.347520768e-38
0.1656780243 -0.417080164 0.2314400226 2.347520768e-38
0.1745943576 -0.773811698 0.2123614997 2.347520768e-38
0.002090249211 -0.7571817636 0.01968099177 2.347520768e-38
0.119148314 -0.7635265589 0.1136855036 2.347520768e-38
0.1379677951 -0.3926182389 0.2384589463 2.347520768e-38
0.1385335773 -0.4003022313 0.2291560322 2.347448882e-38
0.193514213 -0.4718967676 0.3846461177 2.347448882e-38
0.08571307361 -0.4387258291 0.2948576808 2.347448882e-38
-0.05022783577 -0.2920337021 0.2152442932 2.347448882e-38
0.1940800101 -0.47958076 0.3753431737 2.347448882e-38
-0.04418593273 -0.3869894743 0.1107101142 2.347448882e-38
-0.1402340978 -0.2700190246 0.215555504 2.347448882e-38
-0.1525564641 -0.2708070874 0.2164898068 2.347448882e-38
0.06511490047 -0.3505109251 0.3639865518 2.347340982e-38
-0.07321222126 -0.7589240074 0.002528339624 2.347340982e-38
0.1786921024 -0.4543307424 0.3814277947 2.347340982e-38
-0.1569742113 -0.3901469707 -0.2312916666 2.347340982e-38
0.1595357358 -0.768627584 0.1677788049 2.347340982e-38
-0.1528698504 -0.3991051912 -0.1630162001 2.347340982e-38
0.01509668864 -0.7578867674 0.03012597561 2.347340982e-38
-0.1542379707 -0.3961191177 -0.1857746989 2.347340982e-38
0.03841791674 -0.3476079106 0.3317174613 2.347269095e-38
-0.1549220383 -0.394626081 -0.1971539408 2.347269095e-38
-0.1508591175 -0.2938590646 0.18858096 2.347269095e-38
0.1947640628 -0.4810737967 0.3867224157 2.347269095e-38
0.1231533736 -0.4115978479 0.3747834861 2.347269095e-38
-0.1492800564 -0.3231019676 0.1399899572 2.347269095e-38
0.1538107991 -0.4682887793 0.3419320285 2.347269095e-38
0.04477777332 -0.3507564664 0.2232383043 2.347269095e-38
0.166362077 -0.4185732007 0.2428192645 2.347161195e-38
-0.04954377562 -0.2935267389 0.2266235352 2.347161195e-38
0.1533556432 -0.4178682268 0.2323743254 2.347161195e-38
-0.05469266698 -0.4046385586 0.104417786 2.347161195e-38
0.1810735166 -0.4788757861 0.3648982346 2.347161195e-38
-0.04293608293 -0.3961665034 0.1127864271 2.347161195e-38
0.1669278592 -0.4262571931 0.2335163355 2.347161195e-38
-0.009511144832 -0.3172006011 0.2186702937 2.347161195e-38
0.004061101004 -0.3255895376 0.2198123038 2.347089308e-38
0.1277979165 -0.4668788016 0.3210421503 2.347089308e-38
0.165008232 -0.7805719376 0.2588127851 2.347089308e-38
0.0314241387 -0.4051699638 0.2902896702 2.347089308e-38
0.0391019769 -0.3491009474 0.3430967033 2.347089308e-38
0.1017849892 -0.4654688537 0.3001523018 2.347089308e-38
0.05981848761 -0.4311249256 0.2946499884 2.347089308e-38
0.01578075066 -0.7593797445 0.04150521755 2.347089308e-38
-0.001285459846 -0.3439999223 0.2890033722 2.346981408e-38
0.1663697213 -0.4551188052 0.3823620975 2.346981408e-38
0.08081299812 -0.762904644 0.09372992814 2.346981408e-38
-0.05287703499 -0.4214995801 0.09719116986 2.346981408e-38
0.1544948667 -0.469781816 0.3533113003 2.346981408e-38
0.00178001076 -0.3700379729 0.283853054 2.346981408e-38
0.05480009317 -0.7614946961 0.07284002006 2.346981408e-38
0.1492655426 -0.7738947868 0.2028508633 2.346981408e-38
-0.04168624058 -0.4053435326 0.1148627251 2.346909522e-38
0.1499496102 -0.7753878236 0.2142301053 2.346909522e-38
0.1506336629 -0.7768808603 0.2256093472 2.346909522e-38
0.1676119119 -0.4277502298 0.2448955625 2.346909522e-38
0.1348909885 -0.7702037096 0.1696474105 2.346909522e-38
0.1982808411 -0.5283995867 0.3658899367 2.346909522e-38
0.08368650079 -0.3956080079 0.3734337687 2.346909522e-38
0.01910176501 -0.4059580266 0.291223973 2.346909522e-38
0.005310950801 -0.3347665966 0.2218886167 2.346801622e-38
0.1120807827 -0.4215629697 0.3777940869 2.346801622e-38
0.168869406 -0.4734728932 0.3865147233 2.346801622e-38
0.1218845546 -0.7694987059 0.1592025012 2.346801622e-38
0.1551789194 -0.4712748528 0.3646905422 2.346801622e-38
0.02677959949 -0.3498890102 0.3440310061 2.346801622e-38
0.09518755972 -0.7665957212 0.1269333214 2.346801622e-38
0.04247771204 -0.7622827291 0.07377432287 2.346801622e-38
-0.01179224066 -0.3616490066 0.2827110589 2.346693862e-38
-0.05219297484 -0.4229926169 0.1085704118 2.346693862e-38
-0.1484777033 -0.3184040487 0.1720514148 2.346693862e-38
0.1421724856 -0.4705698788 0.3542456031 2.346693862e-38
0.07081994414 -0.3888551593 0.1705768406 2.346693862e-38
0.06231817231 -0.4494789839 0.2988025844 2.346693862e-38
0.1389953494 -0.7791619301 0.237922892 2.346693862e-38
-0.02661430463 -0.3440830112 0.2794927359 2.346693862e-38
0.02035161108 -0.4151350558 0.293300271 2.346621835e-38
-0.1489252001 -0.3045291007 0.2020365596 2.346621835e-38
-0.124162145 -0.2967620492 0.2208501101 2.346621835e-38
0.1281450987 -0.4117603302 0.2435458601 2.346621835e-38
0.1558553278 -0.436222285 0.2365269512 2.346621835e-38
0.1225686073 -0.7709917426 0.1705817133 2.346621835e-38
0.06917467713 -0.7651857138 0.1060434729 2.346621835e-38
0.1269029081 -0.4391289651 0.3810124099 2.346621835e-38
0.09975841641 -0.4223510325 0.3787283897 2.346514075e-38
0.02746365964 -0.3513820767 0.3554102182 2.346514075e-38
-0.03918654844 -0.4236975908 0.119015336 2.346514075e-38
0.1417249739 -0.4566949308 0.3842307031 2.346514075e-38
0.07714022696 -0.4670449793 0.3020209074 2.346514075e-38
0.1428565383 -0.4720629156 0.365624845 2.346514075e-38
0.08286517859 -0.7673838139 0.1278676242 2.346514075e-38
-0.09826755524 -0.3043629527 0.2210578173 2.346514075e-38
-0.07047596574 -0.764896214 0.0480453223 2.346406175e-38
0.02160145342 -0.4243120849 0.295376569 2.346406175e-38
-0.02593024261 -0.3455760479 0.2908719778 2.346406175e-38
0.116843611 -0.4706529677 0.344734937 2.346406175e-38
0.05685227737 -0.7659738064 0.1069777757 2.346406175e-38
-0.1486886591 -0.2921472192 0.2434008867 2.346406175e-38
-0.1472278684 -0.3275810778 0.1741277128 2.346406175e-38
0.08924402297 -0.4034544528 0.2328932434 2.346406175e-38
0.1288291663 -0.4132533669 0.2549250722 2.346334289e-38
-0.08526109159 -0.3050679266 0.2315027416 2.346334289e-38
0.04852730781 -0.3782875538 0.2294672281 2.346334289e-38
-0.02286477014 -0.3716140985 0.2857216597 2.346334289e-38
0.1163884625 -0.4202324152 0.2351772338 2.346334289e-38
-0.02036508173 -0.3899681568 0.2898742557 2.346334289e-38
0.08354924619 -0.768876791 0.1392469257 2.346334289e-38
0.09083072841 -0.46924299 0.3238450587 2.346334289e-38
0.04546947405 -0.3887951374 0.3741603792 2.346226389e-38
0.02138285525 -0.3615096211 0.2271832228 2.346226389e-38
0.007810639217 -0.3531206548 0.2260412127 2.346226389e-38
0.06481786072 -0.4678330421 0.3029552102 2.346226389e-38
0.07386380434 -0.4147500992 0.3785206974 2.346226389e-38
-0.005761612207 -0.3447316885 0.2248992175 2.346226389e-38
0.1175276786 -0.4721460044 0.3561142087 2.346226389e-38
-0.1474388093 -0.3013242483 0.2454771847 2.346226389e-38
-0.147109583 -0.3213901222 0.1948098838 2.346118629e-38
-0.09701770544 -0.3135400116 0.2231341153 2.346118629e-38
0.1045212299 -0.4714410305 0.3456692398 2.346118629e-38
-0.05000924319 -0.3548361659 0.2834376395 2.346118629e-38
0.02410114184 -0.4426661432 0.2995291948 2.346118629e-38
0.08868587017 -0.4323160946 0.3817390203 2.346118629e-38
0.07122686505 -0.7696648836 0.1401812285 2.346118629e-38
-0.1459780186 -0.3367581069 0.1762040108 2.346118629e-38
-0.04522845894 -0.3287417889 0.223549515 2.346010729e-38
-0.004293171689 -0.4167111814 0.2951688766 2.346010729e-38
0.03620492667 -0.3790756166 0.2304015309 2.346010729e-38
0.07511365414 -0.4239271283 0.3805969954 2.346010729e-38
-0.03145663068 -0.7670111656 0.07938013971 2.346010729e-38
-0.1469912976 -0.3151991963 0.2154920995 2.346010729e-38
-0.04875940084 -0.364013195 0.2855139673 2.346010729e-38
0.06550191343 -0.4693260789 0.3143344223 2.346010729e-38
-0.1468730122 -0.3090082407 0.2361742556 2.345938842e-38
-0.1473205388 -0.2951332927 0.2661594152 2.345938842e-38
0.1052052975 -0.4729340672 0.3570485115 2.345938842e-38
-0.01087161899 -0.3507601619 0.3354546726 2.345938842e-38
0.1035079509 -0.4498820901 0.3849573135 2.345938842e-38
-0.04775938764 -0.452016741 0.1261785626 2.345938842e-38
0.1188957989 -0.4751320779 0.3788726926 2.345938842e-38
-0.05755084008 -0.3295298517 0.2244838178 2.345938842e-38
0.1013441086 -0.7800331116 0.2293465585 2.345830942e-38
0.1053159311 -0.4301974773 0.2381878495 2.345830942e-38
0.04589802027 -0.7697479725 0.1306705326 2.345830942e-38
0.03289155662 -0.7690429688 0.1202256233 2.345830942e-38
0.03745476902 -0.3882526457 0.2324778289 2.345830942e-38
-0.06842379272 -0.7693753242 0.08218304813 2.345830942e-38
-0.07465402037 -0.3564122915 0.2853062451 2.345830942e-38
-0.0882262364 -0.3480233252 0.2841642499 2.345830942e-38
-0.1483338177 -0.2735743821 0.3054474592 2.345723183e-38
0.09288291633 -0.4737221301 0.3579828143 2.345723183e-38
-0.07521980256 -0.3487282991 0.294609189 2.345723183e-38
-0.07340417802 -0.3655893207 0.2873825729 2.345723183e-38
0.05958852544 -0.7719459534 0.1524947733 2.345723183e-38
-0.04251017794 -0.4098983109 0.2958954871 2.345723183e-38
0.02056917921 -0.7698310614 0.1211599261 2.345723183e-38
0.08833767474 -0.7793281078 0.2189016193 2.345723183e-38
0.004752811044 -0.3636282384 0.3707343638 2.345615283e-38
0.09243540466 -0.459847182 0.3879679143 2.345615283e-38
0.1325787008 -0.4407844841 0.261153996 2.345615283e-38
0.00600265339 -0.3728052676 0.3728106916 2.345615283e-38
-0.1453866214 -0.3058033884 0.2796149254 2.345615283e-38
-0.07090449333 -0.3839433491 0.2915351689 2.345615283e-38
0.06584911793 -0.4142076075 0.236838147 2.345615283e-38
0.09038986266 -0.7838072181 0.25303936 2.345615283e-38
-0.04241088033 -0.7707852721 0.1030729562 2.345507523e-38
0.1072574705 -0.4774131775 0.3911862373 2.345507523e-38
-0.1446098983 -0.3397441804 0.1989624947 2.345507523e-38
-0.05483255535 -0.4106863737 0.2968297899 2.345507523e-38
-0.01411586069 -0.4358533025 0.3002558053 2.345507523e-38
0.09368525445 -0.4690242112 0.3900442421 2.345507523e-38
-0.1251934022 -0.3503875136 0.2869671583 2.345507523e-38
0.07533123344 -0.7786231041 0.2084566802 2.345507523e-38
-0.0980489701 -0.3671654165 0.2892511785 2.345399623e-38
0.06529097259 -0.4430692494 0.385683924 2.345399623e-38
0.09425103664 -0.4767082036 0.3807412982 2.345399623e-38
-0.04852283746 -0.3516313136 0.3268782794 2.345399623e-38
-0.1447025537 -0.3072964251 0.2909941673 2.345399623e-38
-0.1427942663 -0.3566052318 0.1917358637 2.345399623e-38
-0.06715495884 -0.4114744365 0.2977640927 2.345399623e-38
-0.08072717488 -0.4030855 0.2966220975 2.345399623e-38
0.08011303842 -0.4606352448 0.3889022171 2.345291723e-38
-0.007569594309 -0.3644163013 0.3716686964 2.345291723e-38
0.1072498336 -0.440867573 0.2516434193 2.345291723e-38
-0.04172682017 -0.7722783089 0.1144521981 2.345291723e-38
0.03938867897 -0.3989227116 0.2459333986 2.345291723e-38
0.07738341391 -0.7831022739 0.242594406 2.345291723e-38
-0.13984707 -0.3888342083 0.1659033746 2.345291723e-38
0.009752187878 -0.400336355 0.3790396154 2.345291723e-38
0.04795020819 -0.7742270827 0.164808318 2.345219836e-38
0.08136287332 -0.469812274 0.390978545 2.345219836e-38
-0.1091214865 -0.3771305382 0.2922617793 2.345219836e-38
-0.144018501 -0.3087894619 0.3023734093 2.345219836e-38
-0.1226937175 -0.3687415421 0.2911197841 2.345219836e-38
-0.1485883296 -0.3611406386 0.2909120917 2.345219836e-38
-0.1078716516 -0.3863075376 0.2943380773 2.345219836e-38
0.04222523049 -0.4738883078 0.3389615119 2.345219836e-38
0.02400846779 -0.410218358 0.3915608525 2.345111936e-38
-0.1451500654 -0.2934214771 0.3209793568 2.345111936e-38
0.06779065728 -0.4614233077 0.38983652 2.345111936e-38
-0.04104276001 -0.7737714052 0.1258314401 2.345111936e-38
-0.1055905446 -0.3418591619 0.2302973419 2.345111936e-38
-0.1462816447 -0.2780534923 0.3395851851 2.345111936e-38
-0.02393857762 -0.4549953938 0.3053427041 2.345111936e-38
0.05591573194 -0.4760863185 0.3607857525 2.345111936e-38
-0.04715471715 -0.3546173871 0.3496368229 2.345004176e-38
0.05477652699 -0.4241726995 0.2398487628 2.345004176e-38
-0.1176943332 -0.4054496586 0.2994250059 2.345004176e-38
-0.09054989368 -0.4222276211 0.3017089963 2.345004176e-38
0.06574507803 -0.7853833437 0.2549079657 2.345004176e-38
-0.1460886449 -0.3794946969 0.2950646877 2.345004176e-38
-0.07697764039 -0.4306165576 0.3028510213 2.345004176e-38
-0.1402945817 -0.3749592602 0.1958884746 2.345004176e-38
-0.01308461092 -0.3822278678 0.2341387421 2.344896276e-38
-0.1164444983 -0.4146266878 0.3015013039 2.344896276e-38
-0.1361476928 -0.3541616499 0.310659945 2.344896276e-38
-0.1108188331 -0.3540785611 0.3201705813 2.344896276e-38
0.05137051269 -0.7816922665 0.2217045277 2.344896276e-38
0.03631186485 -0.7765082121 0.1771218628 2.344896276e-38
-0.009116483852 -0.472561419 0.3085610271 2.344896276e-38
