# .PCD v0.7 - Point Cloud Data file format
VERSION 0.7
FIELDS x y z rgb
SIZE 4 4 4 4
TYPE F F F F
COUNT 1 1 1 1
WIDTH 826
HEIGHT 1
VIEWPOINT 0 0 0 1 0 0 0
POINTS 826
DATA ascii
0.3049540818 0.04391855001 0.09889532626 9.273863302e-39
-0.3349125981 -0.3885906339 -0.16708754 9.273863302e-39
0.3049262464 -0.1234183535 -0.2284437716 9.457532893e-39
0.3048615158 0.04365103319 0.1113284826 9.457532893e-39
0.3176553249 -0.01532086916 -0.05162461102 9.457532893e-39
0.3172936141 -0.1238882318 -0.2158765346 9.457532893e-39
0.3047689497 0.04338351637 0.123761639 9.457532893e-39
-0.132540971 -0.239759922 -0.2857800722 9.457532893e-39
0.3178880513 0.03313937038 0.01170598157 9.457532893e-39
0.3178656101 0.0569681786 0.06202105433 9.457532893e-39
-0.2848988473 -0.3769506514 -0.1662601531 9.641561216e-39
0.3170747757 -0.08868002146 -0.1155376285 9.641561216e-39
0.0315252021 -0.09299725294 -0.2805430889 9.641561216e-39
0.1185710132 -0.106863305 -0.2798959613 9.641561216e-39
0.317817986 0.009042978287 -0.02617587708 9.641561216e-39
-0.2473338842 -0.3770227432 -0.1907243431 9.641561216e-39
-0.1327148527 -0.2522093654 -0.2860712409 9.641561216e-39
-0.471568197 -0.4210377634 -0.293767333 9.641561216e-39
-0.5186257958 -0.22103706 -0.2896443605 9.825230807e-39
0.3176804781 0.05643314496 0.08688741922 9.825230807e-39
0.3176526427 -0.1109037548 -0.2404516786 9.825230807e-39
-0.1328887492 -0.2646588385 -0.2863624692 9.825230807e-39
-0.2347813696 -0.3769575655 -0.2030234784 9.825230807e-39
0.3047411442 -0.1239533946 -0.2035774291 9.825230807e-39
-0.118863754 -0.1528161019 -0.2836076617 9.825230807e-39
-0.06832838058 -0.1038277745 -0.2819066644 9.825230807e-39
0.3054056764 0.05717054754 0.06188700348 1.000925913e-38
-0.5194952488 -0.2832843363 -0.2911003232 1.000925913e-38
0.3170159459 -0.1246907786 -0.1785770506 1.000925913e-38
-0.2973588407 -0.3767482936 -0.1663942039 1.000925913e-38
-0.2597938776 -0.3768203855 -0.1908583939 1.000925913e-38
0.3180116713 -0.09791924804 -0.2650268078 1.000925913e-38
0.3046148419 -0.08847765625 -0.1156716719 1.000925913e-38
-0.5196691751 -0.2957337499 -0.2913915515 1.000925913e-38
0.305192709 -0.1107013822 -0.2405857295 1.019292872e-38
-0.3348200321 -0.3883231282 -0.1795207262 1.019292872e-38
0.3053580523 0.009245347232 -0.02630992606 1.019292872e-38
-0.09342215955 -0.11587248 -0.2824659348 1.019292872e-38
-0.1450009048 -0.2395575494 -0.2859141231 1.019292872e-38
-0.5200169683 -0.3206326663 -0.2919739485 1.019292872e-38
0.3055094481 0.04552365839 0.02429634333 1.019292872e-38
-0.1444792449 -0.2022091895 -0.2850404978 1.019292872e-38
0.3051279783 0.05636799335 0.09918652475 1.037659831e-38
-0.4937058687 -0.2214417905 -0.2893762589 1.037659831e-38
-0.518104136 -0.1836886704 -0.2887707353 1.037659831e-38
-0.5072092414 -0.2959361374 -0.2912575006 1.037659831e-38
-0.5175824761 -0.1463403106 -0.2878971696 1.037659831e-38
-0.4944014251 -0.2712395787 -0.2905410528 1.037659831e-38
-0.005680806004 -0.07994070649 -0.2806540132 1.037659831e-38
0.3049513996 -0.05166433007 -0.08993174136 1.037659831e-38
0.3180619478 0.04558881372 0.0119971782 1.056062664e-38
0.3179191053 -0.09818676859 -0.2525936663 1.056062664e-38
-0.2597013116 -0.37655285 -0.2032915801 1.056062664e-38
-0.4815937281 -0.2465430498 -0.289824605 1.056062664e-38
-0.4945753217 -0.2836890519 -0.2908322215 1.056062664e-38
-0.505818069 -0.1963405013 -0.2889279127 1.056062664e-38
0.08136505634 -0.09380672872 -0.2800068855 1.056062664e-38
-0.2471487522 -0.3764877021 -0.2155906856 1.056062664e-38
-0.5056442022 -0.1838910431 -0.2886366844 1.074429623e-38
0.3177478909 -0.01505335234 -0.06405779719 1.074429623e-38
-0.5170608163 -0.1089919582 -0.2870236039 1.074429623e-38
0.3179918826 0.02149241976 -0.02588468045 1.074429623e-38
-0.481245935 -0.2216441631 -0.289242208 1.074429623e-38
0.3172486722 -0.07623054832 -0.11524643 1.074429623e-38
-0.520190835 -0.3330821097 -0.2922651172 1.074429623e-38
0.3173749745 -0.111706309 -0.2031521946 1.074429623e-38
-0.5051225424 -0.1465426832 -0.2877631187 1.092796582e-38
-0.5054703355 -0.1714415997 -0.2883455157 1.092796582e-38
0.3050075769 -0.1112364233 -0.2157193869 1.092796582e-38
-0.4819414914 -0.2714419663 -0.290407002 1.092796582e-38
-0.1572869718 -0.2269057333 -0.2857569456 1.092796582e-38
-0.5052964091 -0.1589921564 -0.288054347 1.092796582e-38
0.3180731833 0.03367440403 -0.01316032745 1.092796582e-38
0.3176665604 -0.02723530494 -0.07678214461 1.092796582e-38
0.3170047104 -0.1127763838 -0.1534195095 1.111163541e-38
0.3058181703 -0.08499991894 -0.2773028016 1.111163541e-38
-0.01814075373 -0.07973834127 -0.280788064 1.111163541e-38
-0.4821153879 -0.2838914394 -0.2906981707 1.111163541e-38
-0.4810720384 -0.20919469 -0.2889510393 1.111163541e-38
-0.105882138 -0.1156701148 -0.2825999856 1.111163541e-38
0.2433444858 -0.09643751383 -0.2782642841 1.111163541e-38
-0.2721612155 -0.3763504624 -0.2034256309 1.111163541e-38
0.3181432784 0.05777073279 0.02472158894 1.1295305e-38
-0.4090945125 -0.4096001685 -0.2928059101 1.1295305e-38
0.1187448949 -0.09441383183 -0.279604733 1.1295305e-38
0.3054506183 0.009512864985 -0.03874310851 1.1295305e-38
-0.4930103123 -0.1716439575 -0.2882114649 1.1295305e-38
0.3171673417 -0.08841250092 -0.1279708147 1.1295305e-38
-0.5046008825 -0.1091943234 -0.2868895531 1.1295305e-38
-0.4693076015 -0.2591948807 -0.2899817824 1.1295305e-38
-0.1439575702 -0.1648608297 -0.2841669321 1.147897319e-38
0.3181855381 -0.0854698047 -0.2647356391 1.147897319e-38
0.3171898425 -0.1122413501 -0.1782858521 1.147897319e-38
0.3175852299 -0.03941722959 -0.08950649947 1.147897319e-38
0.3045447767 -0.1125740111 -0.1535535604 1.147897319e-38
-0.468612045 -0.2093970627 -0.2888169885 1.147897319e-38
0.3055319488 0.02169478685 -0.02601872757 1.147897319e-38
0.3052879572 -0.0148509834 -0.06419184059 1.147897319e-38
0.3053944409 0.06908495724 0.08704456687 1.166264278e-38
-0.1567652971 -0.1895573586 -0.2848833799 1.166264278e-38
-0.5042530894 -0.08429541439 -0.2863071561 1.166264278e-38
0.3056132495 0.03387677297 -0.0132943755 1.166264278e-38
-0.4464744031 -0.4089930654 -0.293208003 1.166264278e-38
0.1810446829 -0.09542567283 -0.2789344788 1.166264278e-38
-0.4568476677 -0.2593972385 -0.2898477316 1.166264278e-38
-0.4682642817 -0.1844981462 -0.2882345915 1.166264278e-38
-0.2846211493 -0.3761481047 -0.2035596669 1.184631237e-38
-0.4800286889 -0.1344979703 -0.2872038484 1.184631237e-38
-0.4921408594 -0.1093966961 -0.2867555022 1.184631237e-38
-0.5040792227 -0.07184597105 -0.2860159278 1.184631237e-38
-0.4713943005 -0.40858832 -0.2934761047 1.184631237e-38
0.3053018749 0.0688174367 0.09947772324 1.184631237e-38
0.3057256043 -0.08526743948 -0.2648696899 1.184631237e-38
0.3047299087 -0.1120389774 -0.1784199029 1.184631237e-38
-0.4440399408 -0.2347007096 -0.2891312838 1.202998196e-38
0.3056945801 0.04605869576 -0.0005700234324 1.202998196e-38
0.304707408 -0.0882101357 -0.1281048656 1.202998196e-38
-0.4828109443 -0.3336892128 -0.2918629646 1.202998196e-38
-0.3096336424 -0.3760108948 -0.1913945824 1.202998196e-38
-0.5163652301 -0.05919413641 -0.2858588099 1.202998196e-38
-0.4570215642 -0.2718466818 -0.2901389003 1.202998196e-38
-0.507904768 -0.3457339704 -0.2924222946 1.202998196e-38
0.3052740395 -0.09851942956 -0.2278613746 1.221365155e-38
-0.4798548222 -0.1220485121 -0.2869126201 1.221365155e-38
-0.1309759617 -0.1277148128 -0.2831593156 1.221365155e-38
0.3184520006 -0.07275281101 -0.2768775821 1.221365155e-38
-0.4554565549 -0.1598016322 -0.2875181437 1.221365155e-38
0.006953032687 -0.06769360602 -0.2802287936 1.221365155e-38
-0.4433443844 -0.1849028766 -0.2879664898 1.221365155e-38
-0.470350951 -0.3338916004 -0.2917289138 1.221365155e-38
-0.4447354972 -0.2844985425 -0.2902960777 1.239732115e-38
-0.005506915972 -0.06749123335 -0.2803628445 1.239732115e-38
0.2559783161 -0.08419044316 -0.277839005 1.239732115e-38
-0.2590533495 -0.3746802211 -0.2903237343 1.239732115e-38
-0.4319277406 -0.2598019838 -0.2895796299 1.239732115e-38
0.317548871 -0.09925683588 -0.2028609961 1.239732115e-38
-0.454934895 -0.1224532425 -0.2866445184 1.239732115e-38
-0.4431704879 -0.1724534333 -0.2876752615 1.239732115e-38
0.3056330383 -0.08553496003 -0.2524365187 1.258099074e-38
-0.1692252755 -0.189354986 -0.2850174308 1.258099074e-38
-0.09307438135 -0.09097357094 -0.2818835378 1.258099074e-38
0.3059920669 -0.0725504458 -0.2770116329 1.258099074e-38
-0.4312321842 -0.2100041658 -0.2884148359 1.258099074e-38
-0.4308844209 -0.1851052493 -0.2878324389 1.258099074e-38
0.317840457 -0.01478583366 -0.07649094611 1.258099074e-38
-0.4424749315 -0.1226556152 -0.2865104675 1.258099074e-38
-0.3840007186 -0.3975554407 -0.2922465801 1.276466033e-38
-0.4578910172 -0.3340939581 -0.2915948629 1.276466033e-38
-0.4545871019 -0.09755435586 -0.2860621214 1.276466033e-38
0.2682922482 0.07049461454 0.04934290051 1.276466033e-38
-0.4324494302 -0.2971503437 -0.2904531956 1.276466033e-38
-0.491445303 -0.0595988743 -0.2855907083 1.276466033e-38
0.3050889373 -0.09905446321 -0.2029950321 1.276466033e-38
-0.4300149679 -0.122857973 -0.2863764167 1.276466033e-38
0.1064588428 -0.08176202327 -0.2794476151 1.294832852e-38
-0.2715132833 -0.3744778335 -0.2904577851 1.294832852e-38
-0.4836803973 -0.3959364891 -0.2933189869 1.294832852e-38
-0.4185983241 -0.1977570802 -0.2879895568 1.294832852e-38
-0.3964606822 -0.3973530829 -0.292380631 1.294832852e-38
-0.432623297 -0.309599787 -0.2907444239 1.294832852e-38
-0.5161913633 -0.04674469307 -0.2855675817 1.294832852e-38
0.3057871461 0.04632621258 -0.01300317794 1.294832852e-38
-0.4666992724 -0.07245307416 -0.2856137753 1.313163938e-38
-0.4068339467 -0.247757256 -0.2890202999 1.313163938e-38
0.1189187914 -0.08196438849 -0.2793135643 1.313163938e-38
-0.2464194745 -0.3624331355 -0.2898984551 1.313163938e-38
0.2808447778 0.07055976242 0.03704379499 1.313163938e-38
-0.4089206159 -0.3971506953 -0.2925146818 1.313163938e-38
0.268107146 0.0699595809 0.07420921326 1.313163938e-38
-0.4054428041 -0.1481616348 -0.286690712 1.313163938e-38
-0.4057905972 -0.1730605364 -0.287273109 1.331530897e-38
-0.4064861536 -0.2228583694 -0.2884379029 1.331530897e-38
-0.1818591207 -0.2016020864 -0.2854426503 1.331530897e-38
-0.3218159676 -0.3750059605 -0.2288281322 1.331530897e-38
0.218598485 -0.08358334005 -0.2782411575 1.331530897e-38
0.31790784 -0.08627235889 -0.2274361253 1.331530897e-38
-0.4463005066 -0.3965435922 -0.2929168344 1.331530897e-38
-0.4063122571 -0.2104088962 -0.2881467342 1.331530897e-38
-0.4199894667 -0.2973527014 -0.2903191447 1.349897856e-38
-0.2841696143 -0.3628961146 -0.2405679673 1.349897856e-38
-0.2588794529 -0.3622307777 -0.290032506 1.349897856e-38
-0.4173811078 -0.1106109023 -0.2859511971 1.349897856e-38
0.3184097409 0.07048769295 0.01257957146 1.349897856e-38
-0.284158349 -0.3748105168 -0.2657254934 1.349897856e-38
-0.4052689075 -0.1357121915 -0.2863995433 1.349897856e-38
-0.40718171 -0.2726561725 -0.2896026969 1.349897856e-38
0.2557397187 0.07042945921 0.06164200604 1.368228942e-38
-0.4294932783 -0.08550962061 -0.285502851 1.368228942e-38
0.04433293641 -0.06830070913 -0.2798266411 1.368228942e-38
-0.283973217 -0.3742754757 -0.290591836 1.368228942e-38
0.3048112392 -0.0998570174 -0.1656955481 1.368228942e-38
-0.4710465074 -0.3836894333 -0.2928937078 1.368228942e-38
0.3176777959 -0.03914971277 -0.1019396782 1.368228942e-38
-0.1055343598 -0.09077119827 -0.2820175886 1.368228942e-38
0.1812185794 -0.08297622949 -0.2786433101 1.386595901e-38
-0.3217234015 -0.3747384548 -0.2412613034 1.386595901e-38
0.2933972776 0.0706249103 0.02474468946 1.386595901e-38
0.3183396459 0.04639136419 -0.02530228347 1.386595901e-38
-0.5037314296 -0.04694706202 -0.2854335308 1.386595901e-38
-0.03042680956 -0.06708649546 -0.2806309462 1.386595901e-38
-0.2713394165 -0.3620283902 -0.2901665568 1.386595901e-38
-0.42033723 -0.3222516179 -0.2909015417 1.386595901e-38
-0.3945478797 -0.2604090869 -0.2891774774 1.404926846e-38
-0.08044055104 -0.07872649282 -0.2814583182 1.404926846e-38
-0.1687036008 -0.1520066261 -0.2841438055 1.404926846e-38
0.2556471527 0.07016194612 0.07407516241 1.404926846e-38
-0.3684107363 -0.1736676544 -0.286871016 1.404926846e-38
0.05679288507 -0.06850307435 -0.2796925902 1.404926846e-38
-0.1944929808 -0.2138491571 -0.2858679295 1.404926846e-38
-0.1827285737 -0.2638493478 -0.2868986726 1.404926846e-38
0.3054479063 -0.08606999367 -0.2275701761 1.423293806e-38
-0.3216308355 -0.3744709492 -0.2536944747 1.423293806e-38
-0.3947217762 -0.2728585303 -0.289468646 1.423293806e-38
-0.1558958441 -0.1273100823 -0.2834273577 1.423293806e-38
-0.3819140494 -0.2481620014 -0.2887521982 1.423293806e-38
-0.44612661 -0.3840941489 -0.2926256061 1.423293806e-38
-0.3088931441 -0.3738707304 -0.2908599377 1.423293806e-38
0.2809373438 0.07082728297 0.02461064234 1.423293806e-38
-0.3687584996 -0.198566556 -0.287453413 1.441624891e-38
-0.3815662563 -0.2232630998 -0.2881698012 1.441624891e-38
-0.4293194115 -0.07306018472 -0.2852116227 1.441624891e-38
-0.2965257764 -0.3743406534 -0.2782927155 1.441624891e-38
-0.458412677 -0.371442318 -0.2924684882 1.441624891e-38
-0.3587329984 -0.3730612695 -0.2913960814 1.441624891e-38
-0.1306281686 -0.1028159335 -0.2825769186 1.441624891e-38
-0.4085728228 -0.3722517788 -0.2919322848 1.441624891e-38
-0.3087192774 -0.3614212871 -0.2905687094 1.459991851e-38
-0.3214457035 -0.3739359081 -0.2785608172 1.459991851e-38
-0.4582388103 -0.3589928746 -0.2921772599 1.459991851e-38
0.3052178621 -0.03894734383 -0.102073729 1.459991851e-38
0.3180143535 -0.002336391713 -0.07619975507 1.459991851e-38
-0.3436647058 -0.1865218282 -0.286894083 1.459991851e-38
0.3057170808 0.02222982422 -0.05088506639 1.459991851e-38
0.3177227378 -0.08680739254 -0.2025697976 1.459991851e-38
-0.3339056373 -0.3737335503 -0.2786948681 1.478322936e-38
0.08171283454 -0.06890781224 -0.2794244885 1.478322936e-38
-0.3564724326 -0.211218372 -0.2876105309 1.478322936e-38
0.2309123725 0.07110171765 0.04894076288 1.478322936e-38
0.2436922491 -0.0715386048 -0.2776818871 1.478322936e-38
0.2934898436 0.07089243084 0.01231147721 1.478322936e-38
0.2430946231 0.07009679824 0.08637432754 1.478322936e-38
-0.09290049225 -0.0785241276 -0.2815923691 1.478322936e-38
0.3185333312 -0.06057088822 -0.2641532421 1.496689755e-38
-0.1951885521 -0.2636469901 -0.2870327234 1.496689755e-38
-0.3677151799 -0.1238698289 -0.2857062221 1.496689755e-38
0.2937059999 -0.05989864096 -0.2768544555 1.496689755e-38
-0.3312047422 -0.1867242008 -0.2867600322 1.496689755e-38
-0.05534673482 -0.06668176502 -0.2808989882 1.496689755e-38
0.3056357503 0.01004790049 -0.06360945106 1.496689755e-38
0.3174450397 -0.08760994673 -0.1652702987 1.496689755e-38
-0.3798273504 -0.09876856953 -0.2852578759 1.515020841e-38
-0.1683558226 -0.1271077096 -0.2835614085 1.515020841e-38
-0.3315525055 -0.2116231024 -0.2873424292 1.515020841e-38
-0.1811635494 -0.1518042535 -0.2842778563 1.515020841e-38
-0.2318728417 -0.213242054 -0.286270082 1.515020841e-38
-0.331726402 -0.2240725756 -0.2876336575 1.515020841e-38
-0.3554290831 -0.1365216672 -0.2858633399 1.515020841e-38
-0.193971321 -0.1765008122 -0.2849943042 1.515020841e-38
0.2310049385 0.07136923075 0.03650760651 1.533351927e-38
0.3057143688 -0.07335299999 -0.239712134 1.533351927e-38
0.2810299098 0.07109480351 0.01217742823 1.533351927e-38
-0.3319002986 -0.2365220189 -0.2879248261 1.533351927e-38
-0.219934538 -0.2507927716 -0.2870095968 1.533351927e-38
-0.3189186752 -0.1993760318 -0.2869172096 1.533351927e-38
-0.3701496422 -0.2981621921 -0.2897829413 1.533351927e-38
-0.3831312656 -0.3353081644 -0.2907906175 1.533351927e-38
-0.3190925717 -0.2118254751 -0.2872083783 1.551683013e-38
-0.333557874 -0.3488346636 -0.2781124711 1.551683013e-38
-0.2441589087 -0.200590238 -0.2861129045 1.551683013e-38
0.3183508813 0.03447695822 -0.05045982078 1.551683013e-38
-0.2076485008 -0.2634446323 -0.2871667743 1.551683013e-38
0.2306346893 0.07029916346 0.08624028414 1.551683013e-38
-0.3210979402 -0.3490370214 -0.2779784203 1.551683013e-38
-0.2566188872 -0.2003878802 -0.2862469554 1.551683013e-38
0.2187723815 -0.07113386691 -0.2779499888 1.570049832e-38
-0.3062848151 -0.1871289313 -0.2864919305 1.570049832e-38
0.3055544198 -0.002134023234 -0.07633379847 1.570049832e-38
-0.3194403648 -0.2367243916 -0.2877907753 1.570049832e-38
-0.1430881172 -0.1026135683 -0.2827109694 1.570049832e-38
0.305170238 -0.08687254786 -0.1902706921 1.570049832e-38
-0.2960854471 -0.3491742313 -0.2901434898 1.570049832e-38
-0.1809896678 -0.139354825 -0.2839866877 1.570049832e-38
0.2063124329 -0.07093149424 -0.2780840397 1.588380918e-38
-0.3320741951 -0.2489714473 -0.2882160544 1.588380918e-38
-0.2439850122 -0.1881407797 -0.2858217359 1.588380918e-38
-0.1937974244 -0.1640513688 -0.2847031355 1.588380918e-38
-0.281364888 -0.1875336617 -0.2862238288 1.588380918e-38
-0.3209240437 -0.3365875483 -0.277687192 1.588380918e-38
-0.345751375 -0.3359152675 -0.2903884649 1.588380918e-38
-0.344881922 -0.273668021 -0.2889324427 1.588380918e-38
-0.3704974055 -0.3230611086 -0.2903653383 1.606712004e-38
-0.2696005106 -0.2375338674 -0.2872545719 1.606712004e-38
0.1564725935 -0.07012202591 -0.2786201835 1.606712004e-38
-0.2709102929 -0.3249475956 -0.2768598199 1.606712004e-38
0.2185449749 0.07157160342 0.03637355566 1.606712004e-38
-0.3332914114 -0.336117655 -0.2902544141 1.606712004e-38
0.04450682551 -0.05585126951 -0.2795354128 1.606712004e-38
-0.3196142614 -0.2491738051 -0.2880820036 1.606712004e-38
-0.1053604707 -0.07832176238 -0.2817264199 1.625043089e-38
-0.3208314776 -0.3363200128 -0.2901203632 1.625043089e-38
0.1689325422 -0.07032439113 -0.2784861326 1.625043089e-38
-0.2815387547 -0.1999831349 -0.2865150571 1.625043089e-38
-0.3450558186 -0.2861174941 -0.289223671 1.625043089e-38
-0.2581838965 -0.3124329448 -0.288867712 1.625043089e-38
-0.358037442 -0.3232634664 -0.2902312875 1.625043089e-38
0.2058998942 0.07123893499 0.06110581756 1.625043089e-38
-0.2936509848 -0.1748818606 -0.2860667109 1.643374035e-38
-0.2188912034 -0.1760960668 -0.2852624059 1.643374035e-38
-0.3322480619 -0.2614209354 -0.2885072231 1.643374035e-38
-0.2959115505 -0.3367247581 -0.2898522615 1.643374035e-38
-0.2313511819 -0.1758936942 -0.2853964567 1.643374035e-38
-0.29583022 -0.3245428503 -0.2771279216 1.643374035e-38
-0.307154268 -0.2493761927 -0.2879479527 1.643374035e-38
-0.3454035819 -0.311016351 -0.2898060679 1.643374035e-38
-0.3331175148 -0.3236682117 -0.2899631858 1.661705121e-38
-0.3549074233 -0.09917330742 -0.2849897742 1.661705121e-38
0.05696677417 -0.05605364218 -0.2794013619 1.661705121e-38
-0.25801 -0.2999835014 -0.2885765433 1.661705121e-38
-0.3671934903 -0.08652146906 -0.2848325968 1.661705121e-38
-0.2573144436 -0.2501856685 -0.2874117494 1.661705121e-38
-0.3206575811 -0.3238705695 -0.2898291945 1.661705121e-38
0.2563261092 -0.0592915304 -0.277256608 1.661705121e-38
-0.2697744071 -0.2499832958 -0.2875458002 1.680036207e-38
-0.4538915455 -0.04775653407 -0.2848973274 1.680036207e-38
-0.2934770882 -0.1624324173 -0.2857754827 1.680036207e-38
-0.3182231188 -0.1495782137 -0.2857524157 1.680036207e-38
-0.1555480659 -0.1024112031 -0.2828450203 1.680036207e-38
-0.4042255878 -0.06101544946 -0.2846523523 1.680036207e-38
-0.2810170949 -0.1626347899 -0.2856414318 1.680036207e-38
0.30633986 -0.04765156284 -0.2764292359 1.680036207e-38
-0.3080236912 -0.3116234839 -0.2894039154 1.698367293e-38
-0.2452022433 -0.2752869427 -0.2878600955 1.698367293e-38
-0.1934496462 -0.1391524523 -0.2841207385 1.698367293e-38
-0.2060834765 -0.151399523 -0.284545958 1.698367293e-38
-0.2950420976 -0.2744774818 -0.2883962989 1.698367293e-38
-0.3078498244 -0.2991740406 -0.2891127467 1.698367293e-38
-0.2831037641 -0.3120281994 -0.2891358137 1.698367293e-38
0.3183481991 -0.06110592186 -0.2392868847 1.698367293e-38
0.3186061084 0.05910832435 -0.03744427115 1.716698239e-38
0.3187072277 -0.04812144861 -0.2638620138 1.716698239e-38
-0.2952159941 -0.286926955 -0.2886874676 1.716698239e-38
0.3055292368 -0.07388804108 -0.2148457915 1.716698239e-38
0.318687439 0.07129024714 -0.02471989021 1.716698239e-38
-0.04271289706 -0.05443469062 -0.2804737687 1.716698239e-38
0.2686625123 0.07156468183 -0.0003897733986 1.716698239e-38
-0.3299874961 -0.09957804531 -0.2847216725 1.716698239e-38
-0.2557494342 -0.1381406039 -0.2847909927 1.735029324e-38
0.3181068897 -0.002068873961 -0.08863290399 1.735029324e-38
-0.3054153621 -0.1248816773 -0.2850359678 1.735029324e-38
-0.280495435 -0.1252864003 -0.2847678661 1.735029324e-38
-0.2929554284 -0.1250840276 -0.284901917 1.735029324e-38
-0.005159135908 -0.04259235412 -0.2797804475 1.735029324e-38
-0.2183695287 -0.138747707 -0.2843888402 1.735029324e-38
0.0943466723 -0.05666074529 -0.278999269 1.735029324e-38
-0.3422735631 -0.0869261995 -0.2845644951 1.75336041e-38
-0.2803215384 -0.112836957 -0.2844766378 1.75336041e-38
0.2061775923 0.07204148918 0.02380635589 1.75336041e-38
0.3050664365 -0.07522562891 -0.1526799649 1.75336041e-38
-0.2554016709 -0.1132416949 -0.2842085958 1.75336041e-38
-0.2431155592 -0.1258935034 -0.2843657136 1.75336041e-38
0.106806621 -0.05686311051 -0.2788652182 1.75336041e-38
-0.2181956321 -0.1262982488 -0.2840976119 1.75336041e-38
0.3180255592 -0.01425079815 -0.1013572887 1.771655483e-38
-0.3298135996 -0.08712857217 -0.2844304442 1.771655483e-38
-0.2676877081 -0.1005898863 -0.2840514183 1.771655483e-38
0.3184434474 0.03474447504 -0.06289300323 1.771655483e-38
0.2812150419 0.07162983716 -0.01268887892 1.771655483e-38
0.03222076595 -0.04319946095 -0.2793782949 1.771655483e-38
0.1192665696 -0.05706548318 -0.2787311673 1.771655483e-38
0.1686125696 0.07211355865 0.04827052355 1.771655483e-38
-0.4043604136 0.08195754141 0.01723800972 1.789986569e-38
-0.2055618167 -0.1140511706 -0.2836723924 1.789986569e-38
0.3051590025 -0.07495810837 -0.1651131511 1.789986569e-38
-0.4291877747 0.08262979984 0.004536701366 1.789986569e-38
0.1811650693 0.07217870653 0.0359714143 1.789986569e-38
-0.06763281673 -0.05402995646 -0.2807418704 1.789986569e-38
0.2437425554 0.07196941972 -0.0006578695029 1.789986569e-38
-0.1051865816 -0.06587228924 -0.2814351916 1.789986569e-38
0.3057956994 -0.06117107719 -0.2269877791 1.808317654e-38
-0.4784636796 -0.02245288529 -0.2845830321 1.808317654e-38
0.3061547279 -0.04818659648 -0.2515629232 1.808317654e-38
-0.3420996964 -0.07447676361 -0.2842733264 1.808317654e-38
-0.4040516913 -0.04856600985 -0.2843611836 1.808317654e-38
-0.1678341627 -0.08975935727 -0.2826878428 1.808317654e-38
-0.3919004798 0.08175517619 0.01737206057 1.808317654e-38
-0.4167278111 0.08242742717 0.00467075035 1.808317654e-38
0.2440400422 -0.04663972184 -0.2770994902 1.826612727e-38
0.1687051356 0.07238107175 0.03583736718 1.826612727e-38
0.3177002668 -0.06297855079 -0.1522547156 1.826612727e-38
-0.366845727 -0.06162255257 -0.2842501998 1.826612727e-38
-0.2550538778 -0.08834277838 -0.2836261988 1.826612727e-38
0.1938101351 0.0725113824 0.01123909466 1.826612727e-38
0.3054842949 -0.0262303818 -0.1142156869 1.826612727e-38
-0.142740339 -0.07771465182 -0.2821285725 1.826612727e-38
-0.3915917575 -0.04876837507 -0.2842271328 1.844943813e-38
0.1558749378 0.07151337713 0.08543599397 1.844943813e-38
0.3063200712 0.07176013291 -0.0372871235 1.844943813e-38
0.1436001062 0.07225077599 0.06043557823 1.844943813e-38
-0.4907497466 -0.009801074862 -0.2844259143 1.844943813e-38
0.2813076079 0.0718973577 -0.02512203343 1.844943813e-38
0.08206061274 -0.04400893301 -0.2788420916 1.844943813e-38
-0.5154957771 0.003053134307 -0.2844027877 1.844943813e-38
0.3064211905 -0.03546961024 -0.263704896 1.863274899e-38
0.3181994557 -0.001801355858 -0.1010660902 1.863274899e-38
0.1562451869 0.07258344442 0.03570332006 1.863274899e-38
0.3178853989 -0.06244351715 -0.1771210581 1.863274899e-38
-0.1552002877 -0.0775122866 -0.2822626233 1.863274899e-38
-0.05499895662 -0.04178288206 -0.2803165913 1.863274899e-38
-0.3918079138 0.08202269673 0.004938846454 1.863274899e-38
0.2688476443 0.07209972292 -0.02525608055 1.863274899e-38
-0.379131794 -0.04897074401 -0.284093082 1.881569971e-38
0.1942002028 -0.04583024979 -0.2776356936 1.881569971e-38
0.3061574101 0.0473962836 -0.06273585558 1.881569971e-38
-0.3419257998 -0.06202729046 -0.2839820981 1.881569971e-38
0.3053328991 -0.06250866503 -0.1648219526 1.881569971e-38
-0.1301065087 -0.06546755135 -0.2817032933 1.881569971e-38
0.1437852383 0.07278580964 0.03556926921 1.881569971e-38
0.3053216636 -0.05059425905 -0.1396644115 1.881569971e-38
0.04485460371 -0.03095235676 -0.2789530158 1.899901057e-38
0.305739522 -0.001598987379 -0.1012001336 1.899901057e-38
0.1186801493 0.07265551388 0.06016748399 1.899901057e-38
-0.1676602662 -0.07730991393 -0.2823966146 1.899901057e-38
0.1563377529 0.07285096496 0.02327016369 1.899901057e-38
0.1688902527 0.07291611284 0.01097099856 1.899901057e-38
0.3183369637 -0.04919151962 -0.2141293585 1.899901057e-38
-0.4658298194 -0.01020581089 -0.2841578126 1.899901057e-38
-0.4290026426 0.08316483349 -0.02032960579 1.91819627e-38
0.3186959922 -0.03620701656 -0.2387045026 1.91819627e-38
0.05731455982 -0.0311547257 -0.278818965 1.91819627e-38
0.1187727153 0.07292303443 0.04773432761 1.91819627e-38
0.3064126372 0.07202765346 -0.04972027615 1.91819627e-38
0.2442139387 -0.03419025242 -0.2768082619 1.91819627e-38
0.3056581914 -0.01378091145 -0.1139244884 1.91819627e-38
-0.3170059025 -0.06243202835 -0.2837139964 1.91819627e-38
0.3178741634 -0.05052911118 -0.151963532 1.936527215e-38
-0.1801202148 -0.07710754871 -0.2825306654 1.936527215e-38
0.1564303041 0.07311848551 0.01083695143 1.936527215e-38
0.3182444274 -0.04945904016 -0.2016962022 1.936527215e-38
-0.4165426791 0.08296246082 -0.02019555867 1.936527215e-38
0.1689828187 0.07318362594 -0.001462155953 1.936527215e-38
-0.02990513854 -0.02973814681 -0.2797573209 1.936527215e-38
0.2317539752 -0.03398788348 -0.2769423127 1.936527215e-38
0.3062360585 -0.03600464761 -0.2388385385 1.954822428e-38
0.2064552754 0.07284404337 -0.01349316631 1.954822428e-38
0.09376025945 0.07306025177 0.05989938974 1.954822428e-38
-0.3668879867 0.08161795884 0.005206940696 1.954822428e-38
-0.3542118669 -0.0493754819 -0.2838249803 1.954822428e-38
0.1188652813 0.07319054753 0.03530117497 1.954822428e-38
-0.1925801933 -0.07690518349 -0.2826647162 1.954822428e-38
0.1439703554 0.07332085073 0.01070290245 1.954822428e-38
0.2192940414 -0.03378551453 -0.2770763636 1.973153514e-38
0.131417796 0.07325570285 0.02300206944 1.973153514e-38
0.3179667294 -0.05026159063 -0.1643967032 1.973153514e-38
0.3193214536 -0.01050554775 -0.2754216194 1.973153514e-38
0.3180592954 -0.04999407381 -0.1768298596 1.973153514e-38
0.3063313067 0.05984572694 -0.06244465709 1.973153514e-38
0.3186034262 -0.03647453338 -0.2262713462 1.973153514e-38
-0.4040827155 0.0827600956 -0.02006151155 1.973153514e-38
0.3057844937 -0.04925667122 -0.201830253 1.991448586e-38
0.09469445795 -0.03176182881 -0.278416872 1.991448586e-38
-0.09237882495 -0.04117577523 -0.2807187438 1.991448586e-38
0.1939952672 0.07304641604 -0.01362721436 1.991448586e-38
0.2314677536 0.07270682603 -0.02565822378 1.991448586e-38
-0.279625982 -0.06303913146 -0.2833119035 1.991448586e-38
0.2693077624 -0.02214554697 -0.2762489915 1.991448586e-38
0.0813928768 0.07353013754 0.04733218253 1.991448586e-38
0.06874775141 0.07319747657 0.07206444442 2.009743799e-38
0.3182920218 -0.001533838105 -0.1134992465 2.009743799e-38
0.1064053327 0.0733929202 0.03516712785 2.009743799e-38
-0.3417519033 -0.04957785085 -0.2836909294 2.009743799e-38
-0.4904019535 0.01509783883 -0.2838435173 2.009743799e-38
-0.4537374377 0.08410460502 -0.04546403885 2.009743799e-38
0.3065024912 -0.02328768559 -0.2509805262 2.009743799e-38
0.3055993617 -0.04979170486 -0.1769639105 2.009743799e-38
0.3061434925 -0.03627216443 -0.2264053822 2.028074885e-38
0.3186285496 0.03527951241 -0.08775930852 2.028074885e-38
-0.1674863696 -0.06486044824 -0.2821054459 2.028074885e-38
0.05638036132 0.07366735488 0.05949724466 2.028074885e-38
-0.2547060847 -0.06344386935 -0.2830438018 2.028074885e-38
-0.3544280231 0.08141558617 0.005340989679 2.028074885e-38
0.1445343047 -0.03257130459 -0.2778806686 2.028074885e-38
0.1690753847 0.07345114648 -0.01389531046 2.028074885e-38
0.05647292733 0.07393487543 0.04706408828 2.046369957e-38
0.2440202534 0.07277197391 -0.03795736283 2.046369957e-38
0.318869859 -0.02375757135 -0.2384133041 2.046369957e-38
-0.06728503853 -0.02913103998 -0.2801594734 2.046369957e-38
0.04392041266 0.07386972755 0.05936319381 2.046369957e-38
-0.316832006 -0.04998258874 -0.2834228277 2.046369957e-38
-0.5026880503 0.02774965018 -0.2836863399 2.046369957e-38
0.2690327764 0.07263475657 -0.05012241751 2.046369957e-38
-0.4039901495 0.08302761614 -0.03249466419 2.06466517e-38
-0.07974498719 -0.02892867476 -0.2802935243 2.06466517e-38
0.3065052032 0.072295174 -0.0621534586 2.06466517e-38
0.3067689538 -0.01057069562 -0.263122499 2.06466517e-38
0.03155303001 0.07433961332 0.04679599404 2.06466517e-38
0.318325758 -0.03727708757 -0.1889718473 2.06466517e-38
0.06994839758 -0.01890765131 -0.2783937454 2.06466517e-38
0.01890795864 0.07400694489 0.07152825594 2.06466517e-38
0.1191429645 0.07399310172 -0.001998348162 2.082996116e-38
0.09413051605 0.07413032651 0.01016671211 2.082996116e-38
-0.2173261791 -0.06405097246 -0.2826416492 2.082996116e-38
0.3191363215 -0.01104058232 -0.2505552769 2.082996116e-38
0.06911800057 0.07426754385 0.02233183011 2.082996116e-38
0.1816278845 0.07351630181 -0.02619441599 2.082996116e-38
-0.4654820263 0.01469310187 -0.2835754156 2.082996116e-38
-0.4902280569 0.02754728124 -0.283552289 2.082996116e-38
0.08240839839 -0.01911002025 -0.2782596946 2.101291328e-38
0.318777293 -0.02402509004 -0.2259801477 2.101291328e-38
0.01909308322 0.07454197854 0.0466619432 2.101291328e-38
-0.3915302157 0.08282525092 -0.03236061707 2.101291328e-38
-0.2794520855 -0.05058969185 -0.2830206752 2.101291328e-38
-0.3046807349 0.0803385973 0.01831039414 2.101291328e-38
0.3059583902 -0.0368072018 -0.2015390545 2.101291328e-38
0.1316954792 0.07405825704 -0.01429745369 2.101291328e-38
0.006633073092 0.07474435121 0.0465278998 2.119586541e-38
0.05665805191 0.07446990907 0.02219778299 2.119586541e-38
0.3056806922 -0.03760975227 -0.1642395556 2.119586541e-38
0.06921056658 0.0745350644 0.009898616001 2.119586541e-38
-0.004637464881 -0.005243969616 -0.2789068222 2.119586541e-38
0.1073282957 -0.01951475628 -0.2779915929 2.119586541e-38
0.1820880324 -0.02072896808 -0.2771872878 2.119586541e-38
0.3057732582 -0.03734223545 -0.176672712 2.119586541e-38
0.09422307462 0.07439783961 -0.002266442403 2.137881613e-38
-0.4530220926 0.01449073385 -0.2834413648 2.137881613e-38
-0.3790702522 0.08262287825 -0.03222656995 2.137881613e-38
-0.254532218 -0.05099442974 -0.2827525735 2.137881613e-38
0.1696280986 -0.02052659914 -0.2773213387 2.137881613e-38
-0.428276062 0.001636555418 -0.2834644914 2.137881613e-38
0.1192355305 0.07426062226 -0.01443150174 2.137881613e-38
0.1197882444 -0.01971712522 -0.277857542 2.137881613e-38
0.3194027841 0.001676377025 -0.2626972198 2.156176826e-38
0.00672563538 0.0750118643 0.03409474343 2.156176826e-38
-0.005919435993 0.07467919588 0.05882700533 2.156176826e-38
-0.2420722246 -0.05119679868 -0.2826185226 2.156176826e-38
-0.26739344 0.07946396619 0.03114569187 2.156176826e-38
0.06930312514 0.0748025775 -0.002534538507 2.156176826e-38
0.04429066926 0.07493980229 0.009630519897 2.156176826e-38
0.2316528857 0.07324185967 -0.0505245626 2.156176826e-38
-0.3666102886 0.08242051303 -0.0320925191 2.174471899e-38
-0.3914376497 0.08309276402 -0.04479379952 2.174471899e-38
-0.4653081298 0.02714254335 -0.2832841873 2.174471899e-38
-0.4900541604 0.03999672085 -0.2832611203 2.174471899e-38
-0.1422186643 -0.04036630318 -0.2812549472 2.174471899e-38
-0.4158160985 0.001434187405 -0.2833304405 2.174471899e-38
0.05766233802 -0.006255812012 -0.278236568 2.174471899e-38
-0.229612276 -0.05139916763 -0.2824844718 2.174471899e-38
0.3183032572 -0.01344824396 -0.1386567801 2.192767111e-38
-0.4535523057 0.08463964611 -0.07033038139 2.192767111e-38
-0.3417829275 0.0817482546 -0.01939127222 2.192767111e-38
0.0318307206 0.07514216751 0.009496472776 2.192767111e-38
-0.2171522975 -0.05160153285 -0.282350421 2.192767111e-38
-0.2046923637 -0.05180390179 -0.2822163701 2.192767111e-38
0.3186398149 0.02336504683 -0.1129168496 2.192767111e-38
0.07012228668 -0.006458180025 -0.2781025767 2.192767111e-38
-0.4410923421 0.08443727344 -0.07019633055 2.211062324e-38
-0.2549335063 0.07926160097 0.03127973899 2.211062324e-38
0.04438322783 0.07520731539 -0.002802634612 2.211062324e-38
0.007996372879 0.007003104314 -0.2784816027 2.211062324e-38
-0.3541503251 0.08221814036 -0.03195847571 2.211062324e-38
0.2071818709 -0.008684232831 -0.2766280174 2.211062324e-38
-0.02955735847 -0.004839232657 -0.2791749239 2.211062324e-38
-0.2668182552 -0.03834261745 -0.2825954556 2.211062324e-38
0.256665349 0.07310464233 -0.06268964708 2.229357396e-38
0.09440820664 0.0749328807 -0.02713275142 2.229357396e-38
0.3188950121 0.04799647257 -0.0999012962 2.229357396e-38
0.3072093129 0.01459570508 -0.2749732733 2.229357396e-38
-0.0920310393 -0.01627686247 -0.2801363468 2.229357396e-38
0.3068502843 0.001611227868 -0.2503981292 2.229357396e-38
0.0194633361 0.07561204582 -0.003070729785 2.229357396e-38
0.3185584843 0.01118312217 -0.1256412268 2.229357396e-38
-0.3908962011 0.001029450446 -0.2830623388 2.247652609e-38
0.007003325969 0.07581441849 -0.003204777837 2.247652609e-38
-0.4534597397 0.08490715921 -0.08276353031 2.247652609e-38
-0.5146263242 0.06530040503 -0.282946825 2.247652609e-38
0.2442053854 0.073307015 -0.06282369792 2.247652609e-38
-0.2920356691 0.08067125827 -0.0064219255 2.247652609e-38
-0.3168630302 0.08134351671 -0.01912317611 2.247652609e-38
-0.4651342332 0.03959198669 -0.2829930186 2.247652609e-38
0.03201584518 0.07567720115 -0.01536983624 2.265947681e-38
-0.4403882325 0.02673780732 -0.2830161452 2.265947681e-38
0.1818130016 0.07405133545 -0.05106075481 2.265947681e-38
0.3064350784 0.04819883779 -0.100035347 2.265947681e-38
-0.1920585185 -0.0395568274 -0.2817911506 2.265947681e-38
-0.3040242195 -0.0252860412 -0.2827063799 2.265947681e-38
-0.1420447826 -0.02791683003 -0.2809637785 2.265947681e-38
-0.2795756757 0.08046889305 -0.006287878379 2.265947681e-38
0.08204081655 0.07540275902 -0.03969998285 2.284242894e-38
-0.2045184672 -0.03935446218 -0.2819252014 2.284242894e-38
0.2322756648 0.003360473085 -0.276068747 2.284242894e-38
-0.2423809469 0.07932674885 0.01898063347 2.284242894e-38
-0.4285398126 0.08450242132 -0.08249543607 2.284242894e-38
0.3067577183 0.001343709533 -0.237964958 2.284242894e-38
-0.3044030368 0.08114115149 -0.01898912713 2.284242894e-38
0.1693530679 0.07425370067 -0.05119480193 2.284242894e-38
0.3198431432 0.02684277855 -0.2745479941 2.302537966e-38
0.04456835985 0.07574235648 -0.02766894177 2.302537966e-38
-0.06693726033 -0.004232127685 -0.2795770764 2.302537966e-38
0.07029617578 0.005991262384 -0.2778113484 2.302537966e-38
-0.06812666357 0.07595856488 0.04572360963 2.302537966e-38
0.3194841146 0.01385830157 -0.2499728948 2.302537966e-38
-0.08067917824 0.07589340955 0.05802271515 2.302537966e-38
0.2192854732 0.07371175289 -0.06309179962 2.302537966e-38
0.1568931192 0.07445607334 -0.05132884905 2.320833179e-38
0.01964846067 0.07614708692 -0.02793703787 2.320833179e-38
-0.2666443884 -0.02589314803 -0.2823042274 2.320833179e-38
-0.02938346937 0.007610208821 -0.2788837552 2.320833179e-38
0.3066903055 0.07283020765 -0.08701977134 2.320833179e-38
0.08275617659 0.005788893439 -0.2776772976 2.320833179e-38
-0.3664251566 0.08295554668 -0.05695885792 2.320833179e-38
0.3063537478 0.03601691499 -0.1127596945 2.320833179e-38
-0.05557412654 0.0760237053 0.0334245041 2.339092378e-38
0.3062135875 -0.01217580307 -0.1885235012 2.339092378e-38
-0.3415977955 0.08228328824 -0.04425761104 2.339092378e-38
-0.5144524574 0.07774984837 -0.2826555967 2.339092378e-38
0.007188450545 0.07634945959 -0.02807108685 2.339092378e-38
-0.4781945646 0.08584693819 -0.1078979671 2.339092378e-38
-0.04302161932 0.07608886063 0.02112539858 2.339092378e-38
0.09521612525 0.005586525425 -0.2775432467 2.339092378e-38
-0.2422883958 0.07959426939 0.006547419354 2.348204041e-38
-0.3907223046 0.01347889192 -0.2827711105 2.348204041e-38
-0.09304656088 0.07636329532 0.04545551538 2.348204041e-38
0.256757915 0.07337215543 -0.07512280345 2.348204041e-38
-0.205186218 0.0781846121 0.04424908385 2.348204041e-38
-0.2541844249 -0.02609551698 -0.2821701765 2.348204041e-38
0.3070241809 0.01406066958 -0.2501069307 2.348204041e-38
0.2573694587 0.01540517807 -0.2755094171 2.348204041e-38
-0.4649603665 0.05204148591 -0.2827017903 2.348132155e-38
-0.2299209982 0.07912438363 0.01911468059 2.348132155e-38
0.1076760739 0.005384156946 -0.2774091959 2.348132155e-38
-0.01791656762 0.07621915638 -0.00347287301 2.348132155e-38
-0.4402143359 0.0391872488 -0.2827249169 2.348132155e-38
-0.2175535858 0.07865449786 0.03168188408 2.348132155e-38
0.1575159281 0.004574683495 -0.2768729925 2.348132155e-38
-0.05548156798 0.07629122585 0.02099135146 2.348132155e-38
-0.1294109374 -0.0156697575 -0.2805384994 2.348060128e-38
-0.3291378319 0.08208091557 -0.04412356019 2.348060128e-38
-0.3043104708 0.08140867203 -0.03142227978 2.348060128e-38
0.2942303419 0.07303257287 -0.08715381473 2.348060128e-38
-0.5019925237 0.07754748315 -0.2825215459 2.348060128e-38
0.1943655163 0.07411649078 -0.06335988641 2.348060128e-38
0.3190325201 0.0006063050823 -0.2129645646 2.348060128e-38
0.2449094951 0.01560754608 -0.2756434679 2.348060128e-38
-0.1055065393 0.07656566799 0.04532146454 2.347952368e-38
-0.4772464633 0.06469330192 -0.2825446725 2.347952368e-38
-0.06794153899 0.07649359852 0.02085730433 2.347952368e-38
-0.005271494389 0.07655182481 -0.02820513397 2.347952368e-38
-0.2043445855 -0.02690498903 -0.2816339731 2.347952368e-38
-0.2168045193 -0.02670262009 -0.281768024 2.347952368e-38
0.02080416121 0.03169962019 -0.2777651548 2.347952368e-38
-0.05538900197 0.0765587464 0.008558137342 2.347952368e-38
0.07047006488 0.01844070479 -0.2775201797 2.347880341e-38
-0.1179664806 0.07676803321 0.04518742114 2.347880341e-38
0.3065725863 0.0008086735616 -0.2130986154 2.347880341e-38
-0.3166778982 0.08187855035 -0.04398951307 2.347880341e-38
-0.4408146739 0.08523982763 -0.107495822 2.347880341e-38
-0.2918505371 0.08120629936 -0.03128823638 2.347880341e-38
-0.5142785311 0.09019929171 -0.282364428 2.347880341e-38
-0.004115794785 0.03210435808 -0.2780332565 2.347880341e-38
-0.2789304256 -0.01324133761 -0.2821471095 2.347808455e-38
0.3196580112 0.02630774304 -0.2496816963 2.347808455e-38
-0.4895325005 0.07734511048 -0.282387495 2.347808455e-38
0.306202352 -0.0002613976831 -0.1633659601 2.347808455e-38
-0.04283649102 0.07662389427 -0.003740969114 2.347808455e-38
-0.4283547103 0.08503746241 -0.1073617712 2.347808455e-38
0.2700033486 0.0276522506 -0.2750841975 2.347808455e-38
-0.07922331989 0.008419683203 -0.279419899 2.347808455e-38
-0.1428864151 0.0771727711 0.0449193269 2.347700555e-38
-0.09286143631 0.07689832896 0.02058920637 2.347700555e-38
-0.4152944088 0.03878251091 -0.2824568152 2.347700555e-38
0.01983358897 0.07668212056 -0.05280337483 2.347700555e-38
-0.3285963833 1.760851592e-05 -0.2823920846 2.347700555e-38
-0.4647864699 0.06449092925 -0.2824106216 2.347700555e-38
0.3063874841 0.0002736382885 -0.1882323027 2.347700555e-38
-0.353872627 0.08302069455 -0.06925799698 2.347700555e-38
-0.1801737249 0.0780473873 0.03208402544 2.347628668e-38
-0.205001086 0.07871964574 0.01938277856 2.347628668e-38
-0.1167770699 -0.003422653768 -0.2801132798 2.347628668e-38
-0.3290452659 0.08234843612 -0.05655671656 2.347628668e-38
0.3191614747 0.060713429 -0.1120432541 2.347628668e-38
-0.4531820714 0.0857097134 -0.1200630218 2.347628668e-38
0.2575433552 0.02785461955 -0.2752182484 2.347628668e-38
-0.2297358811 0.07965941727 -0.005751687102 2.347628668e-38
-0.1792507619 -0.01486028358 -0.2810747027 2.347520768e-38
-0.3910674155 0.08416283876 -0.09452644736 2.347520768e-38
0.319924444 0.03902476281 -0.2618236542 2.347520768e-38
-0.3161364496 -0.0001847593812 -0.2822580338 2.347520768e-38
-0.2421032637 0.08012930304 -0.01831888966 2.347520768e-38
0.1576898247 0.0170241259 -0.2765818238 2.347520768e-38
-0.1552537978 0.07764264941 0.03235212341 2.347520768e-38
-0.4407221079 0.08550734073 -0.1199289784 2.347520768e-38
-0.1292370558 -0.003220285755 -0.2802473307 2.347448882e-38
0.2950971127 0.03969701752 -0.2745249271 2.347448882e-38
-0.05412950367 0.02046438865 -0.2788606286 2.347448882e-38
-0.03019138798 0.0769565627 -0.02847322822 2.347448882e-38
0.2450833917 0.02805698849 -0.2753522992 2.347448882e-38
0.0334379971 0.04394675046 -0.2773398757 2.347448882e-38
-0.2166306227 -0.01425317861 -0.2814768553 2.347448882e-38
-0.5028368235 0.08705421537 -0.1454655528 2.347448882e-38
-0.1416970044 -0.00301791681 -0.2803813815 2.347340982e-38
0.2443904877 0.07384204865 -0.08769001067 2.347340982e-38
0.3189287484 0.01225319318 -0.1753738821 2.347340982e-38
0.04589794576 0.04374438524 -0.2772058845 2.347340982e-38
-0.5019111633 0.08972939849 -0.2697972059 2.347340982e-38
-0.117781356 0.07730306685 0.02032111213 2.347340982e-38
0.09556390345 0.03048540838 -0.2769608498 2.347340982e-38
0.1819981337 0.0745863691 -0.07592709363 2.347340982e-38
-0.09267631173 0.0774333626 -0.004277160391 2.347269095e-38
-0.4398665726 0.06408619136 -0.28214252 2.347269095e-38
-0.353780061 0.08328820765 -0.0816911459 2.347269095e-38
-0.02903568745 0.03250909224 -0.2783013582 2.347269095e-38
-0.4646125734 0.07694037259 -0.2821193933 2.347269095e-38
-0.4530895054 0.08597723395 -0.132496208 2.347269095e-38
-0.1924485862 0.07878480107 0.007083611563 2.347269095e-38
0.05835789442 0.0435420163 -0.2770718336 2.347269095e-38
-0.4903768003 0.08685185015 -0.145331502 2.347161195e-38
-0.1427012831 0.07770780474 0.02005301416 2.347161195e-38
-0.1302413344 0.07750543952 0.02018706501 2.347161195e-38
0.03238609433 0.07674727589 -0.0651025176 2.347161195e-38
-0.4158021808 0.08510260284 -0.1196608841 2.347161195e-38
-0.5027442575 0.08732173592 -0.1578987092 2.347161195e-38
0.3064688146 0.01245556213 -0.175507918 2.347161195e-38
-0.3909748495 0.0844303593 -0.1069596335 2.347161195e-38
0.2818629742 0.07350246608 -0.0997210443 2.347089308e-38
0.1695381999 0.07478873432 -0.07606114447 2.347089308e-38
0.3066539466 0.01299059764 -0.2003742605 2.347089308e-38
0.1329437494 0.02987830341 -0.2765586972 2.347089308e-38
-0.5148339272 0.08859418333 -0.2077654302 2.347089308e-38
-0.4026605785 0.05102964491 -0.2820315957 2.347089308e-38
-0.3661474884 0.08375810087 -0.09425835311 2.347089308e-38
-0.2420106977 0.08039682359 -0.03075204417 2.347089308e-38
-0.2048159689 0.07925467938 -0.005483590998 2.346981408e-38
-0.4274066091 0.06388382614 -0.2820084691 2.346981408e-38
-0.3779145479 0.0381754078 -0.2820546627 2.346981408e-38
0.02115193941 0.05659856275 -0.2771827579 2.346981408e-38
-0.4768986702 0.0895921886 -0.2819622755 2.346981408e-38
-0.5025591254 0.08785676956 -0.1827650517 2.346981408e-38
0.2194706053 0.07424678653 -0.08795810491 2.346981408e-38
-0.2668380737 0.08106907457 -0.04345332086 2.346981408e-38
0.0336118862 0.0563961938 -0.277048707 2.346909522e-38
-0.3413200974 0.08308584243 -0.0815571025 2.346909522e-38
-0.2538366616 -0.001196601777 -0.2815877795 2.346909522e-38
-0.091509372 0.02107149363 -0.2792627811 2.346909522e-38
0.3073719442 0.03895961493 -0.2495245486 2.346909522e-38
0.2952710092 0.05214645714 -0.2742336988 2.346909522e-38
-0.315962553 0.01226468198 -0.2819668651 2.346909522e-38
-0.1301487684 0.07777296007 0.007753850892 2.346909522e-38
0.08327784389 0.04313727841 -0.2768037319 2.346801622e-38
0.04607184231 0.05619382486 -0.2769146562 2.346801622e-38
-0.291665405 0.08174133301 -0.05615457147 2.346801622e-38
-0.05395561457 0.03291383013 -0.2785694599 2.346801622e-38
-0.1426087171 0.07797532529 0.007619801909 2.346801622e-38
0.2452572584 0.04050648957 -0.2750610709 2.346801622e-38
-0.489543736 0.08925951272 -0.2572300136 2.346801622e-38
0.1446183026 0.07519347221 -0.07632923126 2.346801622e-38
-0.04255880415 0.07742644846 -0.04104046151 2.346693862e-38
0.3068754375 0.07336524129 -0.1118861064 2.346693862e-38
-0.4654568732 0.08644711226 -0.1450634152 2.346693862e-38
-0.4149466455 0.06368146092 -0.2818744183 2.346693862e-38
-0.06641558558 0.03311619908 -0.2787035108 2.346693862e-38
-0.1798960418 0.07884994149 -0.005215494893 2.346693862e-38
0.1081977487 0.04273254052 -0.2765356302 2.346693862e-38
-0.3288601339 0.08288346976 -0.08142305166 2.346693862e-38
-0.2295507491 0.08019445837 -0.03061799519 2.346621835e-38
0.3079048693 0.06439353526 -0.2738084793 2.346621835e-38
0.3076384068 0.05167657137 -0.2616664767 2.346621835e-38
-0.1300562173 0.07804047316 -0.004679304548 2.346621835e-38
0.3065501451 0.02463748492 -0.162783578 2.346621835e-38
0.3192877769 0.02523767203 -0.1999490112 2.346621835e-38
-0.3908822834 0.0846978724 -0.1193927824 2.346621835e-38
0.2203373909 0.04091122746 -0.2753291726 2.346621835e-38
0.1206576973 0.04253017157 -0.2764015794 2.346514075e-38
-0.05501875281 0.07762881368 -0.04117450863 2.346514075e-38
0.1196983457 0.0755982101 -0.07659733295 2.346514075e-38
0.2703511119 0.05255119503 -0.2745018005 2.346514075e-38
0.07099173963 0.05578909069 -0.2766465545 2.346514075e-38
0.02132582851 0.06904800236 -0.2768915296 2.346514075e-38
0.107238397 0.07580058277 -0.0767313838 2.346514075e-38
0.008865823969 0.06925037503 -0.2770255804 2.346514075e-38
0.195417434 0.04131596163 -0.2755972743 2.346406175e-38
-0.3660549223 0.08402562141 -0.1066915318 2.346406175e-38
-0.489728868 0.08872447908 -0.2323636711 2.346406175e-38
0.3200057745 0.05120668933 -0.2490992993 2.346406175e-38
0.2954449058 0.06459590048 -0.2739425302 2.346406175e-38
0.08345174044 0.05558671802 -0.2765125036 2.346406175e-38
0.044938609 0.07681242377 -0.07740162313 2.346406175e-38
0.1704975516 0.04172069952 -0.275865376 2.346406175e-38
-0.004901242442 0.07762189209 -0.07793781161 2.346334289e-38
-0.1164292917 0.02147622965 -0.2795308828 2.346334289e-38
0.3068278432 0.02544003911 -0.2000830621 2.346334289e-38
-0.4405369759 0.08604237437 -0.1447953135 2.346334289e-38
0.0959116891 0.0553843528 -0.2763784528 2.346334289e-38
0.3067352772 0.02517252043 -0.1876499057 2.346334289e-38
0.05870568007 0.06844089925 -0.2764894366 2.346334289e-38
-0.3157886565 0.02471412346 -0.2816756368 2.346334289e-38
0.282984972 0.06479827315 -0.274076581 2.346226389e-38
-0.003594123758 0.06945274025 -0.2771596313 2.346226389e-38
-0.0549261868 0.07789633423 -0.053607665 2.346226389e-38
-0.2170907706 0.07999209315 -0.0304839462 2.346226389e-38
-0.4774540365 0.08798708022 -0.2073632926 2.346226389e-38
-0.1299636513 0.07830799371 -0.01711245812 2.346226389e-38
-0.1673435271 0.07891509682 -0.01751460135 2.346226389e-38
0.120831579 0.05497961491 -0.2761103511 2.346226389e-38
-0.01736118831 0.07782426476 -0.07807186246 2.346118629e-38
0.07116562873 0.06823853403 -0.2763553858 2.346118629e-38
-0.3405346572 0.03756830096 -0.2816525102 2.346118629e-38
-0.254285574 0.0811342299 -0.05575243011 2.346118629e-38
0.02149972133 0.0814974457 -0.2766003609 2.346118629e-38
-0.2038229108 0.01044336613 -0.2807604074 2.346118629e-38
-0.1288892776 0.0216785986 -0.2796649337 2.346118629e-38
-0.1548835486 0.07871272415 -0.01738055423 2.346118629e-38
0.2205112725 0.05336066708 -0.2750380039 2.346010729e-38
0.0339596644 0.08129508048 -0.27646631 2.346010729e-38
-0.4528118074 0.08677978814 -0.1697957069 2.346010729e-38
0.00903971307 0.08169981837 -0.2767344117 2.346010729e-38
0.3067240119 0.03708698973 -0.1624923795 2.346010729e-38
-0.2162828445 0.01064573508 -0.2808944583 2.346010729e-38
-0.228742823 0.01084810309 -0.2810285091 2.346010729e-38
0.08362562954 0.06803616136 -0.2762213349 2.346010729e-38
0.2694955766 0.0739723444 -0.1122882515 2.345938842e-38
0.1955913156 0.05376540497 -0.2753061056 2.345938842e-38
0.183131367 0.05396777391 -0.2754401565 2.345938842e-38
0.1447108686 0.07546099275 -0.08876238763 2.345938842e-38
-0.05483362079 0.07816385478 -0.06604084373 2.345938842e-38
-0.0298211351 0.07802662998 -0.07820590585 2.345938842e-38
0.3192652762 0.04906654358 -0.149633944 2.345938842e-38
-0.3659623563 0.08429313451 -0.1191246882 2.345938842e-38
