# .PCD v0.7 - Point Cloud Data file format
VERSION 0.7
FIELDS x y z rgb
SIZE 4 4 4 4
TYPE F F F F
COUNT 1 1 1 1
WIDTH 824
HEIGHT 1
VIEWPOINT 0 0 0 1 0 0 0
POINTS 824
DATA ascii
-0.1120533124 -0.1569636166 -0.4197847545 1.038530038e-38
-0.2557735443 -0.1754399538 -0.3402810097 1.038530038e-38
-0.1368113756 -0.7025762796 -0.4382825494 1.020306431e-38
-0.1722821146 -0.1639127731 -0.3923488855 1.020306431e-38
-0.136006698 -0.1600430012 -0.4065341353 1.020306431e-38
-0.3462245762 -0.1039093733 -0.2966859937 1.020306431e-38
-0.3549959064 -0.007235638797 -0.2190412581 1.020306431e-38
-0.3262402415 -0.2507916689 -0.2636355758 1.020306431e-38
-0.348590076 -0.07936628163 -0.2801201642 1.020306431e-38
-0.06345582753 -0.1523035169 -0.4349046052 1.020306431e-38
-0.1977309287 -0.7080267668 -0.4222280681 1.002046952e-38
-0.2667140365 -0.1792276502 -0.3165836036 1.002046952e-38
-0.2550827563 -0.1769386232 -0.328899622 1.002046952e-38
-0.3449755609 -0.1130895093 -0.2946203649 1.002046952e-38
-0.2216843218 -0.7111061811 -0.4089774489 1.002046952e-38
-0.3520721197 -0.03946022317 -0.2449228317 1.002046952e-38
-0.3212441504 -0.2875122428 -0.2553729713 1.002046952e-38
-0.3022987545 -0.1845960617 -0.2910169661 1.002046952e-38
-0.3531886637 -0.02409724146 -0.2262913436 9.837874723e-39
-0.323051393 -0.2706506252 -0.2481228858 9.837874723e-39
-0.1113625467 -0.158462286 -0.408403337 9.837874723e-39
-0.1730867922 -0.7064460516 -0.4240972996 9.837874723e-39
-0.2427606881 -0.1761482656 -0.3298342228 9.837874723e-39
-0.2071760148 -0.1707798541 -0.3554008603 9.837874723e-39
-0.07508712262 -0.1545925438 -0.4225886166 9.837874723e-39
-0.2543919981 -0.1784372926 -0.3175182343 9.837874723e-39
-0.2660232782 -0.1807263196 -0.3052022159 9.655279928e-39
-0.3478993177 -0.08086495101 -0.2687387466 9.655279928e-39
-0.2333156019 -0.7133951783 -0.3966614306 9.655279928e-39
-0.3139300346 -0.1868850887 -0.2787009478 9.655279928e-39
-0.1484426558 -0.7048653364 -0.425966531 9.655279928e-39
-0.3508231044 -0.04864035919 -0.242857188 9.655279928e-39
-0.3199951351 -0.2966924012 -0.2533073425 9.655279928e-39
-0.3218023777 -0.2798307538 -0.2460572422 9.655279928e-39
-0.3513813615 -0.04095888883 -0.2335414439 9.472685133e-39
-0.09904049337 -0.1576719284 -0.4093379676 9.472685133e-39
-0.14694722 -0.1638306975 -0.3828367293 9.472685133e-39
-0.06276506931 -0.1538021713 -0.4235232174 9.472685133e-39
-0.3016079962 -0.1860947311 -0.2796355486 9.472685133e-39
-0.2304386199 -0.1753578931 -0.3307688534 9.472685133e-39
-0.3519396186 -0.03327742219 -0.224225685 9.472685133e-39
-0.2209935635 -0.7126048207 -0.3975960314 9.472685133e-39
-0.1229938716 -0.160751313 -0.3960873485 9.290090338e-39
-0.2449469417 -0.7156841755 -0.3843454123 9.290090338e-39
-0.1948539615 -0.1699894816 -0.3563354909 9.290090338e-39
-0.2537012398 -0.179935962 -0.3061368167 9.290090338e-39
-0.3524978757 -0.02559590712 -0.2149099559 9.290090338e-39
-0.1709005833 -0.166910097 -0.3695860803 9.290090338e-39
-0.3156898022 -0.3319143057 -0.256426096 9.290090338e-39
-0.3460920453 -0.09772655368 -0.275988847 9.290090338e-39
-0.3442847729 -0.1145881712 -0.2832389474 9.107495543e-39
-0.1847181171 -0.7087351084 -0.411781311 9.107495543e-39
-0.3319270909 -0.2125724256 -0.283279568 9.107495543e-39
-0.2892858982 -0.1853043735 -0.2805701792 9.107495543e-39
-0.26533252 -0.1822249889 -0.2938208282 9.107495543e-39
-0.3466503024 -0.09004507959 -0.2666730881 9.107495543e-39
-0.2086714655 -0.7118144631 -0.3985306621 9.107495543e-39
-0.15857853 -0.1661197245 -0.3705207109 9.107495543e-39
-0.2326248437 -0.7148938179 -0.3852800429 8.924899347e-39
-0.172396034 -0.7079446912 -0.4127159119 8.924899347e-39
-0.3529236317 -0.01173163205 -0.1848970801 8.924899347e-39
-0.3501323462 -0.05013902485 -0.2314758003 8.924899347e-39
-0.3344251215 -0.1942121387 -0.2874108851 8.924899347e-39
-0.3412284851 -0.1406299472 -0.2884233892 8.924899347e-39
-0.3144407868 -0.3410944343 -0.2543604672 8.924899347e-39
-0.2769638598 -0.1845140159 -0.2815047801 8.924899347e-39
-0.3477667868 -0.07468211651 -0.2480416447 8.742304551e-39
-0.2530104816 -0.1814346164 -0.294755429 8.742304551e-39
-0.2413791716 -0.1791455895 -0.3070714474 8.742304551e-39
-0.1941631883 -0.171488151 -0.3449540734 8.742304551e-39
-0.1600739807 -0.7071543336 -0.4136505127 8.742304551e-39
-0.34484303 -0.1069067046 -0.2739232183 8.742304551e-39
-0.3523653746 -0.01941310242 -0.1942128092 8.742304551e-39
-0.3512488306 -0.03477608413 -0.2128442973 8.742304551e-39
-0.2203027904 -0.7141034603 -0.3862146437 8.560068489e-39
-0.3287382722 -0.2324313819 -0.2677668929 8.560068489e-39
-0.170209825 -0.1684087515 -0.3582047224 8.560068489e-39
-0.1477518976 -0.706363976 -0.4145851433 8.560068489e-39
-0.319304347 -0.2981910706 -0.2419259399 8.560068489e-39
-0.3299872875 -0.2232512236 -0.2698325515 8.560068489e-39
-0.09834972769 -0.1591705978 -0.3979565799 8.560068489e-39
-0.1840273589 -0.710233748 -0.4003998637 8.560068489e-39
-0.3454012871 -0.09922522306 -0.2646074593 8.377473694e-39
-0.2406884134 -0.1806442589 -0.2956900597 8.377473694e-39
-0.1578877717 -0.1676183939 -0.3591393232 8.377473694e-39
-0.181841135 -0.1706977785 -0.3458887041 8.377473694e-39
-0.3494415879 -0.05163769051 -0.2200943828 8.377473694e-39
-0.3119427562 -0.3594547212 -0.2502291501 8.377473694e-39
-0.2762730718 -0.1860126704 -0.2701233923 8.377473694e-39
-0.3435940146 -0.1160868406 -0.2718575597 8.377473694e-39
-0.3465177715 -0.08386227489 -0.2459759861 8.194878899e-39
-0.1934724301 -0.1729868054 -0.3335726857 8.194878899e-39
-0.3312363327 -0.214071095 -0.2718981802 8.194878899e-39
-0.3499998152 -0.04395622015 -0.2107786536 8.194878899e-39
-0.3198626041 -0.2905095518 -0.2326101959 8.194878899e-39
-0.04975221679 -0.1545104682 -0.4130764306 8.194878899e-39
-0.3470760286 -0.07618078589 -0.2366602272 8.194878899e-39
-0.3180553317 -0.3073711991 -0.2398602813 8.194878899e-39
-0.3511163592 -0.02859323844 -0.1921471655 8.012284103e-39
-0.2639509737 -0.1852223128 -0.271058023 8.012284103e-39
-0.3337343633 -0.195710808 -0.2760294974 8.012284103e-39
-0.3106937408 -0.3686348498 -0.2481635213 8.012284103e-39
-0.3405376971 -0.1421286017 -0.2770420015 8.012284103e-39
-0.2167350352 -0.1775648594 -0.308940649 8.012284103e-39
-0.339220047 -0.01393860206 -0.1630688906 8.012284103e-39
-0.3509838581 -0.02241043374 -0.1714500189 8.012284103e-39
-0.2283663303 -0.1798538864 -0.2966246605 7.829687907e-39
-0.3441522717 -0.1084053665 -0.2625418007 7.829687907e-39
-0.1216123402 -0.1637486517 -0.3733245432 7.829687907e-39
-0.3216698766 -0.2736479342 -0.2253600955 7.829687907e-39
-0.2435653955 -0.7186815143 -0.3615826368 7.829687907e-39
-0.07370559126 -0.1575898677 -0.3998258114 7.829687907e-39
-0.3481925726 -0.06081782281 -0.2180287391 7.829687907e-39
-0.1571969986 -0.1691170633 -0.3477579057 7.829687907e-39
-0.2516289353 -0.1844319403 -0.2719926238 7.647093112e-39
-0.3447105289 -0.100723885 -0.2532260716 7.647093112e-39
-0.1833365858 -0.7117323875 -0.389018476 7.647093112e-39
-0.3168063164 -0.3165513575 -0.2377946377 7.647093112e-39
-0.3204208612 -0.2828280628 -0.2232944369 7.647093112e-39
-0.09765896946 -0.1606692672 -0.3865751922 7.647093112e-39
-0.2072899342 -0.7148118019 -0.3757678866 7.647093112e-39
-0.1332436353 -0.1660376787 -0.3610085547 7.647093112e-39
-0.1927816719 -0.1744854748 -0.322191298 7.464498317e-39
-0.3261077106 -0.2446088493 -0.2429384589 7.464498317e-39
-0.3280474842 -0.2339300513 -0.2563854754 7.464498317e-39
-0.3487507999 -0.05313635617 -0.20871301 7.464498317e-39
-0.3452687562 -0.09304241091 -0.2439103425 7.464498317e-39
-0.3392886817 -0.15130876 -0.2749763429 7.464498317e-39
-0.3458270133 -0.08536094427 -0.2345945835 7.464498317e-39
-0.3152666986 -0.01085921377 -0.1763195097 7.464498317e-39
-0.3125010133 -0.351773262 -0.2409134358 7.281903522e-39
-0.349309057 -0.04545488209 -0.1993972659 7.281903522e-39
-0.3410959542 -0.1344471276 -0.2677262425 7.281903522e-39
-0.3463852704 -0.07767944783 -0.2252788544 7.281903522e-39
-0.324167937 -0.2552876472 -0.2294913977 7.281903522e-39
-0.1688282937 -0.1714060903 -0.3354419172 7.281903522e-39
-0.08533688635 -0.1598788947 -0.3875098228 7.281903522e-39
-0.3469435573 -0.06999798119 -0.2159630805 7.281903522e-39
-0.04906145483 -0.1560091376 -0.4016950428 7.099307325e-39
-0.1586924493 -0.7101516724 -0.3908877373 7.099307325e-39
-0.3143082559 -0.3349116445 -0.2336633354 7.099307325e-39
-0.3398469388 -0.1436272711 -0.2656606138 7.099307325e-39
-0.3173645735 -0.3088698387 -0.2284788936 7.099307325e-39
-0.3330435753 -0.1972094774 -0.2646480799 7.099307325e-39
-0.2146627456 -0.1820608675 -0.2747964859 7.099307325e-39
-0.3342925906 -0.188029319 -0.2667137384 7.099307325e-39
-0.345136255 -0.08685960621 -0.2232131958 6.91671253e-39
-0.3374128044 -0.03080020845 -0.170318976 6.91671253e-39
-0.3486182988 -0.04695355147 -0.1880158484 6.91671253e-39
-0.1797688454 -0.1751937866 -0.3117445111 6.91671253e-39
-0.3385979235 -0.1528074294 -0.2635949552 6.91671253e-39
-0.3456945121 -0.07917811722 -0.2138974369 6.91671253e-39
-0.06069277227 -0.1582981646 -0.3893790245 6.91671253e-39
-0.1942771077 -0.7155200839 -0.3653210998 6.91671253e-39
-0.3422124982 -0.119084172 -0.2490947694 6.734117735e-39
-0.1217262596 -0.7077805996 -0.3936915696 6.734117735e-39
-0.1202308089 -0.1667459756 -0.3505617678 6.734117735e-39
-0.340405196 -0.135945797 -0.2563448548 6.734117735e-39
-0.3286057413 -0.2262485623 -0.2470697612 6.734117735e-39
-0.1558154821 -0.1721144021 -0.3249951601 6.734117735e-39
-0.3133268952 -0.02153801173 -0.1628724784 6.734117735e-39
-0.1094041765 -0.706990242 -0.3946262002 6.734117735e-39
-0.3468110263 -0.06381515414 -0.1952659637 6.55152294e-39
-0.1674467623 -0.174403429 -0.312679112 6.55152294e-39
-0.3373489082 -0.161987558 -0.2615292966 6.55152294e-39
-0.3479275405 -0.04845221341 -0.1766344756 6.55152294e-39
-0.07232406735 -0.1605871916 -0.3770630062 6.55152294e-39
-0.3075049222 -0.3884938359 -0.2326508313 6.55152294e-39
-0.3184810877 -0.2935068905 -0.2098474056 6.55152294e-39
-0.3477950096 -0.0422694087 -0.1559373289 6.55152294e-39
-0.3311038017 -0.2078882754 -0.2512010634 6.368926744e-39
-0.1079087257 -0.165955618 -0.3514963686 6.368926744e-39
-0.3361637592 -0.03998038545 -0.1682533175 6.368926744e-39
-0.3010047972 -0.02074764669 -0.1638070941 6.368926744e-39
-0.2687134147 -0.4386420846 -0.1161441207 6.368926744e-39
-0.2776097059 -0.00998679176 -0.1677419692 6.368926744e-39
-0.3360998631 -0.1711677164 -0.2594636381 6.368926744e-39
-0.3409634531 -0.1282643378 -0.2470291108 6.368926744e-39
-0.3105612099 -0.36245206 -0.2274663746 6.186331949e-39
-0.03604863584 -0.1567174494 -0.391248256 6.186331949e-39
-0.08476004004 -0.7054094672 -0.3964954019 6.186331949e-39
-0.2659783959 -0.007697764784 -0.1800579727 6.186331949e-39
-0.3450037241 -0.08067677915 -0.2025160491 6.186331949e-39
-0.08395535499 -0.1628762186 -0.3647470176 6.186331949e-39
-0.3415217102 -0.1205828339 -0.2377133816 6.186331949e-39
-0.1783873141 -0.1781911105 -0.2889817059 6.186331949e-39
-0.3379071653 -0.1543060839 -0.2522135377 6.003737154e-39
-0.1667560041 -0.1759020835 -0.3012977242 6.003737154e-39
-0.3354729712 -0.04147905111 -0.1568719298 6.003737154e-39
-0.288682729 -0.0199572891 -0.1647417098 6.003737154e-39
-0.3420799673 -0.1129013598 -0.2283976227 6.003737154e-39
-0.2563913465 -0.437851727 -0.1170787364 6.003737154e-39
-0.157310918 -0.7131489515 -0.3681249321 6.003737154e-39
-0.07243797183 -0.7046191096 -0.3974300325 6.003737154e-39
-0.2652876377 -0.009196430445 -0.168676585 5.820783626e-39
-0.1776965559 -0.1796897799 -0.2776003182 5.820783626e-39
-0.319039315 -0.2858254015 -0.2005316615 5.820783626e-39
-0.1087134182 -0.7084888816 -0.3832448125 5.820783626e-39
-0.3466785252 -0.05763234943 -0.174568817 5.820783626e-39
-0.3172320724 -0.3026870489 -0.207781747 5.820783626e-39
-0.3247261941 -0.2476061881 -0.2201756537 5.820783626e-39
-0.2536563277 -0.006907403469 -0.1809925884 5.820783626e-39
-0.3154247999 -0.3195486963 -0.2150318325 5.63818743e-39
-0.07163330168 -0.162085861 -0.3656816185 5.63818743e-39
-0.1449888349 -0.7123585939 -0.3690595627 5.63818743e-39
-0.1072179601 -0.1674542725 -0.3401149809 5.63818743e-39
-0.3431964815 -0.09753841162 -0.2097661346 5.63818743e-39
-0.2440692782 -0.4370613694 -0.1180133522 5.63818743e-39
-0.04767992347 -0.1590064764 -0.3789322376 5.63818743e-39
-0.1428026259 -0.172822684 -0.3145483434 5.63818743e-39
-0.2881245017 -0.02763875946 -0.174057439 5.455592635e-39
-0.3231508732 -0.04068868607 -0.1578065604 5.455592635e-39
-0.3349147439 -0.04916052148 -0.1661876738 5.455592635e-39
-0.2763606906 -0.01916692406 -0.1656763107 5.455592635e-39
-0.166065231 -0.1774007529 -0.2899163365 5.455592635e-39
-0.3437547088 -0.08985693753 -0.2004503906 5.455592635e-39
-0.3384654224 -0.1466245949 -0.2428978235 5.455592635e-39
-0.1544339508 -0.1751117259 -0.3022323549 5.455592635e-39
-0.2803447247 -0.4409311116 -0.1038281322 5.272997839e-39
-0.1188492775 -0.1697432995 -0.3277989924 5.272997839e-39
-0.3304130435 -0.2093869448 -0.2398196459 5.272997839e-39
-0.3341600895 -0.1818464994 -0.2460166067 5.272997839e-39
-0.345987767 -0.05913101882 -0.1631874144 5.272997839e-39
-0.3141757548 -0.3287288249 -0.2129661888 5.272997839e-39
-0.341389209 -0.1144000292 -0.217016235 5.272997839e-39
-0.1653744727 -0.1788994074 -0.2785349488 5.272997839e-39
-0.3342239559 -0.05065918341 -0.1548062861 5.090401643e-39
-0.1566201597 -0.7146476507 -0.3567435443 5.090401643e-39
-0.180573523 -0.7177270651 -0.3434928954 5.090401643e-39
-0.3098704517 -0.3639507294 -0.2160849869 5.090401643e-39
-0.3390236497 -0.1389431357 -0.2335820794 5.090401643e-39
-0.070942536 -0.1635845304 -0.3543002307 5.090401643e-39
-0.1442980766 -0.7138572931 -0.357678175 5.090401643e-39
-0.3395819068 -0.1312616616 -0.2242663205 5.090401643e-39
-0.1682514399 -0.7169367075 -0.344427526 4.907806848e-39
-0.3183485568 -0.2873240709 -0.1891502589 4.907806848e-39
-0.2868754864 -0.03681893647 -0.1719917804 4.907806848e-39
-0.2751116753 -0.02834706008 -0.163610667 4.907806848e-39
-0.2985067368 -0.03910796344 -0.159675777 4.907806848e-39
-0.3425056934 -0.09903707355 -0.1983847469 4.907806848e-39
-0.0957005918 -0.7091971636 -0.3727979958 4.907806848e-39
-0.3055651188 -0.3991726339 -0.2192037702 4.907806848e-39
-0.1181585193 -0.1712419689 -0.3164175749 4.725212053e-39
-0.3259752095 -0.2384260297 -0.2222413123 4.725212053e-39
-0.3401401937 -0.1235801652 -0.2149505913 4.725212053e-39
-0.3436222076 -0.08367411047 -0.1797532588 4.725212053e-39
-0.3447387516 -0.06831115484 -0.1611217558 4.725212053e-39
-0.2778823376 -0.3605167568 -0.1005908102 4.725212053e-39
-0.2630621791 -0.3780866861 -0.09739412367 4.725212053e-39
-0.09420514107 -0.1681625843 -0.3296682239 4.725212053e-39
-0.2861846983 -0.0383175984 -0.1606103927 4.542257124e-39
-0.3095798194 -0.04907846078 -0.1566755176 4.542257124e-39
-0.1414210945 -0.1758200228 -0.291785568 4.542257124e-39
-0.2166901529 -0.004536319524 -0.1837964207 4.542257124e-39
-0.3383328915 -0.1404418051 -0.2222006768 4.542257124e-39
-0.336525619 -0.1573034227 -0.2294507772 4.542257124e-39
-0.262789607 -0.02755669877 -0.1645452827 4.542257124e-39
-0.2310564667 -0.4377696812 -0.1075665802 4.542257124e-39
-0.2618131638 -0.3872668147 -0.09532847255 4.359662329e-39
-0.3322203159 -0.1925253272 -0.2325695604 4.359662329e-39
-0.1436073035 -0.7153559923 -0.3462967277 4.359662329e-39
-0.2856264412 -0.04599907249 -0.1699261367 4.359662329e-39
-0.2972577214 -0.04828809947 -0.1576101333 4.359662329e-39
-0.2673318982 -0.4416394234 -0.09338135272 4.359662329e-39
-0.3434897363 -0.07749131322 -0.1590560973 4.359662329e-39
-0.02234502137 -0.1589244157 -0.3694200814 4.359662329e-39
-0.2622313499 -0.03523821384 -0.1738610119 4.177066133e-39
-0.2043680698 -0.003745954484 -0.1847310364 4.177066133e-39
-0.2504675388 -0.02676633745 -0.1654798985 4.177066133e-39
-0.1290990412 -0.1750296652 -0.2927201688 4.177066133e-39
-0.08268775046 -0.7099055052 -0.3623512387 4.177066133e-39
-0.3176577985 -0.2888227403 -0.1777688712 4.177066133e-39
-0.2388362139 -0.02447731048 -0.1777959019 4.177066133e-39
-0.2593151331 -0.4056271315 -0.09119717032 4.177066133e-39
-0.2966994941 -0.05596956611 -0.1669258624 3.994471337e-39
-0.3376421332 -0.1419404596 -0.2108192891 3.994471337e-39
-0.2154411376 -0.01371645182 -0.181730777 3.994471337e-39
-0.3277824819 -0.2215644419 -0.2149912268 3.994471337e-39
-0.2426877618 -0.4400587082 -0.09525058419 3.994471337e-39
-0.1066411138 -0.7129849195 -0.3491005898 3.994471337e-39
-0.3233446479 -0.2506035268 -0.1974128634 3.994471337e-39
-0.01002296899 -0.1581340432 -0.370354712 3.994471337e-39
-0.3311676979 -0.07670094818 -0.159990713 3.81151781e-39
-0.105145663 -0.1719502807 -0.3059708178 3.81151781e-39
-0.2499092817 -0.0344478488 -0.1747956276 3.81151781e-39
-0.09431906044 -0.712194562 -0.3500351906 3.81151781e-39
-0.3077725768 -0.06594006717 -0.163925603 3.81151781e-39
-0.130594492 -0.7160642743 -0.3358499706 3.81151781e-39
-0.2803803682 -0.3421564996 -0.1047221124 3.81151781e-39
-0.3302805126 -0.203204155 -0.219122529 3.81151781e-39
-0.1167769879 -0.1742393076 -0.2936547697 3.628921614e-39
-0.2580661178 -0.41480726 -0.0891315192 3.628921614e-39
-0.2147503793 -0.01521511748 -0.1703493893 3.628921614e-39
-0.3422406912 -0.08667144179 -0.1569904536 3.628921614e-39
-0.3164087832 -0.2980028987 -0.1757032126 3.628921614e-39
-0.3405659199 -0.109715879 -0.1849377155 3.628921614e-39
-0.3079306781 -0.3746295273 -0.2026379257 3.628921614e-39
-0.2691391706 -0.424777776 -0.08613125235 3.628921614e-39
-0.3363931179 -0.1511206031 -0.2087536454 3.446326818e-39
-0.2789631784 -0.4439284205 -0.08106533438 3.446326818e-39
-0.2492185235 -0.03594651446 -0.1634142399 3.446326818e-39
-0.3182160556 -0.2811412811 -0.1684531122 3.446326818e-39
-0.09282360971 -0.1711599231 -0.3069054186 3.446326818e-39
-0.05723895133 -0.1657914966 -0.3324720562 3.446326818e-39
-0.3304769099 -0.07819961011 -0.1486093402 3.446326818e-39
-0.1160862148 -0.175737977 -0.2822734118 3.446326818e-39
-0.3127942085 -0.3317261338 -0.1902034134 3.26337189e-39
-0.26664114 -0.443138063 -0.08199994266 3.26337189e-39
-0.2141921073 -0.02289658785 -0.1796651334 3.26337189e-39
-0.142225787 -0.7183532715 -0.323533982 3.26337189e-39
-0.03328557685 -0.1627121121 -0.3457226753 3.26337189e-39
-0.1299037337 -0.7175629139 -0.3244685829 3.26337189e-39
-0.2836866677 -0.05667787045 -0.1564791054 3.26337189e-39
-0.3299186528 -0.0858810842 -0.1579250693 3.26337189e-39
-0.2680582702 -0.341366142 -0.1056567281 3.080777095e-39
-0.009332201444 -0.1596327126 -0.3589732945 3.080777095e-39
-0.2368964404 -0.03515615314 -0.1643488556 3.080777095e-39
-0.2555680573 -0.433167547 -0.08500021696 3.080777095e-39
-0.3258426785 -0.2322432101 -0.2015441656 3.080777095e-39
-0.2831284106 -0.06435933709 -0.1657948345 3.080777095e-39
-0.04491686448 -0.1650011241 -0.3334066868 3.080777095e-39
-0.3245936632 -0.2414233685 -0.199478507 3.080777095e-39
-0.04503077641 -0.709033072 -0.3537736535 2.898180898e-39
-0.3375096023 -0.1357576549 -0.1901221424 2.898180898e-39
-0.2947596908 -0.06664836407 -0.1534788311 2.898180898e-39
-0.3115451932 -0.3409062922 -0.1881377548 2.898180898e-39
-0.3054326177 -0.3929898441 -0.1985066235 2.898180898e-39
-0.3175965548 -0.08509071916 -0.1588596851 2.898180898e-39
-0.1907970011 -0.01213572919 -0.1836000085 2.898180898e-39
-0.3338950872 -0.16948089 -0.2046223283 2.898180898e-39
-0.3357023597 -0.1526192725 -0.1973722279 2.715227371e-39
-0.2479694933 -0.04512665048 -0.1613485962 2.715227371e-39
-0.06898415089 -0.7121124268 -0.3405230641 2.715227371e-39
-0.2419969887 -0.4415573478 -0.08386917412 2.715227371e-39
-0.3295897543 -0.2047027946 -0.2077411115 2.715227371e-39
-0.2018700242 -0.02210622281 -0.1805997491 2.715227371e-39
-0.3292278647 -0.08737974614 -0.1465436816 2.715227371e-39
-0.153857097 -0.7206423283 -0.3112179637 2.715227371e-39
0.00298985187 -0.158842355 -0.3599078953 2.532632576e-39
-0.3087715507 -0.3161967993 -0.1090498418 2.532632576e-39
-0.1168909073 -0.7182712555 -0.314021796 2.532632576e-39
-0.2296749353 -0.4407669902 -0.08480378985 2.532632576e-39
-0.03259481117 -0.1642107666 -0.3343412876 2.532632576e-39
-0.2824376523 -0.06585800648 -0.1544134468 2.532632576e-39
-0.06817947328 -0.1695791781 -0.3087746501 2.532632576e-39
-0.3041836023 -0.4021699727 -0.1964409798 2.532632576e-39
-0.05666209385 -0.7113220692 -0.341457665 2.349677647e-39
-0.336260587 -0.1449377835 -0.1880564839 2.349677647e-39
-0.2693072855 -0.3321860135 -0.1077223867 2.349677647e-39
-0.3139107525 -0.3163631856 -0.1715719104 2.349677647e-39
-0.3344533443 -0.1617994308 -0.1953065693 2.349677647e-39
-0.3326460421 -0.1786610484 -0.2025566846 2.349677647e-39
-0.07981076092 -0.1718682051 -0.2964586318 2.349677647e-39
-0.3072399199 -0.3761281669 -0.191256538 2.349677647e-39
-0.3386261463 -0.1203946918 -0.1714906543 2.167082852e-39
-0.1045688242 -0.7174808979 -0.3149563968 2.167082852e-39
-0.3169057667 -0.0865893811 -0.1474782974 2.167082852e-39
-0.04434001073 -0.7105317116 -0.3423922658 2.167082852e-39
-0.3204028308 -0.3184858263 -0.09673383087 2.167082852e-39
-0.2828784287 -0.3237962127 -0.1088534147 2.167082852e-39
-0.3163475394 -0.09427087009 -0.1567940265 2.167082852e-39
-0.1285222024 -0.7205602527 -0.3017057776 2.167082852e-39
-0.06829339266 -0.7136111259 -0.3291416764 1.984127923e-39
-0.1408442557 -0.7213506103 -0.3007711768 1.984127923e-39
-0.178474918 -0.01134536415 -0.1845346242 1.984127923e-39
-0.2584842741 -0.06277861446 -0.167664066 1.984127923e-39
-0.2929524183 -0.08350999653 -0.1607289165 1.984127923e-39
-0.3313970268 -0.187841177 -0.200491026 1.984127923e-39
-0.03201796114 -0.709741354 -0.3433268964 1.984127923e-39
-0.09224677086 -0.7166905403 -0.3158910275 1.984127923e-39
-0.3264009655 -0.2245617509 -0.1922284216 1.801533128e-39
-0.1162001491 -0.7197698951 -0.3026404083 1.801533128e-39
-0.0674887076 -0.1710778475 -0.2973932326 1.801533128e-39
-0.2233253568 -0.04354592413 -0.1632178277 1.801533128e-39
-0.2006210089 -0.03128640354 -0.1785340905 1.801533128e-39
-0.3045837283 -0.08579902351 -0.1484129131 1.801533128e-39
-0.337377131 -0.1295748353 -0.1694249958 1.801533128e-39
-0.3219631314 -0.2536008656 -0.1746500582 1.801533128e-39
-0.2116940618 -0.04125690088 -0.1755338162 1.618578199e-39
-0.1777841598 -0.01284402981 -0.1731532365 1.618578199e-39
-0.310854435 -0.3424049616 -0.1767563522 1.618578199e-39
-0.3379353881 -0.1218933612 -0.1601092666 1.618578199e-39
-0.103878051 -0.7189795375 -0.3035750091 1.618578199e-39
-0.3337625563 -0.1632980853 -0.1839251965 1.618578199e-39
-0.2461622208 -0.06198825315 -0.1685986817 1.618578199e-39
-0.3047418594 -0.3944884837 -0.1871252358 1.618578199e-39
-0.3156567514 -0.09576953948 -0.1454126537 1.435982003e-39
-0.3384936452 -0.1142118722 -0.1507935077 1.435982003e-39
-0.3319552839 -0.1801597178 -0.1911752671 1.435982003e-39
-0.007950673811 -0.1626300514 -0.3362105191 1.435982003e-39
-0.04353533313 -0.1679984629 -0.3106438816 1.435982003e-39
-0.2922616303 -0.08500865847 -0.1493475288 1.435982003e-39
-0.3168345094 -0.2841385901 -0.1456903368 1.435982003e-39
-0.284127444 -0.3146160841 -0.1109190732 1.435982003e-39
-0.06760261953 -0.7151097655 -0.3177602589 1.253028475e-39
-0.3150985241 -0.1034510136 -0.1547283828 1.253028475e-39
-0.3132199943 -0.317861855 -0.1601905078 1.253028475e-39
-0.09155599773 -0.7181891799 -0.3045096397 1.253028475e-39
-0.05516665429 -0.1702874899 -0.2983278632 1.253028475e-39
0.01600266993 -0.1595506668 -0.3494611382 1.253028475e-39
-0.28990376 -0.4477161169 -0.05736792088 1.253028475e-39
-0.2110033035 -0.04275556654 -0.1641524285 1.253028475e-39
-0.3267298341 -0.1057400331 -0.1424123794 1.070432279e-39
-0.1661528498 -0.01055500284 -0.18546924 1.070432279e-39
-0.3034928441 -0.4036686122 -0.1850595921 1.070432279e-39
-0.06679794192 -0.1725765169 -0.2860118449 1.070432279e-39
-0.2289841771 -0.4422656596 -0.07342240214 1.070432279e-39
-0.3096054196 -0.3515850902 -0.1746906936 1.070432279e-39
-0.07923391461 -0.7173987627 -0.3054442406 1.070432279e-39
-0.1543890536 -0.002083174884 -0.1770881116 1.070432279e-39
0.004371380433 -0.1618396938 -0.3371451497 8.874787512e-40
-0.3307062685 -0.1893398464 -0.1891096234 8.874787512e-40
-0.2220763415 -0.05272606015 -0.1611521691 8.874787512e-40
-0.3137782216 -0.3101803958 -0.1508747786 8.874787512e-40
-0.0429584831 -0.7135290504 -0.3196294904 8.874787512e-40
-0.3257102072 -0.2260604203 -0.180847019 8.874787512e-40
-0.2449131906 -0.0711684078 -0.1665330231 8.874787512e-40
-0.3348790705 -0.1479351223 -0.1652936935 8.874787512e-40
-0.1765351295 -0.02202416211 -0.1710875928 7.045238224e-40
-0.1427577436 0.0002058595419 -0.1894041151 7.045238224e-40
-0.291012615 -0.09418881685 -0.1472818702 7.045238224e-40
-0.3193325698 -0.2657783031 -0.1498216391 7.045238224e-40
-0.3294572532 -0.1985199749 -0.1870439798 7.045238224e-40
-0.2215180844 -0.06040753052 -0.1704679132 7.045238224e-40
-0.1876081973 -0.03199470788 -0.1680873185 7.045238224e-40
-0.01831434667 -0.7119483352 -0.3214987218 7.045238224e-40
-0.1538307965 -0.009764641523 -0.1864038557 5.219290273e-40
-0.1986812204 -0.0419652015 -0.1650870442 5.219290273e-40
-0.3053000867 -0.3868069947 -0.1778095067 5.219290273e-40
-0.2097542882 -0.05193569884 -0.1620867848 5.219290273e-40
-0.3273386955 -0.2710864246 -0.1184434742 5.219290273e-40
-0.3125292063 -0.3193605244 -0.1488091201 5.219290273e-40
-0.3173927963 -0.2764571309 -0.1363745779 5.219290273e-40
-0.2781323195 -0.1010799259 -0.15753223 5.219290273e-40
-0.1759768724 -0.02970567718 -0.180403322 3.389740985e-40
-0.3131587207 -0.1141298041 -0.1412813514 3.389740985e-40
-0.2552954555 -0.0826375708 -0.152151376 3.389740985e-40
-0.2208273262 -0.06190619618 -0.1590865254 3.389740985e-40
-0.2853764594 -0.3054359257 -0.1129847169 3.389740985e-40
-0.3300154805 -0.1908385158 -0.1777282357 3.389740985e-40
-0.02994566411 -0.7142373323 -0.3091827035 3.389740985e-40
-0.1531400383 -0.01126330718 -0.175022468 3.389740985e-40
-0.1981229633 -0.04964667186 -0.1744027883 1.56020571e-40
-0.1642130762 -0.02123380452 -0.1720222086 1.56020571e-40
-0.3341883123 -0.1494337916 -0.1539123058 1.56020571e-40
-0.3107219338 -0.336222142 -0.1560592055 1.56020571e-40
-0.3148947358 -0.2948173881 -0.1322432756 1.56020571e-40
-0.3323810399 -0.1662954092 -0.1611623913 1.56020571e-40
-0.3305737376 -0.1831570268 -0.1684124917 1.56020571e-40
-0.1415087134 -0.008974280208 -0.1873384714 1.56020571e-40
-0.1752861142 -0.03120434284 -0.1690219343 6.490113838e-41
-0.3250194192 -0.2275590897 -0.1694656312 6.490113838e-41
-0.3150166571 -0.270296067 -0.1193780899 6.490113838e-41
-0.2774415612 -0.1025785878 -0.1461508423 6.490113838e-41
-0.3236735761 -0.1317818016 -0.1475968212 6.490113838e-41
-0.1863591671 -0.04117484018 -0.16602166 6.490113838e-41
-0.2768833041 -0.1102600619 -0.1554665715 6.490113838e-41
-0.3287664652 -0.2000186443 -0.1756625921 6.490113838e-41
-0.1297449172 -0.0005024448037 -0.1789573431 2.496469266e-40
-0.2866254747 -0.2962557673 -0.1150503755 2.496469266e-40
-0.2540464401 -0.09181772918 -0.1500857174 2.496469266e-40
-0.3186418116 -0.2672769725 -0.1384402364 2.496469266e-40
-0.3225213587 -0.2459193766 -0.165334329 2.496469266e-40
-0.1181135997 0.001786582172 -0.1912733465 2.496469266e-40
-0.242415145 -0.0895287022 -0.1624017209 2.496469266e-40
-0.3136457205 -0.3039975464 -0.130177632 2.496469266e-40
-0.3293247223 -0.1923371553 -0.166346848 4.340353837e-40
-0.287956357 -0.1202305779 -0.1524663121 4.340353837e-40
-0.2522467375 -0.4468437135 -0.04879038036 4.340353837e-40
-0.2306513339 -0.08105684817 -0.1540206075 4.340353837e-40
-0.151891008 -0.02044343948 -0.1729568243 4.340353837e-40
-0.3229827881 -0.1332804561 -0.1362154335 4.340353837e-40
-0.18580091 -0.04885631055 -0.175337404 4.340353837e-40
0.01807496324 -0.1640466452 -0.3153169453 4.340353837e-40
-0.3340557814 -0.143250972 -0.1332151592 6.184224396e-40
-0.3298829794 -0.1846556962 -0.1570310891 6.184224396e-40
-0.3316902816 -0.1677940786 -0.1497810036 6.184224396e-40
-0.2756342888 -0.1194402128 -0.1534009278 6.184224396e-40
-0.2990294397 -0.1302010715 -0.1494660527 6.184224396e-40
-0.2527974248 -0.1009978652 -0.1480200738 6.184224396e-40
-0.2411661297 -0.09870883822 -0.1603360772 6.184224396e-40
-0.3142039776 -0.2963160574 -0.1208618879 6.184224396e-40
-0.2522391677 -0.1086793318 -0.1573358029 8.028094954e-40
-0.174037084 -0.04038447887 -0.1669562757 8.028094954e-40
-0.105791539 0.002576939762 -0.1922079623 8.028094954e-40
-0.3106606901 -0.1324900985 -0.1371500492 8.028094954e-40
-0.328075707 -0.2015173137 -0.1642812043 8.028094954e-40
-0.324328661 -0.229057759 -0.1580842435 8.028094954e-40
-0.287265569 -0.1217292398 -0.1410849243 8.028094954e-40
-0.3021112978 -0.406665951 -0.1622967869 8.028094954e-40
-0.3230796158 -0.2382378876 -0.1560185999 9.871979525e-40
0.03039707989 -0.1632562876 -0.3162515759 9.871979525e-40
-0.310102433 -0.1401715875 -0.1464657784 9.871979525e-40
-0.2294023037 -0.09023700655 -0.1519549489 9.871979525e-40
-0.1624057889 -0.03809545189 -0.1792722791 9.871979525e-40
-0.321733743 -0.1424606144 -0.1341497749 9.871979525e-40
-0.005187612958 -0.1686246991 -0.2906849384 9.871979525e-40
-0.3286339641 -0.1938358247 -0.1549654454 9.871979525e-40
-0.332806766 -0.1524311155 -0.1311495155 1.171585008e-39
-0.1395689249 -0.01965307817 -0.17389144 1.171585008e-39
-0.3179510534 -0.2687756419 -0.1270588338 1.171585008e-39
-0.2404753715 -0.1002075002 -0.1489546895 1.171585008e-39
-0.2515484095 -0.1101779938 -0.1459544152 1.171585008e-39
-0.3105894327 -0.3300393522 -0.1353620887 1.171585008e-39
0.01876573078 -0.1655453146 -0.3039355576 1.171585008e-39
-0.3129549623 -0.3054962158 -0.1187962294 1.171585008e-39
-0.09346948564 0.003367304802 -0.193142578 1.355972064e-39
-0.2743852735 -0.1286203563 -0.1513352692 1.355972064e-39
-0.1279376447 -0.01736405119 -0.1862074286 1.355972064e-39
-0.2509901524 -0.1178594902 -0.1552701592 1.355972064e-39
-0.3051676154 -0.3806241751 -0.15711236 1.355972064e-39
-0.3069748878 -0.3637625873 -0.1498622447 1.355972064e-39
-0.3160112798 -0.2794544697 -0.1136117727 1.355972064e-39
0.007134440355 -0.1678343415 -0.2916195393 1.355972064e-39
-0.1617150307 -0.03959411383 -0.1678908914 1.540360521e-39
-0.1161738113 -0.008892223239 -0.1778263152 1.540360521e-39
-0.2626214623 -0.1201485172 -0.1429541558 1.540360521e-39
-0.2768014073 -0.2771051228 -0.1201162934 1.540360521e-39
-0.1390106678 -0.02733459324 -0.1832071543 1.540360521e-39
-0.2935613394 -0.2488563955 -0.1367600411 1.540360521e-39
-0.2620632052 -0.1278299987 -0.1522698849 1.540360521e-39
-0.2392263561 -0.1093876362 -0.1468890309 1.540360521e-39
-0.2281532884 -0.09941713512 -0.1498893052 1.724747577e-39
-0.09277871996 0.001868635416 -0.1817611903 1.724747577e-39
-0.1838611364 -0.05953510851 -0.1618903726 1.724747577e-39
-0.1949341595 -0.06950563192 -0.1588900983 1.724747577e-39
-0.2170802504 -0.0894466415 -0.1528895646 1.724747577e-39
-0.2060072273 -0.07947612554 -0.1558898389 1.724747577e-39
-0.3297505081 -0.1784728765 -0.1363339424 1.724747577e-39
-0.2736945152 -0.1301190108 -0.1399538964 1.724747577e-39
-0.3026695549 -0.3989844918 -0.1529810578 1.909134633e-39
-0.1156155542 -0.01657368988 -0.1871420443 1.909134633e-39
-0.2497411221 -0.1270396262 -0.1532045007 1.909134633e-39
-0.1383199096 -0.02883325517 -0.1718257815 1.909134633e-39
-0.1722298115 -0.05724608153 -0.1742063612 1.909134633e-39
-0.3075331151 -0.3560810983 -0.1405465156 1.909134633e-39
-0.1038517579 -0.008101858199 -0.1787609309 1.909134633e-39
-0.3285014629 -0.1876530349 -0.1342682838 1.909134633e-39
-0.1493929625 -0.03880375624 -0.1688255072 2.09352309e-39
-0.3014205396 -0.4081646204 -0.1509153992 2.09352309e-39
-0.312264204 -0.3069948852 -0.1074148268 2.09352309e-39
-0.3098986745 -0.3315379918 -0.1239806712 2.09352309e-39
-0.2842092812 -0.1477710009 -0.1462693661 2.09352309e-39
-0.2812392712 -0.2480660379 -0.1376946568 2.09352309e-39
-0.2928705812 -0.2503550649 -0.1253786236 2.09352309e-39
-0.3229471445 -0.2320550978 -0.1353214532 2.09352309e-39
-0.226346001 -0.1162787676 -0.1571393907 2.277910146e-39
-0.1715390533 -0.05874474719 -0.1628249884 2.277910146e-39
-0.2724454999 -0.1392991692 -0.1378882378 2.277910146e-39
-0.1936851442 -0.0786857605 -0.1568244547 2.277910146e-39
-0.1826121062 -0.06871526688 -0.1598247141 2.277910146e-39
-0.2657283843 -0.2671346366 -0.1231165528 2.277910146e-39
-0.1488347054 -0.04648522288 -0.1781412512 2.277910146e-39
-0.3272524476 -0.1968331635 -0.1322026402 2.277910146e-39
-0.1709807813 -0.06642623991 -0.1721407175 2.462297202e-39
-0.23345761 -0.3144519329 -0.09189472347 2.462297202e-39
0.04410066456 -0.1654632688 -0.2944234014 2.462297202e-39
-0.1370708942 -0.0380133912 -0.1697601229 2.462297202e-39
-0.0565032661 0.005738392472 -0.1959464252 2.462297202e-39
-0.2805484831 -0.2495647073 -0.1263132393 2.462297202e-39
-0.2913671434 -0.2778737247 -0.1154810041 2.462297202e-39
-0.3086496294 -0.3407181203 -0.1219150126 2.462297202e-39
-0.2940333486 -0.1669216603 -0.1412034333 2.646685659e-39
-0.2999421656 -0.3062045276 -0.1083494425 2.646685659e-39
-0.1481439471 -0.04798388854 -0.1667598635 2.646685659e-39
-0.2945915759 -0.1592401564 -0.1318877041 2.646685659e-39
-0.3068423569 -0.3575797677 -0.1291651279 2.646685659e-39
-0.2250969857 -0.1254588962 -0.1550737321 2.646685659e-39
-0.2478013486 -0.1377184391 -0.1397574693 2.646685659e-39
-0.320449084 -0.250415355 -0.131190151 2.646685659e-39
-0.2140239477 -0.1154884025 -0.1580739915 2.830713982e-39
-0.2706381977 -0.1561607718 -0.1451383233 2.830713982e-39
-0.3167376816 -0.1791811883 -0.1258871704 2.830713982e-39
-0.06757633388 -0.004232108593 -0.1929461509 2.830713982e-39
-0.2888690829 -0.2962340117 -0.1113497019 2.830713982e-39
-0.2327668518 -0.3159506023 -0.08051334321 2.830713982e-39
-0.1365126371 -0.04569486156 -0.1790758669 2.830713982e-39
-0.192436114 -0.08786591887 -0.1547587961 2.830713982e-39
-0.2534063458 -0.2663442791 -0.1240511686 3.015101038e-39
-0.1808048189 -0.0855768919 -0.1670747995 3.015101038e-39
-0.14758569 -0.0556653589 -0.1760755926 3.015101038e-39
-0.169731766 -0.07560637593 -0.1700750589 3.015101038e-39
0.05642271787 -0.1646728963 -0.2953580022 3.015101038e-39
-0.04418121278 0.006528750062 -0.1968810409 3.015101038e-39
-0.3247544169 -0.2151934505 -0.1280713379 3.015101038e-39
-0.3038573265 -0.1860723048 -0.1361375153 3.015101038e-39
-0.2927843332 -0.1761017889 -0.1391377896 3.199488094e-39
-0.3007297814 -0.4096632898 -0.1395339966 3.199488094e-39
-0.2583161592 -0.1553704143 -0.146072939 3.199488094e-39
-0.3097661734 -0.3253551722 -0.1032835245 3.199488094e-39
-0.07864936441 -0.01420260221 -0.1899458915 3.199488094e-39
-0.2244062275 -0.1269575655 -0.1436923593 3.199488094e-39
-0.307400614 -0.3498982787 -0.1198493689 3.199488094e-39
-0.2693891823 -0.1653409302 -0.1430726647 3.199488094e-39
-0.3037860692 -0.3836215138 -0.1343495697 3.383517819e-39
-0.2876200676 -0.30541417 -0.1092840582 3.383517819e-39
-0.2699474394 -0.1576594412 -0.1337569356 3.383517819e-39
-0.06688556075 -0.005730770528 -0.1815647632 3.383517819e-39
-0.2804622054 -0.1753114313 -0.1400724053 3.383517819e-39
-0.3103244007 -0.317673713 -0.09396779537 3.383517819e-39
-0.08972242475 -0.02417314425 -0.1869456172 3.383517819e-39
-0.3253126442 -0.2075119615 -0.1187556088 3.383517819e-39
-0.1013537124 -0.02646217123 -0.1746296138 3.567904875e-39
-0.2017018944 -0.114698045 -0.1590086073 3.567904875e-39
-0.3197583258 -0.2519140244 -0.1198087335 3.567904875e-39
-0.1911870986 -0.0970460549 -0.1526931375 3.567904875e-39
-0.2915352881 -0.1852819473 -0.137072131 3.567904875e-39
-0.3061872721 -0.2603037953 -0.1186776906 3.567904875e-39
-0.3142396212 -0.1975414753 -0.1217558682 3.567904875e-39
-0.3178185225 -0.2625928521 -0.1063617021 3.567904875e-39
-0.0434904471 0.005030088127 -0.1854996532 3.75229193e-39
-0.1684827358 -0.08478653431 -0.1680094153 3.75229193e-39
-0.2881782949 -0.297732681 -0.09996832907 3.75229193e-39
-0.3043443263 -0.3759400547 -0.1250338256 3.75229193e-39
-0.1574097127 -0.07481601834 -0.1710096747 3.75229193e-39
-0.297444135 -0.3245648146 -0.1042181402 3.75229193e-39
-0.1124267504 -0.03643266857 -0.1716293544 3.75229193e-39
-0.3240636289 -0.2166921198 -0.1166899502 3.75229193e-39
-0.2863710523 -0.3145942986 -0.1072183996 3.936320254e-39
-0.2792131901 -0.1844915897 -0.1380067468 3.936320254e-39
-0.04293219 -0.002651385963 -0.1948153824 3.936320254e-39
-0.2686984241 -0.1668395996 -0.1316912919 3.936320254e-39
-0.2447450459 -0.163760215 -0.1449418962 3.936320254e-39
-0.245303303 -0.1560787112 -0.1356261671 3.936320254e-39
-0.1234998107 -0.04640316591 -0.168629095 3.936320254e-39
-0.2667229772 -0.2762930095 -0.1173502356 3.936320254e-39
-0.2797714472 -0.1768100858 -0.1286910176 4.120708711e-39
-0.2642249465 -0.2946532965 -0.1132189333 4.120708711e-39
-0.1893798113 -0.1139076799 -0.159943223 4.120708711e-39
0.5135017037 -0.08607307076 -0.2376479357 4.120708711e-39
-0.1345728338 -0.05637366325 -0.1656288207 4.120708711e-39
-0.0914606899 -0.1154592633 -0.2907088995 4.120708711e-39
-0.06563654542 -0.01491090655 -0.1794991195 4.120708711e-39
-0.1229415536 -0.05408463627 -0.1779448241 4.120708711e-39
-0.1672337204 -0.09396666288 -0.1659437567 4.304737034e-39
-0.1677919775 -0.08628519624 -0.1566280276 4.304737034e-39
-0.03116839379 0.005820445716 -0.186434269 4.304737034e-39
-0.2758562863 -0.2969423234 -0.1009029448 4.304737034e-39
-0.2976122499 -0.2319730222 -0.1258092672 4.304737034e-39
-0.03061013855 -0.001861024648 -0.1957499981 4.304737034e-39
-0.3104925752 -0.2250818908 -0.1155589223 4.304737034e-39
-0.2440542877 -0.1652588695 -0.1335605085 4.304737034e-39
-0.06507828832 -0.02259242162 -0.1888148487 4.48912409e-39
-0.2785224319 -0.1859902442 -0.1266253591 4.48912409e-39
-0.04224142805 -0.004150047898 -0.1834339947 4.48912409e-39
-0.09954643995 -0.04332377762 -0.1818796992 4.48912409e-39
-0.07670957595 -0.02488144487 -0.1764988452 4.48912409e-39
-0.3079945147 -0.2434421778 -0.1114276201 4.48912409e-39
-0.2551273406 -0.1752293706 -0.1305602491 4.48912409e-39
-0.303653568 -0.3774386942 -0.1136524081 4.48912409e-39
-0.2967533469 -0.326063484 -0.09283675253 4.673152414e-39
-0.2656421065 -0.1928813457 -0.1368757188 4.673152414e-39
-0.007214987651 0.008899837732 -0.1996848881 4.673152414e-39
-0.2856802642 -0.316092968 -0.09583702683 4.673152414e-39
-0.177057758 -0.1131173223 -0.1608778387 4.673152414e-39
-0.0533144623 -0.01412054524 -0.1804337353 4.673152414e-39
-0.2422470003 -0.182120502 -0.140810594 4.673152414e-39
-0.1665429622 -0.09546533227 -0.154562369 4.673152414e-39
-0.07913860679 -0.1146688983 -0.2916435003 4.857539469e-39
-0.2838729918 -0.3329545856 -0.1030870974 4.857539469e-39
-0.01884634048 0.006610810757 -0.1873688847 4.857539469e-39
0.5011796355 -0.0868634358 -0.23671332 4.857539469e-39
-0.1549116671 -0.09317630529 -0.1668783724 4.857539469e-39
-0.2635341883 -0.2961519659 -0.1018375605 4.857539469e-39
-0.2660322189 -0.2777916789 -0.1059688479 4.857539469e-39
-0.3005972505 -0.4034805 -0.1188368648 4.857539469e-39
-0.3067454994 -0.2526223361 -0.1093619615 5.041567793e-39
-0.09021167457 -0.1246393993 -0.2886432409 5.041567793e-39
-0.05275620148 -0.02180205658 -0.1897494644 5.041567793e-39
-0.2796033323 -0.2694018781 -0.1070998907 5.041567793e-39
-0.2994194925 -0.2151114047 -0.1185591817 5.041567793e-39
0.4881668389 -0.08615513146 -0.2471601218 5.041567793e-39
-0.2951141894 -0.2503332794 -0.1216779649 5.041567793e-39
-0.2538783252 -0.184409529 -0.1284945905 5.041567793e-39
-0.3042118251 -0.3697572351 -0.104336679 5.225597518e-39
-0.2852901816 -0.2311826646 -0.1267438829 5.225597518e-39
-0.293174386 -0.2610121071 -0.1082309335 5.225597518e-39
-0.09885567427 -0.04482243955 -0.1704983264 5.225597518e-39
0.005107067525 0.009690202773 -0.200619489 5.225597518e-39
-0.2095861286 -0.1445274949 -0.1404956579 5.225597518e-39
0.4745957851 -0.07776535302 -0.2482911497 5.225597518e-39
-0.06382926553 -0.03177255765 -0.186749205 5.225597518e-39
-0.1979548335 -0.1422384679 -0.1528116614 5.409984573e-39
-0.1868817806 -0.1322679818 -0.1558119208 5.409984573e-39
-0.1758087426 -0.1222974584 -0.1588121951 5.409984573e-39
-0.04099240899 -0.01333018392 -0.181368351 5.409984573e-39
-0.2304832041 -0.1736486554 -0.1324294806 5.409984573e-39
-0.1647356749 -0.1123269573 -0.1618124545 5.409984573e-39
-0.3065773249 -0.3452141285 -0.08777083457 5.409984573e-39
-0.006524223834 0.007401175797 -0.1883035004 5.409984573e-39
-0.2415562421 -0.1836191714 -0.1294292063 5.594012897e-39
-0.1652939469 -0.1046454608 -0.1524967253 5.594012897e-39
-0.07844783366 -0.1161675602 -0.2802621126 5.594012897e-39
-0.2604778707 -0.3221937418 -0.1070219725 5.594012897e-39
-0.005965968594 -0.0002802982926 -0.1976192296 5.594012897e-39
-0.2556499541 -0.2663224936 -0.1203505099 5.594012897e-39
-0.2188518792 -0.1713596135 -0.144745484 5.594012897e-39
-0.1536626518 -0.1023564413 -0.1648127288 5.594012897e-39
-0.2760244012 -0.2043505311 -0.1224940717 5.77804122e-39
-0.08952090144 -0.1261380613 -0.2772618532 5.77804122e-39
-0.2194101512 -0.1636781394 -0.13542974 5.77804122e-39
-0.2526293099 -0.1935896575 -0.1264289469 5.77804122e-39
0.01742912084 0.01048056036 -0.2015541047 5.77804122e-39
-0.2944234014 -0.2518319488 -0.1102965772 5.77804122e-39
-0.2383318096 -0.3022527099 -0.1130225062 5.77804122e-39
-0.282792151 -0.2495429218 -0.1226125807 5.77804122e-39
-0.2721092105 -0.3244827688 -0.094705984 5.962428276e-39
-0.02867035381 -0.01253982261 -0.1823029667 5.962428276e-39
-0.1967058182 -0.1514185965 -0.1507460177 5.962428276e-39
-0.1856327504 -0.1414481103 -0.1537462771 5.962428276e-39
-0.2942552865 -0.3444237709 -0.0887054503 5.962428276e-39
-0.06313849986 -0.03327121958 -0.1753678173 5.962428276e-39
-0.2692210078 -0.2579327226 -0.1214815378 5.962428276e-39
-0.2403072268 -0.1927993 -0.1273635626 5.962428276e-39
-0.2413881123 -0.2762109637 -0.1078380793 6.1464566e-39
-0.2176028639 -0.1805397719 -0.1426798254 6.1464566e-39
-0.2592288554 -0.3313738704 -0.1049563289 6.1464566e-39
0.4622737169 -0.07855571806 -0.247356534 6.1464566e-39
-0.2499631047 -0.3045417666 -0.1007065177 6.1464566e-39
-0.2703019381 -0.3413443565 -0.1019560695 6.1464566e-39
-0.06612578034 -0.1153772026 -0.2811967432 6.1464566e-39
-0.2618950605 -0.2204217911 -0.130678758 6.1464566e-39
-0.03974338248 -0.02251036093 -0.1793026924 6.330484923e-39
0.4487026036 -0.07016594708 -0.2484875619 6.330484923e-39
-0.2513802648 -0.2027697861 -0.1243632883 6.330484923e-39
-0.2924480438 -0.3612853885 -0.09595553577 6.330484923e-39
-0.06556753814 -0.1230586767 -0.2905124724 6.330484923e-39
-0.2161857188 -0.2823117077 -0.1190230399 6.330484923e-39
-0.2174347341 -0.2731315792 -0.1210886985 6.330484923e-39
-0.03918512911 -0.03019183129 -0.1886184216 6.330484923e-39
0.4895483851 -0.08915245533 -0.2243973166 6.514514648e-39
-0.2717190683 -0.2395724356 -0.1256128401 6.514514648e-39
0.02975117415 0.0112709254 -0.2024887204 6.514514648e-39
0.0186781399 0.001300424337 -0.199488461 6.514514648e-39
-0.2597871125 -0.3236924112 -0.09564059973 6.514514648e-39
-0.1738689691 -0.1329762638 -0.1453651488 6.514514648e-39
-0.01634829864 -0.01174946129 -0.1832375824 6.514514648e-39
-0.1627959013 -0.1230057552 -0.1483654231 6.514514648e-39
-0.01579003967 -0.01943097636 -0.1925533116 6.698542971e-39
0.4635227323 -0.08773584664 -0.2452908903 6.698542971e-39
-0.1511645913 -0.1207167283 -0.1606814265 6.698542971e-39
-0.05380370095 -0.1145868376 -0.2821313441 6.698542971e-39
-0.2704700232 -0.2487525642 -0.1235471964 6.698542971e-39
-0.3040792942 -0.3635744154 -0.08363953233 6.698542971e-39
0.04207322747 0.01206128299 -0.2034233361 6.698542971e-39
0.4499516189 -0.0793460831 -0.2464219183 6.698542971e-39
-0.2372509241 -0.2188410461 -0.1325479895 6.882571295e-39
0.4493933618 -0.07166461647 -0.2371061593 6.882571295e-39
-0.2501312494 -0.2119499445 -0.1222976446 6.882571295e-39
-0.2593970299 -0.238782078 -0.1265474558 6.882571295e-39
-0.2358337641 -0.3206130266 -0.108891204 6.882571295e-39
-0.06487676501 -0.1245573387 -0.2791310847 6.882571295e-39
-0.2612043023 -0.2219204605 -0.1192973703 6.882571295e-39
-0.2136876732 -0.3006719947 -0.1148917377 6.882571295e-39
-0.299215734 -0.406477809 -0.09607407451 7.066599618e-39
-0.2710283101 -0.241071105 -0.1142314672 7.066599618e-39
-0.2267361432 -0.2011890709 -0.1262325197 7.066599618e-39
-0.2253189683 -0.3029610217 -0.1025757492 7.066599618e-39
-0.07594980299 -0.1345278621 -0.2761308253 7.066599618e-39
0.4363805354 -0.07095630467 -0.2475529611 7.066599618e-39
-0.03849436343 -0.03169049695 -0.1772370487 7.066599618e-39
-0.2363920361 -0.3129315376 -0.09957547486 7.066599618e-39
-0.2474650592 -0.3229020536 -0.09657521546 7.250627941e-39
-0.1836929768 -0.1521269083 -0.1402992457 7.250627941e-39
-0.2186837643 -0.2639514208 -0.1231543422 7.250627941e-39
-0.2445769161 -0.2563520074 -0.1233507693 7.250627941e-39
-0.2806841731 -0.3528135717 -0.08757442236 7.250627941e-39
-0.205112651 -0.2723411918 -0.1220233142 7.250627941e-39
-0.2038636357 -0.2815213501 -0.1199576557 7.250627941e-39
-0.07539154589 -0.1422093213 -0.2854465544 7.250627941e-39
-0.00346792303 -0.01864061132 -0.1934879273 7.434656265e-39
-0.08646461368 -0.1521798223 -0.282446295 7.434656265e-39
0.03100019693 0.002090789378 -0.2004230767 7.434656265e-39
-0.1609886289 -0.1398673803 -0.1556155086 7.434656265e-39
-0.2303150594 -0.2662404478 -0.1108383536 7.434656265e-39
-0.2378091812 -0.2111595869 -0.1232322603 7.434656265e-39
0.4642134905 -0.08923451602 -0.2339094728 7.434656265e-39
-0.248882249 -0.2211300731 -0.120231986 7.434656265e-39
-0.3010230362 -0.3896161616 -0.08882395923 7.618684588e-39
-0.2788769305 -0.3696751893 -0.09482449293 7.618684588e-39
-0.2249288708 -0.2180506885 -0.1334826052 7.618684588e-39
-0.2045900524 -0.1812480688 -0.1322330534 7.618684588e-39
-0.2697792649 -0.2502512336 -0.1121658087 7.618684588e-39
-0.223511681 -0.3198226392 -0.1098258197 7.618684588e-39
-0.2581479847 -0.2479622066 -0.1244818121 7.618684588e-39
-0.04956739768 -0.04166099429 -0.1742367744 7.618684588e-39
-0.1929587573 -0.1789590567 -0.1445490569 7.802712912e-39
-0.2345847487 -0.3297931552 -0.1068255603 7.802712912e-39
-0.2562082112 -0.2586410344 -0.1110347658 7.802712912e-39
-0.2124386579 -0.3098521233 -0.112826094 7.802712912e-39
-0.224069953 -0.3121411502 -0.1005100906 7.802712912e-39
0.4500841498 -0.0731632784 -0.2257247716 7.802712912e-39
-0.05255468562 -0.1237669736 -0.2800656855 7.802712912e-39
-0.2587062716 -0.2402807474 -0.1151660681 7.802712912e-39
-0.04900914431 -0.04934246093 -0.1835525185 7.986382503e-39
-0.1935170144 -0.1712775528 -0.1352333277 7.986382503e-39
-0.02617231011 -0.03090013564 -0.1781716496 7.986382503e-39
0.008295867592 -0.01016873494 -0.1851068139 7.986382503e-39
-0.232254833 -0.2555616498 -0.124285385 7.986382503e-39
0.04332225025 0.002881146967 -0.2013576925 7.986382503e-39
0.4370712936 -0.07245497406 -0.2361715436 7.986382503e-39
0.04276399314 0.01056262106 -0.1920419484 7.986382503e-39
-0.2462160438 -0.3320821822 -0.09450955689 8.170410826e-39
-0.06362774968 -0.1337374896 -0.2770654261 8.170410826e-39
-0.06064046174 -0.05163148791 -0.171236515 8.170410826e-39
0.008854132146 -0.01785025001 -0.194422543 8.170410826e-39
-0.05199642852 -0.1314484626 -0.2893814147 8.170410826e-39
-0.2997739911 -0.39879632 -0.08675831556 8.170410826e-39
-0.2254871279 -0.2103692293 -0.1241668761 8.170410826e-39
-0.1492248178 -0.1313955486 -0.1472343802 8.170410826e-39
-0.01752827689 -0.110717088 -0.2963165641 8.35443915e-39
-0.1486665606 -0.1390770227 -0.1565501243 8.35443915e-39
-0.2554817796 -0.3589142859 -0.09875938296 8.35443915e-39
-0.08521558344 -0.1613599807 -0.2803806365 8.35443915e-39
-0.2222626656 -0.3290027976 -0.1077601761 8.35443915e-39
-0.2353111356 -0.2295198739 -0.1191009581 8.35443915e-39
-0.2019238621 -0.2922001481 -0.1065106243 8.35443915e-39
-0.2438861579 -0.2578506768 -0.1119693816 8.35443915e-39
-0.2985249758 -0.4079764783 -0.08469265699 8.538467473e-39
0.05564436316 0.003671512008 -0.2022923082 8.538467473e-39
-0.1922679991 -0.1804577112 -0.1331676692 8.538467473e-39
-0.1915415823 -0.2807309628 -0.1208922714 8.538467473e-39
-0.2126067877 -0.2172603309 -0.134417221 8.538467473e-39
0.03224921972 -0.007089346647 -0.1983574182 8.538467473e-39
