# .PCD v0.7 - Point Cloud Data file format
VERSION 0.7
FIELDS x y z rgb
SIZE 4 4 4 4
TYPE F F F F
COUNT 1 1 1 1
WIDTH 825
HEIGHT 1
VIEWPOINT 0 0 0 1 0 0 0
POINTS 825
DATA ascii
0.09838683903 -0.1409552842 0.2078778148 1.075048997e-38
-0.05302985013 -0.1491257101 0.1414908916 1.075048997e-38
0.1032097861 -0.08509485424 0.194516331 1.075048997e-38
0.1003405005 -0.08529283106 0.1283119917 1.075048997e-38
0.09257788956 -0.1089293212 0.1675257385 1.075048997e-38
-0.1178246588 -0.13321729 0.1306340694 1.056789517e-38
-0.04070808738 -0.1483366042 0.1405578405 1.056789517e-38
-0.290855974 -0.4816742539 0.1807885021 1.056789517e-38
-0.1222605854 -0.1041848809 0.1130405813 1.056789517e-38
-0.09136807919 -0.1484994739 0.1215314791 1.056789517e-38
-0.1206411123 -0.09480832517 0.1771735102 1.056789517e-38
-0.0790463239 -0.147710368 0.1205984205 1.056789517e-38
-0.1221373677 -0.09799982607 0.1337277591 1.056789517e-38
0.1018367559 -0.08210133016 0.1717577875 1.038530038e-38
0.09051835537 -0.1044390351 0.1333878636 1.038530038e-38
-0.1043763459 -0.147791788 0.1110852286 1.038530038e-38
-0.1213276386 -0.09331156313 0.1657942235 1.038530038e-38
-0.292105794 -0.4724957049 0.1787170917 1.038530038e-38
-0.09205460548 -0.1470027119 0.1101521701 1.038530038e-38
0.0945142135 -0.1196046621 0.1809764504 1.038530038e-38
0.1026464999 -0.07741306722 0.2038242221 1.038530038e-38
0.08914532512 -0.101445511 0.1106292754 1.020306431e-38
0.0774397254 -0.07130943239 0.214998275 1.020306431e-38
-0.1263796836 -0.09520430863 0.04476481676 1.020306431e-38
0.09507749975 -0.1272864491 0.1716685444 1.020306431e-38
-0.004429385066 -0.1444725543 0.1263793558 1.020306431e-38
-0.1235103905 -0.095006302 0.1109691709 1.020306431e-38
-0.2914192677 -0.4739924669 0.1900963783 1.020306431e-38
-0.05508939922 -0.144635424 0.1073529944 1.020306431e-38
0.101959981 -0.07591630518 0.1924449354 1.002046952e-38
-0.2900613546 -0.7556838989 -0.1067693532 1.002046952e-38
-0.2770531178 -0.7563915253 -0.09632313251 1.002046952e-38
-0.2893748283 -0.7571806312 -0.09539007396 1.002046952e-38
-0.3140183091 -0.7587588429 -0.09352395684 1.002046952e-38
0.08976145089 -0.0705203563 0.214065209 1.002046952e-38
0.05210971832 -0.07139088213 0.2054850459 1.002046952e-38
-0.316077888 -0.754268527 -0.1276618242 1.002046952e-38
-0.2914344072 -0.7526903152 -0.1295279413 9.837874723e-39
-0.01743762195 -0.1437648684 0.1159331277 9.837874723e-39
-0.2647313476 -0.755602479 -0.09725619107 9.837874723e-39
-0.1231935471 -0.1150581688 0.06028692797 9.837874723e-39
0.0332223475 -0.1436019987 0.1349594891 9.837874723e-39
-0.3242805004 -0.7640382051 -0.05845299363 9.837874723e-39
0.08319583535 -0.141942367 0.1426065415 9.837874723e-39
0.05923886225 -0.1450173408 0.1558519304 9.837874723e-39
-0.1238800734 -0.1135614067 0.04890762269 9.655279928e-39
-0.2674773932 -0.7496154308 -0.1427733749 9.655279928e-39
0.03184931725 -0.1406084746 0.1122009009 9.655279928e-39
-0.1200074255 -0.1349120289 0.07580900937 9.655279928e-39
0.07675320655 -0.06981267035 0.2036189288 9.655279928e-39
-0.1271894127 -0.09989260137 0.01269833744 9.655279928e-39
-0.3065021634 -0.7474924326 -0.1741120666 9.655279928e-39
-0.1245665848 -0.1120646745 0.03752833605 9.655279928e-39
0.09815773368 -0.08698756993 0.07348694652 9.472685133e-39
-0.2811722159 -0.7474110126 -0.1645988673 9.472685133e-39
-0.2612987757 -0.7630862594 -0.04035973549 9.472685133e-39
-0.126256451 -0.08901925385 0.06545199454 9.472685133e-39
-0.240774408 -0.7525274754 -0.1105015874 9.472685133e-39
-0.121943742 -0.1242367178 0.06235833094 9.472685133e-39
-0.03414245695 -0.07691456378 0.2120164484 9.472685133e-39
0.01884107664 -0.1399008185 0.101754643 9.472685133e-39
0.0267797187 -0.07147230208 0.1959718764 9.290090338e-39
0.09414453804 -0.1381597668 0.1189148873 9.290090338e-39
-0.1291257292 -0.08921729028 -0.0007523372769 9.290090338e-39
-0.2852557302 -0.7661612034 -0.02711433172 9.290090338e-39
-0.05878596008 -0.07849277556 0.2138825655 9.290090338e-39
-0.1201306731 -0.1410970837 0.0551218316 9.290090338e-39
-0.1213804632 -0.1319185048 0.05305042118 9.290090338e-39
-0.1226302683 -0.1227399558 0.05097902566 9.290090338e-39
-0.2387148589 -0.7570177317 -0.07636374235 9.107495543e-39
-0.1285624355 -0.0968990773 -0.01006025076 9.107495543e-39
-0.3229075074 -0.7670317292 -0.03569443524 9.107495543e-39
-0.04715071619 -0.07620690763 0.2015702277 9.107495543e-39
-0.120394662 -0.08243824542 0.2185478508 9.107495543e-39
-0.2845692635 -0.7676579952 -0.01573505998 9.107495543e-39
-0.2380283326 -0.7585145235 -0.064984411 9.107495543e-39
0.09634464234 -0.07012723386 0.08072341979 9.107495543e-39
-0.05646242201 -0.1416418999 0.08459443599 8.924899347e-39
0.08838842064 -0.06752683222 0.191306591 8.924899347e-39
0.005832798779 -0.1391931623 0.09130842984 8.924899347e-39
-0.2482905239 -0.7637939453 -0.02991351485 8.924899347e-39
-0.1304987669 -0.08622376621 -0.02351093292 8.924899347e-39
-0.1290025115 -0.0830322355 0.0199348405 8.924899347e-39
0.08113629371 -0.1374520808 0.1084686667 8.924899347e-39
-0.03551548719 -0.0739210397 0.18925789 8.924899347e-39
-0.06015898287 -0.07549925148 0.1911240071 8.742304551e-39
-0.1210811734 -0.08094148338 0.2071685791 8.742304551e-39
-0.04783722758 -0.07471014559 0.1901909411 8.742304551e-39
-0.307875216 -0.7444988489 -0.1968706548 8.742304551e-39
-0.3011181653 -0.4869536161 0.2158594131 8.742304551e-39
-0.1311852783 -0.08472700417 -0.03489020467 8.742304551e-39
-0.1296890229 -0.08153547347 0.008555531502 8.742304551e-39
-0.2825452089 -0.744417429 -0.1873574555 8.742304551e-39
0.07538018376 -0.06681914628 0.1808603704 8.560068489e-39
-0.2243335843 -0.7607189417 -0.04315890372 8.560068489e-39
0.0957813561 -0.06244544685 0.09003132582 8.560068489e-39
-0.03620199859 -0.07242427766 0.1778786182 8.560068489e-39
0.08902209997 -0.1076305658 0.08994209021 8.560068489e-39
0.005146287382 -0.1376964003 0.07992915064 8.560068489e-39
0.08639926463 -0.09545846283 0.06511212885 8.560068489e-39
-0.2236470729 -0.7622157335 -0.03177963197 8.560068489e-39
-0.2133848667 -0.7569363117 -0.06685052812 8.377473694e-39
-0.2702234983 -0.7436283827 -0.1882905215 8.377473694e-39
-0.09617368877 -0.1380221695 0.04187643528 8.377473694e-39
-0.1275062561 -0.0798407048 0.06338059157 8.377473694e-39
-0.04921025038 -0.07171662152 0.1674323678 8.377473694e-39
-0.1241265088 -0.1259314865 0.00753326714 8.377473694e-39
-0.2345957607 -0.7659983635 -0.008087947965 8.377473694e-39
0.08495584875 -0.06004302204 0.134410128 8.377473694e-39
-0.300431639 -0.488450408 0.2272387445 8.194878899e-39
-0.3085262179 -0.7707329392 -0.002489596605 8.194878899e-39
-0.2832317352 -0.7429206967 -0.1987367719 8.194878899e-39
-0.1288792938 -0.07684718072 0.04062200338 8.194878899e-39
0.06099887937 -0.06311796606 0.1476555616 8.194878899e-39
0.06744150817 -0.1352476627 0.08664313704 8.194878899e-39
-0.2168174386 -0.7494525313 -0.1237470135 8.194878899e-39
-0.1209230572 -0.07944761217 -0.06996117532 8.194878899e-39
-0.1248130202 -0.1244347245 -0.003846041858 8.012284103e-39
-0.2579017282 -0.7428392172 -0.1892235726 8.012284103e-39
-0.04699262232 -0.07471303642 -0.07555951178 8.012284103e-39
-0.1302523166 -0.07385368645 0.01786343753 8.012284103e-39
-0.1332448125 -0.08023671806 -0.06902810931 8.012284103e-39
-0.07454025745 -0.07179804146 0.1579191834 8.012284103e-39
-0.1996901035 -0.7591407299 -0.04502502084 8.012284103e-39
-0.2962399721 -0.7422130108 -0.2091829926 8.012284103e-39
-0.07153020799 -0.1364439577 0.04001031816 7.829687907e-39
-0.1990035921 -0.7606375217 -0.03364573419 7.829687907e-39
-0.2003766149 -0.7576439977 -0.05640429258 7.829687907e-39
-0.08686198294 -0.07258714736 0.1588522494 7.829687907e-39
-0.02525327355 -0.0686416477 0.154186964 7.829687907e-39
-0.2215875238 -0.7667059898 0.002358272672 7.829687907e-39
-0.2325717658 -0.7427577972 -0.179710418 7.829687907e-39
-0.04620020092 -0.1363625079 0.04952348024 7.829687907e-39
-0.202436164 -0.7531536818 -0.09054219723 7.647093112e-39
0.03498239443 -0.06170265377 0.1267630756 7.647093112e-39
-0.1873683631 -0.7583516836 -0.04595808685 7.647093112e-39
0.02128760517 -0.05949820578 0.104937546 7.647093112e-39
-0.09823322296 -0.1335318834 0.007738560438 7.647093112e-39
0.008965879679 -0.06028731167 0.1058706045 7.647093112e-39
-0.05612823367 -0.09535600245 -0.05910433829 7.647093112e-39
-0.2948314548 -0.7729373574 0.01933589578 7.647093112e-39
-0.11219199 -0.0726685673 0.1493390501 7.464498317e-39
-0.02155670524 -0.1347842962 0.04765736312 7.464498317e-39
-0.2441714555 -0.7727744579 0.03836223483 7.464498317e-39
-0.08591146767 -0.1327427775 0.006805501878 7.464498317e-39
-0.1268725693 -0.1199444383 -0.03798390925 7.464498317e-39
-0.009234979749 -0.1339952201 0.04672430456 7.464498317e-39
0.05756630749 -0.05563417077 0.09075909853 7.464498317e-39
-0.1108014137 -0.1466910392 -0.03270275891 7.464498317e-39
-0.09184363484 -0.1069018394 -0.05423377454 7.281903522e-39
-0.1336848885 -0.06636987627 -0.0390330255 7.281903522e-39
-0.1914874464 -0.7493710518 -0.1142338216 7.281903522e-39
-0.09847967327 -0.1459019333 -0.03363581002 7.281903522e-39
-0.2462664992 -0.7405533791 -0.2015359402 7.281903522e-39
0.01991457492 -0.05650469661 0.08217895776 7.281903522e-39
-0.2065552473 -0.7441731691 -0.158817932 7.281903522e-39
-0.1750466228 -0.7575625777 -0.04689113796 7.281903522e-39
-0.1128785014 -0.07117180526 0.1379597783 7.099307325e-39
-0.1252002567 -0.07196091115 0.1388928294 7.099307325e-39
-0.1839357913 -0.765835464 0.01093837619 7.099307325e-39
-0.02937235683 -0.05966107547 0.085911192 7.099307325e-39
-0.1764196455 -0.7545690536 -0.06964969635 7.099307325e-39
-0.1736736 -0.7605561018 -0.02413257957 7.099307325e-39
-0.3071531653 -0.7737264633 0.02026896179 7.099307325e-39
-0.1256227791 -0.1291230172 -0.03591249883 7.099307325e-39
-0.02359893918 -0.06395624578 -0.07949703932 6.91671253e-39
-0.2558066845 -0.7750603557 0.05067461729 6.91671253e-39
-0.04825975001 -0.1318722516 0.01538560539 6.91671253e-39
-0.1955710202 -0.7681213617 0.02325072885 6.91671253e-39
-0.1321886182 -0.06317837536 0.004412733018 6.91671253e-39
-0.1777926832 -0.7515755296 -0.09240831435 6.91671253e-39
0.02773023397 -0.1316279024 0.04392513633 6.91671253e-39
0.1053570285 -0.05566930771 0.04358109087 6.91671253e-39
-0.1928604841 -0.7463775873 -0.1369924098 6.734117735e-39
-0.06633761525 -0.06202839315 0.08871036768 6.734117735e-39
-0.2304766774 -0.7749788761 0.06018778682 6.734117735e-39
-0.005415424705 -0.05658614635 0.07266579568 6.734117735e-39
-0.07728630304 -0.06581099331 0.112402007 6.734117735e-39
0.006906338036 -0.05579704046 0.07173273712 6.734117735e-39
-0.09059382975 -0.1160803884 -0.05216236413 6.734117735e-39
-0.1716140509 -0.7650463581 0.01000532508 6.734117735e-39
0.06851503998 -0.0518515408 0.06706744432 6.55152294e-39
-0.08960802853 -0.06660009921 0.1133350655 6.55152294e-39
-0.2427984327 -0.7757680416 0.06112083793 6.55152294e-39
-0.07797281444 -0.06431423128 0.1010227278 6.55152294e-39
-0.06195452809 -0.1296678334 -0.00643992424 6.55152294e-39
-0.07496277988 -0.1289601475 -0.01688614488 6.55152294e-39
-0.1139875352 -0.1268371493 -0.04822483659 6.55152294e-39
-0.1798522174 -0.7470852137 -0.1265461743 6.55152294e-39
-0.1142515242 -0.06817828119 0.1152011827 6.368926744e-39
-0.09098106623 -0.06360657513 0.09057647735 6.368926744e-39
-0.1599788368 -0.76276052 -0.002307012677 6.368926744e-39
-0.006841287017 -0.09219960868 -0.06283657253 6.368926744e-39
-0.1702410281 -0.7680398822 0.03276388347 6.368926744e-39
-0.2551201582 -0.7765570879 0.06205391884 6.368926744e-39
-0.1342481673 -0.05868808925 -0.02972513437 6.368926744e-39
-0.1033028215 -0.06439568102 0.09150953591 6.368926744e-39
-0.06332756579 -0.1266743094 -0.02919848263 6.186331949e-39
-0.2216230482 -0.7389751673 -0.2034020573 6.186331949e-39
-0.150403142 -0.7559843659 -0.04875725508 6.186331949e-39
-0.2873001993 -0.4829730093 0.258372128 6.186331949e-39
-0.05362863839 -0.1137131006 -0.05496153235 6.186331949e-39
-0.006788447499 -0.05359262228 0.04990720749 6.186331949e-39
-0.1279463172 -0.06597386301 0.09337565303 6.186331949e-39
0.1355629861 -0.09848712385 0.04069271684 6.186331949e-39
-0.08645743132 -0.05872319639 -0.07690314949 6.003737154e-39
-0.2167819291 -0.7771832943 0.0820132792 6.003737154e-39
0.05158129334 -0.06840024889 -0.08302398026 6.003737154e-39
0.06719505787 -0.1476177424 0.04526876658 6.003737154e-39
-0.1349346787 -0.05719132721 -0.04110442102 6.003737154e-39
-0.1675304919 -0.7462961674 -0.1274792403 6.003737154e-39
-0.1163110733 -0.06368799508 0.08106331527 6.003737154e-39
0.0516872108 -0.1285529882 0.03067973256 6.003737154e-39
-0.1442245096 -0.7694551945 0.05365639925 5.820783626e-39
-0.051692307 -0.1243884414 -0.04151085019 5.820783626e-39
0.07946373522 -0.04806894064 0.04337579757 5.820783626e-39
-0.247639522 -0.737559855 -0.2242945135 5.820783626e-39
-0.2037736773 -0.7778909802 0.09245949984 5.820783626e-39
-0.2291036546 -0.7779724002 0.08294636011 5.820783626e-39
0.08933893591 -0.1276824325 0.03925984353 5.820783626e-39
0.06714200974 -0.04885801673 0.04430885613 5.820783626e-39
-0.1682170182 -0.7447993755 -0.1388585269 5.63818743e-39
0.03800976276 -0.06001077592 -0.08416232467 5.63818743e-39
0.06400893629 -0.1277638823 0.02974668145 5.63818743e-39
0.01334896684 -0.127926752 0.0107203126 5.63818743e-39
-0.3057801723 -0.7767199278 0.04302752018 5.63818743e-39
-0.1346488297 -0.7626791 0.007206141949 5.63818743e-39
0.03012396395 -0.08983232081 -0.06563574076 5.63818743e-39
-0.1339623183 -0.7641758323 0.0185854286 5.63818743e-39
0.03867897019 -0.127845332 0.02023350447 5.455592635e-39
-0.2606477737 -0.736852169 -0.2347407639 5.455592635e-39
-0.04005708545 -0.1221025735 -0.05382318795 5.455592635e-39
0.1368127912 -0.1076656729 0.04276411235 5.455592635e-39
-0.02484874427 -0.05477769673 -0.08156843483 5.455592635e-39
-0.3015582263 -0.4730867743 0.245854497 5.455592635e-39
0.07622478157 -0.0668220371 -0.08489009738 5.455592635e-39
-0.1243866235 -0.7573996782 -0.0278648138 5.455592635e-39
0.1805372536 -0.06011326611 0.04005414248 5.272997839e-39
-0.1230135858 -0.7603932619 -0.005106195807 5.272997839e-39
-0.1264461577 -0.7529094219 -0.06200264394 5.272997839e-39
-0.02704881877 -0.1228102297 -0.04337696731 5.272997839e-39
-0.2667554021 -0.778842926 0.07436624169 5.272997839e-39
0.115742445 -0.04420489073 0.02919735014 5.272997839e-39
-0.203087166 -0.7793877125 0.103838861 5.272997839e-39
-0.008161477745 -0.05059909821 0.02714861929 5.272997839e-39
-0.1271326691 -0.7514126301 -0.07338193059 5.090401643e-39
0.03799245507 -0.12634857 0.008854195476 5.090401643e-39
-0.1661219448 -0.7770204544 0.1010396779 5.090401643e-39
0.004160284996 -0.04980999231 0.02621556073 5.090401643e-39
-0.2736560702 -0.7361445427 -0.2451869845 5.090401643e-39
-0.1278191954 -0.7499158978 -0.08476126939 5.090401643e-39
0.1836001575 -0.08615215123 0.03488907218 5.090401643e-39
-0.1777571738 -0.7793062925 0.1133520007 5.090401643e-39
0.1027341932 -0.04349720478 0.01875109226 4.907806848e-39
-0.1100053489 -0.7611008883 0.00534003973 4.907806848e-39
0.09041246772 -0.04428631067 0.01968415082 4.907806848e-39
-0.1093188375 -0.7625976801 0.01671931148 4.907806848e-39
-0.2790771127 -0.7796320319 0.0752992928 4.907806848e-39
-0.1011161953 -0.752828002 -0.05248948932 4.907806848e-39
-0.1086323261 -0.7640943527 0.02809859812 4.907806848e-39
0.04962766916 -0.1240627021 -0.00345813483 4.907806848e-39
0.1131899953 -0.06445474923 -0.08768926561 4.725212053e-39
0.01579549164 -0.04752412438 0.01390321553 4.725212053e-39
-0.106572777 -0.7685846686 0.06223648787 4.725212053e-39
-0.1298787296 -0.7454255819 -0.118899107 4.725212053e-39
0.1273776591 -0.0419190228 0.01688498259 4.725212053e-39
-0.05950796604 -0.04926520586 -0.003257021308 4.725212053e-39
-0.09768362343 -0.7603117824 0.00440697372 4.725212053e-39
-0.2989354134 -0.4852588475 0.2706844509 4.725212053e-39
0.1403859556 -0.04262667894 0.02733122557 4.542257124e-39
-0.08196868002 -0.04914864898 0.05343415588 4.542257124e-39
-0.1702765524 -0.7403091192 -0.1729963869 4.542257124e-39
-0.103175737 -0.7483376861 -0.08662738651 4.542257124e-39
-0.07538551092 -0.04875554144 -0.07990761101 4.542257124e-39
0.08972595632 -0.04278954864 0.008304871619 4.542257124e-39
-0.2917360961 -0.4539405704 0.240778625 4.542257124e-39
-0.08536186814 -0.7595226765 0.003473907709 4.542257124e-39
-0.2859271467 -0.4859665334 0.2811307311 4.359662329e-39
-0.03555098176 -0.04619023204 -0.01650241017 4.359662329e-39
-0.130565241 -0.7439288497 -0.1302784085 4.359662329e-39
0.02223812044 -0.1196538359 -0.04710920155 4.359662329e-39
0.1266911328 -0.04042226076 0.005505695939 4.359662329e-39
-0.02322925627 -0.04540115595 -0.01743547618 4.359662329e-39
0.01442246139 -0.04453060031 -0.008855372667 4.359662329e-39
-0.3004847169 -0.3896906674 0.2262788117 4.359662329e-39
-0.2913988829 -0.7804211378 0.07623237371 4.177066133e-39
0.1916091889 -0.05014562607 0.03704968095 4.177066133e-39
-0.1175570041 -0.7446365356 -0.1198321655 4.177066133e-39
-0.07304012775 -0.7587336302 0.0025408566 4.177066133e-39
0.02674422786 -0.04374152422 -0.009788423777 4.177066133e-39
-0.2106743306 -0.7351925373 -0.2270936817 4.177066133e-39
0.07671768218 -0.04208189249 -0.002141349018 4.177066133e-39
-0.0833023265 -0.7640129924 0.03761181235 4.177066133e-39
0.08903944492 -0.0412927866 -0.003074407578 3.994471337e-39
0.03906595334 -0.04295241833 -0.01072148979 3.994471337e-39
0.1750278324 -0.1144769341 0.04203633964 3.994471337e-39
-0.03842027485 -0.04638825357 -0.08270677924 3.994471337e-39
0.1390129328 -0.03963315487 0.004572637379 3.994471337e-39
0.07358463854 -0.1209877282 -0.01670356095 3.994471337e-39
-0.001455053687 -0.0440209657 -0.08550596237 3.994471337e-39
-0.0655239746 -0.7474671602 -0.07804721594 3.994471337e-39
-0.184657827 -0.7366079092 -0.2062012255 3.81151781e-39
0.1520915627 -0.07276277244 -0.07703773677 3.81151781e-39
-0.2270441204 -0.7824627161 0.117084235 3.81151781e-39
-0.07170650363 -0.04386928678 0.01836322248 3.81151781e-39
-0.01377682388 -0.04481007159 -0.08457289636 3.81151781e-39
-0.05182921886 -0.7496715784 -0.05622172356 3.81151781e-39
0.02318843454 -0.04244275391 -0.08737207949 3.81151781e-39
0.09960114956 -0.1224030703 0.004188910127 3.81151781e-39
-0.05251573026 -0.7481747866 -0.0676009953 3.628921614e-39
-0.3029843271 -0.3713335395 0.2221359909 3.628921614e-39
-0.1887058765 -0.7830889225 0.1370436549 3.628921614e-39
0.08604693413 -0.04767583311 -0.08996595442 3.628921614e-39
-0.09287802875 -0.7707890868 0.08406198025 3.628921614e-39
0.1119228825 -0.1216139644 0.003255851567 3.628921614e-39
-0.3040578365 -0.4547296464 0.2417116761 3.628921614e-39
0.1971716881 -0.09454162419 0.03602742404 3.628921614e-39
-0.1154619306 -0.7768576145 0.1200660169 3.446326818e-39
0.05920333788 -0.117286548 -0.04990836978 3.446326818e-39
0.1040543914 -0.08509771526 -0.07123409212 3.446326818e-39
-0.05320224911 -0.7466780543 -0.07898028195 3.446326818e-39
0.1242446154 -0.1208248883 0.002322793007 3.446326818e-39
-0.1360612512 -0.04182770848 -0.02248865366 3.446326818e-39
0.1871204376 -0.05972017348 -0.09328761697 3.446326818e-39
0.1755911261 -0.1221587509 0.03272843361 3.446326818e-39
-0.07307952642 -0.0408757627 -0.004395365715 3.26337189e-39
0.07221161574 -0.1179942042 -0.03946211934 3.26337189e-39
-0.1078619659 -0.04154828191 0.05322886258 3.26337189e-39
-0.2627073526 -0.7323619127 -0.2688786387 3.26337189e-39
-0.2393658608 -0.7832517624 0.1180173159 3.26337189e-39
-0.1147754192 -0.7783543468 0.1314452887 3.26337189e-39
-0.04839664698 -0.7571554184 0.00067473948 3.26337189e-39
-0.04579586536 0.01486814022 -0.07444801927 3.26337189e-39
-0.1633758843 -0.7830075026 0.1465567946 3.080777095e-39
-0.08013828099 0.0003287792206 -0.04681885242 3.080777095e-39
-0.2646958232 -0.7833332419 0.1085041463 3.080777095e-39
-0.0967900157 -0.03158062696 0.05022440106 3.080777095e-39
-0.07043935359 0.01328994334 -0.07258190215 3.080777095e-39
0.07152509689 -0.1164974421 -0.05084143579 3.080777095e-39
0.229824245 -0.05695688725 0.03632190824 3.080777095e-39
-0.008830651641 0.017235443 -0.0772471875 3.080777095e-39
0.1106903926 -0.04609762132 -0.09183207154 2.898180898e-39
-0.06689700484 -0.7444736362 -0.1008058414 2.898180898e-39
-0.006207816303 0.00506336987 -0.05241718888 2.898180898e-39
-0.09013197571 -0.776776135 0.1295791864 2.898180898e-39
0.06015364826 -0.04007546604 -0.09017124772 2.898180898e-39
-0.109111771 -0.03236973286 0.05115745962 2.898180898e-39
0.148888126 -0.1192466766 0.0004566758871 2.898180898e-39
0.006113909185 0.005852460861 -0.05335025489 2.898180898e-39
-0.01852957904 0.004274263978 -0.05148413777 2.715227371e-39
0.0708385855 -0.1150006801 -0.06222070754 2.715227371e-39
-0.03607492149 -0.7563663125 -0.0002583116293 2.715227371e-39
-0.06213079393 -0.03709313273 -0.02808700502 2.715227371e-39
-0.1723361015 -0.7358188033 -0.2071342915 2.715227371e-39
-0.2503855824 -0.7315728664 -0.2698116899 2.715227371e-39
-0.08344762027 0.01399759948 -0.08302812278 2.715227371e-39
0.09298246354 -0.0950653702 -0.06822963059 2.715227371e-39
-0.1104848087 -0.02937620878 0.02839887142 2.532632576e-39
-0.0319558382 -0.7653468847 0.06801742315 2.532632576e-39
-0.03538840637 -0.7578630447 0.01112097502 2.532632576e-39
-0.3030341268 -0.7827069759 0.08854469657 2.532632576e-39
-0.03401537612 -0.7608566284 0.03387959301 2.532632576e-39
0.1890567541 -0.07039548457 -0.079836905 2.532632576e-39
-0.02718572691 -0.7480933666 -0.05808782578 2.532632576e-39
-0.09576934576 0.01320850849 -0.08209505677 2.532632576e-39
0.1996712983 -0.1128987223 0.04017022252 2.349677647e-39
-0.03126932308 -0.766843617 0.0793966949 2.349677647e-39
0.05346456915 0.01968415082 -0.0705331713 2.349677647e-39
-0.02375315875 -0.7555772066 -0.00119137764 2.349677647e-39
-0.1313615441 0.007847681642 -0.05653730035 2.349677647e-39
-0.02516558021 -0.03472584486 -0.03088618815 2.349677647e-39
-0.1337552667 -0.03394792974 0.05302357674 2.349677647e-39
0.05540088564 0.009008854628 -0.05708248913 2.349677647e-39
0.162283361 -0.03506144881 -0.02005206048 2.167082852e-39
0.08316031098 -0.114211604 -0.06315377355 2.167082852e-39
0.1397167593 0.02520783246 -0.07706457376 2.167082852e-39
-0.2003411055 -0.7853747606 0.1493559778 2.167082852e-39
-0.1860308498 -0.7336143851 -0.2289597988 2.167082852e-39
0.09685509652 -0.1164160222 -0.04132823646 2.167082852e-39
0.2557174861 -0.06455720961 0.03652719408 2.167082852e-39
-0.09520605206 0.005526706576 -0.0914029628 2.167082852e-39
0.1872263402 -0.1198729128 0.02041609585 1.984127923e-39
0.1612098515 -0.1184575707 -0.0004763826728 1.984127923e-39
0.009616866708 -0.03405328095 -0.0885104239 1.984127923e-39
-0.0788884908 -0.008849799633 -0.04474744201 1.984127923e-39
0.03644312173 -0.0307803452 -0.0355514735 1.984127923e-39
-0.1358148158 -0.02945764363 0.01888570189 1.984127923e-39
0.2105141431 -0.04896338284 -0.09722514451 1.984127923e-39
0.1293313503 0.01374344528 -0.06268084049 1.984127923e-39
0.09616857767 -0.1149192601 -0.05270755291 1.801533128e-39
-0.07570235431 -0.02870365977 -0.02922534943 1.801533128e-39
-0.00495801121 -0.004115208983 -0.05034579337 1.801533128e-39
0.007363714278 -0.003326103091 -0.05127884448 1.801533128e-39
0.2240856737 -0.0573528558 -0.0960867852 1.801533128e-39
-0.0134909749 -0.7502977848 -0.03626233339 1.801533128e-39
-0.1730226129 -0.7343220711 -0.2185135782 1.801533128e-39
-0.1411837041 -0.01129853725 -0.0514614284 1.801533128e-39
-0.007998863235 -0.7622718811 0.05477201939 1.618578199e-39
0.1746050864 -0.03427234292 -0.0209851265 1.618578199e-39
-0.1750111133 -0.7852933407 0.1588692069 1.618578199e-39
0.1046878248 0.01216524839 -0.06081472337 1.618578199e-39
-0.2640803456 -0.7293684483 -0.291637212 1.618578199e-39
0.09548206627 -0.1134224981 -0.06408682466 1.618578199e-39
-0.138684094 -0.02965562046 -0.04731863737 1.618578199e-39
-0.01417749003 -0.7488010526 -0.04764160514 1.618578199e-39
-0.08127830178 -0.7407724857 -0.1340106428 1.435982003e-39
-0.199725613 -0.7314099073 -0.250785321 1.435982003e-39
-0.1198495328 0.003948509693 -0.08953686059 1.435982003e-39
0.1091768295 -0.1156269163 -0.04226130247 1.435982003e-39
0.102064997 0.02433732152 -0.08564470708 1.435982003e-39
-0.3096203506 -0.4103336334 0.2427339554 1.435982003e-39
-0.289339304 -0.7849113941 0.1103702486 1.435982003e-39
-0.03873711079 -0.026336357 -0.03202453256 1.435982003e-39
0.1995480657 -0.1190838069 0.01948304474 1.253028475e-39
-0.2763310671 -0.7856190801 0.1208164692 1.253028475e-39
-0.139933899 -0.02047708631 -0.04939003289 1.253028475e-39
0.07340833545 -0.02841304243 -0.03835065663 1.253028475e-39
-0.290096879 -0.7279530764 -0.3125296831 1.253028475e-39
0.04033306986 0.01420679688 -0.1016665995 1.253028475e-39
0.1909400523 0.01768893003 -0.06734612584 1.253028475e-39
0.1846208274 -0.04136304557 -0.0974304229 1.253028475e-39
0.01054982841 -0.02317996323 -0.0357567668 1.070432279e-39
-0.01409365982 -0.02475816011 -0.03389064968 1.070432279e-39
0.1468285918 -0.1147563905 -0.03368118405 1.070432279e-39
0.1214985549 -0.1148378402 -0.04319435358 1.070432279e-39
0.1422694325 -0.09190897644 -0.07196186483 1.070432279e-39
-0.0776386857 -0.01802834868 -0.04267603159 1.070432279e-39
0.03519331664 -0.02160176635 -0.03762288392 1.070432279e-39
0.2032617778 0.01847803593 -0.06827917695 1.070432279e-39
0.1078037992 -0.1126333922 -0.06501989067 8.874787512e-40
-0.1874038726 -0.7306208611 -0.2517183721 8.874787512e-40
0.1376572102 0.02969811857 -0.1112024784 8.874787512e-40
0.09805182368 -0.02683484554 -0.04021675885 8.874787512e-40
-0.2633228302 -0.786326766 0.1312627196 8.874787512e-40
0.2125563622 -0.1197914332 0.02992925793 8.874787512e-40
0.01527159847 -0.7577002048 0.03014735878 8.874787512e-40
-0.3126832545 -0.3842947185 0.2478990257 8.874787512e-40
-0.2249845713 -0.7869529724 0.15122208 7.045238224e-40
0.1253354847 0.02890902758 -0.1102694124 7.045238224e-40
-0.05248020589 -0.7759056091 0.1381592751 7.045238224e-40
-0.1339978129 -0.7364450693 -0.1871748716 7.045238224e-40
0.1903065443 -0.07957403362 -0.07776549459 7.045238224e-40
-0.1607008576 -0.7335329056 -0.2194466293 7.045238224e-40
0.2136471868 0.02994242311 -0.08266292512 7.045238224e-40
0.25753057 -0.08141757548 0.02929072827 7.045238224e-40
-0.0283517018 -0.01487195492 -0.04640826583 5.219290273e-40
-0.03234755993 0.0002936273813 -0.09399685264 5.219290273e-40
0.1721585542 -0.1146749705 -0.02416802943 5.219290273e-40
0.2255646139 -0.1204991192 0.04037551582 5.219290273e-40
-0.02920978144 -0.7713339329 0.1135345995 5.219290273e-40
0.02416075766 -0.7494273186 -0.02768217027 5.219290273e-40
0.1201255322 -0.1118443161 -0.06595294178 5.219290273e-40
0.07215853035 -0.01923447847 -0.04042205215 5.219290273e-40
0.2115703374 -0.03190504014 -0.02378429472 3.389740985e-40
-0.1476926059 -0.7342405915 -0.2090004086 3.389740985e-40
0.210883826 -0.03040827811 -0.03516358137 3.389740985e-40
0.08962003887 0.01736317575 -0.1053988338 3.389740985e-40
0.1142635047 0.01894137263 -0.1072649509 3.389740985e-40
0.1324472576 -0.1110552102 -0.06688600779 3.389740985e-40
-0.0517936945 -0.777402401 0.1495386064 3.389740985e-40
0.2382906377 0.03152061999 -0.08452904224 3.389740985e-40
0.2402269542 0.0208453238 -0.07107836008 1.56020571e-40
-0.1866463423 -0.7875791788 0.1711815298 1.56020571e-40
0.09680201858 -0.01765628159 -0.04228816926 1.56020571e-40
-0.01627642661 -0.02645294368 -0.0887157023 1.56020571e-40
-0.05324162543 -0.02882023156 -0.08591653407 1.56020571e-40
0.01733113825 -0.7621904612 0.06428518891 1.56020571e-40
-0.2626363039 -0.7878235579 0.1426419914 1.56020571e-40
-0.056634821 -0.7391942739 -0.1358767748 1.56020571e-40
-0.1346843243 -0.7349482775 -0.1985541582 6.490113838e-41
0.03648251668 -0.7486381531 -0.02861522138 6.490113838e-41
0.06622636318 0.006606414914 -0.1014613211 6.490113838e-41
0.2464586645 -0.09138523042 0.0322951898 6.490113838e-41
-0.2981256545 -0.4805705845 0.3027509749 6.490113838e-41
-0.309497118 -0.4041486084 0.2634211779 6.490113838e-41
-0.2284881771 -0.7240076065 -0.3171949983 6.490113838e-41
-0.2031581849 -0.7239261866 -0.3076817989 6.490113838e-41
-0.2870537341 -0.4706029296 0.2997464836 2.496469266e-40
0.1758722067 0.02288687229 -0.1119302511 2.496469266e-40
0.2353867441 -0.1013528854 0.03529965132 2.496469266e-40
0.07854811847 0.007395520806 -0.1023943722 2.496469266e-40
0.1318309605 -0.004613667727 -0.05853803456 2.496469266e-40
0.05765403807 -0.02171833813 -0.09431405365 2.496469266e-40
-0.2831811011 -0.4919535816 0.3266478479 2.496469266e-40
-0.2414964288 -0.7232999802 -0.3276411891 2.496469266e-40
0.2525487542 0.02163442969 -0.07201141119 4.340353837e-40
0.107187435 -0.006191879511 -0.05667191744 4.340353837e-40
0.1570907682 -0.1094769984 -0.06875212491 4.340353837e-40
-0.1634469181 -0.7275458574 -0.2649638057 4.340353837e-40
-0.1778282076 -0.7238447666 -0.2981686294 4.340353837e-40
0.1524785459 0.01213009655 -0.1079927236 4.340353837e-40
-0.05110717565 -0.7788991332 0.160917908 4.340353837e-40
0.03922856972 -0.7546252012 0.0169018954 4.340353837e-40
0.03176074848 -0.01411797106 -0.09451934695 6.184224396e-40
0.1155133024 0.009762808681 -0.1051935405 6.184224396e-40
-0.01829657331 -0.7398204803 -0.1159173474 6.184224396e-40
-0.06681317091 -0.0204307586 -0.08705487847 6.184224396e-40
0.158410728 -0.01371079683 -0.04695345461 6.184224396e-40
0.2291550189 0.01087765396 -0.06807389855 6.184224396e-40
0.1831072569 -0.1108923405 -0.04785963893 6.184224396e-40
-0.216852963 -0.7217217684 -0.3295073211 6.184224396e-40
-0.006454266608 -0.007306724787 -0.09379157424 8.028094954e-40
0.03991508484 -0.7561219931 0.02828124166 8.028094954e-40
0.2098103166 -0.1138044149 -0.01558789611 8.028094954e-40
0.1804844141 -0.09872023761 -0.07268963754 8.028094954e-40
0.1694124937 -0.1086879224 -0.06968517601 8.028094954e-40
-0.0573213324 -0.7376974821 -0.1472560465 8.028094954e-40
-0.2952390611 -0.4140348136 0.2759387791 8.028094954e-40
-0.1511251777 -0.7267568111 -0.2658968568 8.028094954e-40
0.2499085367 -0.03253127635 -0.003824882209 9.871979525e-40
0.02965286747 -0.7614013553 0.0633521378 9.871979525e-40
-0.2619497776 -0.7893202901 0.1540212631 9.871979525e-40
0.04060159996 -0.7576187849 0.0396605134 9.871979525e-40
0.2414767444 0.01166675985 -0.06900694966 9.871979525e-40
0.2091238052 -0.1123076528 -0.02696719766 9.871979525e-40
0.0624990277 -0.750053525 -0.007722780108 9.871979525e-40
0.2615611553 0.03609234095 -0.1091537476 9.871979525e-40
0.2489582747 -0.1097423285 0.03643799573 1.171585008e-39
-0.2305477262 -0.7195173502 -0.3513328433 1.171585008e-39
0.05155029893 -0.7538360953 0.01596884429 1.171585008e-39
-0.02715023607 -0.7758241892 0.1476725042 1.171585008e-39
-0.2236115485 -0.7899464965 0.1739807129 1.171585008e-39
-0.2872797847 -0.78940171 0.1445080936 1.171585008e-39
-0.2955028415 -0.4927426577 0.3275809288 1.171585008e-39
-0.1675660014 -0.7185653448 -0.3332395554 1.171585008e-39
-0.003879778087 -0.7712524533 0.1230477691 1.355972064e-39
-0.1928959936 -0.7186467648 -0.3427526951 1.355972064e-39
-0.2863672376 -0.4720996916 0.3111257851 1.355972064e-39
-0.03199132904 -0.7376160622 -0.137742877 1.355972064e-39
-0.1408629566 -0.7214774489 -0.3009678125 1.355972064e-39
0.2089475095 -0.01973296702 -0.04861429334 1.355972064e-39
0.01939068176 -0.7666807175 0.09842309356 1.355972064e-39
0.1953759789 -0.01134349406 -0.04975263774 1.355972064e-39
-0.2688859701 -0.7188910842 -0.3712922633 1.540360521e-39
-0.3044978976 -0.4408628345 0.2717067897 1.540360521e-39
-0.1113428473 -0.7858381271 0.1883417368 1.540360521e-39
-0.3057476878 -0.4316842854 0.2696353793 1.540360521e-39
0.2636033893 -0.03473569453 0.01800064743 1.540360521e-39
-0.09771912545 -0.7325810194 -0.2013533264 1.540360521e-39
-0.1278547198 -0.7221851349 -0.2905215621 1.540360521e-39
-0.1271682084 -0.7236818671 -0.2791422606 1.540360521e-39
-0.1682525128 -0.717068553 -0.3446188271 1.724747577e-39
0.27110219 -0.08980704844 0.03042907268 1.724747577e-39
0.03304994851 -0.7411543727 -0.08551168442 1.724747577e-39
0.09336944669 -0.01017248631 -0.0991846323 1.724747577e-39
-0.2442425042 -0.717312932 -0.3731583953 1.724747577e-39
-0.03809893876 -0.7796068192 0.1713641286 1.724747577e-39
0.2264089733 0.0168646872 -0.1135910749 1.724747577e-39
0.2076977044 -0.01055440307 -0.05068568885 1.724747577e-39
-0.1812607795 -0.7163609266 -0.3550650775 1.909134633e-39
0.008441983722 -0.7704633474 0.122114718 1.909134633e-39
0.1537283361 0.002951547503 -0.1059213281 1.909134633e-39
0.2387306988 0.0176537931 -0.1145241261 1.909134633e-39
0.1167631 0.0005842596292 -0.1031221449 1.909134633e-39
-0.08669940382 -0.7842599154 0.1864756346 1.909134633e-39
-0.3093738854 -0.3979635537 0.2841083109 1.909134633e-39
-0.2963656485 -0.3986712396 0.2945545614 1.909134633e-39
0.08576945961 -0.7454817891 -0.03234745562 2.09352309e-39
-0.1436090171 -0.7154904008 -0.3464849591 2.09352309e-39
0.05769342929 -0.7395762205 -0.08737780154 2.09352309e-39
0.2408433259 -0.0855961889 -0.07942633331 2.09352309e-39
0.08508294076 -0.7439850569 -0.04372680187 2.09352309e-39
-0.3008015454 -0.3696388006 0.2769610584 2.09352309e-39
-0.0463726297 -0.7339148521 -0.1709476858 2.09352309e-39
0.04468515515 -0.738868475 -0.09782408178 2.09352309e-39
-0.08951646835 -0.7228113413 -0.2705621719 2.277910146e-39
-0.283744365 -0.4842717648 0.3359557986 2.277910146e-39
0.2314081937 -0.0198495239 -0.1053054631 2.277910146e-39
0.2784419954 0.01403404772 -0.07180613279 2.277910146e-39
-0.07307562977 -0.7310028076 -0.2032194436 2.277910146e-39
-0.3118734956 -0.3796064556 0.2799655199 2.277910146e-39
-0.1956420392 -0.7126597166 -0.3882699013 2.277910146e-39
-0.3038114011 -0.4423595965 0.2830860615 2.277910146e-39
0.1672998667 -0.005437895656 -0.1047829837 2.462297202e-39
0.1808714122 -0.01382736862 -0.1036446244 2.462297202e-39
-0.2605767846 -0.7923138142 0.176779896 2.462297202e-39
0.3185759783 -0.06979028881 0.0339333117 2.462297202e-39
-0.131973803 -0.7132045031 -0.3587973118 2.462297202e-39
-0.09157600999 -0.718321085 -0.304700017 2.462297202e-39
-0.1476215869 -0.789702177 0.2025201917 2.462297202e-39
-0.1189655662 -0.713912189 -0.3483510613 2.462297202e-39
0.2437299192 -0.01906043291 -0.1062385142 2.646685659e-39
0.2868737876 -0.03016398847 -0.006624057889 2.646685659e-39
0.09877769649 -0.7461894751 -0.02190123498 2.646685659e-39
-0.2989150286 -0.7916876078 0.1568204463 2.646685659e-39
-0.01345544681 -0.7780286074 0.1694979966 2.646685659e-39
0.01729561575 -0.7344596386 -0.1414751112 2.646685659e-39
-0.1326603144 -0.7117077708 -0.3701766133 2.646685659e-39
-0.3131232858 -0.3704279065 0.2778941095 2.646685659e-39
0.2597837448 -0.1121447831 -0.007940843701 2.830713982e-39
-0.1106563359 -0.787334919 0.1997210383 2.830713982e-39
-0.3182457387 -0.3398987055 0.2489213347 2.830713982e-39
0.2590972185 -0.1106480211 -0.01932011545 2.830713982e-39
-0.18400684 -0.7103738785 -0.4005822241 2.830713982e-39
0.0679911375 -0.7620276213 0.08331158757 2.830713982e-39
0.0789398402 -0.7582449913 0.05961990356 2.830713982e-39
-0.120338589 -0.7109186649 -0.3711096644 2.830713982e-39
0.08920203149 -0.7529655695 0.02454900742 3.015101038e-39
0.1090399399 -0.7409100533 -0.05697219074 3.015101038e-39
-0.1333468258 -0.7102110386 -0.3815559149 3.015101038e-39
-0.2728984952 -0.7931028605 0.1777129471 3.015101038e-39
-0.1716850847 -0.7095847726 -0.401515305 3.015101038e-39
-0.3074375987 -0.4086388946 0.2975590229 3.015101038e-39
-0.1073303223 -0.7116263509 -0.360663414 3.015101038e-39
0.3148266077 -0.04225465655 0.0277191028 3.015101038e-39
-0.1210251004 -0.7094218731 -0.382488966 3.199488094e-39
-0.04843217134 -0.7294245958 -0.2050855607 3.199488094e-39
0.295745641 -0.08822883666 0.02856295556 3.199488094e-39
0.04540719837 -0.7680960894 0.1193155348 3.199488094e-39
-0.03542389721 -0.7301322222 -0.19463934 3.199488094e-39
-0.1593633443 -0.7087956667 -0.4024483562 3.199488094e-39
0.2907637358 0.01482313871 -0.0727391839 3.199488094e-39
-0.0224156566 -0.7308399081 -0.1841930896 3.199488094e-39
0.1110994816 -0.7454003692 -0.02283430099 3.383517819e-39
0.03377195075 -0.7703819275 0.1316278875 3.383517819e-39
-0.1217116117 -0.7079251409 -0.3938682377 3.383517819e-39
-0.2981787324 -0.3818108737 0.3017910123 3.383517819e-39
0.2727920413 -0.1128524691 0.002505406737 3.383517819e-39
0.2714190185 -0.109858945 -0.02025318146 3.383517819e-39
-0.06830555946 -0.7137492895 -0.3293247223 3.383517819e-39
-0.08268682659 -0.7100481391 -0.362529546 3.383517819e-39
-0.02310217172 -0.7293431759 -0.1955723912 3.567904875e-39
0.2646240294 0.01005344093 -0.1143188477 3.567904875e-39
0.350207895 -0.07699467242 0.1665472984 3.567904875e-39
-0.08337333798 -0.7085514069 -0.3739088178 3.567904875e-39
0.04125259072 -0.7313846946 -0.154720515 3.567904875e-39
0.1124725118 -0.7483938932 -7.572770119e-05 3.567904875e-39
0.296995461 -0.09740741551 0.03063435853 3.567904875e-39
0.1227347031 -0.7431144714 -0.03514663875 3.567904875e-39
0.002914344892 -0.7307584882 -0.1746799201 3.75229193e-39
0.28168118 -0.104579553 -0.05532410741 3.75229193e-39
-0.315622896 -0.3520707786 0.2737513185 3.75229193e-39
-0.3092506826 -0.3917785287 0.3047954738 3.75229193e-39
0.0344584696 -0.7718787193 0.1430072188 3.75229193e-39
-0.1354063749 -0.7057207227 -0.4156937599 3.75229193e-39
-0.0710516125 -0.7077622414 -0.3748418689 3.75229193e-39
-0.03954298049 -0.7211517096 -0.2629150748 3.75229193e-39
0.2901303172 -0.08243982494 -0.08315856755 3.936320254e-39
-0.04022949561 -0.7196549177 -0.2742943764 3.936320254e-39
-0.04904764146 -0.7833894491 0.1950557232 3.936320254e-39
0.2830542326 -0.1075730771 -0.03256554902 3.936320254e-39
0.05357434601 -0.7305955887 -0.1556535661 3.936320254e-39
0.3467753232 -0.06951086223 0.1096508354 3.936320254e-39
-0.03672591224 -0.7826002836 0.1941226721 3.936320254e-39
0.0152360741 -0.7299693823 -0.1756129861 3.936320254e-39
0.3433427513 -0.06202705204 0.05275437981 4.120708711e-39
0.07890431583 -0.7305141687 -0.1461403966 4.120708711e-39
0.3094577193 -0.02409550548 -0.04262803495 4.120708711e-39
-0.07311115414 -0.7032719851 -0.4089797735 4.120708711e-39
0.3447157741 -0.06502057612 0.075512968 4.120708711e-39
0.10426981 -0.7581635714 0.06913307309 4.120708711e-39
-0.3105502129 -0.7939734459 0.1691328287 4.120708711e-39
-0.2915069759 -0.5079082847 0.3751695156 4.120708711e-39
0.035144981 -0.7733754516 0.1543864906 4.304737034e-39
0.2671236396 -0.008303686976 -0.1101760417 4.304737034e-39
0.280308187 -0.1015860289 -0.0780826956 4.304737034e-39
-0.027221255 -0.7203625441 -0.2638481259 4.304737034e-39
-0.2823713422 -0.4872652888 0.3587143719 4.304737034e-39
0.3487116396 -0.08018620312 0.123101525 4.304737034e-39
0.05288783088 -0.7290988564 -0.1670328826 4.304737034e-39
0.04678022861 -0.7710895538 0.1420741677 4.304737034e-39
-0.2804350555 -0.4979406297 0.3721650243 4.48912409e-39
0.352830708 -0.08916677535 0.1913772523 4.48912409e-39
0.2658738494 0.0008748918772 -0.1122474372 4.48912409e-39
-0.09764809906 -0.7880425453 0.2101673186 4.48912409e-39
-0.08611939847 -0.7025643587 -0.419426024 4.48912409e-39
0.0652095601 -0.7283097506 -0.1679659337 4.48912409e-39
-0.06078942865 -0.7024829388 -0.4099128246 4.48912409e-39
-0.3024383783 -0.4453531206 0.3058446348 4.48912409e-39
0.2960624695 -0.1082807332 -0.02211929858 4.673152414e-39
0.3535172343 -0.09066353738 0.2027565986 4.673152414e-39
0.02419628017 -0.7771580815 0.178078115 4.673152414e-39
-0.2461954802 -0.7960150242 0.2099846601 4.673152414e-39
0.3238563538 0.03854107857 -0.1024397612 4.673152414e-39
0.2951996624 -0.01420928538 -0.05514569581 4.673152414e-39
-0.01352646574 -0.7225669622 -0.2420226038 4.673152414e-39
0.2930169106 -0.01590403914 -0.1099707484 4.673152414e-39
0.3422161639 -0.04666349292 0.07137016207 4.857539469e-39
0.2892674804 0.01163162291 -0.1161849648 4.857539469e-39
0.3394701183 -0.04067644477 0.02585298568 4.857539469e-39
0.3542037308 -0.09216029942 0.2141358852 4.857539469e-39
0.3543269932 -0.08597524464 0.2348230481 4.857539469e-39
0.1302508265 -0.7318480611 -0.1157347634 4.857539469e-39
0.3429026902 -0.04816024005 0.08274944127 4.857539469e-39
0.3065884113 -0.02429352701 -0.108832404 4.857539469e-39
-0.2208654881 -0.7959335446 0.2194978893 5.041567793e-39
-0.0005182251334 -0.7232747078 -0.2315763831 5.041567793e-39
-0.03202685341 -0.7098852396 -0.3435031772 5.041567793e-39
-0.03408639506 -0.7053949833 -0.377641052 5.041567793e-39
-0.07300461829 -0.7864643931 0.2083011866 5.041567793e-39
0.3105669618 -0.1057968587 0.03177270293 5.041567793e-39
0.27819556 0.001663982868 -0.1131805032 5.041567793e-39
0.3523906469 -0.07529993355 0.2213723511 5.041567793e-39
0.3063246608 -0.103001371 -0.05719022453 5.225597518e-39
-0.2838472128 -0.7968854904 0.2014045715 5.225597518e-39
0.3104437292 -0.1119819432 0.0110855177 5.225597518e-39
0.03651800752 -0.7763689756 0.1771450639 5.225597518e-39
0.02618480474 -0.7261867523 -0.1993046254 5.225597518e-39
0.3214098215 -0.04186151922 -0.1056226641 5.225597518e-39
-0.1585702896 -0.793484807 0.2262118757 5.225597518e-39
0.3238390386 -0.0277966857 -0.009423226118 5.225597518e-39
-0.2966294289 -0.4773790836 0.3461967409 5.409984573e-39
-0.17089203 -0.7942739129 0.2271449268 5.409984573e-39
0.320389092 -0.08665065467 0.02669683844 5.409984573e-39
0.04815325513 -0.7740831375 0.1648327112 5.409984573e-39
-0.1832137704 -0.7950630188 0.2280780077 5.409984573e-39
0.08374544233 -0.7687222958 0.1392749846 5.409984573e-39
-0.2836211622 -0.4780867398 0.3566429615 5.409984573e-39
0.1432590783 -0.732555747 -0.1052885428 5.409984573e-39
-0.1339268088 -0.7919065952 0.2243457735 5.594012897e-39
0.3075214028 -0.01342019439 -0.05607874691 5.594012897e-39
-0.01901857927 -0.7105929255 -0.3330569565 5.594012897e-39
-0.001891253516 -0.7202811241 -0.2543349862 5.594012897e-39
0.07615826279 -0.7245271206 -0.1916575581 5.594012897e-39
0.1384890079 -0.7498092055 0.02081677318 5.594012897e-39
-0.3114865124 -0.2947135866 0.2490105629 5.594012897e-39
0.3562632799 -0.09665058553 0.2482737154 5.594012897e-39
-0.3030016422 -0.4376713336 0.3151524961 5.77804122e-39
-0.02039160579 -0.7075994015 -0.3558155298 5.77804122e-39
0.1070158631 -0.7641506195 0.1146502495 5.77804122e-39
0.1281912923 -0.7273577452 -0.1498726308 5.77804122e-39
-0.301751852 -0.4468498826 0.3172239065 5.77804122e-39
-0.2078572512 -0.7966412306 0.2299441099 5.77804122e-39
0.2917670906 -0.006725490093 -0.1120421588 5.77804122e-39
0.01111698989 -0.7209888101 -0.2438887209 5.77804122e-39
-0.3066278398 -0.4039506018 0.3296255171 5.962428276e-39
0.3331682384 -0.03339062631 -0.09724780917 5.962428276e-39
-0.04915417731 -0.700197041 -0.4222251773 5.962428276e-39
-0.3213086426 -0.3138598204 0.254086405 5.962428276e-39
-0.3142498732 -0.3550643027 0.2965098619 5.962428276e-39
0.3437828124 -0.07589389384 0.02275931835 5.962428276e-39
0.1590133756 -0.7392504215 -0.04932513833 5.962428276e-39
0.1295998394 -0.7580820918 0.07864627242 5.962428276e-39
0.05014177412 -0.7231118083 -0.2125500292 6.1464566e-39
-0.006696851924 -0.7098038197 -0.3339900374 6.1464566e-39
0.127504766 -0.7258610129 -0.1612519175 6.1464566e-39
0.3166570663 0.007222801447 -0.07253390551 6.1464566e-39
-0.007383365184 -0.7083070874 -0.3453693092 6.1464566e-39
-0.07448418438 -0.700278461 -0.4317383468 6.1464566e-39
0.3049516082 -0.100007847 -0.07994881272 6.1464566e-39
0.3207059503 -0.1067025512 -0.0239854157 6.1464566e-39
0.06246350333 -0.7223227024 -0.2134830803 6.330484923e-39
-0.2959429026 -0.4788758457 0.3575760126 6.330484923e-39
-0.2978792191 -0.4682005048 0.3441253304 6.330484923e-39
-0.3145493865 -0.2686746716 0.2541756332 6.330484923e-39
-0.232500717 -0.7982194424 0.2318102121 6.330484923e-39
-0.3120497763 -0.2870317996 0.2583184242 6.330484923e-39
-0.06216245145 -0.6994893551 -0.4326713979 6.330484923e-39
0.002192305401 -0.7015309334 -0.3918195367 6.330484923e-39
0.363656193 -0.09156917036 0.1469984502 6.514514648e-39
0.1309728622 -0.7610756159 0.1014048457 6.514514648e-39
0.1699621379 -0.7354677916 -0.07301676273 6.514514648e-39
0.3160235286 -0.09004016221 -0.08295327425 6.514514648e-39
0.1528702676 -0.7535103559 0.05402156711 6.514514648e-39
-0.3154996932 -0.3458857536 0.2944384813 6.514514648e-39
0.3040888309 -0.005936399102 -0.11297521 6.514514648e-39
-0.1455620527 -0.794192493 0.2366580963 6.514514648e-39
0.1391399801 -0.7235751748 -0.173564285 6.698542971e-39
-0.3063640594 -0.3252427578 0.2779833376 6.698542971e-39
0.302839011 0.003242179751 -0.1150466204 6.698542971e-39
-0.2973689735 -0.3771226108 0.3338575065 6.698542971e-39
-0.2824741602 -0.7998790741 0.2241631746 6.698542971e-39
0.08580498397 -0.7732125521 0.1734128296 6.698542971e-39
-0.02451068908 -0.6986188293 -0.4240912795 6.698542971e-39
-0.3135633469 -0.3565610647 0.3078892231 6.698542971e-39
0.06109047681 -0.7193291783 -0.2362416685 6.882571295e-39
-0.04984068871 -0.6987003088 -0.433604449 6.882571295e-39
0.351228565 -0.03220553696 0.03422783315 6.882571295e-39
0.3400506973 0.01797953248 -0.07647141814 6.882571295e-39
0.3609101176 -0.08558212221 0.1014813036 6.882571295e-39
0.334400773 -0.1089069694 -0.002159886062 6.882571295e-39
0.01657360792 -0.7052321434 -0.3586146832 6.882571295e-39
0.01726012304 -0.7067288756 -0.3472354114 6.882571295e-39
-0.120918557 -0.7926142812 0.2347919941 7.066599618e-39
0.3498555124 -0.02921201289 0.01146924496 7.066599618e-39
0.07341220975 -0.7185400724 -0.2371747345 7.066599618e-39
0.3350872695 -0.1104037315 0.009219393134 7.066599618e-39
0.3484824896 -0.02621848881 -0.01128934324 7.066599618e-39
-0.3046915233 -0.4146259427 0.3430761993 7.066599618e-39
-0.035352882 -0.7855938673 0.216881305 7.066599618e-39
-0.3024914265 -0.3465934098 0.3048847616 7.066599618e-39
-0.2941828966 -0.3969764709 0.3493795991 7.250627941e-39
0.3491690159 -0.02771525085 8.993595839e-05 7.250627941e-39
0.358164072 -0.07959507406 0.05596412718 7.250627941e-39
0.1521482319 -0.7242828608 -0.1631180346 7.250627941e-39
-0.3084409237 -0.3870902658 0.336861968 7.250627941e-39
0.3364602923 -0.1133972257 0.03197798878 7.250627941e-39
0.3511226475 0.02794720232 -0.07947587967 7.250627941e-39
0.1631324589 -0.7482310534 0.01895065606 7.250627941e-39
0.01382755209 -0.6992450953 -0.4041318893 7.434656265e-39
0.3309682012 -0.1014231592 -0.05905634165 7.434656265e-39
0.08573392779 -0.7177510262 -0.2381077856 7.434656265e-39
-0.31386289 -0.2701714337 0.2655549049 7.434656265e-39
0.1638189852 -0.7497277856 0.0303299427 7.434656265e-39
-0.2916832864 -0.4153335989 0.3535224199 7.434656265e-39
0.1213971972 -0.7678517699 0.1478550732 7.434656265e-39
-0.07517069578 -0.6987817287 -0.4431176484 7.434656265e-39
0.1733947098 -0.7429516315 -0.0161202997 7.618684588e-39
0.1247587129 -0.7198739648 -0.2067690939 7.618684588e-39
0.1658430547 -0.7264872789 -0.1412924975 7.618684588e-39
0.3591847718 -0.0348059684 -0.0763553381 7.618684588e-39
-0.2954326868 -0.3877979219 0.3473081887 7.618684588e-39
0.03164139017 -0.7104300261 -0.3140306175 7.618684588e-39
0.3386776745 0.02097305655 -0.09923000634 7.618684588e-39
0.3684617877 -0.1020465046 0.2266535014 7.618684588e-39
-0.2841844559 -0.4704049528 0.3659508228 7.802712912e-39
0.02683579177 -0.6999527216 -0.3936856389 7.802712912e-39
0.1651565433 -0.7249904871 -0.152671814 7.802712912e-39
0.1330324113 -0.7655658722 0.1355427504 7.802712912e-39
0.02614928037 -0.6984559298 -0.4050649405 7.802712912e-39
-0.3261846304 -0.2709605396 0.266487956 7.802712912e-39
0.3269192576 0.01250216365 -0.1076048315 7.802712912e-39
0.1802243143 -0.7301884294 -0.1080877185 7.802712912e-39
0.1843434125 -0.7391690016 -0.0398119241 7.986382503e-39
-0.2564576864 -0.8012943864 0.2450556159 7.986382503e-39
0.3579349518 -0.02562740445 -0.07842673361 7.986382503e-39
0.3594312072 -0.02243587375 -0.03498099744 7.986382503e-39
-0.307117641 -0.8014572263 0.2260293067 7.986382503e-39
0.3676693738 -0.04039700329 0.1015705168 7.986382503e-39
0.02625582367 -0.7816483974 0.2122160196 7.986382503e-39
0.3708381653 -0.1265886575 0.2101091444 7.986382503e-39
0.0398440659 -0.7006604075 -0.3832393885 8.170410826e-39
-0.2941094041 -0.8021649122 0.2364755273 8.170410826e-39
0.1226991713 -0.7153836489 -0.2409069538 8.170410826e-39
0.3480955064 -0.1111113578 0.01966562122 8.170410826e-39
