# .PCD v0.7 - Point Cloud Data file format
VERSION 0.7
FIELDS x y z rgb
SIZE 4 4 4 4
TYPE F F F F
COUNT 1 1 1 1
WIDTH 825
HEIGHT 1
VIEWPOINT 0 0 0 1 0 0 0
POINTS 825
DATA ascii
-0.06642568856 -0.3561956584 -0.04500130937 1.221365155e-38
-0.4308149517 -0.3378750086 -0.06036610901 1.221365155e-38
-0.05389237404 -0.3383453488 0.2932569087 1.221365155e-38
-0.05007281527 -0.26093629 0.3191983998 1.221365155e-38
0.2733060718 -0.7119015455 -0.2065864801 1.239732115e-38
0.2177060544 -0.4073813856 -0.01964508742 1.239732115e-38
0.0061500296 -0.2018722147 0.08621735871 1.239732115e-38
0.05816571787 -0.2710406482 0.221018821 1.239732115e-38
0.0010102503 -0.2376807928 0.1502611041 1.239732115e-38
-0.04811894894 -0.3426405489 0.1278486848 1.239732115e-38
-0.05257242173 -0.2425791621 0.3150555789 1.239732115e-38
-0.06343318522 -0.3498126268 0.04189021513 1.239732115e-38
0.478692174 -0.7172371149 -0.08496393263 1.258099074e-38
0.3232796192 -0.7102419138 -0.1989394277 1.258099074e-38
0.05747920275 -0.2695438862 0.2096395344 1.258099074e-38
-0.4641790986 -0.4093792737 0.05545398593 1.258099074e-38
0.2979496121 -0.7103233337 -0.2084525973 1.258099074e-38
-0.1436654925 -0.3472614288 -0.07561223209 1.258099074e-38
0.006379131228 -0.2558399141 0.2206082344 1.258099074e-38
0.007399834692 -0.2110507786 0.08828876913 1.258099074e-38
-0.4936734438 -0.3326419294 -0.05777221918 1.276466033e-38
0.03576047719 -0.7194105983 -0.245754838 1.276466033e-38
0.2240191847 -0.7150579691 -0.2028542459 1.276466033e-38
-0.2666707635 -0.3721606135 -0.08985938132 1.276466033e-38
-0.05192119628 -0.3537118137 0.008890694007 1.276466033e-38
0.1923760772 -0.4074628055 -0.02915825322 1.276466033e-38
-0.05111145973 -0.3490235507 0.04095715657 1.276466033e-38
-0.4184932113 -0.3370859027 -0.06129916757 1.276466033e-38
0.3102713227 -0.7095342875 -0.2093856633 1.294832852e-38
-0.05376914889 -0.3321603239 0.3139441311 1.294832852e-38
0.2116973847 -0.7158470154 -0.2019211948 1.294832852e-38
0.4266591072 -0.7144064903 -0.1267488897 1.294832852e-38
-0.4546034038 -0.4026031196 0.009003747255 1.294832852e-38
-0.06114473939 -0.270903945 0.3222028613 1.294832852e-38
-0.0429436788 -0.3345627189 0.2695652843 1.294832852e-38
0.003633074462 -0.2498528659 0.175091058 1.294832852e-38
0.04512215406 -0.3799688518 -0.1069716215 1.313163938e-38
-0.06239454076 -0.2617253959 0.3201314509 1.313163938e-38
-0.05260770768 -0.3522150517 -0.002488586586 1.313163938e-38
-0.05030171573 -0.3443352878 0.07302361727 1.313163938e-38
0.01903504506 -0.2087649256 0.07597637177 1.313163938e-38
-0.04730921239 -0.3379522562 0.1599151641 1.313163938e-38
0.00864963606 -0.2202293277 0.09036016464 1.313163938e-38
-0.06489414722 -0.243368268 0.3159886599 1.313163938e-38
-0.06561595201 -0.3515073955 -0.01293484308 1.331530897e-38
-0.05457888916 -0.3368485868 0.2818776071 1.331530897e-38
-0.4306464195 -0.3995281458 -0.004241650924 1.331530897e-38
0.4780056477 -0.7157403827 -0.09634321183 1.331530897e-38
-0.05547699332 -0.3524130285 -0.06869295985 1.331530897e-38
0.3225930929 -0.7087451816 -0.2103187144 1.331530897e-38
-0.4415951371 -0.4033107758 0.01944996975 1.331530897e-38
-0.0592084229 -0.2815792859 0.3356535435 1.331530897e-38
-0.4409086406 -0.4048075378 0.03082927689 1.349897856e-38
0.4649973512 -0.7150326967 -0.1067894325 1.349897856e-38
0.06078854576 -0.2832127213 0.2458487749 1.349897856e-38
-0.05019604415 -0.2671213448 0.2985112369 1.349897856e-38
0.3746261001 -0.7115758657 -0.168533802 1.349897856e-38
-0.4230947793 -0.4159925282 0.1209305525 1.349897856e-38
-0.04363019019 -0.3330659568 0.2581860125 1.349897856e-38
0.2356543988 -0.712772131 -0.2151666135 1.349897856e-38
0.02222116664 -0.2286188006 0.09149852395 1.368228942e-38
-0.05394545197 -0.2395856678 0.2922970355 1.368228942e-38
-0.4292733967 -0.4025216699 0.01851691119 1.368228942e-38
0.006255906075 -0.2620249391 0.1999210268 1.368228942e-38
-0.4285869002 -0.4040184319 0.02989621833 1.368228942e-38
0.02028484643 -0.2179434597 0.07804778218 1.368228942e-38
0.006942421198 -0.2635217011 0.2113003582 1.368228942e-38
-0.06308105588 -0.2602286339 0.3087521791 1.368228942e-38
0.0574439168 -0.3791797757 -0.1079046726 1.386595901e-38
0.009899441153 -0.2294079065 0.09243157506 1.386595901e-38
0.2692009509 -0.3671139777 -0.09604612738 1.386595901e-38
0.05404663458 -0.262060076 0.1527430713 1.386595901e-38
-0.4107730389 -0.4152034521 0.1199974865 1.386595901e-38
0.1254452318 -0.721370697 -0.1953897774 1.386595901e-38
-0.4169516563 -0.4017325938 0.01758385263 1.386595901e-38
0.06177698821 -0.7208259106 -0.2248623967 1.386595901e-38
-0.04894623905 -0.2762998939 0.3005826473 1.404926846e-38
0.1377669573 -0.7205816507 -0.1963228434 1.404926846e-38
0.05804248899 -0.2772256732 0.2003315985 1.404926846e-38
-0.05398073792 -0.3492215276 -0.02524717525 1.404926846e-38
0.3479231 -0.708663702 -0.2008055449 1.404926846e-38
-0.04868224263 -0.3349587321 0.1371565461 1.404926846e-38
-0.05463196337 -0.238088876 0.2809177041 1.404926846e-38
0.3609313369 -0.709371388 -0.1903593242 1.404926846e-38
0.004090487957 -0.1973819286 0.05207946524 1.423293806e-38
-0.4018838704 -0.406930536 0.06216797233 1.423293806e-38
-0.04257399961 -0.3160076439 0.3316268027 1.423293806e-38
0.3739395738 -0.7100790739 -0.1799130738 1.423293806e-38
0.1740456969 -0.7167176008 -0.2105013281 1.423293806e-38
-0.4011973441 -0.4084272981 0.07354725152 1.423293806e-38
0.3219065666 -0.7072484493 -0.2216980159 1.423293806e-38
0.06109047681 -0.7193291783 -0.2362416685 1.423293806e-38
0.3869478703 -0.7107867002 -0.1694668531 1.441624891e-38
0.00921292603 -0.2279111445 0.08105224371 1.441624891e-38
-0.05248448625 -0.3460300267 0.01819856465 1.441624891e-38
0.2815226614 -0.3663248718 -0.09697918594 1.441624891e-38
0.01641221344 -0.1965928376 0.05114640668 1.441624891e-38
0.08710695803 -0.7207444906 -0.2153491974 1.441624891e-38
0.00534029305 -0.2065604925 0.05415086821 1.441624891e-38
0.1247587129 -0.7198739648 -0.2067690939 1.441624891e-38
-0.4443864822 -0.3294855356 -0.06150445342 1.459991851e-38
0.2226461619 -0.7120643854 -0.2256128341 1.459991851e-38
0.137080431 -0.7190848589 -0.207702145 1.459991851e-38
0.4252861142 -0.7114129663 -0.1495074332 1.459991851e-38
-0.06318673491 -0.3374425769 0.08326455206 1.459991851e-38
-0.04936875403 -0.3334619701 0.1257772744 1.459991851e-38
0.06040396169 -0.7178324461 -0.2476209551 1.459991851e-38
-0.04718598723 -0.3317672312 0.180602327 1.459991851e-38
0.2103243619 -0.7128535509 -0.224679783 1.478322936e-38
0.01766201854 -0.2057714015 0.05321780965 1.478322936e-38
-0.05406867713 -0.245770663 0.271609813 1.478322936e-38
-0.06549272686 -0.3453223407 0.007752342615 1.478322936e-38
0.009565252811 -0.275693804 0.236130327 1.478322936e-38
0.2719330788 -0.7089080811 -0.2293450683 1.478322936e-38
-0.04326051474 -0.3145108819 0.3202475309 1.478322936e-38
0.07341220975 -0.7185400724 -0.2371747345 1.478322936e-38
0.008526410908 -0.2264143825 0.06967295706 1.496689755e-38
-0.04487999156 -0.3238874078 0.2561146021 1.496689755e-38
-0.0588211976 -0.3340530694 0.1929146647 1.496689755e-38
-0.0566384308 -0.3323583007 0.2477397323 1.496689755e-38
0.244769603 -0.3857004046 -0.1177577376 1.496689755e-38
0.006590094417 -0.2157390416 0.05622227117 1.496689755e-38
-0.0508650057 -0.3366535008 0.08233150095 1.496689755e-38
0.2700996399 -0.3856189549 -0.108244583 1.496689755e-38
0.0104627274 -0.2370896935 0.08312363923 1.515020841e-38
0.3472365737 -0.7071669698 -0.2121848315 1.515020841e-38
0.02472076938 -0.2469758987 0.09564132988 1.515020841e-38
0.1240722016 -0.7183772326 -0.2181483656 1.515020841e-38
0.01572569832 -0.1950960755 0.03976712748 1.515020841e-38
0.3732531071 -0.7085822821 -0.1912923902 1.515020841e-38
-0.06836200505 -0.3455203474 -0.05845199153 1.515020841e-38
0.01891181991 -0.2149499655 0.05528922006 1.515020841e-38
-0.04568973184 -0.3285756707 0.2240481079 1.533351927e-38
-0.05600499362 -0.2350953817 0.2581591308 1.533351927e-38
-0.05670882016 -0.299936384 0.3397963345 1.533351927e-38
0.004653777927 -0.2050637305 0.04277158901 1.533351927e-38
0.09874223173 -0.7184586525 -0.2276615649 1.533351927e-38
0.4376078248 -0.7106238604 -0.1504404992 1.533351927e-38
-0.4654289186 -0.4002006948 0.05338258296 1.533351927e-38
-0.04769643396 -0.2854784429 0.3026540577 1.533351927e-38
-0.4647423923 -0.4016974568 0.06476186216 1.551683013e-38
-0.06195447966 -0.2755922377 0.2901363671 1.551683013e-38
-0.04556650668 -0.3223906457 0.2447352558 1.551683013e-38
-0.04382380098 -0.3068290949 0.3295554221 1.551683013e-38
-0.4197430015 -0.3279073238 -0.06337057054 1.551683013e-38
-0.05732494593 -0.3308615386 0.2363604456 1.551683013e-38
0.02209793776 -0.2348038256 0.07081130147 1.551683013e-38
0.1579541564 -0.3835422993 -0.1019184589 1.551683013e-38
-0.4633693695 -0.4046909809 0.08752045035 1.570049832e-38
0.4759461284 -0.7112500668 -0.130481109 1.570049832e-38
-0.05794131011 -0.2244200706 0.2447084486 1.570049832e-38
0.306166172 -0.3647466898 -0.09884530306 1.570049832e-38
0.002717457712 -0.1943884194 0.02932090685 1.570049832e-38
0.2096378356 -0.7113567591 -0.2360590994 1.570049832e-38
-0.05545901507 -0.309114933 0.3418677449 1.570049832e-38
-0.05558224022 -0.315299958 0.321180582 1.570049832e-38
0.2171427608 -0.3996995687 -0.01033718511 1.588380918e-38
-0.05419190228 -0.2519557476 0.2509226501 1.588380918e-38
-0.04637624696 -0.3270789385 0.2126688212 1.588380918e-38
-0.05720171705 -0.3246765137 0.2570476532 1.588380918e-38
0.2033247948 -0.4036802053 -0.05284989998 1.588380918e-38
0.01171252877 -0.2462682426 0.08519503474 1.588380918e-38
-0.06455975771 -0.3344490528 0.06050599739 1.588380918e-38
-0.05739533156 -0.2984396219 0.3284170628 1.588380918e-38
0.04297467321 -0.2720277309 0.1557475328 1.606712004e-38
-0.4318962395 -0.3903495967 -0.006313053891 1.606712004e-38
-0.04924552515 -0.3272769451 0.1464644969 1.606712004e-38
0.003967262805 -0.2035669684 0.03139230981 1.606712004e-38
-0.05672679096 -0.3432344794 -0.07076435536 1.606712004e-38
-0.06306350231 -0.3312575519 0.1039517671 1.606712004e-38
0.1918128133 -0.3997810185 -0.01985037699 1.606712004e-38
0.2309859395 -0.3603026867 -0.09531836957 1.606712004e-38
-0.06707692146 -0.2450630367 0.2611635923 1.625043089e-38
-0.06156725064 -0.328066051 0.147397548 1.625043089e-38
-0.05223803222 -0.3336599767 0.05957294628 1.625043089e-38
0.3985830545 -0.7085008621 -0.1817791909 1.625043089e-38
-0.4195744991 -0.3895604908 -0.007246112451 1.625043089e-38
-0.08115814626 -0.3618209064 -0.09247596562 1.625043089e-38
0.4369212985 -0.7091270685 -0.1618197709 1.625043089e-38
-0.05614552647 -0.307618171 0.3304884732 1.625043089e-38
-0.05737802014 -0.2321018577 0.2354005724 1.643374035e-38
-0.05788823217 -0.3231797516 0.2456683218 1.643374035e-38
-0.06605601311 -0.3376405537 0.01706022024 1.643374035e-38
0.3335417509 -0.7049625516 -0.2340103537 1.643374035e-38
-0.04544328153 -0.3162056208 0.2654224932 1.643374035e-38
0.05302593485 -0.3068492115 0.2850625515 1.643374035e-38
0.1350208968 -0.7145946026 -0.2418400198 1.643374035e-38
-0.4366663396 -0.4076030552 0.1197922081 1.643374035e-38
0.01012854651 -0.283375591 0.2268224359 1.661705121e-38
-0.3950995207 -0.3263291419 -0.06523668766 1.661705121e-38
-0.04993204027 -0.3257801831 0.1350851506 1.661705121e-38
-0.4701112509 -0.3835383356 -0.005585281178 1.661705121e-38
0.1473426372 -0.7138054967 -0.2427730858 1.661705121e-38
0.2459165752 -0.7074927092 -0.2502375543 1.661705121e-38
0.008755516261 -0.280382067 0.2040638328 1.661705121e-38
-0.06524626911 -0.3329522908 0.04912671819 1.661705121e-38
-0.05869797245 -0.3278680444 0.2136018872 1.680036207e-38
0.1096909344 -0.7146760225 -0.2513532043 1.680036207e-38
0.01481091231 -0.3000379503 0.2857903242 1.680036207e-38
0.4622513056 -0.7090456486 -0.1523066163 1.680036207e-38
0.2089513242 -0.7098599672 -0.2474383712 1.680036207e-38
0.006009463221 -0.2743950188 0.158546716 1.680036207e-38
-0.05806453526 -0.2306050956 0.2240212262 1.680036207e-38
-0.4694247544 -0.3850350976 0.005793999881 1.680036207e-38
-0.05681473389 -0.2397836447 0.2260926366 1.698367293e-38
0.01296233386 -0.2554467916 0.08726644516 1.698367293e-38
-0.0682387799 -0.3393352926 -0.0377648361 1.698367293e-38
-0.4579580426 -0.3210960627 -0.06264279783 1.698367293e-38
0.06659749895 -0.3152386546 0.286200881 1.698367293e-38
0.1966295987 -0.7106491327 -0.2465053201 1.698367293e-38
0.1843078732 -0.711438179 -0.2455722541 1.698367293e-38
0.4492430687 -0.7083380222 -0.1627528369 1.698367293e-38
-0.0506185554 -0.324283421 0.1237058789 1.716698239e-38
0.3718800545 -0.7055888176 -0.2140509486 1.716698239e-38
0.05654624104 -0.2804172039 0.1568858773 1.716698239e-38
-0.4168284535 -0.395547539 0.03827103972 1.716698239e-38
-0.05938448384 -0.3263712823 0.2022226006 1.716698239e-38
0.3848882914 -0.7062964439 -0.203604728 1.716698239e-38
-0.05876835808 -0.2954460979 0.3056584895 1.716698239e-38
-0.06443654001 -0.3282640278 0.08119314909 1.716698239e-38
-0.06720013916 -0.2512480617 0.2404764295 1.735029324e-38
-0.4680517316 -0.3880286217 0.02855258808 1.735029324e-38
-0.4058797359 -0.391764909 0.01457939111 1.735029324e-38
0.3978965282 -0.7070040703 -0.1931584924 1.735029324e-38
0.01227581874 -0.2539500296 0.07588717341 1.735029324e-38
-0.06969974935 -0.2328909636 0.2363336235 1.735029324e-38
-0.4666787088 -0.3910221457 0.05131118 1.735029324e-38
0.4362348318 -0.7076303363 -0.1731990874 1.735029324e-38
0.1589779109 -0.711519599 -0.2550854087 1.75336041e-38
-0.04781966284 -0.2916634679 0.2819668353 1.75336041e-38
-0.0460065715 -0.3085238338 0.2747303545 1.75336041e-38
-0.04588334262 -0.3023388088 0.2954175174 1.75336041e-38
-0.05306532234 -0.2673193216 0.2323068529 1.75336041e-38
-0.06593278795 -0.3314555287 0.03774740919 1.75336041e-38
0.02459754422 -0.2531609535 0.0749541074 1.75336041e-38
-0.0689252913 -0.3378385305 -0.0491441153 1.75336041e-38
0.2556293905 -0.3587245047 -0.09718447924 1.771655483e-38
-0.2808055878 -0.3560893834 -0.0816898495 1.771655483e-38
-0.4838513136 -0.3134957254 -0.06284809113 1.771655483e-38
-0.1461651027 -0.3289043009 -0.07975503802 1.771655483e-38
-0.4632461369 -0.3985059559 0.108207643 1.771655483e-38
-0.4646191597 -0.3955124319 0.08544905484 1.771655483e-38
0.02838248014 -0.3084274232 0.2869286537 1.771655483e-38
-0.05625144392 -0.2474654615 0.2167847604 1.771655483e-38
-0.05926125869 -0.3201862276 0.2229097635 1.789986569e-38
0.01158930734 -0.2524532974 0.06450788677 1.789986569e-38
-0.05442079902 -0.3353547156 0.004747881088 1.789986569e-38
0.2452300638 -0.7059959173 -0.2616168261 1.789986569e-38
-0.4003876448 -0.4037390053 0.1056137532 1.789986569e-38
0.2082648128 -0.708363235 -0.2588176429 1.789986569e-38
-0.06788665056 -0.2497512996 0.2290970981 1.789986569e-38
0.01489865035 -0.2661221325 0.1007171869 1.789986569e-38
-0.06075751409 -0.3233777583 0.1794639826 1.808317654e-38
0.003844037652 -0.2097519934 0.01070509106 1.808317654e-38
-0.05375183746 -0.2658225596 0.2209275663 1.808317654e-38
-0.2691703737 -0.3538035154 -0.09400218725 1.808317654e-38
-0.2684838474 -0.3553002775 -0.08262290061 1.808317654e-38
-0.04750282317 -0.3117153645 0.2312845886 1.808317654e-38
-0.06207770482 -0.2817772627 0.2694492042 1.808317654e-38
-0.05943756178 -0.2276115716 0.2012626678 1.808317654e-38
-0.05500164255 -0.2566440105 0.2188561559 1.826612727e-38
0.3581852913 -0.7033843398 -0.2358764708 1.826612727e-38
-0.04669308662 -0.3070270717 0.2633510828 1.826612727e-38
0.01491596177 -0.1997843683 0.007700633258 1.826612727e-38
-0.05660356954 -0.3370494545 -0.05007717386 1.826612727e-38
-0.06362679601 -0.3235757649 0.1132596433 1.826612727e-38
-0.06144402921 -0.3218809962 0.1680847108 1.826612727e-38
-0.4502378702 -0.3992136121 0.1186538637 1.826612727e-38
-0.05818776041 -0.2367901206 0.2033340782 1.844943813e-38
0.3075252771 -0.7035472393 -0.2549028397 1.844943813e-38
-0.05510731414 -0.3338579535 -0.006631399971 1.844943813e-38
-0.05832829699 -0.3093129396 0.2756634057 1.844943813e-38
-0.05820507184 -0.3031278849 0.2963505685 1.844943813e-38
-0.06213054061 -0.3203842342 0.1567054242 1.844943813e-38
-0.06538704783 -0.2681084275 0.233239904 1.844943813e-38
-0.05443835258 -0.2643257976 0.2095482945 1.844943813e-38
0.3431313634 -0.3623793721 -0.1016444787 1.863274899e-38
-0.4209928215 -0.3187287748 -0.06544197351 1.863274899e-38
0.001907721162 -0.1990766823 -0.002745589241 1.863274899e-38
-0.04899907857 -0.3149068356 0.1878388077 1.863274899e-38
-0.4413487017 -0.390940696 0.06082434207 1.863274899e-38
0.02584734559 -0.2623395026 0.07702551782 1.863274899e-38
-0.1215216219 -0.3273260891 -0.08162115514 1.863274899e-38
0.0232245177 -0.2501674294 0.05219554529 1.863274899e-38
0.01537420601 -0.3077197671 0.2764824331 1.881569971e-38
-0.04737959802 -0.3055303097 0.2519717813 1.881569971e-38
0.019351881 -0.2288167775 0.02529412508 1.881569971e-38
-0.4386026561 -0.3969277442 0.1063415259 1.881569971e-38
0.01297964156 -0.1891090274 -0.005750050768 1.881569971e-38
-0.0601240769 -0.2261148095 0.189883396 1.881569971e-38
-0.4706745744 -0.3758565485 0.003722596914 1.881569971e-38
0.01021627709 -0.2494597733 0.04174932465 1.881569971e-38
-0.0673058182 -0.3284620047 0.01498881727 1.899901057e-38
-0.06732337177 -0.2574330866 0.2197892219 1.899901057e-38
0.1927709132 -0.3534914553 -0.0945905894 1.899901057e-38
-0.04725637287 -0.2993452847 0.2726589441 1.899901057e-38
0.01283910871 -0.2616318464 0.06657929718 1.899901057e-38
-0.05797659606 -0.3340559304 -0.07283576578 1.899901057e-38
0.2442063093 -0.3780186176 -0.1084498614 1.899901057e-38
-0.05889158323 -0.3016311228 0.2849712968 1.899901057e-38
-0.05348783731 -0.3244813979 0.05750153586 1.91819627e-38
0.01422944665 -0.1982876062 -0.003678645939 1.91819627e-38
-0.05901480839 -0.3078161776 0.2642841339 1.91819627e-38
-0.05637466908 -0.2536504865 0.1960975975 1.91819627e-38
-0.4693015516 -0.3788500726 0.02648118511 1.91819627e-38
-0.0664960742 -0.3237737417 0.04705531523 1.91819627e-38
0.3705070019 -0.7025952339 -0.2368095368 1.91819627e-38
-0.04968558997 -0.3134101033 0.1764595211 1.91819627e-38
-0.4727793634 -0.3035280704 -0.0658525452 1.936527215e-38
-0.4262809157 -0.3961386681 0.1054084599 1.936527215e-38
0.3835152984 -0.7033029199 -0.2263633162 1.936527215e-38
-0.4269674122 -0.394641906 0.09402915835 1.936527215e-38
-2.859905362e-05 -0.1884013712 -0.01619627513 1.936527215e-38
0.3554531634 -0.361590296 -0.1025775373 1.936527215e-38
0.02253800258 -0.2486706674 0.04081626609 1.936527215e-38
0.01215259358 -0.2601350844 0.05520000681 1.936527215e-38
-0.385240674 -0.3920228481 0.276255995 1.954822428e-38
0.4348617792 -0.7046368122 -0.1959576756 1.954822428e-38
0.228091538 -0.3959169388 -0.03402883559 1.954822428e-38
0.00952976197 -0.2479630113 0.03036998585 1.954822428e-38
-0.05250203609 -0.2750011086 0.2229989618 1.954822428e-38
-0.07119600475 -0.2360824645 0.1928878427 1.954822428e-38
-0.0679923296 -0.3269652426 0.003609536681 1.954822428e-38
0.2925946414 -0.3563572168 -0.09998365492 1.954822428e-38
-0.05648034066 -0.3308644295 -0.02938998863 1.973153514e-38
-0.413272649 -0.3968463242 0.1158546805 1.973153514e-38
-0.05970132351 -0.3063194156 0.2529048622 1.973153514e-38
-0.4139591753 -0.3953495622 0.1044754088 1.973153514e-38
0.02447431907 -0.2593459785 0.05426694825 1.973153514e-38
-0.04875262827 -0.3025367856 0.2292131782 1.973153514e-38
-0.4146456718 -0.3938528001 0.09309609234 1.973153514e-38
-0.06151441485 -0.2894590497 0.2601413131 1.973153514e-38
0.3068388104 -0.7020504475 -0.2662821114 1.991448586e-38
-0.04794288427 -0.2978485227 0.2612796724 1.991448586e-38
0.4601917267 -0.7045553923 -0.1864444762 1.991448586e-38
-0.06568633765 -0.3190854788 0.07912174612 1.991448586e-38
-0.05957809836 -0.3001343906 0.273592025 1.991448586e-38
0.2435197979 -0.3765218556 -0.1198291481 1.991448586e-38
0.01991517097 -0.2364985645 0.01598624513 1.991448586e-38
-0.4043834805 -0.3885734081 0.05802516639 1.991448586e-38
-0.06218361855 -0.2216245234 0.1557454914 2.009743799e-38
-0.2697336376 -0.3461217284 -0.08469431102 2.009743799e-38
-0.4740291834 -0.2943495214 -0.06792394817 2.009743799e-38
-0.08309446275 -0.3511455953 -0.1059266478 2.009743799e-38
-0.06093381718 -0.2308030725 0.1578169018 2.009743799e-38
-0.06413725019 -0.2772869766 0.2353112996 2.009743799e-38
-0.04943913966 -0.3010400236 0.2178338915 2.009743799e-38
-0.05649789423 -0.2598355114 0.1754103899 2.009743799e-38
-0.06038783863 -0.3048226535 0.2415255159 2.028074885e-38
0.0005346909165 -0.1960831583 -0.0255041793 2.028074885e-38
-0.06867884099 -0.3254684806 -0.007769744378 2.028074885e-38
-0.07256902754 -0.2330889404 0.1701292247 2.028074885e-38
-0.05024887994 -0.3057283163 0.1857673973 2.028074885e-38
-0.05567060411 -0.3261761665 0.002676485572 2.028074885e-38
-0.387863487 -0.3798507452 0.2514259517 2.028074885e-38
-0.05336461216 -0.3182963729 0.07818869501 2.028074885e-38
0.2815088034 -0.7021318674 -0.2757953107 2.046369957e-38
0.4088453054 -0.7032214403 -0.2168501168 2.046369957e-38
0.3698205352 -0.7010985017 -0.2481888533 2.046369957e-38
-0.05968401209 -0.2399816513 0.1598882973 2.046369957e-38
-0.06637284905 -0.3175887167 0.06774246693 2.046369957e-38
0.304916352 -0.3555681109 -0.1009167135 2.046369957e-38
-0.07131922245 -0.2422674894 0.1722006351 2.046369957e-38
-0.4222426116 -0.3095502555 -0.06751337647 2.046369957e-38
0.2297361493 -0.3511241376 -0.09738976508 2.06466517e-38
0.01340239868 -0.2693136632 0.05727140978 2.06466517e-38
-0.1474149078 -0.3197257519 -0.08182644099 2.06466517e-38
0.02116497606 -0.2456771433 0.01805764809 2.06466517e-38
-0.07325553894 -0.2315921783 0.1587499529 2.06466517e-38
-0.06188408658 -0.3080141842 0.1980797946 2.06466517e-38
-0.05012565479 -0.2995432615 0.2064546198 2.06466517e-38
0.004970613867 -0.2251155972 -0.007910659537 2.06466517e-38
-0.04862939939 -0.2963517606 0.2499004006 2.082996116e-38
0.04672408104 -0.2995634079 0.1619617492 2.082996116e-38
-0.3871769607 -0.3813475072 0.2628053129 2.082996116e-38
-0.06107435375 -0.3033258915 0.2301462293 2.082996116e-38
0.01077956334 -0.2571415603 0.03244138882 2.082996116e-38
0.1897532642 -0.3952907324 -0.05398824438 2.082996116e-38
0.003034297377 -0.2144402862 -0.02136136964 2.082996116e-38
-0.06026460975 -0.2986376286 0.2622127235 2.082996116e-38
-0.06881961972 -0.2606246173 0.176343441 2.101291328e-38
-0.05912072584 -0.2476634383 0.1505804211 2.101291328e-38
-0.07394205779 -0.2300954163 0.1473706663 2.101291328e-38
-0.0578533709 -0.3278709054 -0.05214857683 2.101291328e-38
-0.05093539506 -0.3042315543 0.1743881255 2.101291328e-38
-0.1350931525 -0.318936646 -0.08275949955 2.101291328e-38
0.01671174169 -0.2829824686 0.09348066151 2.101291328e-38
-0.0625706017 -0.3065174222 0.1867004633 2.101291328e-38
-0.05125223473 -0.2841796577 0.2250703722 2.119586541e-38
-0.4099208713 -0.3087611496 -0.06844643503 2.119586541e-38
-0.3864904642 -0.3828442693 0.2741845846 2.119586541e-38
-0.4220741093 -0.3712033927 -0.01138891652 2.119586541e-38
-0.06176086515 -0.3018291295 0.2187669575 2.119586541e-38
0.02834695205 -0.2806966007 0.08116832376 2.119586541e-38
0.006220415235 -0.2342941463 -0.005839260295 2.119586541e-38
-0.06105703861 -0.2369881272 0.1371297389 2.119586541e-38
-0.05456157774 -0.2705108225 0.1888611317 2.137881613e-38
0.3061522841 -0.7005536556 -0.2776614428 2.137881613e-38
-0.3748552203 -0.3805584013 0.261872232 2.137881613e-38
-0.05980723724 -0.2461666763 0.1392011344 2.137881613e-38
-0.06855562329 -0.3192834556 0.01291741431 2.137881613e-38
0.004284098744 -0.2236188352 -0.01928996667 2.137881613e-38
-0.04931591451 -0.2948549986 0.2385210544 2.137881613e-38
-0.05149868503 -0.2965497375 0.1836960018 2.137881613e-38
0.01533871517 -0.2799889743 0.07072210312 2.156176826e-38
0.02047846094 -0.2441803813 0.006678368896 2.156176826e-38
0.2681633234 -0.3749436438 -0.1216952652 2.156176826e-38
-0.3781645596 -0.3668895662 0.2256629467 2.156176826e-38
-0.05193874985 -0.2826828957 0.2136910856 2.156176826e-38
0.31640324 -0.3948835433 -0.00642236881 2.156176826e-38
-0.4097523689 -0.3704142869 -0.01232197508 2.156176826e-38
-0.05473763868 -0.3153028488 0.05543013662 2.156176826e-38
-0.4629572332 -0.2843818665 -0.0709284097 2.174471899e-38
0.01660582423 -0.2228297293 -0.02022302523 2.174471899e-38
-0.5011722445 -0.2775706053 -0.07020063698 2.174471899e-38
0.007470220327 -0.2434727252 -0.003767853603 2.174471899e-38
-0.05524809286 -0.2690140605 0.1774817854 2.174471899e-38
-0.3924226463 -0.3570033908 0.2131453305 2.174471899e-38
-0.3774780631 -0.3683863282 0.2370422184 2.174471899e-38
-0.06463014334 -0.3020271361 0.1525626183 2.174471899e-38
-0.05218520015 -0.2950529754 0.1723167151 2.192767111e-38
-0.05000242963 -0.2933582366 0.2271417826 2.192767111e-38
-0.06382040679 -0.2973388433 0.1846290529 2.192767111e-38
-0.1104497015 -0.317358464 -0.08462561667 2.192767111e-38
0.356125772 -0.6988940239 -0.2700143456 2.192767111e-38
0.03028326668 -0.2913719118 0.09461900592 2.192767111e-38
-0.07073839009 -0.3209781945 -0.04190764204 2.192767111e-38
-0.4738606811 -0.3560026586 -0.01179948822 2.192767111e-38
-0.4076928496 -0.374904573 0.02181589417 2.211062324e-38
-0.39173612 -0.358500123 0.2245246172 2.211062324e-38
0.01864805818 -0.2936578095 0.1069314033 2.211062324e-38
-0.488850534 -0.2767814994 -0.07113369554 2.211062324e-38
-0.4111706614 -0.2995826006 -0.070517838 2.211062324e-38
0.02172826231 -0.2533589303 0.008749771863 2.211062324e-38
-0.06163764 -0.2956441045 0.2394541055 2.211062324e-38
0.4074722528 -0.7002279758 -0.239608705 2.211062324e-38
-0.2709834576 -0.3369431794 -0.08676570654 2.229357396e-38
0.01727502793 -0.2906642556 0.08417277038 2.229357396e-38
-0.4247422218 -0.2911931276 -0.07165618241 2.229357396e-38
0.008720021695 -0.2526512742 -0.001696448773 2.229357396e-38
0.02628741041 -0.2762063444 0.04703047499 2.229357396e-38
0.1915211082 -0.3443128765 -0.09666199237 2.229357396e-38
-0.07142490149 -0.3194814324 -0.05328692123 2.229357396e-38
0.01910543069 -0.2411868572 -0.01608022116 2.229357396e-38
-0.4615389407 -0.3552135527 -0.01273254678 2.247652609e-38
-0.2909802794 -0.1900862455 -0.1199081689 2.247652609e-38
-0.3020522296 -0.2000539005 -0.1169037074 2.247652609e-38
-0.4765287936 -0.2759923935 -0.0720667541 2.247652609e-38
0.0132791698 -0.2754986882 0.03658419475 2.247652609e-38
0.1898764968 -0.3891057074 -0.03330105916 2.247652609e-38
0.03221958876 -0.3020472825 0.1080697477 2.247652609e-38
-0.3903630972 -0.3614936471 0.2472831607 2.247652609e-38
-0.3528345823 -0.3668081462 0.2351761162 2.265947681e-38
-0.0576069206 -0.3155008256 -0.01077420637 2.265947681e-38
0.2275282741 -0.3882351518 -0.02472095564 2.265947681e-38
-0.07211141288 -0.3179846704 -0.06466620415 2.265947681e-38
0.02489707246 -0.3395505846 0.1172884107 2.265947681e-38
-0.05399829149 -0.2781926095 0.1795531958 2.265947681e-38
-0.06911890209 -0.3116016686 0.02222532034 2.265947681e-38
-0.3554574251 -0.3546360731 0.2103461474 2.265947681e-38
0.0229780674 -0.2625375092 0.01082117856 2.284242894e-38
0.4793747962 -0.174531281 0.4218157828 2.284242894e-38
0.03153306991 -0.3005504906 0.09669041634 2.284242894e-38
0.02239746973 -0.3211934865 0.1131456196 2.284242894e-38
-0.352148056 -0.3683049083 0.246555388 2.284242894e-38
0.3937774301 -0.6980235577 -0.2614342272 2.284242894e-38
0.02171095461 -0.3196967244 0.1017662734 2.284242894e-38
-0.05206196755 -0.2888679504 0.1930039376 2.284242894e-38
-0.05468480289 -0.2766958475 0.1681739092 2.302537966e-38
-0.2995526195 -0.2184110284 -0.1127609015 2.302537966e-38
-0.3630967736 -0.3720875084 0.270247072 2.302537966e-38
0.01521548629 -0.2861739993 0.05003493652 2.302537966e-38
-0.3690289557 -0.3462466002 0.209207803 2.302537966e-38
0.02227424085 -0.3273785114 0.09245839715 2.302537966e-38
-0.0597896874 -0.3171955943 -0.06559925526 2.302537966e-38
0.3807692528 -0.6973158717 -0.2718804479 2.302537966e-38
-0.1172261238 -0.1882174462 -0.1308995783 2.320833179e-38
-0.09258264303 -0.1866392493 -0.1327656955 2.320833179e-38
-0.05679718032 -0.3108125627 0.0212922655 2.320833179e-38
-0.07130167633 -0.3132964373 -0.03259973601 2.320833179e-38
-0.2891671956 -0.2069466114 -0.1271446347 2.320833179e-38
-0.447157681 -0.3589147627 0.02047226205 2.320833179e-38
0.02158772945 -0.3258817494 0.0810791105 2.320833179e-38
-0.06369718164 -0.2911538184 0.2053162754 2.320833179e-38
0.2153296769 -0.3828392327 -0.003100706264 2.339092378e-38
-0.4518853128 -0.2744142115 -0.07393287122 2.339092378e-38
-0.07348443568 -0.3149911463 -0.08742479235 2.339092378e-38
-0.09451895952 -0.1759639084 -0.1462163776 2.339092378e-38
-0.4901003242 -0.2676029205 -0.07320510596 2.339092378e-38
-0.1055909097 -0.1859315932 -0.1432119161 2.339092378e-38
0.03016004525 -0.2975569963 0.07393184304 2.339092378e-38
-0.1024047881 -0.2057854831 -0.1276898235 2.339092378e-38
0.03209635988 -0.3082322776 0.08738252521 2.348204041e-38
-0.1043411046 -0.1951101422 -0.1411405057 2.348204041e-38
0.05438102037 -0.353140831 -0.1027396172 2.348204041e-38
0.4060992599 -0.6972343922 -0.2623673081 2.348204041e-38
-0.4756737649 -0.3391422927 -0.004563014954 2.348204041e-38
-0.4749872386 -0.3406390548 0.006816266105 2.348204041e-38
-0.3650330901 -0.3614121974 0.2567963898 2.348204041e-38
-0.5061714649 -0.2408563495 -0.0784862563 2.348204041e-38
-0.1030912995 -0.2042887211 -0.1390691102 2.348132155e-38
0.3035182059 -0.3879908621 0.003818595782 2.348132155e-38
-0.09990517795 -0.2241425812 -0.1235470176 2.348132155e-38
-0.3417626619 -0.3568404913 0.2321716547 2.348132155e-38
-0.4245737195 -0.3528462648 -0.01553172246 2.348132155e-38
-0.2729197741 -0.3262678683 -0.1002164036 2.348132155e-38
-0.5036718845 -0.2592134774 -0.07434344292 2.348132155e-38
0.3036665618 -0.3463895619 -0.1029881164 2.348132155e-38
0.2676000297 -0.3672618568 -0.1123873889 2.348060128e-38
-0.1005916893 -0.2226458192 -0.1349263042 2.348060128e-38
-0.05817021057 -0.3078190386 -0.001466324087 2.348060128e-38
-0.09791578352 -0.3335776031 -0.1091364026 2.348060128e-38
-0.1129134148 -0.2234348953 -0.1339932382 2.348060128e-38
-0.4938497245 -0.2400672734 -0.07941931486 2.348060128e-38
-0.4950995445 -0.2308887243 -0.08149071038 2.348060128e-38
0.02146450058 -0.3320667744 0.06039195135 2.348060128e-38
-0.05966646597 -0.3110105693 -0.04491210356 2.347952368e-38
-0.4988489449 -0.2033530474 -0.08770491928 2.347952368e-38
-0.4925999343 -0.2492458224 -0.07734790444 2.347952368e-38
-0.3553341925 -0.3484510183 0.2310332954 2.347952368e-38
-0.4963493347 -0.2217101455 -0.0835621208 2.347952368e-38
0.4792515934 -0.180716306 0.4011285603 2.347952368e-38
0.02021469921 -0.3228882253 0.05832054839 2.347952368e-38
-0.08702014387 -0.2310352921 -0.1337879598 2.347952368e-38
-0.2866676152 -0.2253037393 -0.1230018288 2.347880341e-38
-0.5013485551 -0.1849959195 -0.09184773266 2.347880341e-38
-0.4913501143 -0.2584243715 -0.07527650893 2.347880341e-38
-0.4381452501 -0.3444567919 -0.01667006686 2.347880341e-38
-0.3520248532 -0.3621198833 0.2672426105 2.347880341e-38
0.03197313845 -0.3144173324 0.06669537723 2.347880341e-38
-0.5025983453 -0.1758173406 -0.09391913563 2.347880341e-38
-0.1116636246 -0.2326134741 -0.1319218427 2.347880341e-38
0.06601623446 -0.3508549631 -0.115051955 2.347808455e-38
0.4184209704 -0.6964453459 -0.2633003592 2.347808455e-38
0.03072333336 -0.3052387834 0.06462396681 2.347808455e-38
-0.3403896093 -0.3598340154 0.2549302578 2.347808455e-38
0.1769914627 -0.3822129965 -0.02306012437 2.347808455e-38
0.03378622979 -0.3312776685 0.05945889279 2.347808455e-38
-0.2847312689 -0.2359790504 -0.1095511466 2.347808455e-38
-0.4890268147 -0.1842068136 -0.09278079122 2.347808455e-38
0.01577877626 -0.2938557863 0.04072700068 2.347700555e-38
-0.07258579135 -0.3334961832 -0.09962323308 2.347700555e-38
0.0325364247 -0.3220991194 0.05738748983 2.347700555e-38
0.4054127336 -0.6957376599 -0.2737465799 2.347700555e-38
-0.4503437579 -0.3390608728 0.004950148985 2.347700555e-38
-0.07036870718 -0.3024230897 0.02015391737 2.347700555e-38
-0.4101924598 -0.3565474451 0.01767308637 2.347700555e-38
-0.07327230275 -0.3319994211 -0.1110025197 2.347700555e-38
0.3159883022 -0.345600456 -0.1039211676 2.347628668e-38
0.01053311303 -0.2695116401 -0.0089329537 2.347628668e-38
-0.4679564536 -0.2476676404 -0.07921402156 2.347628668e-38
0.01952818409 -0.3213914633 0.04694120958 2.347628668e-38
-0.4618837237 -0.2009857595 -0.09050409496 2.347628668e-38
-0.09740558267 -0.2424996793 -0.1194042116 2.347628668e-38
0.2531297803 -0.3403674066 -0.1013272852 2.347628668e-38
-0.07404772937 -0.3073093891 -0.07811691612 2.347628668e-38
-0.4149200916 -0.2720469236 -0.0767320469 2.347520768e-38
0.02810050175 -0.2930667102 0.03979394957 2.347520768e-38
-0.4568845034 -0.2376999557 -0.08221849054 2.347520768e-38
-0.4667066336 -0.2568461895 -0.0771426186 2.347520768e-38
-0.4643833339 -0.1826286316 -0.09464690834 2.347520768e-38
0.1902713031 -0.3351343274 -0.09873339534 2.347520768e-38
-0.4470623732 -0.2185537517 -0.08729434758 2.347520768e-38
0.01827838272 -0.3122129142 0.04486981407 2.347520768e-38
-0.08577033877 -0.2402138412 -0.1317165494 2.347448882e-38
-0.4656331241 -0.1734500527 -0.09671831131 2.347448882e-38
0.01956280693 -0.1887159199 -0.1390918046 2.347448882e-38
-0.2958032191 -0.2459467053 -0.1065466851 2.347448882e-38
0.03309971094 -0.3297809064 0.04807955399 2.347448882e-38
-0.07255147398 -0.3041178882 -0.03467113897 2.347448882e-38
0.301335454 -0.389685601 -0.05100646242 2.347448882e-38
-0.4380220175 -0.3382717669 0.004017090425 2.347448882e-38
-0.08286674321 -0.2106375098 -0.0005601164885 2.347340982e-38
-0.4556347132 -0.2468785346 -0.08014708012 2.347340982e-38
-0.4135017693 -0.3428786099 -0.01853618398 2.347340982e-38
-0.09809209406 -0.2410029173 -0.1307834983 2.347340982e-38
-0.437240243 -0.1994075477 -0.09237021208 2.347340982e-38
0.02009147406 -0.3290732503 0.03763333336 2.347340982e-38
-0.4347406328 -0.2177646458 -0.08822740614 2.347340982e-38
0.2776248753 -0.3803904951 0.00361331366 2.347340982e-38
0.4831242263 -0.202066958 0.4280299842 2.347269095e-38
-0.0848030597 -0.1999621987 -0.01401082426 2.347269095e-38
-0.4121287465 -0.345872134 0.004222376272 2.347269095e-38
-0.4270732999 -0.3344891667 -0.01967452839 2.347269095e-38
0.021375902 -0.2055762708 -0.1463282853 2.347269095e-38
0.4824377 -0.2005701959 0.4166507125 2.347269095e-38
0.03060010821 -0.3114238083 0.04393675551 2.347269095e-38
-0.4322410226 -0.2361217737 -0.08408460021 2.347269095e-38
-0.284168005 -0.2436608374 -0.1188590229 2.347161195e-38
0.3283100426 -0.3448113501 -0.1048542261 2.347161195e-38
0.03063476644 -0.1787482798 -0.1420962662 2.347161195e-38
0.03188456595 -0.1879268289 -0.1400248706 2.347161195e-38
-0.4409896433 -0.1718718708 -0.09858442843 2.347161195e-38
0.01887629554 -0.1872191578 -0.1504710913 2.347161195e-38
0.04080945998 -0.3447513878 -0.1038779467 2.347161195e-38
0.01762649417 -0.1780406088 -0.1525424868 2.347161195e-38
0.01759187132 -0.3107161522 0.03349053487 2.347089308e-38
0.213146925 -0.3845339715 -0.05792576447 2.347089308e-38
0.03241319954 -0.3282841444 0.0367002748 2.347089308e-38
-0.05942001566 -0.2986404598 -0.003537730779 2.347089308e-38
-0.07123152912 -0.2083516419 -0.01287247986 2.347089308e-38
0.04012294486 -0.3432546258 -0.1152572334 2.347089308e-38
-0.06241251901 -0.3050235212 -0.09042925388 2.347089308e-38
-0.06998172402 -0.2175302207 -0.01080107689 2.347089308e-38
-0.2952399254 -0.2536284924 -0.1158545613 2.346981408e-38
-0.4420631528 -0.2552679777 -0.07900873572 2.346981408e-38
-0.3990252316 -0.2062188089 -0.09309798479 2.346981408e-38
0.3136571944 -0.3888964951 -0.05193952098 2.346981408e-38
-0.08298996091 -0.2168225646 -0.02124729939 2.346981408e-38
0.03116339631 -0.3191055954 0.03462887183 2.346981408e-38
-0.4309912324 -0.2453003526 -0.08201319724 2.346981408e-38
-0.4088473618 -0.2253650129 -0.0880221203 2.346981408e-38
-0.1129492968 -0.2990013659 -0.0887684226 2.346909522e-38
-0.0744176507 -0.1884977967 -0.02839456685 2.346909522e-38
-0.08105364442 -0.2274978757 -0.007796614897 2.346909522e-38
-0.4002750218 -0.1970402598 -0.09516938776 2.346909522e-38
-0.06091626734 -0.3018320203 -0.04698350281 2.346909522e-38
0.01440574974 -0.2908622622 0.01796844229 2.346909522e-38
0.01940495893 -0.3275764883 0.02625405416 2.346909522e-38
0.0417066887 -0.1687805951 -0.1451007277 2.346909522e-38
-0.09615577757 -0.2516782582 -0.1173328012 2.346801622e-38
0.1894364357 -0.3752388656 -0.003305995837 2.346801622e-38
0.02994825318 -0.1772515178 -0.1534755528 2.346801622e-38
-0.07191804051 -0.2068548799 -0.02425176091 2.346801622e-38
0.3029549122 -0.3803090751 0.0131264776 2.346801622e-38
0.01815515757 -0.3183979392 0.02418265119 2.346801622e-38
0.02991359495 -0.3099270463 0.03255747631 2.346801622e-38
-0.1006275415 -0.29821226 -0.08970148116 2.346801622e-38
0.3406317532 -0.344022274 -0.1057872847 2.346693862e-38
-0.2933036089 -0.2643038332 -0.1024038792 2.346693862e-38
-0.4297414422 -0.2544789016 -0.07994179428 2.346693862e-38
-0.08367647231 -0.2153258026 -0.03262658045 2.346693862e-38
-0.3952758014 -0.2337544858 -0.08688377589 2.346693862e-38
0.0169053562 -0.3092193902 0.02211125195 2.346693862e-38
-0.1091640145 -0.250970602 -0.1277790368 2.346693862e-38
-0.2809818685 -0.2635147274 -0.1033369303 2.346693862e-38
-0.4063477516 -0.2437221408 -0.08387931436 2.346621835e-38
-0.2870545983 -0.3101966083 -0.09204685688 2.346621835e-38
0.3144669235 -0.3842082322 -0.01987304911 2.346621835e-38
0.3014586866 -0.383500576 -0.03031930327 2.346621835e-38
-0.05998330191 -0.2909586728 0.005770147312 2.346621835e-38
0.2540284991 -0.3588723838 -0.1135257334 2.346621835e-38
-0.07529753447 -0.2981308401 -0.08018831909 2.346621835e-38
0.01565555111 -0.3000408113 0.02003984526 2.346621835e-38
0.2272365391 -0.3327670097 -0.1015325785 2.346514075e-38
-0.07579067349 -0.1855042726 -0.05115315318 2.346514075e-38
-0.08629931509 -0.2031537294 -0.05745657533 2.346514075e-38
0.04726918787 -0.2131766379 -0.146122992 2.346514075e-38
-0.07286831737 -0.2840659916 0.01601111516 2.346514075e-38
0.03104017116 -0.3252906203 0.0139417164 2.346514075e-38
0.04920550808 -0.223851949 -0.1326723099 2.346514075e-38
0.3529535532 -0.3432331681 -0.1067203507 2.346514075e-38
-0.08698582649 -0.2016569674 -0.06883588433 2.346406175e-38
0.02979036979 -0.3161120713 0.01187031344 2.346406175e-38
0.2663502097 -0.3580832779 -0.1144587994 2.346406175e-38
-0.08258421719 -0.2600677013 -0.1161944717 2.346406175e-38
-0.07647718489 -0.1840075105 -0.06253243983 2.346406175e-38
-0.06135632843 -0.2879651785 -0.01698841527 2.346406175e-38
-0.1415184587 -0.1804692149 -0.1147636026 2.346406175e-38
0.01303271949 -0.2878687382 -0.004790147766 2.346406175e-38
-0.1513405889 -0.1996153891 -0.1096877456 2.346334289e-38
0.492348969 -0.3419839442 0.2555260658 2.346334289e-38
-0.2797320485 -0.2726932764 -0.1012655348 2.346334289e-38
-0.07436457276 -0.2872574925 -0.02743466571 2.346334289e-38
0.01678212732 -0.3154044151 0.001424062997 2.346334289e-38
0.3129706681 -0.3873997331 -0.06331883371 2.346334289e-38
-0.08186338842 -0.2321861684 -0.03986307979 2.346334289e-38
-0.09490597248 -0.2608568072 -0.1152614057 2.346334289e-38
-0.1390188634 -0.198826313 -0.1106208041 2.346226389e-38
-0.06054658815 -0.2832768857 0.0150780566 2.346226389e-38
-0.1156251729 -0.1880695522 -0.1145583242 2.346226389e-38
0.02854056656 -0.3069335222 0.009798914194 2.346226389e-38
0.03035365604 -0.3237938583 0.002562407404 2.346226389e-38
-0.07924056053 -0.2443582416 -0.01503309049 2.346226389e-38
-0.1563397944 -0.162901178 -0.1179733574 2.346226389e-38
-0.08327072859 -0.2585709393 -0.1275737435 2.346226389e-38
0.02535444498 -0.2870796621 -0.005723202601 2.346118629e-38
-0.1440180689 -0.162112087 -0.118906416 2.346118629e-38
-0.1316963434 -0.1613229811 -0.1198394671 2.346118629e-38
-0.07272778451 -0.2115432024 -0.0563182272 2.346118629e-38
-0.07517430931 -0.2919457853 -0.05950113013 2.346118629e-38
-0.06691883504 -0.2435691357 -0.01596614905 2.346118629e-38
0.4801504612 -0.3365879953 0.2771462798 2.346118629e-38
-0.2889909148 -0.2995212972 -0.1054975539 2.346118629e-38
0.2002618909 -0.3776412904 -0.04768479988 2.346010729e-38
-0.1079142094 -0.2601491511 -0.1257076263 2.346010729e-38
-0.1575895995 -0.153722614 -0.1200447604 2.346010729e-38
-0.08740715683 -0.3159281611 -0.1028329879 2.346010729e-38
-0.08448621631 -0.2200140655 -0.0646930784 2.346010729e-38
0.4665789306 -0.3281985223 0.2760079205 2.346010729e-38
-0.07147797942 -0.2207217515 -0.05424682423 2.346010729e-38
-0.07785021514 -0.1810139865 -0.08529102802 2.346010729e-38
-0.07411812246 -0.2748874128 0.01393970847 2.345938842e-38
0.4530074 -0.3198090792 0.274869591 2.345938842e-38
0.4667021334 -0.3220134974 0.2966950834 2.345938842e-38
-0.07508540154 -0.3151390553 -0.1037660539 2.345938842e-38
-0.08809366822 -0.3144313991 -0.1142122597 2.345938842e-38
-0.07586082816 -0.2904490232 -0.07088041306 2.345938842e-38
-0.07410080731 -0.2085496783 -0.07907681912 2.345938842e-38
-0.06760534644 -0.2420723736 -0.02734543011 2.345938842e-38
-0.07216449082 -0.2192249894 -0.06562613696 2.345830942e-38
-0.07853673398 -0.1795172393 -0.09667030722 2.345830942e-38
-0.0851727277 -0.2185173035 -0.07607235759 2.345830942e-38
-0.2791687846 -0.2803750634 -0.110573411 2.345830942e-38
-0.06285258383 -0.2911566794 -0.06043418869 2.345830942e-38
-0.09098167717 -0.1864913702 -0.1164244339 2.345830942e-38
-0.07573759556 -0.2842639983 -0.0501932539 2.345830942e-38
0.2642017305 -0.3303997219 -0.1043317467 2.345830942e-38
0.2656637132 -0.3565865159 -0.1258380711 2.345723183e-38
-0.07091468573 -0.2284035385 -0.06355472654 2.345723183e-38
-0.06179639325 -0.2740983367 0.01300664991 2.345723183e-38
-0.07577191293 -0.3136422932 -0.1151453257 2.345723183e-38
-0.1488409787 -0.217972517 -0.1055449396 2.345723183e-38
0.187253654 -0.3769336045 -0.05813105032 2.345723183e-38
-0.06260612607 -0.2787866294 -0.01905981451 2.345723183e-38
-0.1083026528 -0.1505662203 -0.1237769946 2.345723183e-38
0.02660424635 -0.2962582111 -0.003651803359 2.345615283e-38
0.03955965489 -0.3355728388 -0.1059493572 2.345615283e-38
-0.2902407348 -0.2903427184 -0.1075689495 2.345615283e-38
-0.08585924655 -0.2170205414 -0.08745163679 2.345615283e-38
0.2013432235 -0.3251666725 -0.1017378569 2.345615283e-38
-0.07654733956 -0.2889522612 -0.08225972205 2.345615283e-38
-0.1277706325 -0.2814333439 -0.09197816998 2.345615283e-38
0.02831142768 -0.2529658377 -0.1245919913 2.345615283e-38
-0.07642410696 -0.2827672362 -0.0615725331 2.345507523e-38
0.4531306326 -0.3136240244 0.2955567241 2.345507523e-38
-0.06353910267 -0.2896599174 -0.07181347162 2.345507523e-38
0.2257151604 -0.3713747859 -0.0174844563 2.345507523e-38
0.4652059078 -0.3252050281 0.2532493472 2.345507523e-38
0.4653291106 -0.3190199733 0.2739365101 2.345507523e-38
-0.08865696192 -0.3067496121 -0.1049043834 2.345507523e-38
-0.0820209235 -0.2677494884 -0.1255023479 2.345507523e-38
-0.06248290837 -0.2726015747 0.001627341378 2.345399623e-38
-0.09598089755 -0.1497771144 -0.1247100532 2.345399623e-38
-0.08460944146 -0.2261991203 -0.08538023382 2.345399623e-38
-0.07547383755 -0.2055561543 -0.1018354073 2.345399623e-38
-0.1066644043 -0.2693277001 -0.1236362308 2.345399623e-38
-0.07741015404 -0.1948808134 -0.1152860895 2.345399623e-38
-0.06316941977 -0.2711048126 -0.009751940146 2.345399623e-38
0.4782141447 -0.3259126842 0.2636955976 2.345399623e-38
-0.07723385096 -0.2874554992 -0.09363900125 2.345291723e-38
-0.1352694482 -0.22636199 -0.1044065878 2.345291723e-38
-0.06410238147 -0.2819781303 -0.06250559539 2.345291723e-38
0.503297627 -0.3382013142 0.2318343818 2.345291723e-38
-0.06897836924 -0.2390788496 -0.0501040183 2.345291723e-38
0.4780909121 -0.3320977092 0.2430083752 2.345291723e-38
-0.08934347332 -0.3052528501 -0.1162836701 2.345291723e-38
-0.07617765665 -0.2703971565 -0.02019816265 2.345291723e-38
0.4645193815 -0.3237082362 0.2418700159 2.345219836e-38
-0.0872322768 -0.2140270174 -0.110210225 2.345219836e-38
-0.1106259674 -0.224783808 -0.1062727049 2.345219836e-38
-0.07605443895 -0.2642121017 0.0004889969714 2.345219836e-38
-0.07422403991 -0.2147347033 -0.09976400435 2.345219836e-38
0.129208684 -0.1724354923 -0.1495607346 2.345219836e-38
0.05101859942 -0.2407123148 -0.1399087906 2.345219836e-38
0.4896028936 -0.335996896 0.2100088745 2.345219836e-38
-0.08267312497 -0.2368744314 -0.07192955166 2.345111936e-38
-0.06478890032 -0.2804813683 -0.07388487458 2.345111936e-38
-0.0924063623 -0.2792139351 -0.1111185998 2.345111936e-38
0.211897105 -0.3753554225 -0.05999716744 2.345111936e-38
0.4774043858 -0.3306009471 0.2316290736 2.345111936e-38
0.0399466753 -0.2506799698 -0.1369043291 2.345111936e-38
0.5026111007 -0.3367045522 0.2204551101 2.345111936e-38
0.4510710835 -0.3091337383 0.261418879 2.345111936e-38
0.4647658169 -0.3113381863 0.2832444012 2.345004176e-38
-0.06466567516 -0.2742963433 -0.05319771171 2.345004176e-38
0.4904126525 -0.3313086033 0.2420753241 2.345004176e-38
-0.09309287369 -0.2777171731 -0.1224978715 2.345004176e-38
0.05295491591 -0.2513876259 -0.1264581084 2.345004176e-38
-0.07366074622 -0.2224164903 -0.1090718806 2.345004176e-38
-0.07742746174 -0.2612186074 -0.02226956561 2.345004176e-38
0.1285221577 -0.1709387302 -0.1609400064 2.345004176e-38
-0.07936377823 -0.2505432665 -0.0357202813 2.344896276e-38
0.4777740836 -0.3120458424 0.2936906219 2.344896276e-38
0.5034208894 -0.3320162892 0.2525216043 2.344896276e-38
0.2383084595 -0.3227993846 -0.1045370325 2.344896276e-38
0.1751783788 -0.3653526306 -0.0158236213 2.344896276e-38
0.3011669517 -0.328032434 -0.1071309224 2.344896276e-38
-0.1216979176 -0.2347514331 -0.1032682434 2.344896276e-38
-0.0918430686 -0.2868957222 -0.120426476 2.344896276e-38
0.4496980608 -0.3061402142 0.2386602759 2.344788516e-38
0.4761545956 -0.3214223981 0.229557693 2.344788516e-38
-0.07952131331 -0.2861066163 -0.121359542 2.344788516e-38
0.5149329305 -0.3359154463 0.2195220292 2.344788516e-38
0.04188299179 -0.2613552809 -0.1234536469 2.344788516e-38
-0.09205521643 -0.2698874772 -0.09684874862 2.344788516e-38
-0.08005029708 -0.2490465045 -0.0470995605 2.344788516e-38
0.4624598324 -0.3192179799 0.2077321857 2.344788516e-38
0.476031363 -0.3276074231 0.2088705301 2.344680616e-38
-0.06772857159 -0.2482573986 -0.04803261533 2.344680616e-38
0.4754680991 -0.3199256361 0.2181784213 2.344680616e-38
-0.07973345369 -0.2690984011 -0.09778180718 2.344680616e-38
0.04994509742 -0.3241084218 -0.1203331053 2.344680616e-38
-0.06841509044 -0.2467606366 -0.05941192433 2.344680616e-38
0.03081103601 -0.2713229358 -0.1204491854 2.344680616e-38
-0.07880049199 -0.2582250834 -0.04502815381 2.344680616e-38
0.1866903603 -0.3692518175 -0.04882314429 2.344572857e-38
0.2629519403 -0.3212211728 -0.1064031497 2.344572857e-38
0.3018283546 -0.3649454713 0.03174225613 2.344572857e-38
0.03706005216 -0.3172157407 -0.1100921631 2.344572857e-38
0.448325038 -0.3031467199 0.2159017175 2.344572857e-38
0.06295333803 -0.3248161077 -0.1098868847 2.344572857e-38
0.2750020623 -0.3682184219 -0.02121668309 2.344572857e-38
0.2243421376 -0.3683812618 -0.0402430445 2.344572857e-38
0.4747815728 -0.318428874 0.2067991197 2.344464957e-38
0.03012452275 -0.2698261738 -0.1318284571 2.344464957e-38
-0.105626747 -0.2614980042 -0.09798709303 2.344464957e-38
0.0622668229 -0.3233193457 -0.1212661564 2.344464957e-38
0.5135598779 -0.332921952 0.1967634708 2.344464957e-38
-0.06728850305 -0.2621242404 -0.07802768052 2.344464957e-38
0.4610868096 -0.3162244558 0.1849735677 2.344464957e-38
0.2644138932 -0.3474079669 -0.1279094666 2.344464957e-38
0.4746583402 -0.324613899 0.1861119121 2.344357197e-38
0.2124151438 -0.3151990175 -0.1047423184 2.344357197e-38
-0.1438417733 -0.2546867728 -0.09725932777 2.344357197e-38
0.2628035843 -0.362822473 0.0004035625607 2.344357197e-38
0.4475152791 -0.3078350127 0.1838352233 2.344357197e-38
0.05351820216 -0.2590694129 -0.1357659847 2.344357197e-38
0.1510186195 -0.3361527324 -0.123654753 2.344357197e-38
-0.08279635012 -0.2430594563 -0.09261674434 2.344357197e-38
-0.1081263572 -0.2431409061 -0.1021299064 2.344249297e-38
0.2113338113 -0.3676736057 -0.05068926141 2.344249297e-38
0.4605235159 -0.3085426688 0.1942815036 2.344249297e-38
0.2244653702 -0.3621962368 -0.01955585554 2.344249297e-38
-0.09580463171 -0.2423518002 -0.1030629575 2.344249297e-38
