# .PCD v0.7 - Point Cloud Data file format
VERSION 0.7
FIELDS x y z rgb
SIZE 4 4 4 4
TYPE F F F F
COUNT 1 1 1 1
WIDTH 824
HEIGHT 1
VIEWPOINT 0 0 0 1 0 0 0
POINTS 824
DATA ascii
-0.2947854996 -0.29678756 -0.2783983946 8.194878899e-39
-0.2825949788 -0.2979196906 0.01170267537 8.194878899e-39
-0.1905445158 -0.2779044509 -0.316006124 8.012284103e-39
-0.3749191761 -0.3438488841 -0.1224176884 8.012284103e-39
-0.2427245378 -0.2898735404 -0.3276444972 8.012284103e-39
-0.2830832005 -0.304358542 0.08387078345 8.012284103e-39
-0.3734306097 -0.3235212564 -0.3267449439 7.829687907e-39
-0.3754073977 -0.3502877355 -0.0502496399 7.829687907e-39
-0.3763839006 -0.363165468 0.09408652782 7.829687907e-39
-0.3749429584 -0.3448599279 -0.1345945895 7.829687907e-39
-0.2831070423 -0.3053695858 0.07169382274 7.647093112e-39
-0.3754312396 -0.3512987792 -0.06242653728 7.647093112e-39
-0.2819042206 -0.2971743047 -0.2787563503 7.647093112e-39
-0.3759194613 -0.3577376306 0.009741511196 7.647093112e-39
-0.2297718525 -0.2872272134 -0.2914717793 7.464498317e-39
-0.1776394397 -0.2772801816 -0.3041872084 7.464498317e-39
-0.3605255485 -0.3228969574 -0.3149260283 7.464498317e-39
-0.3749668002 -0.3458709419 -0.1467714906 7.464498317e-39
-0.3341556787 -0.312176466 -0.3269254565 7.281903522e-39
-0.2298432887 -0.2902602851 -0.3280024827 7.281903522e-39
-0.1647820026 -0.2786779106 -0.3167220652 7.281903522e-39
-0.3764315248 -0.3651875257 0.06973266602 7.281903522e-39
-0.3100841641 -0.3275840878 0.0949768424 7.099307325e-39
-0.3212029338 -0.3095301092 -0.2907527387 7.099307325e-39
-0.2697136998 -0.2983064353 0.01134469733 7.099307325e-39
-0.3759909272 -0.3607707024 -0.02678918652 7.099307325e-39
-0.3216673732 -0.3149579465 -0.2064077407 6.91671253e-39
-0.2697375119 -0.2993174493 -0.0008322000504 6.91671253e-39
-0.3082740903 -0.3078947961 -0.2667568922 6.91671253e-39
-0.3745737672 -0.3434761465 -0.2676472068 6.91671253e-39
-0.3750620484 -0.3499150276 -0.1954791397 6.734117735e-39
-0.2040807307 -0.2910337448 -0.3287184536 6.734117735e-39
-0.2702495754 -0.3067673445 0.05915894732 6.734117735e-39
-0.3476680517 -0.3242947161 -0.327460885 6.734117735e-39
-0.376526773 -0.3692316115 0.02102506533 6.55152294e-39
-0.3760623336 -0.3638037741 -0.06331994385 6.55152294e-39
-0.1911994517 -0.2914204597 -0.3290764391 6.55152294e-39
-0.3087623119 -0.3143336177 -0.1945888251 6.55152294e-39
-0.2568324208 -0.2986931503 0.01098671928 6.368926744e-39
-0.2573206425 -0.3051320016 0.08315482736 6.368926744e-39
-0.3751334548 -0.3529480994 -0.2320098728 6.368926744e-39
-0.2568562031 -0.2997041643 -0.001190178096 6.368926744e-39
-0.2958096266 -0.3116872907 -0.1584160775 6.186331949e-39
-0.2698565722 -0.3043725789 -0.06171675026 6.186331949e-39
-0.2826305628 -0.3137233853 -0.3283573687 6.186331949e-39
-0.08751815557 -0.2820093036 -0.3310468495 6.186331949e-39
-0.1654369235 -0.2921939194 -0.3297923803 6.003737154e-39
-0.2828568816 -0.3090409338 -0.1222433299 6.003737154e-39
-0.2843216658 -0.3283575475 0.09426088631 6.003737154e-39
-0.2828807235 -0.3100519776 -0.134420231 6.003737154e-39
-0.2699041963 -0.3063946068 -0.08607055247 5.820783626e-39
-0.07461308688 -0.2813850343 -0.3192279339 5.820783626e-39
-0.1525318325 -0.2915696502 -0.3179734647 5.820783626e-39
-0.2444393784 -0.3055187464 0.08279685676 5.820783626e-39
-0.2699280083 -0.3074056506 -0.09824748337 5.63818743e-39
-0.3641813993 -0.3780792356 0.0684812814 5.63818743e-39
-0.3377401233 -0.3643256426 0.09301258624 5.63818743e-39
-0.3752525449 -0.3580032289 -0.292894423 5.63818743e-39
-0.3090242743 -0.3254548907 -0.3285348415 5.455592635e-39
-0.2829521298 -0.3130850494 -0.1709509492 5.455592635e-39
-0.2444870174 -0.3075408041 0.05844299123 5.455592635e-39
-0.2699756324 -0.3094276786 -0.1226013005 5.455592635e-39
-0.296000123 -0.319775492 -0.2558313608 5.272997839e-39
-0.3757646084 -0.3654530942 -0.2329032719 5.272997839e-39
-0.04885053635 -0.282158494 -0.3199438751 5.272997839e-39
-0.2699994445 -0.3104387224 -0.1347782016 5.272997839e-39
-0.03599308804 -0.2835562229 -0.3324787617 5.090401643e-39
-0.2961429954 -0.3258416355 -0.3288927972 5.090401643e-39
-0.2439867705 -0.3148835599 -0.3294313252 5.090401643e-39
-0.1918305755 -0.3039254844 -0.3299698234 5.090401643e-39
-0.3512762785 -0.3774549365 0.08030027151 4.907806848e-39
-0.3767648935 -0.3793418705 -0.1007440686 4.907806848e-39
-0.2315581292 -0.3059054613 0.08243887126 4.907806848e-39
-0.3378353715 -0.3683697581 0.0443049334 4.907806848e-39
-0.1788778752 -0.3012791574 -0.2937970757 4.725212053e-39
-0.3248587847 -0.3647123873 0.09265461564 4.725212053e-39
-0.2311055213 -0.3152703047 -0.3297892809 4.725212053e-39
-0.2701899409 -0.3185268939 -0.2321934849 4.725212053e-39
-0.2311175168 -0.3014886379 -0.01408303156 4.542257124e-39
-0.3758598566 -0.3694972098 -0.2816109359 4.542257124e-39
-0.3643242717 -0.3841453791 -0.004580169916 4.542257124e-39
-0.3513477445 -0.3804880381 0.04376950487 4.542257124e-39
-0.2571657896 -0.3128474653 -0.1594900191 4.359662329e-39
-0.2182242274 -0.3156570196 -0.3301472664 4.359662329e-39
-0.257237196 -0.315880537 -0.1960207373 4.359662329e-39
-0.2572610378 -0.3168915808 -0.2081976384 4.359662329e-39
0.0155320093 -0.2851031423 -0.3339106739 4.177066133e-39
-0.257332474 -0.3199246526 -0.2447283864 4.177066133e-39
-0.1531629413 -0.3040746748 -0.3188668787 4.177066133e-39
-0.2052239031 -0.3109886348 -0.2696207166 4.177066133e-39
-0.3643718958 -0.3861674368 -0.02893396839 3.994471337e-39
-0.2442606986 -0.312223196 -0.1476710588 3.994471337e-39
-0.3768839836 -0.3843969703 -0.1616286188 3.994471337e-39
-0.2443321347 -0.3152562678 -0.1842018217 3.994471337e-39
-0.2053429633 -0.3160437644 -0.3305052519 3.81151781e-39
-0.2443559468 -0.3162672818 -0.1963787079 3.81151781e-39
-0.364395678 -0.3871784508 -0.04111086577 3.81151781e-39
-0.06236291677 -0.2942767441 -0.3204793036 3.81151781e-39
0.04129453003 -0.2858766019 -0.334626615 3.628921614e-39
-0.3249778748 -0.3697675169 0.03177005425 3.628921614e-39
-0.2313080132 -0.3095768392 -0.1114983112 3.628921614e-39
-0.2187244743 -0.3083142638 0.05772703514 3.628921614e-39
-0.3360490203 -0.3496914506 -0.3296056688 3.446326818e-39
-0.3649077415 -0.394628346 0.0188802816 3.446326818e-39
-0.3769316077 -0.386419028 -0.1859824508 3.446326818e-39
0.05417584628 -0.2862633467 -0.3349846005 3.446326818e-39
-0.1924616843 -0.3164304793 -0.3308632374 3.26337189e-39
-0.2183314711 -0.3059194982 -0.06314866245 3.26337189e-39
-0.37695539 -0.387430042 -0.1981593519 3.26337189e-39
0.06705711037 -0.2866500616 -0.335342586 3.26337189e-39
-0.364467144 -0.3902115226 -0.07764162123 3.080777095e-39
-0.2057955712 -0.306678921 0.08172291517 3.080777095e-39
-0.3649553657 -0.3966504037 -0.005473576486 3.080777095e-39
-0.1795089841 -0.3137841523 -0.2946904898 3.080777095e-39
-0.2053787708 -0.3032731414 -0.02697588876 2.898180898e-39
-0.2054025829 -0.3042841554 -0.03915278614 2.898180898e-39
0.06708092242 -0.2856390476 -0.3231656849 2.898180898e-39
-0.3765147924 -0.3830132186 -0.2946812212 2.898180898e-39
-0.3515143991 -0.3875651956 -0.04146884754 2.715227371e-39
-0.3770030141 -0.3894520998 -0.2225131691 2.715227371e-39
-0.2055216432 -0.3093392849 -0.1000373662 2.715227371e-39
-0.3520026803 -0.3940040767 0.03069920465 2.715227371e-39
-0.2055930793 -0.3123723567 -0.1365680993 2.532632576e-39
-0.01086162589 -0.2968346775 -0.3340881169 2.532632576e-39
-0.3630738258 -0.3739280105 -0.3306765258 2.532632576e-39
-0.3650029898 -0.3986724615 -0.0298273731 2.532632576e-39
-0.2056407034 -0.3143943846 -0.1609219313 2.349677647e-39
-0.2056645155 -0.3154054284 -0.1730988175 2.349677647e-39
-0.3520264626 -0.3950150907 0.01852230355 2.349677647e-39
0.05424728245 -0.2832302749 -0.2984538972 2.349677647e-39
-0.3121204376 -0.3711652458 0.0192351751 2.167082852e-39
-0.2056883276 -0.3164164424 -0.1852757484 2.167082852e-39
-0.3126086593 -0.3776040971 0.09140323102 2.167082852e-39
-0.192568928 -0.3066929579 -0.06386461854 2.167082852e-39
-0.1925927401 -0.3077039719 -0.07604151964 1.984127923e-39
-0.2057597786 -0.3194495142 -0.2218064815 1.984127923e-39
-0.2057835907 -0.3204605281 -0.2339833677 1.984127923e-39
-0.3770506382 -0.3914741576 -0.2468670011 1.984127923e-39
-0.07589913905 -0.3074060678 -0.3331916332 1.801533128e-39
-0.1538178772 -0.3175906837 -0.3319371641 1.801533128e-39
-0.3126325011 -0.3786151111 0.07922632992 1.801533128e-39
-0.1927118003 -0.3127591014 -0.1369260699 1.801533128e-39
-0.3381211162 -0.3805020452 -0.1018180102 1.618578199e-39
-0.1927356124 -0.3137701154 -0.149102971 1.618578199e-39
-0.3251445293 -0.3768446743 -0.0534683615 1.618578199e-39
-0.1537940651 -0.3165796697 -0.319760263 1.618578199e-39
0.09286725521 -0.2854014933 -0.3117047548 1.435982003e-39
-0.3121680617 -0.3731873035 -0.005118682981 1.435982003e-39
-0.2581302822 -0.3395068347 -0.3308601379 1.435982003e-39
-0.2059740871 -0.3285487294 -0.3313986659 1.435982003e-39
-0.2862150073 -0.3658725619 0.09158067405 1.253028475e-39
-0.179711476 -0.3080906868 -0.07639949769 1.253028475e-39
-0.3650744557 -0.4017055333 -0.0663581267 1.253028475e-39
-0.2463089228 -0.3420227468 0.0922935456 1.253028475e-39
-0.1797591001 -0.3101127446 -0.1007533222 1.070432279e-39
-0.1798067242 -0.3121347725 -0.1251071543 1.070432279e-39
-0.3646100163 -0.3962776661 -0.1507030725 1.070432279e-39
0.1314872801 -0.2875727117 -0.3249555826 1.070432279e-39
-0.1798543483 -0.3141568303 -0.1494609565 8.874787512e-40
-0.3516334891 -0.3926203251 -0.1023534313 8.874787512e-40
-0.365098238 -0.4027165473 -0.0785350278 8.874787512e-40
0.04066340625 -0.2983815968 -0.3355200291 8.874787512e-40
-0.1798781604 -0.3151678443 -0.1616378874 7.045238224e-40
-0.1799257845 -0.3171899021 -0.1859917045 7.045238224e-40
-0.2452490181 -0.3398935795 -0.3312181234 7.045238224e-40
-0.2992391586 -0.3715519905 0.01887719706 7.045238224e-40
-0.3646337986 -0.3972886801 -0.1628800035 5.219290273e-40
-0.05011277646 -0.3071685135 -0.3217307031 5.219290273e-40
-0.3516572714 -0.3936313391 -0.1145303249 5.219290273e-40
-0.1799972355 -0.3202229738 -0.2225224376 5.219290273e-40
0.0535447225 -0.2987683415 -0.3358780146 3.389740985e-40
-0.2598212957 -0.3541409969 0.09175811708 3.389740985e-40
-0.1800210476 -0.3212339878 -0.2346993238 3.389740985e-40
-0.1668778509 -0.3104994893 -0.1011113077 3.389740985e-40
-0.2199152559 -0.3302912116 0.09247098863 1.56020571e-40
-0.1800448596 -0.3222450316 -0.2468762547 1.56020571e-40
-0.1801401079 -0.3262891173 -0.2955839038 1.56020571e-40
-0.1669969112 -0.315554589 -0.161995858 1.56020571e-40
-0.3252397776 -0.3808887899 -0.1021759808 6.490113838e-41
-0.1670207232 -0.3165656328 -0.1741727591 6.490113838e-41
-0.3237988353 -0.36258322 -0.3308570683 6.490113838e-41
-0.3646814227 -0.3993107378 -0.1872338355 6.490113838e-41
-0.3252636194 -0.3818998039 -0.1143528819 2.496469266e-40
-0.2733337283 -0.3662593067 0.09122270346 2.496469266e-40
0.07930724323 -0.2995418012 -0.3365939558 2.496469266e-40
-0.1671397984 -0.3216207325 -0.2350573093 2.496469266e-40
-0.3521931767 -0.402092278 -0.06671610475 4.340353837e-40
-0.03718389198 -0.3055331707 -0.2977348566 4.340353837e-40
-0.1930571795 -0.313131839 0.008303426206 4.340353837e-40
-0.3382639885 -0.3865681887 -0.1748794615 4.340353837e-40
-0.3517287374 -0.3966644108 -0.151061058 6.184224396e-40
-0.352216959 -0.403103292 -0.07889300585 6.184224396e-40
-0.1800806671 -0.3094744384 0.056653101 6.184224396e-40
-0.219486475 -0.3406670392 -0.3319340944 6.184224396e-40
-0.08941151202 -0.319524318 -0.3337270617 8.028094954e-40
-0.1541870534 -0.3189743757 -0.1988845617 8.028094954e-40
-0.3647290468 -0.4013327956 -0.2115876228 8.028094954e-40
-0.1542108655 -0.3199854195 -0.2110614628 8.028094954e-40
-0.3517525196 -0.3976754248 -0.1632379889 9.871979525e-40
0.05361615866 -0.2957352698 -0.2993472815 9.871979525e-40
-0.1542584896 -0.3220074475 -0.2354152799 9.871979525e-40
0.1050697565 -0.3003152609 -0.3373099267 9.871979525e-40
-0.3123347163 -0.380264461 -0.0903570354 1.171585008e-39
-0.1543061137 -0.3240295053 -0.2597691119 1.171585008e-39
-0.2070339918 -0.3306779265 0.09211301804 1.171585008e-39
0.001388508826 -0.3097264469 -0.3353395164 1.171585008e-39
-0.3383116126 -0.3885902166 -0.1992332786 1.355972064e-39
-0.1543537378 -0.326051563 -0.2841229439 1.355972064e-39
-0.1543775499 -0.327062577 -0.296299845 1.355972064e-39
-0.3253350258 -0.3849328756 -0.150883615 1.355972064e-39
-0.2734051943 -0.3692923784 0.05469193682 1.540360521e-39
-0.3522645831 -0.4051253498 -0.1032468379 1.540360521e-39
-0.1802711636 -0.3175626397 -0.0407621488 1.540360521e-39
-0.1802949756 -0.3185736537 -0.05293910578 1.540360521e-39
-0.3647766709 -0.4033548236 -0.2359414548 1.724747577e-39
-0.3652649522 -0.4097937047 -0.1637734026 1.724747577e-39
0.1308323443 -0.3010887206 -0.3380258679 1.724747577e-39
-0.2734289765 -0.3703034222 0.04251503572 1.724747577e-39
-0.01139749773 -0.3052956164 -0.2862738967 1.909134633e-39
-0.3123823404 -0.3822865188 -0.1147108674 1.909134633e-39
-0.3648005128 -0.4043658674 -0.2481183857 1.909134633e-39
-0.286429286 -0.3749717772 -0.01801153645 1.909134633e-39
-0.1673184633 -0.3149163127 -0.004589430988 2.09352309e-39
-0.06362515688 -0.3192867637 -0.3222661018 2.09352309e-39
-0.3523122072 -0.4071473777 -0.1276006699 2.09352309e-39
-0.1673660874 -0.3169383705 -0.0289432276 2.09352309e-39
-0.3124061823 -0.3832975328 -0.1268877983 2.277910146e-39
-0.2980363369 -0.3633566797 -0.3315730095 2.277910146e-39
-0.2458801419 -0.3523985744 -0.3321115375 2.277910146e-39
-0.1937239319 -0.3414404988 -0.3326500356 2.277910146e-39
-0.07643500715 -0.3158669472 -0.285377413 2.462297202e-39
0.1308561563 -0.3000777066 -0.3258489668 2.462297202e-39
-0.05076770857 -0.3206844926 -0.3348009884 2.462297202e-39
-0.338383019 -0.3916232884 -0.2357640117 2.462297202e-39
-0.2864531279 -0.375982821 -0.03018843755 2.646685659e-39
-0.1674613357 -0.3209824562 -0.0776508823 2.646685659e-39
-0.3254064918 -0.3879659474 -0.187414363 2.646685659e-39
-0.3124299645 -0.3843085766 -0.1390646845 2.646685659e-39
-0.3778246641 -0.410045296 -0.3208218515 2.830713982e-39
-0.05074389651 -0.3196734786 -0.3226240873 2.830713982e-39
0.01436502114 -0.3060690761 -0.2869898677 2.830713982e-39
-0.3523598313 -0.4091694355 -0.1519544572 2.830713982e-39
-0.2851550579 -0.3637433946 -0.331930995 3.015101038e-39
-0.2329988927 -0.3527852893 -0.3324694932 3.015101038e-39
-0.1545324326 -0.3193471134 -0.05365506187 3.015101038e-39
-0.1546276808 -0.3233912289 -0.1023626924 3.015101038e-39
-0.2475711703 -0.3670327663 0.09050674736 3.199488094e-39
-0.1679137796 -0.3401919305 -0.3090122044 3.199488094e-39
-0.2605715096 -0.3717011511 0.02998016402 3.199488094e-39
-0.2201175988 -0.353172034 -0.3328274786 3.199488094e-39
-0.1679614037 -0.3422139585 -0.3333660066 3.383517819e-39
-0.1677590758 -0.3193331063 0.09193249047 3.383517819e-39
0.0401275456 -0.3068425357 -0.2877058089 3.383517819e-39
-0.2865483761 -0.3800269067 -0.07889609039 3.383517819e-39
-0.3384782672 -0.3956674039 -0.2844716609 3.567904875e-39
-0.3519430161 -0.4057636261 -0.2606532574 3.567904875e-39
-0.1549372375 -0.3365345299 -0.2606625259 3.567904875e-39
-0.2865721583 -0.3810379207 -0.09107299149 3.567904875e-39
-0.1550086737 -0.3395676017 -0.297193259 3.75229193e-39
0.05300886184 -0.3072292805 -0.2880637944 3.75229193e-39
0.0007573887706 -0.3222314417 -0.3362329006 3.75229193e-39
-0.2072363347 -0.353558749 -0.3331854641 3.75229193e-39
-0.07716137916 -0.3324160278 -0.3349784315 3.936320254e-39
-0.3649671674 -0.4114430249 -0.3333567381 3.936320254e-39
-0.1812714487 -0.3314513862 0.09139706194 3.936320254e-39
-0.3654554486 -0.417881906 -0.2611886859 3.936320254e-39
-0.273619473 -0.3783915937 -0.05490027368 4.120708711e-39
-0.3784557581 -0.4225503206 -0.3217152655 4.120708711e-39
-0.08994738758 -0.3279852271 -0.2859128416 4.120708711e-39
-0.3654792309 -0.41889292 -0.273365587 4.120708711e-39
-0.07680419087 -0.317250669 -0.1523247808 4.304737034e-39
-0.1421988606 -0.3429874182 -0.3340819478 4.304737034e-39
-0.07685181499 -0.3192727268 -0.1766786128 4.304737034e-39
-0.2986674905 -0.3758616745 -0.3324664235 4.304737034e-39
-0.2996201515 -0.3877283931 -0.1759533882 4.48912409e-39
-0.06425627321 -0.3317917585 -0.3231595159 4.48912409e-39
-0.3784796 -0.4235613346 -0.3338921666 4.48912409e-39
-0.07694706321 -0.3233168125 -0.2253862619 4.48912409e-39
-0.312620461 -0.3923967481 -0.2364799678 4.673152414e-39
-0.05139882863 -0.3331894875 -0.3356944025 4.673152414e-39
-0.2996439338 -0.3887394071 -0.1881303191 4.673152414e-39
-0.06387527287 -0.315615356 -0.1283289641 4.673152414e-39
0.1302250326 -0.3125827312 -0.3267423809 4.857539469e-39
0.0008764527738 -0.3171763122 -0.2753483653 4.857539469e-39
-0.365526855 -0.4209149778 -0.297719419 4.857539469e-39
-0.2736909389 -0.3814246655 -0.09143096954 4.857539469e-39
-0.3256207705 -0.3970651627 -0.2970065475 5.041567793e-39
0.1431062818 -0.3129694462 -0.3271003664 5.041567793e-39
-0.2336300015 -0.365290314 -0.3333629072 5.041567793e-39
-0.06399433315 -0.3206704855 -0.1892135143 5.041567793e-39
0.1045100689 -0.3097872138 -0.3016726077 5.225597518e-39
-0.06418483704 -0.3287586868 -0.2866287827 5.225597518e-39
-0.2347613722 -0.370452553 0.05361800268 5.225597518e-39
-0.06404195726 -0.3226925433 -0.2135673016 5.225597518e-39
-0.06406576931 -0.3237035573 -0.2257442325 5.409984573e-39
-0.3525741696 -0.4182686508 -0.2615466714 5.409984573e-39
0.01375771314 -0.3175630271 -0.275706321 5.409984573e-39
-0.1683901995 -0.331838131 0.09103907645 5.409984573e-39
-0.05101782829 -0.3170131147 -0.1408638358 5.594012897e-39
-0.1420679688 -0.3231396377 0.05468576774 5.594012897e-39
-0.3655744791 -0.4229370356 -0.322073251 5.594012897e-39
-0.2737385631 -0.3834467232 -0.1157847941 5.594012897e-39
-0.02563630976 -0.3339629471 -0.3364103436 5.77804122e-39
-0.09003081918 -0.3172366917 -0.006737299263 5.77804122e-39
-0.09000700712 -0.3162256777 0.005439601839 5.77804122e-39
-0.1422584653 -0.331227839 -0.04272948205 5.77804122e-39
-0.2207487077 -0.3656770587 -0.3337208927 5.962428276e-39
-0.2477854937 -0.3761319816 -0.01908547059 5.962428276e-39
-0.0899355635 -0.313192606 0.04197035357 5.962428276e-39
-0.05116070062 -0.3230792582 -0.2139252871 5.962428276e-39
-0.09017369151 -0.3233028352 -0.07979875058 6.1464566e-39
-0.2218086272 -0.367806226 0.08979079127 6.1464566e-39
-0.2737623453 -0.3844577372 -0.127961725 6.1464566e-39
-0.09019750357 -0.3243138492 -0.09197564423 6.1464566e-39
-0.3526217937 -0.4202907085 -0.2859005034 6.330484923e-39
-0.05120832846 -0.3251012862 -0.2382791191 6.330484923e-39
-0.09022131562 -0.325324893 -0.1041525751 6.330484923e-39
-0.03806512803 -0.3143667877 -0.1046910882 6.330484923e-39
-0.05123214051 -0.32611233 -0.2504560351 6.514514648e-39
-0.1424013376 -0.3372939825 -0.1157909632 6.514514648e-39
-0.05125595257 -0.3271233439 -0.2626329362 6.514514648e-39
-0.299739182 -0.3927834928 -0.2368379384 6.514514648e-39
-0.03811275214 -0.3163888156 -0.1290449202 6.698542971e-39
-0.1556159854 -0.3510615826 -0.2859097421 6.698542971e-39
-0.1117615849 -0.3712479472 0.3726358116 6.698542971e-39
0.09092626721 -0.3249385357 -0.3387387395 6.698542971e-39
-0.2737861872 -0.385468781 -0.1401386261 6.882571295e-39
-0.09888033569 -0.371634692 0.3722778261 6.882571295e-39
-0.352645576 -0.4213017225 -0.2980774045 6.882571295e-39
-0.1556636095 -0.3530836403 -0.3102635741 6.882571295e-39
-0.1425204128 -0.342349112 -0.1766755134 7.066599618e-39
-0.3127395511 -0.3974518776 -0.2973645329 7.066599618e-39
-0.09064994752 -0.3435233235 -0.3233369589 7.066599618e-39
-0.1425442249 -0.343360126 -0.1888524443 7.066599618e-39
-0.07714955509 -0.3176234066 -0.007095277309 7.250627941e-39
-0.2600236535 -0.3770218492 -0.3335403502 7.250627941e-39
-0.03823181614 -0.3214439452 -0.1899294704 7.250627941e-39
-0.2478331178 -0.3781540394 -0.04343926907 7.250627941e-39
-0.1557112336 -0.3551056683 -0.3346173763 7.434656265e-39
-0.07724480331 -0.3216674924 -0.05580293015 7.434656265e-39
-0.07712574303 -0.3166123927 0.005081623793 7.434656265e-39
-0.2348566204 -0.3744966686 0.004910346121 7.434656265e-39
-0.02513624355 -0.3127314448 -0.08069524169 7.618684588e-39
-0.0251124315 -0.3117204309 -0.06851834059 7.618684588e-39
-0.03830325603 -0.3244770169 -0.2264601886 7.618684588e-39
-0.0250409916 -0.3086873591 -0.03198758513 7.618684588e-39
-0.1246190667 -0.3698501885 0.3851706982 7.802712912e-39
-0.09060232341 -0.3415012658 -0.2989831567 7.802712912e-39
0.1166888475 -0.3257119954 -0.3394547105 7.802712912e-39
-0.02530293167 -0.3198086023 -0.1659336239 7.802712912e-39
-0.3526932001 -0.4233237803 -0.3224312067 7.986382503e-39
-0.08597525954 -0.3710103631 0.3840967417 7.986382503e-39
-0.07309396565 -0.3713971078 0.3837387562 7.986382503e-39
-0.1428299844 -0.355492413 -0.3349753618 7.986382503e-39
-0.299810648 -0.3958165646 -0.2733686864 8.170410826e-39
-0.06438732892 -0.3230652809 -0.06833781302 8.170410826e-39
-0.06426826119 -0.3180101514 -0.007453255355 8.170410826e-39
-0.2349042445 -0.3765186965 -0.01944344863 8.170410826e-39
-0.06441114098 -0.3240762949 -0.08051470667 8.35443915e-39
-0.04733142257 -0.3721705675 0.383022815 8.35443915e-39
-0.06443495303 -0.3250873089 -0.09269160777 8.35443915e-39
-0.01227873378 -0.3141292036 -0.09323011339 8.35443915e-39
-0.06410157681 -0.3109329641 0.07778516412 8.538467473e-39
0.1167126596 -0.3247009814 -0.3272778094 8.538467473e-39
-0.1117139608 -0.3692258894 0.3969896138 8.538467473e-39
-0.0123501718 -0.3171622753 -0.1297608763 8.538467473e-39
-0.2349280566 -0.3775297403 -0.03162034974 8.722137064e-39
-0.06486357749 -0.3432857692 -0.3118760288 8.722137064e-39
-0.05202994868 -0.3456945121 -0.3365877867 8.722137064e-39
0.103855148 -0.3233032227 -0.3147429228 8.722137064e-39
-0.01239779778 -0.3191843331 -0.1541146636 8.906165387e-39
-0.07307015359 -0.3703860939 0.3959156573 8.906165387e-39
-0.01258829981 -0.3272725344 -0.2515299916 8.906165387e-39
-0.2479283661 -0.3821981251 -0.09214692563 8.906165387e-39
0.1295939237 -0.3250876963 -0.3276357949 9.089834978e-39
0.03877004981 -0.3358966112 -0.3382002413 9.089834978e-39
-0.05138700455 -0.3183968663 -0.007811233401 9.089834978e-39
-0.0513631925 -0.3173858523 0.004365663975 9.089834978e-39
-0.03914868832 -0.3460812569 -0.3369457722 9.273863302e-39
0.10387896 -0.3222921789 -0.3025659919 9.273863302e-39
0.09104533494 -0.3198834062 -0.2778542042 9.273863302e-39
-0.05122031644 -0.311319679 0.07742717862 9.273863302e-39
0.05165136606 -0.3362833261 -0.3385582268 9.457532893e-39
0.000769212842 -0.307438761 -0.00834974274 9.457532893e-39
-0.2219991386 -0.3758944273 -0.007624529302 9.457532893e-39
-0.142841965 -0.3417108059 -0.01926909015 9.457532893e-39
-0.1426514685 -0.3336226046 0.07814621925 9.641561216e-39
-0.09068574756 -0.3307527006 -0.01980759948 9.641561216e-39
-0.09066193551 -0.3297416866 -0.007630702108 9.641561216e-39
-0.2479759902 -0.3842201829 -0.1165007502 9.641561216e-39
-0.1429134011 -0.3447438776 -0.05579984561 9.825230807e-39
-0.1429372132 -0.3457549214 -0.06797674298 9.825230807e-39
-0.09056667984 -0.3256976008 0.04107695445 9.825230807e-39
0.0003643967211 -0.3246261775 -0.2153571993 9.825230807e-39
-0.2609763145 -0.3888885677 -0.1770273298 1.000925913e-38
-0.2090464383 -0.3732480705 0.02854825184 1.000925913e-38
-0.339835763 -0.4247215092 -0.3349660933 1.000925913e-38
-0.0384581238 -0.3167615533 0.01618464664 1.000925913e-38
0.01338853315 -0.3189467788 -0.1426537186 1.019292872e-38
0.0135314092 -0.3128806353 -0.06959227473 1.019292872e-38
-0.1431277245 -0.3538430929 -0.1653920263 1.019292872e-38
0.01334090903 -0.3209688067 -0.1670075506 1.019292872e-38
-0.1431515366 -0.3548541367 -0.1775689274 1.037659831e-38
0.01331709698 -0.3219798505 -0.1791844517 1.037659831e-38
-0.1431753486 -0.3558651507 -0.1897458434 1.037659831e-38
-0.2084985673 -0.3785687685 -0.3349722624 1.037659831e-38
-0.0910667479 -0.3469291031 -0.2146381587 1.056062664e-38
0.09029515088 -0.3374435306 -0.3396321535 1.056062664e-38
-0.2090940624 -0.3752701283 0.004194390029 1.056062664e-38
-0.1432944089 -0.3609202802 -0.2506304085 1.056062664e-38
0.03891292959 -0.3298304677 -0.2651388049 1.074429623e-38
-0.02545779943 -0.3120931387 0.07671122253 1.074429623e-38
-0.02562448755 -0.319170326 -0.008527189493 1.074429623e-38
-0.02560067549 -0.318159312 0.003649711609 1.074429623e-38
0.1031764001 -0.3378302455 -0.339990139 1.092796582e-38
0.02634122968 -0.316300422 -0.1064809784 1.092796582e-38
-0.143389672 -0.364964366 -0.2993380427 1.092796582e-38
-0.09123343974 -0.3540062606 -0.2998765409 1.092796582e-38
-0.02550542355 -0.3141151965 0.05235736445 1.111163541e-38
-0.1961175352 -0.3716127574 0.05254406855 1.111163541e-38
-0.2091178745 -0.3762811422 -0.007982507348 1.111163541e-38
-0.2610477507 -0.3919216394 -0.213558048 1.111163541e-38
-0.1434372962 -0.3669864237 -0.3236918449 1.1295305e-38
0.02619835362 -0.3223665655 -0.1795424223 1.1295305e-38
-0.2477734983 -0.3899135888 -0.3347917199 1.1295305e-38
-0.01257647574 -0.3124798834 0.07635325193 1.1295305e-38
0.03948443383 -0.3055658937 0.02710707858 1.147897319e-38
-0.1956172884 -0.3789555132 -0.3353302479 1.147897319e-38
0.02617453784 -0.3233775795 -0.1917193532 1.147897319e-38
0.02615072578 -0.3243885934 -0.2038962543 1.147897319e-38
0.05179424584 -0.3302171826 -0.2654967606 1.166264278e-38
-0.209582299 -0.3817089498 0.07636250556 1.166264278e-38
-0.06554232538 -0.3578127921 -0.3371232152 1.166264278e-38
0.03898436576 -0.3267973959 -0.2286080569 1.166264278e-38
-0.1961651593 -0.3736348152 0.02819026634 1.184631237e-38
0.1289389879 -0.3386037052 -0.3407060802 1.184631237e-38
0.03900817782 -0.325786382 -0.216431126 1.184631237e-38
0.06467550993 -0.3306039274 -0.2658547461 1.184631237e-38
0.03919868171 -0.3176981807 -0.1190158576 1.202998196e-38
-0.2091654986 -0.3783032 -0.03233630583 1.202998196e-38
0.03903198987 -0.3247753382 -0.2042542398 1.202998196e-38
0.03938917816 -0.3096099794 -0.02160057425 1.202998196e-38
0.06469932199 -0.3295929134 -0.253677845 1.221365155e-38
-0.2091893107 -0.379314214 -0.0445132032 1.221365155e-38
0.05231812596 -0.3079746664 0.002395242453 1.221365155e-38
-0.1434492767 -0.3532047868 -0.007985595614 1.221365155e-38
-0.0397798121 -0.3585862517 -0.3378391862 1.239732115e-38
-0.1434730887 -0.3542158008 -0.02016249299 1.239732115e-38
-0.2092131227 -0.380325228 -0.05669016391 1.239732115e-38
0.05198474228 -0.3221289814 -0.1680814922 1.239732115e-38
0.0520561859 -0.3190959096 -0.1315507591 1.258099074e-38
0.05207999796 -0.3180848956 -0.1193738282 1.258099074e-38
-0.2481664866 -0.3923083842 -0.2139160335 1.258099074e-38
0.05212762207 -0.3160628378 -0.09502001107 1.258099074e-38
0.05215143412 -0.3150518239 -0.08284310997 1.276466033e-38
-0.143568337 -0.3582599163 -0.06887014955 1.276466033e-38
-0.09129305184 -0.3422467113 -0.008524104953 1.276466033e-38
0.0522704944 -0.3099966943 -0.02195855416 1.276466033e-38
0.06477075815 -0.3265598416 -0.2171470821 1.294832852e-38
-0.09143593162 -0.3483128548 -0.08158555627 1.294832852e-38
0.03894855827 -0.3140268028 0.07492133975 1.294832852e-38
0.09043803066 -0.331377387 -0.2665707171 1.294832852e-38
-0.2222134471 -0.3849936426 -0.1172167063 1.313163938e-38
-0.09124542773 -0.3402246535 0.01582975313 1.313163938e-38
-0.2092369348 -0.3813362718 -0.06886705756 1.313163938e-38
-0.1436873972 -0.363315016 -0.1297547072 1.313163938e-38
-0.0915311873 -0.3523569405 -0.1302932203 1.331530897e-38
-0.1437112093 -0.3643260598 -0.1419315934 1.331530897e-38
-0.03897017986 -0.3242114186 0.07617580891 1.331530897e-38
-0.1437350214 -0.3653370738 -0.1541084945 1.331530897e-38
-0.261238277 -0.4000098407 -0.310973376 1.349897856e-38
-0.1832838953 -0.3740215302 0.0278322883 1.349897856e-38
0.129010424 -0.3355706334 -0.3041753769 1.349897856e-38
-0.1438064575 -0.3683701456 -0.1906392574 1.349897856e-38
-0.09165024757 -0.35741207 -0.1911777705 1.368228942e-38
-0.2482141256 -0.3943304121 -0.2382698506 1.368228942e-38
0.076782763 -0.3495618105 -0.340167582 1.368228942e-38
-0.01401722804 -0.3593597114 -0.3385551274 1.368228942e-38
0.06512794644 -0.3113944829 -0.03449343145 1.386595901e-38
-0.1438540816 -0.3703922033 -0.2149930447 1.386595901e-38
-0.2222610712 -0.3870157003 -0.1415705383 1.386595901e-38
-0.09172168374 -0.3604451418 -0.2277084887 1.386595901e-38
0.06508032233 -0.3134165108 -0.05884728581 1.404926846e-38
0.06510413438 -0.3124054968 -0.04667033255 1.404926846e-38
-0.2482379377 -0.3953414559 -0.2504467964 1.404926846e-38
-0.2482617497 -0.3963524699 -0.2626236975 1.404926846e-38
-0.1963080317 -0.3797009587 -0.04487118497 1.423293806e-38
-0.1439493299 -0.3744362891 -0.2637007236 1.423293806e-38
-0.09179311991 -0.3634782135 -0.2642392218 1.423293806e-38
0.0517822504 -0.3164355755 0.05020949617 1.423293806e-38
-0.09181693196 -0.3644892275 -0.2764161229 1.441624891e-38
0.08966402709 -0.3499485552 -0.3405255675 1.441624891e-38
0.1033668965 -0.3297420442 -0.2425748557 1.441624891e-38
-0.07824510336 -0.3355562389 0.07635633647 1.441624891e-38
0.1290342361 -0.3345596194 -0.2919984758 1.459991851e-38
-0.09184074402 -0.3655002713 -0.2885930538 1.459991851e-38
-0.0132075958 -0.3249848783 0.07545983791 1.459991851e-38
-0.2093083709 -0.3843693435 -0.1053977907 1.459991851e-38
0.1162244081 -0.3311398327 -0.2551097572 1.478322936e-38
0.1290580481 -0.3335485756 -0.2798215449 1.478322936e-38
-0.2484046221 -0.4024186134 -0.3356851339 1.478322936e-38
0.1025452763 -0.3503352702 -0.3408835232 1.478322936e-38
0.07756858319 -0.3161980212 0.06167043373 1.496689755e-38
0.07786633074 -0.3178473413 -0.1079128906 1.496689755e-38
0.1290818602 -0.3325375617 -0.2676446438 1.496689755e-38
-0.209332183 -0.3853803575 -0.1175746918 1.496689755e-38
0.07791395485 -0.3158252835 -0.08355906606 1.515020841e-38
-0.1963556558 -0.3817230165 -0.06922504306 1.515020841e-38
0.06463970244 -0.317833364 0.03767461702 1.515020841e-38
-0.1833791435 -0.3780656159 -0.02087536454 1.515020841e-38
0.1162720323 -0.329117775 -0.2307559252 1.533351927e-38
-0.301191926 -0.4258817136 -0.33604002 1.533351927e-38
0.09044984728 -0.3165847659 0.06131245568 1.533351927e-38
-0.1439137161 -0.3586325943 0.07635942101 1.533351927e-38
0.103354916 -0.3159604371 0.07313144207 1.551683013e-38
-0.2223801315 -0.3920708001 -0.2024550885 1.551683013e-38
0.09084284306 -0.3141899705 -0.0595632419 1.551683013e-38
0.02462654188 -0.360519886 -0.3396290541 1.551683013e-38
-0.2224992067 -0.3971259296 -0.2633396387 1.570049832e-38
0.07749714702 -0.3192310929 0.02513973787 1.570049832e-38
0.06456826627 -0.3208664358 0.001143861562 1.570049832e-38
-0.2225944549 -0.4011700451 -0.3120473027 1.570049832e-38
-0.1441280246 -0.3677318394 -0.03323279321 1.588380918e-38
-0.1440089643 -0.3626767099 0.02765176073 1.588380918e-38
-0.170485884 -0.3922339678 -0.3369396031 1.588380918e-38
-0.2094988674 -0.392457515 -0.2028130591 1.588380918e-38
0.1291175038 -0.3167338967 0.07241548598 1.606712004e-38
0.1154742241 -0.3486999869 -0.3168877065 1.606712004e-38
-0.1442232728 -0.3717759252 -0.08194044977 1.606712004e-38
-0.2095465064 -0.3944795728 -0.2271668911 1.606712004e-38
-0.09209086001 -0.3618288636 -0.09465585649 1.625043089e-38
-0.1442708969 -0.3737979829 -0.1062942743 1.625043089e-38
0.1161886007 -0.3183692396 0.04841960594 1.625043089e-38
-0.09185273945 -0.3517186344 0.02711324766 1.625043089e-38
-0.144294709 -0.3748089969 -0.1184711754 1.643374035e-38
-0.2882868648 -0.4252574146 -0.3242211044 1.643374035e-38
-0.0918289274 -0.3507076204 0.03929014876 1.643374035e-38
0.1163672954 -0.3250736892 -0.1820482761 1.643374035e-38
-0.09216230363 -0.3648619354 -0.1311866194 1.661705121e-38
-0.2096417546 -0.3985236585 -0.2758745253 1.661705121e-38
-0.1964985281 -0.38778916 -0.1422864944 1.661705121e-38
-0.1443423331 -0.3768310547 -0.1428250074 1.661705121e-38
-0.09218611568 -0.3658729792 -0.1433635056 1.680036207e-38
-0.2096893787 -0.4005457163 -0.3002283573 1.680036207e-38
0.1161647886 -0.3193802834 0.03624270484 1.680036207e-38
-0.1965461522 -0.389811188 -0.1666403264 1.680036207e-38
-0.1444137692 -0.3798641264 -0.1793557256 1.698367293e-38
-0.09225755185 -0.3689060509 -0.1798942387 1.698367293e-38
0.1290698647 -0.3187559545 0.04806162789 1.698367293e-38
-0.1965937763 -0.3918332458 -0.1909941435 1.698367293e-38
0.06327039003 -0.3616800904 -0.3407030106 1.716698239e-38
-0.1966175884 -0.3928442597 -0.2031710446 1.716698239e-38
-0.1444613934 -0.3818861544 -0.2037095577 1.716698239e-38
-0.09230518341 -0.3709280789 -0.2042480707 1.716698239e-38
-0.02672003955 -0.3371031582 0.07492442429 1.735029324e-38
0.1161409765 -0.3203912973 0.02406580374 1.735029324e-38
-0.09235280752 -0.3729501367 -0.2286018878 1.735029324e-38
0.1032120287 -0.3220266104 6.992742419e-05 1.735029324e-38
-0.1445804536 -0.3869412839 -0.2645941079 1.75336041e-38
0.1164149195 -0.3230516315 -0.157694459 1.75336041e-38
0.1161171645 -0.3214023113 0.01188891008 1.75336041e-38
-0.1446280777 -0.3889633417 -0.2889479399 1.75336041e-38
-0.0924718678 -0.3780052662 -0.289486438 1.771655483e-38
-0.1836410761 -0.3891868889 -0.1548213661 1.771655483e-38
-0.2490119338 -0.4139125943 -0.3244016469 1.771655483e-38
-0.1968795359 -0.4039655328 -0.3371170461 1.771655483e-38
0.09025934339 -0.3246729672 -0.03610279411 1.789986569e-38
0.1289746165 -0.32280007 -0.0006460286677 1.789986569e-38
-0.1580333859 -0.3822448552 0.08710749447 1.789986569e-38
0.1289508045 -0.323811084 -0.01282292977 1.789986569e-38
-0.2361544967 -0.4153103232 -0.3369365036 1.808317654e-38
-0.1580571979 -0.3832558692 0.07493059337 1.808317654e-38
0.1030929685 -0.3270817101 -0.06081462651 1.808317654e-38
0.02399542183 -0.3730249107 -0.3405224681 1.808317654e-38
-0.1711290032 -0.3909573555 -0.02212674357 1.826612727e-38
-0.1581048369 -0.3852779269 0.05057672784 1.826612727e-38
-0.1446639001 -0.3761927485 0.01458146051 1.826612727e-38
-0.1447115242 -0.3782148063 -0.009772401303 1.826612727e-38
0.1288793683 -0.3268441558 -0.04935362563 1.844943813e-38
-0.1448543966 -0.3842809498 -0.08283385634 1.844943813e-38
-0.09267435968 -0.3723118305 -0.07119546086 1.844943813e-38
0.03687668592 -0.3734116554 -0.3408804536 1.844943813e-38
0.1030453444 -0.3291037679 -0.08516842127 1.863274899e-38
-0.04104205221 -0.3835962713 -0.3396259844 1.863274899e-38
0.1285459995 -0.3409985006 -0.2198303789 1.863274899e-38
-0.09260292351 -0.3692787588 -0.0346647054 1.863274899e-38
-0.1711528152 -0.3919683993 -0.03430364281 1.881569971e-38
-0.0925552994 -0.367256701 -0.01031091064 1.881569971e-38
-0.1449258327 -0.3873140216 -0.1193645746 1.881569971e-38
0.1413676292 -0.3296256363 0.07116410136 1.881569971e-38
-0.09279341996 -0.3773669302 -0.1320800185 1.899901057e-38
-0.09248385578 -0.3642236292 0.02621984854 1.899901057e-38
-0.1715934277 -0.3963852227 0.06221820042 1.899901057e-38
-0.1449972689 -0.3903470933 -0.1558953077 1.899901057e-38
0.128438741 -0.3312609494 0.04716822132 1.91819627e-38
0.1285698116 -0.3399874568 -0.2076534927 1.91819627e-38
-0.1711766273 -0.3929794133 -0.04648054391 1.91819627e-38
-0.145044893 -0.3923691511 -0.1802491248 1.91819627e-38
0.1413438171 -0.3306366801 0.05898714438 1.936527215e-38
0.04975800216 -0.3737983704 -0.3412384391 1.936527215e-38
-0.2103919387 -0.4160837829 -0.3376524746 1.936527215e-38
0.1277243644 -0.3615916967 -0.318139106 1.936527215e-38
-0.1451163292 -0.3954022229 -0.2167798579 1.954822428e-38
-0.1451401412 -0.3964132369 -0.2289567888 1.954822428e-38
0.1285936236 -0.3389764428 -0.1954765916 1.954822428e-38
-0.1451877654 -0.3984352946 -0.2533106208 1.954822428e-38
-0.09305536747 -0.3884882033 -0.2660260201 1.973153514e-38
-0.09307917953 -0.3894992173 -0.2782029212 1.973153514e-38
-0.09310299158 -0.3905102611 -0.2903798521 1.973153514e-38
-0.1716648787 -0.3994182944 0.02568750456 1.973153514e-38
-0.0931982398 -0.3945543468 -0.3390874863 1.991448586e-38
0.1283673048 -0.3342940211 0.01063752547 1.991448586e-38
0.08921141922 -0.3405837417 0.07170261443 1.991448586e-38
-0.1712480634 -0.396012485 -0.08301129937 1.991448586e-38
0.1286412477 -0.336954385 -0.1711227596 2.009743799e-38
-0.1712956876 -0.3980345428 -0.1073651239 2.009743799e-38
-0.08031697571 -0.3949410617 -0.339445442 2.009743799e-38
-0.1582715213 -0.3923551142 -0.03466162086 2.009743799e-38
-0.1713433117 -0.4000565708 -0.1317189485 2.028074885e-38
0.1286888719 -0.3349323571 -0.1467689276 2.028074885e-38
-0.1846293956 -0.4168572426 -0.3383684158 2.028074885e-38
-0.1715099961 -0.4071337581 -0.2169573009 2.028074885e-38
-0.1584143937 -0.3984212577 -0.107723102 2.046369957e-38
0.4196961522 -0.03299960867 0.09931135178 2.046369957e-38
0.4068387151 -0.03160185367 0.1118462235 2.046369957e-38
-0.05374480039 -0.3613396883 0.07385356724 2.046369957e-38
-0.2238804996 -0.4271910489 -0.3260110021 2.06466517e-38
-0.1587835848 -0.3998050094 0.02532952651 2.06466517e-38
0.4197675884 -0.02996653691 0.1358420551 2.06466517e-38
0.4069101512 -0.02856877819 0.1483769864 2.06466517e-38
0.4069339633 -0.02755775675 0.1605538726 2.082996116e-38
-0.1588073969 -0.4008160233 0.01315263286 2.082996116e-38
-0.09337691963 -0.3878499269 -0.1086195931 2.082996116e-38
-0.0932578519 -0.3827947974 -0.04773500934 2.082996116e-38
-0.09340073168 -0.3888609409 -0.1207964867 2.101291328e-38
-0.1587239653 -0.4115645587 -0.2660229504 2.101291328e-38
-0.1587715894 -0.4135866165 -0.2903767824 2.101291328e-38
0.4069815874 -0.02553571016 0.1849076748 2.101291328e-38
-0.09347216785 -0.3918940127 -0.1573272198 2.119586541e-38
-0.2109992355 -0.4275777638 -0.3263689876 2.119586541e-38
-0.1718553752 -0.4075064957 -0.07172780484 2.119586541e-38
-0.09354360402 -0.3949270844 -0.1938579679 2.119586541e-38
-0.2110230476 -0.4285888374 -0.3385458887 2.137881613e-38
-0.1588668376 -0.4176307023 -0.3390843868 2.137881613e-38
0.1406888813 -0.3441527188 0.04591684416 2.137881613e-38
0.4199342728 -0.02288936451 0.2210804522 2.137881613e-38
-0.09363885224 -0.3989711702 -0.2425656021 2.156176826e-38
-0.09375791997 -0.4040262997 -0.3034501374 2.156176826e-38
-0.1589026451 -0.4048601389 -0.03555502743 2.156176826e-38
-0.002219701186 -0.3628866076 0.07242165506 2.156176826e-38
-0.09378173202 -0.4050373435 -0.3156270683 2.174471899e-38
0.06200814992 -0.38669011 -0.3424898088 2.174471899e-38
-0.1459855735 -0.418017447 -0.3394423723 2.174471899e-38
-0.1719744354 -0.4125615954 -0.1326123625 2.174471899e-38
-0.06725718081 -0.373457998 0.07331815362 2.192767111e-38
0.02354281396 -0.3636600673 0.07170569897 2.192767111e-38
0.128033936 -0.3484483659 -0.1598392427 2.192767111e-38
-0.1589740813 -0.4078932106 -0.07208578289 2.192767111e-38
0.4190888405 -0.04449360818 0.1105948463 2.211062324e-38
-0.1590455174 -0.4109262824 -0.1086165085 2.211062324e-38
0.4062314034 -0.0430958569 0.1231297255 2.211062324e-38
-0.1590693295 -0.4119372964 -0.1207934022 2.211062324e-38
-0.06806681305 -0.4078328311 -0.3406968415 2.229357396e-38
-0.05475692451 -0.3900211155 -0.1218704283 2.229357396e-38
-0.1591645777 -0.4159813821 -0.1695010662 2.229357396e-38
-0.0543997325 -0.3748557568 0.06078320369 2.229357396e-38
-0.05485217273 -0.3940652013 -0.1705780774 2.247652609e-38
-0.1592122018 -0.4180034399 -0.1938548833 2.247652609e-38
0.4063028395 -0.04006278142 0.1596604884 2.247652609e-38
-0.1592360139 -0.4190144539 -0.2060317844 2.247652609e-38
-0.0545187965 -0.3799108863 -0.0001013465226 2.265947681e-38
0.1400697529 -0.3704393506 -0.2706828415 2.265947681e-38
-0.05449498445 -0.3788998425 0.01207561418 2.265947681e-38
-0.05494742468 -0.3981093168 -0.2192856967 2.265947681e-38
0.4063266516 -0.03905175626 0.1718373746 2.284242894e-38
-0.05442354456 -0.3758667707 0.04860631004 2.284242894e-38
0.4192079008 -0.0394384861 0.171479404 2.284242894e-38
-0.05497123674 -0.3991203308 -0.2314626276 2.284242894e-38
0.4192317128 -0.03842746466 0.1836563051 2.302537966e-38
-0.04192329198 -0.3924299181 -0.1465822309 2.302537966e-38
0.4063980877 -0.03601868451 0.2083681375 2.302537966e-38
0.4192793369 -0.03640541434 0.208010152 2.302537966e-38
-0.1594503373 -0.4281136692 -0.3156239986 2.320833179e-38
-0.04230429232 -0.4086062908 -0.3414127827 2.320833179e-38
0.1400577575 -0.3566577137 0.04502343759 2.320833179e-38
-0.0420185402 -0.3964740038 -0.19528988 2.320833179e-38
0.07506791502 -0.3652069867 0.07027378678 2.339092378e-38
-0.04166135192 -0.381308645 -0.01263622567 2.339092378e-38
-0.04156609997 -0.3772645593 0.03607143089 2.339092378e-38
0.1404507607 -0.3542629778 -0.07585226744 2.339092378e-38
-0.04163753614 -0.380297631 -0.0004593245685 2.348204041e-38
-0.04213760421 -0.4015291333 -0.2561744452 2.348204041e-38
-0.0157558918 -0.3760159612 0.05970926955 2.348204041e-38
0.04849576205 -0.3988083601 -0.3430252373 2.348204041e-38
-0.02942303382 -0.4089930058 -0.3417707682 2.348132155e-38
-0.0422090441 -0.4045622051 -0.2927051783 2.348132155e-38
0.08794917911 -0.3655937314 0.06991581619 2.348132155e-38
-0.08100771904 -0.3956865072 -0.04898639023 2.348132155e-38
-0.0812458396 -0.4057967365 -0.1707555205 2.348060128e-38
-0.02906584367 -0.393827647 -0.1591171026 2.348060128e-38
-0.08126965165 -0.4068077803 -0.1829324216 2.348060128e-38
-0.09443666786 -0.4185533524 -0.3286973834 2.348060128e-38
-0.0291372817 -0.3968607187 -0.1956478655 2.347952368e-38
-0.00287463516 -0.3764026761 0.05935129151 2.347952368e-38
-0.09446047992 -0.4195643663 -0.3408742845 2.347952368e-38
-0.08131728321 -0.4088298082 -0.2072862536 2.347952368e-38
-0.08081721514 -0.3875983059 0.04842885956 2.347880341e-38
-0.08076959103 -0.3855762482 0.0727827251 2.347880341e-38
0.1399863213 -0.3596907854 0.008492741734 2.347880341e-38
-0.02918490581 -0.3988827765 -0.2200016528 2.347880341e-38
-0.01654171199 -0.4093797505 -0.3421287537 2.347808455e-38
-0.08138871938 -0.41186288 -0.2438169718 2.347808455e-38
0.1393433809 -0.386988461 -0.3202838898 2.347808455e-38
-0.08143635094 -0.4138849378 -0.2681708038 2.347808455e-38
-0.06826930493 -0.4021393955 -0.1224058568 2.347700555e-38
-0.02932778373 -0.40494892 -0.293063134 2.347700555e-38
0.4184339345 -0.05800962448 0.09752454609 2.347700555e-38
-0.06836455315 -0.4061834812 -0.171113506 2.347700555e-38
-0.01623214781 -0.3962364495 -0.1838289201 2.347628668e-38
0.4184577465 -0.05699860305 0.1097014397 2.347628668e-38
-0.06807880104 -0.3940511942 -0.0249905698 2.347628668e-38
-0.003660453483 -0.4097664654 -0.3424867094 2.347628668e-38
0.00998281315 -0.3778004348 0.04681641981 2.347520768e-38
-0.06805498898 -0.3930401802 -0.01281367242 2.347520768e-38
0.1402126402 -0.3643732071 -0.1976213753 2.347520768e-38
-0.06791211665 -0.3869740367 0.06024778262 2.347520768e-38
-0.01627977192 -0.3982584774 -0.2081827372 2.347448882e-38
-0.01611308381 -0.39118132 -0.1229443699 2.347448882e-38
-0.06800736487 -0.3910181224 0.01154018566 2.347448882e-38
-0.01608926989 -0.390170306 -0.1107674688 2.347448882e-38
-0.06798355281 -0.3900071084 0.02371708676 2.347340982e-38
-0.01606545784 -0.3891592622 -0.09859053791 2.347340982e-38
-0.01630358398 -0.3992695212 -0.2203596383 2.347340982e-38
-0.06795974076 -0.3889960945 0.03589398786 2.347340982e-38
-0.002946073189 -0.3794357479 0.02282059565 2.347269095e-38
-0.0679359287 -0.3879850507 0.04807088152 2.347269095e-38
-0.01635120995 -0.4012915492 -0.2447134703 2.347269095e-38
-0.06855505705 -0.4142716825 -0.2685287893 2.347269095e-38
0.139391005 -0.3849664032 -0.2959300578 2.347161195e-38
0.1402364522 -0.3633621931 -0.1854444444 2.347161195e-38
-0.0685788691 -0.4152826965 -0.2807056904 2.347161195e-38
-0.01644646004 -0.4053356647 -0.2934211195 2.347161195e-38
0.009220805019 -0.4101532102 -0.3428446949 2.347089308e-38
-0.06860268116 -0.4162937403 -0.2928826213 2.347089308e-38
-0.06865030527 -0.418315798 -0.3172364235 2.347089308e-38
-0.003279451281 -0.3935900927 -0.1476561576 2.347089308e-38
-0.00342232734 -0.3996562362 -0.2207176089 2.346981408e-38
-0.003255637363 -0.3925790489 -0.1354792714 2.346981408e-38
0.04865045846 -0.3779495955 0.05791937932 2.346981408e-38
-0.003160387278 -0.3885349631 -0.0867716074 2.346981408e-38
-0.003017511219 -0.3824688196 -0.01371015981 2.346909522e-38
-0.003493765369 -0.4026893079 -0.2572483718 2.346909522e-38
-0.003541391343 -0.4047113359 -0.281602174 2.346909522e-38
0.03569770604 -0.3805959523 0.02174666151 2.346909522e-38
0.1394624412 -0.3819333315 -0.2593993247 2.346801622e-38
-0.04293541238 -0.4211112857 -0.3423061967 2.346801622e-38
0.009458933026 -0.4000429809 -0.2210755944 2.346801622e-38
0.06150791049 -0.3793473542 0.04538450018 2.346801622e-38
0.009649433196 -0.3919547796 -0.1236603111 2.346693862e-38
0.02217350155 -0.4075068533 -0.3066719472 2.346693862e-38
0.009387496859 -0.4030760527 -0.2576063573 2.346693862e-38
0.04857902229 -0.3809826672 0.02138868347 2.346693862e-38
0.009720873088 -0.3889217079 -0.0871295929 2.346621835e-38
0.02274500579 -0.3832422793 -0.0144261159 2.346621835e-38
0.009816125035 -0.3848776221 -0.03842193633 2.346621835e-38
0.03565008193 -0.38261801 -0.002607192844 2.346621835e-38
-0.08173409104 -0.4122356176 -0.09858744591 2.346514075e-38
0.07438916713 -0.3797340691 0.04502652213 2.346514075e-38
0.1397720128 -0.3687900007 -0.1010994613 2.346514075e-38
-0.08166265488 -0.4092025459 -0.06205675006 2.346514075e-38
-0.03005415387 -0.4214980006 -0.3426641822 2.346406175e-38
0.04855521023 -0.3819936812 0.009211782366 2.346406175e-38
-0.08161502331 -0.4071805179 -0.0377028957 2.346406175e-38
-0.08140070736 -0.3980812728 0.07188931108 2.346406175e-38
-0.0815673992 -0.4051584601 -0.01334909722 2.346334289e-38
-0.08151977509 -0.4031364024 0.01100476459 2.346334289e-38
0.03562626988 -0.383629024 -0.01478409395 2.346334289e-38
-0.08149595559 -0.4021253884 0.02318165824 2.346334289e-38
-0.03003033996 -0.4204869866 -0.3304872811 2.346226389e-38
0.02234018967 -0.4004296958 -0.221433565 2.346226389e-38
-0.08144833148 -0.4001033306 0.04753546044 2.346226389e-38
0.02236400172 -0.3994186521 -0.2092566788 2.346226389e-38
0.04853139818 -0.383004725 -0.002965174615 2.346118629e-38
0.4049215615 -0.07012788951 0.09698912501 2.346118629e-38
0.02245925367 -0.3953745663 -0.1605490148 2.346118629e-38
0.0222687535 -0.4034627676 -0.2579643428 2.346118629e-38
-0.06851942092 -0.3984680176 0.07153134048 2.346010729e-38
0.03560245037 -0.384640038 -0.02696099132 2.346010729e-38
-0.06897185743 -0.4176774919 -0.1598299742 2.346010729e-38
0.08724661916 -0.3811318576 0.03249165043 2.346010729e-38
-0.06892423332 -0.4156554341 -0.1354761869 2.345938842e-38
0.04793607444 -0.408280313 -0.3073879182 2.345938842e-38
0.03557863832 -0.3856510818 -0.03913789243 2.345938842e-38
-0.06880517304 -0.4106003344 -0.07459162921 2.345938842e-38
0.1395577043 -0.3778892159 -0.2106916755 2.345830942e-38
0.073627159 -0.4120868444 -0.3446345925 2.345830942e-38
0.06138885021 -0.3844024837 -0.01550005376 2.345830942e-38
-0.004291573539 -0.4222714603 -0.3433801234 2.345830942e-38
-0.06859085709 -0.4015011191 0.03500058129 2.345723183e-38
0.07429391891 -0.3837781847 -0.003681130707 2.345723183e-38
0.04845995456 -0.3860377967 -0.03949587047 2.345723183e-38
-0.004267761484 -0.4212604463 -0.3312032223 2.345723183e-38
0.06136503071 -0.3854134977 -0.02767695114 2.345615283e-38
0.03538814187 -0.3937392533 -0.1365531981 2.345615283e-38
0.04804315418 -0.3894435465 0.06920294464 2.345615283e-38
0.0355310142 -0.3876731098 -0.06349174678 2.345615283e-38
-0.069257617 -0.4298097789 -0.3059529066 2.345507523e-38
0.06084115803 -0.4076560438 -0.2955690026 2.345507523e-38
-0.06930524111 -0.4318318069 -0.3303067386 2.345507523e-38
0.1396053284 -0.375867188 -0.1863378435 2.345507523e-38
0.1388193369 -0.3806567192 0.055413533 2.345399623e-38
0.04803133011 -0.4042362273 -0.258680284 2.345399623e-38
0.008613497019 -0.421647191 -0.3315612078 2.345399623e-38
0.1392123252 -0.3782619238 -0.06546217203 2.345399623e-38
0.06131740659 -0.3874355555 -0.05203074962 2.345291723e-38
0.04810276628 -0.4012031555 -0.222149536 2.345291723e-38
0.1387955099 -0.3816677332 0.0432366319 2.345291723e-38
0.04829327017 -0.3931149542 -0.1247342527 2.345291723e-38
0.112270996 -0.4132470489 -0.3457085192 2.345219836e-38
0.04834089428 -0.3910928965 -0.1003804207 2.345219836e-38
0.04836470634 -0.3900818825 -0.08820352703 2.345219836e-38
0.1388075054 -0.3954493403 -0.2724696398 2.345219836e-38
-0.004113063216 -0.4004016519 0.0697414428 2.345111936e-38
0.06093640625 -0.4036119282 -0.2468613386 2.345111936e-38
