# .PCD v0.7 - Point Cloud Data file format
VERSION 0.7
FIELDS x y z rgb
SIZE 4 4 4 4
TYPE F F F F
COUNT 1 1 1 1
WIDTH 837
HEIGHT 1
VIEWPOINT 0 0 0 1 0 0 0
POINTS 837
DATA ascii
-0.1765746772 -0.4239178896 -0.346940279 3.75229193e-39
-0.1975840777 -0.3243120909 0.4654815495 3.75229193e-39
-0.1324076056 -0.4565805793 -0.2866402268 3.75229193e-39
-0.1112172827 -0.4475065172 -0.3454164267 3.75229193e-39
-0.2113993764 -0.2943387926 0.2378536016 3.75229193e-39
-0.2217608541 -0.2718588114 0.06713266671 3.75229193e-39
-0.231961593 -0.2756087482 -0.1749954075 3.936320254e-39
0.2206298262 -0.3337625563 0.006262376904 3.936320254e-39
-0.2154114693 -0.2791639864 0.1902623624 3.936320254e-39
0.09034820646 -0.3668115139 0.06620000303 3.936320254e-39
-0.2291985452 -0.2816033959 -0.1294698417 3.936320254e-39
0.2473462224 -0.3366778493 0.03853733093 3.936320254e-39
0.1767046452 -0.3882829845 0.2915099859 3.936320254e-39
-0.2278170139 -0.2846007347 -0.1067070514 3.936320254e-39
-0.1167642102 -0.4694663286 -0.251365006 4.120708711e-39
0.08594318479 -0.5012226105 -0.2673719525 4.120708711e-39
-0.1980098337 -0.3104478121 0.4954944551 4.120708711e-39
0.2856939733 -0.3373040855 0.05849630758 4.120708711e-39
0.02623979934 -0.3524030149 0.06674177945 4.120708711e-39
-0.1999213994 -0.3321817219 0.3899430931 4.120708711e-39
-0.2080780566 -0.3080149293 0.2740634978 4.120708711e-39
-0.2099688351 -0.2957997024 -0.01659049839 4.120708711e-39
-0.2161022276 -0.2776653171 0.1788809747 4.304737034e-39
-0.2024678439 -0.4163184762 -0.3471367359 4.304737034e-39
0.0369153358 -0.3609809577 0.001650108024 4.304737034e-39
0.3412245512 -0.4447189569 -0.2518015504 4.304737034e-39
-0.2052942067 -0.2800604105 0.1344864219 4.304737034e-39
-0.2046034336 -0.2815590799 0.1458678544 4.304737034e-39
0.3309747577 -0.4500052929 -0.2167227268 4.304737034e-39
-0.1405850649 -0.4663629532 -0.2174171954 4.304737034e-39
-0.2174837589 -0.2746679783 0.1561182141 4.48912409e-39
-0.2105270922 -0.2881182432 -0.00727473665 4.48912409e-39
0.03622457385 -0.3594822884 -0.009731277823 4.48912409e-39
0.03791048378 -0.3478152454 -0.196728617 4.48912409e-39
-0.1856595576 -0.3420701921 0.4024555087 4.48912409e-39
0.2980160415 -0.3365137279 0.0575616993 4.48912409e-39
0.2622988224 -0.348064959 0.06243119016 4.48912409e-39
-0.2062009424 -0.2893909812 -0.1954961419 4.48912409e-39
-0.1968933195 -0.3258107603 0.4768629372 4.673152414e-39
-0.1265190542 -0.3521707952 0.3015468121 4.673152414e-39
-0.1195272654 -0.4634716511 -0.2968905568 4.673152414e-39
0.3480204642 -0.4319392443 -0.3437873125 4.673152414e-39
0.08607110381 -0.3640023172 -0.02278547548 4.673152414e-39
-0.1531656384 -0.3137699664 -0.193037644 4.673152414e-39
0.3419153094 -0.4462175965 -0.2404201478 4.673152414e-39
0.06570403278 -0.3683922291 0.06806923449 4.673152414e-39
0.1141690314 -0.3699149191 0.03225227445 4.857539469e-39
0.19973737 -0.4939211905 -0.2095607817 4.857539469e-39
-0.1849687845 -0.3435688615 0.4138368964 4.857539469e-39
-0.2293310612 -0.2877861857 -0.1501670033 4.857539469e-39
0.3564421535 -0.4437404275 -0.1865134239 4.857539469e-39
-0.1235393435 -0.4482968748 -0.344481796 4.857539469e-39
0.1025377437 -0.3722039461 0.04456827417 4.857539469e-39
-0.1202180311 -0.4619730115 -0.3082719743 4.857539469e-39
-0.2141624391 -0.288344115 0.192328006 5.041567793e-39
0.1010283008 -0.5064269304 -0.2227809727 5.041567793e-39
0.1230372712 -0.3616312146 -0.02558931336 5.041567793e-39
-0.1967608184 -0.3196279407 0.4975600839 5.041567793e-39
0.07305822521 -0.3632940054 -0.03323227167 5.041567793e-39
0.1024098322 -0.5094242096 -0.2000182122 5.041567793e-39
0.2362731844 -0.3466483355 0.04153759405 5.041567793e-39
-0.2068082541 -0.2832459211 0.09102652967 5.041567793e-39
-0.2314033508 -0.2832902074 -0.1843111813 5.225597518e-39
0.3612774909 -0.4542310834 -0.1068436801 5.225597518e-39
-0.2080290616 -0.3064785004 -0.003143434413 5.225597518e-39
0.3721063733 -0.4226770699 -0.336340785 5.225597518e-39
-0.1790587902 -0.306170553 -0.1932340562 5.225597518e-39
-0.2085873038 -0.2987970114 0.006172299385 5.225597518e-39
0.3777442276 -0.4624327421 -0.0394898802 5.225597518e-39
0.3535465896 -0.4439285994 -0.2527361512 5.225597518e-39
-0.1234276593 -0.4760632217 -0.1386820674 5.409984573e-39
-0.03727094829 -0.3433772922 -0.1931865662 5.409984573e-39
0.3439875841 -0.4507136047 -0.2062759697 5.409984573e-39
0.03967839852 -0.3669756055 0.04717570171 5.409984573e-39
-0.1979816109 -0.3428605497 0.4033901393 5.409984573e-39
-0.206117481 -0.2847445905 0.1024079174 5.409984573e-39
0.3200295866 -0.3227555156 0.0308639966 5.409984573e-39
-0.2155439705 -0.2853467762 0.1695652455 5.409984573e-39
-0.2189977914 -0.2778534591 0.1126582623 5.594012897e-39
0.1154226437 -0.5101325512 -0.1895714104 5.594012897e-39
-0.08244938403 -0.4888669252 -0.09389466792 5.594012897e-39
0.2104193568 -0.3367501795 -0.2098132223 5.594012897e-39
0.3542373478 -0.4454272389 -0.2413547635 5.594012897e-39
-0.2033544183 -0.2907392383 0.1479335129 5.594012897e-39
0.3770534694 -0.4609340429 -0.05087132007 5.594012897e-39
0.09090645611 -0.3744929731 0.05688427761 5.594012897e-39
0.374869436 -0.4286717176 -0.2908152342 5.77804122e-39
0.3687642813 -0.4429500699 -0.1874480546 5.77804122e-39
0.1162413284 -0.3744109273 0.06639643013 5.77804122e-39
-0.1388410926 -0.3529611826 0.3024814427 5.77804122e-39
-0.1753256619 -0.4330980182 -0.3448746502 5.77804122e-39
-0.1129479483 -0.3605605662 0.30267784 5.77804122e-39
-0.2054267228 -0.2862432599 0.1137893051 5.77804122e-39
-0.2078965455 -0.3002956808 0.01755368523 5.77804122e-39
-0.2012188137 -0.4254986346 -0.3450710773 5.962428276e-39
0.360342592 -0.4311488867 -0.3447219729 5.962428276e-39
-0.1851013005 -0.3497516513 0.3931397796 5.962428276e-39
-0.1820732355 -0.3433806896 0.4800596237 5.962428276e-39
0.0504864119 -0.3693707287 0.002781143412 5.962428276e-39
-0.1235601678 -0.4822460413 -0.1593791991 5.962428276e-39
-0.1828964949 -0.3480648398 0.4479811192 5.962428276e-39
-0.1468019485 -0.4528749585 -0.3198497891 5.962428276e-39
-0.1215995625 -0.4589756727 -0.3310347497 6.1464566e-39
0.3776324987 -0.4346663952 -0.2452896386 6.1464566e-39
-0.2129134238 -0.2975242734 0.1943936646 6.1464566e-39
0.0115804337 -0.3610630333 -0.007862046361 6.1464566e-39
0.2855614722 -0.3434868753 0.03779913485 6.1464566e-39
-0.1556702107 -0.4611586332 -0.2620081902 6.1464566e-39
0.04910488054 -0.36637339 -0.01998162828 6.1464566e-39
0.378323257 -0.4361650348 -0.2339082658 6.1464566e-39
0.07858434319 -0.3752833307 0.05781889334 6.330484923e-39
0.3556188643 -0.4484245777 -0.2185919583 6.330484923e-39
-0.1959093064 -0.3473565578 0.4375343323 6.330484923e-39
-0.07348370552 -0.3765497804 0.3040053248 6.330484923e-39
-0.08175861835 -0.4903655946 -0.08251328021 6.330484923e-39
0.3563096225 -0.4499232471 -0.2072105706 6.330484923e-39
0.3742904067 -0.4549393952 -0.09639685601 6.330484923e-39
-0.2191303074 -0.2840362787 0.0919611454 6.330484923e-39
-0.2260097265 -0.3014623523 -0.113957122 6.514514648e-39
0.3844284415 -0.4218867123 -0.3372754157 6.514514648e-39
0.3666711152 -0.4724032283 -0.03648961335 6.514514648e-39
0.3624148667 -0.435644865 -0.3105777502 6.514514648e-39
0.3803955615 -0.4406610727 -0.1997640431 6.514514648e-39
0.09169922769 -0.4029956758 0.3001179397 6.514514648e-39
-0.1837197691 -0.3527489901 0.415902555 6.514514648e-39
0.3631056547 -0.4371435642 -0.2991963625 6.514514648e-39
-0.1994956434 -0.3460460007 0.3599301875 6.698542971e-39
0.07927510887 -0.3767820001 0.06920027733 6.698542971e-39
0.207091555 -0.4888229668 -0.3108623028 6.698542971e-39
0.192006439 -0.4836186767 -0.3554532528 6.698542971e-39
0.3659803569 -0.4709045589 -0.04787105322 6.698542971e-39
-0.220483616 -0.3134516776 -0.0229059644 6.698542971e-39
-0.1988048851 -0.3475446701 0.3713115752 6.698542971e-39
-0.2184395343 -0.2855349481 0.1033425331 6.698542971e-39
-0.1584332734 -0.4551639557 -0.3075337708 6.882571295e-39
-0.2209093571 -0.299587369 0.007106915116 6.882571295e-39
-0.2294635475 -0.2939690351 -0.1708641052 6.882571295e-39
0.03609206155 -0.3656650782 -0.03042842448 6.882571295e-39
0.3590726852 -0.4559178948 -0.1616849899 6.882571295e-39
-0.1357497126 -0.4768536091 -0.1377474517 6.882571295e-39
-0.1876477152 -0.4338884056 -0.3439400196 6.882571295e-39
0.3871915042 -0.4278813601 -0.291749835 6.882571295e-39
-0.2156764716 -0.2915296257 0.1488681287 7.066599618e-39
-0.08580578864 -0.377340138 0.3049399257 7.066599618e-39
-0.1083425134 -0.4812675118 -0.09409108758 7.066599618e-39
0.004195736721 -0.3993480504 0.3045945764 7.066599618e-39
-0.1942627728 -0.3379882574 0.501691401 7.066599618e-39
-0.1221786439 -0.4852433801 -0.1366164237 7.066599618e-39
0.3733553886 -0.4318571985 -0.3342751563 7.066599618e-39
0.08844771236 -0.3538339436 -0.1984014213 7.066599618e-39
0.3604542315 -0.4589152336 -0.1389221847 7.250627941e-39
0.02515150607 -0.3694528043 -0.006731010973 7.250627941e-39
0.3838493824 -0.4481543899 -0.1428570747 7.250627941e-39
0.3866124451 -0.4541490376 -0.09733147174 7.250627941e-39
0.3913360834 -0.4368733764 -0.2234614491 7.250627941e-39
-0.198651582 -0.3074127138 0.2069061399 7.250627941e-39
0.02376997843 -0.3664554656 -0.02949380875 7.250627941e-39
-0.2219976485 -0.3166371584 -0.06636591256 7.250627941e-39
0.3362312913 -0.3433227837 0.05682350323 7.434656265e-39
-0.1358822286 -0.4830363989 -0.1584445834 7.434656265e-39
-0.1740766466 -0.4422781765 -0.3428089917 7.434656265e-39
0.0878829658 -0.5119014382 -0.2539249063 7.434656265e-39
-0.1808242053 -0.352560848 0.4821252525 7.434656265e-39
0.2361406982 -0.3528311551 0.02084048092 7.434656265e-39
0.261475563 -0.3527491093 0.03035263717 7.434656265e-39
-0.1069609821 -0.4842648506 -0.07132831961 7.434656265e-39
-0.1350589395 -0.4783522487 -0.1263660342 7.618684588e-39
-0.153039664 -0.4733361006 -0.2371797413 7.618684588e-39
-0.02369987592 -0.3517670631 -0.1920555383 7.618684588e-39
0.3768092096 -0.4393505454 -0.2773681879 7.618684588e-39
-0.1960210204 -0.3195902109 0.2317345589 7.618684588e-39
-0.1001303047 -0.3381489515 -0.1905791461 7.618684588e-39
-0.1062702164 -0.48576352 -0.05994687974 7.618684588e-39
-0.2199253589 -0.3211331367 -0.03222172707 7.618684588e-39
0.02791456878 -0.3754474521 0.03879458457 7.802712912e-39
-0.2189695835 -0.3102661669 0.02055394463 7.802712912e-39
-0.2195278257 -0.3025847077 0.02986971289 7.802712912e-39
0.2737976611 -0.3519587219 0.02941801772 7.802712912e-39
0.08511991054 -0.5059067607 -0.2994504869 7.802712912e-39
0.4003160298 -0.4563560188 -0.0755033195 7.802712912e-39
-0.2084265649 -0.3250269592 -0.06523486972 7.802712912e-39
-0.1933904737 -0.3317676783 0.2565630078 7.802712912e-39
0.3788815141 -0.4438465238 -0.243223995 7.986382503e-39
-0.1999697983 -0.4346787632 -0.3430054188 7.986382503e-39
-0.224069953 -0.3121411502 -0.1005100906 7.986382503e-39
0.3432922363 -0.3181774616 0.006231995299 7.986382503e-39
-0.1946602911 -0.3565366864 0.4395999908 7.986382503e-39
-0.178932786 -0.4657366872 -0.2373761535 7.986382503e-39
0.3802630305 -0.4468438625 -0.2204611897 7.986382503e-39
0.1015865579 -0.5141084194 -0.2320967317 7.986382503e-39
-0.1495858431 -0.4808294177 -0.180272758 8.170410826e-39
-0.1930137575 -0.347168386 0.5037570596 8.170410826e-39
-0.09269914031 -0.494153291 -0.05881584436 8.170410826e-39
0.3582494259 -0.4606020749 -0.1937635094 8.170410826e-39
0.2861197293 -0.3511683643 0.02848340571 8.170410826e-39
0.3989345133 -0.45335868 -0.09826608747 8.170410826e-39
0.3982437253 -0.4518600106 -0.1096475273 8.170410826e-39
-0.1931462586 -0.3533512056 0.4830598831 8.170410826e-39
0.2009863853 -0.5031013489 -0.2074951231 8.35443915e-39
-0.2247607112 -0.3106424809 -0.1118914783 8.35443915e-39
0.3975529671 -0.450361371 -0.121028915 8.35443915e-39
0.3589401841 -0.4621007442 -0.1823821217 8.35443915e-39
0.08442914486 -0.5044081211 -0.3108319044 8.35443915e-39
-0.1901318282 -0.3161410391 -0.1902337968 8.35443915e-39
0.02860533074 -0.3769461215 0.05017596856 8.35443915e-39
-0.1801334321 -0.3540595174 0.4935066998 8.35443915e-39
-0.171446085 -0.4544556737 -0.3179805279 8.538467473e-39
-0.2007238865 -0.3029167056 0.172761932 8.538467473e-39
-0.1796235442 -0.4642380178 -0.248757571 8.538467473e-39
0.2450089157 -0.3445474803 -0.03700111061 8.538467473e-39
0.4015858471 -0.4315869808 -0.2585402429 8.538467473e-39
-0.2017004639 -0.3477328122 0.3050888479 8.538467473e-39
-0.2109736353 -0.3082030714 0.2078407556 8.538467473e-39
-0.2038844675 -0.3154704869 0.06514492631 8.538467473e-39
-0.1939695328 -0.358035326 0.4509813786 8.722137064e-39
0.2517840564 -0.3657169342 0.05611566827 8.722137064e-39
0.3892429769 -0.4663265049 -0.07250305265 8.722137064e-39
-0.2193953097 -0.2964019179 0.05056685954 8.722137064e-39
0.3863682151 -0.4325655103 -0.3238283992 8.722137064e-39
0.04230894521 -0.3791530728 0.07200412452 8.722137064e-39
-0.1768604815 -0.4702326655 -0.2032319754 8.722137064e-39
0.1029680893 -0.5171056986 -0.2093339413 8.722137064e-39
-0.2050217688 -0.3340567052 0.268879056 8.906165387e-39
-0.1469344646 -0.4590577483 -0.340546906 8.906165387e-39
-0.1914507002 -0.3424464762 0.2700100839 8.906165387e-39
-0.1961743385 -0.3597221375 0.396140039 8.906165387e-39
0.3802422583 -0.4807929993 -0.03535857797 8.906165387e-39
-0.2042819858 -0.3340189457 0.003053518943 8.906165387e-39
-0.2027961761 -0.2984207273 0.1386177242 8.906165387e-39
0.1052702963 -0.4113854468 0.3012489676 8.906165387e-39
-0.1617753804 -0.4754369855 -0.1586409956 9.089834978e-39
0.2573309541 -0.3437571228 -0.03793572634 9.089834978e-39
-0.2170297801 -0.3209449947 0.03400101513 9.089834978e-39
0.4057304263 -0.4405789971 -0.1902518868 9.089834978e-39
0.4071119428 -0.4435763359 -0.1674890965 9.089834978e-39
0.2587125003 -0.3467544615 -0.01517295744 9.089834978e-39
-0.2034869343 -0.2969220579 0.1272363365 9.089834978e-39
0.389822036 -0.4400588274 -0.266921401 9.089834978e-39
0.1070009619 -0.498331368 -0.3468453288 9.273863302e-39
0.4112565517 -0.4525682926 -0.09920069575 9.273863302e-39
0.2510932684 -0.3642182648 0.04473428801 9.273863302e-39
-0.205712527 -0.3325580359 0.2574976087 9.273863302e-39
0.2380804718 -0.363509953 0.0342875123 9.273863302e-39
-0.07098566741 -0.3949100673 0.3081366122 9.273863302e-39
-0.2160249799 -0.3085416257 -0.1904302239 9.273863302e-39
0.2757374346 -0.3626375496 0.04286505654 9.273863302e-39
0.2977510095 -0.3488793373 0.01616740599 9.457532893e-39
-0.1846755445 -0.3636159301 0.363126874 9.457532893e-39
-0.2090338469 -0.3188818991 0.221287787 9.457532893e-39
0.2116683722 -0.3459303081 -0.2077475637 9.457532893e-39
-0.2035912126 -0.3355176151 0.01443490386 9.457532893e-39
0.385789156 -0.458833158 -0.1294100285 9.457532893e-39
-0.2163390219 -0.3224436641 0.04538239911 9.457532893e-39
-0.0450925082 -0.4025094807 0.3083330393 9.457532893e-39
0.3010722995 -0.362555474 0.05237721279 9.641561216e-39
-0.1925880015 -0.3610326648 0.473744154 9.641561216e-39
-0.1610846072 -0.4769356549 -0.1472596079 9.641561216e-39
-0.1795751899 -0.3617409766 0.4841909111 9.641561216e-39
0.3367895186 -0.3510042727 0.04750771448 9.641561216e-39
-0.2179855704 -0.3318119645 -0.01877466217 9.641561216e-39
0.4008742869 -0.464037478 -0.08481905609 9.641561216e-39
0.3953481615 -0.4520481527 -0.1758702397 9.641561216e-39
0.2750466764 -0.3611388803 0.03148366883 9.825230807e-39
-0.2180137932 -0.2993992567 0.07332962751 9.825230807e-39
-0.1619078964 -0.4816197753 -0.1793381423 9.825230807e-39
-0.1506676078 -0.3321302533 -0.1889063418 9.825230807e-39
-0.1475135386 -0.4853254259 -0.14612858 9.825230807e-39
-0.1933271587 -0.4620310366 -0.2705857158 9.825230807e-39
-0.2071775496 -0.3342071176 -0.06316922605 9.825230807e-39
-0.198720783 -0.4438588917 -0.3409397602 9.825230807e-39
-0.2025029361 -0.3184678257 0.08790770173 1.000925913e-38
0.4166709483 -0.4367913008 -0.2139492929 1.000925913e-38
-0.1545536965 -0.4765215814 -0.2806396782 1.000925913e-38
-0.1935229897 -0.3379504681 0.2358658612 1.000925913e-38
0.419434011 -0.4427859783 -0.1684237123 1.000925913e-38
-0.1968443096 -0.3242743313 0.1996560097 1.000925913e-38
0.420124799 -0.4442846179 -0.1570423245 1.000925913e-38
0.3993810117 -0.4332737923 -0.3133815825 1.000925913e-38
0.199472338 -0.5062868595 -0.2509550452 1.019292872e-38
-0.1783745289 -0.4734181464 -0.2466919124 1.019292872e-38
0.3740253747 -0.4673050046 -0.1377911568 1.019292872e-38
-0.2269655019 -0.3123293221 -0.166732803 1.019292872e-38
0.4208155572 -0.4457832873 -0.145660907 1.019292872e-38
0.2490209937 -0.3597222567 0.01059010252 1.019292872e-38
-0.2167647779 -0.3085793853 0.07539528608 1.019292872e-38
-0.2164997607 -0.2962137461 0.1167895645 1.019292872e-38
-0.2151182294 -0.2992110848 0.1395523399 1.037659831e-38
0.4000717998 -0.4347724915 -0.3020001948 1.037659831e-38
0.2339358777 -0.3545179665 -0.03400085121 1.037659831e-38
-0.1934112757 -0.365716815 0.4416656494 1.037659831e-38
-0.208559081 -0.3312097788 -0.08593201637 1.037659831e-38
0.2963694632 -0.3458819985 -0.006595392711 1.037659831e-38
-0.2077848315 -0.3280620277 0.2233534455 1.037659831e-38
0.1880420744 -0.7743178606 0.223105073 1.037659831e-38
0.1007632837 -0.51879251 -0.264175266 1.056062664e-38
0.2949879467 -0.3428846896 -0.02935818955 1.056062664e-38
-0.1908924282 -0.3501279652 0.2606942952 1.056062664e-38
-0.1740974337 -0.4762273431 -0.1577063799 1.056062664e-38
-0.1322958916 -0.4843469262 -0.08084046841 1.056062664e-38
-0.1708878279 -0.4621371329 -0.3272962868 1.056062664e-38
0.1873513013 -0.772819221 0.2117236853 1.056062664e-38
0.223626703 -0.7689494491 0.1975384653 1.056062664e-38
0.15107584 -0.7766889334 0.2259089053 1.074429623e-38
0.06505262852 -0.3645948172 -0.1944665313 1.074429623e-38
-0.1819124967 -0.3696106076 0.4086524844 1.074429623e-38
0.1659599394 -0.5161512494 -0.1912442148 1.074429623e-38
-0.2022379041 -0.3061022162 0.129301995 1.074429623e-38
0.3120128512 -0.3587677777 0.02867982537 1.074429623e-38
-0.1960902214 -0.4560363889 -0.3161113262 1.074429623e-38
0.2008538693 -0.5092841387 -0.22819224 1.074429623e-38
0.1627071351 -0.7743999362 0.2135929167 1.092796582e-38
-0.1949045211 -0.3349531293 0.2131031007 1.092796582e-38
0.1743384302 -0.772110939 0.2012768984 1.092796582e-38
0.411814779 -0.4602497816 -0.1085164919 1.092796582e-38
-0.1956160665 -0.3674036264 0.3868243098 1.092796582e-38
-0.1790169328 -0.3694224358 0.4748751819 1.092796582e-38
-0.022450855 -0.3609471917 -0.1899898797 1.092796582e-38
-0.2142667323 -0.3269396722 0.07952658832 1.092796582e-38
0.3801097274 -0.4869758189 -0.05605575442 1.111163541e-38
0.4639986455 -0.4569001794 -0.04603218287 1.111163541e-38
-0.2058450431 -0.3387408257 0.2368004769 1.111163541e-38
0.1380630285 -0.7759806514 0.2154621482 1.111163541e-38
0.4255392253 -0.4285076261 -0.2717908919 1.111163541e-38
-0.1370964944 -0.3405200243 -0.1877753139 1.111163541e-38
-0.1459994912 -0.482139945 -0.1026686281 1.111163541e-38
0.2708427012 -0.7612919807 0.1596557796 1.111163541e-38
-0.1900058538 -0.4757071733 -0.2343758941 1.1295305e-38
0.2099231184 -0.7667424679 0.1757102311 1.1295305e-38
0.3636430204 -0.4787741899 -0.1234094948 1.1295305e-38
-0.1949253082 -0.3689022958 0.3982056975 1.1295305e-38
-0.1302235872 -0.4888429046 -0.04669626057 1.1295305e-38
0.3477300704 -0.3472165763 0.02381033078 1.1295305e-38
0.105241403 -0.7873437405 0.2865543664 1.1295305e-38
-0.1922739595 -0.3471306264 0.2379315197 1.1295305e-38
-0.2000048906 -0.3368281126 0.09203900397 1.147897319e-38
0.4255183935 -0.4624567628 -0.08668828011 1.147897319e-38
-0.182519123 -0.4644261599 -0.3149802685 1.147897319e-38
-0.1734066606 -0.4777260125 -0.1463249922 1.147897319e-38
-0.2174273133 -0.3394934535 -0.02809042297 1.147897319e-38
-0.1893150806 -0.4772058427 -0.2229945064 1.147897319e-38
0.2215544134 -0.7644534111 0.1633942425 1.147897319e-38
0.1606348306 -0.7699038982 0.179448694 1.147897319e-38
0.2578298748 -0.7605837584 0.1492090225 1.166264278e-38
0.3210135996 -0.3443012834 -0.008464620449 1.166264278e-38
-0.213178426 -0.3098899126 0.1529994309 1.166264278e-38
-0.2167365551 -0.3409921229 -0.01670901105 1.166264278e-38
0.1250502169 -0.7752723694 0.2050153613 1.166264278e-38
0.3203228414 -0.3428026438 -0.01984603144 1.166264278e-38
0.1969103068 -0.7660341263 0.165263474 1.166264278e-38
0.2331856936 -0.7621644735 0.151078254 1.166264278e-38
0.3196320832 -0.3413039744 -0.03122741729 1.184631237e-38
0.2709020972 -0.3521468937 -0.03680469841 1.184631237e-38
-0.1969768256 -0.3304571509 0.1789588779 1.184631237e-38
0.4482227862 -0.4501972198 -0.1020045429 1.184631237e-38
-0.205237776 -0.3448859155 -0.04972215742 1.184631237e-38
0.3057366312 -0.7544249296 0.1227077842 1.184631237e-38
-0.08205872774 -0.4048805833 0.3111368716 1.184631237e-38
0.1120373309 -0.7745640278 0.1945686042 1.184631237e-38
0.2817832232 -0.757504344 0.1359584033 1.202998196e-38
-0.1875711232 -0.3638040721 0.2969041467 1.202998196e-38
-0.2138691992 -0.3083912432 0.1416179836 1.202998196e-38
0.1017875671 -0.7798504233 0.2296473682 1.202998196e-38
0.1113465726 -0.7730653882 0.1831871569 1.202998196e-38
0.08197882771 -0.7919217944 0.311186403 1.202998196e-38
0.2448170483 -0.7598754168 0.1387622356 1.202998196e-38
0.4179199636 -0.4459714293 -0.2118836492 1.202998196e-38
-0.2031654865 -0.3493818939 -0.01557797659 1.221365155e-38
0.1004060507 -0.7768530846 0.2068845928 1.221365155e-38
0.3697274327 -0.4984449744 -0.04167409986 1.221365155e-38
0.2324949354 -0.7606657743 0.1396968663 1.221365155e-38
0.0941972658 -0.421355933 0.304249227 1.221365155e-38
0.4151569307 -0.4399767518 -0.257409215 1.221365155e-38
0.3841426075 -0.4682014883 -0.1935670972 1.221365155e-38
-0.1317376345 -0.4920283854 -0.09015621245 1.221365155e-38
0.3050458729 -0.7529262304 0.1113263369 1.239732115e-38
0.4206830263 -0.4519661069 -0.1663580537 1.239732115e-38
0.09971527755 -0.7753543854 0.1955032051 1.239732115e-38
-0.1983583421 -0.3274598122 0.1561961174 1.239732115e-38
-0.1993141323 -0.338326782 0.1034204364 1.239732115e-38
0.4420059025 -0.4367092252 -0.2044371217 1.239732115e-38
0.08946551383 -0.7806407809 0.230581969 1.239732115e-38
-0.1590123177 -0.4814316332 -0.1131154299 1.239732115e-38
0.1882732958 -0.3566911817 -0.2038126886 1.258099074e-38
-0.2270980179 -0.3185121417 -0.1874299496 1.258099074e-38
0.1832067221 -0.7638272047 0.1434352994 1.258099074e-38
0.07990652323 -0.7874257565 0.2770421803 1.258099074e-38
0.118841365 -0.4197752178 0.3023799956 1.258099074e-38
-0.2105478942 -0.32206738 0.17782785 1.258099074e-38
0.3759651482 -0.4779838324 -0.1243441179 1.258099074e-38
0.37527439 -0.476485163 -0.1357254982 1.258099074e-38
0.4619263411 -0.452404201 -0.08017639071 1.276466033e-38
0.4447689652 -0.4427039027 -0.158911556 1.276466033e-38
0.07783423364 -0.7829297781 0.2428979874 1.276466033e-38
-0.1591448337 -0.4876144528 -0.1338125765 1.276466033e-38
-0.2229534388 -0.3275041282 -0.1191415787 1.276466033e-38
0.07714346051 -0.7814311385 0.2315165997 1.276466033e-38
0.07645270228 -0.7799324989 0.2201352119 1.276466033e-38
0.06896597147 -0.7912135124 0.3007395566 1.276466033e-38
0.2064692974 -0.7592491508 0.1188032627 1.294832852e-38
-0.1820449978 -0.3757933974 0.3879553378 1.294832852e-38
0.1222871542 -0.7692776918 0.1594897807 1.294832852e-38
-0.212885201 -0.329937011 0.1022894084 1.294832852e-38
0.1455497295 -0.7646996379 0.1348577738 1.294832852e-38
-0.1439272016 -0.4866359532 -0.06852447242 1.294832852e-38
-0.1872427911 -0.4817018211 -0.1888503283 1.294832852e-38
0.1681296527 -0.4166137576 0.2986415327 1.294832852e-38
-0.179149434 -0.3756052554 0.4541780651 1.313163938e-38
-0.1776354015 -0.3724197745 0.4976379871 1.313163938e-38
-0.1937880069 -0.3503160775 0.1944715679 1.313163938e-38
0.1339184493 -0.7669886351 0.1471737623 1.313163938e-38
-0.1992024183 -0.3660930991 0.309220165 1.313163938e-38
0.2513895631 -0.6915630102 -0.3648230433 1.313163938e-38
0.1099650413 -0.7700680494 0.1604243815 1.313163938e-38
0.2753429711 -0.6884836555 -0.3780736327 1.313163938e-38
0.4605448246 -0.4494068623 -0.1029391587 1.331530897e-38
-0.1432364434 -0.4881346226 -0.05714303255 1.331530897e-38
0.2962369621 -0.3520648181 -0.02729253843 1.331530897e-38
-0.2126201838 -0.3175713718 0.1436836421 1.331530897e-38
-0.09438078105 -0.4056709409 0.3120715022 1.331530897e-38
-0.2134434581 -0.3222554922 0.1116051376 1.331530897e-38
0.05664391443 -0.79200387 0.301674217 1.331530897e-38
0.1021432579 -0.6980500221 -0.37637043 1.331530897e-38
0.05388085544 -0.7860091925 0.2561486661 1.349897856e-38
0.2050958723 -0.4142426848 0.2958377004 1.349897856e-38
0.1972675472 -0.5079736114 -0.3057963848 1.349897856e-38
-0.197932601 -0.341324091 0.1261832118 1.349897856e-38
0.4652476609 -0.466080308 -0.04396653175 1.349897856e-38
0.2760337591 -0.689982295 -0.3666922748 1.349897856e-38
0.3730696142 -0.4781719744 -0.1905668378 1.349897856e-38
-0.1965510696 -0.3443214297 0.1489459723 1.349897856e-38
0.3456577659 -0.3427205682 -0.01033385191 1.368228942e-38
0.4260974824 -0.4361890852 -0.2811066508 1.368228942e-38
-0.1202739477 -0.3980715275 0.3118750751 1.368228942e-38
0.08532093465 -0.7716487646 0.162293613 1.368228942e-38
0.1209056228 -0.7662803531 0.1367270052 1.368228942e-38
0.2644023597 -0.6922713518 -0.3543762565 1.368228942e-38
0.2520803213 -0.6930617094 -0.3534416556 1.368228942e-38
0.3085590303 -0.3512744606 -0.02822715417 1.368228942e-38
0.4515648782 -0.4299242198 -0.2508973181 1.386595901e-38
0.04973626137 -0.7770171762 0.1878602207 1.386595901e-38
0.03948647529 -0.7823035717 0.2229390442 1.386595901e-38
0.01553313155 -0.7853829861 0.2361896634 1.386595901e-38
0.2043970078 -0.7547531128 0.08465909958 1.386595901e-38
-0.2113711685 -0.3267515004 0.1457492858 1.386595901e-38
0.042249538 -0.7882981896 0.2684646547 1.386595901e-38
0.1945044845 -0.5019789934 -0.3513219655 1.386595901e-38
-0.1721576452 -0.486906141 -0.1442593485 1.404926846e-38
0.4336959124 -0.4526743889 -0.1559112966 1.404926846e-38
0.1434774399 -0.7602035999 0.1007135808 1.404926846e-38
0.3642013073 -0.4864556491 -0.1327252388 1.404926846e-38
-0.1045954525 -0.5088079572 -0.08789414167 1.404926846e-38
0.01622389629 -0.7868816257 0.2475710511 1.404926846e-38
0.3885372281 -0.7413990498 0.0592584908 1.404926846e-38
0.02923671901 -0.7875899076 0.2580178976 1.404926846e-38
0.07749909163 -0.6996307969 -0.3745012283 1.423293806e-38
0.03741418198 -0.7778075337 0.1887948513 1.423293806e-38
0.4494925737 -0.4254282117 -0.2850415111 1.423293806e-38
0.09695221484 -0.7693597674 0.1499776244 1.423293806e-38
-0.2154875398 -0.3501722515 -0.01464336831 1.423293806e-38
-0.2132827193 -0.34848544 0.04019796848 1.423293806e-38
-0.2196321189 -0.3411802649 -0.08293175697 1.423293806e-38
0.216028288 -0.7524641752 0.07234311104 1.423293806e-38
-0.08080971241 -0.4140607417 0.3132025301 1.441624891e-38
-0.2117686868 -0.3452999592 0.08365789056 1.441624891e-38
-0.1918482184 -0.3609949052 0.2079186141 1.441624891e-38
-0.2108128965 -0.3344329894 0.1364335567 1.441624891e-38
-0.2039887458 -0.3540660739 -0.0476565063 1.441624891e-38
0.002520283684 -0.7846746445 0.2257429063 1.441624891e-38
0.3006778657 -0.6884015799 -0.3685615063 1.441624891e-38
-0.008879747242 -0.3693369925 -0.1888588518 1.441624891e-38
0.01346083917 -0.7808869481 0.2020455003 1.459991851e-38
0.2529945076 -0.7500931025 0.06953924894 1.459991851e-38
0.2639350295 -0.7463053465 0.04584182799 1.459991851e-38
-0.204679504 -0.3525674045 -0.05903792009 1.459991851e-38
0.1311553866 -0.7609939575 0.1016481817 1.459991851e-38
0.2404490262 -0.6953507662 -0.3411256075 1.459991851e-38
0.1042155474 -0.7025460601 -0.3422262669 1.459991851e-38
0.03130901232 -0.792085886 0.2921620309 1.459991851e-38
-0.1842498034 -0.3774802387 0.333114028 1.478322936e-38
0.1913841814 -0.7540448904 0.0742123425 1.478322936e-38
-0.223776713 -0.3321882784 -0.1512201279 1.478322936e-38
-0.1883943826 -0.3684882522 0.2648256123 1.478322936e-38
-0.1907807142 -0.3778942823 0.4664940536 1.478322936e-38
-0.197374329 -0.3490055799 0.1168674827 1.478322936e-38
0.2885791659 -0.7447246313 0.04397259653 1.478322936e-38
0.0367234163 -0.7763088942 0.1774134636 1.478322936e-38
0.301368624 -0.689900279 -0.3571801186 1.496689755e-38
-0.2258490026 -0.3276922703 -0.185364306 1.496689755e-38
0.239981696 -0.7493847609 0.05909243226 1.496689755e-38
-0.1433689594 -0.4943174124 -0.07784020901 1.496689755e-38
-0.2053702772 -0.3510687351 -0.07041931152 1.496689755e-38
0.4872612059 -0.4523221254 -0.07066423446 1.496689755e-38
0.4721761048 -0.4471178353 -0.1152552143 1.496689755e-38
0.4418733716 -0.4428920448 -0.2251342684 1.496689755e-38
-0.1929855347 -0.3795810938 0.4116527438 1.515020841e-38
0.02440136299 -0.7770992517 0.1783480942 1.515020841e-38
0.3255454004 -0.7423535585 0.04116874933 1.515020841e-38
0.01967772096 -0.7943749428 0.3044780195 1.515020841e-38
-0.1821774989 -0.381976217 0.3672581911 1.515020841e-38
0.4391103089 -0.436897397 -0.2706598639 1.515020841e-38
0.4638869464 -0.4291338623 -0.2518319488 1.515020841e-38
0.09258426726 -0.7048350573 -0.3299102485 1.515020841e-38
0.4694130719 -0.4411231875 -0.1607807875 1.533351927e-38
0.02105925232 -0.7973722816 0.3272408545 1.533351927e-38
0.4701038301 -0.4426218271 -0.14939937 1.533351927e-38
-0.1555584967 -0.4889249802 -0.05620842427 1.533351927e-38
-0.009111005813 -0.7869637012 0.2380588949 1.533351927e-38
0.362511605 -0.7399824858 0.03836490214 1.533351927e-38
0.4631961882 -0.4276351929 -0.2632133365 1.533351927e-38
0.08692718297 -0.5227683783 -0.3067005873 1.533351927e-38
0.4707945883 -0.4441205263 -0.1380179822 1.551683013e-38
0.007355636917 -0.7951653004 0.3054126203 1.551683013e-38
-0.1770771444 -0.3801012635 0.4883222282 1.551683013e-38
-0.00634794496 -0.7929583192 0.2835845053 1.551683013e-38
0.2386001647 -0.7463874221 0.03632967174 1.551683013e-38
-0.1720602363 -0.3828726709 0.3114822209 1.551683013e-38
0.06655856222 -0.7034184933 -0.3508037925 1.551683013e-38
-0.1520556659 -0.4948818386 -0.2765083909 1.551683013e-38
0.3332031965 -0.3496937454 -0.03009638563 1.570049832e-38
0.3994777799 -0.737611413 0.03556105494 1.570049832e-38
0.4617938399 -0.4585869908 -0.100873515 1.570049832e-38
0.461814642 -0.4246378541 -0.2859761119 1.570049832e-38
0.008046404459 -0.7966639996 0.3167940676 1.570049832e-38
0.3369532824 -0.6845318079 -0.3827467263 1.570049832e-38
-0.005657181144 -0.7944569588 0.294965893 1.570049832e-38
0.3325124383 -0.348195076 -0.04147776961 1.570049832e-38
-0.2081333399 -0.3450740576 -0.1159448922 1.588380918e-38
-0.2108963877 -0.3390794098 -0.1614704728 1.588380918e-38
0.4111090302 -0.7353223562 0.0232450664 1.588380918e-38
-0.1527464241 -0.4933831692 -0.2878897786 1.588380918e-38
0.3241638541 -0.7393562198 0.01840597391 1.588380918e-38
0.008737169206 -0.7981626391 0.3281754553 1.588380918e-38
0.08095291257 -0.707124114 -0.3175942302 1.588380918e-38
-0.1993349046 -0.3722759187 0.2885230482 1.588380918e-38
0.2865068614 -0.740228653 0.009828448296 1.606712004e-38
-0.2127244771 -0.356166929 0.03088219836 1.606712004e-38
-0.1986441463 -0.3737745881 0.2999044359 1.606712004e-38
-0.186454609 -0.3791670799 0.2782726884 1.606712004e-38
0.2988289893 -0.7394382954 0.008893817663 1.606712004e-38
-0.1871453673 -0.3776684105 0.2668912411 1.606712004e-38
0.4548861682 -0.4436003566 -0.2146874964 1.606712004e-38
0.3492753506 -0.6837414503 -0.3836813569 1.606712004e-38
-0.2170015574 -0.3533577621 -0.05810330436 1.625043089e-38
0.1297738552 -0.7579966784 0.07888540626 1.625043089e-38
0.3234730959 -0.7378575802 0.007024601102 1.625043089e-38
0.3267034888 -0.6898182034 -0.3476679325 1.625043089e-38
0.4486692846 -0.4301123619 -0.3171200454 1.625043089e-38
0.4569584727 -0.4480963349 -0.1805433184 1.625043089e-38
0.01138854306 -0.7763909698 0.1679013073 1.625043089e-38
0.03534188867 -0.7733115554 0.1546506882 1.625043089e-38
0.2425213158 -0.6998467445 -0.3069814444 1.643374035e-38
-0.197639361 -0.3613712192 0.07547318935 1.643374035e-38
0.04165754467 -0.3753556609 -0.1905316561 1.643374035e-38
-0.2096963823 -0.3497959375 0.1178020984 1.643374035e-38
0.457649231 -0.4495950043 -0.1691619009 1.643374035e-38
0.3640687764 -0.4926384687 -0.1534223855 1.643374035e-38
-0.1040372029 -0.5164893866 -0.09720987827 1.643374035e-38
0.2372186333 -0.7433900833 0.01356689632 1.643374035e-38
0.1069786102 -0.708540678 -0.2967006564 1.661705121e-38
0.04053292423 -0.7020018697 -0.3716973662 1.661705121e-38
0.07092657685 -0.7679431438 0.1290840209 1.661705121e-38
0.458340019 -0.4510936737 -0.1577805132 1.661705121e-38
0.4507415891 -0.4346083403 -0.2829758525 1.661705121e-38
0.3604393005 -0.7354864478 0.004220753908 1.661705121e-38
0.3499661386 -0.6852401495 -0.3722999692 1.661705121e-38
0.4810443223 -0.4388341606 -0.173096776 1.661705121e-38
0.1648782194 -0.3674520552 -0.1998778135 1.680036207e-38
0.3481172025 -0.736276865 0.005155369639 1.680036207e-38
-0.1909132302 -0.3840771019 0.4457969368 1.680036207e-38
0.3273942471 -0.691316843 -0.3362865448 1.680036207e-38
0.1058204472 -0.7610760927 0.09213602543 1.680036207e-38
0.4590307772 -0.4525923133 -0.1463991106 1.680036207e-38
0.1077683419 -0.4297457337 0.305380255 1.680036207e-38
0.4217995405 -0.4673290253 -0.1849895567 1.680036207e-38
0.3974054754 -0.733115375 0.001416906714 1.698367293e-38
-0.0165977329 -0.7982447147 0.3186633289 1.698367293e-38
0.3647595644 -0.4941371381 -0.1420409977 1.698367293e-38
0.3474264443 -0.7347781658 -0.006226077676 1.698367293e-38
-0.1700853556 -0.4914021194 -0.110115163 1.698367293e-38
0.2432120889 -0.7013454437 -0.2956000566 1.698367293e-38
0.0469732061 -0.7710225582 0.1423346996 1.698367293e-38
0.4211087823 -0.4658303857 -0.1963709295 1.698367293e-38
0.3506568968 -0.6867388487 -0.3609185815 1.716698239e-38
0.3597485423 -0.7339878082 -0.007160693407 1.716698239e-38
-0.2083148509 -0.3527932763 0.1405648589 1.716698239e-38
0.02933543548 -0.3761460483 -0.1895970404 1.716698239e-38
0.2016339451 -0.7487584949 0.03913351893 1.716698239e-38
-0.1685713083 -0.4882166684 -0.0666552484 1.716698239e-38
0.2622056901 -0.3519490361 -0.2094203681 1.716698239e-38
-0.1984626204 -0.3660553694 0.04339465499 1.716698239e-38
0.1711093336 -0.5127398372 -0.3473870754 1.735029324e-38
0.4445039332 -0.4550695419 -0.2003058195 1.735029324e-38
0.3722254634 -0.5168052912 -0.03754279763 1.735029324e-38
0.4597065449 -0.7306622267 0.008125215769 1.735029324e-38
-0.1313469708 -0.4080420136 0.3148753345 1.735029324e-38
0.2678562105 -0.6997646689 -0.2974692881 1.735029324e-38
-0.190222472 -0.3855757415 0.4571783245 1.735029324e-38
-0.2211461514 -0.3443657458 -0.1263916641 1.735029324e-38
-0.16788055 -0.4897153378 -0.05527380854 1.75336041e-38
0.1693786681 -0.425793916 0.3007071912 1.75336041e-38
0.1985165626 -0.5171537399 -0.3037307262 1.75336041e-38
0.2801783383 -0.6989743114 -0.2984039187 1.75336041e-38
0.43437168 -0.7307442427 -0.001386940479 1.75336041e-38
-0.02350538224 -0.7832580209 0.2048493624 1.75336041e-38
-0.1830007881 -0.3866603971 0.3351796865 1.75336041e-38
0.1438138634 -0.5360922217 -0.185243696 1.75336041e-38
0.4382870495 -0.4415815473 -0.3027383983 1.771655483e-38
-0.1872778833 -0.3838512003 0.2461941093 1.771655483e-38
-0.04331414774 -0.795329392 0.2863883376 1.771655483e-38
0.4665174782 -0.4413112998 -0.2270034999 1.771655483e-38
-0.2008489519 -0.3754614294 0.2450630814 1.771655483e-38
-0.2015397251 -0.37396276 0.2336816937 1.771655483e-38
-0.1865871251 -0.3853498697 0.2575755119 1.771655483e-38
0.346044898 -0.7317808867 -0.0289888382 1.771655483e-38
-0.1977718621 -0.3675540388 0.05477603897 1.789986569e-38
0.04329598695 -0.7079964876 -0.3261717856 1.789986569e-38
0.08302520216 -0.7116200924 -0.283450067 1.789986569e-38
0.1886211187 -0.7480502129 0.02868673205 1.789986569e-38
0.1957534999 -0.511159122 -0.3492563367 1.789986569e-38
0.4630636573 -0.4338179827 -0.2839104831 1.789986569e-38
-0.0963832438 -0.3656893671 -0.1843822002 1.789986569e-38
-0.02419614792 -0.7817593813 0.1934679151 1.789986569e-38
0.358366996 -0.7309904695 -0.02992346883 1.808317654e-38
-0.04055108503 -0.8013240695 0.3319139183 1.808317654e-38
0.3534199595 -0.6927334666 -0.315392971 1.808317654e-38
0.3417886496 -0.6950224638 -0.3030769825 1.808317654e-38
0.04398675263 -0.7094951868 -0.3147903979 1.808317654e-38
-0.2082658559 -0.3512568772 -0.1366420537 1.808317654e-38
-0.1880176663 -0.3838889599 0.5120196342 1.808317654e-38
0.01657955162 -0.7050812244 -0.3584467173 1.808317654e-38
-0.2114754468 -0.3653470874 0.03294785693 1.826612727e-38
0.06954505295 -0.7649458051 0.1063212454 1.826612727e-38
-0.1907317191 -0.3763578832 0.189287141 1.826612727e-38
0.3753010035 -0.6851581335 -0.3627877831 1.826612727e-38
-0.1760089993 -0.4979612529 -0.2632577419 1.826612727e-38
-0.204993546 -0.3664694428 0.1767747253 1.826612727e-38
0.08117634058 -0.7626568079 0.09400525689 1.826612727e-38
-0.05563623086 -0.7961198092 0.2873229682 1.826612727e-38
0.2111929357 -0.7419734597 -0.007326692343 1.844943813e-38
0.3062039614 -0.7003909349 -0.277510345 1.844943813e-38
0.320019275 -0.7303642035 -0.04988238215 1.844943813e-38
-0.05816802382 -0.3724984229 -0.1851203889 1.844943813e-38
0.383166045 -0.5130175352 -0.06124018133 1.844943813e-38
0.3576762378 -0.7294918299 -0.04130484164 1.844943813e-38
0.3323413134 -0.7295738459 -0.05081699789 1.844943813e-38
0.4076552093 -0.7278290391 -0.03366191685 1.844943813e-38
0.223514989 -0.7411831021 -0.008261308074 1.863274899e-38
0.330848068 -0.6988102198 -0.2793795466 1.863274899e-38
-0.1960135996 -0.3859520853 0.3247328401 1.863274899e-38
0.1025705636 -0.5356541872 -0.2714253664 1.863274899e-38
0.2822506428 -0.7034703493 -0.264259696 1.863274899e-38
0.1865488291 -0.7435541749 -0.005457475781 1.863274899e-38
-0.2056843042 -0.3649707735 0.1653933376 1.863274899e-38
-0.1501158625 -0.5055606365 -0.2630613148 1.863274899e-38
0.3446633816 -0.7287834883 -0.05175161362 1.881569971e-38
0.2945726812 -0.7026799917 -0.2651942968 1.881569971e-38
-0.2143710107 -0.3655351996 -0.03327485546 1.881569971e-38
0.3887129426 -0.4910577536 -0.1552916169 1.881569971e-38
0.3823203444 -0.7279111147 -0.0431740731 1.881569971e-38
0.1032613292 -0.5371528268 -0.2600439787 1.881569971e-38
0.1632861942 -0.7481322289 0.01917459071 1.881569971e-38
-0.2164433151 -0.3610392213 -0.06741903722 1.881569971e-38
0.4181924164 -0.4999676943 -0.0774910599 1.899901057e-38
-0.2136802524 -0.367033869 -0.02189346962 1.899901057e-38
0.07139392197 -0.7139091492 -0.2711340189 1.899901057e-38
-0.05770852789 -0.7916238308 0.2531787455 1.899901057e-38
0.4788395166 -0.4405209422 -0.2279381156 1.899901057e-38
-0.1946320683 -0.388949424 0.3474956751 1.899901057e-38
0.3773732781 -0.6896541119 -0.3286435902 1.899901057e-38
0.2597904503 -0.7373133898 -0.02244654298 1.899901057e-38
0.4316086173 -0.7247496247 -0.04691253603 1.91819627e-38
0.1277015507 -0.7535007 0.04474119842 1.91819627e-38
0.4774580002 -0.4375236332 -0.250700891 1.91819627e-38
0.3070064485 -0.7296559215 -0.06032921374 1.91819627e-38
-0.1928040087 -0.3718618751 0.1551429331 1.91819627e-38
0.1039520875 -0.5386514664 -0.248662591 1.91819627e-38
-0.2171340734 -0.3595405519 -0.07880045474 1.91819627e-38
0.1393328458 -0.7512116432 0.03242519498 1.91819627e-38
0.4822784066 -0.7245855331 -0.02788822353 1.936527215e-38
-0.06657674909 -0.7999074459 0.3110203445 1.936527215e-38
-0.1695621908 -0.4012329578 0.315613538 1.936527215e-38
0.004948232323 -0.7073702812 -0.3461307287 1.936527215e-38
0.2228242159 -0.7396844625 -0.01964269578 1.936527215e-38
0.2714217603 -0.735024333 -0.03476254642 1.936527215e-38
-0.1874103844 -0.3900340199 0.2254970074 1.936527215e-38
-0.193494767 -0.3703632057 0.1437615454 1.936527215e-38
0.04490090907 -0.7665265203 0.1081904769 1.954822428e-38
-0.1956995726 -0.3720500469 0.08892022073 1.954822428e-38
0.2264885306 -0.3635002375 -0.2045508772 1.954822428e-38
-0.05839928612 -0.7901251316 0.2417973578 1.954822428e-38
-0.1881501824 -0.3900717497 0.4913224876 1.954822428e-38
-0.1860288531 -0.3930313587 0.2482597679 1.954822428e-38
-0.0693398118 -0.793912828 0.2654947937 1.954822428e-38
-0.2122987211 -0.3700312078 0.0008693267591 1.954822428e-38
0.2946844101 -0.730446279 -0.05939459801 1.973153514e-38
0.09741961956 -0.7153257132 -0.2502404749 1.973153514e-38
0.4457529485 -0.4642496705 -0.1982401609 1.973153514e-38
-0.03720897064 -0.7810510397 0.183021158 1.973153514e-38
0.3549131751 -0.7234971523 -0.08683043718 1.973153514e-38
0.3890045583 -0.6873650551 -0.3409596086 1.973153514e-38
0.2707309723 -0.7335256338 -0.04614393413 1.973153514e-38
0.4815876484 -0.723086834 -0.03926961124 1.973153514e-38
0.2973357141 -0.7086746097 -0.2196687311 1.991448586e-38
0.3685050607 -0.6979377866 -0.2708019912 1.991448586e-38
-0.07958960533 -0.7991991639 0.3005735576 1.991448586e-38
0.2467776239 -0.7366050482 -0.03289331496 1.991448586e-38
0.3219798207 -0.7070938945 -0.2215379626 1.991448586e-38
-0.2110289037 -0.3452621996 -0.1821676195 1.991448586e-38
0.3992544115 -0.6820787191 -0.3760384321 1.991448586e-38
-0.1950087994 -0.3735487163 0.1003016084 1.991448586e-38
0.3817845285 -0.510020256 -0.08400295675 2.009743799e-38
0.1612138897 -0.7436362505 -0.01496961713 2.009743799e-38
-0.2116079628 -0.3715298772 0.01225073822 2.009743799e-38
-0.1839565635 -0.3975273669 0.2824040055 2.009743799e-38
0.4691480398 -0.4534888268 -0.202175051 2.009743799e-38
-0.0590900518 -0.7886264324 0.2304159701 2.009743799e-38
0.2221334577 -0.7381857634 -0.0310240835 2.009743799e-38
-0.07820807397 -0.8021965027 0.3233363926 2.009743799e-38
0.03257882595 -0.7673168778 0.1091251075 2.028074885e-38
0.006329762749 -0.7103675604 -0.3233679533 2.028074885e-38
-0.07751730084 -0.8036952019 0.3347177804 2.028074885e-38
0.38024804 -0.7234150767 -0.07731828094 2.028074885e-38
0.4883777201 -0.4676851034 -0.08929570019 2.028074885e-38
-0.003005836159 -0.7726852894 0.1346917152 2.028074885e-38
0.3698865771 -0.7009351254 -0.2480392158 2.028074885e-38
0.2939936221 -0.7289476395 -0.07077598572 2.028074885e-38
0.3528408706 -0.719001174 -0.1209746525 2.046369957e-38
-0.2219694257 -0.349049896 -0.1584701985 2.046369957e-38
0.3363741934 -0.7107995749 -0.1883284003 2.046369957e-38
0.3795572817 -0.7219164371 -0.08869966865 2.046369957e-38
0.04674981162 -0.7154898643 -0.2692648172 2.046369957e-38
-0.1965228468 -0.3767341673 0.05684169009 2.046369957e-38
0.2388105989 -0.3627098799 -0.2054854929 2.046369957e-38
0.2987172604 -0.7116719484 -0.1969059408 2.046369957e-38
0.312420845 -0.71387887 -0.1750777513 2.06466517e-38
-0.03789973259 -0.7795524001 0.1716397703 2.06466517e-38
0.1372605562 -0.7467156649 -0.001719012856 2.06466517e-38
0.304934144 -0.7251598835 -0.09447336197 2.06466517e-38
0.1721544862 -0.7398486137 -0.03866700828 2.06466517e-38
0.4006359279 -0.6850759983 -0.3532755971 2.06466517e-38
-0.04884026572 -0.7833400965 0.1953371465 2.06466517e-38
0.3596368432 -0.7062214613 -0.2129603922 2.06466517e-38
0.2700402141 -0.7320269942 -0.05752536654 2.082996116e-38
-0.2049445361 -0.3649330139 -0.1004321873 2.082996116e-38
0.3653177917 -0.5018185973 -0.1513567269 2.082996116e-38
0.2863952219 -0.712462306 -0.195971325 2.082996116e-38
0.4435273409 -0.4998856187 -0.06797890365 2.082996116e-38
-0.02038663998 -0.7074523568 -0.3556429148 2.082996116e-38
0.2603695095 -0.7110456824 -0.2168648988 2.082996116e-38
-0.1947645843 -0.3951322138 0.3267984986 2.082996116e-38
0.2091206461 -0.7374774814 -0.04147085547 2.101291328e-38
0.1482010782 -0.7429279685 -0.02541638911 2.101291328e-38
0.2877767384 -0.7154595852 -0.1732085347 2.101291328e-38
0.4020174444 -0.6880733967 -0.3305128217 2.101291328e-38
-0.1744465977 -0.3922787309 0.513150692 2.101291328e-38
0.3637814224 -0.715213418 -0.1446720362 2.101291328e-38
0.4215137362 -0.5136438608 -0.0412812531 2.101291328e-38
0.1365697831 -0.7452169657 -0.01310038567 2.101291328e-38
0.08578826487 -0.7176147699 -0.2379244566 2.119586541e-38
0.3774849772 -0.7174204588 -0.1228438765 2.119586541e-38
0.07987272739 -0.3821647465 -0.1912698448 2.119586541e-38
-0.01969587803 -0.7089509964 -0.3442615271 2.119586541e-38
0.3911885917 -0.7196273804 -0.1010156721 2.119586541e-38
0.2905398011 -0.7214542627 -0.1276829541 2.119586541e-38
-0.1936272681 -0.3765460253 0.1230644286 2.119586541e-38
0.2480474412 -0.7118360996 -0.2159302831 2.119586541e-38
0.04744057357 -0.7169885635 -0.2578834295 2.137881613e-38
-0.01545231696 -0.4376493394 0.3147264123 2.137881613e-38
-0.1796794683 -0.400336504 0.3713894784 2.137881613e-38
0.4122672081 -0.6827870011 -0.3655916452 2.137881613e-38
-0.1811935008 -0.4035220146 0.3279295266 2.137881613e-38
0.412666291 -0.4879783988 -0.168542251 2.137881613e-38
-0.205126062 -0.3726522326 0.156077534 2.137881613e-38
0.2693494558 -0.7305283546 -0.06890675426 2.137881613e-38
0.208429873 -0.7359788418 -0.05285228789 2.156176826e-38
0.4428365827 -0.4983869493 -0.07936029136 2.156176826e-38
-0.03339948878 -0.7067440748 -0.3660897017 2.156176826e-38
0.4813168049 -0.4928303957 -0.03870419413 2.156176826e-38
-0.1592426002 -0.3604610264 -0.1817747802 2.156176826e-38
-0.01900511235 -0.7104496956 -0.3328801394 2.156176826e-38
0.2904250324 -0.3863902688 0.02536462247 2.156176826e-38
0.2511326373 -0.3619195223 -0.2064201087 2.156176826e-38
0.1461287737 -0.7384319305 -0.05956059694 2.174471899e-38
0.2234033346 -0.7134168148 -0.2140610516 2.174471899e-38
0.1961078197 -0.7367691994 -0.05191767216 2.174471899e-38
0.4147385955 -0.4924743772 -0.1343980432 2.174471899e-38
-0.01532788947 -0.773475647 0.1356263161 2.174471899e-38
0.3747219443 -0.7114257812 -0.1683694422 2.174471899e-38
0.1414830685 -0.3782129288 -0.1959429234 2.174471899e-38
0.007934718393 -0.7688976526 0.1109943092 2.174471899e-38
-0.104233712 -0.8007798791 0.3024428189 2.192767111e-38
0.2617510259 -0.7140430212 -0.1941020936 2.192767111e-38
-0.1951413155 -0.3797315061 0.07960449159 2.192767111e-38
0.3934157789 -0.5077311993 -0.09631900489 2.192767111e-38
0.388425529 -0.7136327028 -0.1465412676 2.192767111e-38
0.4835423529 -0.4571944475 -0.1689654738 2.192767111e-38
0.232383281 -0.7328994274 -0.06610290706 2.192767111e-38
0.4040897489 -0.692569375 -0.2963686287 2.192767111e-38
-0.08304342628 -0.7917058468 0.2436665893 2.211062324e-38
0.2487381995 -0.7133347392 -0.2045488656 2.211062324e-38
0.2200611681 -0.733689785 -0.06516829133 2.211062324e-38
0.2789084315 -0.7237433195 -0.1153669581 2.211062324e-38
0.1214846671 -0.7400126457 -0.05769136548 2.211062324e-38
0.1538051218 -0.3774225712 -0.1968775392 2.211062324e-38
0.0221056696 -0.7170705795 -0.2673955858 2.211062324e-38
0.1617930084 -0.7173686028 -0.209387973 2.211062324e-38
-0.1151102632 -0.5264599323 -0.09420960397 2.229357396e-38
-0.2011139691 -0.3878270388 0.2036687881 2.229357396e-38
0.3851058185 -0.5236964226 -0.0477931425 2.229357396e-38
-0.1922457367 -0.379543364 0.145827204 2.229357396e-38
0.3776399195 -0.5010282397 -0.1522913426 2.229357396e-38
0.1331159621 -0.7377236485 -0.07000736892 2.229357396e-38
0.2018378675 -0.5308299065 -0.2675209045 2.229357396e-38
0.3945306838 -0.6993544102 -0.2499084473 2.229357396e-38
-0.1966553628 -0.3829170167 0.03614454344 2.247652609e-38
0.1204187274 -0.5468531251 -0.1813088059 2.247652609e-38
0.1327408403 -0.5460627079 -0.1822434217 2.247652609e-38
0.2652048469 -0.7215363383 -0.1371951103 2.247652609e-38
0.4194414318 -0.5091478229 -0.07542540878 2.247652609e-38
-0.03201796114 -0.709741354 -0.3433268964 2.247652609e-38
0.1830950081 -0.7360608578 -0.06236444414 2.247652609e-38
0.3783307076 -0.5025268793 -0.1409099698 2.247652609e-38
-0.2018047422 -0.3863283992 0.1922874004 2.265947681e-38
0.07841327786 -0.7566621304 0.04847964644 2.265947681e-38
0.395221442 -0.7008530498 -0.2385270298 2.265947681e-38
-0.1926922947 -0.399628222 0.3609426916 2.265947681e-38
-0.1948970854 -0.4013150334 0.3061013818 2.265947681e-38
0.1970025152 -0.5203392506 -0.3471906781 2.265947681e-38
0.1577600688 -0.7361429334 -0.07187660038 2.265947681e-38
0.2494289726 -0.7148333788 -0.1931674778 2.265947681e-38
0.08437325805 -0.4405065775 0.309315145 2.284242894e-38
0.09004457295 -0.7543730736 0.0361636579 2.284242894e-38
0.2501197457 -0.716332078 -0.1817860901 2.284242894e-38
0.1700821817 -0.7353525758 -0.07281121612 2.284242894e-38
0.07415697724 -0.7199038267 -0.2256084681 2.284242894e-38
0.2515012622 -0.7193293571 -0.1590232998 2.284242894e-38
-0.1782979369 -0.4033338428 0.3941523135 2.284242894e-38
