# .PCD v0.7 - Point Cloud Data file format
VERSION 0.7
FIELDS x y z rgb
SIZE 4 4 4 4
TYPE F F F F
COUNT 1 1 1 1
WIDTH 829
HEIGHT 1
VIEWPOINT 0 0 0 1 0 0 0
POINTS 829
DATA ascii
-0.2272881567 0.04311189055 -0.1030327976 2.09352309e-39
0.329264909 0.01527317241 0.03485377878 2.09352309e-39
0.07706412673 -0.4685159028 0.1234701872 2.09352309e-39
0.3156802952 -0.07140309364 0.02024819702 2.09352309e-39
0.03968423232 -0.4679087996 0.1230680346 2.09352309e-39
0.07847504318 -0.4883320034 -0.1133423746 2.09352309e-39
-0.03484985232 -0.5012537837 -0.1432440728 2.09352309e-39
-0.2832340002 -0.4835333824 -0.06749711931 2.09352309e-39
0.3244184554 -0.3571403325 -0.02361478843 2.277910146e-39
-0.06604918838 0.03834096342 -0.001824880019 2.277910146e-39
-0.3341032863 -0.4737521708 0.09388904274 2.277910146e-39
-0.2580364347 -0.4831355512 -0.1045285165 2.277910146e-39
0.3265864551 -0.1955649704 -0.007396068424 2.277910146e-39
0.06531092525 -0.4304301739 0.09934335947 2.277910146e-39
-0.1208730787 -0.4970085025 -0.1406446844 2.277910146e-39
0.127425611 -0.4319770336 0.1248799711 2.277910146e-39
-0.1651735008 0.04156501591 -0.0774962455 2.462297202e-39
-0.01648703031 0.03672893345 0.03601083532 2.462297202e-39
-0.3773630261 0.04393520206 -0.03004238382 2.462297202e-39
-0.02238990553 -0.5014561415 -0.1431100368 2.462297202e-39
0.3074719012 0.03146735579 0.03949607536 2.462297202e-39
0.2389915287 -0.50650841 -0.1029955298 2.462297202e-39
-0.3339181542 -0.4732171297 0.06902272999 2.462297202e-39
0.04726209491 -0.3947204351 0.4092847705 2.462297202e-39
-0.3085129559 -0.4961131215 -0.04319007322 2.646685659e-39
0.3280588984 -0.08378738165 0.007657893002 2.646685659e-39
-0.3329336941 -0.4345311821 0.007730493322 2.646685659e-39
-0.3345548809 -0.4870041907 0.130897373 2.646685659e-39
-0.06988788396 -0.3697130084 0.4529113173 2.646685659e-39
0.07208947837 -0.3953926861 0.4219860435 2.646685659e-39
0.3200244308 0.03153250366 0.02719696984 2.646685659e-39
-0.1574985385 -0.4105928242 -0.07684260607 2.646685659e-39
-0.2697307169 -0.4090389907 -0.06561588496 2.830713982e-39
-0.3334665895 -0.4599651098 0.03201440722 2.830713982e-39
0.05227727443 -0.5029378533 -0.1298725903 2.830713982e-39
-0.3645327985 0.04480291158 -0.07964101434 2.830713982e-39
0.01498999447 -0.5020632148 -0.1427078843 2.830713982e-39
-0.2831414342 -0.4832658768 -0.07993027568 2.830713982e-39
0.2950119078 0.03166972101 0.03936203197 2.830713982e-39
-0.3337330222 -0.4726820886 0.0441563651 2.830713982e-39
-0.1219770163 -0.4995696843 -0.1566156 3.015101038e-39
0.3131757379 -0.2697917819 -0.02171045355 3.015101038e-39
0.3259834647 -0.2450952828 -0.02099401318 3.015101038e-39
-0.3200221658 -0.4214815497 -0.0291437842 3.015101038e-39
-0.3346362114 -0.4991860986 0.1181730181 3.015101038e-39
0.06005859375 -0.3581094742 0.4351587296 3.015101038e-39
0.08965717256 -0.5035449862 -0.1294704527 3.015101038e-39
-0.06595662981 0.03860847652 -0.0142580336 3.015101038e-39
-0.2894028127 0.0446587652 -0.1285693645 3.199488094e-39
-0.3341846168 -0.4859341085 0.08116468787 3.199488094e-39
0.07234470546 -0.3707613051 0.4350015521 3.199488094e-39
0.07942582667 -0.4139027596 -0.09916203469 3.199488094e-39
0.3112742007 -0.4186502099 -0.05007115752 3.199488094e-39
-0.09532947838 -0.4066566229 0.4517696202 3.199488094e-39
-0.3340920508 -0.4856666028 0.06873153895 3.199488094e-39
-0.3328411281 -0.4342636466 -0.004702661186 3.199488094e-39
0.09188577533 -0.4141051471 -0.09902799129 3.383517819e-39
-0.1774483025 0.04230242223 -0.1024966091 3.383517819e-39
-0.3336292505 -0.484329015 0.006565703079 3.383517819e-39
-0.2022756636 0.04297467321 -0.1151978821 3.383517819e-39
-0.3337218165 -0.4845965207 0.01899885945 3.383517819e-39
-0.08450457454 -0.4999092817 -0.1686466038 3.383517819e-39
-0.1402535737 0.04116027802 -0.07722815126 3.383517819e-39
0.09004575014 -0.4313699305 0.1244778186 3.383517819e-39
0.004666026682 -0.4126885533 -0.09996632487 3.567904875e-39
0.03990989178 -0.5024679899 -0.1424397975 3.567904875e-39
-0.1154262051 0.04048801959 -0.06452687085 3.567904875e-39
-0.2830488682 -0.4829983413 -0.0923634544 3.567904875e-39
0.3231311142 -0.468382895 -0.06353505701 3.567904875e-39
-0.3719167113 -0.4976624548 -0.0598311983 3.567904875e-39
-0.2696381509 -0.4087714851 -0.07804904133 3.567904875e-39
0.07741190493 -0.4436169863 0.1240525842 3.567904875e-39
0.3451294601 0.03166280687 0.002598699182 3.75229193e-39
0.3161206543 -0.04623666778 0.008397437632 3.75229193e-39
0.2699994743 0.03180693835 0.05152708665 3.75229193e-39
0.008340330794 0.03605667502 0.04871208593 3.75229193e-39
0.05996602774 -0.3583770096 0.4475919008 3.75229193e-39
-0.1719093919 -0.499027729 -0.1447186023 3.75229193e-39
0.2199744731 0.03208138049 0.07585726678 3.75229193e-39
0.01508255675 -0.5017957091 -0.1551410705 3.75229193e-39
-0.189815715 0.04277230799 -0.1150638312 3.936320254e-39
-0.2820980847 -0.4085691273 -0.07818308473 3.936320254e-39
0.05364765599 -0.4876597226 -0.1260436624 3.936320254e-39
0.3272820115 -0.1457671374 -0.006231278181 3.936320254e-39
0.2449869812 0.03194416314 0.0636921525 3.936320254e-39
-0.0658640638 0.03887599707 -0.02669118717 3.936320254e-39
-0.127793625 0.0409579128 -0.07709410787 3.936320254e-39
-0.3083278239 -0.4955780804 -0.06805641204 3.936320254e-39
0.1406121999 -0.513707757 -0.1381208748 4.120708711e-39
-0.04619466141 -0.5104046464 -0.1525647789 4.120708711e-39
-0.04517379031 -0.4118790925 -0.1005025133 4.120708711e-39
-0.214643091 0.04344455898 -0.1277650893 4.120708711e-39
0.008432894014 0.03632419556 0.03627892956 4.120708711e-39
0.09102755785 -0.4882668257 -0.1256415099 4.120708711e-39
0.2266241312 -0.5060385466 -0.115562737 4.120708711e-39
0.3265051246 -0.2077469081 -0.0201204177 4.120708711e-39
0.314648211 -0.1580142379 -0.006656523794 4.304737034e-39
-0.1080653518 -0.4723119736 -0.1399282366 4.304737034e-39
-0.4224044681 -0.4987255931 0.02666475065 4.304737034e-39
0.08974973857 -0.5032774806 -0.1419035941 4.304737034e-39
0.07728978992 -0.5030750632 -0.142037645 4.304737034e-39
0.3076570332 0.03200238943 0.01462977007 4.304737034e-39
-0.3329224586 -0.4464456141 -0.01742707193 4.304737034e-39
-0.08286949992 -0.4068589807 0.451903671 4.304737034e-39
-0.2394703925 0.04411681741 -0.1404663622 4.48912409e-39
0.1659499705 -0.4651171863 -0.09938849509 4.48912409e-39
0.3246849179 -0.3444233537 -0.03575677425 4.48912409e-39
-0.07023566216 -0.3946119249 0.4523289204 4.48912409e-39
-0.1153336391 0.04075554013 -0.07696005702 4.48912409e-39
-0.2578513026 -0.4826005101 -0.1293948591 4.48912409e-39
-0.339242667 0.04546824098 -0.1291055679 4.48912409e-39
-0.009744832292 -0.5011234879 -0.1678423136 4.48912409e-39
0.3266790211 -0.1952974647 -0.01982922293 4.673152414e-39
0.3278037012 -0.108418785 -0.00535768643 4.673152414e-39
-0.2270104736 0.04391444474 -0.1403323114 4.673152414e-39
0.1657873243 -0.4894810319 -0.1248372272 4.673152414e-39
-0.2820055187 -0.4083015919 -0.0906162709 4.673152414e-39
0.2515440881 -0.5064432621 -0.1152946353 4.673152414e-39
-0.4146503508 0.04480983317 -0.04287768155 4.673152414e-39
0.07951839268 -0.4136352539 -0.1115951911 4.673152414e-39
0.3327620625 0.03213268518 -0.009968502447 4.857539469e-39
-0.3266901374 0.0455333963 -0.1414047033 4.857539469e-39
-0.1697733849 -0.4098553956 -0.101842992 4.857539469e-39
-0.1573134065 -0.4100577831 -0.1017089486 4.857539469e-39
-0.007701357361 -0.4122186899 -0.1125335246 4.857539469e-39
0.06705838442 -0.4134328961 -0.1117292419 4.857539469e-39
0.3242557943 -0.3815042078 -0.04906351864 4.857539469e-39
0.3240005672 -0.4061356187 -0.062079072 4.857539469e-39
0.1520495415 -0.5042892694 -0.1412333548 5.041567793e-39
0.2327121049 0.03268156946 0.03869179264 5.041567793e-39
0.3268529177 -0.1828480214 -0.01953802444 5.041567793e-39
-0.214550525 0.04371207952 -0.1401982754 5.041567793e-39
0.2577246428 0.03254434466 0.02652673051 5.041567793e-39
0.3160393238 -0.05841861665 -0.004326943308 5.041567793e-39
-0.3332589865 -0.4832589328 -0.0431669727 5.041567793e-39
-0.3194780052 -0.4079620242 -0.07858522981 5.041567793e-39
0.2017968297 -0.5053662658 -0.12826401 5.225597518e-39
-0.3892676234 0.04574268311 -0.1047754139 5.225597518e-39
-0.2078263462 -0.4828749597 -0.1537249982 5.225597518e-39
0.3156915307 -0.08331750333 -0.00490933843 5.225597518e-39
-0.1081466824 -0.4844939113 -0.1526526213 5.225597518e-39
0.1417256296 -0.414914608 -0.09849179536 5.225597518e-39
0.3237453401 -0.4307669997 -0.07509464771 5.225597518e-39
-0.02857675217 0.03800137341 -0.01385589037 5.225597518e-39
-0.3081426919 -0.4950430393 -0.09292274714 5.409984573e-39
-0.3265975714 0.0458009094 -0.1538378447 5.409984573e-39
0.02882032841 -0.4869875014 -0.1387449056 5.409984573e-39
-0.1524358541 0.04216520488 -0.1146616936 5.409984573e-39
0.3112854064 -0.430564642 -0.07522869855 5.409984573e-39
-0.07804631442 0.03988091648 -0.06412473321 5.409984573e-39
-0.4018201232 0.04567752779 -0.09247630835 5.409984573e-39
-0.04602076858 -0.4979551733 -0.1522735804 5.409984573e-39
0.008618019521 0.03685922921 0.01141262054 5.594012897e-39
-0.09041373432 0.04035080969 -0.07669195533 5.594012897e-39
-0.2764800489 0.04579398781 -0.1906011552 5.594012897e-39
-0.003749394789 0.03732912242 -0.001154640689 5.594012897e-39
-0.08431944251 -0.4993742406 -0.1935129464 5.594012897e-39
0.2328046709 0.03294908255 0.02625863627 5.594012897e-39
-0.1821407676 -0.4093855321 -0.1144101992 5.594012897e-39
0.1282447577 -0.513237834 -0.1506881118 5.594012897e-39
0.3264238238 -0.2199288607 -0.03284480423 5.77804122e-39
-0.3265050054 0.04606842995 -0.1662710011 5.77804122e-39
0.1035800725 -0.4882017076 -0.1379406154 5.77804122e-39
-0.2640200555 0.04559162259 -0.1904671043 5.77804122e-39
0.3233162463 -0.4678478539 -0.0884013921 5.77804122e-39
0.2578172088 0.03281186521 0.01409357786 5.77804122e-39
0.05818018317 0.03524719924 0.04924827442 5.77804122e-39
0.314740777 -0.1577467322 -0.0190896783 5.77804122e-39
0.1770619899 -0.5044264793 -0.1533984542 5.962428276e-39
0.3285918236 -0.05835346878 -0.0166260507 5.962428276e-39
0.3249513805 -0.3317063749 -0.04789873213 5.962428276e-39
0.1579523683 0.03389577568 0.03788750246 5.962428276e-39
0.3119697571 -0.3688524067 -0.048906371 5.962428276e-39
0.008710583672 0.03712674975 -0.001020591706 5.962428276e-39
-0.2888474166 0.04626387358 -0.2031683773 5.962428276e-39
-0.3328186572 -0.4580925107 -0.05501773208 5.962428276e-39
0.3149146438 -0.1452972591 -0.01879847981 6.1464566e-39
0.00290030241 -0.5007907748 -0.1925746053 6.1464566e-39
0.310774982 -0.4798273742 -0.1012598202 6.1464566e-39
0.08310007304 0.0348424688 0.04951636866 6.1464566e-39
0.1646946073 -0.5039566159 -0.1659656465 6.1464566e-39
0.1454924196 0.03409814835 0.03775345907 6.1464566e-39
-0.3389649689 0.04627079517 -0.1664050519 6.1464566e-39
-0.3264124393 0.04633595049 -0.1787041873 6.1464566e-39
0.1829648912 0.03375855088 0.02572244406 6.330484923e-39
-0.2091967314 -0.4981530905 -0.1575539261 6.330484923e-39
0.01536024734 -0.5009931326 -0.1924405694 6.330484923e-39
0.1418181956 -0.4146471024 -0.1109249517 6.330484923e-39
-0.4094817042 -0.497590363 -0.03536703065 6.330484923e-39
0.31283921 -0.3066051304 -0.04745038599 6.330484923e-39
-0.2342091799 -0.4980158806 -0.1453888416 6.330484923e-39
0.04590529576 0.03598460555 0.02424791828 6.330484923e-39
-0.05762250721 -0.4235911369 -0.1257940978 6.514514648e-39
0.3580522239 0.03279802203 -0.05943305418 6.514514648e-39
0.1523272395 -0.5034866929 -0.1785328537 6.514514648e-39
0.2019819468 -0.5048312545 -0.1531303525 6.514514648e-39
0.153930366 -0.4397483766 -0.1113732979 6.514514648e-39
-0.02092695609 -0.4859104753 -0.1517142802 6.514514648e-39
0.3116331995 -0.4056657255 -0.07464630157 6.514514648e-39
-0.08422688395 -0.499106735 -0.2059461027 6.514514648e-39
0.257909745 0.03307938576 0.001660363749 6.698542971e-39
-0.05813293904 -0.472853899 -0.1518252343 6.698542971e-39
-0.2818204165 -0.4077665806 -0.1154825762 6.698542971e-39
-0.3325521946 -0.4453755319 -0.06715971977 6.698542971e-39
-0.2514675558 0.04565677047 -0.2027662396 6.698542971e-39
0.3133608699 -0.2692567408 -0.04657679051 6.698542971e-39
0.3113779724 -0.4302971363 -0.08766184747 6.698542971e-39
-0.3079575896 -0.494508028 -0.1177890599 6.698542971e-39
-0.1647106856 0.04290260375 -0.1396620721 6.882571295e-39
-0.115055941 0.04155809432 -0.114259541 6.882571295e-39
-0.1703539044 -0.4832145572 -0.165756017 6.882571295e-39
-0.009467143565 -0.5003209114 -0.2051418126 6.882571295e-39
0.2454497963 0.03328175098 0.001526316628 6.882571295e-39
-0.2568079829 -0.4079037905 -0.1276476681 6.882571295e-39
-0.4267400205 0.04608226568 -0.09274441004 6.882571295e-39
0.2704622746 0.03314452618 -0.01063874178 6.882571295e-39
0.1955174059 0.03382370621 0.01342333853 7.066599618e-39
0.07082524896 0.03557986766 0.02451601624 7.066599618e-39
0.3272932768 -0.1576815844 -0.03138881177 7.066599618e-39
0.002992864698 -0.5005232692 -0.2050077617 7.066599618e-39
-0.1894454658 0.04384237528 -0.1647964716 7.066599618e-39
0.1082051024 0.03497276455 0.02491815761 7.066599618e-39
0.3144855499 -0.1823781282 -0.0321052596 7.066599618e-39
0.09574515373 0.03517512977 0.02478411049 7.066599618e-39
0.3115518689 -0.4178476632 -0.08737064898 7.250627941e-39
-0.1570357233 -0.4092552364 -0.1390084475 7.250627941e-39
0.04599785805 0.0362521261 0.01181476563 7.250627941e-39
-0.05795904621 -0.4604044557 -0.1515340358 7.250627941e-39
-0.2201937139 -0.4824050665 -0.1662922055 7.250627941e-39
0.01545280963 -0.5007256269 -0.2048737109 7.250627941e-39
0.2517292202 -0.5059082508 -0.1401609778 7.250627941e-39
-0.1216067597 -0.4984996319 -0.2063482404 7.250627941e-39
-0.2018128484 0.04431226104 -0.1773637086 7.434656265e-39
-0.1207692772 -0.5086554289 -0.1782353669 7.434656265e-39
-0.3327148259 -0.4697393775 -0.09260845184 7.434656265e-39
0.311807096 -0.3932162523 -0.07435510308 7.434656265e-39
-0.1332292557 -0.5084530711 -0.1783694178 7.434656265e-39
0.1524198055 -0.5032191873 -0.1909660399 7.434656265e-39
-0.3387798369 0.04680582881 -0.1912713945 7.434656265e-39
0.0336304754 0.03672201186 -0.0007524974644 7.434656265e-39
0.02126309276 0.03719189763 -0.01331969816 7.618684588e-39
0.1036726236 -0.4879341722 -0.1503738016 7.618684588e-39
-0.3080389202 -0.5066899657 -0.1305134445 7.618684588e-39
-0.4093891382 -0.4973228574 -0.04780018702 7.618684588e-39
-0.09659427404 -0.498636812 -0.2185133249 7.618684588e-39
-0.04489610344 -0.4110765457 -0.1378020048 7.618684588e-39
-0.003471706063 0.03813167661 -0.03845410049 7.618684588e-39
-0.3638848662 0.04667553306 -0.1666731536 7.618684588e-39
0.310867548 -0.4795598686 -0.1136929765 7.802712912e-39
-0.01997617818 -0.4114812613 -0.137533918 7.802712912e-39
-0.03429447487 -0.4996486604 -0.2178430855 7.802712912e-39
0.3283365965 -0.08298482746 -0.02964163013 7.802712912e-39
0.07091781497 0.03584738821 0.01208285987 7.802712912e-39
-0.3327961564 -0.481921345 -0.1053327993 7.802712912e-39
0.04609042406 0.03651964664 -0.000618448481 7.802712912e-39
-0.2017202973 0.04457977414 -0.189796865 7.802712912e-39
-0.2567154169 -0.4076362848 -0.1400808245 7.986382503e-39
0.09583771229 0.03544265032 0.01235095784 7.986382503e-39
-0.01583909057 0.03860155493 -0.05102133378 7.986382503e-39
0.3122361898 -0.356135428 -0.06104832888 7.986382503e-39
0.3117257655 -0.4053982198 -0.08707945794 7.986382503e-39
-0.09013604373 0.04115336388 -0.1139914542 7.986382503e-39
-0.2140877098 0.04504966736 -0.202364102 7.986382503e-39
0.3107862175 -0.4917418063 -0.1264173388 7.986382503e-39
0.3151811063 -0.1325803101 -0.03094046749 8.170410826e-39
0.3174304366 0.04117703438 -0.001997364685 8.170410826e-39
-0.2761098146 0.04686406255 -0.2403338253 8.170410826e-39
0.3140564561 -0.2194589674 -0.04541200399 8.170410826e-39
0.3582373559 0.03333305568 -0.084299393 8.170410826e-39
0.3162244558 -0.05788358301 -0.02919328399 8.170410826e-39
0.3206723928 0.03340513259 -0.05983519554 8.170410826e-39
-0.1205953807 -0.4962059259 -0.1779441684 8.170410826e-39
0.3232461512 -0.4919441938 -0.126283288 8.35443915e-39
-0.3512398005 0.04700820148 -0.1914054304 8.35443915e-39
0.3132795393 -0.2814387083 -0.05930114537 8.35443915e-39
-0.2691753507 -0.4074338973 -0.1402148753 8.35443915e-39
0.1582300514 0.03469832987 0.0005879811943 8.35443915e-39
-0.1215142012 -0.4982320964 -0.2187814265 8.35443915e-39
-0.421941638 -0.4973880053 -0.0355010815 8.35443915e-39
0.3153550029 -0.1201308444 -0.030649269 8.35443915e-39
0.2394543588 -0.5051708221 -0.1651613563 8.538467473e-39
-0.2575736344 -0.4817979634 -0.1666943431 8.538467473e-39
-0.2016277313 0.04484729469 -0.2022300512 8.538467473e-39
-0.3967440724 -0.4969902039 -0.07253247499 8.538467473e-39
0.3155288994 -0.1076813713 -0.03035807051 8.538467473e-39
-0.05294127017 0.04001121223 -0.08872297406 8.538467473e-39
-0.003379141912 0.03839918971 -0.05088728666 8.538467473e-39
-0.05237005651 -0.3889450133 0.3425811231 8.538467473e-39
-0.1839991063 -0.4977552891 -0.1945853233 8.722137064e-39
-0.1589866281 -0.497892499 -0.2067503929 8.722137064e-39
-0.1644329876 0.04370515794 -0.176961571 8.722137064e-39
-0.3763448298 0.04687789828 -0.1668071896 8.722137064e-39
0.3273858428 -0.1574140638 -0.04382196814 8.722137064e-39
0.329379946 -0.008288123645 -0.0278944429 8.722137064e-39
-0.1331366897 -0.5081855655 -0.190802604 8.722137064e-39
-0.1578013599 -0.4831493795 -0.1780551225 8.722137064e-39
-0.2566228509 -0.4073687494 -0.1525140107 8.906165387e-39
0.1774322391 -0.5033564568 -0.2031310946 8.906165387e-39
0.2082550377 0.03442388773 -0.02374213561 8.906165387e-39
-0.1079615504 -0.4839588702 -0.1775189191 8.906165387e-39
-0.4014498889 0.04674760252 -0.1422089785 8.906165387e-39
0.07110293955 0.03638242185 -0.01278350689 8.906165387e-39
0.3284291625 -0.08271731436 -0.04207478464 8.906165387e-39
-0.3260422051 0.04740601778 -0.2284368277 8.906165387e-39
-0.03234355897 -0.411011368 -0.1501011401 9.089834978e-39
-0.3716390133 -0.4968598783 -0.09713071585 9.089834978e-39
0.3256581426 -0.293822974 -0.07189147919 9.089834978e-39
-0.1643404365 0.04397267103 -0.1893947124 9.089834978e-39
-0.01988361403 -0.4112137258 -0.1499671042 9.089834978e-39
-0.2201011479 -0.482137531 -0.1787253618 9.089834978e-39
-0.4390149117 0.04681967944 -0.1177447885 9.089834978e-39
0.3236752748 -0.4548633397 -0.1129765287 9.089834978e-39
-0.2690827847 -0.4071663618 -0.1526480615 9.273863302e-39
0.3266089261 -0.2193938196 -0.05771110952 9.273863302e-39
0.3118183315 -0.4051306844 -0.09951263666 9.273863302e-39
-0.2385447621 0.04679199308 -0.2647980154 9.273863302e-39
-0.03337566927 -0.4976225197 -0.1770058274 9.273863302e-39
0.3333174586 0.03373779356 -0.08456748724 9.273863302e-39
0.3297277391 0.01661076024 -0.02731204964 9.273863302e-39
0.3258320391 -0.2813735604 -0.0716002807 9.273863302e-39
-0.2464840263 -0.4972784817 -0.170389235 9.457532893e-39
-0.1271456778 0.04283053428 -0.1641262323 9.457532893e-39
-0.02727623843 -0.3769002855 0.3431403935 9.457532893e-39
-0.2634646893 0.04719673097 -0.265066117 9.457532893e-39
-0.06521612406 0.04074862599 -0.1137233526 9.457532893e-39
0.3234312832 -0.4914091825 -0.1511496305 9.457532893e-39
-0.1205841452 -0.5081204176 -0.2031017095 9.457532893e-39
0.3235126138 -0.4792272151 -0.1384252757 9.457532893e-39
-0.3204063475 -0.5062201023 -0.1430806369 9.641561216e-39
-0.2066904455 -0.4079107046 -0.1644109637 9.641561216e-39
0.3260059059 -0.2689240873 -0.07130908221 9.641561216e-39
-0.1330441236 -0.5079180598 -0.2032357603 9.641561216e-39
-0.3065552115 -0.4068267941 -0.140617013 9.641561216e-39
-0.2089190334 -0.4973505437 -0.194853425 9.641561216e-39
0.05392534658 -0.4868571758 -0.1633431464 9.641561216e-39
-0.2759246826 0.04739909619 -0.2652001679 9.641561216e-39
0.3125026524 -0.3434184492 -0.07319031656 9.825230807e-39
0.3159692287 -0.08251494914 -0.04220882803 9.825230807e-39
0.0903051123 -0.5016723275 -0.2165026069 9.825230807e-39
-0.3320080638 -0.4318560064 -0.1166011617 9.825230807e-39
0.3131982088 -0.2936206162 -0.07202552259 9.825230807e-39
0.1047159731 -0.4132374227 -0.1486266255 9.825230807e-39
-0.3510546684 0.04754324257 -0.216271773 9.825230807e-39
0.3166647851 -0.0327171497 -0.04104404151 9.825230807e-39
0.1027650684 -0.5018746853 -0.2163685709 1.000925913e-38
0.1171759218 -0.4134397805 -0.1484925747 1.000925913e-38
0.1526049227 -0.502684176 -0.2158323675 1.000925913e-38
-0.2339314818 -0.497213304 -0.1826883405 1.000925913e-38
-0.158894062 -0.4976249635 -0.2191835642 1.000925913e-38
0.04636811092 0.03732220083 -0.03791791201 1.000925913e-38
-0.2440703064 -0.4073036015 -0.1648131162 1.000925913e-38
0.1650648564 -0.5028865337 -0.2156983316 1.000925913e-38
0.327478379 -0.1571465433 -0.05625511706 1.019292872e-38
0.009173397906 0.03846433759 -0.06318639219 1.019292872e-38
0.2958450019 0.03407738358 -0.07253647596 1.019292872e-38
-0.1076137722 -0.4590599537 -0.1769365221 1.019292872e-38
0.1284298897 -0.5127027631 -0.1755544096 1.019292872e-38
-0.2011649162 0.04618488252 -0.2643958926 1.019292872e-38
0.3144967556 -0.1942925304 -0.05726276338 1.019292872e-38
0.3235238492 -0.4911416471 -0.1635828167 1.019292872e-38
-0.1888900846 0.04544748366 -0.2393954843 1.037659831e-38
-0.2633721232 0.04746425152 -0.2774992883 1.037659831e-38
-0.3966515064 -0.4967226982 -0.08496563137 1.037659831e-38
-0.002356315032 -0.377305001 0.3434084952 1.037659831e-38
-0.2213789821 -0.497148186 -0.1949874759 1.037659831e-38
0.3246260285 -0.3804341257 -0.09879619628 1.037659831e-38
-0.3322632909 -0.4564873874 -0.1296167523 1.037659831e-38
0.3285216987 -0.08244979382 -0.05450793356 1.037659831e-38
0.3252290487 -0.3309038281 -0.08519822359 1.056062664e-38
0.3112265766 -0.4665753841 -0.138268128 1.056062664e-38
-0.3887122273 0.04734779149 -0.1793744266 1.056062664e-38
0.3137198687 -0.2562722564 -0.07115193456 1.056062664e-38
0.3283478022 -0.09489926696 -0.05479913205 1.056062664e-38
-0.2758321166 0.04766661674 -0.2776333094 1.056062664e-38
0.325576812 -0.3060049415 -0.08461582661 1.056062664e-38
-0.2075486481 -0.482072413 -0.1910244972 1.056062664e-38
-0.08683294058 -0.470141381 -0.2547473311 1.074429623e-38
0.2334526032 0.03482171148 -0.06077353284 1.074429623e-38
0.133587867 0.03590562195 -0.03697957844 1.074429623e-38
0.3237678409 -0.4545958042 -0.1254096925 1.074429623e-38
-0.02792881243 0.03987400234 -0.1008880287 1.074429623e-38
0.08374802023 0.03671509773 -0.03751576692 1.074429623e-38
0.02163334563 0.03826197237 -0.06305234134 1.074429623e-38
-0.07437299192 -0.4703437388 -0.2546132803 1.074429623e-38
0.3243708313 -0.4050655365 -0.1118117496 1.092796582e-38
-0.3384096026 0.04787590355 -0.2410040647 1.092796582e-38
0.2709251046 0.03448212147 -0.0728045702 1.092796582e-38
-0.3064626455 -0.4065592587 -0.1530501992 1.092796582e-38
0.09620796889 0.03651272506 -0.0373817198 1.092796582e-38
-0.02074183151 -0.4853754342 -0.176580593 1.092796582e-38
-0.3203137815 -0.5059525371 -0.155513823 1.092796582e-38
0.311237812 -0.4784897864 -0.1634256542 1.092796582e-38
-0.2508196235 0.04752939939 -0.2897983789 1.111163541e-38
-0.002448878251 -0.3775725067 0.3558416665 1.111163541e-38
0.3138937652 -0.2438228428 -0.07086073607 1.111163541e-38
-0.3635146022 0.04774560779 -0.2164058238 1.111163541e-38
-0.1076951027 -0.4712418914 -0.1896609068 1.111163541e-38
-0.08976578712 0.04222343117 -0.1637240946 1.111163541e-38
-0.2088264823 -0.4970830381 -0.2072865814 1.111163541e-38
-0.06191304699 -0.4705461264 -0.2544792295 1.111163541e-38
0.3239417076 -0.4421463609 -0.125118494 1.1295305e-38
-0.03336443007 -0.5095369816 -0.2021633685 1.1295305e-38
-0.04471097514 -0.4105415046 -0.1626683474 1.1295305e-38
0.3270492554 -0.1942273825 -0.06956189871 1.1295305e-38
0.2085327208 0.03522644192 -0.06104162708 1.1295305e-38
-0.3325184882 -0.4811187983 -0.1426322907 1.1295305e-38
0.3140676618 -0.2313733697 -0.07056953758 1.1295305e-38
-0.1941379309 -0.4078455269 -0.1767100692 1.1295305e-38
0.2460051775 0.03488685936 -0.07307267189 1.147897319e-38
0.1586003155 0.03576839715 -0.04914466292 1.147897319e-38
-0.2190578133 -0.4074408114 -0.1769781709 1.147897319e-38
-0.08665905148 -0.4576919377 -0.2544561327 1.147897319e-38
-0.01979105175 -0.4109462202 -0.1624002457 1.147897319e-38
0.3273970485 -0.1693284661 -0.06897950172 1.147897319e-38
-0.2714039683 -0.4968737364 -0.1706573218 1.147897319e-38
-0.1885198355 0.0465175584 -0.2891281247 1.147897319e-38
0.3173603714 0.01708064601 -0.039879255 1.166264278e-38
0.07138063014 0.03718497604 -0.05008299649 1.166264278e-38
-0.1075212061 -0.458792448 -0.1893697083 1.166264278e-38
-0.3257645071 0.04820857197 -0.2657363713 1.166264278e-38
-0.2439777404 -0.4070360661 -0.1772462726 1.166264278e-38
0.2710176706 0.03474963456 -0.08523772657 1.166264278e-38
0.02172590792 0.03852949291 -0.07548552752 1.166264278e-38
0.3132907748 -0.2933531106 -0.08445867896 1.166264278e-38
-0.4137247205 0.04748500884 -0.1672093421 1.184631237e-38
-0.07730580866 0.0420210585 -0.1635900438 1.184631237e-38
-0.207456097 -0.4818049073 -0.2034576386 1.184631237e-38
0.3175342381 0.02953014709 -0.0395880565 1.184631237e-38
-0.1515102237 0.04484038055 -0.2389933467 1.184631237e-38
0.326446265 -0.2437576801 -0.0831598416 1.184631237e-38
-0.06173915789 -0.458096683 -0.254188031 1.184631237e-38
0.3291359544 -0.04483392835 -0.06606752425 1.184631237e-38
-0.1636924893 0.04584529996 -0.2764268816 1.202998196e-38
-0.003008890897 0.03946926445 -0.100619927 1.202998196e-38
-0.4388297796 0.04735471308 -0.1426111311 1.202998196e-38
-0.2881994843 0.0481365025 -0.2902005315 1.202998196e-38
-0.05785525218 -0.4720513523 -0.1891247183 1.202998196e-38
0.1711528152 0.03583355248 -0.06144377217 1.202998196e-38
0.312084794 -0.3924137056 -0.111654602 1.202998196e-38
0.3266201615 -0.2313082069 -0.08286864311 1.202998196e-38
-0.2573885024 -0.4812629223 -0.1915606856 1.221365155e-38
0.06647786498 -0.486792028 -0.175642252 1.221365155e-38
0.3151110113 -0.15667665 -0.06882235408 1.221365155e-38
0.3282665014 -0.1070811898 -0.06752351671 1.221365155e-38
0.3297389448 0.004696353804 -0.05246955156 1.221365155e-38
0.05901324749 0.03765486181 -0.0626502037 1.221365155e-38
0.2460977435 0.03515437245 -0.08550582081 1.221365155e-38
0.3267940581 -0.2188587785 -0.08257744461 1.221365155e-38
0.2522845864 -0.5043030977 -0.2147599906 1.239732115e-38
-0.2824009359 -0.4811257124 -0.1793956012 1.239732115e-38
0.3115743399 -0.4416764975 -0.1376857311 1.239732115e-38
0.1048085392 -0.4129699171 -0.161059767 1.239732115e-38
0.06742863357 -0.4123628139 -0.1614619195 1.239732115e-38
-0.2688976526 -0.4066313207 -0.1775143594 1.239732115e-38
0.315284878 -0.1442271769 -0.06853115559 1.239732115e-38
-0.03327186778 -0.5092694759 -0.2145965546 1.239732115e-38
-0.4216639698 -0.4965854585 -0.07280057669 1.258099074e-38
-0.3324259222 -0.4808512628 -0.1550654769 1.258099074e-38
0.07147319615 0.03745249659 -0.06251615286 1.258099074e-38
-0.1512325406 0.04564293474 -0.2762928605 1.258099074e-38
-0.2838639021 -0.4966713786 -0.1707913727 1.258099074e-38
0.3238015175 -0.4903391004 -0.2008823007 1.258099074e-38
-0.1824436039 -0.4819421172 -0.215622738 1.258099074e-38
0.3273157179 -0.1815104187 -0.08170385659 1.258099074e-38
0.26474455 -0.5045055151 -0.2146259397 1.276466033e-38
-0.1076838672 -0.4831563234 -0.2148184478 1.276466033e-38
-0.05793657526 -0.4842333198 -0.2018490732 1.276466033e-38
-0.1442055106 -0.408387512 -0.1886070669 1.276466033e-38
0.3248924911 -0.3677171767 -0.1109381542 1.276466033e-38
0.3168498874 -0.03218211606 -0.06591037661 1.276466033e-38
0.3587927222 0.03493816406 -0.1588983685 1.276466033e-38
-0.1511399746 0.04591045529 -0.288726002 1.276466033e-38
0.3115968108 -0.465505302 -0.1880007684 1.294832852e-38
-0.002916326746 0.03973678499 -0.1130531132 1.294832852e-38
-0.2713114023 -0.4966062009 -0.1830904782 1.294832852e-38
0.1587854326 0.03630343825 -0.07401099801 1.294832852e-38
-0.1192855984 -0.4087922573 -0.1883389652 1.294832852e-38
0.2836627066 0.03508231044 -0.1099700183 1.294832852e-38
0.0591058135 0.03792238235 -0.07508338988 1.294832852e-38
-0.2948609293 -0.4809233248 -0.1795296371 1.294832852e-38
0.1661575735 -0.4884109497 -0.174569875 1.313163938e-38
-0.04461841285 -0.4102739692 -0.1751015037 1.313163938e-38
0.3288807273 -0.06946531683 -0.07908307761 1.313163938e-38
0.3148557842 -0.181308046 -0.08183789998 1.313163938e-38
0.3086752295 0.03494508564 -0.1221350729 1.313163938e-38
0.3118408024 -0.4289595485 -0.1498276889 1.313163938e-38
0.2337303013 0.03562426567 -0.09807302058 1.313163938e-38
0.3296576142 -0.007485570386 -0.06519393623 1.313163938e-38
0.3280112743 -0.1317125857 -0.08053906262 1.331530897e-38
0.3116781712 -0.4533233643 -0.1752764136 1.331530897e-38
0.3150296807 -0.1688585728 -0.08154670149 1.331530897e-38
0.04165052623 -0.486119777 -0.1883435398 1.331530897e-38
-0.05776268616 -0.4717838466 -0.2015578747 1.331530897e-38
0.3283590674 -0.1068136767 -0.07995666564 1.331530897e-38
-0.01969848946 -0.4106786847 -0.174833402 1.331530897e-38
0.312014699 -0.4165100753 -0.1495364904 1.331530897e-38
0.3116080463 -0.477419734 -0.2131583095 1.349897856e-38
-0.3632369339 0.04854816198 -0.2537053227 1.349897856e-38
0.3240679801 -0.4776221216 -0.2130242586 1.349897856e-38
0.0467383638 0.03839226812 -0.08765058219 1.349897856e-38
-0.2823083699 -0.4808582067 -0.1918287724 1.349897856e-38
-0.1441129595 -0.4081200063 -0.2010402232 1.349897856e-38
-0.06466074288 0.04235372692 -0.1883223355 1.349897856e-38
0.1713379472 0.03636858612 -0.08631010354 1.349897856e-38
0.315377444 -0.1439596564 -0.08096431196 1.368228942e-38
0.3137311041 -0.2681866586 -0.09630946815 1.368228942e-38
-0.3714538813 -0.4963248372 -0.1219970286 1.368228942e-38
0.3304345012 0.05449417979 -0.05130476505 1.368228942e-38
-0.2687125206 -0.4060963094 -0.2023807019 1.368228942e-38
-0.1316530108 -0.4083223641 -0.2009061724 1.368228942e-38
0.3178006709 0.04224710539 -0.05173000693 1.368228942e-38
0.3274082839 -0.181242913 -0.09413703531 1.368228942e-38
-0.08930297196 0.043561019 -0.2258899212 1.386595901e-38
0.3249850571 -0.3674496412 -0.1233713105 1.386595901e-38
-0.1016703621 0.04403090477 -0.2384571582 1.386595901e-38
-0.3757894635 0.04848300666 -0.2414062023 1.386595901e-38
-0.120213896 -0.5070503354 -0.2528343797 1.386595901e-38
0.3142527938 -0.2308383435 -0.09543587267 1.386595901e-38
0.1464180499 0.03677332401 -0.08657820523 1.386595901e-38
0.3244858682 -0.4286268651 -0.1745599806 1.386595901e-38
-0.1191930324 -0.4085247517 -0.2007721215 1.404926846e-38
0.3118632734 -0.4527883232 -0.2001427561 1.404926846e-38
-0.2837713659 -0.4964038432 -0.183224529 1.404926846e-38
-0.107336089 -0.4582574069 -0.2142360508 1.404926846e-38
0.03014135733 -0.4114881754 -0.1742972136 1.404926846e-38
0.3120259345 -0.4284245074 -0.1746940315 1.404926846e-38
0.317371577 0.005166240502 -0.06503678858 1.404926846e-38
-0.02755855955 0.04094406962 -0.1506206989 1.404926846e-38
0.1838905215 0.036433734 -0.09860920906 1.423293806e-38
0.3121885955 -0.404060632 -0.1492452919 1.423293806e-38
-0.1814002693 -0.4072453678 -0.2138755471 1.423293806e-38
0.2213629186 0.03609415144 -0.1106402576 1.423293806e-38
-0.1138526276 0.04503582418 -0.275890708 1.423293806e-38
-0.2947683632 -0.4806558192 -0.1919628233 1.423293806e-38
0.1663314551 -0.4759615064 -0.1742786765 1.423293806e-38
0.3249037266 -0.3796315789 -0.1360957026 1.423293806e-38
0.02200359665 0.0393320471 -0.1127850264 1.441624891e-38
0.3339653909 0.03561042249 -0.1715996563 1.441624891e-38
0.04683092609 0.03865978867 -0.1000837386 1.441624891e-38
-0.0151911471 0.04047418386 -0.1380535066 1.441624891e-38
0.3289732933 -0.06919779629 -0.09151625633 1.441624891e-38
0.3119558394 -0.4525208175 -0.2125759125 1.441624891e-38
0.2588353753 0.03575456142 -0.1226712614 1.441624891e-38
0.3175454736 0.01761568151 -0.06474559009 1.441624891e-38
0.2089029849 0.03629651666 -0.1107743084 1.459991851e-38
-0.05715969205 -0.4222535491 -0.1879599243 1.459991851e-38
0.07998120785 -0.4122976363 -0.1737610251 1.459991851e-38
0.3284516335 -0.1065461561 -0.09238985181 1.459991851e-38
-0.4341239333 -0.4963831007 -0.07293462753 1.459991851e-38
0.3131281137 -0.3177169859 -0.109907411 1.459991851e-38
0.02928314358 -0.4856499135 -0.2009107322 1.459991851e-38
0.04174309224 -0.4858522713 -0.2007766813 1.459991851e-38
-0.05767012388 -0.4715163112 -0.2139910609 1.478322936e-38
0.3340579569 0.03587793559 -0.1840328127 1.478322936e-38
-0.1440203935 -0.4078524709 -0.2134734094 1.478322936e-38
0.1662501395 -0.4881434441 -0.1870030612 1.478322936e-38
-0.05741490424 -0.4468849599 -0.2009754777 1.478322936e-38
-0.1573385447 -0.4818117917 -0.2402209491 1.478322936e-38
0.3215054572 0.03581279516 -0.1717336923 1.478322936e-38
0.3133020103 -0.3052675426 -0.1096162125 1.478322936e-38
0.3123624921 -0.3916111588 -0.1489540935 1.496689755e-38
-0.05210820585 0.0424188748 -0.2006214708 1.496689755e-38
0.3120484054 -0.4522532821 -0.2250090986 1.496689755e-38
0.1340506822 0.03724320978 -0.09914541245 1.496689755e-38
-0.207178399 -0.4810023308 -0.2407571375 1.496689755e-38
-0.3882494271 0.04868537933 -0.2415402532 1.496689755e-38
-0.2062276304 -0.4065731168 -0.2265768051 1.496689755e-38
-0.02046414092 -0.4845728874 -0.2138801068 1.496689755e-38
-0.1013001055 0.04510097951 -0.2881897986 1.515020841e-38
-0.2586662769 -0.4962735772 -0.2078227699 1.515020841e-38
0.3268052936 -0.2307731807 -0.1077349856 1.515020841e-38
0.1215907335 0.037445575 -0.09927944839 1.515020841e-38
-0.2962312996 -0.4962014854 -0.1833585799 1.515020841e-38
-0.107243523 -0.4579899013 -0.2266692072 1.515020841e-38
-0.1200400144 -0.4946008325 -0.2525431812 1.515020841e-38
-0.06438305229 0.04315628111 -0.2256218344 1.515020841e-38
0.3242531121 -0.4770870805 -0.2378906012 1.533351927e-38
-0.1074987352 -0.4826212823 -0.2396847606 1.533351927e-38
-0.1803344637 -0.3563775122 -0.2624434233 1.533351927e-38
0.3159916997 -0.1063437834 -0.09252390265 1.533351927e-38
-0.3074021935 -0.4929029047 -0.1923880726 1.533351927e-38
0.0842108354 0.03805268556 -0.09968160093 1.533351927e-38
-0.07665786892 0.04389368743 -0.2506222129 1.533351927e-38
0.3467030525 0.03621061146 -0.2087650895 1.533351927e-38
0.3178932369 0.04251462221 -0.06416319311 1.551683013e-38
0.3119670749 -0.4644352496 -0.2377334535 1.551683013e-38
-0.2320983112 -0.4805975854 -0.2410252392 1.551683013e-38
0.03023391962 -0.4112206697 -0.1867303997 1.551683013e-38
0.3122222722 -0.4398038685 -0.2247179002 1.551683013e-38
0.3246822059 -0.4400062263 -0.2245838493 1.551683013e-38
0.1288001388 -0.5116327405 -0.2252870798 1.551683013e-38
-0.1070696265 -0.445540458 -0.2263780087 1.551683013e-38
0.004455752671 -0.4849776328 -0.21361202 1.570049832e-38
-0.04443328828 -0.4097389579 -0.1999678314 1.570049832e-38
-0.2810798883 -0.4056264162 -0.214947924 1.570049832e-38
-0.02728086896 0.04174662381 -0.1879201978 1.570049832e-38
-0.1191817969 -0.4204391837 -0.2259296626 1.570049832e-38
0.2369520962 -0.4878524244 -0.251553297 1.570049832e-38
-0.04537282884 -0.4960825443 -0.2393057197 1.570049832e-38
0.3285441995 -0.106278643 -0.1048230082 1.570049832e-38
0.3150409162 -0.1807730198 -0.1067042425 1.588380918e-38
0.3132206798 -0.3174494505 -0.1223405674 1.588380918e-38
0.1664240211 -0.4756940007 -0.1867118627 1.588380918e-38
-0.1697059572 -0.4813419282 -0.2527881861 1.588380918e-38
-0.3713613153 -0.4960573316 -0.1344302148 1.588380918e-38
0.3125476241 -0.3910761178 -0.173820436 1.588380918e-38
0.3127915859 -0.3545303047 -0.1356473416 1.588380918e-38
-0.180774793 -0.3815439343 -0.250592649 1.588380918e-38
0.3153887093 -0.1558741033 -0.1061218455 1.606712004e-38
0.3254254162 -0.3422832191 -0.1352221072 1.606712004e-38
0.3272456229 -0.2056067586 -0.119585745 1.606712004e-38
-0.1447860301 -0.4817466736 -0.2525200844 1.606712004e-38
0.0718434453 0.03852257133 -0.112248823 1.606712004e-38
-0.01951336302 -0.4101436734 -0.1996997446 1.606712004e-38
0.3251000941 -0.3910109401 -0.1861195415 1.606712004e-38
0.2590205073 0.03628959507 -0.147537604 1.606712004e-38
0.1840756387 0.03696876764 -0.1234755516 1.625043089e-38
0.05429559574 -0.4857870936 -0.2130758315 1.625043089e-38
0.3270717561 -0.2180562317 -0.1198769435 1.625043089e-38
-0.1324074268 -0.494130969 -0.2651104033 1.625043089e-38
0.2966780663 0.0364850387 -0.1844349504 1.625043089e-38
-0.2558010221 -0.3930466771 -0.2392549515 1.625043089e-38
-0.2685273886 -0.4055612683 -0.2272470295 1.625043089e-38
-0.2711262703 -0.4960711896 -0.2079568207 1.625043089e-38
-0.4132619202 0.04882259667 -0.2293751687 1.643374035e-38
0.3127102554 -0.3667122722 -0.1483716965 1.643374035e-38
0.1666792333 -0.4510626197 -0.1736962795 1.643374035e-38
0.0676137656 -0.4118277729 -0.1863282472 1.643374035e-38
-0.4383669496 0.04869230092 -0.2047769576 1.643374035e-38
0.316432029 -0.08117736131 -0.104374662 1.643374035e-38
0.3126289248 -0.3788941801 -0.1610960811 1.643374035e-38
0.1716156304 0.03717114031 -0.1236096025 1.643374035e-38
0.2620458901 -0.4758076966 -0.2509939969 1.661705121e-38
-0.02037157863 -0.4843053818 -0.2263132632 1.661705121e-38
-0.2695707381 -0.4802580178 -0.2289942205 1.661705121e-38
0.2215480357 0.03662918508 -0.1355066001 1.661705121e-38
0.1872861236 -0.4745934904 -0.2517982721 1.661705121e-38
-0.2176217586 -0.3555028737 -0.2752787471 1.661705121e-38
-0.002453511581 0.04107437283 -0.1752189398 1.661705121e-38
0.005406530574 -0.4105484188 -0.1994316429 1.661705121e-38
0.3295875192 -0.03158193082 -0.1030758247 1.680036207e-38
-0.1558548659 -0.3819486797 -0.2503245473 1.680036207e-38
0.3139162362 -0.2676516175 -0.1211757734 1.680036207e-38
0.2591130733 0.03655711561 -0.1599707603 1.680036207e-38
-0.1927018762 -0.355907619 -0.2750106454 1.680036207e-38
0.00991390273 0.04060447961 -0.1626517177 1.680036207e-38
-0.06392023712 0.0444938764 -0.2877876461 1.680036207e-38
0.3146118224 -0.2178538591 -0.1200109795 1.680036207e-38
-0.3629592359 0.04935071617 -0.2910048068 1.698367293e-38
0.3261209726 -0.2924853861 -0.1340573132 1.698367293e-38
0.3468881547 0.03674564511 -0.2336314321 1.698367293e-38
-0.1312014163 -0.3950703442 -0.2379144728 1.698367293e-38
0.2716656029 0.03662226349 -0.1722698957 1.698367293e-38
-0.408926338 -0.4959852695 -0.1099660248 1.698367293e-38
0.3124887347 -0.4270869195 -0.236859858 1.698367293e-38
0.3125700653 -0.414904952 -0.2241355032 1.698367293e-38
-0.2320057452 -0.4803300798 -0.2534584105 1.716698239e-38
0.02228128724 0.04013459384 -0.1500845104 1.716698239e-38
0.1041354388 -0.4865965843 -0.2125396281 1.716698239e-38
-0.4465838969 -0.4961807132 -0.07306866348 1.716698239e-38
-0.1433949172 -0.3821510375 -0.2501904964 1.716698239e-38
0.05947606266 0.03899244964 -0.1248160303 1.716698239e-38
0.3179858029 0.04278213903 -0.07659634948 1.716698239e-38
0.3122335374 -0.451718241 -0.2498753965 1.716698239e-38
0.2873136401 -0.4513135254 -0.2501434982 1.735029324e-38
0.3301905394 0.01794834994 -0.08947788179 1.735029324e-38
0.326816529 -0.2426876128 -0.1328925192 1.735029324e-38
0.3124074042 -0.4392688274 -0.249584198 1.735029324e-38
-0.1572235078 -0.5053731203 -0.3029691577 1.735029324e-38
0.3128028214 -0.3664447367 -0.1608048826 1.735029324e-38
-0.002360949293 0.04134188592 -0.1876520962 1.735029324e-38
0.2341931164 0.0369618535 -0.1602388471 1.735029324e-38
0.2999474406 -0.4390664399 -0.2497182488 1.75336041e-38
0.3269904256 -0.2302381396 -0.1326013207 1.75336041e-38
0.1538126618 -0.5117699504 -0.2374521494 1.75336041e-38
0.3254366517 -0.3541976213 -0.1603796333 1.75336041e-38
-0.05155282468 0.04402398318 -0.2752204537 1.75336041e-38
-0.1072322875 -0.4699043036 -0.2518267632 1.75336041e-38
0.2968631983 0.03702007979 -0.2093012929 1.75336041e-38
-0.2425416857 -0.3550981283 -0.2755468488 1.75336041e-38
0.3258657455 -0.317116797 -0.1470728666 1.771655483e-38
0.2843106687 0.03695493191 -0.1970021874 1.771655483e-38
-0.2320758402 -0.5044264793 -0.2913402915 1.771655483e-38
0.3150521517 -0.192687422 -0.1318617761 1.771655483e-38
0.3287293315 -0.1057436019 -0.1296893507 1.771655483e-38
-0.05146025866 0.04429150373 -0.287653625 1.771655483e-38
0.2217331678 0.03716421872 -0.160372898 1.771655483e-38
0.3136610389 -0.2922830284 -0.134191364 1.771655483e-38
0.3138349354 -0.279833585 -0.1339001656 1.789986569e-38
-0.2835862339 -0.4958688319 -0.2080908716 1.789986569e-38
0.325122565 -0.4148398042 -0.2364346087 1.789986569e-38
0.3265613019 -0.2673189938 -0.1459080726 1.789986569e-38
-0.2300924063 -0.0195326563 -0.2458727956 1.789986569e-38
0.3252038956 -0.4026578665 -0.2237102538 1.789986569e-38
-0.2049985975 -0.007487921044 -0.2453134954 1.789986569e-38
0.3128140271 -0.378359139 -0.1859623939 1.789986569e-38
-0.204824701 0.004961520899 -0.2450222969 1.808317654e-38
0.3177306056 0.01815071702 -0.08961192518 1.808317654e-38
0.3276046515 -0.1926222742 -0.1441608816 1.808317654e-38
0.3130580485 -0.3418133557 -0.1477892995 1.808317654e-38
-0.2319131941 -0.4800625741 -0.2658915818 1.808317654e-38
0.3145304918 -0.2300357819 -0.1327353716 1.808317654e-38
0.3267351985 -0.2548695505 -0.1456168741 1.808317654e-38
-0.2297446281 0.005366256926 -0.2452903986 1.808317654e-38
-0.1073836982 -0.506182611 -0.3024329841 1.826612727e-38
-0.2050692588 -0.3554377258 -0.2875778377 1.826612727e-38
-0.2427262813 -0.03177973256 -0.2462980449 1.826612727e-38
-0.2055202574 -0.04483630881 -0.2461870909 1.826612727e-38
-0.1926093102 -0.3556401134 -0.2874437869 1.826612727e-38
-0.002268385142 0.04160940647 -0.2000852823 1.826612727e-38
0.3128953874 -0.3661772311 -0.173238039 1.826612727e-38
-0.2550123334 -0.01912791841 -0.2461408973 1.826612727e-38
0.3172201514 -0.03111204319 -0.115643017 1.844943813e-38
-0.2807209194 -0.3926419318 -0.2395230383 1.844943813e-38
0.05956862867 0.03925997019 -0.1372492164 1.844943813e-38
-0.2060419321 -0.08218465745 -0.2470606863 1.844943813e-38
-0.2175291926 -0.355235368 -0.2877118886 1.844943813e-38
0.3253665268 -0.3782939911 -0.1982615292 1.844943813e-38
0.3254478574 -0.3661120534 -0.1855371445 1.844943813e-38
0.2969557345 0.03728759289 -0.2217344493 1.844943813e-38
-0.1686620712 -0.08279176056 -0.2466585338 1.863274899e-38
-0.2550016642 -0.3548957705 -0.2756808698 1.863274899e-38
-0.2934473157 -0.4051565528 -0.2275151312 1.863274899e-38
0.3270829916 -0.2299706191 -0.1450344771 1.863274899e-38
-0.3319743276 -0.4675992429 -0.1920737773 1.863274899e-38
-0.04526903108 -0.5077294707 -0.2768964469 1.863274899e-38
-0.24203071 0.01801806875 -0.245133251 1.863274899e-38
0.2752014399 -0.426212281 -0.249695152 1.863274899e-38
-0.1303095073 -0.356651932 -0.2867735624 1.881569971e-38
-0.4005242586 0.04942277819 -0.2665406466 1.881569971e-38
0.2376476526 -0.4380545914 -0.2503885031 1.881569971e-38
0.3293435574 -0.068127729 -0.1412489116 1.881569971e-38
0.3288218975 -0.1054760888 -0.1421225071 1.881569971e-38
-0.1312827617 -0.4072522819 -0.2506388426 1.881569971e-38
0.3153186142 -0.1799704581 -0.144003734 1.881569971e-38
-0.2555339932 -0.05647627637 -0.2470144928 1.881569971e-38
-0.156028226 -0.07054466009 -0.2462332845 1.899901057e-38
0.3171388507 -0.04329396784 -0.1283674091 1.899901057e-38
-0.229989171 -0.3550330102 -0.2878459394 1.899901057e-38
0.07202856988 0.03905760497 -0.1371151656 1.899901057e-38
-0.1188227832 -0.4074546695 -0.2505048215 1.899901057e-38
-0.2193606496 -0.4799973965 -0.2781907022 1.899901057e-38
0.3295174539 -0.05567828938 -0.1409577131 1.899901057e-38
-0.2418568283 0.03046751209 -0.2448420525 1.899901057e-38
0.005499094725 -0.4102808833 -0.2118648291 1.91819627e-38
-0.2544906437 0.01822043583 -0.2452673018 1.91819627e-38
-0.1189966649 -0.4199041426 -0.25079602 1.91819627e-38
-0.007819068618 -0.4842402041 -0.2386123687 1.91819627e-38
0.317394048 -0.01866257191 -0.1153518334 1.91819627e-38
0.325215131 -0.4145722687 -0.2488677502 1.91819627e-38
-0.04518770427 -0.495547533 -0.2641720474 1.91819627e-38
0.326653868 -0.2670514584 -0.1583412588 1.91819627e-38
-0.03280905262 -0.5079318881 -0.2767623961 1.936527215e-38
0.1468808651 0.03811091185 -0.1487440318 1.936527215e-38
-0.4130767882 0.04935763776 -0.2542415261 1.936527215e-38
-0.08561570942 -0.3829951882 -0.2527089417 1.936527215e-38
0.271943301 0.03742481768 -0.2095693797 1.936527215e-38
0.3156664073 -0.1550715417 -0.143421337 1.936527215e-38
0.3146230578 -0.2297682613 -0.145168528 1.936527215e-38
-0.3312787712 -0.4178014398 -0.1909089833 1.936527215e-38
-0.1677926183 -0.0205444973 -0.2452025712 1.954822428e-38
-0.2443731427 -0.4798602164 -0.2660256326 1.954822428e-38
-0.1918430924 0.04210753739 -0.2440146506 1.954822428e-38
0.08448851854 0.03885523975 -0.1369811147 1.954822428e-38
-0.05763641745 -0.5072596073 -0.2894636393 1.954822428e-38
-0.2319019586 -0.4919769764 -0.291049093 1.954822428e-38
-0.1073023826 -0.4940006733 -0.2897086143 1.954822428e-38
0.3298652172 -0.03077937476 -0.1403753161 1.954822428e-38
-0.2434218377 -0.08157755435 -0.2474628389 1.973153514e-38
0.313069284 -0.3537277579 -0.1729468405 1.973153514e-38
-0.216589123 0.05496171489 -0.2439915538 1.973153514e-38
0.3256217539 -0.3536625803 -0.185245946 1.973153514e-38
0.02255897596 0.04093714803 -0.1873839945 1.973153514e-38
-0.2669505775 0.01842280477 -0.2454013526 1.973153514e-38
-0.2290490717 0.05516408384 -0.2441256046 1.973153514e-38
-0.0327277258 -0.4957499206 -0.2640379965 1.973153514e-38
-0.3316265643 -0.4427003562 -0.1914913803 1.991448586e-38
-0.106965825 -0.4571873546 -0.2639687061 1.991448586e-38
-0.2415090501 0.05536645278 -0.2442596555 1.991448586e-38
0.3254590929 -0.3780264854 -0.2106946856 1.991448586e-38
-0.2541428804 0.04311937839 -0.2446849048 1.991448586e-38
0.1539865434 -0.4993204474 -0.2371609509 1.991448586e-38
-0.2444432229 -0.5039565563 -0.3039075136 1.991448586e-38
0.1844459027 0.03803884238 -0.1732082218 1.991448586e-38
0.3160141706 -0.1301726401 -0.1428389549 2.009743799e-38
-0.4464913309 -0.4959132075 -0.08550181985 2.009743799e-38
0.2594833374 0.03762719035 -0.2097034305 2.009743799e-38
-0.1430465877 -0.03339867666 -0.245225668 2.009743799e-38
0.3301204443 -0.00614798069 -0.1273597777 2.009743799e-38
-0.2819381356 -0.4797881246 -0.2415614277 2.009743799e-38
-0.2795844674 0.006175730843 -0.245826602 2.009743799e-38
0.2720358372 0.03769233078 -0.2220025361 2.009743799e-38
0.3154111803 -0.1797029376 -0.1564369202 2.028074885e-38
-0.1817956567 -0.4800694883 -0.3026548624 2.028074885e-38
0.3258770108 -0.3290311992 -0.1722303927 2.028074885e-38
-0.131456092 -0.09584830701 -0.2465476096 2.028074885e-38
-0.2539689839 0.055568818 -0.2443937063 2.028074885e-38
-0.2569957674 -0.5040217042 -0.2916083932 2.028074885e-38
0.3152372837 -0.1921523809 -0.1567281187 2.028074885e-38
0.3300391138 -0.01832990535 -0.1400841177 2.028074885e-38
-0.1067919433 -0.4447379112 -0.2636775076 2.046369957e-38
0.3172314167 -0.04302645102 -0.1408005655 2.046369957e-38
-0.169183746 -0.1201401204 -0.2475321293 2.046369957e-38
0.3260508776 -0.3165817559 -0.1719391942 2.046369957e-38
0.3140200675 -0.2792985439 -0.1587665081 2.046369957e-38
0.3253890276 -0.4021228254 -0.2485765815 2.046369957e-38
0.1969984025 0.03810399026 -0.1855073273 2.046369957e-38
-0.1428726912 -0.02094923519 -0.2449344695 2.046369957e-38
-0.1546371132 0.0290509332 -0.2439037263 2.06466517e-38
0.3132431805 -0.3412783146 -0.172655642 2.06466517e-38
0.1595259458 0.03844358027 -0.1734763235 2.06466517e-38
0.1300061196 -0.4125721157 -0.1980911642 2.06466517e-38
0.3263986707 -0.2916828394 -0.1713568121 2.06466517e-38
-0.2549090981 -0.3546282649 -0.2881140411 2.06466517e-38
0.3177418411 0.006236311514 -0.1147694364 2.06466517e-38
-0.2568331361 -0.4796578288 -0.2661596835 2.06466517e-38
-0.2443619072 -0.4917746186 -0.2911831439 2.082996116e-38
-0.1436501443 -0.4067824185 -0.2632060647 2.082996116e-38
-0.130586639 -0.03360104561 -0.2450916171 2.082996116e-38
-0.05739243329 -0.4707137644 -0.2512905598 2.082996116e-38
-0.2790628076 0.04352411628 -0.2449530065 2.082996116e-38
-0.4129842222 0.04962515086 -0.2666746974 2.082996116e-38
0.1095935479 0.0389855355 -0.1615793258 2.082996116e-38
0.3159328401 -0.142354548 -0.1555633247 2.082996116e-38
-0.1442638189 -0.1205448508 -0.2472640276 2.101291328e-38
-0.04509513825 -0.4952799976 -0.2766052485 2.101291328e-38
0.1415378302 -0.5110325813 -0.2624525428 2.101291328e-38
0.1470659971 0.03864595294 -0.1736103743 2.101291328e-38
0.3277897835 -0.192087248 -0.1690272242 2.101291328e-38
