# .PCD v0.7 - Point Cloud Data file format
VERSION 0.7
FIELDS x y z rgb
SIZE 4 4 4 4
TYPE F F F F
COUNT 1 1 1 1
WIDTH 823
HEIGHT 1
VIEWPOINT 0 0 0 1 0 0 0
POINTS 823
DATA ascii
-0.1710792184 -0.2902882397 -0.2251811773 5.225597518e-39
-0.333350271 -0.372128427 -0.3532938361 5.409984573e-39
-0.2184845656 -0.1151863933 -0.2216406018 5.409984573e-39
-0.06007547677 -0.3670737743 -0.2132887691 5.409984573e-39
-0.1534951031 0.0827254951 -0.2038780451 5.409984573e-39
-0.204285726 0.009105777368 -0.2185945809 5.409984573e-39
-0.2177889943 -0.06538856775 -0.2204758078 5.409984573e-39
-0.1703023314 -0.228308484 -0.2112920284 5.409984573e-39
-0.3303352892 -0.124476932 -0.2853040695 5.409984573e-39
-0.3301613927 -0.1120274812 -0.2850128412 5.594012897e-39
-0.1093936563 -0.3289159536 -0.2129513621 5.594012897e-39
-0.3321554959 -0.2611534297 -0.3009403944 5.594012897e-39
-0.2183106691 -0.1027369499 -0.2213494033 5.594012897e-39
0.02662256919 -0.405838728 -0.2132240236 5.594012897e-39
-0.1792844683 0.02088296413 -0.2056021243 5.594012897e-39
-0.3283299208 0.01273456868 -0.2945340872 5.594012897e-39
-0.2278846204 0.08500977606 -0.2544150054 5.594012897e-39
-0.2181367874 -0.09028748423 -0.2210582048 5.77804122e-39
-0.1664767414 0.04557953775 -0.2048856914 5.77804122e-39
-0.3330950439 -0.3474970758 -0.3402782679 5.77804122e-39
-0.3335942626 -0.4086742401 -0.3914669752 5.77804122e-39
-0.3327584863 -0.3106837273 -0.3145383596 5.77804122e-39
-0.1536689848 0.07027605921 -0.2041692436 5.77804122e-39
-0.3335129321 -0.3964922726 -0.3787425756 5.77804122e-39
-0.3278895617 0.03790096939 -0.3063848019 5.77804122e-39
-0.1944341362 -0.1778384 -0.2228284925 5.962428276e-39
-0.2030572742 0.08433752507 -0.2417137325 5.962428276e-39
0.06382852793 -0.4188953042 -0.2131130844 5.962428276e-39
-0.2402520031 0.08547966182 -0.2669821978 5.962428276e-39
-0.1929616779 -0.06606081873 -0.2077745646 5.962428276e-39
-0.1660363972 0.07074593753 -0.2167364508 5.962428276e-39
-0.1817189306 -0.1534093618 -0.2096788883 5.962428276e-39
-0.1782298982 0.08366526663 -0.2290124744 5.962428276e-39
-0.02295082435 -0.3923122585 -0.2259021699 6.1464566e-39
-0.166650638 0.03313003853 -0.2051768899 6.1464566e-39
-0.08464761823 -0.3417701423 -0.2129744738 6.1464566e-39
-0.1918257773 0.008903409354 -0.21846053 6.1464566e-39
-0.2061985135 -0.1278381944 -0.2217977494 6.1464566e-39
-0.2053290606 -0.06559093297 -0.2203417569 6.1464566e-39
-0.1919996738 -0.00354603352 -0.2187517285 6.1464566e-39
-0.3325846195 -0.2982342839 -0.3142471313 6.1464566e-39
-0.169606775 -0.178510651 -0.2101272345 6.330484923e-39
-0.3271827698 0.07578439265 -0.3303775787 6.330484923e-39
-0.1934833527 -0.1034092009 -0.2086481452 6.330484923e-39
-0.179806143 -0.0164653901 -0.2064757198 6.330484923e-39
-0.1410351545 0.08252312988 -0.2037439942 6.330484923e-39
-0.2060246319 -0.1153887659 -0.2215065509 6.330484923e-39
-0.02286949567 -0.3801303208 -0.21317783 6.330484923e-39
-0.1823219359 -0.2029396743 -0.2232768387 6.330484923e-39
-0.1217610314 -0.3284460604 -0.2255185694 6.514514648e-39
0.03900118917 -0.4182230234 -0.2258143276 6.514514648e-39
-0.192347452 -0.02844494767 -0.2193341255 6.514514648e-39
-0.2898141444 0.08709169179 -0.304817915 6.514514648e-39
0.03908251971 -0.4060410857 -0.2130899727 6.514514648e-39
-0.332410723 -0.2857848406 -0.3139559627 6.514514648e-39
-0.1821480393 -0.1904902011 -0.2229856402 6.514514648e-39
-0.04761552811 -0.3672761619 -0.2131547183 6.514514648e-39
-0.09693367779 -0.3291183412 -0.2128173262 6.698542971e-39
-0.2056768537 -0.09048984945 -0.2209241539 6.698542971e-39
-0.1580162346 -0.2409602851 -0.2114491761 6.698542971e-39
-0.1586192399 -0.2904905975 -0.2250471264 6.698542971e-39
-0.3293732703 -0.06196214259 -0.2962812781 6.698542971e-39
-0.1534025371 0.0829930082 -0.2163112015 6.698542971e-39
-0.1576684564 -0.2160613686 -0.2108667791 6.698542971e-39
-0.333257705 -0.3718609214 -0.3657270074 6.698542971e-39
-0.1340471208 -0.3157941997 -0.2253614217 6.882571295e-39
-0.3021815121 0.08756158501 -0.3173851371 6.882571295e-39
-0.326916337 0.08850134909 -0.3425195217 6.882571295e-39
-0.3145489395 0.08803146333 -0.3299522996 6.882571295e-39
-0.1463331729 -0.3031423986 -0.2252042741 6.882571295e-39
-0.1939124614 -0.1404900402 -0.221954897 6.882571295e-39
-0.1705575436 -0.2529398501 -0.2243075818 6.882571295e-39
-0.1819741577 -0.1780407578 -0.2226944417 6.882571295e-39
-0.08472894132 -0.35395208 -0.2256988287 7.066599618e-39
-0.3277969956 0.03816848993 -0.3188180327 7.066599618e-39
-0.3333390355 -0.3840428293 -0.3784513474 7.066599618e-39
-0.3322368264 -0.2733353674 -0.3136647344 7.066599618e-39
0.01433651336 -0.393186897 -0.2130668759 7.066599618e-39
-0.3285851479 -0.01189682726 -0.3075495958 7.066599618e-39
-0.1535764188 0.07054357231 -0.2166023999 7.066599618e-39
-0.1459040791 -0.2660615742 -0.2118975222 7.066599618e-39
-0.3329211473 -0.3350476027 -0.3399870992 7.250627941e-39
-0.1573206782 -0.191162467 -0.2102843821 7.250627941e-39
0.01425518654 -0.4053688049 -0.2257912308 7.250627941e-39
-0.3330025077 -0.3472295403 -0.3527114391 7.250627941e-39
-0.3287590146 -0.02434627153 -0.3078408241 7.250627941e-39
-0.1795396954 -0.003748401534 -0.2186176777 7.250627941e-39
-0.166558072 0.03339755535 -0.2176100314 7.250627941e-39
-0.1690851003 -0.1411622912 -0.2092536539 7.250627941e-39
-0.1935646832 -0.1155911312 -0.2213725001 7.434656265e-39
-0.3279708922 0.02571904659 -0.3191092014 7.434656265e-39
-0.1816263646 -0.1531418413 -0.2221120447 7.434656265e-39
-0.3289329112 -0.03679573908 -0.3081319928 7.434656265e-39
-0.179713577 -0.01619787328 -0.2189088762 7.434656265e-39
-0.1537503153 0.05809413269 -0.2168935984 7.434656265e-39
-0.277354151 0.08688932657 -0.3046838641 7.434656265e-39
-0.1673461944 -0.01666775905 -0.206341669 7.434656265e-39
-0.215332076 0.08507493138 -0.2667140961 7.618684588e-39
-0.1698619872 -0.2031420469 -0.2231427878 7.618684588e-39
-0.1415568292 0.04517479986 -0.2046175897 7.618684588e-39
-0.05990158767 -0.354624331 -0.2129975706 7.618684588e-39
-0.1781373471 0.08393278718 -0.2414456308 7.618684588e-39
-0.1457301825 -0.2536121011 -0.2116063237 7.618684588e-39
-0.1569729 -0.1662635803 -0.209702 7.618684588e-39
-0.3299762607 -0.1114924476 -0.3098791838 7.618684588e-39
-0.3291068077 -0.04924518242 -0.3084232211 7.802712912e-39
-0.3326659203 -0.3104161918 -0.3269715309 7.802712912e-39
-0.330324024 -0.1363913566 -0.3104615808 7.802712912e-39
-0.193216905 -0.09069221467 -0.2207901031 7.802712912e-39
-0.3304979205 -0.1488407999 -0.310752809 7.802712912e-39
-0.2276994884 0.08554481715 -0.2792813182 7.802712912e-39
-0.07218766958 -0.3419725001 -0.212840423 7.802712912e-39
-0.1287490875 0.06987132132 -0.2039011419 7.802712912e-39
-0.1093010902 -0.3286484182 -0.2253845185 7.986382503e-39
-0.1453824043 -0.2287132144 -0.2110239267 7.986382503e-39
-0.145556286 -0.2411626577 -0.2113151252 7.986382503e-39
-0.3292807043 -0.06169462204 -0.3087143898 7.986382503e-39
-0.326823771 0.08876886219 -0.354952693 7.986382503e-39
-0.08447372913 -0.329320699 -0.2126832753 7.986382503e-39
-0.3144564033 0.08829898387 -0.3423854709 7.986382503e-39
-0.3310196102 -0.1861891598 -0.3116263747 7.986382503e-39
-0.1450346261 -0.2038142979 -0.2104415447 8.170410826e-39
-0.1582714617 -0.265591681 -0.2244647294 8.170410826e-39
-0.153924197 0.04564468935 -0.2171847969 8.170410826e-39
-0.1567990035 -0.1538141072 -0.2094108015 8.170410826e-39
-0.3283186853 0.0008201628225 -0.3196915984 8.170410826e-39
-0.3277044296 0.03843600675 -0.3312511444 8.170410826e-39
-0.3313673735 -0.2110880613 -0.3122087717 8.170410826e-39
0.02679645829 -0.3933892846 -0.2129328251 8.170410826e-39
-0.1678678691 -0.05401611701 -0.2072152644 8.35443915e-39
-0.1215871423 -0.3159965873 -0.2252273709 8.35443915e-39
-0.1338732392 -0.3033447862 -0.2250702232 8.35443915e-39
-0.1687373221 -0.1162633821 -0.2086712569 8.35443915e-39
-0.1533099711 0.08326052874 -0.2287443876 8.35443915e-39
-0.1213319302 -0.291365236 -0.2122118175 8.35443915e-39
-0.1446868479 -0.1789153814 -0.2098591477 8.35443915e-39
-0.1540980935 0.03319518641 -0.2174759954 8.35443915e-39
-0.1334441304 -0.2662639618 -0.2117634714 8.538467473e-39
-0.1804091334 -0.06599567086 -0.2200736701 8.538467473e-39
-0.1161152199 0.08211839199 -0.2034759074 8.538467473e-39
-0.3269976676 0.0763194263 -0.3552439213 8.538467473e-39
-0.2028721422 0.08487255871 -0.2665800452 8.538467473e-39
-0.1445129514 -0.1664659381 -0.2095679492 8.538467473e-39
-0.3288403451 -0.03652822226 -0.3205652237 8.538467473e-39
-0.277261585 0.08715684712 -0.3171170354 8.538467473e-39
-0.1672536284 -0.01640024222 -0.2187748253 8.722137064e-39
-0.1332702339 -0.2538144886 -0.2114722729 8.722137064e-39
-0.1689925343 -0.1408947706 -0.2216867954 8.722137064e-39
-0.1459853947 -0.2782434821 -0.2246218771 8.722137064e-39
-0.1807569265 -0.09089458734 -0.2206560522 8.722137064e-39
-0.116289109 0.06966894865 -0.203767091 8.722137064e-39
-0.132748574 -0.2164661139 -0.2105986923 8.722137064e-39
-0.2896290123 0.08762672544 -0.3296842575 8.722137064e-39
-0.3297097981 -0.09877549112 -0.3220211864 8.906165387e-39
-0.3295359015 -0.08632601798 -0.3217299581 8.906165387e-39
-0.1292707622 0.03252293542 -0.2047747374 8.906165387e-39
-0.1324007809 -0.1915671974 -0.2100162953 8.906165387e-39
-0.3282261193 0.001087680459 -0.3321247697 8.906165387e-39
-0.1676014066 -0.04129915312 -0.2193572223 8.906165387e-39
-0.3302314579 -0.136123836 -0.322894752 8.906165387e-39
-0.3276118934 0.03870352358 -0.3436843157 8.906165387e-39
-0.1555817723 -0.06666792184 -0.2073724121 9.089834978e-39
-0.326731205 0.08903638273 -0.3673858643 9.089834978e-39
-0.3329912722 -0.3591439426 -0.3778689504 9.089834978e-39
-0.1286565214 0.07013883442 -0.2163342983 9.089834978e-39
-0.1688186377 -0.1284452975 -0.2213955969 9.089834978e-39
-0.1322268993 -0.1791177541 -0.2097250968 9.089834978e-39
-0.1780447811 0.08420030028 -0.2538788319 9.089834978e-39
-0.3284000158 -0.01136179175 -0.3324159384 9.089834978e-39
0.03917507827 -0.4057735503 -0.2255231291 9.273863302e-39
-0.1557556689 -0.07911739498 -0.2076636106 9.273863302e-39
-0.1416381449 0.03299281746 -0.2173419446 9.273863302e-39
-0.05972769856 -0.3421748877 -0.2127063721 9.273863302e-39
-0.331448704 -0.2232700139 -0.3249331713 9.273863302e-39
-0.04752296582 -0.3670086265 -0.2255878747 9.273863302e-39
-0.1424262673 -0.01707249507 -0.2060735822 9.273863302e-39
-0.1320530027 -0.1666683108 -0.2094338983 9.273863302e-39
-0.1561034471 -0.1040163115 -0.2082460076 9.457532893e-39
-0.08429984003 -0.3168712258 -0.2123920768 9.457532893e-39
-0.1546197683 -0.004153138492 -0.218349576 9.457532893e-39
-0.264801681 0.08695447445 -0.3169829845 9.457532893e-39
-0.3323994875 -0.2976992428 -0.3391134739 9.457532893e-39
-0.1686447561 -0.115995869 -0.2211043984 9.457532893e-39
-0.1679491848 -0.06619804353 -0.2199396193 9.457532893e-39
-0.32778579 0.0262540821 -0.343975544 9.457532893e-39
-0.1559295654 -0.09156683832 -0.2079548091 9.641561216e-39
-0.2027795762 0.08514007926 -0.2790132165 9.641561216e-39
-0.1456376165 -0.2533445656 -0.2240394801 9.641561216e-39
-0.108871989 -0.2915675938 -0.2120777816 9.641561216e-39
-0.1427740455 -0.04197141156 -0.2066559643 9.641561216e-39
-0.14546372 -0.2408951372 -0.2237482816 9.641561216e-39
-0.1547936499 -0.01660261117 -0.2186407745 9.641561216e-39
-0.1452898383 -0.2284456939 -0.2234570831 9.641561216e-39
-0.3269051015 0.07658694685 -0.3676770926 9.825230807e-39
-0.09658589959 -0.3042194247 -0.2122349292 9.825230807e-39
-0.1431218237 -0.06687029451 -0.2072383612 9.825230807e-39
0.01442907564 -0.3929193616 -0.2255000323 9.825230807e-39
-0.3322255909 -0.2852497995 -0.3388223052 9.825230807e-39
-0.1449420601 -0.2035467774 -0.2228746861 9.825230807e-39
-0.3289216757 -0.04871014878 -0.3332895637 9.825230807e-39
-0.1549675465 -0.02905205078 -0.218931973 9.825230807e-39
-0.1418120414 0.02054337598 -0.2176331431 1.000925913e-38
-0.1684708595 -0.1035464257 -0.2208132148 1.000925913e-38
-0.1432957202 -0.0793197602 -0.2075295597 1.000925913e-38
-0.1447681636 -0.1910973042 -0.2225834876 1.000925913e-38
-0.277169019 0.08742436022 -0.3295502067 1.000925913e-38
-0.1038291678 0.06946658343 -0.2036330551 1.000925913e-38
-0.1290043145 0.04523995146 -0.2169166952 1.000925913e-38
-0.1682969779 -0.09109695256 -0.2205220163 1.000925913e-38
-0.1208102554 -0.2540168464 -0.2113382369 1.019292872e-38
-0.3320516944 -0.2728003263 -0.3385310769 1.019292872e-38
-0.3281335831 0.001355198096 -0.3445578814 1.019292872e-38
-0.1202885881 -0.2166684866 -0.2104646415 1.019292872e-38
-0.1168107837 0.03232056648 -0.2046406865 1.019292872e-38
-0.1434696168 -0.09176920354 -0.2078207582 1.019292872e-38
-0.1206363663 -0.2415673882 -0.2110470384 1.019292872e-38
-0.3275193274 0.0389710404 -0.356117487 1.019292872e-38
-0.1553153247 -0.0539509654 -0.21951437 1.037659831e-38
-0.1655848324 0.08399793506 -0.253744781 1.037659831e-38
-0.03498166054 -0.3550290763 -0.2127294689 1.037659831e-38
-0.3292694688 -0.07360906154 -0.3338719606 1.037659831e-38
-0.3328173757 -0.3466944993 -0.3775777817 1.037659831e-38
-0.1779522151 0.08446782082 -0.2663119733 1.037659831e-38
-0.07209511101 -0.3417049646 -0.2252735794 1.037659831e-38
-0.3142712712 0.08883401752 -0.3672518134 1.037659831e-38
-0.08438116312 -0.3290531635 -0.2251164317 1.056062664e-38
-0.3297911286 -0.1109574139 -0.3347455263 1.056062664e-38
-0.1040030569 0.05701713637 -0.2039242536 1.056062664e-38
-0.1554892063 -0.06640040874 -0.2198055685 1.056062664e-38
-0.1304879934 -0.05462322012 -0.2068131268 1.056062664e-38
-0.1306618899 -0.06707265973 -0.2071043104 1.056062664e-38
-0.1421598196 -0.004355506506 -0.2182155401 1.056062664e-38
-0.3299650252 -0.1234068498 -0.3350367546 1.056062664e-38
-0.1561847776 -0.1161982343 -0.2209703624 1.074429623e-38
-0.04726774991 -0.3423772454 -0.2125723213 1.074429623e-38
-0.1212393641 -0.2910977006 -0.2246449739 1.074429623e-38
-0.1194191352 -0.1544212103 -0.209008649 1.074429623e-38
-0.1163704321 0.05748702586 -0.2164914459 1.074429623e-38
-0.1328298897 -0.2286480665 -0.2233230323 1.074429623e-38
-0.132656008 -0.2161985934 -0.2230318487 1.074429623e-38
-0.1331776679 -0.2535469532 -0.2239054292 1.074429623e-38
-0.01031698566 -0.3800651729 -0.2254769355 1.092796582e-38
-0.1440726072 -0.141299516 -0.2214187086 1.092796582e-38
-0.1311835498 -0.1044210419 -0.2079779059 1.092796582e-38
-0.1324821115 -0.20374915 -0.2227406502 1.092796582e-38
-0.1407574564 0.08332568407 -0.2410434932 1.092796582e-38
-0.09641201049 -0.2917699814 -0.2119437307 1.092796582e-38
-0.08412595093 -0.3044217825 -0.2121008784 1.092796582e-38
-0.1293520927 0.0203410089 -0.2174990922 1.092796582e-38
-0.3328987062 -0.3588764369 -0.3903021812 1.111163541e-38
-0.3308344781 -0.1856541187 -0.3364927173 1.111163541e-38
-0.330486685 -0.160755232 -0.3359103203 1.111163541e-38
-0.1192452461 -0.1419717669 -0.2087174505 1.111163541e-38
-0.1035627127 0.08218353987 -0.215775013 1.111163541e-38
-0.1319604367 -0.1664007902 -0.2218670547 1.111163541e-38
-0.1165443286 0.04503758624 -0.2167826444 1.111163541e-38
-0.07183989137 -0.3170735836 -0.212258026 1.111163541e-38
-0.2026870102 0.08540759236 -0.2914463878 1.1295305e-38
-0.1171585619 0.007421680726 -0.2052230835 1.1295305e-38
-0.1076547578 -0.204421401 -0.2100393921 1.1295305e-38
-0.119071357 -0.1295222938 -0.208426252 1.1295305e-38
-0.2770764828 0.08769188076 -0.3419833183 1.1295305e-38
-0.108002536 -0.2293203175 -0.2106217891 1.1295305e-38
-0.143724829 -0.1164006069 -0.2208363116 1.1295305e-38
-0.1081764251 -0.2417697608 -0.2109129876 1.1295305e-38
-0.1043508425 0.03211819753 -0.2045066506 1.147897319e-38
-0.1654922664 0.0842654556 -0.2661779225 1.147897319e-38
-0.3274267614 0.03923856094 -0.3685506582 1.147897319e-38
-0.1210654676 -0.2786482275 -0.2243537754 1.147897319e-38
-0.1295259744 0.007891567424 -0.2177902907 1.147897319e-38
-0.117332451 -0.005027761217 -0.205514282 1.147897319e-38
-0.3291769326 -0.07334154099 -0.3463050723 1.147897319e-38
-0.1176802292 -0.0299266763 -0.206096679 1.147897319e-38
-0.118201904 -0.06727502495 -0.2069702744 1.166264278e-38
-0.1183757931 -0.07972449809 -0.2072614729 1.166264278e-38
-0.1185496822 -0.09217394143 -0.2075526714 1.166264278e-38
-0.3293507993 -0.08579098433 -0.3465963006 1.166264278e-38
-0.1296998709 -0.004557875451 -0.2180814892 1.166264278e-38
-0.1208915785 -0.2661987841 -0.2240625769 1.166264278e-38
-0.1298737526 -0.0170073472 -0.2183726877 1.166264278e-38
-0.1302215457 -0.04190625995 -0.2189550847 1.166264278e-38
-0.1314387769 -0.1290524006 -0.2209934592 1.184631237e-38
-0.3296985924 -0.1106898934 -0.3471786976 1.184631237e-38
-0.09171697497 0.04436532781 -0.2040814012 1.184631237e-38
-0.1213206947 -0.3032796383 -0.2373693585 1.184631237e-38
-0.1307432055 -0.07925461978 -0.2198286653 1.184631237e-38
0.002142962068 -0.3802675307 -0.2253428847 1.184631237e-38
-0.3316113949 -0.2476338744 -0.3503818512 1.184631237e-38
0.03943029791 -0.3811421692 -0.2125075907 1.184631237e-38
-0.1168921068 0.02013863996 -0.2173650414 1.202998196e-38
-0.08395206183 -0.2919723392 -0.2118096799 1.202998196e-38
-0.08420727402 -0.3166036904 -0.2248252332 1.202998196e-38
-0.3277745545 0.01433967613 -0.3691330552 1.202998196e-38
-0.1312648803 -0.1166029721 -0.2207022607 1.202998196e-38
-0.09606422484 -0.2668710649 -0.2113613337 1.202998196e-38
-0.1087794229 -0.2913000584 -0.2245109379 1.202998196e-38
-0.07192122191 -0.3292555213 -0.2249823809 1.202998196e-38
-0.0662754029 0.08130892366 -0.2029397041 1.221365155e-38
-0.3300463557 -0.1355888098 -0.3477610946 1.221365155e-38
-0.3314374983 -0.2351844311 -0.3500906825 1.221365155e-38
-0.09484699368 -0.1797248572 -0.2093229443 1.221365155e-38
-0.09536866844 -0.217073217 -0.2101965398 1.221365155e-38
-0.1048725098 -0.005230130162 -0.2053802311 1.221365155e-38
-0.09554255754 -0.2295226902 -0.2104877383 1.221365155e-38
-0.1653997004 0.08453297615 -0.278611064 1.221365155e-38
-0.1050463989 -0.01767960005 -0.2056714296 1.239732115e-38
-0.09571644664 -0.2419721335 -0.2107789367 1.239732115e-38
-0.3312636018 -0.2227349877 -0.3497994542 1.239732115e-38
-0.09467310458 -0.1672754139 -0.2090317607 1.239732115e-38
-0.2397891879 0.08681724966 -0.3291480541 1.239732115e-38
-0.105220288 -0.03012904525 -0.2059626281 1.239732115e-38
-0.1055680737 -0.05502795801 -0.2065450251 1.239732115e-38
-0.3309158087 -0.1978360713 -0.3492170572 1.239732115e-38
-0.3305680454 -0.1729371697 -0.3486346602 1.258099074e-38
-0.106089741 -0.09237630665 -0.2074186206 1.258099074e-38
-0.32891047 -0.06062455103 -0.3584470749 1.258099074e-38
-0.1062636301 -0.1048257798 -0.2077098191 1.258099074e-38
-0.09206475317 0.01946638525 -0.2046637982 1.258099074e-38
-0.1042582765 0.03238571435 -0.216939792 1.258099074e-38
-0.01006176881 -0.3554338217 -0.2124613822 1.258099074e-38
-0.05381543189 0.08110655099 -0.2028056681 1.258099074e-38
-0.09449921548 -0.1548259407 -0.2087405622 1.276466033e-38
-0.07925702631 0.04416295886 -0.2039473504 1.276466033e-38
-0.078642793 0.08177880198 -0.2155069113 1.276466033e-38
-0.1179354489 -0.05455806851 -0.2191122323 1.276466033e-38
0.08901493251 -0.406583041 -0.2249869406 1.276466033e-38
-0.2521566153 0.08728714287 -0.3417152166 1.276466033e-38
-0.1084316373 -0.2664011419 -0.2239285409 1.276466033e-38
-0.2149618268 0.08614500612 -0.3164467812 1.276466033e-38
-0.1158375293 0.08292094618 -0.2407753915 1.294832852e-38
-0.1073882952 -0.1917044073 -0.22218135 1.294832852e-38
-0.10790997 -0.229052797 -0.2230549455 1.294832852e-38
-0.1044321656 0.01993627101 -0.2172309905 1.294832852e-38
-0.1080838591 -0.2415022403 -0.223346144 1.294832852e-38
-0.3294321299 -0.09797294438 -0.3593207002 1.294832852e-38
-0.1082577482 -0.2539516687 -0.2236373425 1.294832852e-38
-0.107040517 -0.1668055356 -0.221598953 1.294832852e-38
-0.1186310053 -0.1043559015 -0.2202770114 1.313163938e-38
-0.09162440896 0.04463284835 -0.2165145576 1.313163938e-38
-0.3296060264 -0.1104223803 -0.3596118689 1.313163938e-38
-0.332295686 -0.3093461096 -0.3767041564 1.313163938e-38
-0.3284701109 -0.03545815125 -0.3702978492 1.313163938e-38
-0.1282049567 0.08339083195 -0.2533426285 1.313163938e-38
-0.2273292392 0.08661488444 -0.3290140033 1.313163938e-38
-0.09241253138 -0.005432498176 -0.2052461803 1.313163938e-38
-0.08256093413 -0.1923766732 -0.2094801068 1.331530897e-38
-0.08290871978 -0.2172755897 -0.2100624889 1.331530897e-38
-0.09310809523 -0.05523032695 -0.2064109743 1.331530897e-38
-0.05946124345 -0.3294579089 -0.22484833 1.331530897e-38
-0.08238704503 -0.1799272299 -0.2091889083 1.331530897e-38
-0.07174733281 -0.3168060482 -0.2246911824 1.331530897e-38
-0.09345587343 -0.08012923598 -0.2069933712 1.331530897e-38
-0.09179829806 0.03218334541 -0.2168057561 1.331530897e-38
-0.05920602381 -0.3048265278 -0.2118327767 1.349897856e-38
-0.0789905712 0.05687992275 -0.2160893083 1.349897856e-38
-0.1047799438 -0.004962612409 -0.2178133875 1.349897856e-38
-0.2396966219 0.0870847702 -0.3415811658 1.349897856e-38
-0.06679707766 0.04396058992 -0.2038132995 1.349897856e-38
-0.3313449323 -0.2349169105 -0.3625238538 1.349897856e-38
-0.105127722 -0.0298615247 -0.2183957845 1.349897856e-38
-0.09614554793 -0.2790529728 -0.2240856886 1.349897856e-38
0.06426887214 -0.3937288523 -0.2249638438 1.368228942e-38
-0.1054755077 -0.05476043746 -0.2189781815 1.368228942e-38
-0.02242915332 -0.3549639285 -0.2250285894 1.368228942e-38
-0.3323770165 -0.3215280771 -0.389428556 1.368228942e-38
-0.3301276863 -0.1477707326 -0.3604854345 1.368228942e-38
-0.3319479227 -0.2844472229 -0.376121819 1.368228942e-38
0.002398177981 -0.3556361794 -0.2123273313 1.368228942e-38
-0.07977869362 0.006814575288 -0.2048209459 1.368228942e-38
-0.1033775881 0.08271858096 -0.2406413406 1.386595901e-38
-0.3306493759 -0.1851190925 -0.3613590598 1.386595901e-38
-0.3308232427 -0.1975685507 -0.3616502285 1.386595901e-38
-0.3309971392 -0.210017994 -0.3619414568 1.386595901e-38
-0.09510221332 -0.2043562531 -0.2223384976 1.386595901e-38
-0.0791644603 0.04443047941 -0.2163805068 1.386595901e-38
-0.2520640492 0.08755465597 -0.3541484475 1.386595901e-38
-0.105997175 -0.09210879356 -0.219851777 1.386595901e-38
-0.09562388062 -0.241704613 -0.2232120931 1.404926846e-38
-0.06697096676 0.0315110907 -0.204104498 1.404926846e-38
-0.06635673344 0.06912699342 -0.2156640589 1.404926846e-38
-0.09475442767 -0.1794573367 -0.2217561007 1.404926846e-38
-0.1157449707 0.08318845928 -0.2532085776 1.404926846e-38
-0.1061710641 -0.1045582667 -0.2201429754 1.404926846e-38
-0.03471520916 -0.3423120677 -0.2248714268 1.404926846e-38
-0.3317740262 -0.2719977498 -0.3758305907 1.404926846e-38
-0.1404797733 0.08412823826 -0.2783429623 1.423293806e-38
-0.05433709919 0.04375822097 -0.2036792487 1.423293806e-38
-0.3289918005 -0.07280650735 -0.3711714149 1.423293806e-38
-0.08012647182 -0.01808433793 -0.2054033428 1.423293806e-38
-0.09458053857 -0.1670078933 -0.2214649022 1.423293806e-38
-0.05372286588 0.08137406409 -0.2152388096 1.423293806e-38
-0.3291656673 -0.08525595069 -0.3714626431 1.423293806e-38
-0.08385949582 -0.2917048037 -0.2242428362 1.423293806e-38
-0.08030036092 -0.03053378314 -0.2056945413 1.441624891e-38
-0.09214607626 0.007284461521 -0.2173881382 1.441624891e-38
-0.02217393555 -0.3303325474 -0.212013036 1.441624891e-38
-0.33220312 -0.309078604 -0.3891373873 1.441624891e-38
-0.2644314468 0.08802454174 -0.36671561 1.441624891e-38
-0.3293395638 -0.09770542383 -0.3717538118 1.441624891e-38
-0.1528471559 0.08459811658 -0.2909101844 1.441624891e-38
-0.09440664947 -0.1545584202 -0.2211737037 1.441624891e-38
-0.07114433497 -0.2672757804 -0.211093232 1.459991851e-38
-0.06714485586 0.01906164922 -0.2043956965 1.459991851e-38
-0.06653062254 0.0566775538 -0.2159552574 1.459991851e-38
0.03952286392 -0.3808746338 -0.2249407321 1.459991851e-38
-0.08064814657 -0.0554326959 -0.2062769234 1.459991851e-38
0.07681019604 -0.3817492723 -0.2121054381 1.459991851e-38
-0.09266774356 -0.03006389365 -0.2182617337 1.459991851e-38
-0.3295134604 -0.1101548597 -0.3720450401 1.459991851e-38
-0.01643555798 0.08049944788 -0.2024035156 1.478322936e-38
-0.09284164011 -0.04251336306 -0.2185529321 1.478322936e-38
-0.3314262629 -0.2470988333 -0.3752481937 1.478322936e-38
-0.05928735435 -0.3170084357 -0.2245571315 1.478322936e-38
-0.2396040559 0.0873522833 -0.3540143967 1.478322936e-38
-0.07079654932 -0.242376864 -0.21051085 1.478322936e-38
-0.3320292532 -0.2966291606 -0.388846159 1.478322936e-38
-0.07044877112 -0.2174779475 -0.209928453 1.478322936e-38
-0.07062266022 -0.2299274206 -0.2102196515 1.496689755e-38
-0.09405887127 -0.1296595186 -0.2205913216 1.496689755e-38
-0.09318941832 -0.06741224974 -0.2191353291 1.496689755e-38
-0.202409327 0.08621014655 -0.3287459016 1.496689755e-38
-0.0292432867 0.05580292642 -0.2031199634 1.496689755e-38
-0.08351171017 -0.2668058872 -0.2236604393 1.496689755e-38
-0.1032850295 0.08298609406 -0.2530745268 1.496689755e-38
-0.3318553567 -0.2841797173 -0.3885549903 1.496689755e-38
0.08918882161 -0.3941335976 -0.2246957421 1.515020841e-38
-0.05407065153 0.05647518486 -0.2158212066 1.515020841e-38
-0.08316393197 -0.2419069707 -0.2230780423 1.515020841e-38
-0.3310784698 -0.2221999466 -0.3746657968 1.515020841e-38
-0.02225526236 -0.3425144553 -0.2247373909 1.515020841e-38
0.01477685757 -0.3680204749 -0.2249176353 1.515020841e-38
-0.3300351202 -0.1475032121 -0.3729186058 1.515020841e-38
-0.3307306767 -0.1973010302 -0.3740833998 1.515020841e-38
-0.3303829134 -0.1724021286 -0.3735010028 1.533351927e-38
0.002572067082 -0.3431867063 -0.2120361328 1.533351927e-38
-0.02880294248 0.0809693262 -0.2149707228 1.533351927e-38
0.05206414312 -0.3688951135 -0.2120823413 1.533351927e-38
-0.328725338 -0.06008951366 -0.3833134174 1.533351927e-38
0.05198281258 -0.3810770214 -0.2248066962 1.533351927e-38
-0.3316814601 -0.2717302442 -0.388263762 1.533351927e-38
-0.0294171758 0.04335348681 -0.2034111619 1.533351927e-38
-0.08212058991 -0.167210266 -0.2213308662 1.551683013e-38
-0.07845766097 0.08231384307 -0.2403732538 1.551683013e-38
-0.08003391325 -0.01781682111 -0.2178364843 1.551683013e-38
-0.04657218605 -0.2925794423 -0.2114075422 1.551683013e-38
-0.08194670081 -0.1547607929 -0.2210396677 1.551683013e-38
-0.05363029987 0.08164158463 -0.2276719958 1.551683013e-38
-0.3315075636 -0.2592808008 -0.3879725933 1.551683013e-38
-0.08038169891 -0.04271573201 -0.2184188813 1.551683013e-38
-0.06705229729 0.01932916604 -0.2168288529 1.570049832e-38
-0.04222493246 0.01865691133 -0.2041275948 1.570049832e-38
-0.06923153996 -0.1303317696 -0.2078900635 1.570049832e-38
-0.08177281171 -0.1423113495 -0.2207484692 1.570049832e-38
-0.04682740569 -0.3172107935 -0.2244230807 1.570049832e-38
-0.05911346525 -0.3045589924 -0.224265933 1.570049832e-38
-0.09082505107 0.08278372139 -0.2529404759 1.570049832e-38
-0.08055558801 -0.05516517535 -0.2187100798 1.570049832e-38
-0.3292469978 -0.09743790329 -0.3841869831 1.588380918e-38
-0.05833657831 -0.2425792366 -0.2103767991 1.588380918e-38
-0.2395115048 0.08761980385 -0.3664475083 1.588380918e-38
-0.3313336968 -0.2468313128 -0.387681365 1.588380918e-38
-0.04639829695 -0.2801299691 -0.2111163437 1.588380918e-38
-0.07122565806 -0.2794576883 -0.2238175869 1.588380918e-38
-0.06905765086 -0.1178823262 -0.207598865 1.588380918e-38
0.01503207721 -0.3433890939 -0.211902082 1.588380918e-38
-0.06853597611 -0.08053397387 -0.2067252696 1.606712004e-38
-0.1031924635 0.0832536146 -0.2655076981 1.606712004e-38
0.06444276124 -0.3812793791 -0.2246726453 1.606712004e-38
-0.08142502606 -0.1174124479 -0.2201660722 1.606712004e-38
0.1017300934 -0.3821540177 -0.2118373513 1.606712004e-38
-0.05459231883 0.01912679896 -0.216694802 1.606712004e-38
-0.06888376176 -0.1054328829 -0.2073076665 1.606712004e-38
0.008484333754 0.08009470999 -0.2021354288 1.606712004e-38
-0.07105176896 -0.267008245 -0.2235263884 1.625043089e-38
-0.05555433035 -0.04338799044 -0.2057176381 1.625043089e-38
-0.03411221132 -0.2927818 -0.2112734914 1.625043089e-38
-0.07070399076 -0.2421093434 -0.2229439914 1.625043089e-38
0.1141087264 -0.3945383132 -0.2244276553 1.625043089e-38
-0.3302903473 -0.172134608 -0.3859341741 1.625043089e-38
-0.07087787986 -0.2545588017 -0.2232351899 1.625043089e-38
-0.07836510241 0.08258135617 -0.2528064251 1.625043089e-38
-0.0675739646 -0.0180191882 -0.2177024484 1.643374035e-38
-0.04195848107 0.03137387335 -0.2162695527 1.643374035e-38
-0.05572821945 -0.05583743006 -0.2060088366 1.643374035e-38
-0.1898568124 0.08627530187 -0.341045022 1.643374035e-38
-0.01651688665 0.06831751764 -0.2151278704 1.643374035e-38
-0.0677478537 -0.03046862781 -0.2179936469 1.643374035e-38
0.02094434388 0.07989233732 -0.2020013779 1.643374035e-38
-0.04274660349 -0.01869144291 -0.2050011903 1.643374035e-38
-0.009540098719 -0.3180854321 -0.2115877867 1.661705121e-38
-0.04570273682 -0.230332166 -0.2099515498 1.661705121e-38
-0.03436742723 -0.3174131513 -0.2242890447 1.661705121e-38
-0.0287103802 0.08123684675 -0.227403909 1.661705121e-38
-0.04552884772 -0.2178826928 -0.2096603513 1.661705121e-38
-0.05476620793 0.006677356083 -0.2169860005 1.661705121e-38
-0.02932461351 0.04362100735 -0.2158443183 1.661705121e-38
0.07690276206 -0.3814817369 -0.2245385945 1.661705121e-38
-0.055902116 -0.0682868734 -0.2063000351 1.680036207e-38
-0.0679217428 -0.04291810095 -0.2182848454 1.680036207e-38
-0.07148087025 -0.3040890992 -0.2368331701 1.680036207e-38
0.03969675303 -0.3684251904 -0.2246495336 1.680036207e-38
-0.0535377413 0.08190910518 -0.2401051521 1.680036207e-38
-0.09073248506 0.08305124193 -0.2653736472 1.680036207e-38
-0.1030998975 0.08352113515 -0.2779408097 1.680036207e-38
-0.202224195 0.08674518019 -0.3536122441 1.680036207e-38
-0.04309438169 -0.04359035939 -0.2055835873 1.698367293e-38
0.03340429068 0.0796899721 -0.2018673271 1.698367293e-38
-0.06826952845 -0.06781698763 -0.2188672274 1.698367293e-38
-0.03011273593 -0.00644433964 -0.204575941 1.698367293e-38
-0.1402020901 0.08493079245 -0.3156424761 1.698367293e-38
-0.02949850261 0.03117150255 -0.2161355168 1.698367293e-38
-0.04326827452 -0.056039799 -0.2058747858 1.698367293e-38
-0.0564237833 -0.1056352556 -0.2071736306 1.698367293e-38
-0.04107779264 0.08170673996 -0.2399711013 1.716698239e-38
-0.05528788269 -0.03067099676 -0.217859596 1.716698239e-38
-0.05754845589 -0.1925138831 -0.2216451615 1.716698239e-38
-0.04448550567 -0.1431859732 -0.2079131752 1.716698239e-38
-0.05772234499 -0.2049633563 -0.22193636 1.716698239e-38
0.08944404125 -0.3695022166 -0.2116801888 1.716698239e-38
-0.05737455934 -0.1800644398 -0.221353963 1.716698239e-38
-0.06861730665 -0.09271590412 -0.2194496244 1.716698239e-38
-0.03324276209 -0.2305345237 -0.2098174989 1.735029324e-38
-0.0582440123 -0.2423117161 -0.2228099555 1.735029324e-38
-0.00467117317 0.0304992497 -0.2034342587 1.735029324e-38
0.05215670913 -0.368627578 -0.2245154977 1.735029324e-38
-0.0584179014 -0.2547611594 -0.223101154 1.735029324e-38
-0.01625043154 0.08103448153 -0.2272698581 1.735029324e-38
0.1266499907 -0.382558763 -0.2115692496 1.735029324e-38
-0.03254719824 -0.1807367057 -0.2086527199 1.735029324e-38
-0.009366208687 -0.3056359887 -0.2112965882 1.75336041e-38
-0.04361605644 -0.08093871176 -0.2064571828 1.75336041e-38
-0.02147837356 -0.2805347145 -0.210848242 1.75336041e-38
0.007962664589 0.04274637997 -0.2030090094 1.75336041e-38
-0.03237330914 -0.1682872623 -0.2083615214 1.75336041e-38
-0.05563566089 -0.05556990951 -0.218441993 1.75336041e-38
-0.04378994554 -0.0933881551 -0.2067483813 1.75336041e-38
-0.1153747141 0.08425853401 -0.3029412031 1.75336041e-38
0.4550487697 -0.07631646097 -0.213237226 1.771655483e-38
0.02103690617 0.08015985042 -0.2144345343 1.771655483e-38
0.04569035023 0.06703816354 -0.2020244747 1.771655483e-38
-0.0428279303 -0.0308733657 -0.2177255452 1.771655483e-38
-0.004230828956 0.0556657128 -0.2152850181 1.771655483e-38
-0.02130448446 -0.2680852711 -0.2105570436 1.771655483e-38
-0.02984628454 0.006272619125 -0.2167178988 1.771655483e-38
-0.2021316439 0.08701270074 -0.3660454154 1.771655483e-38
-0.05598343909 -0.080468826 -0.21902439 1.789986569e-38
-0.04508849978 -0.1927162558 -0.2215111107 1.789986569e-38
-0.03202553093 -0.1433883458 -0.2077791244 1.789986569e-38
-0.04491461068 -0.1802668124 -0.2212199122 1.789986569e-38
-0.01782668009 -0.01909617893 -0.2047331035 1.789986569e-38
-0.04526239261 -0.2051657289 -0.2218023092 1.789986569e-38
0.4303027093 -0.06346227974 -0.2132141292 1.789986569e-38
-0.04613184184 -0.2674129903 -0.2232583016 1.789986569e-38
-0.04578406364 -0.2425140887 -0.2226759046 1.808317654e-38
-0.02060892247 -0.2182874233 -0.2093922496 1.808317654e-38
0.06461665779 -0.3688299358 -0.2243814468 1.808317654e-38
0.3930042386 -0.05067325383 -0.200891912 1.808317654e-38
-0.1401095241 0.08519830555 -0.3280756474 1.808317654e-38
-0.03115607798 -0.08114107698 -0.2063231319 1.808317654e-38
0.4425887764 -0.0761140883 -0.2133712769 1.808317654e-38
0.07061024755 0.06663342565 -0.2017563879 1.808317654e-38
0.04551646113 0.05458871648 -0.2023156732 1.826612727e-38
-0.2144990116 0.08748259395 -0.3786126375 1.826612727e-38
0.02086301334 0.06771041453 -0.2147257328 1.826612727e-38
-0.0200872533 -0.1809390634 -0.208518669 1.826612727e-38
0.03288261592 0.04234164208 -0.2027409226 1.826612727e-38
-0.01721244678 0.01851969212 -0.2162926644 1.826612727e-38
0.002838522196 -0.3304697275 -0.2241780907 1.826612727e-38
-0.04098523036 0.08197425306 -0.2524042726 1.826612727e-38
-0.005018953234 0.005600365344 -0.2040166557 1.844943813e-38
-0.04456683248 -0.155367896 -0.2206375152 1.844943813e-38
0.008229117841 0.05546334386 -0.2151509672 1.844943813e-38
-0.1029147729 0.08405616879 -0.3028071523 1.844943813e-38
-0.0303679537 -0.03107573465 -0.2175914943 1.844943813e-38
0.02758458443 -0.3433239162 -0.2242011875 1.844943813e-38
-0.01973947138 -0.1560401618 -0.207936272 1.844943813e-38
0.4301288128 -0.07591172308 -0.2135053128 1.844943813e-38
0.3805442154 -0.05047088489 -0.2010259628 1.863274899e-38
0.3682581782 -0.0378190428 -0.2008688152 1.863274899e-38
0.07043635845 0.05418398231 -0.2020475715 1.863274899e-38
0.114282608 -0.38208884 -0.2241364568 1.863274899e-38
0.1143639386 -0.3699069321 -0.211412102 1.863274899e-38
0.08961793035 -0.3570527732 -0.2113890052 1.863274899e-38
-0.01852224022 -0.06889397651 -0.2058978826 1.863274899e-38
-0.03315019608 -0.2302670032 -0.2222506553 1.863274899e-38
0.05233059824 -0.3561781347 -0.2242242992 1.881569971e-38
-0.05335261673 0.08244413882 -0.2649714947 1.881569971e-38
-0.1276495755 0.08499594033 -0.3279415965 1.881569971e-38
-0.033497978 -0.2551659048 -0.2228330523 1.881569971e-38
-0.07808741182 0.08338391036 -0.2901059389 1.881569971e-38
0.05780251324 0.04193690792 -0.2024728209 1.881569971e-38
0.01555374824 -0.3060407341 -0.2110285014 1.881569971e-38
-0.008322867565 -0.2309392691 -0.2095494121 1.881569971e-38
0.00805522874 0.04301390052 -0.2154421657 1.899901057e-38
0.4426813424 -0.07584656775 -0.2258044481 1.899901057e-38
0.0152985286 -0.3306721151 -0.2240440398 1.899901057e-38
0.405382812 -0.0630575493 -0.213482216 1.899901057e-38
-0.008148976602 -0.2184897959 -0.2092582136 1.899901057e-38
0.09535630792 0.05377924442 -0.2017794847 1.899901057e-38
-0.03088962473 -0.06842409074 -0.2184650898 1.899901057e-38
0.3557982445 -0.03761667386 -0.201002866 1.899901057e-38
-0.01887002215 -0.09379288554 -0.2064802796 1.91819627e-38
-0.00554062333 -0.03174799308 -0.2048902512 1.91819627e-38
-0.00797508657 -0.2060403526 -0.2089670151 1.91819627e-38
0.04516867548 0.02968977578 -0.2028980702 1.91819627e-38
0.08953660727 -0.3692346811 -0.2241133451 1.91819627e-38
0.3926564455 -0.07557213306 -0.201474309 1.91819627e-38
-0.1400169581 0.08546582609 -0.3405088186 1.91819627e-38
-0.01921780221 -0.118691802 -0.2070626765 1.91819627e-38
-0.007801196538 -0.1935908794 -0.2086758167 1.936527215e-38
0.02112947218 0.08042737097 -0.2268677056 1.936527215e-38
0.02051523514 0.04281153157 -0.2153081149 1.936527215e-38
0.07733187079 -0.3444009125 -0.2112318426 1.936527215e-38
-0.007627306506 -0.1811414361 -0.2083846182 1.936527215e-38
0.003441518173 -0.2809394598 -0.2105801553 1.936527215e-38
0.05762862414 0.02948740683 -0.2027640194 1.936527215e-38
-0.01790800691 -0.03127810359 -0.2174574435 1.936527215e-38
0.04029975086 -0.3188948929 -0.2110515982 1.954822428e-38
0.102077879 -0.357255131 -0.2112549543 1.954822428e-38
-0.04089266807 0.08224177361 -0.2648374438 1.954822428e-38
-0.005888404325 -0.05664690584 -0.2054726481 1.954822428e-38
0.1268238872 -0.3701093197 -0.2112780511 1.954822428e-38
0.09518241137 0.04132980108 -0.2020706832 1.954822428e-38
-0.03175907582 -0.1306713521 -0.2199210823 1.954822428e-38
-0.03410097584 -0.3046962023 -0.2364310175 1.954822428e-38
-0.007279525511 -0.1562425196 -0.2078022212 1.973153514e-38
-0.02086414024 -0.2429188192 -0.2224078029 1.973153514e-38
-0.02034247108 -0.2055704594 -0.2215342075 1.973153514e-38
0.4052089155 -0.07550698519 -0.2137734145 1.973153514e-38
0.1450222731 0.04052032903 -0.2015344948 1.973153514e-38
0.0700885728 0.02928503975 -0.2026299685 1.973153514e-38
0.02775847353 -0.3308744729 -0.2239100039 1.973153514e-38
0.1325622648 0.04072269797 -0.2016685307 1.973153514e-38
-0.1151895896 0.08479356766 -0.3278075457 1.991448586e-38
0.01972711273 -0.007253813557 -0.2040397525 1.991448586e-38
-0.03141129762 -0.1057724804 -0.2193386853 1.991448586e-38
0.003789300099 -0.2560405433 -0.2099977583 1.991448586e-38
0.05806897581 0.05465386808 -0.2146147788 1.991448586e-38
0.0039631892 -0.2435910702 -0.2097065598 1.991448586e-38
0.02034134604 0.03036202863 -0.2155993134 1.991448586e-38
-0.007105635479 -0.1437930763 -0.2075110227 1.991448586e-38
0.08254857361 0.02908267081 -0.2024959326 2.009743799e-38
0.006919322535 -0.0319503583 -0.2047562003 2.009743799e-38
0.01590152644 -0.2811418176 -0.2104461044 2.009743799e-38
-0.01982080005 -0.1682221144 -0.2206606269 2.009743799e-38
0.05275969952 -0.3190972805 -0.2109175473 2.009743799e-38
0.04047363997 -0.3064454794 -0.2107603997 2.009743799e-38
0.08979181945 -0.3446033001 -0.2110978067 2.009743799e-38
0.1019965559 -0.3694370389 -0.2239793092 2.009743799e-38
0.05250448734 -0.3437286615 -0.2239331007 2.028074885e-38
0.05745473504 0.01703796536 -0.2030552179 2.028074885e-38
-0.1275570095 0.08526346087 -0.3403747678 2.028074885e-38
-0.01842967793 -0.06862646341 -0.218331039 2.028074885e-38
0.004310969263 -0.2186921686 -0.2091241628 2.028074885e-38
0.1392838955 -0.3703116775 -0.2111440003 2.028074885e-38
0.417761445 -0.07544183731 -0.2260725498 2.028074885e-38
0.3431643844 -0.04986377805 -0.2014281005 2.028074885e-38
0.004484860227 -0.2062427253 -0.2088329643 2.046369957e-38
-0.0903622359 0.08412131667 -0.3151063323 2.046369957e-38
0.00465875119 -0.1937932521 -0.2085417658 2.046369957e-38
0.29384619 -0.01170591824 -0.2010907084 2.046369957e-38
0.03218705952 -0.007456181571 -0.2039057016 2.046369957e-38
-0.005274170078 -0.01903103106 -0.217032209 2.046369957e-38
0.3554504514 -0.06251558661 -0.2015852481 2.046369957e-38
0.01607541554 -0.2686923742 -0.2101549059 2.046369957e-38
0.1199284196 0.02847556584 -0.20209378 2.06466517e-38
0.03280129284 0.03015966155 -0.2154652774 2.06466517e-38
0.01624930836 -0.2562429011 -0.2098637074 2.06466517e-38
0.04482089728 0.004790891428 -0.2034804672 2.06466517e-38
0.08298892528 0.05424913019 -0.2143466771 2.06466517e-38
0.3677364886 -0.07516739517 -0.2017424107 2.06466517e-38
0.00318630226 -0.305570811 -0.2235956937 2.06466517e-38
0.005006531253 -0.1688943654 -0.2079593688 2.06466517e-38
0.006571542472 -0.05684927478 -0.2053385973 2.082996116e-38
0.02016745321 0.01791258715 -0.2158905119 2.082996116e-38
0.02836147137 -0.2813441753 -0.2103120536 2.082996116e-38
-0.00544806011 -0.03148047253 -0.2173234075 2.082996116e-38
0.3558907807 -0.03734915331 -0.2134360075 2.082996116e-38
0.318418324 -0.03700957075 -0.2014050037 2.082996116e-38
0.03201316297 -0.01990565285 -0.2041969001 2.082996116e-38
0.08237468451 0.01663322933 -0.2027871162 2.082996116e-38
0.09544887394 0.05404676497 -0.2142126411 2.101291328e-38
0.05293358862 -0.3066478372 -0.2106263489 2.101291328e-38
-0.018777458 -0.09352537245 -0.2189134359 2.101291328e-38
0.005180420354 -0.1564448923 -0.2076681703 2.101291328e-38
0.01677097939 -0.2188945264 -0.2089901119 2.101291328e-38
0.05728084594 0.004588523414 -0.2033464164 2.101291328e-38
0.3307044506 -0.04966140911 -0.2015621513 2.101291328e-38
0.04464700818 -0.007658549584 -0.2037716657 2.101291328e-38
0.1079088151 0.05384439602 -0.2140785903 2.119586541e-38
0.3930154443 -0.06258765608 -0.226049453 2.119586541e-38
0.09483463317 0.01643086039 -0.2026530802 2.119586541e-38
-0.008751974441 -0.2680200934 -0.2228561491 2.119586541e-38
-0.07790228724 0.08391895145 -0.3149722815 2.119586541e-38
0.3429904878 -0.06231321394 -0.201719299 2.119586541e-38
0.02853536047 -0.268894732 -0.2100208551 2.119586541e-38
-0.008404194377 -0.2431211919 -0.2222737521 2.119586541e-38
-0.01912523806 -0.1184242889 -0.2194958329 2.137881613e-38
0.03183927387 -0.03235509619 -0.2044880986 2.137881613e-38
0.2936722934 -0.02415538952 -0.2013819069 2.137881613e-38
0.2194342315 0.01440717652 -0.2013126016 2.137881613e-38
0.1642037928 -0.3707164228 -0.2108759135 2.137881613e-38
-0.005795841105 -0.05637938529 -0.2179057896 2.137881613e-38
0.03262739629 0.01771022007 -0.215756461 2.137881613e-38
0.06496443599 -0.3439310193 -0.2237990499 2.137881613e-38
0.0287092533 -0.2564452589 -0.2097296566 2.156176826e-38
0.02793236263 -0.3184249997 -0.2236188054 2.156176826e-38
0.2069742829 0.01460954454 -0.2014466375 2.156176826e-38
0.1446744949 0.01562138647 -0.2021168768 2.156176826e-38
-0.1522917897 0.08620322496 -0.365509212 2.156176826e-38
0.05710695684 -0.007860918529 -0.2036376148 2.156176826e-38
-0.007534743287 -0.1808739156 -0.2208177745 2.156176826e-38
0.04447311908 -0.0201080218 -0.2040628642 2.156176826e-38
0.1945142746 0.01481191348 -0.2015806884 2.174471899e-38
0.1820543259 0.0150142815 -0.2017147392 2.174471899e-38
0.05772119015 0.02975492366 -0.2151971757 2.174471899e-38
-0.1274644434 0.08553097397 -0.3528079391 2.174471899e-38
-0.005969731137 -0.06882882863 -0.2181969881 2.174471899e-38
0.006049871445 -0.09419762343 -0.2062121928 2.174471899e-38
0.3434308171 -0.03714678809 -0.2135700583 2.174471899e-38
0.2441802323 0.001552997855 -0.2013356984 2.174471899e-38
0.3557168841 -0.04979862645 -0.213727206 2.192767111e-38
0.3182444274 -0.04945904016 -0.2016962022 2.192767111e-38
0.02940481342 -0.2066474557 -0.2085648626 2.192767111e-38
-0.1646592021 0.08667311817 -0.3780764341 2.192767111e-38
0.1077349335 0.04139495268 -0.2143697888 2.192767111e-38
-0.007186962292 -0.1559749991 -0.2202353776 2.192767111e-38
0.05693306774 -0.02031039074 -0.2039288133 2.192767111e-38
0.2564662993 -0.0110988114 -0.201492846 2.192767111e-38
-0.09026966989 0.08438882977 -0.327539444 2.211062324e-38
0.0450873524 0.01750785112 -0.2156224251 2.211062324e-38
0.1195806414 0.003576681484 -0.202676177 2.211062324e-38
0.3928415477 -0.07503709942 -0.2263406515 2.211062324e-38
0.3805554211 -0.06238529086 -0.2261835039 2.211062324e-38
0.1024256572 -0.3323562145 -0.2106725574 2.211062324e-38
0.13204059 0.003374313237 -0.2025421262 2.211062324e-38
0.01868377067 -0.08195055276 -0.2057869434 2.211062324e-38
0.2934984267 -0.03660483286 -0.2016731054 2.229357396e-38
0.05267837644 -0.3312792182 -0.2236419022 2.229357396e-38
-0.006143621169 -0.08127830178 -0.2184881866 2.229357396e-38
0.003534082323 -0.2806719244 -0.2230132967 2.229357396e-38
0.04116920382 -0.2566476464 -0.2095956057 2.229357396e-38
0.156960547 0.002969576046 -0.2022740394 2.229357396e-38
0.008854586631 0.08116477728 -0.251868099 2.229357396e-38
0.194340378 0.002362471307 -0.2018718868 2.229357396e-38
0.0693930164 -0.02051275782 -0.2037947625 2.247652609e-38
0.3551026583 -0.08741449565 -0.2021676451 2.247652609e-38
0.04412534088 -0.04500693828 -0.2046452463 2.247652609e-38
0.1818804294 0.002564839553 -0.2020059377 2.247652609e-38
0.03131760657 -0.06970345229 -0.2053616941 2.247652609e-38
0.05675917864 -0.03275983408 -0.2042200118 2.247652609e-38
-0.05307492614 0.08324669302 -0.3022710085 2.247652609e-38
0.3057844937 -0.04925667122 -0.201830253 2.247652609e-38
0.02992648445 -0.1692990959 -0.207691282 2.265947681e-38
0.01850988157 -0.0943999961 -0.2060781419 2.265947681e-38
0.2440063357 -0.01089644432 -0.2016268969 2.265947681e-38
0.102170445 -0.3569875956 -0.2236881107 2.265947681e-38
0.06556742638 -0.2944007516 -0.2102010995 2.265947681e-38
0.004229644313 -0.2308741063 -0.2218485177 2.265947681e-38
0.04186476022 -0.2068498284 -0.2084308267 2.265947681e-38
0.3432569206 -0.04959625751 -0.2138612568 2.265947681e-38
0.04395145178 -0.05745637789 -0.2049364448 2.284242894e-38
0.004403533414 -0.218424648 -0.2215573192 2.284242894e-38
0.00388186425 -0.2557730079 -0.2224309146 2.284242894e-38
0.00475131534 -0.1935257316 -0.2209749222 2.284242894e-38
0.04203864932 -0.1944003552 -0.2081396282 2.284242894e-38
0.3303566575 -0.07456029207 -0.2021445483 2.284242894e-38
0.1698608398 0.02793360874 -0.2139907479 2.284242894e-38
0.03114371561 -0.08215291798 -0.2056528926 2.284242894e-38
0.09431296587 -0.02091749571 -0.2035266608 2.302537966e-38
0.1449409425 0.02833834477 -0.2142588347 2.302537966e-38
0.01929800399 -0.04433467984 -0.2173465043 2.302537966e-38
0.1324809343 0.02854071371 -0.2143928856 2.302537966e-38
0.005099095404 -0.1686268449 -0.2203925252 2.302537966e-38
-0.006491402164 -0.1061772183 -0.2190705836 2.302537966e-38
0.0651383251 -0.331481576 -0.2235078514 2.302537966e-38
0.01816209964 -0.1192989051 -0.2066605389 2.302537966e-38
0.006490217522 -0.0690312013 -0.2180629522 2.320833179e-38
0.3062247932 -0.02409023978 -0.2136810124 2.320833179e-38
-0.003512796015 0.08163466305 -0.2644352913 2.320833179e-38
0.1067729145 -0.02111986279 -0.2033926249 2.320833179e-38
0.03027426265 -0.1444001943 -0.207108885 2.320833179e-38
0.08246725053 0.01690074615 -0.2152202725 2.320833179e-38
0.2685785294 -0.03620009497 -0.2019411922 2.320833179e-38
0.0780274272 -0.2946031392 -0.2100670636 2.320833179e-38
0.3185108602 -0.0367420502 -0.21383816 2.339092378e-38
0.005272984505 -0.1561773717 -0.2201013267 2.339092378e-38
0.2814787924 -0.01123603154 -0.2136579007 2.339092378e-38
0.04473957419 -0.007391031832 -0.2162048221 2.339092378e-38
0.05415081978 -0.2195016295 -0.2085879743 2.339092378e-38
0.2438324392 -0.0233459156 -0.2019180954 2.339092378e-38
-0.1273718774 0.08579849452 -0.3652411103 2.339092378e-38
0.01912411489 -0.05678411946 -0.2176377028 2.339092378e-38
0.1316928118 -0.02152460068 -0.2031245232 2.348204041e-38
0.3558094501 -0.04953110963 -0.2261603922 2.348204041e-38
0.2313725054 -0.02314354666 -0.2020521462 2.348204041e-38
0.3307969868 -0.04939388856 -0.2139953077 2.348204041e-38
0.01651575975 -0.2435259223 -0.2220056653 2.348204041e-38
0.1520916224 -0.3456151485 -0.2104275674 2.348204041e-38
0.05432470888 -0.207052201 -0.2082967758 2.348204041e-38
0.01703743078 -0.2061775625 -0.2211320698 2.348204041e-38
0.01686354168 -0.2186270058 -0.2214232683 2.348132155e-38
0.0173852127 -0.1812786609 -0.2205496728 2.348132155e-38
-0.04061497748 0.0830443278 -0.3021369576 2.348132155e-38
0.005446875468 -0.1437279284 -0.2198101282 2.348132155e-38
0.04456567764 -0.01984050497 -0.2164960057 2.348132155e-38
0.1690727174 -0.02213170566 -0.2027223855 2.348132155e-38
0.2937648296 -0.0238878727 -0.2138150632 2.348132155e-38
0.03175795078 -0.04453704879 -0.2172124535 2.348132155e-38
0.08150523156 -0.04561404139 -0.2042431086 2.348060128e-38
0.2064526081 -0.02273881063 -0.202320233 2.348060128e-38
0.1073871404 0.01649601012 -0.2149521858 2.348060128e-38
0.2690188289 -0.01103366259 -0.2137919515 2.348060128e-38
0.1946068406 0.01507943124 -0.2140138447 2.348060128e-38
0.330182761 -0.08700976521 -0.2024357468 2.348060128e-38
0.1518364102 -0.3702464998 -0.2234431058 2.348060128e-38
0.06887134165 -0.05786111578 -0.204668358 2.348060128e-38
0.1065990329 -0.03356930614 -0.2036838233 2.347952368e-38
0.03079593368 -0.1070518345 -0.2062352896 2.347952368e-38
0.01895022206 -0.06923356652 -0.2179289013 2.347952368e-38
0.119847104 0.01629364118 -0.2148181349 2.347952368e-38
0.03062204458 -0.1195012778 -0.2065264881 2.347952368e-38
0.1696869582 0.01548416726 -0.2142819464 2.347952368e-38
