# .PCD v0.7 - Point Cloud Data file format
VERSION 0.7
FIELDS x y z rgb
SIZE 4 4 4 4
TYPE F F F F
COUNT 1 1 1 1
WIDTH 828
HEIGHT 1
VIEWPOINT 0 0 0 1 0 0 0
POINTS 828
DATA ascii
-0.2012965679 -0.2926192582 -0.1075505391 1.551683013e-38
0.407589525 -0.2224608958 -0.1989104897 1.551683013e-38
-0.05427423492 -0.2984055877 -0.2500681579 1.551683013e-38
0.4215515256 -0.1459755003 -0.2287688106 1.570049832e-38
-0.05944968387 -0.1691391021 -0.2800707519 1.570049832e-38
0.2093192339 -0.2260060459 -0.2830806673 1.570049832e-38
-0.2794884145 -0.3608818352 -0.09785550833 1.570049832e-38
0.4266691804 -0.1764926612 -0.1997814029 1.570049832e-38
0.1537804455 -0.1832731366 -0.2897250056 1.570049832e-38
-0.2437031269 -0.1734768152 -0.3521258831 1.570049832e-38
0.1944971681 -0.2084400654 -0.2862989902 1.570049832e-38
-0.2320648134 -0.1711957157 -0.3644394279 1.588380918e-38
0.4007745683 -0.1688917726 -0.1999890953 1.588380918e-38
0.4370576739 -0.1650345325 -0.2141712457 1.588380918e-38
-0.2171548158 -0.08844352514 -0.1655428112 1.588380918e-38
-0.0752940774 -0.1534857154 -0.4334815741 1.588380918e-38
0.4092291594 -0.1467635632 -0.2278345078 1.588380918e-38
-0.1006229147 -0.1535688043 -0.44299227 1.588380918e-38
-0.1615507901 -0.1590021551 -0.4269414544 1.588380918e-38
-0.06983815134 -0.1805972457 -0.2656809092 1.606712004e-38
-0.02230645344 -0.2593332529 -0.2611762881 1.606712004e-38
-0.1019756421 -0.386557132 -0.1026305258 1.606712004e-38
0.1661028266 -0.1824850887 -0.2906593084 1.606712004e-38
-0.2141269594 -0.3844726384 -0.09629810601 1.606712004e-38
0.2099894881 -0.1182046533 -0.1734720618 1.606712004e-38
-0.2793021798 -0.1788270772 -0.3265644908 1.606712004e-38
-0.101291582 -0.3880501688 -0.09125129133 1.606712004e-38
0.237310037 -0.22754094 -0.1494906843 1.625043089e-38
0.1742721498 -0.1297458708 -0.1685928404 1.625043089e-38
0.2716014683 -0.1142643541 -0.1781435758 1.625043089e-38
-0.06591258943 -0.3006866574 -0.2377546132 1.625043089e-38
0.398840636 -0.1582216918 -0.2134446353 1.625043089e-38
0.1990929693 -0.2207280993 -0.1487640887 1.625043089e-38
0.2839238346 -0.1134762913 -0.1790778786 1.625043089e-38
0.2592790723 -0.115052402 -0.177209273 1.625043089e-38
-0.2493362874 -0.3049485385 -0.1017370149 1.643374035e-38
-0.2689440548 -0.07324170321 -0.1659582108 1.643374035e-38
-0.2763046622 -0.38072896 -0.08232365549 1.643374035e-38
0.2469566315 -0.1158404797 -0.1762749702 1.643374035e-38
-0.2016486973 -0.1075025499 -0.150945276 1.643374035e-38
-0.2832379341 -0.3333507776 -0.1040844247 1.643374035e-38
0.1919974834 -0.1900860071 -0.2904515862 1.643374035e-38
-0.2136189789 -0.293407321 -0.1066162363 1.643374035e-38
-0.3478777707 -0.041261971 -0.1686576158 1.661705121e-38
0.1846606284 -0.1182877421 -0.1829826832 1.661705121e-38
-0.01679908112 -0.2049760818 -0.2631891966 1.661705121e-38
0.4168465137 -0.1956347972 -0.1946944892 1.661705121e-38
-0.167513147 -0.2704079747 -0.1258852929 1.661705121e-38
0.1860865355 -0.2200230956 -0.159209013 1.661705121e-38
0.4433068931 -0.2109196782 -0.203789711 1.661705121e-38
-0.02480614558 -0.2409792095 -0.2653289139 1.661705121e-38
0.4363736212 -0.1635414958 -0.2255505025 1.680036207e-38
0.173198387 -0.2131271958 -0.1489717811 1.680036207e-38
0.4395573437 -0.1833885908 -0.2100186348 1.680036207e-38
-0.164115712 -0.1128223687 -0.1630511135 1.680036207e-38
-0.02787161618 -0.2149411738 -0.2601785958 1.680036207e-38
0.406339705 -0.2132838666 -0.2009868026 1.680036207e-38
-0.08216056228 -0.1813853085 -0.2647466063 1.680036207e-38
0.2243035585 -0.2268359661 -0.1599356234 1.680036207e-38
-0.2211105525 -0.1674215794 -0.3881322145 1.698367293e-38
0.2043198645 -0.1892979443 -0.2913858891 1.698367293e-38
-0.04501733556 -0.2715794742 -0.2458521426 1.698367293e-38
-0.2500203252 -0.3034555018 -0.1131162494 1.698367293e-38
-0.1136139557 -0.3888382316 -0.09031698853 1.698367293e-38
0.1631996334 -0.1397109628 -0.1655822396 1.698367293e-38
-0.007660429925 -0.184340924 -0.2796553373 1.698367293e-38
0.1612657309 -0.1290408671 -0.1790377796 1.698367293e-38
-0.2898769081 -0.3723399937 -0.08346565813 1.716698239e-38
-0.06365576386 -0.1512046158 -0.4457951784 1.716698239e-38
-0.1745572388 -0.1582971662 -0.4373864532 1.716698239e-38
0.4408071935 -0.1925656199 -0.2079423219 1.716698239e-38
-0.005160737783 -0.2026949823 -0.2755027413 1.716698239e-38
0.4376234412 -0.1727185249 -0.2234742045 1.716698239e-38
-0.05626593158 -0.188986212 -0.264538914 1.716698239e-38
0.4117288589 -0.1651176214 -0.2236818969 1.716698239e-38
-0.0303713046 -0.1965871155 -0.2643311918 1.735029324e-38
-0.2139710784 -0.1082905978 -0.1500109732 1.735029324e-38
0.2366259545 -0.2260479033 -0.1608699262 1.735029324e-38
-0.320733279 -0.05803988874 -0.1663736105 1.735029324e-38
0.1984089166 -0.2192350626 -0.1601433158 1.735029324e-38
0.2093054354 -0.1167116165 -0.1848513037 1.735029324e-38
0.4253010452 -0.1735065877 -0.2225399017 1.735029324e-38
-0.22594136 -0.2941953838 -0.1056819335 1.735029324e-38
0.2619547844 -0.2259648144 -0.1513592899 1.75336041e-38
-0.2930606902 -0.3524928987 -0.09899750352 1.75336041e-38
0.1694488525 -0.1855961084 -0.1552007049 1.75336041e-38
-0.3052271307 -0.07709892839 -0.1517760605 1.75336041e-38
0.1735880971 -0.1282528192 -0.1799720824 1.75336041e-38
0.2216278315 -0.1159235537 -0.1857856065 1.75336041e-38
0.1725143343 -0.2116341591 -0.1603510231 1.75336041e-38
-0.2657603025 -0.09308881313 -0.150426358 1.75336041e-38
0.1681990027 -0.1764190644 -0.1572770178 1.771655483e-38
0.2339501828 -0.1151354909 -0.1867199093 1.771655483e-38
0.3994064331 -0.1659056842 -0.2227475941 1.771655483e-38
-0.02912145853 -0.2057641447 -0.2622548938 1.771655483e-38
-0.07052220404 -0.1791042089 -0.2770601511 1.771655483e-38
-0.3311217725 -0.06949800998 -0.1519837677 1.771655483e-38
-0.1557565629 -0.2619359195 -0.1175166667 1.771655483e-38
-0.126620397 -0.3881332278 -0.1007619202 1.771655483e-38
-0.2159049809 -0.09762054682 -0.1634665132 1.789986569e-38
-0.1868796349 -0.159085229 -0.4364521503 1.789986569e-38
-0.2101562619 -0.1636474282 -0.4118250012 1.789986569e-38
-0.06858830154 -0.1897742748 -0.2636046112 1.789986569e-38
0.4303004444 -0.2102147043 -0.214234665 1.789986569e-38
0.1644494683 -0.1488879919 -0.1635059267 1.789986569e-38
-0.29431054 -0.3433158398 -0.1010738164 1.789986569e-38
-0.04876687005 -0.2440483719 -0.2520810664 1.789986569e-38
0.2851736844 -0.1226533055 -0.1770015806 1.808317654e-38
-0.2961261272 -0.3264548481 -0.09384718537 1.808317654e-38
-0.0401939936 -0.2157292366 -0.259244293 1.808317654e-38
-0.2217946053 -0.1659285426 -0.3995114565 1.808317654e-38
0.4056556523 -0.2117908299 -0.2123660594 1.808317654e-38
-0.1323616207 -0.2511827648 -0.1214615852 1.808317654e-38
0.1978431344 -0.2115510702 -0.1508403867 1.808317654e-38
0.2742772102 -0.2251767516 -0.1522936076 1.808317654e-38
0.2605289221 -0.1242294312 -0.175132975 1.826612727e-38
0.4401231408 -0.1910725832 -0.2193215936 1.826612727e-38
-0.0500167124 -0.2348713577 -0.2541573644 1.826612727e-38
0.2107313573 -0.21844697 -0.1610776335 1.826612727e-38
0.1830210537 -0.1939850748 -0.1540586948 1.826612727e-38
0.4006562531 -0.1750827134 -0.2206712812 1.826612727e-38
0.4142285287 -0.1834716648 -0.219529286 1.826612727e-38
-0.05126655474 -0.2256943285 -0.2562336624 1.826612727e-38
0.2482064813 -0.125017494 -0.1741986722 1.844943813e-38
-0.2857376337 -0.3149966896 -0.1082370356 1.844943813e-38
0.1848367006 -0.2108460963 -0.1612853259 1.844943813e-38
0.2360601872 -0.2183639109 -0.1515669972 1.844943813e-38
-0.1798355579 -0.2711960375 -0.1249509901 1.844943813e-38
0.4413729906 -0.2002496123 -0.2172452807 1.844943813e-38
0.2844896019 -0.1211602688 -0.1883808076 1.844943813e-38
0.2358841151 -0.1258055568 -0.1732643694 1.844943813e-38
0.180521369 -0.1756310016 -0.1582113206 1.863274899e-38
-0.2266254127 -0.292702347 -0.117061168 1.863274899e-38
0.2101655751 -0.2107630074 -0.1517746896 1.863274899e-38
-0.05608985946 -0.2815445662 -0.2428415418 1.863274899e-38
0.4290505946 -0.2010376751 -0.2163109779 1.863274899e-38
-0.2739810646 -0.3065246642 -0.09986840934 1.863274899e-38
-0.2521880865 -0.1014777645 -0.1492843628 1.863274899e-38
-0.1992020309 -0.1598732769 -0.4355178475 1.863274899e-38
0.198232919 -0.1266766936 -0.181840688 1.881569971e-38
-0.297375977 -0.3172777891 -0.09592349827 1.881569971e-38
0.4154783785 -0.1926487088 -0.217452988 1.881569971e-38
0.1792715341 -0.1664539874 -0.1602876186 1.881569971e-38
-0.2634164989 -0.3876248598 -0.09256088734 1.881569971e-38
0.1953434348 -0.1931970119 -0.1549929976 1.881569971e-38
-0.3434441388 -0.07028606534 -0.1510494649 1.881569971e-38
0.1835868508 -0.2016690671 -0.1633616239 1.881569971e-38
-0.2935888171 -0.07481782883 -0.1640896052 1.899901057e-38
-0.2224786878 -0.164435491 -0.4108906984 1.899901057e-38
0.1637654155 -0.1473949403 -0.1748851687 1.899901057e-38
0.2735931277 -0.2236837149 -0.1636728346 1.899901057e-38
-0.1330456883 -0.249689728 -0.1328408122 1.899901057e-38
0.2987459004 -0.1310423017 -0.1758595705 1.899901057e-38
-0.05251640454 -0.2165172994 -0.2583099902 1.899901057e-38
-0.2573936284 -0.1712788045 -0.3739500642 1.899901057e-38
0.2864235342 -0.1318303645 -0.1749252677 1.91819627e-38
-0.3021992743 -0.3731280565 -0.08253135532 1.91819627e-38
-0.3517455459 -0.01992180198 -0.1955687255 1.91819627e-38
0.4031559527 -0.1934367716 -0.2165186703 1.91819627e-38
-0.04945093021 -0.2425553352 -0.2634603083 1.91819627e-38
0.2598448396 -0.1227363944 -0.186512202 1.91819627e-38
0.1650152653 -0.1565719843 -0.1728088558 1.91819627e-38
-0.1887604892 -0.1143984795 -0.1611825079 1.91819627e-38
-0.2905609906 -0.370846957 -0.09484489262 1.936527215e-38
0.2224879265 -0.2099749446 -0.1527089924 1.936527215e-38
0.2105552852 -0.1258886307 -0.1827749908 1.936527215e-38
-0.2386158556 -0.1098667234 -0.1481423527 1.936527215e-38
-0.03105536476 -0.1950940639 -0.2757104337 1.936527215e-38
0.2617787719 -0.1334064752 -0.1730566621 1.936527215e-38
-0.02980551869 -0.2042711079 -0.2736341357 1.936527215e-38
-0.05694999173 -0.1874931604 -0.2759181261 1.936527215e-38
-0.1505811065 -0.3912023902 -0.08751408011 1.954822428e-38
0.1928437501 -0.1748429537 -0.1591456234 1.954822428e-38
-0.2127212286 -0.1174676418 -0.1479346603 1.954822428e-38
-0.1512651742 -0.3897093534 -0.0988933146 1.954822428e-38
0.1810871661 -0.1833150089 -0.1675142348 1.954822428e-38
-0.3485618234 -0.0397689268 -0.1800368726 1.954822428e-38
-0.2146551311 -0.106797561 -0.1613902003 1.954822428e-38
0.2859155238 -0.2228956521 -0.1646071374 1.954822428e-38
-0.05677391961 -0.2800515294 -0.2542207837 1.973153514e-38
-0.3162693381 -0.1811912656 -0.3237615824 1.973153514e-38
0.1915939152 -0.1656659245 -0.1612219214 1.973153514e-38
-0.1629035175 -0.391990453 -0.0865797773 1.973153514e-38
-0.06927236915 -0.1882812232 -0.2749838233 1.973153514e-38
-0.286303401 -0.307312727 -0.09893410653 1.973153514e-38
0.2094815224 -0.2092699707 -0.1631539315 1.973153514e-38
-0.05802376941 -0.2708745003 -0.2562970817 1.973153514e-38
-0.3453780711 -0.05961601064 -0.1645050049 1.991448586e-38
-0.2405497581 -0.09919667244 -0.1615978926 1.991448586e-38
0.2607049346 -0.2167877853 -0.1534356028 1.991448586e-38
0.2348103374 -0.2091868818 -0.1536432952 1.991448586e-38
-0.06358893216 -0.2264823914 -0.2552993596 1.991448586e-38
0.1946593821 -0.1917039752 -0.1663722396 1.991448586e-38
-0.1336114705 -0.2420057356 -0.1235378906 1.991448586e-38
-0.2968102098 -0.3249618113 -0.1052264199 1.991448586e-38
0.1994827688 -0.1358537376 -0.1797643751 2.009743799e-38
-0.0519506149 -0.2242012918 -0.2676129043 2.009743799e-38
-0.3046310246 -0.178910166 -0.3360751271 2.009743799e-38
0.2999957502 -0.1402193159 -0.1737832725 2.009743799e-38
0.2753510177 -0.1417954266 -0.1719146669 2.009743799e-38
0.287673384 -0.1410073638 -0.1728489697 2.009743799e-38
-0.2929926515 -0.1766290665 -0.3483886719 2.009743799e-38
-0.1596821249 -0.141846478 -0.1454429477 2.009743799e-38
-0.05927361175 -0.2616974711 -0.2583733797 2.028074885e-38
0.2026665062 -0.1557008326 -0.1642325372 2.028074885e-38
-0.3066329062 -0.3441039026 -0.1001395136 2.028074885e-38
-0.1921579391 -0.2719841003 -0.1240166873 2.028074885e-38
-0.1998706758 -0.3943546414 -0.08377686143 2.028074885e-38
-0.1616160274 -0.1311764121 -0.1588984877 2.028074885e-38
0.2630286217 -0.1425834894 -0.1709803641 2.028074885e-38
-0.0421278961 -0.2050591707 -0.2726998329 2.028074885e-38
-0.3162996769 -0.08706401289 -0.1487654597 2.046369957e-38
-0.06483878195 -0.2173053622 -0.2573756874 2.046369957e-38
-0.07966087759 -0.1997393519 -0.2605939806 2.046369957e-38
-0.1453680545 -0.2504777908 -0.1319065094 2.046369957e-38
-0.1461099088 -0.1502354443 -0.1443009526 2.046369957e-38
0.2507061958 -0.1433715522 -0.1700460464 2.046369957e-38
-0.07091195881 -0.2639785409 -0.246059835 2.046369957e-38
0.2853497565 -0.2152116597 -0.1553042084 2.046369957e-38
0.2364498824 -0.1334895492 -0.1825672835 2.06466517e-38
-0.05570014939 -0.1966701746 -0.2738418281 2.06466517e-38
0.1909098625 -0.1641728878 -0.1726011634 2.06466517e-38
0.2162387073 -0.1640897989 -0.1630905271 2.06466517e-38
0.2149888873 -0.1549127847 -0.16516684 2.06466517e-38
0.2869893014 -0.139514327 -0.1842281967 2.06466517e-38
0.2993116677 -0.1387262642 -0.1851624995 2.06466517e-38
0.2241274863 -0.134277612 -0.1816329807 2.06466517e-38
0.2205540538 -0.1993048787 -0.1661645323 2.082996116e-38
-0.342194289 -0.07946310937 -0.148973152 2.082996116e-38
-0.1804013401 -0.2635120451 -0.115648061 2.082996116e-38
-0.1882323176 -0.3920735419 -0.09609040618 2.082996116e-38
0.2746669352 -0.1403023899 -0.1832938939 2.082996116e-38
0.2044821382 -0.1725618243 -0.1714591533 2.082996116e-38
-0.07216180861 -0.2548015118 -0.248136133 2.082996116e-38
-0.3473119736 -0.04894594848 -0.1779605746 2.082996116e-38
0.2723432779 -0.2145066857 -0.1657491475 2.101291328e-38
-0.1875106543 -0.1235755086 -0.159106195 2.101291328e-38
0.219304204 -0.1901278496 -0.1682408452 2.101291328e-38
-0.3169533908 -0.1796982288 -0.3351408243 2.101291328e-38
-0.07341165841 -0.2456244826 -0.2502124608 2.101291328e-38
-0.2704000771 -0.1705738157 -0.3843950033 2.101291328e-38
0.2766008675 -0.1509724855 -0.169838354 2.101291328e-38
0.3012456 -0.1493963599 -0.1717069596 2.101291328e-38
-0.293676734 -0.1751360148 -0.3597679138 2.119586541e-38
-0.2373660058 -0.1190437675 -0.1460660547 2.119586541e-38
0.2889232337 -0.1501844227 -0.1707726568 2.119586541e-38
-0.3078827262 -0.3349269032 -0.1022158116 2.119586541e-38
0.5350710154 -0.1510460526 -0.2123427391 2.119586541e-38
0.2623445392 -0.1410904527 -0.1823595911 2.119586541e-38
-0.1720045507 -0.1426345408 -0.1445086449 2.119586541e-38
-0.0746614933 -0.2364474833 -0.2522887588 2.119586541e-38
0.284665674 -0.2137186229 -0.1666834503 2.137881613e-38
0.2130549848 -0.1442427039 -0.1786223799 2.137881613e-38
0.2464486212 -0.2069057822 -0.1659568399 2.137881613e-38
0.2328764051 -0.1985168159 -0.1670988351 2.137881613e-38
-0.1739384383 -0.1319644749 -0.1579641849 2.137881613e-38
-0.05445030704 -0.2058472335 -0.2717655301 2.137881613e-38
0.229810968 -0.1724787652 -0.1619485319 2.137881613e-38
-0.001462606713 -0.3909226954 -0.09664941579 2.137881613e-38
0.2253773361 -0.1434546411 -0.1795566827 2.156176826e-38
0.2376997322 -0.1426665783 -0.1804909855 2.156176826e-38
0.2519560456 -0.1525486112 -0.1679697484 2.156176826e-38
-0.3441282213 -0.06879302859 -0.162428692 2.156176826e-38
0.2396336645 -0.1533366591 -0.1670354456 2.156176826e-38
0.2143048346 -0.153419733 -0.176546067 2.156176826e-38
0.2969880402 -0.2129305601 -0.1676177531 2.156176826e-38
0.2582052648 -0.198433727 -0.1575882137 2.156176826e-38
-0.1348613203 -0.2328287065 -0.1256141961 2.174471899e-38
-0.3524296284 -0.01842876151 -0.2069479823 2.174471899e-38
-0.2128771096 -0.3936496675 -0.09422179312 2.174471899e-38
0.2433831841 -0.1808677465 -0.1608065218 2.174471899e-38
-0.2368378341 -0.3967188299 -0.08097395301 2.174471899e-38
-0.1603661925 -0.1403534412 -0.1568221897 2.174471899e-38
-0.2478075027 -0.1645185649 -0.4204013348 2.174471899e-38
-0.2044803053 -0.2727721632 -0.1230823845 2.174471899e-38
-0.08840338141 -0.3949460685 -0.1014885306 2.192767111e-38
-0.07716119289 -0.218093425 -0.2564413846 2.192767111e-38
0.2303767055 -0.1801627576 -0.1712514609 2.192767111e-38
0.3093104064 -0.2121424973 -0.168552056 2.192767111e-38
0.2532058656 -0.1617256254 -0.1658934355 2.192767111e-38
-0.3150498271 -0.09624104947 -0.1466891468 2.192767111e-38
0.2291268855 -0.1709857285 -0.1733277589 2.192767111e-38
0.2266271859 -0.1526316702 -0.1774803698 2.192767111e-38
0.2557055652 -0.1800796837 -0.1617408246 2.211062324e-38
-0.2251995057 -0.3944377303 -0.09328749031 2.211062324e-38
-0.2943607867 -0.1736429781 -0.3711471558 2.211062324e-38
0.30249542 -0.1585733742 -0.1696306616 2.211062324e-38
0.263594389 -0.1502674818 -0.1802832782 2.211062324e-38
0.2575211823 -0.1969406903 -0.1689674407 2.211062324e-38
-0.2516222894 -0.1091617495 -0.1585872918 2.211062324e-38
0.2655282915 -0.1609375477 -0.1668277532 2.211062324e-38
0.2512719631 -0.1510555595 -0.1793489754 2.229357396e-38
-0.08034493029 -0.1982463002 -0.2719732225 2.229357396e-38
-0.301633507 -0.3808120489 -0.09183428437 2.229357396e-38
-0.1373610049 -0.2144746482 -0.129766807 2.229357396e-38
-0.1467939764 -0.1487424076 -0.1556801945 2.229357396e-38
0.2828500867 -0.1968576014 -0.1594568193 2.229357396e-38
-0.1007257998 -0.3957341313 -0.1005542204 2.229357396e-38
0.2414492518 -0.1701976657 -0.1742620617 2.229357396e-38
-0.1927237213 -0.264300108 -0.1147137582 2.247652609e-38
-0.1862608045 -0.1327525377 -0.1570298821 2.247652609e-38
-0.06677268445 -0.2066352963 -0.2708312273 2.247652609e-38
0.2791005373 -0.169326514 -0.1656857431 2.247652609e-38
-0.3543635309 -0.007758699358 -0.2204035372 2.247652609e-38
0.2525217831 -0.1602325737 -0.1772726774 2.247652609e-38
0.2816002369 -0.1876805723 -0.1615331322 2.247652609e-38
-0.3014776111 -0.1046300083 -0.1455471516 2.247652609e-38
-0.2375218868 -0.3952257931 -0.0923531875 2.265947681e-38
-0.1707547009 -0.1518115699 -0.1424323469 2.265947681e-38
0.2957381904 -0.203753531 -0.1696940511 2.265947681e-38
-0.2484915853 -0.1630255282 -0.4317806363 2.265947681e-38
-0.2361161709 -0.1282207966 -0.1439897418 2.265947681e-38
-0.2775169015 -0.101560846 -0.1587949842 2.265947681e-38
-0.2875532508 -0.298135668 -0.101010412 2.265947681e-38
0.2894889712 -0.1578683853 -0.1800755858 2.265947681e-38
0.2660940588 -0.1686215401 -0.1761306822 2.284242894e-38
-0.3103824258 -0.3165728152 -0.10636843 2.284242894e-38
0.2914229035 -0.1685384512 -0.1666200459 2.284242894e-38
-0.3273722529 -0.09702911228 -0.145754844 2.284242894e-38
-0.1367952228 -0.2221586406 -0.139069736 2.284242894e-38
-0.3085667789 -0.3334338665 -0.1135950759 2.284242894e-38
-0.2759149671 -0.2958545685 -0.1133239493 2.284242894e-38
-0.2639446855 -0.1099498123 -0.157652989 2.284242894e-38
0.3037452698 -0.1677504033 -0.1675543487 2.302537966e-38
-0.1436102241 -0.1685895175 -0.1401483417 2.302537966e-38
-0.1130481735 -0.3965221941 -0.09961991757 2.302537966e-38
-0.2950448394 -0.1721499264 -0.3825263977 2.302537966e-38
-0.3428783715 -0.07797007263 -0.160352394 2.302537966e-38
-0.3066832125 -0.1744310409 -0.370212853 2.302537966e-38
-0.1423603743 -0.1777665466 -0.1380720288 2.302537966e-38
-0.1123641133 -0.3980152309 -0.08824068308 2.302537966e-38
-0.305501312 -0.3594718874 -0.1187453941 2.320833179e-38
0.3080605567 -0.2029654682 -0.170628354 2.320833179e-38
-0.3034115434 -0.09395995736 -0.1590026915 2.320833179e-38
0.2944883704 -0.1945765316 -0.171770364 2.320833179e-38
-0.1380450577 -0.2129816115 -0.1411460489 2.320833179e-38
-0.3479960263 -0.04745290801 -0.1893398017 2.320833179e-38
-0.1484335363 -0.2244397402 -0.1267561913 2.320833179e-38
0.2919886708 -0.1762224436 -0.1759229749 2.320833179e-38
-0.2225439101 -0.1366097629 -0.1428477466 2.339092378e-38
-0.2743331492 -0.1214079559 -0.1432631463 2.339092378e-38
0.3030611873 -0.1662573516 -0.1789335907 2.339092378e-38
-0.1455441266 -0.1579194367 -0.1536038816 2.339092378e-38
-0.3109481931 -0.3088888526 -0.09706550092 2.339092378e-38
-0.1253705472 -0.397310257 -0.09868561476 2.339092378e-38
-0.124686487 -0.3988032937 -0.08730638027 2.339092378e-38
-0.1405447572 -0.1946275532 -0.1452986598 2.339092378e-38
-0.272452265 -0.1660946906 -0.4185327291 2.348204041e-38
-0.1816511899 -0.254335016 -0.1177243665 2.348204041e-38
-0.150933221 -0.2060856819 -0.1309088022 2.348204041e-38
-0.2503724396 -0.1183387935 -0.1565109789 2.348204041e-38
-0.1521830708 -0.1969086528 -0.1329851151 2.348204041e-38
-0.3190055788 -0.1752190888 -0.3692785501 2.348204041e-38
-0.2738049626 -0.3990830183 -0.07817104459 2.348204041e-38
-0.1559326053 -0.1693775654 -0.1392140388 2.348204041e-38
-0.2882373333 -0.2966426313 -0.1123896465 2.348132155e-38
-0.3157339096 -0.09474801272 -0.1580683887 2.348132155e-38
-0.2348663211 -0.1373978257 -0.1419134289 2.348132155e-38
-0.149117589 -0.2229467034 -0.1381354332 2.348132155e-38
-0.1370089054 -0.3995913565 -0.08637207747 2.348132155e-38
-0.1376929581 -0.3980983198 -0.09775131196 2.348132155e-38
-0.3261224031 -0.106206134 -0.1436785311 2.348132155e-38
-0.2109055966 -0.1343286633 -0.1551612765 2.348132155e-38
-0.1546827555 -0.1785546094 -0.1371377259 2.348060128e-38
-0.3042514622 -0.3686489463 -0.1166690886 2.348060128e-38
-0.3092508316 -0.3319408298 -0.1249743104 2.348060128e-38
-0.1823352426 -0.2528419793 -0.129103601 2.348060128e-38
-0.1578665078 -0.1587074995 -0.1526695788 2.348060128e-38
-0.2626948357 -0.1191268563 -0.1555766761 2.348060128e-38
-0.3021616936 -0.1031369716 -0.1569263786 2.348060128e-38
-0.3467461765 -0.05662992969 -0.1872635037 2.348060128e-38
-0.3550475836 -0.006265662611 -0.2317827642 2.347952368e-38
-0.2471887022 -0.1381858885 -0.1409791261 2.347952368e-38
-0.2212940753 -0.145786792 -0.1407714337 2.347952368e-38
-0.3196896315 -0.173726052 -0.3806577921 2.347952368e-38
-0.1500153244 -0.3988863826 -0.09681700915 2.347952368e-38
-0.1616536826 -0.4011674821 -0.08450347185 2.347952368e-38
-0.1601901501 -0.2329117954 -0.1351248324 2.347952368e-38
-0.1739760637 -0.4019555449 -0.08356916904 2.347952368e-38
-0.1939735711 -0.2551230788 -0.1167900637 2.347880341e-38
-0.2296908796 -0.2666642964 -0.1119108498 2.347880341e-38
-0.3518638611 -0.02611274272 -0.2162509263 2.347880341e-38
-0.2654081881 -0.278205514 -0.1070316285 2.347880341e-38
-0.18629843 -0.4027436078 -0.08263486624 2.347880341e-38
-0.1645054817 -0.1976967156 -0.1320508122 2.347880341e-38
-0.2854587436 -0.1653897166 -0.4289777279 2.347880341e-38
-0.1986208409 -0.4035316706 -0.08170056343 2.347880341e-38
-0.1829010397 -0.2451579869 -0.1198006719 2.347808455e-38
-0.1623377353 -0.3996744454 -0.09588270634 2.347808455e-38
-0.2077218592 -0.1541757584 -0.1396294385 2.347808455e-38
-0.3086850941 -0.3396247923 -0.1342772692 2.347808455e-38
-0.3010677397 -0.3884960115 -0.1011372432 2.347808455e-38
-0.3144840598 -0.1039250344 -0.1559920758 2.347808455e-38
-0.2970970273 -0.1676708162 -0.4166641235 2.347808455e-38
-0.3248725533 -0.1153831482 -0.1416022331 2.347808455e-38
-0.2336164862 -0.1465748549 -0.1398371309 2.347700555e-38
-0.3030016124 -0.3778259754 -0.1145927832 2.347700555e-38
-0.1670051664 -0.1793426722 -0.1362034231 2.347700555e-38
-0.210943222 -0.4043197334 -0.08076626062 2.347700555e-38
-0.320373714 -0.1722330153 -0.392037034 2.347700555e-38
-0.1553668082 -0.1770615578 -0.1485169679 2.347700555e-38
-0.3454963267 -0.06580694765 -0.1851871908 2.347700555e-38
-0.2854056954 -0.1313730329 -0.1402525306 2.347700555e-38
-0.1626898497 -0.2145577371 -0.1392774433 2.347628668e-38
-0.2614449859 -0.1283038706 -0.1535003781 2.347628668e-38
-0.3099349141 -0.330447793 -0.1363535672 2.347628668e-38
-0.2062959373 -0.2559111416 -0.1158557609 2.347628668e-38
-0.2459388673 -0.1473629177 -0.1389028281 2.347628668e-38
-0.3121980429 -0.2997117937 -0.09914180636 2.347628668e-38
-0.2200442255 -0.1549638212 -0.1386951357 2.347628668e-38
-0.1835850924 -0.2436649501 -0.1311799139 2.347628668e-38
-0.1743281633 -0.2168388367 -0.1269638985 2.347520768e-38
-0.3268064857 -0.1047130972 -0.155057773 2.347520768e-38
-0.1651895344 -0.1962036788 -0.1434300542 2.347520768e-38
-0.2116272748 -0.4028266966 -0.09214549512 2.347520768e-38
-0.1755779982 -0.2076618075 -0.1290402114 2.347520768e-38
-0.18251127 -0.1602836251 -0.1508009732 2.347520768e-38
-0.3210577667 -0.1707399786 -0.403416276 2.347520768e-38
-0.2984497547 -0.4006591439 -0.07630243897 2.347520768e-38
-0.347430259 -0.05513688549 -0.1986427605 2.347448882e-38
-0.1780776829 -0.1893077493 -0.1331928223 2.347448882e-38
-0.31323421 -0.1131020486 -0.1539157778 2.347448882e-38
-0.1664393693 -0.1870266497 -0.1455063522 2.347448882e-38
-0.1676892191 -0.1778496206 -0.1475826651 2.347448882e-38
-0.02485754341 -0.4016758502 -0.09270450473 2.347448882e-38
-0.2868114412 -0.3983780444 -0.08861597627 2.347448882e-38
-0.03786400706 -0.4009708762 -0.103149429 2.347448882e-38
-0.1928997934 -0.1717417538 -0.1364111304 2.347340982e-38
-0.05018638447 -0.401758939 -0.1022151262 2.347340982e-38
-0.2900529206 -0.2797816396 -0.1051630229 2.347340982e-38
-0.175012216 -0.2153457999 -0.1383431405 2.347340982e-38
-0.2426973283 -0.2659593225 -0.1223557815 2.347340982e-38
-0.1854007244 -0.2268039286 -0.1239532828 2.347340982e-38
-0.2601951361 -0.1374809146 -0.1514240652 2.347340982e-38
-0.07483116537 -0.4033350646 -0.1003465205 2.347340982e-38
-0.2479103804 -0.4066839218 -0.07796334475 2.347269095e-38
-0.3525479138 -0.02461970225 -0.2276301533 2.347269095e-38
-0.08715353906 -0.4041231275 -0.09941221774 2.347269095e-38
-0.2666580379 -0.269028455 -0.1091079414 2.347269095e-38
-0.3106189668 -0.3289547563 -0.1477328092 2.347269095e-38
-0.2617948949 -0.387111932 -0.094655931 2.347269095e-38
-0.2550196946 -0.2667473555 -0.1214214787 2.347269095e-38
-0.09947595 -0.4049111903 -0.09847791493 2.347269095e-38
-0.2964782417 -0.1413381398 -0.1372419149 2.347161195e-38
-0.1800115854 -0.1786376834 -0.1466483623 2.347161195e-38
-0.3043697476 -0.3748399019 -0.1373512894 2.347161195e-38
-0.2602327764 -0.4074719846 -0.07702904195 2.347161195e-38
-0.3119843602 -0.1222790927 -0.1518394649 2.347161195e-38
-0.2311167866 -0.1649289131 -0.13568452 2.347161195e-38
-0.3134478927 -0.2905347645 -0.1012181118 2.347161195e-38
-0.1873346269 -0.2161338627 -0.1374088377 2.347161195e-38
-0.2829059958 -0.1497271061 -0.1360999197 2.347089308e-38
-0.2991338372 -0.3991661072 -0.08768167347 2.347089308e-38
-0.1117983237 -0.4056992531 -0.09754361212 2.347089308e-38
-0.2766169906 -0.3695459068 -0.09787423909 2.347089308e-38
-0.3100531995 -0.336638689 -0.1570357531 2.347089308e-38
-0.2082298398 -0.245241046 -0.1293113083 2.347089308e-38
-0.2175445408 -0.1733178794 -0.1345425248 2.347089308e-38
-0.20147264 -0.200060904 -0.1292479038 2.347089308e-38
-0.3135661781 -0.2967257202 -0.1219003052 2.346981408e-38
-0.3131186664 -0.3106006384 -0.151885435 2.346981408e-38
-0.2605450451 -0.3962889612 -0.0925796181 2.346981408e-38
-0.3398129046 -0.1040081084 -0.165502727 2.346981408e-38
-0.3082375526 -0.3534997106 -0.1642623842 2.346981408e-38
-0.2194784284 -0.1626478136 -0.1479980648 2.346981408e-38
-0.1241206974 -0.4064873159 -0.09660930932 2.346981408e-38
-0.33469522 -0.1345252693 -0.1365153193 2.346981408e-38
-0.1910841465 -0.1886027753 -0.1436377466 2.346909522e-38
-0.3564157188 -0.003279581666 -0.2545412779 2.346909522e-38
-0.2557615638 -0.1665050387 -0.1338159144 2.346909522e-38
-0.2100454718 -0.2283800542 -0.1220846772 2.346909522e-38
-0.1923339963 -0.1794257462 -0.1457140595 2.346909522e-38
-0.2439471781 -0.2567822933 -0.1244320869 2.346909522e-38
-0.2453730702 -0.1550468802 -0.1482057571 2.346909522e-38
-0.1996570081 -0.2169219255 -0.1364745349 2.346909522e-38
-0.3107345104 -0.1314561069 -0.1497631669 2.346801622e-38
-0.2445129752 -0.2490982711 -0.1151291579 2.346801622e-38
-0.3417468071 -0.09333804995 -0.1789582819 2.346801622e-38
-0.3211230338 -0.1429142654 -0.1353733093 2.346801622e-38
-0.2725551426 -0.4082600176 -0.07609473914 2.346801622e-38
-0.1357590556 -0.4087684155 -0.08429577202 2.346801622e-38
-0.1364431083 -0.4072753787 -0.09567500651 2.346801622e-38
-0.2655444443 -0.3595808446 -0.1008848548 2.346801622e-38
-0.2971623242 -0.139845103 -0.1486211568 2.346693862e-38
-0.2562695444 -0.2575703561 -0.1234977841 2.346693862e-38
-0.2009068429 -0.2077448964 -0.1385508329 2.346693862e-38
-0.2318008393 -0.1634358764 -0.1470637619 2.346693862e-38
-0.3500482142 -0.04297378659 -0.2234775424 2.346693862e-38
-0.2137950063 -0.200848937 -0.128313601 2.346693862e-38
-0.3436807394 -0.08266796917 -0.1924138516 2.346693862e-38
-0.2835900784 -0.1482340544 -0.1474791616 2.346693862e-38
-0.1604038328 -0.4103445113 -0.08242715895 2.346621835e-38
-0.2334404141 -0.239133209 -0.1181397662 2.346621835e-38
-0.254511714 -0.1756820679 -0.1317396015 2.346621835e-38
-0.1487654746 -0.4080634415 -0.0947407037 2.346621835e-38
-0.2034065276 -0.1893908381 -0.1427034438 2.346621835e-38
-0.3334454 -0.1437023282 -0.1344390064 2.346621835e-38
-0.1850485802 -0.4119206369 -0.08055855334 2.346621835e-38
-0.3089216352 -0.3520066738 -0.1756416261 2.346621835e-38
-0.2700178325 -0.1566230059 -0.1463371515 2.346514075e-38
-0.2778668404 -0.3603689075 -0.09995055199 2.346514075e-38
-0.355165869 -0.01245659962 -0.2524649501 2.346514075e-38
-0.2804062963 -0.1680811644 -0.1319473088 2.346514075e-38
-0.3057378531 -0.3718537986 -0.1601097733 2.346514075e-38
-0.2248675674 -0.2108140588 -0.1253029853 2.346514075e-38
-0.3094846904 -0.1406331658 -0.147686854 2.346514075e-38
-0.319873184 -0.1520912796 -0.1332970113 2.346514075e-38
-0.2457628101 -0.2399212718 -0.1172054633 2.346406175e-38
-0.1610878855 -0.4088514745 -0.09380639344 2.346406175e-38
-0.3036251962 -0.2713926435 -0.1063050255 2.346406175e-38
-0.3076717854 -0.3611837327 -0.1735653281 2.346406175e-38
-0.240939483 -0.1840710342 -0.1305976063 2.346406175e-38
-0.2732391953 -0.4067669809 -0.08747397363 2.346406175e-38
-0.1734102666 -0.4096395373 -0.09287209064 2.346406175e-38
-0.3101714849 -0.3428296745 -0.177717939 2.346406175e-38
-0.2691577375 -0.2506743968 -0.1132605523 2.346334289e-38
-0.2959124744 -0.1490221173 -0.1465448588 2.346334289e-38
-0.3456146121 -0.07199791074 -0.2058693916 2.346334289e-38
-0.2273672521 -0.1924600005 -0.1294555962 2.346334289e-38
-0.3519821167 -0.03230372444 -0.2369331121 2.346334289e-38
-0.1857326329 -0.4104276001 -0.09193778783 2.346334289e-38
-0.2305510044 -0.1726129055 -0.144987449 2.346334289e-38
-0.2096933722 -0.4134967625 -0.07868994772 2.346334289e-38
-0.2132292092 -0.2085329592 -0.1376165301 2.346226389e-38
-0.3570997715 -0.001786537468 -0.2659205198 2.346226389e-38
-0.2327743173 -0.3158106208 -0.07993155718 2.346226389e-38
-0.2927286923 -0.1688692272 -0.131013006 2.346226389e-38
-0.2823402286 -0.1574110687 -0.1454028487 2.346226389e-38
-0.2341244668 -0.2376401722 -0.1295190006 2.346226389e-38
-0.2532618642 -0.184859097 -0.1296633035 2.346226389e-38
-0.2716176212 -0.4062540531 -0.08956901729 2.346226389e-38
-0.3218071163 -0.1414212286 -0.1467525512 2.346118629e-38
-0.2575193942 -0.2483932972 -0.1255740821 2.346118629e-38
-0.3424308896 -0.09184500575 -0.1903375387 2.346118629e-38
-0.3144867718 -0.3076145649 -0.1746439189 2.346118629e-38
-0.2428733855 -0.1734009683 -0.1440531462 2.346118629e-38
-0.2482625097 -0.2215672135 -0.1213580817 2.346118629e-38
-0.2809143364 -0.2591464818 -0.1216291711 2.346118629e-38
-0.3096056879 -0.3505136371 -0.187020883 2.346118629e-38
-0.2464468628 -0.2384282351 -0.1285846978 2.346010729e-38
-0.2655842602 -0.1856471598 -0.1287290007 2.346010729e-38
-0.2450967133 -0.3165986836 -0.07899725437 2.346010729e-38
-0.3126711547 -0.3244756162 -0.1818705499 2.346010729e-38
-0.2667942643 -0.3504038155 -0.1029611528 2.346010729e-38
-0.2946626246 -0.1581991315 -0.1444685459 2.346010729e-38
-0.2551957667 -0.1741890311 -0.1431188434 2.346010729e-38
-0.3392471075 -0.1116921008 -0.174805671 2.346010729e-38
-0.3507322669 -0.04148074239 -0.2348567992 2.345938842e-38
-0.2574190795 -0.3173867464 -0.07806295156 2.345938842e-38
-0.2520120144 -0.1940361261 -0.1275869906 2.345938842e-38
-0.2507621944 -0.2032131255 -0.1255106926 2.345938842e-38
-0.3443647921 -0.08117493242 -0.2037930787 2.345938842e-38
-0.2280513048 -0.1909669638 -0.1408348382 2.345938842e-38
-0.2605848908 -0.2223552465 -0.1204237789 2.345938842e-38
-0.3309457004 -0.1620563567 -0.1302863955 2.345938842e-38
-0.2855616212 -0.4075550437 -0.08653967083 2.345830942e-38
-0.3157366216 -0.2984375656 -0.1767202318 2.345830942e-38
-0.3159475625 -0.2721807063 -0.1053707227 2.345830942e-38
-0.3139210045 -0.3152985871 -0.1839468479 2.345830942e-38
-0.304875046 -0.2622156441 -0.108381331 2.345830942e-38
-0.2476967126 -0.2292512059 -0.1306610107 2.345830942e-38
-0.2416235358 -0.1825779974 -0.1419768333 2.345830942e-38
-0.2675181627 -0.1749770641 -0.1421845406 2.345830942e-38
-0.2932367027 -0.2599345446 -0.1206948683 2.345723183e-38
-0.3069849908 -0.1589871943 -0.1435342431 2.345723183e-38
-0.3102897406 -0.3490206003 -0.1984001249 2.345723183e-38
-0.2539459169 -0.1833660603 -0.1410425305 2.345723183e-38
-0.2934127748 -0.1673761904 -0.142392233 2.345723183e-38
-0.3494824171 -0.05065776408 -0.2327805012 2.345723183e-38
-0.2820638716 -0.3189628422 -0.07619434595 2.345723183e-38
-0.3090398908 -0.3581976593 -0.1963238269 2.345723183e-38
-0.2600190938 -0.2300392687 -0.1297267079 2.345615283e-38
-0.3328796327 -0.1513862908 -0.1437419355 2.345615283e-38
-0.3160658479 -0.2783716917 -0.126052916 2.345615283e-38
-0.3051721156 -0.3795377612 -0.1694127172 2.345615283e-38
-0.3577838242 -0.0002935007215 -0.2772997618 2.345615283e-38
-0.3133552074 -0.3229825795 -0.1932498068 2.345615283e-38
-0.2821641862 -0.2499694228 -0.123705484 2.345615283e-38
-0.2729072571 -0.2231433094 -0.1194894761 2.345615283e-38
-0.2398258895 -0.2746233642 -0.1223745197 2.345507523e-38
-0.3115395904 -0.339843601 -0.2004764229 2.345507523e-38
-0.3379972577 -0.1208691448 -0.1727293581 2.345507523e-38
-0.2410757244 -0.2654463649 -0.1244508177 2.345507523e-38
-0.2662683129 -0.1841541231 -0.1401082277 2.345507523e-38
-0.2581031322 -0.3158937097 -0.08944217861 2.345507523e-38
-0.2612689435 -0.2208622098 -0.1318030059 2.345507523e-38
-0.3546001017 -0.02014057711 -0.2617679238 2.345507523e-38
-0.307790041 -0.3673746884 -0.194247514 2.345399623e-38
-0.3163024187 -0.2907535434 -0.1674172729 2.345399623e-38
-0.27234146 -0.2308273315 -0.1287924051 2.345399623e-38
-0.33993119 -0.1101990491 -0.1861849278 2.345399623e-38
-0.3058561683 -0.3780447245 -0.1807919741 2.345399623e-38
-0.2625187635 -0.2116852105 -0.1338793188 2.345399623e-38
-0.3514163494 -0.03998770565 -0.2462360412 2.345399623e-38
-0.2852296531 -0.2239313722 -0.1185551658 2.345399623e-38
-0.3171974123 -0.2630036771 -0.1074470282 2.345291723e-38
-0.2889791727 -0.1964002848 -0.1247840822 2.345291723e-38
-0.315854907 -0.3046284914 -0.1974024177 2.345291723e-38
-0.3025541306 -0.3917008936 -0.1445779055 2.345291723e-38
-0.2650184631 -0.1933311522 -0.1380319297 2.345291723e-38
-0.3565339744 -0.009470518678 -0.275223434 2.345291723e-38
-0.2827479243 -0.3174698055 -0.08757357299 2.345291723e-38
-0.3116578758 -0.3460345268 -0.2211586237 2.345291723e-38
-0.3418650925 -0.09952899069 -0.1996404678 2.345219836e-38
-0.2713052928 -0.4174370766 -0.07401843369 2.345219836e-38
-0.2909130752 -0.1857302487 -0.1382396221 2.345219836e-38
-0.3013015389 -0.1971883476 -0.1238497794 2.345219836e-38
-0.3169864714 -0.2892605066 -0.1787965298 2.345219836e-38
-0.284663856 -0.2316153944 -0.1278581023 2.345219836e-38
-0.3469827175 -0.06901182979 -0.2286278903 2.345219836e-38
-0.2773408294 -0.194119215 -0.1370976269 2.345219836e-38
-0.306540221 -0.3765516877 -0.1921712011 2.345111936e-38
-0.2957364023 -0.2415804565 -0.1248474866 2.345111936e-38
-0.327196151 -0.1895874739 -0.1240574792 2.345111936e-38
-0.3032381833 -0.3902078569 -0.1559571624 2.345111936e-38
-0.2988018394 -0.2155424356 -0.1196971685 2.345111936e-38
-0.3032354414 -0.1865183115 -0.1373053193 2.345111936e-38
-0.318447262 -0.253826648 -0.1095233411 2.345111936e-38
-0.3000516891 -0.2063653767 -0.1217734814 2.345111936e-38
-0.3141575754 -0.3276804686 -0.2253112346 2.345004176e-38
-0.3552841544 -0.01864754036 -0.2731471658 2.345004176e-38
-0.3173156977 -0.2691946328 -0.128129214 2.345004176e-38
-0.3177888095 -0.2939584553 -0.2108579725 2.345004176e-38
-0.2717936635 -0.313695699 -0.1112663746 2.345004176e-38
-0.3159731925 -0.3108194768 -0.2180845886 2.345004176e-38
-0.3489166498 -0.05834174529 -0.2420834303 2.345004176e-38
-0.2767930329 -0.2769875526 -0.1195716113 2.345004176e-38
-0.2884134054 -0.2040842772 -0.1340870112 2.344896276e-38
-0.3155578673 -0.1873063743 -0.1363710165 2.344896276e-38
-0.2816163599 -0.3328378201 -0.1061794609 2.344896276e-38
-0.3172230422 -0.3016424179 -0.2201609015 2.344896276e-38
-0.3148416281 -0.3261874318 -0.2366904765 2.344896276e-38
-0.3019856215 -0.1956953108 -0.1352290213 2.344896276e-38
-0.3196971118 -0.2446496189 -0.1115996465 2.344896276e-38
-0.3080588281 -0.2423685193 -0.1239131838 2.344896276e-38
-0.3105263114 -0.3614025116 -0.2397645116 2.344788516e-38
-0.318472892 -0.2924654186 -0.2222371995 2.344788516e-38
-0.3166572452 -0.3093264103 -0.2294638455 2.344788516e-38
-0.3209469318 -0.2354726195 -0.1136759445 2.344788516e-38
-0.3007357717 -0.20487234 -0.1331527084 2.344788516e-38
-0.2828662097 -0.3236607611 -0.1082557738 2.344788516e-38
-0.2959500551 -0.4190132022 -0.07214982063 2.344788516e-38
-0.2903652787 -0.2685985863 -0.1207136065 2.344788516e-38
-0.3508505523 -0.04767168313 -0.255539 2.344680616e-38
-0.3182363212 -0.2800835073 -0.1808728427 2.344680616e-38
-0.2891154289 -0.2777756155 -0.1186373085 2.344680616e-38
-0.3046063185 -0.3872217834 -0.1787156612 2.344680616e-38
-0.3155257106 -0.3246943653 -0.2480697334 2.344680616e-38
-0.3105584979 -0.224014461 -0.1280657947 2.344680616e-38
-0.3393653929 -0.1178830564 -0.1954878569 2.344680616e-38
-0.3361816704 -0.1377301514 -0.179956004 2.344680616e-38
-0.005425157025 -0.7130955458 -0.3112514317 2.344572857e-38
-0.3329978883 -0.1575772464 -0.1644241363 2.344572857e-38
-0.281226635 -0.2479634285 -0.1371797919 2.344572857e-38
-0.2964384258 -0.3152717948 -0.109397769 2.344572857e-38
-0.3080767989 -0.3175528944 -0.09708423913 2.344572857e-38
-0.3191569448 -0.290972352 -0.2336164564 2.344572857e-38
-0.3167755306 -0.3155173659 -0.2501460314 2.344572857e-38
-0.3162097633 -0.3232013285 -0.2594489455 2.344572857e-38
-0.3052903712 -0.3857287467 -0.1900949031 2.344464957e-38
-0.3186838329 -0.2662085593 -0.1508877128 2.344464957e-38
-0.3381155431 -0.1270600706 -0.193411544 2.344464957e-38
-0.3432331979 -0.09654290974 -0.2223989666 2.344464957e-38
-0.2691179216 -0.4246081114 -0.08541640639 2.344464957e-38
-0.3216310143 -0.2339795828 -0.125055179 2.344464957e-38
-0.3174595833 -0.3140243292 -0.2615252733 2.344464957e-38
-0.01911565661 -0.7108975053 -0.3330756426 2.344464957e-38
-0.3483508527 -0.06602574885 -0.251386404 2.344357197e-38
-0.3228808641 -0.2248025239 -0.1271314919 2.344357197e-38
-0.3241307139 -0.2156254947 -0.1292077899 2.344357197e-38
-0.3013042808 -0.400877893 -0.1425016075 2.344357197e-38
-0.3451671302 -0.08587285131 -0.2358545065 2.344357197e-38
-0.3150100708 -0.2701747119 -0.1188450009 2.344357197e-38
-0.3400494456 -0.1163900197 -0.2068670839 2.344357197e-38
-0.3192496002 -0.2585245669 -0.1415847689 2.344357197e-38
-0.3192752302 -0.2971632779 -0.2542986572 2.344249297e-38
-0.3204067945 -0.2817952931 -0.2356927693 2.344249297e-38
-0.3368657231 -0.1362371147 -0.191335246 2.344249297e-38
-0.3193678856 -0.2647155225 -0.1622669548 2.344249297e-38
-0.3534685373 -0.03550858796 -0.2803737521 2.344249297e-38
-0.04307636991 -0.7139666677 -0.3198277652 2.344249297e-38
-0.3066585064 -0.3827426732 -0.2128534019 2.344249297e-38
-0.3304981887 -0.1759313047 -0.1602715254 2.344249297e-38
-0.04376043007 -0.7124736309 -0.331207037 2.344141397e-38
-0.32052508 -0.2879862785 -0.2563749552 2.344141397e-38
-0.3210652471 -0.2416635454 -0.1343581378 2.344141397e-38
-0.04444449767 -0.7109805942 -0.3425862789 2.344141397e-38
-0.3387995958 -0.1255670339 -0.2047907859 2.344141397e-38
-0.3210908473 -0.2803022563 -0.2470720112 2.344141397e-38
-0.05608284101 -0.7132617235 -0.3302727342 2.344141397e-38
-0.06703709066 -0.71703583 -0.3065799177 2.344141397e-38
-0.3356158733 -0.1454141438 -0.1892589331 2.344033637e-38
-0.3199336827 -0.2570315301 -0.1529640257 2.344033637e-38
-0.3209725916 -0.2741113305 -0.2263898104 2.344033637e-38
-0.3522186875 -0.04468560591 -0.2782974839 2.344033637e-38
-0.3200519383 -0.2632224858 -0.1736461967 2.344033637e-38
-0.3248147666 -0.214132458 -0.1405870616 2.344033637e-38
-0.3212091327 -0.2864932418 -0.2677541971 2.344033637e-38
-0.3260646164 -0.2049554288 -0.1426633596 2.344033637e-38
-0.3458511829 -0.08437980711 -0.2472337633 2.343925737e-38
-0.0793594718 -0.717823863 -0.3056456149 2.343925737e-38
-0.3573363423 -0.01416841894 -0.3072848916 2.343925737e-38
-0.3217749298 -0.2788092196 -0.258451283 2.343925737e-38
-0.0800435245 -0.7163308859 -0.3170248568 2.343925737e-38
-0.06908927858 -0.7125567198 -0.3407176733 2.343925737e-38
-0.3375497758 -0.1347440779 -0.202714473 2.343925737e-38
-0.35415259 -0.03401554376 -0.2917530537 2.343925737e-38
-0.08072759211 -0.7148377895 -0.3284041286 2.343817977e-38
-0.08141165972 -0.7133448124 -0.3397833705 2.343817977e-38
-0.3311822712 -0.1744382679 -0.1716507822 2.343817977e-38
-0.3224589825 -0.2773161829 -0.2698305249 2.343817977e-38
-0.09168188274 -0.7186119556 -0.3047113121 2.343817977e-38
-0.08209571242 -0.711851716 -0.3511626124 2.343817977e-38
-0.3279985189 -0.194285363 -0.1561189145 2.343817977e-38
-0.3560864925 -0.02334548533 -0.3052085638 2.343817977e-38
-0.0718255192 -0.7065845728 -0.3862346411 2.343710077e-38
-0.3446013331 -0.0935568288 -0.2451574653 2.343710077e-38
-0.07250958681 -0.7050914764 -0.397613883 2.343710077e-38
-0.08346383274 -0.7088656425 -0.3739210963 2.343710077e-38
-0.3223406971 -0.271125257 -0.2491483092 2.343710077e-38
-0.3529027402 -0.04319256544 -0.2896767259 2.343710077e-38
-0.09441812336 -0.7126398087 -0.3502283096 2.343710077e-38
-0.3331161737 -0.1637682021 -0.1851063222 2.343710077e-38
-0.3465352356 -0.08288677037 -0.2586129904 2.343566444e-38
-0.3497189879 -0.0630396679 -0.2741448283 2.343566444e-38
-0.3213017881 -0.2540454566 -0.1757224947 2.343566444e-38
-0.3214200735 -0.2602363825 -0.1964046955 2.343566444e-38
-0.3040405214 -0.394905746 -0.1880186051 2.343566444e-38
-0.3548366427 -0.03252250329 -0.3031322956 2.343566444e-38
-0.1074245572 -0.7119348049 -0.3606732488 2.343566444e-38
-0.09715436399 -0.7066676617 -0.3957452774 2.343566444e-38
-0.1081086099 -0.7104417682 -0.3720524907 2.343458544e-38
-0.3230247796 -0.2696322203 -0.2605275512 2.343458544e-38
-0.356770575 -0.02185244113 -0.3165878654 2.343458544e-38
-0.3350500762 -0.1530981213 -0.1985618621 2.343458544e-38
-0.3236832023 -0.2295004427 -0.1591929346 2.343458544e-38
-0.1170107275 -0.7186950445 -0.3142219484 2.343458544e-38
-0.2678680718 -0.4337851405 -0.08334009349 2.343458544e-38
-0.3286826015 -0.1927923262 -0.1674981713 2.343458544e-38
-0.3054086566 -0.3919196725 -0.210777089 2.343350644e-38
-0.3225516379 -0.2448683977 -0.1777988076 2.343350644e-38
-0.3555207253 -0.03102946281 -0.3145115376 2.343350644e-38
-0.3504030406 -0.06154662371 -0.2855241299 2.343350644e-38
-0.3226699233 -0.2510593534 -0.1984809935 2.343350644e-38
-0.3472193182 -0.08139373362 -0.2699922323 2.343350644e-38
-0.1108448654 -0.7044696212 -0.4175694585 2.343350644e-38
-0.130701229 -0.716497004 -0.3360461593 2.343350644e-38
-0.1313852817 -0.7150039673 -0.3474253714 2.343242884e-38
-0.1320693493 -0.7135108709 -0.3588046432 2.343242884e-38
-0.132753402 -0.7120178938 -0.3701838851 2.343242884e-38
-0.3421016335 -0.1119108945 -0.2410048544 2.343242884e-38
-0.3007384837 -0.4085619152 -0.1518045515 2.343242884e-38
-0.3523369431 -0.05087654293 -0.29897964 2.343242884e-38
-0.1334374696 -0.7105247974 -0.381563127 2.343242884e-38
-0.1224832088 -0.7067506909 -0.4052559137 2.343242884e-38
-0.3542708755 -0.0402064845 -0.3124352098 2.343134984e-38
-0.3491532207 -0.07072364539 -0.2834478021 2.343134984e-38
-0.1341215372 -0.7090318203 -0.392942369 2.343134984e-38
-0.1416554749 -0.7202711105 -0.3123533428 2.343134984e-38
-0.1423395276 -0.7187781334 -0.3237326145 2.343134984e-38
-0.1437076479 -0.7157920003 -0.3464910686 2.343134984e-38
-0.3067767918 -0.3889335692 -0.2335355878 2.343134984e-38
-0.3241563141 -0.2542642355 -0.2419216782 2.343134984e-38
-0.3239197731 -0.2418823242 -0.2005573064 2.343027224e-38
-0.1122129858 -0.7014834881 -0.4403279722 2.343027224e-38
-0.3244855404 -0.2341983616 -0.1912543774 2.343027224e-38
-0.3344842792 -0.1607821137 -0.207864821 2.343027224e-38
-0.1238513291 -0.7037646174 -0.4280143976 2.343027224e-38
-0.3313005269 -0.1806292236 -0.1923329532 2.343027224e-38
-0.3263011575 -0.2173373401 -0.1840277314 2.343027224e-38
-0.1567141265 -0.7150870562 -0.3569360375 2.343027224e-38
-0.3517711759 -0.05856054276 -0.3082826138 2.342919324e-38
-0.1656161994 -0.7233402729 -0.2991054952 2.342919324e-38
-0.3257353604 -0.2250213325 -0.1933306754 2.342919324e-38
-0.3247221112 -0.2465802431 -0.2326187342 2.342919324e-38
-0.166300267 -0.7218472958 -0.3104847372 2.342919324e-38
-0.1245353967 -0.7022715807 -0.4393936694 2.342919324e-38
-0.2282829434 -0.4435840547 -0.0613082014 2.342919324e-38
-0.1669843197 -0.7203541994 -0.3218640089 2.342919324e-38
-0.3447196186 -0.09974777699 -0.2658396363 2.342811565e-38
-0.2406053245 -0.4443721175 -0.0603738986 2.342811565e-38
-0.3288008571 -0.198983252 -0.1881803423 2.342811565e-38
-0.3485874236 -0.07840764523 -0.2927507162 2.342811565e-38
-0.3255244493 -0.251278162 -0.2646802068 2.342811565e-38
-0.3415358365 -0.119594872 -0.2503077984 2.342811565e-38
-0.3269852102 -0.2158443034 -0.1954069883 2.342811565e-38
-0.3258536756 -0.2312122583 -0.2140128762 2.342811565e-38
-0.3434697688 -0.108924821 -0.2637633085 2.342703665e-38
-0.1368577778 -0.7030596137 -0.4384593666 2.342703665e-38
-0.1587663144 -0.7106078863 -0.3910737634 2.342703665e-38
-0.3402860165 -0.128771916 -0.2482314706 2.342703665e-38
-0.3276692927 -0.2143512368 -0.2067862302 2.342703665e-38
-0.1697205603 -0.7143820524 -0.3673809767 2.342703665e-38
-0.2659341693 -0.4444552064 -0.06988455355 2.342703665e-38
-0.2419734597 -0.441386044 -0.08313240111 2.342703665e-38
-0.254295826 -0.4421741068 -0.0821980983 2.342559891e-38
-0.1704046279 -0.7128890157 -0.3787602186 2.342559891e-38
-0.3289191425 -0.2051742077 -0.2088625282 2.342559891e-38
-0.3048428595 -0.3996036947 -0.220080018 2.342559891e-38
-0.1813589036 -0.7166631222 -0.3550674319 2.342559891e-38
-0.3480216563 -0.08609163016 -0.30205369 2.342559891e-38
-0.1608184874 -0.7061288357 -0.4252114892 2.342559891e-38
-0.266618222 -0.4429621696 -0.0812637955 2.342559891e-38
-0.1820429564 -0.715170145 -0.3664466739 2.342452132e-38
-0.305526942 -0.3981106281 -0.2314592749 2.342452132e-38
-0.3296031952 -0.2036811709 -0.220241785 2.342452132e-38
-0.3274583519 -0.2406080961 -0.2781357169 2.342452132e-38
-0.3397202492 -0.1364558935 -0.2575343847 2.342452132e-38
-0.3284716308 -0.2190491855 -0.2388476431 2.342452132e-38
-0.3365364671 -0.1563029885 -0.2420025617 2.342452132e-38
-0.161502555 -0.7046357393 -0.4365907609 2.342452132e-38
-0.1724568158 -0.7084099054 -0.4128979445 2.342344232e-38
-0.3384703994 -0.1456329226 -0.2554581165 2.342344232e-38
-0.3280241489 -0.2329240739 -0.2688328028 2.342344232e-38
-0.1621866226 -0.7031427026 -0.4479699731 2.342344232e-38
-0.2673022747 -0.4414691329 -0.09264305234 2.342344232e-38
-0.1731408685 -0.7069168687 -0.4242771864 2.342344232e-38
-0.1943653375 -0.715958178 -0.3655123711 2.342344232e-38
-0.2912630141 -0.4445382953 -0.07939517498 2.342344232e-38
-0.2563480139 -0.4376949668 -0.1163358241 2.342236472e-38
-0.3298397362 -0.2160630822 -0.2616061568 2.342236472e-38
-0.3292739987 -0.2237470746 -0.2709091306 2.342236472e-38
-0.33472085 -0.1731640399 -0.2492291778 2.342236472e-38
-0.2679863572 -0.4399760962 -0.1040222943 2.342236472e-38
-0.3442721069 -0.1136227101 -0.2958247662 2.342236472e-38
-0.33347103 -0.1823410392 -0.2471528798 2.342236472e-38
-0.3322211802 -0.1915180683 -0.2450765669 2.342236472e-38
-0.1745090038 -0.7039307356 -0.4470356703 2.342128572e-38
