# .PCD v0.7 - Point Cloud Data file format
VERSION 0.7
FIELDS x y z rgb
SIZE 4 4 4 4
TYPE F F F F
COUNT 1 1 1 1
WIDTH 833
HEIGHT 1
VIEWPOINT 0 0 0 1 0 0 0
POINTS 833
DATA ascii
0.3428014517 -0.2130844593 0.01945471764 5.63818743e-39
-0.01454852708 -0.166698277 0.4911081493 5.63818743e-39
0.2891880274 -0.1481184065 -0.2361255884 5.63818743e-39
0.4303006232 -0.2641798258 0.02462949976 5.63818743e-39
0.4291479588 -0.2549394369 0.02271499112 5.63818743e-39
0.2902563214 -0.1493484378 -0.2247309387 5.455592635e-39
-0.3974926174 -0.7531075478 -0.29470855 5.455592635e-39
0.2856468856 -0.1137931049 -0.2439506054 5.455592635e-39
0.3384439349 -0.2001540363 -0.01664373465 5.455592635e-39
0.3552680612 -0.7400877476 -0.02936314046 5.455592635e-39
0.4200111032 -0.1890265942 -0.002081215382 5.455592635e-39
0.3064930141 -0.1307975054 -0.1635700911 5.455592635e-39
0.3600054383 -0.7306315303 -0.1104221791 5.455592635e-39
0.3329337239 -0.1779831648 -0.0546566993 5.272997839e-39
0.3351546824 -0.1884535849 -0.04134754837 5.272997839e-39
0.3248227537 -0.1677285433 0.01117867511 5.272997839e-39
0.4292323291 -0.2629498243 0.0132348612 5.272997839e-39
0.3546639681 -0.7244814634 -0.1673954576 5.272997839e-39
0.3001676202 -0.1314278096 -0.2414180934 5.272997839e-39
0.1584179699 0.01719799638 -0.2609996498 5.272997839e-39
0.3150393963 -0.1406376362 -0.07241287082 5.272997839e-39
0.3146883547 -0.1490625143 -0.2388855815 5.090401643e-39
0.3044407964 -0.136347875 -0.1958395243 5.090401643e-39
0.3259754181 -0.176968962 0.01309318841 5.090401643e-39
0.3395965695 -0.2093944252 -0.01472922601 5.090401643e-39
0.3307971358 -0.1755231321 -0.07744599879 5.090401643e-39
0.4223164022 -0.2075074017 0.001747805625 5.090401643e-39
0.3462575078 -0.7446238995 0.006117343903 5.090401643e-39
0.3055090904 -0.1375778913 -0.1844448596 5.090401643e-39
0.2717710137 -0.1727970093 -0.02713233232 4.907806848e-39
0.4031850696 -0.1529110968 -0.00844274275 4.907806848e-39
0.4234690666 -0.2167478055 0.003662314266 4.907806848e-39
0.2722787559 -0.1053988189 -0.2445686162 4.907806848e-39
0.2908604145 -0.1649547219 -0.08669859916 4.907806848e-39
0.324907124 -0.1757389605 0.001698548906 4.907806848e-39
0.4315376282 -0.2814306319 0.01706387848 4.907806848e-39
0.2694945037 -0.1403544098 -0.3145916164 4.907806848e-39
0.3328069746 -0.2244009972 0.0340603739 4.725212053e-39
0.3151237667 -0.1486480236 -0.08189301938 4.725212053e-39
0.2707027197 -0.171566993 -0.03852702677 4.725212053e-39
0.4224007726 -0.2155177891 -0.007732326165 4.725212053e-39
0.3243873417 -0.168143034 -0.1458138824 4.725212053e-39
0.2705627978 -0.1415844262 -0.3031969666 4.725212053e-39
0.4032694399 -0.1609214842 -0.01792287454 4.725212053e-39
0.3227705359 -0.1732789278 -0.02109075524 4.725212053e-39
0.3451892138 -0.743393898 -0.005277350545 4.542257124e-39
0.3158409894 -0.1583029032 -0.2369710803 4.542257124e-39
0.3441228271 -0.2383456528 0.002408966888 4.542257124e-39
0.3190458715 -0.1619929671 -0.2027871311 4.542257124e-39
0.3320341706 -0.1927739382 -0.08501161635 4.542257124e-39
0.2696344256 -0.1703369766 -0.04992166534 4.542257124e-39
0.3276765943 -0.1798434705 -0.1211100817 4.542257124e-39
0.3520631492 -0.736397624 -0.0635471046 4.542257124e-39
0.3375443518 -0.2149447799 -0.04699865729 4.359662329e-39
0.343054533 -0.2371156216 -0.008985698223 4.359662329e-39
0.2595555782 -0.1736431122 -0.02583582327 4.359662329e-39
0.3206339478 -0.1708188951 -0.04388006032 4.359662329e-39
0.406643033 -0.1806322932 -0.002699214965 4.359662329e-39
0.3364760578 -0.2137147784 -0.05839329213 4.359662329e-39
0.2737677097 -0.1452744603 -0.2690130174 4.359662329e-39
0.278644979 -0.1658008248 -0.08540209383 4.359662329e-39
0.27910918 -0.151424557 -0.2120397687 4.177066133e-39
0.325075835 -0.1917597055 -0.01726174168 4.177066133e-39
0.2769725919 -0.1489645243 -0.2348290682 4.177066133e-39
0.3109349012 -0.1517383456 -0.1369517595 4.177066133e-39
0.3098666072 -0.1505083293 -0.1483464092 4.177066133e-39
-0.5095103383 -0.1595496088 -0.1615919769 4.177066133e-39
0.2759042978 -0.147734493 -0.2462237179 4.177066133e-39
0.2734314203 -0.1146392226 -0.242654115 4.177066133e-39
-0.2964242399 -0.7800112963 -0.006226718426 3.994471337e-39
0.3339021206 -0.715487361 -0.2572561502 3.994471337e-39
0.3244717121 -0.1761534214 -0.1552940458 3.994471337e-39
-0.3623787463 -0.763715446 -0.1833550632 3.994471337e-39
0.4171012342 -0.2718063295 0.005051240325 3.994471337e-39
0.277576685 -0.1645708084 -0.09679678082 3.994471337e-39
-0.3842088878 -0.7534914017 -0.2846104205 3.994471337e-39
0.3349704146 -0.716717422 -0.2458615005 3.994471337e-39
0.4136433005 -0.2440851182 -0.0006922893226 3.81151781e-39
0.3207182884 -0.1788292825 -0.05336019397 3.81151781e-39
0.327381134 -0.2102405131 -0.01343272068 3.81151781e-39
0.3299818933 -0.1983242929 -0.1172810495 3.81151781e-39
0.4350799322 -0.3171622455 0.0133272782 3.81151781e-39
0.4101853371 -0.216363892 -0.006435820833 3.81151781e-39
0.3307547271 -0.2299513519 0.00179096451 3.81151781e-39
0.4182538986 -0.2810467184 0.00696574524 3.81151781e-39
0.3142241538 -0.163438797 -0.1122479439 3.628921614e-39
0.2600633204 -0.1062449217 -0.2432720959 3.628921614e-39
0.188612178 -0.02731180936 -0.2540201247 3.628921614e-39
0.32631284 -0.2090105116 -0.02482735924 3.628921614e-39
-0.4896900058 -0.1208957732 -0.171843037 3.628921614e-39
0.3208026588 -0.186839655 -0.06284032017 3.628921614e-39
0.3374175727 -0.2613626122 0.04171840847 3.628921614e-39
0.3274655044 -0.2182509303 -0.02291284688 3.628921614e-39
0.3197343647 -0.1856096387 -0.07423498482 3.446326818e-39
0.4406744838 -0.3473434746 0.04186008498 3.446326818e-39
0.3164450824 -0.1739092171 -0.09893880039 3.446326818e-39
0.3181463182 -0.1767837405 -0.233142063 3.446326818e-39
0.3392436206 -0.7216374874 -0.2002828866 3.446326818e-39
-0.3655836284 -0.760025382 -0.2175390124 3.446326818e-39
0.3153767884 -0.1726791859 -0.1103334427 3.446326818e-39
0.3142086267 -0.7077233791 -0.3357221782 3.446326818e-39
0.2176536769 -0.06258122623 -0.2489551306 3.26337189e-39
-0.3283331692 -0.7730934024 -0.08339623362 3.26337189e-39
0.3186660707 -0.1843796223 -0.08562962711 3.26337189e-39
0.246695146 -0.0978506133 -0.2438901067 3.26337189e-39
0.2679620087 -0.1535006762 -0.1993486136 3.26337189e-39
0.3208870292 -0.1948500574 -0.07232047617 3.26337189e-39
0.3409160078 -0.738473773 -0.05085590482 3.26337189e-39
0.3413802087 -0.7240974903 -0.1774935722 3.26337189e-39
0.3297708035 -0.236731708 -0.01908383332 3.080777095e-39
0.1351397336 0.006265386939 -0.2564921379 3.080777095e-39
0.3089670241 -0.1652991027 -0.1787013263 3.080777095e-39
0.3445850909 -0.7277875543 -0.1433096379 3.080777095e-39
0.2621563673 -0.1617268622 -0.1296841949 3.080777095e-39
-0.4786272049 -0.1108092666 -0.1750540584 3.080777095e-39
0.2407904416 -0.137126565 -0.3575772047 3.080777095e-39
0.344291538 -0.2543664277 -0.01655131951 3.080777095e-39
0.3242606223 -0.2145608664 -0.0570967868 2.898180898e-39
0.2418587357 -0.1383565664 -0.346182555 2.898180898e-39
0.3264815509 -0.2250312865 -0.04378764331 2.898180898e-39
0.3352809846 -0.2589025795 0.01892913133 2.898180898e-39
0.2600197792 -0.1592668295 -0.1524734944 2.898180898e-39
0.4531005621 -0.4249567389 0.09136012197 2.898180898e-39
0.3133245707 -0.1782295406 -0.1426028758 2.898180898e-39
0.2329880297 -0.1728752851 -0.04603213444 2.898180898e-39
0.2188063115 -0.0718216151 -0.2470405996 2.715227371e-39
0.3319054246 -0.7430099249 -0.01537548006 2.715227371e-39
0.2520774901 -0.1650330126 -0.105598405 2.715227371e-39
0.3276342154 -0.2342716753 -0.04187313467 2.715227371e-39
0.1095561385 0.01381357014 -0.2558136284 2.715227371e-39
0.4419114888 -0.3645942807 0.03429446742 2.715227371e-39
-0.4873847067 -0.1393765807 -0.1680140197 2.715227371e-39
0.2229091823 -0.1761814356 -0.02194629237 2.715227371e-39
0.3387794197 -0.7360137701 -0.07364524156 2.532632576e-39
0.2419985831 -0.1683391482 -0.08151256293 2.532632576e-39
-0.5048997402 -0.196511209 -0.1539339423 2.532632576e-39
-0.3719933927 -0.7526453137 -0.2859069109 2.532632576e-39
0.4250854552 -0.3284787536 0.02793293074 2.532632576e-39
0.3345924914 -0.235285908 -0.1096230149 2.532632576e-39
0.3232766688 -0.2213412225 -0.07797158509 2.532632576e-39
0.452032268 -0.4237267077 0.07996544242 2.532632576e-39
0.3227549791 -0.7175635099 -0.2445649803 2.349677647e-39
0.240930289 -0.1671091318 -0.09290724993 2.349677647e-39
0.3410866559 -0.2506763637 -0.05073526502 2.349677647e-39
0.3222083449 -0.2201112211 -0.08936624974 2.349677647e-39
0.2472002059 -0.1445066482 -0.2892093062 2.349677647e-39
0.2546782792 -0.1531167626 -0.209446758 2.349677647e-39
0.4240171611 -0.3272487521 0.01653829217 2.349677647e-39
0.3166981637 -0.1979403794 -0.1273792237 2.349677647e-39
0.3236564994 -0.1989545822 -0.1951290965 2.167082852e-39
0.2482685 -0.1457366645 -0.2778146565 2.167082852e-39
0.324891597 -0.7200235724 -0.2217756808 2.167082852e-39
-0.4279237986 -0.02341509983 -0.1987671852 2.167082852e-39
0.3080674708 -0.1800898612 -0.2090562731 2.167082852e-39
0.2297831327 -0.169185251 -0.08021605015 2.167082852e-39
0.3216042519 -0.2045049369 -0.2273985296 2.167082852e-39
0.4441744089 -0.4375033081 0.117360428 2.167082852e-39
-0.4763219059 -0.1292900592 -0.1712250412 1.984127923e-39
0.2536099851 -0.1518867463 -0.2208414078 1.984127923e-39
0.2445994169 -0.1564228982 -0.1853609383 1.984127923e-39
0.3178508282 -0.2071807981 -0.1254647076 1.984127923e-39
0.3259598911 -0.7212535739 -0.2103810161 1.984127923e-39
0.276889354 -0.142360419 -0.2369105816 1.984127923e-39
0.1775493324 -0.03739831597 -0.2508091033 1.984127923e-39
0.3019931316 -0.7085695267 -0.334425658 1.984127923e-39
0.3030614257 -0.7097995281 -0.3230310082 1.801533128e-39
0.3041297197 -0.7110295296 -0.3116363585 1.801533128e-39
0.32374084 -0.2069649696 -0.20460926 1.801533128e-39
-0.3336746395 -0.7669433355 -0.1403694749 1.801533128e-39
0.3051980138 -0.712259531 -0.3002417088 1.801533128e-39
-0.4850794077 -0.1578573883 -0.1641850024 1.801533128e-39
0.3324559033 -0.2328258753 -0.1324123144 1.801533128e-39
0.2285749912 -0.1379726529 -0.3562806845 1.801533128e-39
-0.4938369095 -0.1864247024 -0.1571449637 1.618578199e-39
0.3190034628 -0.2164211869 -0.1235501915 1.618578199e-39
0.1984782964 -0.1778736413 -0.01935327798 1.618578199e-39
0.1374450475 -0.01221544668 -0.2526631057 1.618578199e-39
0.2345205247 -0.1597290337 -0.1612751484 1.618578199e-39
0.3323696554 -0.7286336422 -0.1420131326 1.618578199e-39
0.08512526751 0.01212135702 -0.2532206178 1.618578199e-39
0.4419534504 -0.4270328581 0.1040512621 1.618578199e-39
-0.4267711341 -0.03265549242 -0.196852684 1.435982003e-39
0.3397228718 -0.2798434198 0.04554742575 1.435982003e-39
0.3291647732 -0.7249436378 -0.1761970669 1.435982003e-39
0.3167825341 -0.2059507668 -0.1368593425 1.435982003e-39
-0.4751692414 -0.1385304779 -0.1693105251 1.435982003e-39
0.324513644 -0.2385920286 -0.08553723246 1.435982003e-39
0.4285433888 -0.35619995 0.03367645666 1.435982003e-39
0.3092201054 -0.18933025 -0.2071417719 1.435982003e-39
0.3102883995 -0.1905602813 -0.1957471073 1.253028475e-39
-0.355504781 -0.7567192316 -0.2416248322 1.253028475e-39
0.3476651311 -0.2740772367 -0.001327659935 1.253028475e-39
0.2255099565 -0.1642651856 -0.125794664 1.253028475e-39
0.4408851266 -0.4258028567 0.0926566273 1.253028475e-39
-0.4553489387 -0.09987664223 -0.1795615852 1.253028475e-39
0.2360530496 -0.1465827674 -0.2765181363 1.253028475e-39
-0.435528636 -0.06122282892 -0.1898126453 1.253028475e-39
0.4443011582 -0.3910854757 0.02864335105 1.070432279e-39
-0.3597779572 -0.7517992258 -0.2872034311 1.070432279e-39
0.08627791703 0.002880960703 -0.2513060868 1.070432279e-39
0.125229612 -0.01306155324 -0.2513666153 1.070432279e-39
0.3239095509 -0.2229857445 -0.2235695124 1.070432279e-39
0.4454537928 -0.4003258646 0.03055785969 1.070432279e-39
0.3190878332 -0.2244315743 -0.1330303252 1.070432279e-39
0.4466064572 -0.4095662832 0.03247237578 1.070432279e-39
-0.3687740564 -0.2106444538 -0.01668707281 8.874787512e-40
0.324977845 -0.2242157757 -0.2121748775 8.874787512e-40
0.3114410639 -0.1998006999 -0.1938325912 8.874787512e-40
0.313577652 -0.2022607327 -0.1710432917 8.874787512e-40
0.4477590919 -0.4188066721 0.03438687697 8.874787512e-40
0.440969497 -0.4338132441 0.08317644894 8.874787512e-40
0.3433919549 -0.2691571712 -0.04690624028 8.874787512e-40
0.4489117563 -0.4280470908 0.03630139306 8.874787512e-40
0.3233590424 -0.7331697941 -0.1065326408 7.045238224e-40
0.3278029263 -0.2502924502 -0.06083342433 7.045238224e-40
0.2163594961 -0.1388187706 -0.3549841642 7.045238224e-40
0.340187043 -0.2654671371 -0.08109021187 7.045238224e-40
0.3408755362 -0.2890838087 0.04746193439 7.045238224e-40
-0.4034928977 -0.02172288671 -0.2013602108 7.045238224e-40
-0.4627153277 -0.4359156191 -0.1054532006 7.045238224e-40
0.3222907484 -0.7319397926 -0.1179273352 7.045238224e-40
0.2032156587 -0.168417424 -0.1004123688 5.219290273e-40
0.313744396 -0.7220996618 -0.2090844959 5.219290273e-40
0.3213087618 -0.2349019945 -0.1197211742 5.219290273e-40
-0.4548863769 -0.2009609044 -0.1456438303 5.219290273e-40
0.3157985806 -0.212731123 -0.1577341408 5.219290273e-40
0.1798546314 -0.05587912723 -0.2469801009 5.219290273e-40
0.3256663084 -0.2478324175 -0.08362272382 5.219290273e-40
0.3477495015 -0.2820876241 -0.01080779172 5.219290273e-40
0.2887094021 -0.7081855536 -0.3445237875 3.389740985e-40
0.2021473646 -0.1671874225 -0.1118070036 3.389740985e-40
0.1397503465 -0.0306962356 -0.2488341033 3.389740985e-40
0.3169492781 -0.7257897258 -0.1749005616 3.389740985e-40
0.1719107628 -0.1771058142 -0.03954958543 3.389740985e-40
0.2206326723 -0.1437388361 -0.3094055951 3.389740985e-40
0.2010790706 -0.1659573913 -0.1232016385 3.389740985e-40
0.3116097748 -0.215821445 -0.2127928883 3.389740985e-40
0.2234169394 -0.1087832451 -0.239382565 1.56020571e-40
-0.3698423505 -0.2094144374 -0.02808176354 1.56020571e-40
0.3336929083 -0.2500766814 -0.1399779618 1.56020571e-40
0.4320013523 -0.3839211762 0.03941999003 1.56020571e-40
0.2100896388 -0.1614212394 -0.1586821228 1.56020571e-40
0.3387389481 -0.286623776 0.02467265725 1.56020571e-40
-0.321459204 -0.766097188 -0.1416659802 1.56020571e-40
-0.3411527276 -0.7583332062 -0.220132038 1.56020571e-40
0.4388329089 -0.4313532114 0.06038717553 6.490113838e-41
0.1708424687 -0.1758758128 -0.050944224 6.490113838e-41
-0.4233132005 -0.06037672237 -0.1911091506 6.490113838e-41
-0.3912774622 -0.02087678015 -0.2026567161 6.490113838e-41
0.3271988034 -0.234686166 -0.1988657266 6.490113838e-41
0.2238375545 -0.1474288702 -0.2752216458 6.490113838e-41
0.1141667515 -0.02314805612 -0.2481555939 6.490113838e-41
0.04963152856 0.0003426447511 -0.2474165559 6.490113838e-41
0.3489021361 -0.2913280427 -0.008893279359 2.496469266e-40
0.1409029961 -0.03993663192 -0.2469196022 2.496469266e-40
0.2972557545 -0.7180256844 -0.2533665895 2.496469266e-40
0.2973956764 -0.7480082512 0.01130338013 2.496469266e-40
-0.4705586433 -0.1754920781 -0.1616524905 2.496469266e-40
0.2983240485 -0.7192557454 -0.2419719696 2.496469266e-40
0.08858323097 -0.01559987292 -0.2474770844 2.496469266e-40
-0.3432893157 -0.7558732033 -0.2429213375 2.496469266e-40
0.1787847131 -0.1701096445 -0.09781934321 4.340353837e-40
-0.457022965 -0.1985008717 -0.1684331149 4.340353837e-40
0.2993923724 -0.7204857469 -0.2305772901 4.340353837e-40
0.4331540167 -0.3931615949 0.04133449867 4.340353837e-40
0.33660236 -0.2841637433 0.001883352175 4.340353837e-40
0.2963273823 -0.7467782497 -9.13143158e-05 4.340353837e-40
-0.4724432826 -0.1956569254 -0.2013205737 4.340353837e-40
0.0374160856 -0.0005034655333 -0.2461200655 4.340353837e-40
0.1474798769 -0.1787980348 -0.03695656732 6.184224396e-40
0.3414240479 -0.2827179432 -0.08865582943 6.184224396e-40
0.3100753129 -0.7327859402 -0.1166308224 6.184224396e-40
0.07636778057 -0.01644597575 -0.2461805642 6.184224396e-40
0.3370665312 -0.2697874904 -0.1247542799 6.184224396e-40
0.05078417808 -0.008897755295 -0.2455020547 6.184224396e-40
0.3304880261 -0.2463866174 -0.174161911 6.184224396e-40
0.3047338426 -0.7266358137 -0.1736040413 6.184224396e-40
-0.4735115767 -0.1944269091 -0.2127152085 8.028094954e-40
0.3477778137 -0.3849926591 -0.1454442739 8.028094954e-40
-0.4781635106 -0.2132998109 -0.1526979357 8.028094954e-40
0.3388232887 -0.2946341932 0.01519253105 8.028094954e-40
0.3079387248 -0.7303258777 -0.139420107 8.028094954e-40
0.1968058795 -0.1610373408 -0.1687802523 8.028094954e-40
0.3436450064 -0.2931883335 -0.07534668595 8.028094954e-40
-0.4437392354 -0.1988847852 -0.1583350003 8.028094954e-40
0.3445729315 -0.3813026249 -0.1796282232 9.871979525e-40
0.08973588049 -0.02484026551 -0.2455625534 9.871979525e-40
0.1119017825 -0.1825663745 -0.02167239413 9.871979525e-40
0.3269033134 -0.2650832236 -0.09118834138 9.871979525e-40
0.349070847 -0.3073488176 -0.02785356529 9.871979525e-40
0.2829037011 -0.716411829 -0.2748593986 9.871979525e-40
-0.4210078716 -0.07885751128 -0.1872801334 9.871979525e-40
-0.289550215 -0.7730150819 -0.06449647993 9.871979525e-40
-0.4309180081 -0.09818442911 -0.1821546108 1.171585008e-39
0.3377549946 -0.2934041619 0.003797864541 1.171585008e-39
-0.3443431854 -0.2089522332 -0.01928008348 1.171585008e-39
0.3458659649 -0.3036587834 -0.06203750521 1.171585008e-39
0.3010647297 -0.7373220921 -0.0811503455 1.171585008e-39
-0.326800704 -0.7599471211 -0.1986392289 1.171585008e-39
0.2786305249 -0.711491704 -0.3204379678 1.171585008e-39
-0.4006830454 -0.203726545 -0.09385663271 1.171585008e-39
0.1432082951 -0.05841744319 -0.24309057 1.355972064e-39
0.3305723965 -0.2543970048 -0.1836420447 1.355972064e-39
0.366922766 -0.3991225362 0.0691395402 1.355972064e-39
0.0996863395 -0.1834124774 -0.02037588879 1.355972064e-39
-0.4448075294 -0.1976547539 -0.1697296202 1.355972064e-39
0.3480869234 -0.3141292036 -0.04872836173 1.355972064e-39
0.2536110878 -0.1532930434 -0.2324030399 1.355972064e-39
0.3561554849 -0.3788120151 -0.03532679379 1.355972064e-39
-0.4767164588 -0.19073686 -0.2468991578 1.540360521e-39
0.3611595035 -0.3529205322 0.05956699699 1.540360521e-39
-0.3278689981 -0.7587170601 -0.2100338936 1.540360521e-39
-0.2751981914 -0.7746289968 -0.04300366342 1.540360521e-39
0.3399759531 -0.3038745821 0.01710703969 1.540360521e-39
0.3459503055 -0.3116691709 -0.07151766121 1.540360521e-39
0.3615812957 -0.3929724693 0.01216632128 1.540360521e-39
0.3578702807 -0.3412201107 0.03486321121 1.540360521e-39
0.3507296145 -0.364651531 -0.08281988651 1.724747577e-39
0.3247667253 -0.2626231909 -0.1139776483 1.724747577e-39
0.3371508718 -0.2777978778 -0.1342344433 1.724747577e-39
-0.4869210124 -0.241867125 -0.145657897 1.724747577e-39
-0.358695209 -0.2073383033 -0.04077290744 1.724747577e-39
0.184590444 -0.1618834436 -0.167483747 1.724747577e-39
-0.416103363 -0.2008826137 -0.1267440617 1.724747577e-39
0.3546653986 -0.3375300765 0.0006792675704 1.724747577e-39
0.317119956 -0.2379923165 -0.1747799218 1.909134633e-39
0.3481712639 -0.3221395612 -0.05820849538 1.909134633e-39
0.1994066685 -0.1491210908 -0.2726286054 1.909134633e-39
0.3593603671 -0.3825020492 -0.001142850146 1.909134633e-39
0.3306567669 -0.2624073923 -0.1931222081 1.909134633e-39
0.3454861343 -0.3260454237 0.0551199764 1.909134633e-39
-0.4017513394 -0.2024965286 -0.1052512676 1.909134633e-39
0.1176247001 -0.05086926371 -0.2424120605 1.909134633e-39
0.3514605165 -0.3338400126 -0.0335046798 2.09352309e-39
-0.4876099229 -0.3351172507 -0.1252163053 2.09352309e-39
0.2967915535 -0.732401967 -0.1267289519 2.09352309e-39
0.1925327033 -0.1561172754 -0.2143588662 2.09352309e-39
0.3345501125 -0.2897141278 -0.03038607724 2.09352309e-39
-0.3300055861 -0.7562570572 -0.232823208 2.09352309e-39
0.3558180332 -0.3467704654 0.002593776211 2.09352309e-39
0.3506452739 -0.3566411436 -0.0733397603 2.09352309e-39
0.3383035362 -0.2870382667 -0.1323199272 2.277910146e-39
0.3582077026 -0.3732616305 -0.003057362512 2.277910146e-39
0.1320595443 -0.1759541035 -0.06984397769 2.277910146e-39
-0.3364153504 -0.7488769293 -0.3011910915 2.277910146e-39
0.3536814451 -0.3443104327 -0.02019552886 2.277910146e-39
0.3483399451 -0.338160336 -0.07716877759 2.277910146e-39
0.3494926095 -0.3474007547 -0.07525426149 2.277910146e-39
0.350476563 -0.3406203687 -0.05437947065 2.277910146e-39
-0.4659480453 -0.2124536932 -0.1539944559 2.462297202e-39
0.3612438738 -0.3609309196 0.05008687079 2.462297202e-39
0.3559024036 -0.3547808528 -0.006886377931 2.462297202e-39
0.2838052809 -0.1978028417 -0.2254235148 2.462297202e-39
0.3538501859 -0.3603312075 -0.03915581107 2.462297202e-39
0.3537658155 -0.3523208201 -0.02967565693 2.462297202e-39
0.08640260249 -0.1830285639 -0.03047401831 2.462297202e-39
0.357055068 -0.3640212417 -0.004971871153 2.462297202e-39
0.3416771293 -0.3067491055 -0.1170962453 2.646685659e-39
0.3388940394 -0.3431109786 -0.1986808926 2.646685659e-39
0.3591072857 -0.3584709167 0.02729759365 2.646685659e-39
-0.2475624084 -0.7766268253 -0.01141275465 2.646685659e-39
0.2717565596 -0.7184879184 -0.2621682286 2.646685659e-39
0.1824538559 -0.1594234109 -0.1902730465 2.646685659e-39
0.3372352421 -0.2858082652 -0.143714577 2.646685659e-39
-0.3597635031 -0.2061083019 -0.05216754973 2.646685659e-39
0.152217254 -0.1693418324 -0.1180156022 2.830713982e-39
-0.3424156308 -0.01749235764 -0.2078427523 2.830713982e-39
0.3328776956 -0.2728778124 -0.1798130274 2.830713982e-39
0.1187773496 -0.06010966003 -0.2404975444 2.830713982e-39
0.1455136091 -0.07689825445 -0.2392615527 2.830713982e-39
-0.4373702705 -0.1452325583 -0.1712855548 2.830713982e-39
0.132145524 -0.06850396842 -0.2398795485 2.830713982e-39
-0.3741155267 -0.204494372 -0.07366034389 2.830713982e-39
0.2877810001 -0.7369381189 -0.09124847502 3.015101038e-39
0.2809070647 -0.7439343333 -0.03297871351 3.015101038e-39
-0.2773347795 -0.7721689939 -0.06579298526 3.015101038e-39
0.3346344829 -0.2977244854 -0.03986620903 3.015101038e-39
0.07982572913 -0.04416716099 -0.2404370457 3.015101038e-39
-0.4480124116 -0.1939647198 -0.2039135993 3.015101038e-39
0.335098654 -0.2833482325 -0.1665038764 3.015101038e-39
-0.3977296352 -0.06792490184 -0.1917876601 3.015101038e-39
0.3151520789 -0.2515530586 -0.2165294886 3.199488094e-39
0.3341990709 -0.2981390059 -0.1968587935 3.199488094e-39
0.3376989663 -0.3882988095 -0.1213584542 3.199488094e-39
0.3215618432 -0.2589331567 -0.1481615901 3.199488094e-39
0.1861229241 -0.1487371773 -0.2827267647 3.199488094e-39
-0.3145852685 -0.7591010332 -0.1999357492 3.199488094e-39
0.1299229562 -0.1734940708 -0.09263330698 3.199488094e-39
-0.2959599793 -0.7656350136 -0.1328643709 3.199488094e-39
0.3162203729 -0.2527830601 -0.2051348388 3.383517819e-39
0.331289202 -0.3809187114 -0.1897263527 3.383517819e-39
0.1818497479 -0.1438171268 -0.3283053637 3.383517819e-39
0.01529051177 -0.02067650855 -0.2396980077 3.383517819e-39
-0.3756040037 -0.04775190353 -0.198209703 3.383517819e-39
0.3419301808 -0.3307802379 -0.1455366611 3.383517819e-39
0.2164109349 -0.4324858189 0.07525586337 3.383517819e-39
-0.2640510201 -0.7725529075 -0.0556948632 3.383517819e-39
0.3387252986 -0.3270902038 -0.1797206402 3.567904875e-39
0.3423655927 -0.3303657472 0.0114558991 3.567904875e-39
0.1187757477 -0.17557019 -0.0799421519 3.567904875e-39
0.3408618867 -0.3295502365 -0.1569313258 3.567904875e-39
-0.2784030735 -0.7709389925 -0.07718762755 3.567904875e-39
-0.01029308978 -0.01312828436 -0.2390195131 3.567904875e-39
-0.4490807056 -0.1927346885 -0.215308249 3.567904875e-39
-0.4350649416 -0.1637133658 -0.1674565226 3.567904875e-39
-0.4846157134 -0.2603479326 -0.1418288797 3.75229193e-39
-0.07367563248 0.001121982932 -0.2363659739 3.75229193e-39
0.3336505294 -0.3045048714 -0.06074099988 3.75229193e-39
0.03754077852 -0.1864129901 -0.02528797835 3.75229193e-39
-0.3167218566 -0.7566409707 -0.2227250487 3.75229193e-39
0.3412972987 -0.3291357458 6.126053631e-05 3.75229193e-39
0.3445865512 -0.3408361971 0.02476507798 3.75229193e-39
0.3494502306 -0.4018289745 0.003982672933 3.75229193e-39
-0.4742418528 -0.3435115814 -0.1245982945 3.936320254e-39
-0.390604198 -0.2004204094 -0.1179424152 3.936320254e-39
0.2595411241 -0.7193340063 -0.2608717084 3.936320254e-39
0.05539478734 -0.04585937411 -0.2378440201 3.936320254e-39
0.3249354362 -0.2786439955 -0.132937938 3.936320254e-39
0.3526551127 -0.4055190384 0.03816664219 3.936320254e-39
0.3216462135 -0.2669435441 -0.1576417238 3.936320254e-39
0.3195096254 -0.2644835114 -0.1804310381 3.936320254e-39
0.161187008 -0.1037733555 -0.2348145396 4.120708711e-39
-0.2991648614 -0.7619449496 -0.1670483202 4.120708711e-39
-0.4735528827 -0.250261426 -0.1450399011 4.120708711e-39
0.1670334637 -0.1565794647 -0.2231604755 4.120708711e-39
0.2570690513 -0.1810142696 -0.2266595066 4.120708711e-39
0.3482975662 -0.3925885558 0.002068160567 4.120708711e-39
-0.4405896962 -0.4157425761 -0.1118752509 4.120708711e-39
0.3391607106 -0.3266757131 -0.02272804268 4.120708711e-39
0.3363775909 -0.363037616 -0.1043126881 4.304737034e-39
-0.1103219837 -0.00141634047 -0.2324764431 4.304737034e-39
0.1918957084 -0.4261676073 0.08732906729 4.304737034e-39
0.03647248447 -0.1851829737 -0.03668261692 4.304737034e-39
-0.334264338 -0.2056460977 -0.04336592555 4.304737034e-39
0.1378652155 -0.1677278876 -0.1395083964 4.304737034e-39
0.1580229104 -0.1611156166 -0.1876800358 4.304737034e-39
0.2744972706 -0.736554265 -0.1013466045 4.304737034e-39
-0.4053344727 -0.1057326347 -0.1828331202 4.48912409e-39
0.2024439871 -0.1381966472 -0.231046021 4.48912409e-39
0.08319772035 -0.1793385297 -0.06465793401 4.48912409e-39
0.3380924165 -0.3254456818 -0.03412268311 4.48912409e-39
0.3460766375 -0.3821181655 -0.01124098338 4.48912409e-39
0.341381669 -0.3371461332 -0.009418893605 4.48912409e-39
-0.4624900818 -0.2401749194 -0.1482509226 4.48912409e-39
-0.08473844826 -0.008964523673 -0.2331549525 4.48912409e-39
-0.2518355846 -0.7717068195 -0.05699136853 4.673152414e-39
0.1054920107 -0.1751862764 -0.09004028141 4.673152414e-39
0.2509947717 -0.7094938755 -0.3520289361 4.673152414e-39
0.3260881007 -0.2878843844 -0.1310234219 4.673152414e-39
0.3503498137 -0.3870382309 0.03433762491 4.673152414e-39
-0.2077111453 -0.7777785659 0.01888167858 4.673152414e-39
0.1648968756 -0.154119432 -0.245949775 4.673152414e-39
-0.122537449 -0.002262443304 -0.2311799377 4.673152414e-39
0.331120491 -0.3648979366 -0.1707660854 4.857539469e-39
0.2596809864 -0.7493165731 0.003798216581 4.857539469e-39
0.3482132256 -0.3845781982 0.01154832169 4.857539469e-39
0.03540419042 -0.1839529574 -0.04807725549 4.857539469e-39
0.2031271905 -0.4321019053 0.06515773386 4.857539469e-39
0.2499264777 -0.7082638741 -0.3634235859 4.857539469e-39
0.340313375 -0.3359161317 -0.02081353217 4.857539469e-39
0.3458235562 -0.3580869734 0.01719943061 4.857539469e-39
0.2702240944 -0.7316341996 -0.146925211 5.041567793e-39
0.3217305541 -0.2749539316 -0.1671218723 5.041567793e-39
0.2691558003 -0.7304041386 -0.1583198756 5.041567793e-39
0.3405664563 -0.359947294 -0.04925394803 5.041567793e-39
0.3394137919 -0.3507068753 -0.05116845667 5.041567793e-39
0.1356034726 -0.09622517228 -0.2341360152 5.041567793e-39
0.0008944198489 -0.1889513135 -0.02139844745 5.041567793e-39
0.3416347504 -0.3611773252 -0.03785930574 5.041567793e-39
0.1908273995 -0.4249376059 0.07593437284 5.225597518e-39
0.3316826224 -0.3180656135 -0.1024905965 5.225597518e-39
0.195353657 -0.4538888335 0.09307258576 5.225597518e-39
0.3427030444 -0.3624073267 -0.02646464296 5.225597518e-39
0.1558863223 -0.1586555839 -0.2104693353 5.225597518e-39
-0.4417423606 -0.4065021574 -0.1137897596 5.225597518e-39
-0.2672559023 -0.7688628435 -0.08987878263 5.225597518e-39
0.2098743916 -0.4715235233 0.09560509771 5.225597518e-39
0.3459079266 -0.3660973907 0.007719300687 5.409984573e-39
-0.1347528994 -0.003108553588 -0.2298834324 5.409984573e-39
0.03433589265 -0.1827229559 -0.05947189406 5.409984573e-39
0.03096390143 -0.04755158722 -0.2352509946 5.409984573e-39
0.09327656776 -0.1760323793 -0.08874377608 5.409984573e-39
0.2132904083 -0.4368061423 0.03159182519 5.409984573e-39
-0.4081611633 -0.1951164454 -0.1736191511 5.409984573e-39
0.1819854975 -0.4454945326 0.0924546048 5.409984573e-39
-0.2848128378 -0.7635588646 -0.1455555111 5.594012897e-39
-0.4613374174 -0.249415338 -0.1463364065 5.594012897e-39
0.1537497342 -0.1561955512 -0.233258605 5.594012897e-39
0.3261724412 -0.2958947718 -0.1405035555 5.594012897e-39
-0.1469683796 -0.003954656422 -0.2285869122 5.594012897e-39
0.01097327471 -0.185645178 -0.04548423365 5.594012897e-39
0.190228492 -0.1390427649 -0.2297495157 5.594012897e-39
0.288415879 -0.2347644567 -0.2177654803 5.594012897e-39
0.3219836354 -0.2989850938 -0.1955623031 5.77804122e-39
-0.3220489025 -0.2047999948 -0.04466243461 5.77804122e-39
-0.4620263875 -0.3426654637 -0.1258948147 5.77804122e-39
-0.4597210884 -0.3611462414 -0.1220657974 5.77804122e-39
-0.2858811319 -0.7623288631 -0.1569501758 5.77804122e-39
0.2110270411 -0.4807639122 0.0975196138 5.77804122e-39
0.3307830393 -0.3328563869 -0.132845521 5.77804122e-39
-0.4428949952 -0.3972617686 -0.1157042682 5.77804122e-39
-0.2539721727 -0.769246757 -0.07978064567 5.962428276e-39
0.251598835 -0.7251001596 -0.213996619 5.962428276e-39
0.2166640013 -0.4565169811 0.04681547731 5.962428276e-39
0.3276625276 -0.3371767104 -0.1765096188 5.962428276e-39
0.2448536009 -0.1818603575 -0.2253630012 5.962428276e-39
0.3284777403 -0.3143755496 -0.1366745383 5.962428276e-39
-0.1591838151 -0.004800766706 -0.2272904068 5.962428276e-39
-0.3098478317 -0.7496447563 -0.2809948027 5.962428276e-39
0.2188849449 -0.466987431 0.06012462825 6.1464566e-39
0.3265098631 -0.3279363215 -0.1784241349 6.1464566e-39
0.02105215192 -0.1823390424 -0.06957007945 6.1464566e-39
-0.03241866827 -0.03330132738 -0.2325974703 6.1464566e-39
0.2590768933 -0.733710289 -0.1342340708 6.1464566e-39
0.1235131845 -0.1661139727 -0.1610012054 6.1464566e-39
-0.4094813764 -0.171261549 -0.168135047 6.1464566e-39
0.3252728581 -0.3106855154 -0.1708584875 6.1464566e-39
0.2099587321 -0.4795339108 0.08612491935 6.330484923e-39
-0.4689422846 -0.2872230411 -0.1373818666 6.330484923e-39
0.1224448904 -0.1648839563 -0.1723958254 6.330484923e-39
0.185443446 -0.4732157588 0.09819812328 6.330484923e-39
-0.3488678038 -0.06454047561 -0.1969736964 6.330484923e-39
-0.2890860438 -0.7586387992 -0.191134125 6.330484923e-39
-0.220261097 -0.009031295776 -0.2208078504 6.330484923e-39
0.1012188271 -0.170266211 -0.1356188655 6.330484923e-39
-0.3809036016 -0.104040429 -0.1854261309 6.514514648e-39
0.05556188896 -0.1773406863 -0.09624888003 6.514514648e-39
0.172075361 -0.4648214579 0.09758012742 6.514514648e-39
0.2460062355 -0.1911007464 -0.2234485 6.514514648e-39
0.1512768567 -0.1231002808 -0.229689002 6.514514648e-39
0.0332692042 -0.06603239477 -0.2314219773 6.514514648e-39
0.1197041944 -0.1468176246 -0.333217442 6.514514648e-39
-0.03682022542 -0.1902596056 -0.02890355885 6.514514648e-39
-0.03126601875 -0.04254171997 -0.2306829542 6.698542971e-39
-0.3815936446 -0.1958842576 -0.1534228921 6.698542971e-39
0.1250456721 -0.1529677063 -0.2762441933 6.698542971e-39
0.2383150756 -0.7247163057 -0.2240947485 6.698542971e-39
-0.1976322681 -0.7744724751 -0.005204156041 6.698542971e-39
0.1966330707 -0.4167114496 0.006269976497 6.698542971e-39
0.07785624266 -0.173188448 -0.1216312051 6.698542971e-39
-0.170246616 -0.01488726586 -0.2240793854 6.698542971e-39
0.2192700356 -0.1743121445 -0.2246844918 6.882571295e-39
0.1732280105 -0.4740618467 0.09949462861 6.882571295e-39
-0.1446630806 -0.02243544906 -0.2247578949 6.882571295e-39
0.1620808691 -0.4761379957 0.1121857837 6.882571295e-39
0.007768385112 -0.1819551289 -0.07966820151 6.882571295e-39
-0.04348145798 -0.04338782653 -0.2293864489 6.882571295e-39
-0.4463529587 -0.3695405722 -0.1214477867 6.882571295e-39
-0.3133741021 -0.05276176706 -0.2027777433 6.882571295e-39
-0.2725973725 -0.7627127767 -0.1468520314 7.066599618e-39
-0.1832802296 -0.7760863304 0.01628865302 7.066599618e-39
0.3075472414 -0.2893607914 -0.2075749338 7.066599618e-39
0.1955647767 -0.4154813886 -0.005124665797 7.066599618e-39
-0.3972659111 -0.1704154313 -0.1694315523 7.066599618e-39
-0.03788851947 -0.1890296042 -0.04029819742 7.066599618e-39
0.06000539288 -0.08282099664 -0.2301859856 7.066599618e-39
0.2468614429 -0.7345564365 -0.1329375505 7.066599618e-39
0.1464918256 -0.4572732449 0.09825863689 7.250627941e-39
0.1074887514 -0.1476637423 -0.3319209516 7.250627941e-39
-0.2582453489 -0.7643266916 -0.1253592521 7.250627941e-39
-0.1312949359 -0.0308297798 -0.224139899 7.250627941e-39
0.1106936336 -0.1513537765 -0.2977370024 7.250627941e-39
0.1149668172 -0.1562738419 -0.2521583736 7.250627941e-39
0.1256932616 -0.1155520976 -0.2290104926 7.250627941e-39
-0.06791236997 -0.04508003965 -0.2267934233 7.250627941e-39
0.1854859293 -0.418787539 0.01896112412 7.434656265e-39
0.05342529714 -0.1748806536 -0.119038187 7.434656265e-39
0.2918738425 -0.2624856532 -0.2120219618 7.434656265e-39
0.2068806291 -0.429426074 -0.03677611798 7.434656265e-39
-0.3109017015 -0.2027238756 -0.05735358596 7.434656265e-39
-0.3686881065 -0.1031943187 -0.1867226511 7.434656265e-39
0.06457250565 -0.1728045344 -0.1317293346 7.434656265e-39
-0.3011586666 -0.0519156605 -0.2040742487 7.434656265e-39
0.08686679602 -0.1686522961 -0.1571116745 7.618684588e-39
0.07337354124 -0.09121528268 -0.2295679897 7.618684588e-39
-0.1690939665 -0.02412766218 -0.2221648842 7.618684588e-39
0.2337908 -0.1919468641 -0.2221519947 7.618684588e-39
0.2091015726 -0.4398964643 -0.02346692234 7.618684588e-39
-0.03895681351 -0.1877995878 -0.05169283599 7.618684588e-39
-0.07346661389 -0.192797929 -0.02501402423 7.618684588e-39
0.205812335 -0.428196013 -0.04817076027 7.618684588e-39
-0.4161587954 -0.4140503705 -0.1144682691 7.802712912e-39
0.1419655681 -0.4283220768 0.08112040907 7.802712912e-39
-0.4156392217 -0.186506331 -0.2533816993 7.802712912e-39
0.1070244983 -0.162040025 -0.2052832842 7.802712912e-39
0.09420494735 -0.1472798288 -0.3420190811 7.802712912e-39
0.2113225162 -0.4503669143 -0.01015777886 7.802712912e-39
0.2056855559 -0.4746138453 0.04054636508 7.802712912e-39
0.1844176352 -0.4175575376 0.007566489279 7.802712912e-39
-0.259313643 -0.7630966902 -0.1367538869 7.986382503e-39
0.0477899462 -0.08366710693 -0.2288894653 7.986382503e-39
0.06350420415 -0.1715745181 -0.1431240141 7.986382503e-39
-0.01674527302 -0.06017642841 -0.2281504422 7.986382503e-39
-0.1935248822 -0.02581987157 -0.2195718586 7.986382503e-39
0.1342763901 -0.4581193924 0.09955514222 7.986382503e-39
0.09527324885 -0.1485098451 -0.3306244314 7.986382503e-39
0.3110052049 -0.3170819879 -0.2018314004 7.986382503e-39
0.2218264639 -0.7206423283 -0.268376857 8.170410826e-39
-0.05117228627 -0.1886456907 -0.0503963232 8.170410826e-39
0.1016830206 -0.1558899432 -0.2622565329 8.170410826e-39
0.09847813845 -0.1521998942 -0.2964404821 8.170410826e-39
0.186680451 -0.4904665947 0.09063246101 8.170410826e-39
-0.4016380608 -0.4316850901 -0.1119357571 8.170410826e-39
-0.1301422864 -0.04007017612 -0.2222253829 8.170410826e-39
0.02220641635 -0.07611892372 -0.2282109559 8.170410826e-39
0.2494641989 -0.2188219726 -0.2177049667 8.35443915e-39
0.2260996401 -0.7255623937 -0.2227982432 8.35443915e-39
0.2079065144 -0.4850842953 0.05385551602 8.35443915e-39
-0.4456640184 -0.2762904167 -0.1418893933 8.35443915e-39
-0.4037181139 -0.217463553 -0.1585624963 8.35443915e-39
-0.3000060022 -0.06115605682 -0.2021597475 8.35443915e-39
0.2058966905 -0.4362064004 -0.05765089393 8.35443915e-39
0.08473020792 -0.1661922634 -0.179900974 8.35443915e-39
0.2046172619 -0.4733838439 0.02915167063 8.538467473e-39
0.1700231135 -0.4703718424 0.06531066447 8.538467473e-39
0.0830578059 -0.149355948 -0.3293279111 8.538467473e-39
-0.4173114598 -0.4048099518 -0.1163827777 8.538467473e-39
0.2091859281 -0.4479068518 -0.03294710815 8.538467473e-39
0.1912915856 -0.4105613232 -0.05070327222 8.538467473e-39
0.08259361237 -0.1637322307 -0.2026902735 8.538467473e-39
0.2349434346 -0.2011872828 -0.2202374786 8.538467473e-39
-0.444511354 -0.2855308354 -0.1399748921 8.722137064e-39
-0.3938079476 -0.1981366575 -0.1636880189 8.722137064e-39
0.1297501177 -0.4291681647 0.0824169293 8.722137064e-39
0.1669502705 -0.1499753743 -0.2252419889 8.722137064e-39
-0.0978974998 -0.1944901496 -0.02242100611 8.722137064e-39
-0.2412340492 -0.03844473511 -0.2124713063 8.722137064e-39
-0.356472671 -0.1023482084 -0.1880191565 8.722137064e-39
0.08412609994 -0.1505859643 -0.3179332912 8.722137064e-39
0.3068583012 -0.3826109171 -0.1871333271 8.906165387e-39
-0.0299462676 -0.183263436 -0.0871733129 8.906165387e-39
-0.04109340906 -0.1853395402 -0.07448216528 8.906165387e-39
0.01571067609 -0.1761889607 -0.1265432984 8.906165387e-39
0.2941791415 -0.2809664607 -0.2081929296 8.906165387e-39
0.236096099 -0.2104276717 -0.2183229625 8.906165387e-39
-0.2986862659 -0.2018777728 -0.05865009874 8.906165387e-39
-0.1101129651 -0.1953362525 -0.02112449706 8.906165387e-39
-0.322131604 -0.08132907748 -0.1957377046 9.089834978e-39
-0.2877905369 -0.06030994654 -0.2034562528 9.089834978e-39
-0.35609442 -0.1954220682 -0.144621253 9.089834978e-39
-0.05339162797 -0.06271474808 -0.2242609113 9.089834978e-39
0.1870184094 -0.4056413174 -0.0962818563 9.089834978e-39
-0.1289896369 -0.04931057245 -0.2203108817 9.089834978e-39
-0.1875534058 -0.7711663246 -0.02928994596 9.089834978e-39
-0.3739876747 -0.1594828367 -0.173939079 9.089834978e-39
-0.3715147972 -0.192578122 -0.177508682 9.273863302e-39
0.1012623906 -0.1172443032 -0.226417467 9.273863302e-39
-0.06445603073 -0.1882617772 -0.06049450859 9.273863302e-39
-0.2645123005 -0.04937734455 -0.2079637796 9.273863302e-39
0.2372487336 -0.2196680605 -0.2164084613 9.273863302e-39
0.1871027648 -0.4136516452 -0.1057620123 9.273863302e-39
0.1845438629 -0.4880065322 0.06784317642 9.273863302e-39
0.2092702836 -0.4559172392 -0.04242723435 9.273863302e-39
-0.09896580875 -0.1932601333 -0.03381564841 9.457532893e-39
0.1466605216 -0.4732940197 0.07929832488 9.457532893e-39
-0.3640775084 -0.1401559114 -0.1790646166 9.457532893e-39
-0.4334485829 -0.2754443288 -0.1431858987 9.457532893e-39
-0.2755751014 -0.0594638437 -0.2047527581 9.457532893e-39
0.1790761501 -0.4114074111 -0.04940676317 9.457532893e-39
0.1075401306 -0.4413307905 0.09831915051 9.457532893e-39
-0.2400813997 -0.04768513143 -0.2105567902 9.457532893e-39
-0.2278659195 -0.04683902115 -0.2118533105 9.641561216e-39
0.06610498577 -0.159658283 -0.2469723523 9.641561216e-39
-0.2742697895 -0.7458764315 -0.2962790132 9.641561216e-39
0.178007856 -0.4101774096 -0.06080140173 9.641561216e-39
0.07567885518 -0.1096961051 -0.2257389724 9.641561216e-39
0.1834755689 -0.4867765307 0.05644854158 9.641561216e-39
-0.09003798664 -0.06525306404 -0.2203713953 9.641561216e-39
-0.3209789395 -0.0905694738 -0.1938231885 9.641561216e-39
0.2047016323 -0.4813942313 0.01967154443 9.825230807e-39
0.05862691998 -0.1510481685 -0.3267349005 9.825230807e-39
0.1109980792 -0.4690519571 0.104062669 9.825230807e-39
0.1816769242 -0.3994911909 -0.153255105 9.825230807e-39
-0.1278369874 -0.05855096504 -0.2183963656 9.825230807e-39
-0.3736513853 -0.1901180893 -0.2002979815 9.825230807e-39
0.01357408427 -0.173728928 -0.1493326128 9.825230807e-39
-0.354167372 -0.1208290011 -0.1841901392 9.825230807e-39
0.06290010363 -0.155968219 -0.2811563015 1.000925913e-38
-0.1000341028 -0.1920301169 -0.04521028697 1.000925913e-38
-0.3582310081 -0.1929620355 -0.1674105525 1.000925913e-38
-0.3933448792 -0.1823540926 -0.2787640393 1.000925913e-38
-0.2721187472 -0.2026455849 -0.03845383599 1.000925913e-38
0.1725820303 -0.3960169554 -0.1082945243 1.000925913e-38
0.06183180213 -0.1547382176 -0.2925509512 1.000925913e-38
0.1678865254 -0.4679117799 0.04252137989 1.000925913e-38
-0.1589747667 -0.1987206787 -0.01593846083 1.019292872e-38
0.1715137213 -0.3947869539 -0.1196891665 1.019292872e-38
-0.3894225657 -0.4308389723 -0.1132322699 1.019292872e-38
-0.165636003 -0.0518488884 -0.2164213508 1.019292872e-38
0.1973503232 -0.4263662696 -0.1488080919 1.019292872e-38
0.1344450861 -0.4741401672 0.08059483021 1.019292872e-38
0.2036333382 -0.4801642299 0.008276902139 1.019292872e-38
-0.1122495681 -0.1928762197 -0.04391377419 1.019292872e-38
0.2049971074 -0.4509972334 -0.08800581843 1.037659831e-38
0.1388869882 -0.4950810075 0.1072131768 1.037659831e-38
0.1826236546 -0.1768504679 -0.2207949609 1.037659831e-38
0.05388954654 -0.1605043709 -0.245675832 1.037659831e-38
0.1589183956 -0.418019712 -0.0012351349 1.037659831e-38
0.1801863164 -0.4750760794 0.0317446962 1.037659831e-38
0.2105125487 -0.2028794885 -0.217644453 1.037659831e-38
0.1995712668 -0.4368367195 -0.1354989409 1.037659831e-38
0.1488395333 -0.4213258624 0.02285065502 1.056062664e-38
0.001358613372 -0.1745750308 -0.1480360925 1.056062664e-38
-0.1478276402 -0.1966445595 -0.02862960473 1.056062664e-38
-0.4212331474 -0.2745982111 -0.1444824189 1.056062664e-38
-0.234404102 -0.2013372779 -0.03094867617 1.056062664e-38
0.1376923919 -0.4234020114 0.0355418548 1.056062664e-38
0.1133033931 -0.4875327945 0.1078916863 1.056062664e-38
0.04854806885 -0.1543543041 -0.3026490808 1.056062664e-38
-0.2599033117 -0.2017994821 -0.03975034878 1.074429623e-38
-0.1266843379 -0.06779137999 -0.2164818645 1.074429623e-38
0.1924861968 -0.4822403789 0.02096805722 1.074429623e-38
0.1952137351 -0.4239062667 -0.1715973914 1.074429623e-38
-0.2965480387 -0.08887726068 -0.1964162141 1.074429623e-38
-0.360619545 -0.1678771377 -0.1733210832 1.074429623e-38
0.09019958973 -0.1273308098 -0.2232064605 1.074429623e-38
0.164724052 -0.4097935557 -0.07089952379 1.074429623e-38
0.2025650293 -0.4789342284 -0.003117732704 1.092796582e-38
-0.1644833535 -0.06108928472 -0.2145068496 1.092796582e-38
-0.08995524049 -0.1887239814 -0.06929612905 1.092796582e-38
0.1222295761 -0.4749862552 0.08189135045 1.092796582e-38
-0.3507094085 -0.1485502273 -0.1784466058 1.092796582e-38
-0.1366804838 -0.1945684403 -0.04132075235 1.092796582e-38
0.1556710899 -0.4687579274 0.04381790012 1.092796582e-38
0.1614348143 -0.3980931044 -0.09560333937 1.092796582e-38
-0.1764062792 -0.7690901756 -0.04198110104 1.111163541e-38
0.1806929857 -0.4062715769 -0.1741299033 1.111163541e-38
-0.4154698849 -0.320800215 -0.1349098682 1.111163541e-38
-0.3308891058 -0.1098963916 -0.1886976659 1.111163541e-38
-0.05651376396 -0.1824956089 -0.1073696017 1.111163541e-38
-0.02550276183 -0.08874373883 -0.2211104184 1.111163541e-38
0.04167404771 -0.1613504887 -0.2443793118 1.111163541e-38
-0.06766091287 -0.184571743 -0.0946784243 1.111163541e-38
-0.1488959342 -0.1954145432 -0.0400242433 1.1295305e-38
0.1455502957 -0.409625411 -0.001853130758 1.1295305e-38
0.1941454411 -0.4226762652 -0.1829920411 1.1295305e-38
0.06461599469 -0.1197826266 -0.2225279361 1.1295305e-38
-0.2843325734 -0.08803115785 -0.1977127194 1.1295305e-38
0.03159519657 -0.1646566242 -0.2202935219 1.1295305e-38
-0.1466338784 -0.773548007 0.01239913702 1.1295305e-38
-0.0007779784501 -0.1721149981 -0.170825392 1.1295305e-38
-0.4131645858 -0.3392810524 -0.131080851 1.147897319e-38
8.077267557e-05 -0.09629192203 -0.2217889279 1.147897319e-38
0.0988669917 -0.4779084921 0.09587901086 1.147897319e-38
-0.4090176523 -0.2737521231 -0.1457789242 1.147897319e-38
0.07798415422 -0.1281769127 -0.2219099402 1.147897319e-38
0.009300900623 -0.1688088626 -0.1949112117 1.147897319e-38
0.1908562034 -0.4109758139 -0.2076958418 1.147897319e-38
0.2004284412 -0.4764741659 -0.02590706199 1.147897319e-38
0.177403748 -0.3945711255 -0.198833704 1.166264278e-38
-0.4097066224 -0.3670022488 -0.1253373176 1.166264278e-38
0.1047203392 -0.1449654996 -0.2206739485 1.166264278e-38
0.1964671314 -0.7510870695 -0.01250851154 1.166264278e-38
-0.2721171379 -0.08718504757 -0.1990092397 1.166264278e-38
-0.3657090664 -0.1843519211 -0.2471731007 1.166264278e-38
-0.2487561256 -0.199723348 -0.05244150013 1.166264278e-38
0.1502876729 -0.4001691937 -0.0829121992 1.166264278e-38
-0.3678456545 -0.1818918884 -0.2699624002 1.184631237e-38
0.02945860475 -0.1621965915 -0.2430828214 1.184631237e-38
0.08981449902 -0.4200060368 0.06160265952 1.184631237e-38
0.06098360568 -0.4631959796 0.107334204 1.184631237e-38
-0.1877616197 -0.07202191651 -0.209999308 1.184631237e-38
-0.3029594421 -0.1969577074 -0.1042287052 1.184631237e-38
-0.2689179778 -0.4780305028 0.1518200934 1.184631237e-38
-0.3297364712 -0.1191367954 -0.1867831498 1.184631237e-38
-0.2366234511 -0.07540633529 -0.2048132718 1.202998196e-38
0.1753939241 -0.3456932604 -0.3103401065 1.202998196e-38
0.1953988373 -0.7498570681 -0.02390314639 1.202998196e-38
0.1785563976 -0.4038115144 -0.1969192028 1.202998196e-38
-0.2244079709 -0.07456023246 -0.2061097771 1.202998196e-38
0.1975190341 -0.442387104 -0.1677683592 1.202998196e-38
0.09779869765 -0.4766784906 0.08448436111 1.202998196e-38
0.1897878945 -0.4097458124 -0.2190905064 1.202998196e-38
0.1581927687 -0.1785426736 -0.2182019502 1.221365155e-38
0.06576864421 -0.1290230155 -0.2206134349 1.221365155e-38
0.2685955465 -0.2734183073 -0.2075144202 1.221365155e-38
-0.193963185 -0.7637861967 -0.09765784442 1.221365155e-38
0.1939343065 -0.4610837102 -0.084794797 1.221365155e-38
0.1654865593 -0.7154166698 -0.3429533541 1.221365155e-38
-0.1988260597 -0.197568953 -0.04623289779 1.221365155e-38
0.0499208197 -0.473282516 0.1105452254 1.221365155e-38
0.07759905607 -0.4208521247 0.06289917976 1.239732115e-38
0.1765465885 -0.3549336791 -0.3084255755 1.239732115e-38
-0.1621780545 -0.07957009226 -0.2106778175 1.239732115e-38
-0.05865035951 -0.1800355762 -0.1301589012 1.239732115e-38
-0.1796111614 -0.7654001117 -0.07616506517 1.239732115e-38
-0.2498244196 -0.1984933317 -0.06383613497 1.239732115e-38
0.1787675321 -0.3654040992 -0.2951164246 1.239732115e-38
-0.3183797598 -0.1941137612 -0.1371161342 1.239732115e-38
0.1774881035 -0.4025815129 -0.2083138525 1.258099074e-38
0.02198053524 -0.153586477 -0.3228453696 1.258099074e-38
-0.0365655534 -0.09883023798 -0.217899397 1.258099074e-38
0.1964507401 -0.4411571026 -0.1791630089 1.258099074e-38
-0.0001779869199 -0.459416151 0.1232968792 1.258099074e-38
0.2877269387 -0.3280145824 -0.1973238885 1.258099074e-38
0.05107346922 -0.4825229049 0.1124597266 1.258099074e-38
0.1799201816 -0.3746444881 -0.2932019234 1.258099074e-38
-0.1632479578 -0.1938006133 -0.06151706725 1.276466033e-38
-0.356698513 -0.1798157692 -0.2826535702 1.276466033e-38
-0.2110398859 -0.0829545185 -0.2054917812 1.276466033e-38
0.1911256611 -0.7449370027 -0.06948176026 1.276466033e-38
0.2552274764 -0.2650239766 -0.2081324309 1.276466033e-38
-0.3857393861 -0.262819469 -0.150286451 1.276466033e-38
0.06222061068 -0.4804468155 0.09976854175 1.276466033e-38
-0.3545619249 -0.1822758019 -0.2598642707 1.276466033e-38
-0.3534936309 -0.1835058182 -0.2484696209 1.294832852e-38
0.2697482109 -0.2826586962 -0.205599919 1.294832852e-38
-0.3348684311 -0.1900398135 -0.1813982129 1.294832852e-38
0.1380722225 -0.4010152817 -0.08161568642 1.294832852e-38
-0.2121097893 -0.1971850395 -0.0563310273 1.294832852e-38
0.01981102861 -0.4367831349 0.094085522 1.294832852e-38
0.2888796031 -0.3372550011 -0.1954093724 1.294832852e-38
-0.3956495523 -0.2821463943 -0.1451609284 1.294832852e-38
-0.2376089841 -0.1976472437 -0.06513264775 1.313163938e-38
-0.2258721739 -0.7568683028 -0.1748273671 1.313163938e-38
-0.3163683414 -0.1275310963 -0.186165154 1.313163938e-38
-0.2820272744 -0.1065119654 -0.1938837022 1.313163938e-38
0.1709096134 -0.3791806698 -0.2577214837 1.313163938e-38
0.1078775525 -0.4733723402 0.06039857119 1.313163938e-38
0.1449461877 -0.3940191269 -0.1398854405 1.313163938e-38
-0.1165227443 -0.1879561543 -0.08949238807 1.313163938e-38
0.1950869709 -0.4703240991 -0.08288028836 1.331530897e-38
0.01096916012 -0.4573400617 0.1106057391 1.331530897e-38
-0.06099646538 -0.1005224586 -0.2153063715 1.331530897e-38
0.0243372824 -0.465734303 0.1112237349 1.331530897e-38
-0.02627719194 -0.1725772023 -0.1796270162 1.331530897e-38
-0.1509070545 -0.7686280012 -0.03317947686 1.331530897e-38
0.1200511009 -0.4100875854 -0.01065475494 1.331530897e-38
-0.04857147485 -0.1767294407 -0.1542446911 1.331530897e-38
0.0309581738 -0.434706986 0.08139436692 1.349897856e-38
-0.1354866922 -0.7714719772 -0.0002920180559 1.349897856e-38
-0.16102539 -0.08881051093 -0.2087633163 1.349897856e-38
0.1889890581 -0.7424769998 -0.0922710374 1.349897856e-38
