# .PCD v0.7 - Point Cloud Data file format
VERSION 0.7
FIELDS x y z rgb
SIZE 4 4 4 4
TYPE F F F F
COUNT 1 1 1 1
WIDTH 832
HEIGHT 1
VIEWPOINT 0 0 0 1 0 0 0
POINTS 832
DATA ascii
-0.1384366453 -0.4837900698 0.0568157956 8.874787512e-40
0.08630545437 -0.4860951006 -0.002937173471 7.045238224e-40
-0.09986466914 -0.4690049887 -0.07925567776 7.045238224e-40
-0.1395474076 -0.4870002866 0.2060138285 7.045238224e-40
-0.09995722771 -0.4692725241 -0.06682249904 7.045238224e-40
0.0868608281 -0.4844899774 -0.07753615826 7.045238224e-40
0.1591213942 -0.4929271638 0.2589636445 7.045238224e-40
0.09830258787 -0.487635076 0.05936270207 7.045238224e-40
-0.1019936129 -0.4751579165 0.2067071646 7.045238224e-40
0.137441203 -0.4831593335 -0.1764652878 5.219290273e-40
-0.137603581 -0.4813823998 -0.05508268252 5.219290273e-40
-0.1010679826 -0.4724827409 0.08237550408 5.219290273e-40
-0.08897829056 -0.473755151 0.1322422326 5.219290273e-40
0.08658314496 -0.4852925539 -0.040236637 5.219290273e-40
-0.1521924734 -0.4873329401 0.2307460904 5.219290273e-40
-0.1649301052 -0.4879331291 0.2679115534 5.219290273e-40
0.1592139453 -0.4926596582 0.2465304285 5.219290273e-40
-0.5063847303 -0.1860311776 -0.1891713887 3.389740985e-40
-0.1387143433 -0.4845926166 0.09411531687 3.389740985e-40
0.1224819869 -0.4901799262 0.1590961516 3.389740985e-40
-0.09020407498 -0.4534040391 0.3441884518 3.389740985e-40
-0.102375105 -0.4643135667 0.2815973759 3.389740985e-40
-0.1017159298 -0.4743553698 0.1694076359 3.389740985e-40
0.1499937028 -0.4830941856 -0.1887643933 3.389740985e-40
0.1347568631 -0.4909173548 0.1840965152 3.389740985e-40
-0.1016233638 -0.4740878344 0.1569744945 1.56020571e-40
-0.1520999074 -0.4870654047 0.218312934 1.56020571e-40
0.1593065113 -0.4923921525 0.2340972871 1.56020571e-40
-0.5183229446 -0.1484804451 -0.1884318441 1.56020571e-40
0.09858027846 -0.4868325293 0.02206324041 1.56020571e-40
-0.1015307978 -0.4738203287 0.1445413381 1.56020571e-40
0.1225745529 -0.4899124205 0.1466629952 1.56020571e-40
-0.1391771585 -0.4859302044 0.1562811434 1.56020571e-40
-0.1014382392 -0.4735527933 0.1321081817 6.490113838e-41
-0.1647449881 -0.487398088 0.2430451959 6.490113838e-41
-0.1389920264 -0.4853951633 0.1314148456 6.490113838e-41
-0.1520073414 -0.486797899 0.2058797777 6.490113838e-41
0.09867283702 -0.4865649939 0.009630087763 6.490113838e-41
0.112150982 -0.4838246703 -0.1270007193 6.490113838e-41
-0.102282539 -0.464046061 0.2691642046 6.490113838e-41
0.1377076358 -0.4704423547 -0.1886072457 6.490113838e-41
-0.150989145 -0.4838551879 0.06911496073 2.496469266e-40
0.09941334277 -0.4844248593 -0.08983526379 2.496469266e-40
-0.1510817111 -0.4841227233 0.0815481171 2.496469266e-40
0.12275967 -0.4893773794 0.1217966378 2.496469266e-40
-0.08640898764 -0.442435801 -0.1655713767 2.496469266e-40
-0.1511742771 -0.484390229 0.09398126602 2.496469266e-40
-0.1518222243 -0.4862628579 0.1810134053 2.496469266e-40
-0.1236037314 -0.4412936866 -0.1908398569 2.496469266e-40
0.09932077676 -0.4846923649 -0.07740211487 4.340353837e-40
0.1499011517 -0.4833616912 -0.176331237 4.340353837e-40
-0.09922796488 -0.4552179575 -0.1411303133 4.340353837e-40
-0.0611300543 -0.4298560917 -0.189878419 4.340353837e-40
-0.1512668431 -0.4846577644 0.1064144224 4.340353837e-40
0.09895052761 -0.4857624471 -0.0276694335 4.340353837e-40
0.122852236 -0.4891098738 0.1093634814 4.340353837e-40
-0.1021899804 -0.4637785256 0.2567310333 4.340353837e-40
0.1594916433 -0.4918571115 0.2092309743 6.184224396e-40
0.09904309362 -0.4854949415 -0.04010258615 6.184224396e-40
0.1472168118 -0.4911197126 0.1842305511 6.184224396e-40
-0.0869531408 -0.4559553564 -0.1161299273 6.184224396e-40
0.09913565218 -0.485227406 -0.05253577232 6.184224396e-40
0.122944802 -0.4888423383 0.09693032503 6.184224396e-40
0.1109476686 -0.4873023927 0.0346304439 6.184224396e-40
-0.09932052344 -0.4554854929 -0.1286971271 6.184224396e-40
-0.1515445262 -0.4854603112 0.1437139511 8.028094954e-40
0.1376150846 -0.4707098603 -0.1761740893 8.028094954e-40
-0.07359002531 -0.429653734 -0.1900124699 8.028094954e-40
0.1595842093 -0.491589576 0.1967978179 8.028094954e-40
0.1351271272 -0.4898472726 0.1343638897 8.028094954e-40
0.1119658649 -0.4843597114 -0.1021343693 8.028094954e-40
-0.5060369372 -0.161132291 -0.1885889918 8.028094954e-40
-0.0894523412 -0.4631783366 0.2195655704 8.028094954e-40
0.1498085856 -0.4836291969 -0.1638980508 9.871979525e-40
-0.08741595596 -0.4572929442 -0.05396409333 9.871979525e-40
0.1246109307 -0.4840270281 -0.1268666685 9.871979525e-40
-0.08824902028 -0.4597006142 0.05793438107 9.871979525e-40
-0.04876267165 -0.430325985 -0.1773112118 9.871979525e-40
-0.08974125981 -0.4520664513 0.2820225954 9.871979525e-40
0.1118732989 -0.4846272171 -0.08970122039 9.871979525e-40
-0.08604997396 -0.4294513464 -0.1901465207 9.871979525e-40
0.1596767604 -0.4913220704 0.184364602 1.171585008e-39
-0.06122262031 -0.4301235974 -0.1774452627 1.171585008e-39
0.1719515771 -0.492059499 0.2093650252 1.171585008e-39
-0.1022937745 -0.452131629 0.2943217158 1.171585008e-39
-0.08889696002 -0.4615732431 0.1449665874 1.171585008e-39
0.1474945098 -0.4903171659 0.1469310969 1.171585008e-39
-0.1004312783 -0.4586957097 0.02050087228 1.171585008e-39
-0.09003018588 -0.4409545958 0.3444796205 1.171585008e-39
-0.1019122899 -0.4629759789 0.2194315195 1.355972064e-39
0.1113179177 -0.4862323105 -0.01510223188 1.355972064e-39
-0.09969078004 -0.4565555453 -0.07896447927 1.355972064e-39
0.1354048103 -0.4890447259 0.09706436843 1.355972064e-39
0.1114104837 -0.4859648049 -0.02753538638 1.355972064e-39
-0.1007089689 -0.4594982564 0.05780033767 1.355972064e-39
0.1116881669 -0.4851622581 -0.06483487785 1.355972064e-39
-0.5058630109 -0.1486828178 -0.1882977933 1.355972064e-39
-0.1018197238 -0.4627084732 0.2069983631 1.540360521e-39
-0.0896486938 -0.4517989457 0.2695894241 1.540360521e-39
-0.09987590462 -0.4570905864 -0.05409814417 1.540360521e-39
0.1115956157 -0.4854297638 -0.0524017252 1.540360521e-39
-0.1022012085 -0.4518640935 0.2818885446 1.540360521e-39
-0.07368259132 -0.4299212396 -0.1775793135 1.540360521e-39
-0.1008940935 -0.4600332975 0.08266670257 1.540360521e-39
-0.1015420407 -0.4619059265 0.1696988344 1.540360521e-39
0.1354973763 -0.4887772202 0.08463121951 1.724747577e-39
-0.1014494747 -0.461638391 0.1572656929 1.724747577e-39
-0.09850992262 -0.4292489886 -0.1902805567 1.724747577e-39
-0.1013569087 -0.4613708854 0.1448325366 1.724747577e-39
0.1244258136 -0.4845620692 -0.1020003259 1.724747577e-39
0.1721366942 -0.4915244579 0.1844986528 1.724747577e-39
0.1377889812 -0.458260417 -0.1758828908 1.724747577e-39
0.1598618925 -0.4907870293 0.1594982892 1.724747577e-39
-0.1021086425 -0.4515965879 0.2694553733 1.909134633e-39
-0.0898450613 -0.4404195845 0.3196133375 1.909134633e-39
0.1626275331 -0.4708470702 -0.188339144 1.909134633e-39
-0.5056891441 -0.1362333745 -0.1880065948 1.909134633e-39
0.1243332475 -0.4848295748 -0.08956716955 1.909134633e-39
-0.102397576 -0.4404847324 0.3319123983 1.909134633e-39
0.1844115257 -0.4922618568 0.2094990611 1.909134633e-39
0.147772193 -0.4895146191 0.1096315682 1.909134633e-39
-0.08659411967 -0.4429708421 -0.1407050639 2.09352309e-39
0.1748210341 -0.4837664366 -0.1760631502 2.09352309e-39
-0.08975249529 -0.4401520491 0.3071801066 2.09352309e-39
0.1722292602 -0.4912569523 0.1720654964 2.09352309e-39
0.1369783878 -0.4844969213 -0.1142994612 2.09352309e-39
0.1242406815 -0.4850970805 -0.07713401318 2.09352309e-39
-0.10230501 -0.4402172267 0.3194792867 2.09352309e-39
0.1236853004 -0.4867022038 -0.002535030246 2.09352309e-39
-0.1020160839 -0.4513290524 0.2570222616 2.277910146e-39
0.1237778664 -0.4864346683 -0.01496818382 2.277910146e-39
0.1845040917 -0.4919943213 0.1970659196 2.277910146e-39
0.1600470245 -0.4902519882 0.1346319914 2.277910146e-39
0.147864759 -0.4892470837 0.09719841927 2.277910146e-39
-0.09905406833 -0.4427684844 -0.1408391148 2.277910146e-39
-0.08965993673 -0.4398845434 0.2947469354 2.277910146e-39
-0.5055152774 -0.1237839088 -0.1877153963 2.277910146e-39
-0.1022124439 -0.4399496913 0.3070460558 2.462297202e-39
0.196778968 -0.4927317202 0.2220662683 2.462297202e-39
-0.08937101066 -0.4509963989 0.2322899103 2.462297202e-39
0.1601395756 -0.4899844825 0.1221987754 2.462297202e-39
0.1358676255 -0.4877071381 0.03489854187 2.462297202e-39
0.1747284681 -0.4840339422 -0.163629964 2.462297202e-39
-0.08677924424 -0.4435058832 -0.1158387288 2.462297202e-39
-0.1019235179 -0.4510615468 0.2445890158 2.462297202e-39
-0.04849621654 -0.417609036 -0.1894531697 2.646685659e-39
-0.1234298423 -0.4288442433 -0.1905486584 2.646685659e-39
-0.08927844465 -0.4507288635 0.2198567688 2.646685659e-39
0.1359601915 -0.4874396324 0.0224653855 2.646685659e-39
-0.1021198854 -0.4396821856 0.2946128845 2.646685659e-39
-0.08918587863 -0.4504613578 0.2074236125 2.646685659e-39
-0.08909332007 -0.4501938224 0.1949904561 2.646685659e-39
0.1602321416 -0.4897169769 0.109765619 2.646685659e-39
-0.08900075406 -0.4499263167 0.1825572401 2.830713982e-39
-0.08985629678 -0.4285051823 0.3447707891 2.830713982e-39
-0.1018309593 -0.4507940412 0.2321558744 2.830713982e-39
-0.08687180281 -0.4437734187 -0.1034055427 2.830713982e-39
-0.06095616519 -0.4174066484 -0.1895872205 2.830713982e-39
-0.08881562948 -0.4493912756 0.1576909274 2.830713982e-39
0.1379628628 -0.4458109438 -0.1755916923 2.830713982e-39
0.1846892089 -0.4914593101 0.1721995473 2.830713982e-39
-0.08872306347 -0.44912377 0.145257771 3.015101038e-39
-0.08751975 -0.4456460178 -0.01637340523 3.015101038e-39
0.1481424421 -0.4884445369 0.05989889801 3.015101038e-39
0.1366081238 -0.4855670035 -0.06456678361 3.015101038e-39
-0.08733461797 -0.4451110065 -0.04123971239 3.015101038e-39
0.1362378746 -0.4866370559 -0.01483413577 3.015101038e-39
0.1603247076 -0.4894494414 0.09733246267 3.015101038e-39
0.1361453086 -0.4869045913 -0.002400982194 3.015101038e-39
-0.08835281432 -0.4480536878 0.09552510083 3.199488094e-39
-0.08770487458 -0.4461810589 0.008492963389 3.199488094e-39
-0.08705693483 -0.44430843 -0.07853923738 3.199488094e-39
0.1749949157 -0.4713169634 -0.1757719517 3.199488094e-39
-0.1358898282 -0.4286418855 -0.1906827092 3.199488094e-39
0.1363304406 -0.4863695502 -0.02726729028 3.199488094e-39
-0.08724205941 -0.4448434711 -0.05367289856 3.199488094e-39
-0.1016458273 -0.4502590001 0.2072895616 3.199488094e-39
-0.07341613621 -0.4172042906 -0.1897212714 3.383517819e-39
-0.1015532687 -0.4499914646 0.1948564053 3.383517819e-39
0.1482350081 -0.4881770015 0.04746574163 3.383517819e-39
-0.08938224614 -0.4390819669 0.2574474812 3.383517819e-39
0.1627088785 -0.4586651325 -0.175614804 3.383517819e-39
-0.1013681442 -0.4494564533 0.1699900329 3.383517819e-39
0.1725995094 -0.4901868701 0.1223328263 3.383517819e-39
-0.0896711722 -0.427970171 0.3199045062 3.383517819e-39
0.1492532045 -0.4852343202 -0.08929907531 3.567904875e-39
0.1619908363 -0.4846341312 -0.1264645159 3.567904875e-39
-0.1012755781 -0.4491889179 0.1575568765 3.567904875e-39
-0.09997969866 -0.44544366 -0.01650745235 3.567904875e-39
-0.1011830121 -0.4489214122 0.1451237351 3.567904875e-39
-0.09988713264 -0.4451761544 -0.02894060686 3.567904875e-39
-0.1022236869 -0.428035289 0.3322036266 3.567904875e-39
-0.09951688349 -0.4441060722 -0.07867328823 3.567904875e-39
-0.09979456663 -0.4449086487 -0.04137375951 3.75229193e-39
-0.1000722572 -0.4457111955 -0.004074298777 3.75229193e-39
-0.100905329 -0.4481188655 0.1078242064 3.75229193e-39
0.2093314826 -0.4926666021 0.2097671628 3.75229193e-39
-0.09960944206 -0.4443736076 -0.06624010205 3.75229193e-39
0.1752613634 -0.4586000144 -0.1879139096 3.75229193e-39
0.1605098397 -0.4889144003 0.07246615738 3.75229193e-39
-0.08587608486 -0.4170019329 -0.1898553222 3.75229193e-39
-0.1002573818 -0.4462462366 0.02079207078 3.936320254e-39
-0.1006276384 -0.4473162889 0.07052474469 3.936320254e-39
-0.1005350724 -0.4470487833 0.05809152871 3.936320254e-39
0.1491606385 -0.4855018258 -0.07686591893 3.936320254e-39
-0.100720197 -0.4475838244 0.08295790106 3.936320254e-39
-0.06104873121 -0.417674154 -0.1771540642 3.936320254e-39
0.1504228115 -0.4460133016 -0.1754576415 3.936320254e-39
-0.1021311209 -0.4277677834 0.3197704554 3.936320254e-39
0.174543336 -0.4845689833 -0.1387636513 4.120708711e-39
0.1485127062 -0.4873744547 0.01016627997 4.120708711e-39
-0.09878761321 -0.4300515354 -0.1529810727 4.120708711e-39
0.1618057191 -0.4851691723 -0.1015981808 4.120708711e-39
-0.08919712156 -0.4385469556 0.2325811237 4.120708711e-39
0.1486052573 -0.4871069491 -0.002266934142 4.120708711e-39
0.1486978233 -0.4868394136 -0.01470008772 4.120708711e-39
-0.07350870222 -0.4174717963 -0.177288115 4.120708711e-39
-0.09833603352 -0.4167995453 -0.1899893582 4.304737034e-39
0.1488829553 -0.4863044024 -0.03956639767 4.304737034e-39
0.17445077 -0.4848365188 -0.1263304651 4.304737034e-39
0.1487903893 -0.486571908 -0.0271332413 4.304737034e-39
-0.08939348161 -0.4271675944 0.2826049924 4.304737034e-39
0.1606949568 -0.4883793592 0.04759979248 4.304737034e-39
-0.08642023057 -0.4305213988 -0.1404138654 4.304737034e-39
0.2095165998 -0.492131561 0.1849007905 4.304737034e-39
-0.08901198953 -0.4380119145 0.207714811 4.48912409e-39
0.1622572839 -0.4719171226 -0.1386065036 4.48912409e-39
-0.110796012 -0.4165971875 -0.190123409 4.48912409e-39
-0.1015645042 -0.4380770624 0.2200139165 4.48912409e-39
-0.08958984911 -0.4157882035 0.3326288462 4.48912409e-39
0.1742656529 -0.4853715599 -0.10146413 4.48912409e-39
-0.08651278913 -0.4307889342 -0.1279806793 4.48912409e-39
0.1615280211 -0.485971719 -0.06429868937 4.48912409e-39
-0.08882686496 -0.4374768734 0.1828484386 4.673152414e-39
0.175435245 -0.4461505413 -0.1876227111 4.673152414e-39
0.1625237465 -0.4592001736 -0.1507484615 4.673152414e-39
-0.1017608643 -0.4266977012 0.2700377703 4.673152414e-39
-0.08864174038 -0.4369418323 0.1579821259 4.673152414e-39
-0.09842859954 -0.4170670509 -0.1775562167 4.673152414e-39
0.1741730869 -0.4856390655 -0.08903098106 4.673152414e-39
0.161342904 -0.4865067601 -0.03943234682 4.673152414e-39
-0.08854917437 -0.4366743267 0.1455489695 4.857539469e-39
-0.08660535514 -0.4310564399 -0.1155475304 4.857539469e-39
-0.1020497978 -0.4155858159 0.3324947953 4.857539469e-39
-0.09897273779 -0.4305865765 -0.1281147301 4.857539469e-39
-0.1016683057 -0.4264301658 0.2576046586 4.857539469e-39
0.161250338 -0.4867742658 -0.02699919418 4.857539469e-39
-0.06078227609 -0.4049571753 -0.1892960221 4.857539469e-39
-0.08940471709 -0.4152531624 0.3077625036 4.857539469e-39
0.1740805209 -0.4859065711 -0.07659782469 5.041567793e-39
0.1747172177 -0.4721195102 -0.1384724528 5.041567793e-39
-0.08606120944 -0.4175369442 -0.1649889797 5.041567793e-39
-0.1012868136 -0.4372745156 0.1827143878 5.041567793e-39
0.1259431839 -0.4204421937 -0.1875765026 5.041567793e-39
-0.1015757397 -0.4261626601 0.2451714128 5.041567793e-39
-0.1011942551 -0.43700701 0.1702812314 5.041567793e-39
-0.08931215852 -0.4149856567 0.2953293324 5.041567793e-39
-0.08669791371 -0.4313239753 -0.1031143442 5.225597518e-39
0.1502376795 -0.4465483427 -0.1505913138 5.225597518e-39
-0.101101689 -0.4367394745 0.157848075 5.225597518e-39
0.1739879549 -0.4861741066 -0.06416463852 5.225597518e-39
-0.1018646657 -0.4150507748 0.3076284528 5.225597518e-39
-0.1009165645 -0.4362044334 0.1329817772 5.225597518e-39
-0.08893066645 -0.4258300066 0.2204391509 5.225597518e-39
-0.1008239985 -0.4359369278 0.1205485612 5.225597518e-39
-0.08679047972 -0.431591481 -0.09068119526 5.409984573e-39
-0.08799380064 -0.4350692034 0.07094999403 5.409984573e-39
-0.0732422471 -0.4047548175 -0.1894300729 5.409984573e-39
-0.0873458609 -0.4331965744 -0.01608220674 5.409984573e-39
0.1733400226 -0.4880467355 0.02286753058 5.409984573e-39
-0.1014831811 -0.4258951545 0.2327382714 5.409984573e-39
-0.08688304573 -0.4318589866 -0.07824803889 5.409984573e-39
-0.1007314399 -0.4356694221 0.1081154048 5.409984573e-39
-0.08725329489 -0.4329290688 -0.02851536125 5.594012897e-39
-0.08780867606 -0.4345341623 0.04608362168 5.594012897e-39
-0.08921959251 -0.4147181213 0.2828961611 5.594012897e-39
-0.08743841946 -0.4334641099 -0.003649053164 5.594012897e-39
-0.08883810043 -0.425562501 0.2080060095 5.594012897e-39
-0.08716072887 -0.4326615632 -0.04094851762 5.594012897e-39
-0.09915786237 -0.4311216176 -0.103248395 5.594012897e-39
-0.09925042838 -0.4313891232 -0.09081523865 5.594012897e-39
0.1736177057 -0.487244159 -0.01443199255 5.77804122e-39
0.2000887692 -0.4592722654 -0.1752126515 5.77804122e-39
-0.1005463079 -0.4351343811 0.08324909955 5.77804122e-39
-0.1013906151 -0.425627619 0.220305115 5.77804122e-39
-0.0891270265 -0.4144506156 0.2704630494 5.77804122e-39
-0.06087484211 -0.4052246809 -0.1768628657 5.77804122e-39
-0.09980580956 -0.4329942167 -0.01621625572 5.77804122e-39
0.1630566567 -0.4337662458 -0.175032407 5.77804122e-39
-0.1003611833 -0.43459934 0.05838272721 5.962428276e-39
-0.09989836812 -0.4332617521 -0.003783101216 5.962428276e-39
-0.08903446794 -0.4141830802 0.2580298781 5.962428276e-39
-0.09962067753 -0.4324592054 -0.04108256102 5.962428276e-39
-0.09952811897 -0.4321916699 -0.05351574719 5.962428276e-39
0.150504142 -0.4338313639 -0.1627332717 5.962428276e-39
-0.1012980491 -0.4253601134 0.2078719586 5.962428276e-39
-0.08865297586 -0.4250274599 0.1831396371 5.962428276e-39
-0.1015869752 -0.4142482281 0.2703289986 6.1464566e-39
-0.07333481312 -0.4050223231 -0.1769969165 6.1464566e-39
0.1999962032 -0.4595397711 -0.1627794653 6.1464566e-39
-0.1012054905 -0.4250925779 0.1954388022 6.1464566e-39
-0.08856041729 -0.4247599542 0.1707064807 6.1464566e-39
-0.1014944166 -0.4139806926 0.2578958273 6.1464566e-39
-0.1018759087 -0.4031363726 0.3327860236 6.1464566e-39
-0.04814843833 -0.3927101195 -0.1888707727 6.1464566e-39
-0.08884934336 -0.4136480689 0.2331635207 6.330484923e-39
-0.08923082799 -0.402803719 0.3080536723 6.330484923e-39
0.1751575619 -0.446953088 -0.1503232121 6.330484923e-39
0.1755165905 -0.4339686036 -0.1748983562 6.330484923e-39
-0.1011129245 -0.4248250723 0.1830055863 6.330484923e-39
-0.1106221229 -0.4041477144 -0.1898322105 6.330484923e-39
-0.1017833427 -0.4028688669 0.3203528523 6.330484923e-39
-0.08624634147 -0.4180719852 -0.1401226819 6.330484923e-39
0.1873510629 -0.4598724246 -0.1380472183 6.514514648e-39
-0.08875677735 -0.4133805335 0.2207303494 6.514514648e-39
0.2251012176 -0.4594094753 -0.1873777062 6.514514648e-39
0.1261170805 -0.4079927206 -0.1872853041 6.514514648e-39
0.1880690902 -0.4339034557 -0.1871974617 6.514514648e-39
-0.101020366 -0.4245575666 0.1705724299 6.514514648e-39
-0.101309292 -0.4134456813 0.2330294698 6.514514648e-39
0.2128151506 -0.4467576444 -0.1872205585 6.514514648e-39
-0.1230820641 -0.4039453566 -0.1899662614 6.698542971e-39
-0.08904570341 -0.4022686779 0.2831873894 6.698542971e-39
0.1625124961 -0.4472857714 -0.1255909204 6.698542971e-39
-0.09870629013 -0.4178695977 -0.1402567178 6.698542971e-39
-0.1009277999 -0.4242900312 0.1581392735 6.698542971e-39
0.2001700848 -0.4470902979 -0.1624882668 6.698542971e-39
-0.0889531374 -0.4020011723 0.2707542181 6.698542971e-39
-0.073068358 -0.3923053741 -0.1891388744 6.698542971e-39
-0.08809760213 -0.4234223664 0.1085406542 6.882571295e-39
0.1385770887 -0.4081950784 -0.1871512532 6.882571295e-39
-0.08857165277 -0.4128454924 0.1958640516 6.882571295e-39
-0.13554205 -0.403742969 -0.1901003122 6.882571295e-39
-0.08886057884 -0.4017336369 0.2583210468 6.882571295e-39
-0.0482409969 -0.3929776251 -0.1764376312 6.882571295e-39
0.1628715247 -0.4343012869 -0.1501660645 6.882571295e-39
-0.1006501094 -0.4234874845 0.1208397597 6.882571295e-39
-0.08800503612 -0.4231548309 0.09610749781 7.066599618e-39
-0.0879124701 -0.4228873253 0.08367434144 7.066599618e-39
-0.1005575508 -0.4232199788 0.1084066033 7.066599618e-39
-0.1010316014 -0.4126431048 0.1957300007 7.066599618e-39
0.1506780237 -0.4213819206 -0.1624420732 7.066599618e-39
0.15031901 -0.434366405 -0.137866959 7.066599618e-39
-0.1013205275 -0.4015312493 0.258186996 7.066599618e-39
0.1875249445 -0.4474229515 -0.1377560198 7.066599618e-39
-0.08661659062 -0.4191420674 -0.09038999677 7.250627941e-39
-0.0891495049 -0.3906217813 0.3207780719 7.250627941e-39
-0.0871719718 -0.4207471609 -0.01579101011 7.250627941e-39
-0.08772734553 -0.4223522842 0.05880797654 7.250627941e-39
-0.08763478696 -0.4220847487 0.04637482017 7.250627941e-39
-0.08670915663 -0.4194095731 -0.0779568404 7.250627941e-39
-0.08726453036 -0.4210146964 -0.003357856534 7.250627941e-39
-0.1017020196 -0.3906868994 0.3330771923 7.250627941e-39
-0.08707940578 -0.4204796553 -0.02822416462 7.434656265e-39
-0.08905693889 -0.3903542459 0.3083449006 7.434656265e-39
-0.0868017152 -0.4196771085 -0.06552365422 7.434656265e-39
-0.09898397326 -0.4186721742 -0.1029571965 7.434656265e-39
-0.08698683977 -0.4202121496 -0.04065731913 7.434656265e-39
0.1874323785 -0.4476904869 -0.1253228188 7.434656265e-39
-0.09907653928 -0.4189396799 -0.09052404016 7.434656265e-39
-0.09963192046 -0.4205447733 -0.0159250591 7.434656265e-39
-0.09916910529 -0.4192071855 -0.07809089124 7.618684588e-39
-0.1000021696 -0.4216148555 0.03380761668 7.618684588e-39
-0.09972447902 -0.4208123088 -0.003491904587 7.618684588e-39
-0.0999096036 -0.4213473499 0.02137446404 7.618684588e-39
-0.1011354029 -0.400996238 0.2333206683 7.618684588e-39
-0.09926166385 -0.419474721 -0.06565770507 7.618684588e-39
-0.09944678843 -0.420009762 -0.04079136625 7.618684588e-39
-0.09935422987 -0.4197422266 -0.05322455242 7.618684588e-39
-0.1015168875 -0.3901518583 0.3082108498 7.802712912e-39
-0.09843983501 -0.4051526189 -0.1523986757 7.802712912e-39
-0.08829396218 -0.4120429456 0.1585645229 7.802712912e-39
0.1877914071 -0.4347060025 -0.1498979777 7.802712912e-39
0.1881504208 -0.421721518 -0.1744731069 7.802712912e-39
-0.08562087268 -0.392370522 -0.1768397689 7.802712912e-39
0.1505854577 -0.421649456 -0.1500089169 7.802712912e-39
-0.101424329 -0.3898843527 0.2957776785 7.802712912e-39
-0.1010428369 -0.4007287025 0.2208874971 7.986382503e-39
0.1387509853 -0.395745635 -0.1868600547 7.986382503e-39
-0.08607245237 -0.4056225121 -0.1398314834 7.986382503e-39
0.1759569198 -0.4088021815 -0.1867491156 7.986382503e-39
-0.1007539108 -0.4118405581 0.158430472 7.986382503e-39
-0.08906817436 -0.3784398437 0.3335024714 7.986382503e-39
-0.08897560835 -0.378172338 0.3210693002 7.986382503e-39
-0.08868668973 -0.3892841637 0.2586122751 7.986382503e-39
0.1634044349 -0.4088673294 -0.1744500101 8.170410826e-39
-0.08616501093 -0.4058900476 -0.1273982823 8.170410826e-39
0.1884168684 -0.4090045393 -0.1866150647 8.170410826e-39
-0.101239197 -0.3893493116 0.2709113955 8.170410826e-39
-0.08801627159 -0.4112403989 0.121265009 8.170410826e-39
0.1512109339 -0.3959479928 -0.1867260188 8.170410826e-39
0.1750537753 -0.4353061914 -0.1127325222 8.170410826e-39
-0.08571343124 -0.3926380277 -0.1644065827 8.170410826e-39
-0.1005687863 -0.411305517 0.1335641742 8.35443915e-39
-0.0728944689 -0.379855901 -0.1888476759 8.35443915e-39
-0.08830519766 -0.4001285434 0.1837220341 8.35443915e-39
-0.08859412372 -0.3890166581 0.2461790591 8.35443915e-39
-0.08888304234 -0.3779048026 0.3086360693 8.35443915e-39
-0.1011466384 -0.3890817761 0.2584782243 8.35443915e-39
0.200517863 -0.4221914113 -0.1619058847 8.35443915e-39
-0.08783114702 -0.4107053578 0.0963986963 8.35443915e-39
0.1758643687 -0.4090696871 -0.1743159592 8.538467473e-39
0.2001588494 -0.4351758957 -0.1373307705 8.538467473e-39
0.1636708826 -0.3961503804 -0.1865919679 8.538467473e-39
-0.0981733799 -0.3924356401 -0.1645406336 8.538467473e-39
-0.09862495959 -0.40568766 -0.1275323331 8.538467473e-39
-0.08821263909 -0.3998610377 0.1712888777 8.538467473e-39
-0.1010540724 -0.3888142705 0.2460450083 8.538467473e-39
-0.1007651463 -0.3999261558 0.1835879833 8.538467473e-39
-0.087738581 -0.4104378521 0.08396553993 8.722137064e-39
-0.08879048377 -0.3776372969 0.2962029576 8.722137064e-39
-0.06052705646 -0.3803257644 -0.1762804687 8.722137064e-39
0.1629528403 -0.4221193492 -0.1374417245 8.722137064e-39
-0.08644270152 -0.4066925943 -0.09009879827 8.722137064e-39
0.1883243173 -0.4092720449 -0.1741819084 8.722137064e-39
-0.08764602244 -0.4101703167 0.07153238356 8.722137064e-39
-0.0869980827 -0.4082976878 -0.01549981255 8.722137064e-39
-0.08580599725 -0.3929055631 -0.1519734263 8.906165387e-39
-0.04780065641 -0.367811203 -0.1882883906 8.906165387e-39
-0.08690551668 -0.4080301821 -0.02793296799 8.906165387e-39
-0.08662782609 -0.4072276354 -0.06523245573 8.906165387e-39
-0.09781436622 -0.3794511557 -0.1891157776 8.906165387e-39
-0.08709064126 -0.4085652232 -0.003066658974 8.906165387e-39
0.1511183828 -0.3962154984 -0.1742928624 8.906165387e-39
-0.09890265018 -0.4064902067 -0.09023284167 8.906165387e-39
-0.1012504324 -0.3774349093 0.2960689068 9.089834978e-39
-0.08869791776 -0.3773697615 0.2837697864 9.089834978e-39
-0.08672039211 -0.407495141 -0.05279930681 9.089834978e-39
-0.08802750707 -0.3993259966 0.146422565 9.089834978e-39
-0.08718320727 -0.4088327289 0.009366555139 9.089834978e-39
-0.08727576584 -0.4091002643 0.02179970965 9.089834978e-39
0.1757718027 -0.4093371928 -0.161882773 9.089834978e-39
-0.07298703492 -0.3801234066 -0.1764145195 9.089834978e-39
-0.09945803136 -0.4080953002 -0.0156338606 9.273863302e-39
-0.1005800217 -0.3993911147 0.1587216705 9.273863302e-39
-0.1001059711 -0.4099679291 0.07139834017 9.273863302e-39
-0.08831643313 -0.3882141113 0.20887959 9.273863302e-39
-0.09908777475 -0.4070252478 -0.06536650658 9.273863302e-39
-0.09918034077 -0.4072927535 -0.05293335393 9.273863302e-39
-0.0879349485 -0.3990584612 0.1339894086 9.273863302e-39
-0.09992084652 -0.409432888 0.04653196782 9.273863302e-39
-0.08860535175 -0.3771022558 0.2713366151 9.457532893e-39
0.1635783315 -0.396417886 -0.1741588116 9.457532893e-39
-0.08822387457 -0.3879465759 0.1964464337 9.457532893e-39
-0.1003948972 -0.3988560736 0.1338553578 9.457532893e-39
0.2135107219 -0.3969598413 -0.1860557795 9.457532893e-39
0.1513848156 -0.3834985197 -0.1864348203 9.457532893e-39
-0.08851279318 -0.3768347204 0.2589034438 9.457532893e-39
0.1506667882 -0.4094674885 -0.137284562 9.457532893e-39
0.2006917596 -0.4097419381 -0.1616146863 9.641561216e-39
-0.0727205798 -0.3674064577 -0.1885564774 9.641561216e-39
0.1760382652 -0.3966202438 -0.1740247607 9.641561216e-39
-0.08880171925 -0.3657228947 0.3213604689 9.641561216e-39
-0.1006838232 -0.3877441883 0.1963123977 9.641561216e-39
-0.09790693223 -0.3797186613 -0.1766826212 9.641561216e-39
0.2259706706 -0.3971622288 -0.1859217286 9.641561216e-39
-0.1003023311 -0.398588568 0.1214221567 9.641561216e-39
-0.08774982393 -0.3985234499 0.1091230512 9.825230807e-39
-0.08599112183 -0.3934406042 -0.1271070838 9.825230807e-39
0.1884982139 -0.3968226016 -0.1738907099 9.825230807e-39
-0.1009727418 -0.3766323328 0.258769393 9.825230807e-39
-0.09835851192 -0.3929706812 -0.1396743208 9.825230807e-39
0.2384306192 -0.3973645866 -0.1857876778 9.825230807e-39
-0.04762676358 -0.3553617597 -0.1879971921 9.825230807e-39
0.1634857655 -0.3966853917 -0.1617256254 9.825230807e-39
-0.1005912572 -0.3874766827 0.1838791817 1.000925913e-38
0.176304698 -0.383903265 -0.1861667186 1.000925913e-38
-0.1351942718 -0.3788440526 -0.1895179152 1.000925913e-38
-0.1002097726 -0.3983210623 0.1089890003 1.000925913e-38
0.1388323158 -0.3835636675 -0.1741357148 1.000925913e-38
-0.08832766861 -0.3762997091 0.2340370864 1.000925913e-38
0.2009582222 -0.3970249891 -0.1737566739 1.000925913e-38
-0.08608368784 -0.3937081099 -0.1146739349 1.000925913e-38
0.1509332508 -0.3967505395 -0.1494265199 1.019292872e-38
0.1759456992 -0.3968877494 -0.1615915745 1.019292872e-38
-0.09845107049 -0.3932382166 -0.1272411346 1.019292872e-38
0.2005991936 -0.4100094736 -0.1491815299 1.019292872e-38
-0.08861659467 -0.3651878536 0.2964941263 1.019292872e-38
0.2012246549 -0.3843080103 -0.1858986169 1.019292872e-38
-0.08626881242 -0.3942431509 -0.08980759978 1.019292872e-38
-0.08823510259 -0.3760321736 0.2216039449 1.019292872e-38
-0.0979994908 -0.379986167 -0.1642494351 1.037659831e-38
-0.08636137843 -0.3945106566 -0.07737444341 1.037659831e-38
0.2136846036 -0.3845103681 -0.185764581 1.037659831e-38
0.2633505762 -0.3977693319 -0.1855195761 1.037659831e-38
0.2873897851 -0.4485068619 -0.1615499407 1.037659831e-38
0.1884056479 -0.3970901072 -0.1614575386 1.037659831e-38
-0.08663906157 -0.3953132331 -0.04007492214 1.037659831e-38
0.1880466193 -0.4100745916 -0.1368824244 1.037659831e-38
-0.1010765433 -0.364985466 0.2963600755 1.056062664e-38
-0.0725466907 -0.3549570143 -0.1882652789 1.056062664e-38
-0.1006950513 -0.3758297861 0.2214698941 1.056062664e-38
-0.08691675216 -0.3961157799 -0.002775461413 1.056062664e-38
-0.08814253658 -0.375764668 0.2091707885 1.056062664e-38
-0.1101004481 -0.3667993546 -0.18895863 1.056062664e-38
-0.09882132709 -0.394308269 -0.07750849426 1.056062664e-38
0.1637522131 -0.3839684129 -0.1738676131 1.056062664e-38
-0.0877610594 -0.386608988 0.1342806071 1.074429623e-38
-0.09928414226 -0.3956458569 -0.01534266304 1.074429623e-38
0.2008656561 -0.3972924948 -0.1613234878 1.074429623e-38
0.1390987635 -0.3708467185 -0.1862776726 1.074429623e-38
-0.08563210815 -0.38045609 -0.1516822278 1.074429623e-38
-0.08862783015 -0.3532734215 0.3216516972 1.074429623e-38
0.275011152 -0.4361225963 -0.1489596367 1.074429623e-38
-0.09891388565 -0.3945758045 -0.06507530808 1.074429623e-38
-0.09909901023 -0.3951108456 -0.04020897299 1.092796582e-38
-0.08728700876 -0.3971858323 0.04695721716 1.092796582e-38
-0.09900645167 -0.3948433101 -0.05264215544 1.092796582e-38
0.2510644794 -0.3851174712 -0.1853624284 1.092796582e-38
-0.09937670082 -0.3959133923 -0.002909509465 1.092796582e-38
-0.08719444275 -0.3969183266 0.03452406079 1.092796582e-38
-0.0477193296 -0.3556292653 -0.1755640358 1.092796582e-38
0.2758105397 -0.3979716897 -0.1853855401 1.092796582e-38
0.1508406848 -0.3970180452 -0.1369933635 1.111163541e-38
-0.08843146265 -0.3646528125 0.2716278434 1.111163541e-38
-0.1009839773 -0.3647179306 0.2839269042 1.111163541e-38
0.1515587121 -0.3710490763 -0.1861436218 1.111163541e-38
-0.1002210081 -0.3864066005 0.1341465563 1.111163541e-38
-0.1225603893 -0.3665969968 -0.1890926659 1.111163541e-38
0.1640186608 -0.3712514639 -0.186009571 1.111163541e-38
-0.09965439141 -0.396715939 0.03439001366 1.111163541e-38
-0.05991282314 -0.3427099288 -0.1878400296 1.1295305e-38
-0.08853526413 -0.3530058861 0.3092184663 1.1295305e-38
0.1886720955 -0.3843731284 -0.1735995114 1.1295305e-38
-0.09974695742 -0.3969834447 0.04682316631 1.1295305e-38
-0.09773303568 -0.367269218 -0.1763914227 1.1295305e-38
0.3124948144 -0.448376596 -0.1861481816 1.1295305e-38
0.3001161814 -0.4359923005 -0.1735578775 1.1295305e-38
0.262632519 -0.4237383008 -0.1363693327 1.1295305e-38
-0.1005099267 -0.375294745 0.1966035962 1.147897319e-38
-0.087957412 -0.3752296269 0.1843044311 1.147897319e-38
-0.09746658057 -0.354552269 -0.1885333806 1.147897319e-38
-0.08757593483 -0.3860739768 0.1094142497 1.147897319e-38
-0.1009952128 -0.3528034985 0.3090844154 1.147897319e-38
0.2013985515 -0.371858567 -0.1856074333 1.147897319e-38
-0.07237279415 -0.3425075412 -0.1879740804 1.147897319e-38
0.28844437 -0.3857245743 -0.1849602908 1.147897319e-38
0.324780941 -0.4610284269 -0.1863053292 1.166264278e-38
0.2138585001 -0.3720609248 -0.1854733825 1.166264278e-38
-0.1000358835 -0.3858715892 0.1092801988 1.166264278e-38
-0.04727898538 -0.3304628432 -0.1874147952 1.166264278e-38
0.1268126369 -0.3581949174 -0.1861205101 1.166264278e-38
-0.109926559 -0.3543499112 -0.1886674315 1.166264278e-38
-0.08536564559 -0.3677391112 -0.1638241857 1.166264278e-38
-0.08815377951 -0.3638502657 0.2343282849 1.166264278e-38
0.2387783825 -0.3724656701 -0.1852052808 1.184631237e-38
0.1761195809 -0.3844382763 -0.1613003761 1.184631237e-38
0.2509719133 -0.3853849769 -0.1729292721 1.184631237e-38
0.300730437 -0.398376435 -0.1851174384 1.184631237e-38
0.2873785198 -0.4365924597 -0.1363924295 1.184631237e-38
-0.08845394105 -0.3408239782 0.3219428658 1.184631237e-38
-0.1007062867 -0.3639153838 0.2466274053 1.184631237e-38
-0.08777228743 -0.3746945858 0.1594381183 1.184631237e-38
-0.09994331747 -0.3856040537 0.09684704244 1.202998196e-38
-0.08483274281 -0.3423051834 -0.1881081313 1.202998196e-38
0.1631155163 -0.3977554739 -0.1119929776 1.202998196e-38
0.1392726451 -0.3583972752 -0.1859864742 1.202998196e-38
-0.05973893404 -0.3302604854 -0.187548846 1.202998196e-38
0.1885795295 -0.3846406341 -0.1611663401 1.202998196e-38
-0.08806121349 -0.3635827303 0.2218951434 1.202998196e-38
0.2634319067 -0.3855873644 -0.1727952361 1.202998196e-38
0.2506128848 -0.3983694911 -0.1483541429 1.221365155e-38
-0.1223865002 -0.3541475534 -0.1888014674 1.221365155e-38
0.3249548376 -0.4485789537 -0.1860141307 1.221365155e-38
-0.1009138897 -0.3406216204 0.321808815 1.221365155e-38
0.1517325938 -0.3585996628 -0.1858524233 1.221365155e-38
0.1641925424 -0.3588020205 -0.1857183725 1.221365155e-38
0.276158303 -0.3730727732 -0.1848031431 1.221365155e-38
-0.09729269147 -0.3421027958 -0.1882421821 1.221365155e-38
0.1881279498 -0.3978926837 -0.1241580397 1.239732115e-38
0.3131903708 -0.3985787928 -0.1849833876 1.239732115e-38
-0.08590979874 -0.3812586367 -0.1143827438 1.239732115e-38
0.1766524762 -0.3590043783 -0.1855843216 1.239732115e-38
-0.08796864748 -0.3633152246 0.209461987 1.239732115e-38
0.2501612902 -0.4116214812 -0.1113458425 1.239732115e-38
0.1891124249 -0.3592067659 -0.1854502708 1.239732115e-38
0.1763860434 -0.3717213273 -0.1734423637 1.239732115e-38
-0.07219890505 -0.3300580978 -0.187682882 1.258099074e-38
-0.1008213237 -0.340354085 0.3093756437 1.258099074e-38
-0.09827718139 -0.3807887435 -0.1269499362 1.258099074e-38
-0.08826881647 -0.3402889371 0.2970765233 1.258099074e-38
-0.08609492332 -0.3817936778 -0.08951640129 1.258099074e-38
0.2015724331 -0.3594091237 -0.1853162348 1.258099074e-38
0.2005879581 -0.3980950713 -0.1240239888 1.258099074e-38
0.2140323818 -0.3596114814 -0.185182184 1.258099074e-38
-0.1097526699 -0.3419004381 -0.188376233 1.276466033e-38
0.2380603552 -0.398434639 -0.1360550225 1.276466033e-38
-0.08807244897 -0.3516682982 0.2470526546 1.276466033e-38
-0.08618748933 -0.3820611835 -0.07708324492 1.276466033e-38
0.2389522791 -0.3600162268 -0.1849140823 1.276466033e-38
-0.08465885371 -0.3298557401 -0.1878169328 1.276466033e-38
-0.0983697474 -0.3810562491 -0.1145167872 1.276466033e-38
-0.07246536016 -0.3427750468 -0.1755409241 1.276466033e-38
-0.0866503045 -0.3833987713 -0.01491741743 1.294832852e-38
-0.1006249636 -0.3517334163 0.25935179 1.294832852e-38
-0.05956504494 -0.3178110123 -0.1872576475 1.294832852e-38
-0.08828005195 -0.328374505 0.3222340941 1.294832852e-38
-0.04737154767 -0.3307303488 -0.1749816388 1.294832852e-38
-0.08646517247 -0.38286376 -0.03978372365 1.294832852e-38
-0.08637261391 -0.3825962245 -0.05221690983 1.294832852e-38
-0.1000471115 -0.3739571571 0.1344377548 1.294832852e-38
-0.08797989041 -0.3514007926 0.2346194834 1.313163938e-38
-0.08817625046 -0.3400214016 0.284643352 1.313163938e-38
-0.08674286306 -0.3836663067 -0.002484263852 1.313163938e-38
0.2511457801 -0.3729355335 -0.1726380885 1.313163938e-38
-0.1222126111 -0.3416980803 -0.1885102689 1.313163938e-38
-0.1005323976 -0.3514659107 0.2469186038 1.313163938e-38
-0.08702055365 -0.3844688535 0.03481525928 1.313163938e-38
-0.09711880237 -0.3296533823 -0.1879509836 1.313163938e-38
0.2636057734 -0.3731379211 -0.1725040376 1.331530897e-38
0.2009469718 -0.3851105571 -0.1485991329 1.331530897e-38
-0.09901768714 -0.3829288781 -0.02748461813 1.331530897e-38
-0.09966562688 -0.384801507 0.05954752117 1.331530897e-38
-0.0877835229 -0.3627801836 0.1845956147 1.331530897e-38
-0.08492530882 -0.3425726891 -0.1756749749 1.331530897e-38
-0.09892512113 -0.3826613724 -0.0399177745 1.331530897e-38
-0.09883256257 -0.382393837 -0.05235095695 1.331530897e-38
-0.07202501595 -0.3176086247 -0.1873916835 1.349897856e-38
-0.08818748593 -0.3281069696 0.3098008633 1.349897856e-38
-0.09957306832 -0.3845339715 0.0471143648 1.349897856e-38
0.3130978048 -0.3988462985 -0.1725502312 1.349897856e-38
-0.0999545455 -0.3736896515 0.1220045537 1.349897856e-38
-0.1004398391 -0.351198405 0.2344854623 1.349897856e-38
0.2763321996 -0.3606233299 -0.1845119447 1.349897856e-38
0.139180094 -0.3586647809 -0.1735533178 1.349897856e-38
0.1768263727 -0.3465549052 -0.1852931231 1.368228942e-38
0.2378752232 -0.3989696801 -0.1111886948 1.368228942e-38
-0.1002434716 -0.362577796 0.1844615787 1.368228942e-38
-0.1095787808 -0.3294509947 -0.1880850345 1.368228942e-38
0.2998272479 -0.424880445 -0.1111008525 1.368228942e-38
0.2017463297 -0.3469596505 -0.1850250363 1.368228942e-38
-0.08769096434 -0.3625126779 0.1721624732 1.368228942e-38
0.2142062783 -0.3471620083 -0.1848909855 1.368228942e-38
-0.1003472731 -0.3509308696 0.222052291 1.386595901e-38
0.1516400427 -0.3588671684 -0.1734192669 1.386595901e-38
0.2507867813 -0.385920018 -0.1480629444 1.386595901e-38
-0.09986198694 -0.3734221458 0.1095713973 1.386595901e-38
0.2391261756 -0.3475667536 -0.1846228838 1.386595901e-38
0.1640999913 -0.3590695262 -0.1732852161 1.386595901e-38
-0.04719765484 -0.3182808757 -0.1746904403 1.386595901e-38
0.1396204233 -0.3334983587 -0.1854040772 1.386595901e-38
0.1765599251 -0.359271884 -0.1731511652 1.404926846e-38
-0.100150913 -0.3623102903 0.1720284224 1.404926846e-38
-0.122038722 -0.329248637 -0.1882190853 1.404926846e-38
-0.100254707 -0.3506633639 0.2096191347 1.404926846e-38
-0.08759839833 -0.3622451425 0.1597293168 1.404926846e-38
0.1890198737 -0.3594742715 -0.1730171293 1.404926846e-38
-0.09694491327 -0.3172039092 -0.1876597852 1.404926846e-38
0.2012134343 -0.3723935783 -0.1607410908 1.404926846e-38
0.201479882 -0.3596766293 -0.1728830785 1.423293806e-38
0.152080372 -0.3337007463 -0.1852700263 1.423293806e-38
0.2640461326 -0.347971499 -0.184354797 1.423293806e-38
0.3130052388 -0.3991138041 -0.1601170599 1.423293806e-38
0.2008544058 -0.3853780627 -0.1361659765 1.423293806e-38
-0.08750583231 -0.3619776368 0.1472961605 1.423293806e-38
-0.1344987005 -0.3290462494 -0.1883531213 1.423293806e-38
-0.09801072627 -0.3680717647 -0.1390919387 1.423293806e-38
-0.08564333618 -0.3685416877 -0.1265246868 1.441624891e-38
-0.1003585085 -0.3390164971 0.2472098023 1.441624891e-38
0.2765060961 -0.3481738567 -0.1842207462 1.441624891e-38
-0.1001621485 -0.3503958285 0.1971859783 1.441624891e-38
-0.1094048917 -0.3170015216 -0.187793836 1.441624891e-38
0.1393539906 -0.3462153077 -0.1732621193 1.441624891e-38
-0.08771343529 -0.3386838138 0.2224775404 1.441624891e-38
-0.08431107551 -0.3049568236 -0.1872345358 1.441624891e-38
0.2393000722 -0.3351173103 -0.1843316853 1.459991851e-38
0.2019202113 -0.3345102072 -0.1847338378 1.459991851e-38
0.2007618397 -0.3856455982 -0.1237327904 1.459991851e-38
-0.10026595 -0.3387489915 0.234776631 1.459991851e-38
0.275973171 -0.3736077845 -0.1599368006 1.459991851e-38
-0.10046231 -0.3273695707 0.2848005295 1.459991851e-38
-0.08801359683 -0.3156575263 0.3100920916 1.459991851e-38
-0.09996578097 -0.3617752492 0.1471621096 1.459991851e-38
-0.08573590219 -0.3688091934 -0.1140915453 1.478322936e-38
0.2517600358 -0.3353196681 -0.1841976494 1.478322936e-38
0.1518139392 -0.3464176953 -0.1731280684 1.478322936e-38
-0.08762086928 -0.3384163082 0.210044384 1.478322936e-38
-0.04702376574 -0.3058314323 -0.1743992418 1.478322936e-38
0.2889660299 -0.3483762443 -0.1840866953 1.478322936e-38
-0.05921725929 -0.2929121256 -0.1866752505 1.478322936e-38
0.2884331048 -0.3738101423 -0.1598027498 1.478322936e-38
0.1397943199 -0.3210488856 -0.1851128787 1.496689755e-38
-0.1218648329 -0.3167991638 -0.1879278868 1.496689755e-38
-0.100173384 -0.338481456 0.2223434895 1.496689755e-38
-0.08751707524 -0.3500632048 0.1724536717 1.496689755e-38
0.2998160422 -0.412966013 -0.08594331145 1.496689755e-38
-0.09677102417 -0.3047544658 -0.1873685867 1.496689755e-38
-0.09958429635 -0.3726195693 0.07227192819 1.496689755e-38
0.3008930683 -0.3740125299 -0.1596686989 1.496689755e-38
-0.09987322241 -0.3615077138 0.1347289532 1.515020841e-38
0.1522542685 -0.3212512732 -0.1849788278 1.515020841e-38
0.2766799927 -0.3357244134 -0.1839295477 1.515020841e-38
0.3130865693 -0.3869318664 -0.1473927051 1.515020841e-38
0.3014259934 -0.3485786021 -0.1839526445 1.515020841e-38
-0.1000808179 -0.3382139504 0.2099103332 1.515020841e-38
-0.0594837144 -0.3056290746 -0.1745332927 1.515020841e-38
-0.09819585085 -0.3686068058 -0.1142255887 1.515020841e-38
-0.08703178167 -0.3725544512 0.05997276306 1.533351927e-38
0.1647142172 -0.3214536309 -0.184844777 1.533351927e-38
-0.0999770239 -0.3498608172 0.1723196208 1.533351927e-38
-0.08601359278 -0.3696117401 -0.07679204643 1.533351927e-38
-0.1002771854 -0.3268345296 0.2599341869 1.533351927e-38
0.1640074253 -0.3593370318 -0.1608520299 1.533351927e-38
-0.1092310026 -0.3045520782 -0.1875026375 1.533351927e-38
0.1771741509 -0.3216559887 -0.1847107261 1.533351927e-38
-0.09949173033 -0.3723520637 0.05983871967 1.551683013e-38
-0.04658342525 -0.2806650102 -0.1862500012 1.551683013e-38
-0.09828840941 -0.3688743412 -0.10179241 1.551683013e-38
-0.08763211221 -0.3265018761 0.2352018803 1.551683013e-38
0.2509606481 -0.3734705746 -0.1477717459 1.551683013e-38
-0.08722814918 -0.3611750901 0.1099966317 1.551683013e-38
0.1275082082 -0.3083970845 -0.184955731 1.551683013e-38
0.1889273077 -0.3597417772 -0.1605839431 1.551683013e-38
0.2270140052 -0.3224654794 -0.1841745377 1.570049832e-38
-0.08537688851 -0.3558247089 -0.1386666894 1.570049832e-38
-0.08638384193 -0.3706818223 -0.02705937438 1.570049832e-38
0.2634206414 -0.3736729622 -0.1476376951 1.570049832e-38
0.3128201067 -0.3996488452 -0.1352507472 1.570049832e-38
0.3123685122 -0.4129008651 -0.09824241698 1.570049832e-38
0.1896340996 -0.3218583763 -0.1845766902 1.570049832e-38
-0.08484397829 -0.3303907514 -0.1629505903 1.570049832e-38
-0.09998825938 -0.3379464149 0.1974771768 1.588380918e-38
-0.1001846194 -0.326567024 0.2475010008 1.588380918e-38
-0.08619871736 -0.3701467812 -0.05192571133 1.588380918e-38
-0.07194369286 -0.305426687 -0.1746673435 1.588380918e-38
0.1399682164 -0.3085994422 -0.1848216802 1.588380918e-38
0.275880605 -0.37387532 -0.1475036442 1.588380918e-38
-0.08666153252 -0.371484369 0.01024014689 1.588380918e-38
-0.09968809783 -0.3609727025 0.1098625958 1.588380918e-38
-0.08675409108 -0.3717519045 0.0226733014 1.606712004e-38
-0.08753954619 -0.3262343407 0.2227687389 1.606712004e-38
0.1519878209 -0.3339682519 -0.17283687 1.606712004e-38
-0.08713558316 -0.3609075546 0.09756348282 1.606712004e-38
0.2748849094 -0.4006468654 -0.06105387583 1.606712004e-38
-0.09884379059 -0.3704794347 -0.02719342336 1.606712004e-38
0.2883405387 -0.3740776777 -0.1473695934 1.606712004e-38
-0.04684987664 -0.293381989 -0.1741080433 1.606712004e-38
-0.1000920609 -0.3262995183 0.2350678295 1.625043089e-38
-0.09930660576 -0.3718170226 0.03497240692 1.625043089e-38
0.30159989 -0.3361291587 -0.183661446 1.625043089e-38
-0.09875122458 -0.3702119291 -0.03962657601 1.625043089e-38
-0.08773590624 -0.3148549795 0.2727926373 1.625043089e-38
-0.09659713507 -0.2923050225 -0.1870773882 1.625043089e-38
0.3008005023 -0.3742800653 -0.1472355574 1.625043089e-38
-0.08723938465 -0.3492606282 0.1351542026 1.625043089e-38
-0.09959553182 -0.3607051671 0.09742943943 1.643374035e-38
-0.1002884209 -0.3149201274 0.2850916982 1.643374035e-38
-0.09989569336 -0.3376789093 0.1850439757 1.643374035e-38
0.3129940033 -0.3871993721 -0.1349595487 1.643374035e-38
-0.08440364152 -0.3052243292 -0.1748013794 1.643374035e-38
-0.09999949485 -0.3260319829 0.222634688 1.643374035e-38
-0.09783683717 -0.3556223214 -0.1388007402 1.643374035e-38
0.2521077991 -0.3104207814 -0.1836152524 1.643374035e-38
0.3132604361 -0.3744824231 -0.1471015066 1.661705121e-38
-0.0593098253 -0.2931796312 -0.1742420942 1.661705121e-38
0.2010283023 -0.3729286194 -0.135874778 1.661705121e-38
-0.09757038206 -0.3429053426 -0.1509426832 1.661705121e-38
0.2873448431 -0.4008492231 -0.06091982499 1.661705121e-38
0.2271879017 -0.310016036 -0.1838833392 1.661705121e-38
-0.1341509223 -0.3041473627 -0.1877707243 1.661705121e-38
0.250868082 -0.3737380803 -0.1353385895 1.661705121e-38
0.2384081185 -0.3735357225 -0.1354726404 1.680036207e-38
0.2147279531 -0.3098136783 -0.18401739 1.680036207e-38
-0.08556201309 -0.35635975 -0.1138003469 1.680036207e-38
-0.09950296581 -0.3604376614 0.08499628305 1.680036207e-38
-0.0998031348 -0.3374114037 0.1726108193 1.680036207e-38
-0.08774714917 -0.3029405773 0.297950089 1.680036207e-38
0.3125424087 -0.4004514217 -0.09795122594 1.680036207e-38
0.277027756 -0.3108254969 -0.1833471507 1.680036207e-38
0.2998973727 -0.4007840753 -0.07321896404 1.698367293e-38
-0.08396328986 -0.2800579071 -0.1866521388 1.698367293e-38
-0.08725062013 -0.337346226 0.1603117138 1.698367293e-38
0.3251875639 -0.4001187384 -0.1226835102 1.698367293e-38
-0.08695045859 -0.3603725135 0.07269717753 1.698367293e-38
-0.1001032963 -0.3143850863 0.2602254152 1.698367293e-38
-0.05886948109 -0.2680132091 -0.1860928535 1.698367293e-38
-0.08565457165 -0.3566272855 -0.1013671607 1.698367293e-38
0.1521617174 -0.3215187788 -0.1725456715 1.716698239e-38
-0.0874582231 -0.3140524328 0.2354930788 1.716698239e-38
-0.0872618556 -0.3254317939 0.1854692101 1.716698239e-38
-0.09941040725 -0.360170126 0.07256312668 1.716698239e-38
0.2894876897 -0.3110278845 -0.1832130998 1.716698239e-38
-0.08765458316 -0.3026730418 0.2855169773 1.716698239e-38
-0.09802196175 -0.3561573625 -0.1139343902 1.716698239e-38
-0.08736565709 -0.3137848973 0.2230599374 1.716698239e-38
-0.08685789257 -0.3601050079 0.06026396155 1.735029324e-38
0.1650619954 -0.2965547442 -0.18426238 1.735029324e-38
-0.08422975242 -0.2927748859 -0.1745101959 1.735029324e-38
-0.09972180426 -0.3252294362 0.1853351742 1.735029324e-38
-0.0591359362 -0.2807301581 -0.1739508957 1.735029324e-38
0.31316787 -0.3747499287 -0.1346683502 1.735029324e-38
0.2522816956 -0.297971338 -0.1833240539 1.735029324e-38
-0.08766581118 -0.2907586098 0.3106744885 1.735029324e-38
0.25068295 -0.3742731214 -0.1104722545 1.75336041e-38
-0.04623564333 -0.2557660937 -0.1856676042 1.75336041e-38
-0.08716929704 -0.3251642883 0.1730360538 1.75336041e-38
0.2382229865 -0.3740707636 -0.1106062979 1.75336041e-38
-0.08529555798 -0.3436427712 -0.1259423047 1.75336041e-38
-0.08676533401 -0.3598374724 0.04783080518 1.75336041e-38
0.2881554067 -0.3746127188 -0.1225032583 1.75336041e-38
-0.09982560575 -0.3135825396 0.2229258865 1.75336041e-38
-0.08630251884 -0.3584998846 -0.01433502324 1.771655483e-38
-0.08602482826 -0.3576973379 -0.05163451657 1.771655483e-38
-0.08620995283 -0.358232379 -0.02676817775 1.771655483e-38
0.312623769 -0.3882694542 -0.08522687107 1.771655483e-38
0.2149018347 -0.2973642349 -0.1837261915 1.771655483e-38
-0.09739649296 -0.330455929 -0.1506514847 1.771655483e-38
0.3006153703 -0.3748151064 -0.1223692149 1.771655483e-38
-0.08639507741 -0.3587674201 -0.001901868731 1.771655483e-38
0.2772016525 -0.2983760536 -0.1830559522 1.789986569e-38
-0.08686912805 -0.3481905758 0.08542152494 1.789986569e-38
-0.09922528267 -0.3596350849 0.04769676179 1.789986569e-38
-0.05869559199 -0.255563736 -0.1858016551 1.789986569e-38
-0.08538812399 -0.3439102769 -0.1135091484 1.789986569e-38
-0.08697292954 -0.3365436792 0.1230121851 1.789986569e-38
0.2756029069 -0.3746778667 -0.1102041528 1.789986569e-38
0.250590384 -0.3745406568 -0.09803906828 1.789986569e-38
-0.08746945858 -0.3021380007 0.2606506348 1.808317654e-38
-0.09952544421 -0.3366088271 0.1353113502 1.808317654e-38
0.2381304204 -0.374338299 -0.09817311168 1.808317654e-38
-0.09866990149 -0.3580299914 -0.02690222487 1.808317654e-38
-0.08707673103 -0.3248967528 0.1606029123 1.808317654e-38
0.152335614 -0.3090693355 -0.172254473 1.808317654e-38
0.2880628407 -0.3748802245 -0.1100701094 1.808317654e-38
-0.08757325262 -0.2904911041 0.2982413173 1.808317654e-38
-0.09904015064 -0.3591000736 0.02283045277 1.826612727e-38
-0.09894759208 -0.3588325381 0.0103972964 1.826612727e-38
-0.09775550663 -0.3434403837 -0.1260763407 1.826612727e-38
0.128029868 -0.2710487247 -0.1840821356 1.826612727e-38
0.3005228043 -0.375082612 -0.1099360585 1.826612727e-38
-0.04606175423 -0.2433166355 -0.1853764057 1.826612727e-38
-0.071155563 -0.2553613782 -0.1859357059 1.826612727e-38
