# .PCD v0.7 - Point Cloud Data file format
VERSION 0.7
FIELDS x y z rgb
SIZE 4 4 4 4
TYPE F F F F
COUNT 1 1 1 1
WIDTH 832
HEIGHT 1
VIEWPOINT 0 0 0 1 0 0 0
POINTS 832
DATA ascii
-0.01989156194 -0.1755754501 -0.1669494212 7.618684588e-39
0.04529768229 -0.1065722704 -0.1870166659 7.618684588e-39
-0.1189206392 -0.3686561286 0.4267421663 7.618684588e-39
-0.1257940829 -0.219409287 -0.1502752751 7.618684588e-39
-0.0982529372 -0.4506751895 0.3781757057 7.618684588e-39
-0.1214186847 -0.3502958417 0.4226108789 7.618684588e-39
-0.1256393492 -0.4123120904 0.1494167298 7.802712912e-39
0.0641617775 -0.3391649723 0.1167136133 7.802712912e-39
0.02315161377 -0.1265132874 -0.1810161322 7.802712912e-39
-0.1167710796 -0.4040284157 0.09157513082 7.802712912e-39
-0.1065421104 -0.4326912165 0.2415989488 7.802712912e-39
-0.1300637573 -0.2829619646 -0.1462625116 7.802712912e-39
-0.0095092915 -0.1641062796 -0.1813310683 7.802712912e-39
0.03353387862 -0.1150441244 -0.1953977942 7.802712912e-39
-0.07775482535 -0.2070676982 -0.1560793966 7.986382503e-39
-0.1072328761 -0.4311925471 0.230217576 7.986382503e-39
0.07657705247 -0.06598196179 -0.2094645053 7.986382503e-39
-0.05505047739 -0.1948081553 -0.1713956594 7.986382503e-39
-0.1270208657 -0.4093147516 0.1266539544 7.986382503e-39
0.05239797756 -0.3476368189 0.1083324999 7.986382503e-39
-0.1277116239 -0.407816112 0.1152725667 7.986382503e-39
0.09941388667 -0.04753961042 -0.2040836513 7.986382503e-39
-0.1011499465 -0.2178285718 -0.1521445066 8.170410826e-39
-0.1153417081 -0.3036047518 0.4113479853 8.170410826e-39
-0.1116915345 -0.4361025989 0.3977418244 8.170410826e-39
-0.128402397 -0.4063174427 0.1038911343 8.170410826e-39
-0.1139946431 -0.3097120523 -0.1410001665 8.170410826e-39
-0.136867106 -0.2293798029 -0.1472750157 8.170410826e-39
0.01263683662 -0.1441652775 -0.187331602 8.170410826e-39
-0.1047288552 -0.2828799188 -0.1367503405 8.170410826e-39
-0.1018407121 -0.2163299024 -0.1635258943 8.35443915e-39
-0.04203765839 -0.1955164671 -0.1609488875 8.35443915e-39
-0.1115590185 -0.4299198091 0.418438971 8.35443915e-39
0.07782607526 -0.07516209781 -0.2073988616 8.35443915e-39
-0.08882786334 -0.2170382142 -0.1530791223 8.35443915e-39
-0.113338083 -0.4454708993 0.3335847259 8.35443915e-39
-0.1161011383 -0.4394762516 0.288059175 8.35443915e-39
-0.116791904 -0.4379775822 0.2766777277 8.35443915e-39
-0.04272842407 -0.1940177977 -0.1723302752 8.538467473e-39
-0.1106867045 -0.42369923 0.1733105928 8.538467473e-39
-0.1226677001 -0.3411157131 0.4205452204 8.538467473e-39
-0.007569508627 -0.1747850925 -0.1678840369 8.538467473e-39
0.08631527424 -0.3855858445 0.2037114203 8.538467473e-39
0.02370986342 -0.1341947615 -0.1903318763 8.538467473e-39
-0.1297839284 -0.4033201039 0.08112835884 8.538467473e-39
0.06800206006 -0.09431274235 -0.2023329437 8.538467473e-39
0.002812761813 -0.163315922 -0.182265684 8.722137064e-39
-0.08865974098 -0.3096300066 -0.1314880103 8.722137064e-39
-0.1258565038 -0.3212567568 0.4050325155 8.722137064e-39
-0.1004235372 -0.3181018233 -0.1398691237 8.722137064e-39
-0.06490156054 -0.2898552418 -0.08844736964 8.722137064e-39
-0.05396100506 -0.2860675454 -0.1121447831 8.722137064e-39
-0.05327023938 -0.2875662148 -0.1007633656 8.722137064e-39
0.01388585567 -0.1533454061 -0.1852659583 8.722137064e-39
-0.09716463834 -0.4336254597 0.4516485631 8.906165387e-39
-0.1209364906 -0.4289855659 0.2083893567 8.906165387e-39
-0.07650581002 -0.2162478566 -0.154013738 8.906165387e-39
-0.1325618029 -0.2646017075 -0.1503937989 8.906165387e-39
-0.09660639614 -0.4413069189 0.4423327744 8.906165387e-39
0.07261168212 -0.3833788633 0.181883201 8.906165387e-39
-0.06766462326 -0.2838605642 -0.1339729577 8.906165387e-39
-0.09917452186 -0.3272819519 -0.13780348 8.906165387e-39
0.08562450856 -0.3840871751 0.1923300326 9.089834978e-39
-0.1108682528 -0.4314184785 0.429820329 9.089834978e-39
-0.1157318279 -0.3885151148 0.4422549009 9.089834978e-39
-0.09792549908 -0.3364621103 -0.1357378215 9.089834978e-39
0.101221174 -0.06440123916 -0.2113337368 9.089834978e-39
-0.07042768598 -0.2778659165 -0.1794985384 9.089834978e-39
0.1758674681 -0.4923541844 0.1015939265 9.089834978e-39
-0.07508863509 -0.3180197775 -0.1303569674 9.089834978e-39
0.1448693126 -0.3555922806 0.2042227834 9.273863302e-39
-0.09976698458 -0.4538606703 0.3347157538 9.273863302e-39
-0.1103100032 -0.4390999377 0.4205045998 9.273863302e-39
0.1031609476 -0.07508003712 -0.1978866905 9.273863302e-39
-0.05770066753 -0.3248890042 -0.02534344047 9.273863302e-39
0.01582564414 -0.1640242338 -0.171818912 9.273863302e-39
-0.08077548444 -0.2798005342 -0.1500009596 9.273863302e-39
-0.08008472621 -0.2812992036 -0.1386195719 9.273863302e-39
0.09794662148 -0.3832968175 0.1913954169 9.457532893e-39
0.02620790899 -0.1525550485 -0.186200574 9.457532893e-39
-0.1004577428 -0.4523620009 0.3233343661 9.457532893e-39
-0.04412956163 -0.3332787752 -0.02421239763 9.457532893e-39
-0.09604813159 -0.448988378 0.4330170155 9.457532893e-39
-0.06651364267 -0.2896889746 -0.1374885291 9.457532893e-39
-0.1155220568 -0.4132085741 0.09364078939 9.457532893e-39
0.1122941971 -0.05443071947 -0.2143339962 9.457532893e-39
-0.08560344577 -0.3356717527 -0.1366724372 9.641561216e-39
-0.0966764763 -0.3456422687 -0.1336721778 9.641561216e-39
0.06011777371 -0.1241421998 -0.1838199794 9.641561216e-39
-0.1200715899 -0.3564031422 -0.1297372878 9.641561216e-39
-0.06595538557 -0.2973704636 -0.1468042731 9.641561216e-39
0.03728093952 -0.1425845623 -0.1892008334 9.641561216e-39
-0.13312006 -0.2569202185 -0.1410780698 9.641561216e-39
0.1044099629 -0.08426017314 -0.1958210468 9.641561216e-39
-0.1162128225 -0.4117099047 0.08225940168 9.825230807e-39
-0.1097517461 -0.4467813969 0.4111888707 9.825230807e-39
-0.09473668784 -0.3563210666 -0.1202251315 9.825230807e-39
-0.1032208055 -0.4463673532 0.2778087556 9.825230807e-39
-0.09934267402 -0.2346901894 -0.1593946069 9.825230807e-39
-0.1182851195 -0.4072138965 0.04811522365 9.825230807e-39
-0.1169035882 -0.4102112353 0.07087801397 9.825230807e-39
-0.1046023369 -0.4433700144 0.25504601 9.825230807e-39
0.1135432273 -0.06361087412 -0.2122683525 1.000925913e-38
-0.05340274796 -0.2937490344 -0.1214605123 1.000925913e-38
-0.06345734745 -0.3157307506 -0.1426729709 1.000925913e-38
-0.08202450722 -0.2706204057 -0.1520666182 1.000925913e-38
-0.08241463453 -0.355530709 -0.1211597472 1.000925913e-38
-0.07134157419 -0.3455601931 -0.1241600066 1.000925913e-38
0.1037192047 -0.08276151121 -0.2072024345 1.000925913e-38
-0.09559561312 -0.2622306347 -0.1531976461 1.000925913e-38
0.07704208791 -0.3460561037 0.1064632684 1.019292872e-38
-0.09548987448 -0.456669867 0.4237012863 1.019292872e-38
-0.06776266545 -0.280508846 -0.1395541877 1.019292872e-38
-0.06046373025 -0.3188943267 -0.07086903602 1.019292872e-38
-0.05008143559 -0.3074251711 -0.08525068313 1.019292872e-38
-0.0870205909 -0.233899802 -0.1603292227 1.019292872e-38
0.03922072798 -0.1532633454 -0.1757538021 1.019292872e-38
0.07053939253 -0.378882885 0.1477390528 1.019292872e-38
0.1874987483 -0.4900651872 0.08927792311 1.037659831e-38
0.1232814938 -0.3832147419 0.2009075731 1.037659831e-38
-0.1080561578 -0.4358766973 0.198138997 1.037659831e-38
-0.05901952088 -0.3447698355 -0.1250946224 1.037659831e-38
-0.1090609804 -0.4482800663 0.4225702584 1.037659831e-38
-0.06378504634 -0.3052182198 -0.1070788652 1.037659831e-38
0.01707466319 -0.1732043624 -0.1697532684 1.037659831e-38
0.06136679649 -0.1333223283 -0.1817543358 1.037659831e-38
-0.05113529414 -0.314940393 -0.1436075866 1.056062664e-38
0.09389518201 -0.1019121632 -0.2021365166 1.056062664e-38
0.09656509012 -0.3802994788 0.1686325818 1.056062664e-38
-0.05852394179 -0.3295731544 -0.05742196366 1.056062664e-38
0.2505951822 -0.3267135024 0.1777880788 1.056062664e-38
-0.1155428886 -0.4471577406 0.2787433863 1.056062664e-38
-0.04794648662 -0.3347993493 -0.1280948818 1.056062664e-38
-0.09809365124 -0.2438703179 -0.1573289484 1.056062664e-38
0.006001565605 -0.1831748635 -0.166753009 1.074429623e-38
-0.09348767251 -0.365501225 -0.1181594729 1.074429623e-38
0.1376291215 -0.05434865505 -0.2048218399 1.074429623e-38
-0.0558933951 -0.3417506218 -0.03259352222 1.074429623e-38
-0.04186950624 -0.2881082594 -0.1393577605 1.074429623e-38
-0.06168571487 -0.2338177562 -0.1508170515 1.074429623e-38
-0.05846126378 -0.3524513245 -0.1344103664 1.074429623e-38
-0.1065005213 -0.3647929132 -0.1286062449 1.074429623e-38
0.1757349521 -0.498537004 0.08089675009 1.092796582e-38
-0.03812244534 -0.315648675 -0.1331608146 1.092796582e-38
-0.05990547314 -0.3265758157 -0.08018475771 1.092796582e-38
-0.08116561174 -0.3647108674 -0.1190940887 1.092796582e-38
0.1861172169 -0.4870678484 0.06651510298 1.092796582e-38
-0.08577156812 -0.2430799603 -0.1582635641 1.092796582e-38
-0.005762230605 -0.1916467249 -0.1751341224 1.092796582e-38
-0.03881321102 -0.3141500056 -0.1445422024 1.092796582e-38
-0.03687342629 -0.3248288333 -0.131095171 1.111163541e-38
0.04046975076 -0.1624435037 -0.1736881435 1.111163541e-38
0.1290541291 -0.08267944306 -0.1976902783 1.111163541e-38
0.06261581928 -0.1425024867 -0.1796886772 1.111163541e-38
-0.07275874913 -0.2437882721 -0.1478167921 1.111163541e-38
-0.1115099862 -0.4283833504 0.1412320286 1.111163541e-38
-0.04613921046 -0.3516609669 -0.1353449821 1.111163541e-38
-0.05090470985 -0.3121093214 -0.1173292249 1.111163541e-38
-0.05422602221 -0.2984331846 -0.1535390466 1.1295305e-38
-0.05159547552 -0.310610652 -0.1287106276 1.1295305e-38
-0.07095146924 -0.2606498897 -0.1550668776 1.1295305e-38
-0.02829843201 -0.2964980304 -0.1382267326 1.1295305e-38
-0.03023821674 -0.2858192325 -0.151673764 1.1295305e-38
0.08407117426 -0.1210628152 -0.1970705986 1.1295305e-38
0.1271610558 -0.4045723975 0.2278016508 1.1295305e-38
-0.06059623882 -0.3250771463 -0.09156614542 1.1295305e-38
-0.05652147532 -0.3631301224 -0.1209633201 1.147897319e-38
-0.02580039017 -0.3148583174 -0.1340954304 1.147897319e-38
0.0287059471 -0.1709153354 -0.1820692718 1.147897319e-38
-0.0350661464 -0.3416904509 -0.1383452564 1.147897319e-38
-0.02721753344 -0.2130863965 -0.157752201 1.147897319e-38
-0.122450538 -0.4321710765 0.1649294049 1.147897319e-38
-0.05005439743 -0.2315287292 -0.163133055 1.147897319e-38
-0.02649115399 -0.313359648 -0.1454768181 1.147897319e-38
0.171722874 -0.4833621979 0.03330555558 1.166264278e-38
0.1505561471 -0.3938114941 0.2238667607 1.166264278e-38
-0.04370382056 -0.347143054 -0.05422527716 1.166264278e-38
-0.02455136925 -0.3240384758 -0.1320297718 1.166264278e-38
0.1303031594 -0.09185960144 -0.1956246197 1.166264278e-38
-0.05270458385 -0.3616095781 -0.017080836 1.166264278e-38
-0.05865645781 -0.3357559443 -0.07811911404 1.166264278e-38
0.1790562719 -0.5122131109 0.1171066016 1.166264278e-38
0.09518355876 -0.3773021698 0.1458698213 1.184631237e-38
-0.05366776511 -0.3061146736 -0.1628548205 1.184631237e-38
-0.03898136318 -0.221558243 -0.1661333293 1.184631237e-38
0.09708399326 -0.1217711121 -0.1866238266 1.184631237e-38
0.05279180408 -0.1616531461 -0.1746227592 1.184631237e-38
-0.1175735518 -0.3747633994 -0.1256059855 1.184631237e-38
-0.1245228276 -0.4276750684 0.1307852566 1.184631237e-38
0.06317406893 -0.1501839608 -0.1890044212 1.184631237e-38
0.1212091967 -0.3787187338 0.1667633653 1.202998196e-38
-0.01597634889 -0.2957076728 -0.1391613483 1.202998196e-38
-0.04051501676 -0.3670020103 -0.03871259838 1.202998196e-38
0.1296124011 -0.0903609395 -0.2070060074 1.202998196e-38
-0.04505831376 -0.2682493031 -0.1548704505 1.202998196e-38
-0.03926599398 -0.3761821985 -0.03664693981 1.202998196e-38
-0.03148723766 -0.2766390741 -0.1537394226 1.202998196e-38
-0.05671666935 -0.346434772 -0.06467207521 1.202998196e-38
0.07424716651 -0.1402134597 -0.1920046806 1.221365155e-38
-0.03732620552 -0.3868609667 -0.02319988236 1.221365155e-38
-0.04965568706 -0.3212894797 -0.1152635664 1.221365155e-38
0.1847356856 -0.4840705097 0.04375232756 1.221365155e-38
-0.03187734261 -0.3615494072 -0.1228325516 1.221365155e-38
0.1609384865 -0.3823423386 0.2094851136 1.221365155e-38
-0.05918767303 -0.2521780431 -0.1466857493 1.221365155e-38
0.1762932092 -0.506218493 0.07158102095 1.221365155e-38
-0.05987843871 -0.2506793737 -0.158067137 1.239732115e-38
-0.1163453385 -0.4178926945 0.0615622513 1.239732115e-38
-0.1265951246 -0.42317909 0.09664104879 1.239732115e-38
-0.05283709988 -0.3677923679 -0.03777798265 1.239732115e-38
0.08532019705 -0.1302429438 -0.1950049549 1.239732115e-38
-0.01292004995 -0.321749419 -0.1443457901 1.239732115e-38
0.04102800041 -0.1701249778 -0.1830038875 1.239732115e-38
-0.02596851252 -0.222266525 -0.1556865573 1.239732115e-38
0.1426252127 -0.0910692364 -0.1965592355 1.258099074e-38
-0.0675945133 -0.3731006384 -0.1179630607 1.258099074e-38
-0.0266592782 -0.2207678556 -0.167067945 1.258099074e-38
-0.04880537465 -0.2407088876 -0.1610674113 1.258099074e-38
-0.05227884278 -0.3754738569 -0.04709370807 1.258099074e-38
-0.106807135 -0.4450568557 0.2002046555 1.258099074e-38
-0.04189654812 -0.3640046716 -0.06147539616 1.258099074e-38
0.07618694752 -0.1508922577 -0.1785576493 1.258099074e-38
-0.004345059395 -0.2934186459 -0.1514773518 1.276466033e-38
-0.002405272797 -0.3040974736 -0.1380303055 1.276466033e-38
0.1335312575 -0.3779283762 0.1658287495 1.276466033e-38
0.1016862541 -0.3444753587 0.1045940369 1.276466033e-38
0.175602451 -0.5047198534 0.06019963324 1.276466033e-38
0.06511385739 -0.1608627737 -0.175557375 1.276466033e-38
-0.05421863124 -0.3647950292 -0.06054078043 1.276466033e-38
-0.05172797665 -0.3167934418 -0.1494077444 1.276466033e-38
0.1419344544 -0.08957057446 -0.2079406232 1.294832852e-38
-0.01847439073 -0.2773473859 -0.1432926506 1.294832852e-38
-0.0475563556 -0.2498890162 -0.1590017527 1.294832852e-38
-0.05615841225 -0.354116261 -0.0739878118 1.294832852e-38
-0.03607718274 -0.3960411549 -0.02113422379 1.294832852e-38
0.1087152958 -0.1194820926 -0.1989398301 1.294832852e-38
-0.05102982 -0.3846539855 -0.0450280644 1.294832852e-38
-0.1108400449 -0.4638312161 0.3377160132 1.294832852e-38
-0.05366037413 -0.3724765182 -0.06985650957 1.313163938e-38
0.1146990731 -0.3451836705 0.1150408089 1.313163938e-38
0.06442309171 -0.1593641192 -0.1869387627 1.313163938e-38
-0.1136031002 -0.4578365684 0.2921904922 1.313163938e-38
0.1647712737 -0.07112822682 -0.2025597692 1.313163938e-38
0.143874228 -0.1002493799 -0.1944935918 1.313163938e-38
0.05572671443 -0.42767483 0.2375406176 1.313163938e-38
-0.04839926586 -0.3968315125 -0.02019960806 1.313163938e-38
0.2010698766 -0.4984549582 0.09040893614 1.331530897e-38
-0.1122215688 -0.4608338773 0.3149532676 1.331530897e-38
-0.0339852795 -0.2582788169 -0.1578707248 1.331530897e-38
0.05335006118 -0.1693346202 -0.1839385033 1.331530897e-38
0.179482013 -0.5260774493 0.087093696 1.331530897e-38
-0.03329451382 -0.2597774863 -0.1464893371 1.331530897e-38
-0.05878896639 -0.3419387937 -0.0988162607 1.331530897e-38
0.1926273406 -0.5206029415 0.1182376295 1.331530897e-38
0.128410086 -0.413752526 0.2298672944 1.349897856e-38
0.1217281073 -0.1201903969 -0.1884930581 1.349897856e-38
0.1828033328 -0.5397535563 0.1233035475 1.349897856e-38
0.1970577985 -0.4832801521 0.04281771183 1.349897856e-38
-0.1191292182 -0.4458472431 0.2011392862 1.349897856e-38
0.0422770232 -0.1793051064 -0.180938229 1.349897856e-38
0.008667763323 -0.2941269577 -0.1410305798 1.349897856e-38
-0.09368260205 -0.4735314846 0.4164512157 1.349897856e-38
-0.04452709481 -0.3518272638 -0.08630381525 1.368228942e-38
0.009226020426 -0.3018084466 -0.1503463089 1.368228942e-38
-0.006843101233 -0.2750583589 -0.155608654 1.368228942e-38
0.1886152625 -0.5054281354 0.07064640522 1.368228942e-38
0.006727978587 -0.2834481597 -0.1544776112 1.368228942e-38
0.01116580516 -0.3124872446 -0.1368992776 1.368228942e-38
0.1431834698 -0.09875071049 -0.2058749795 1.368228942e-38
0.01047503948 -0.3109885752 -0.1482806653 1.368228942e-38
0.003149069846 -0.3484995067 -0.1390834451 1.386595901e-38
0.1321104318 -0.1087212265 -0.2028747052 1.386595901e-38
0.1542565078 -0.08878021687 -0.2088752389 1.386595901e-38
-0.04645948485 -0.4075102806 -0.006752572954 1.386595901e-38
0.158866182 -0.3778463304 0.1753409058 1.386595901e-38
-0.00257342495 -0.2115056813 -0.1596214324 1.386595901e-38
-0.05629092827 -0.3602990508 -0.09468495846 1.386595901e-38
-0.06349180639 -0.3252653182 -0.1577888876 1.386595901e-38
-0.02347047254 -0.2406268418 -0.1515552551 1.404926846e-38
-0.02166319266 -0.2574884593 -0.1588053405 1.404926846e-38
0.1742209196 -0.501722455 0.03743685782 1.404926846e-38
-0.05310211703 -0.3801580071 -0.07917224616 1.404926846e-38
-0.05573267117 -0.3679805398 -0.1040006876 1.404926846e-38
0.1061240807 -0.3735144734 0.1221723855 1.404926846e-38
0.08781823516 -0.1486032307 -0.1908736527 1.404926846e-38
-0.02416123636 -0.2391281724 -0.1629366428 1.404926846e-38
0.06636288017 -0.1700429171 -0.1734917313 1.423293806e-38
0.177093327 -0.07033786178 -0.2034943849 1.423293806e-38
0.07674520463 -0.1585737467 -0.1878733784 1.423293806e-38
-0.01308820397 -0.2291576266 -0.1659369022 1.423293806e-38
-0.02291221544 -0.248308301 -0.1608709842 1.423293806e-38
0.1718790084 -0.3785546422 0.1857877225 1.423293806e-38
-0.04784841463 -0.3381510973 -0.1225136667 1.423293806e-38
-0.01899703033 -0.3684405088 -0.1330829114 1.423293806e-38
-0.1130240187 -0.431568861 0.09777209163 1.441624891e-38
-0.03551893309 -0.4037225842 -0.03044998646 1.441624891e-38
0.2100706249 -0.4839884341 0.05326448381 1.441624891e-38
-0.06086125597 -0.3374428153 -0.1329604387 1.441624891e-38
-0.00809212029 -0.2658782303 -0.1576742977 1.441624891e-38
0.06567211449 -0.1685442626 -0.184873119 1.441624891e-38
0.1451625377 -0.375639379 0.1535127461 1.441624891e-38
0.173818782 -0.3892334402 0.1992347538 1.441624891e-38
0.225155741 -0.489192754 0.09785546362 1.459991851e-38
0.2147734612 -0.5006619096 0.1122371107 1.459991851e-38
0.171590358 -0.4895450175 0.01260837913 1.459991851e-38
0.1119040847 -0.1393410414 -0.1834271401 1.459991851e-38
-0.04853917286 -0.3366523981 -0.1338950545 1.459991851e-38
-0.00865037553 -0.2581967711 -0.1483585536 1.459991851e-38
-0.001324405894 -0.2206858099 -0.1575557888 1.459991851e-38
0.02082172409 -0.2007448077 -0.1635563225 1.459991851e-38
0.2016281486 -0.5061364174 0.0810931623 1.478322936e-38
-0.00201516971 -0.2191871405 -0.1689371765 1.478322936e-38
0.133359462 -0.1179013625 -0.2008090615 1.478322936e-38
-0.1144055501 -0.4285715222 0.07500931621 1.478322936e-38
0.02013095841 -0.1992461383 -0.1749377102 1.478322936e-38
0.1222863644 -0.127871871 -0.1978087872 1.478322936e-38
0.02154807374 -0.3010180891 -0.1512809247 1.478322936e-38
-0.01183918118 -0.238337785 -0.1638712585 1.478322936e-38
-0.1253460944 -0.4323592484 0.09870670736 1.496689755e-38
-0.01059016213 -0.2475179434 -0.1618055999 1.496689755e-38
-0.04604113474 -0.3550127149 -0.1297637671 1.496689755e-38
0.0227970928 -0.3101982176 -0.1492152661 1.496689755e-38
-0.06030299887 -0.3451242447 -0.1422761828 1.496689755e-38
0.1891735196 -0.5131095648 0.06133066118 1.496689755e-38
-0.04729015008 -0.3458325863 -0.1318294108 1.496689755e-38
0.02404611558 -0.3193783462 -0.1471496224 1.496689755e-38
-0.05254385993 -0.3878394961 -0.08848799765 1.515020841e-38
0.1937438548 -0.5359659195 0.09960617125 1.515020841e-38
0.1708995849 -0.4880463481 0.001226991415 1.515020841e-38
0.01741090789 -0.3583879471 -0.1265710145 1.515020841e-38
0.02598590404 -0.330057174 -0.1337025762 1.515020841e-38
0.1795913726 -0.08869815618 -0.1993630826 1.515020841e-38
-0.1267276406 -0.4293619096 0.07594393194 1.515020841e-38
0.004229933023 -0.2650878727 -0.1586089134 1.515020841e-38
0.2086890936 -0.4809911251 0.03050170839 1.533351927e-38
-0.04022177681 -0.3870491385 -0.08942261338 1.533351927e-38
-0.1051814184 -0.4696377218 0.4494643211 1.533351927e-38
0.2262676656 -0.3735182285 0.3031132817 1.533351927e-38
-0.06168453023 -0.3421269059 -0.165038988 1.533351927e-38
0.1840523481 -0.5489337444 0.1253692061 1.533351927e-38
-0.04867168143 -0.3428352475 -0.1545922011 1.533351927e-38
0.227516681 -0.3826983571 0.3051789403 1.533351927e-38
0.02654415369 -0.3377386332 -0.1430183202 1.551683013e-38
-0.08974061161 -0.3930416405 -0.111962527 1.551683013e-38
0.03314377367 -0.1999544203 -0.1644909382 1.551683013e-38
0.04835473746 -0.7740198374 0.1650974751 1.551683013e-38
0.1020800769 -0.1584917009 -0.1783612221 1.551683013e-38
0.02779317647 -0.3469187915 -0.1409526616 1.551683013e-38
0.06114112213 -0.4118978083 0.1227920651 1.551683013e-38
-0.1027534604 -0.3923333287 -0.122409299 1.551683013e-38
0.03456095606 -0.301726371 -0.1408341527 1.570049832e-38
0.04904549941 -0.7755185366 0.1764788628 1.570049832e-38
0.2079983205 -0.4794924557 0.01912027597 1.570049832e-38
0.2269584239 -0.3750168979 0.3144946694 1.570049832e-38
0.2374777943 -0.4884023964 0.09692083299 1.570049832e-38
0.03387019038 -0.3002277017 -0.1522155404 1.570049832e-38
0.1942947358 -0.4772854745 -0.002707883716 1.570049832e-38
-0.0472827591 -0.4121944308 -0.03883111104 1.570049832e-38
0.03465112299 -0.7718129158 0.1432693005 1.588380918e-38
0.0469732061 -0.7710225582 0.1423346996 1.588380918e-38
0.0910070464 -0.1684621871 -0.1753609627 1.588380918e-38
-0.03897276148 -0.3962292671 -0.08735696971 1.588380918e-38
0.05929526314 -0.7702322006 0.141400069 1.588380918e-38
0.07368963957 -0.7739378214 0.1746096313 1.588380918e-38
0.16976735 -0.1078488082 -0.1942971647 1.588380918e-38
-0.04797352478 -0.4106957316 -0.05021252483 1.588380918e-38
-0.0422940664 -0.3825531602 -0.1235668063 1.606712004e-38
-0.05267637596 -0.3940222859 -0.1091851443 1.606712004e-38
0.01865992695 -0.3675681055 -0.124505356 1.606712004e-38
0.02137998119 -0.2084262967 -0.1728720516 1.606712004e-38
-0.1044906452 -0.4711363912 0.4608457685 1.606712004e-38
0.01599373668 -0.2566160262 -0.1502277851 1.606712004e-38
0.07993400842 -0.1784326881 -0.1723606884 1.606712004e-38
-0.07810932398 -0.3907526135 -0.1242785305 1.606712004e-38
0.2060659677 -0.5351755619 0.09867157042 1.625043089e-38
-0.03966352716 -0.3947306275 -0.09873835742 1.625043089e-38
0.1307681948 -0.3719337285 0.120303154 1.625043089e-38
0.1567938924 -0.373350352 0.1411967427 1.625043089e-38
0.08601169288 -0.7731474638 0.1736750007 1.625043089e-38
0.00758689642 -0.3775386214 -0.1215050966 1.625043089e-38
0.01155590639 -0.2275769114 -0.1678061336 1.625043089e-38
0.07092657685 -0.7679431438 0.1290840209 1.625043089e-38
0.201046735 -0.06725847721 -0.2167450041 1.643374035e-38
0.1695180684 -0.4850490093 -0.0215357691 1.643374035e-38
0.2398387343 -0.3819079995 0.3042443395 1.643374035e-38
0.05791373178 -0.7672348022 0.1186372638 1.643374035e-38
0.021638304 -0.7711045742 0.1328224838 1.643374035e-38
0.03886626661 -0.3369482756 -0.1439529359 1.643374035e-38
0.1144021302 -0.1577013433 -0.1792958379 1.643374035e-38
0.1418412328 -0.3619632125 0.1173028797 1.643374035e-38
0.08324863017 -0.7671527863 0.12814942 1.661705121e-38
0.04490090907 -0.7665265203 0.1081904769 1.661705121e-38
0.2354054898 -0.4839063883 0.06277664006 1.661705121e-38
0.2283445448 -0.5090516806 0.1133681387 1.661705121e-38
0.04688300937 -0.3009360135 -0.1417687684 1.661705121e-38
0.03081388772 -0.2741859257 -0.1470311135 1.661705121e-38
0.04011528939 -0.3461284339 -0.1418872923 1.661705121e-38
0.03012312204 -0.2726872563 -0.1584125012 1.661705121e-38
0.02094753832 -0.7696059346 0.1214410961 1.680036207e-38
0.01405394822 -0.2459371984 -0.1636748314 1.680036207e-38
-0.1131357253 -0.4038025141 -0.108027637 1.680036207e-38
0.2264001817 -0.3673354089 0.3238103986 1.680036207e-38
-0.09091953933 -0.4795261621 0.4619767964 1.680036207e-38
0.01280492917 -0.2367570698 -0.1657404751 1.680036207e-38
0.113711372 -0.1562026739 -0.1906772256 1.680036207e-38
0.1599433422 -0.1269994378 -0.1892312467 1.680036207e-38
-0.1046231538 -0.4773192108 0.440148592 1.698367293e-38
0.2042355388 -0.08711743355 -0.2012323141 1.698367293e-38
-0.0377237387 -0.4054093957 -0.08529132605 1.698367293e-38
0.1929132193 -0.4742881656 -0.02547065914 1.698367293e-38
0.1710163802 -0.1170289516 -0.192231521 1.698367293e-38
0.09519091994 -0.4436640441 0.2388681024 1.698367293e-38
0.1488703042 -0.1369699538 -0.1862309873 1.698367293e-38
0.02456878871 -0.2282852232 -0.1573593616 1.698367293e-38
0.2380314618 -0.3650464118 0.31149441 1.716698239e-38
0.05584143847 -0.7627388239 0.08449310064 1.716698239e-38
0.1078927368 -0.7655720711 0.1262801886 1.716698239e-38
0.1733976305 -0.5064066648 0.005358293653 1.716698239e-38
0.04205507785 -0.3568072319 -0.128440246 1.716698239e-38
0.159252584 -0.1255007684 -0.2006126344 1.716698239e-38
0.2417785227 -0.3925868273 0.3176913559 1.716698239e-38
0.01346083917 -0.7808869481 0.2020455003 1.716698239e-38
0.1072019786 -0.7640733719 0.1148988008 1.735029324e-38
0.0518790856 -0.3376565874 -0.133506164 1.735029324e-38
0.2035447806 -0.08561876416 -0.2126137018 1.735029324e-38
0.06045407802 -0.3093257844 -0.1406377256 1.735029324e-38
0.1229779124 -0.7707763314 0.1708711684 1.735029324e-38
0.2307054847 -0.4025573134 0.3206916153 1.735029324e-38
0.05851429701 -0.2986469865 -0.1540847719 1.735029324e-38
0.0617031008 -0.318505913 -0.1385720819 1.735029324e-38
0.08048558235 -0.7611581087 0.08262386918 1.75336041e-38
0.2196296155 -0.4772034287 0.006804272532 1.75336041e-38
0.06101233512 -0.3170072436 -0.1499534696 1.75336041e-38
0.2054845542 -0.09629756212 -0.1991666704 1.75336041e-38
0.08049226552 -0.186114192 -0.1816764325 1.75336041e-38
0.007934718393 -0.7688976526 0.1109943092 1.75336041e-38
0.1371065229 -0.1454418004 -0.1946121007 1.75336041e-38
-0.01649898849 -0.3868007958 -0.1289515942 1.75336041e-38
-0.07616953552 -0.4014314413 -0.1108314842 1.771655483e-38
0.1339184493 -0.7669886351 0.1471737623 1.771655483e-38
0.1346092075 -0.7684873343 0.15855515 1.771655483e-38
-0.03302088752 -0.422082901 -0.02631868422 1.771655483e-38
0.1332276762 -0.7654899955 0.1357924044 1.771655483e-38
0.1236686856 -0.772274971 0.1822525263 1.771655483e-38
0.04213785008 -0.7605319023 0.06266489625 1.771655483e-38
0.04602408409 -0.2068455517 -0.1747412831 1.771655483e-38
0.247727558 -0.4831160307 0.06184202433 1.789986569e-38
0.132536903 -0.7639913559 0.1244109571 1.789986569e-38
0.1611923575 -0.1361795962 -0.187165603 1.789986569e-38
-0.03440241888 -0.4190855622 -0.04908148199 1.789986569e-38
0.2431600541 -0.3955841362 0.3404541314 1.789986569e-38
0.1359907389 -0.7714846134 0.1813179255 1.789986569e-38
0.06902907789 -0.2809950113 -0.1477693021 1.789986569e-38
0.06351037323 -0.3353675604 -0.1458221674 1.789986569e-38
0.07083635032 -0.2978566289 -0.1550193876 1.808317654e-38
0.1318461448 -0.7624926567 0.1130295694 1.808317654e-38
0.07333438843 -0.316216886 -0.1508880854 1.808317654e-38
0.1715746373 -0.1247104183 -0.2015472502 1.808317654e-38
0.008835915476 -0.38671875 -0.119439438 1.808317654e-38
0.001138756052 -0.7816773057 0.2029801309 1.808317654e-38
0.03223100305 -0.3759578764 -0.1233743131 1.808317654e-38
0.2399758399 -0.5067626238 0.1010521501 1.808317654e-38
-0.01325559244 -0.7779716849 0.1697705388 1.826612727e-38
-0.06453821063 -0.3991424143 -0.1231474876 1.826612727e-38
0.193720758 -0.1047694162 -0.2075477839 1.826612727e-38
-0.03509318456 -0.417586863 -0.06046286598 1.826612727e-38
0.03620007634 -0.2259961963 -0.1696753651 1.826612727e-38
0.0654501617 -0.3460463881 -0.1323751211 1.826612727e-38
0.1857196838 -0.5056163073 0.004423692822 1.826612727e-38
0.05947377905 -0.4552152753 0.2437375933 1.826612727e-38
0.1955511272 -0.5528275371 0.09235604107 1.844943813e-38
0.1785188019 -0.4705825448 -0.05868025124 1.844943813e-38
0.2178066075 -0.09550720453 -0.2001012862 1.844943813e-38
0.09810733795 -0.4095267057 0.1199882179 1.844943813e-38
0.06475939602 -0.3445477188 -0.1437565088 1.844943813e-38
0.1845874488 -0.1254187226 -0.1911004782 1.844943813e-38
0.1956605464 -0.1154482216 -0.1941007525 1.844943813e-38
0.1547216028 -0.3688543439 0.1070525348 1.844943813e-38
0.05131711066 -0.4310484529 0.1278579831 1.863274899e-38
-0.01601865515 -0.7719770074 0.1242449284 1.863274899e-38
0.0518085584 -0.7815132141 0.2220044434 1.863274899e-38
0.2288796306 -0.08553671092 -0.2031015456 1.863274899e-38
0.191531688 -0.4712908268 -0.04823347926 1.863274899e-38
0.1571810097 -0.7624106407 0.1225417256 1.863274899e-38
0.08384916931 -0.2985649407 -0.1445726007 1.863274899e-38
0.1674457639 -0.480553031 -0.05567998439 1.863274899e-38
0.08260014653 -0.2893847823 -0.1466382593 1.881569971e-38
0.075832434 -0.334577173 -0.1467567831 1.881569971e-38
0.1564902514 -0.7609119415 0.1111603379 1.881569971e-38
-0.039894104 -0.3975616693 -0.1250167191 1.881569971e-38
0.005862422287 -0.7644016743 0.07685011625 1.881569971e-38
-0.02688125707 -0.3982699811 -0.1145699471 1.881569971e-38
-0.0167094171 -0.7704783678 0.1128635705 1.881569971e-38
0.06669918448 -0.3552265167 -0.1303094774 1.881569971e-38
0.06540046632 -0.7559537888 0.03803288937 1.899901057e-38
0.2456552535 -0.4786200225 0.02769786119 1.899901057e-38
0.06778005511 -0.271814853 -0.1498349458 1.899901057e-38
0.06028593332 -0.2167339921 -0.1622288525 1.899901057e-38
0.178256616 -0.4182725251 0.2168131024 1.899901057e-38
0.08759623021 -0.3261053562 -0.1383756548 1.899901057e-38
0.2060428113 -0.1039790586 -0.2084823996 1.899901057e-38
0.0813511312 -0.2802046537 -0.148703903 1.899901057e-38
0.01680294983 -0.7606139183 0.05315274 1.91819627e-38
0.1852790117 -0.7683231831 0.1775794625 1.91819627e-38
0.2643503249 -0.3865101039 0.2816779315 1.91819627e-38
0.1850289255 -0.5041176081 -0.006957694888 1.91819627e-38
0.02046720311 -0.384429723 -0.1317554563 1.91819627e-38
0.08703424782 -0.4194972217 0.1229884923 1.91819627e-38
0.02785518765 -0.7845926285 0.2352550626 1.91819627e-38
-0.02557767555 -0.7787620425 0.1707051396 1.91819627e-38
0.1559706181 -0.3780344725 0.1091181785 1.936527215e-38
0.1728236526 -0.1338905692 -0.1994815916 1.936527215e-38
0.2392619252 -0.07406752557 -0.2174831927 1.936527215e-38
0.1844781041 -0.5627980232 0.09535630047 1.936527215e-38
0.2190556228 -0.1046873629 -0.1980356276 1.936527215e-38
0.2301286459 -0.09471684694 -0.201035887 1.936527215e-38
0.2078732401 -0.5520371199 0.09142141044 1.936527215e-38
0.08066036552 -0.2787059844 -0.1600852907 1.936527215e-38
0.1859697849 -0.7698218822 0.1889609098 1.954822428e-38
-0.0145592019 -0.3974796236 -0.1155045629 1.954822428e-38
0.1402953118 -0.1653007418 -0.1790994108 1.954822428e-38
0.05493538082 -0.3636983335 -0.1386906058 1.954822428e-38
0.0887747556 -0.7791421413 0.2192005813 1.954822428e-38
0.1832067221 -0.7638272047 0.1434352994 1.954822428e-38
0.0523876138 -0.7552455068 0.02758611739 1.954822428e-38
0.1290830821 -0.7564979792 0.06750395894 1.954822428e-38
0.06153494865 -0.2259141505 -0.1601632088 1.973153514e-38
0.1506775916 -0.1538315862 -0.1934810728 1.973153514e-38
0.1030573845 -0.7550814152 0.04661042988 1.973153514e-38
0.09406334162 -0.194503963 -0.1805453897 1.973153514e-38
0.0949222669 -0.2885944247 -0.147572875 1.973153514e-38
0.2678041458 -0.3940034211 0.3385848999 1.973153514e-38
0.07902123779 -0.3544361591 -0.1312440932 1.973153514e-38
0.1496943235 -0.7736916542 0.2031461298 1.973153514e-38
-0.002237116918 -0.396689266 -0.1164391786 1.991448586e-38
0.2294378877 -0.09321817756 -0.2124172747 1.991448586e-38
0.1818251908 -0.7608299255 0.1206724942 1.991448586e-38
-0.02419614792 -0.7817593813 0.1934679151 1.991448586e-38
0.1901501566 -0.468293488 -0.07099625468 1.991448586e-38
0.2183648646 -0.1031886935 -0.2094170153 1.991448586e-38
-0.03177187219 -0.4312630296 -0.02425304055 1.991448586e-38
0.07833047211 -0.3529374897 -0.1426254809 1.991448586e-38
0.1743384302 -0.772110939 0.2012768984 2.009743799e-38
-0.007150424644 -0.7636933327 0.06640335917 2.009743799e-38
0.07714346051 -0.7814311385 0.2315165997 2.009743799e-38
0.08010210842 -0.2710244954 -0.1507695615 2.009743799e-38
0.03937479109 -0.7545372248 0.0171393007 2.009743799e-38
0.07260798663 -0.2159436345 -0.1631634682 2.009743799e-38
0.101167351 -0.3344951272 -0.1372446269 2.009743799e-38
0.1968001574 -0.5620076656 0.09442169964 2.009743799e-38
0.1257409751 -0.776771009 0.216396749 2.028074885e-38
-0.03789973259 -0.7795524001 0.1716397703 2.028074885e-38
-0.03315340355 -0.4282656908 -0.04701583833 2.028074885e-38
0.05687516928 -0.3743771613 -0.1252435446 2.028074885e-38
0.2424507141 -0.0939264819 -0.2019705027 2.028074885e-38
-0.02350538224 -0.7832580209 0.2048493624 2.028074885e-38
0.2298793793 -0.4719170928 -0.02827449143 2.028074885e-38
0.1174584329 -0.1837430894 -0.1844802648 2.028074885e-38
-0.007841188461 -0.7621946335 0.05502197146 2.046369957e-38
0.2794354558 -0.3917143941 0.3262689114 2.046369957e-38
0.1084933281 -0.2969841957 -0.1464418322 2.046369957e-38
0.1004765928 -0.3329964578 -0.1486260146 2.046369957e-38
0.01473065466 -0.7561179399 0.01900853217 2.046369957e-38
-0.04061930254 -0.4055975676 -0.1515140235 2.046369957e-38
-0.03384416923 -0.4267669916 -0.05839722231 2.046369957e-38
0.1653734744 -0.4760570228 -0.08982419223 2.046369957e-38
0.1024163812 -0.3436752856 -0.1351789683 2.06466517e-38
0.1146887392 -0.7527923584 0.03429442644 2.06466517e-38
0.1870854944 -0.1437790096 -0.1869691759 2.06466517e-38
0.2572866082 -0.4763309956 0.01538181305 2.06466517e-38
0.06334222853 -0.242775768 -0.1674132943 2.06466517e-38
0.2417599559 -0.09242781997 -0.2133518904 2.06466517e-38
0.07816231996 -0.2603456974 -0.1642166078 2.06466517e-38
0.1941472441 -0.7600395083 0.1197378635 2.06466517e-38
-0.0475477837 -0.42456007 -0.08022540808 2.082996116e-38
0.2024722099 -0.4675031304 -0.07193086296 2.082996116e-38
0.1795056462 -0.4274526834 0.218878746 2.082996116e-38
0.02636194415 -0.7538288832 0.006692528725 2.082996116e-38
0.1887686253 -0.4652961493 -0.09375907481 2.082996116e-38
0.09531235695 -0.2036841214 -0.1784797311 2.082996116e-38
0.2326267064 -0.1130771339 -0.1969045848 2.082996116e-38
-0.03651820496 -0.7825497389 0.1944025457 2.082996116e-38
0.2291886061 -0.4704183936 -0.03965593874 2.101291328e-38
0.2665597796 -0.5158607364 0.1126299649 2.101291328e-38
0.2799629867 -0.3078570962 0.04978888854 2.101291328e-38
-0.04204432294 -0.7705603838 0.1033514142 2.101291328e-38
0.2716809511 -0.4800366461 0.04859140515 2.101291328e-38
0.2756930292 -0.4952114224 0.09618265927 2.101291328e-38
0.2910667956 -0.3894253671 0.313952893 2.101291328e-38
0.1270107925 -0.7520020008 0.03335981071 2.101291328e-38
0.07635504752 -0.2434840798 -0.1569665223 2.119586541e-38
0.1065535545 -0.2863053977 -0.1598888785 2.119586541e-38
0.1649394184 -0.1637200266 -0.1809686422 2.119586541e-38
0.06919722259 -0.3735868037 -0.1261781603 2.119586541e-38
0.1009850949 -0.7505854368 0.01246622205 2.119586541e-38
0.1863947362 -0.1422803402 -0.1983505636 2.119586541e-38
0.2017814368 -0.4660044611 -0.08331225067 2.119586541e-38
-0.04892931506 -0.4215627313 -0.1029881984 2.119586541e-38
0.2111945599 -0.5657132864 0.1276312917 2.137881613e-38
0.03799325973 -0.751539886 -0.005623474717 2.137881613e-38
0.2222451717 -0.7659521103 0.1747756302 2.137881613e-38
0.1753216982 -0.1522508562 -0.1953502893 2.137881613e-38
0.1208153814 -0.2961938381 -0.1473764479 2.137881613e-38
0.2319359481 -0.111578472 -0.2082859725 2.137881613e-38
0.02567118034 -0.7523302436 -0.004688858986 2.137881613e-38
0.1226226687 -0.3130554557 -0.1546265483 2.137881613e-38
0.07495945692 -0.7491688132 -0.008427321911 2.156176826e-38
-0.02154476941 -0.7599877119 0.03319381177 2.156176826e-38
0.1880778521 -0.4637975097 -0.1051404625 2.156176826e-38
-0.02212385088 -0.7862553596 0.2276121378 2.156176826e-38
-0.02223553881 -0.7584890127 0.02181236446 2.156176826e-38
0.2338757217 -0.1222572774 -0.1948389411 2.156176826e-38
0.2449487746 -0.1122867763 -0.1978392005 2.156176826e-38
0.2097898722 -0.1315194815 -0.2022854388 2.156176826e-38
0.2769420445 -0.504391551 0.09824828804 2.174471899e-38
0.2696086764 -0.475540638 0.01444719732 2.174471899e-38
0.06194663793 -0.7484605312 -0.01887409389 2.174471899e-38
0.2057785243 -0.7577505112 0.107421875 2.174471899e-38
0.2201728821 -0.7614561319 0.1406314671 2.174471899e-38
0.2415106595 -0.469628036 -0.04059055448 2.174471899e-38
0.2805212438 -0.3155385256 0.04047315195 2.174471899e-38
0.02498041466 -0.750831604 -0.0160702467 2.174471899e-38
0.234567225 -0.7651617527 0.1738409996 2.192767111e-38
0.1256292611 -0.749004662 0.01059699059 2.192767111e-38
0.08742814511 -0.2335135639 -0.1599667817 2.192767111e-38
0.2338764668 -0.7636630535 0.1624596417 2.192767111e-38
0.1421025991 -0.1821623743 -0.1863494962 2.192767111e-38
0.08867716044 -0.2426936924 -0.1579011381 2.192767111e-38
0.3549911082 -0.3524270058 0.2106523216 2.192767111e-38
0.1183173358 -0.2778335512 -0.1515077502 2.192767111e-38
-0.04353569821 -0.4397348762 -0.03263415024 2.211062324e-38
0.1336957067 -0.3030849397 -0.1576268077 2.211062324e-38
0.1349447221 -0.3122650981 -0.155561164 2.211062324e-38
0.2117296457 -0.1421982795 -0.1888384074 2.211062324e-38
0.255331099 -0.1008176059 -0.2122208625 2.211062324e-38
0.1705020666 -0.5065947771 -0.06086441875 2.211062324e-38
0.1310295016 -0.1921328604 -0.1833492368 2.211062324e-38
0.1049144119 -0.3620355427 -0.131047681 2.211062324e-38
-0.0352483876 -0.7577806711 0.01136559248 2.229357396e-38
0.1381335258 -0.3321240544 -0.1400484592 2.229357396e-38
0.1361937523 -0.3214452565 -0.1534955055 2.229357396e-38
0.08798639476 -0.2411950231 -0.1692825258 2.229357396e-38
0.1551154107 -0.1828706712 -0.1759027243 2.229357396e-38
-0.03259514645 -0.4359471798 -0.05633156374 2.229357396e-38
0.1926482022 -0.486653775 -0.06686495245 2.229357396e-38
0.2408199012 -0.4681293666 -0.05197193474 2.229357396e-38
0.2187913507 -0.7584587932 0.1178686619 2.247652609e-38
0.1119256765 -0.7467976809 -0.0112311691 2.247652609e-38
0.2545235455 -0.4703363478 -0.03014373779 2.247652609e-38
-0.03593914956 -0.7562820911 -1.579523087e-05 2.247652609e-38
0.09384133667 -0.3720060885 -0.1280473918 2.247652609e-38
0.2572708726 -0.1114964038 -0.1987738162 2.247652609e-38
0.1028064936 -0.2587649524 -0.1660858393 2.247652609e-38
0.3025655746 -0.3933191597 0.280939728 2.247652609e-38
0.3121009469 -0.4851588905 0.1026945263 2.265947681e-38
0.1440423727 -0.1928411722 -0.1729024649 2.265947681e-38
0.06056510657 -0.7454631329 -0.04163691401 2.265947681e-38
0.314329356 -0.3848473132 0.2893209159 2.265947681e-38
0.1374427676 -0.330625385 -0.1514298469 2.265947681e-38
-0.05862267688 -0.7345924377 -0.1698021144 2.265947681e-38
0.04636039585 -0.3920291364 -0.1315590292 2.265947681e-38
-0.05516885594 -0.7420857549 -0.1128951311 2.265947681e-38
-0.03732067719 -0.7532846928 -0.02277855575 2.284242894e-38
0.09315057099 -0.3705074191 -0.1394287944 2.284242894e-38
0.08520922065 -0.7438824177 -0.04350614548 2.284242894e-38
-0.06000420824 -0.731595099 -0.1925649047 2.284242894e-38
0.0235988833 -0.7478342056 -0.03883306682 2.284242894e-38
0.211752817 -0.5733947754 0.1183155328 2.284242894e-38
0.1015574634 -0.2495848238 -0.1681514829 2.284242894e-38
0.1502733678 -0.7474239469 0.008727759123 2.284242894e-38
-0.05033350363 -0.7525764108 -0.03322538733 2.302537966e-38
0.13296929 -0.2028116882 -0.1699021906 2.302537966e-38
-0.03466744348 -0.4314512014 -0.0904757455 2.302537966e-38
0.2819307148 -0.4747502804 0.01351258159 2.302537966e-38
0.2970158458 -0.4799545705 0.0581035614 2.302537966e-38
0.2129786909 -0.1513784379 -0.1867727488 2.302537966e-38
0.2365248501 -0.4345937371 0.361032784 2.302537966e-38
0.1828241199 -0.5058044195 -0.06179903448 2.302537966e-38
0.2453930676 -0.4263100624 0.303191185 2.320833179e-38
-0.04491909221 -0.7367993593 -0.1479739249 2.320833179e-38
0.14601776 -0.3022945821 -0.1585614234 2.320833179e-38
-0.04077450186 -0.7457914352 -0.07968553901 2.320833179e-38
0.121896252 -0.2127822042 -0.1669019312 2.320833179e-38
0.03523020446 -0.7455452085 -0.05114907026 2.320833179e-38
0.2257347852 -0.4629250765 -0.09656291455 2.320833179e-38
0.05918357894 -0.7424658537 -0.06439968944 2.320833179e-38
0.2963250577 -0.4784559011 0.04672217369 2.339092378e-38
0.1727304906 -0.4062831998 0.1257619113 2.339092378e-38
0.2233609557 -0.1399092674 -0.2011544108 2.339092378e-38
0.1358790249 -0.7437183261 -0.02448177338 2.339092378e-38
0.2830192745 -0.3338988423 0.04460445419 2.339092378e-38
-0.02914318815 -0.7435023785 -0.0920015946 2.339092378e-38
0.07150563598 -0.7416754961 -0.06533430517 2.339092378e-38
0.115128547 -0.2579745948 -0.167020455 2.339092378e-38
-0.03328777477 -0.7345104218 -0.1602899581 2.348204041e-38
0.1703695655 -0.5127776265 -0.08156158775 2.348204041e-38
-0.06345804036 -0.7241017818 -0.2494718879 2.348204041e-38
0.2122879326 -0.1498797834 -0.1981541365 2.348204041e-38
0.3266514242 -0.3840569556 0.2883862853 2.348204041e-38
0.2956342995 -0.4769572616 0.03534078598 2.348204041e-38
-0.01820266247 -0.7397146821 -0.1156989783 2.348204041e-38
0.1797595173 -0.181289956 -0.1777719557 2.348204041e-38
-0.0483729206 -0.7293061018 -0.2048809081 2.348132155e-38
0.1932064444 -0.494335264 -0.07618068159 2.348132155e-38
0.1488918364 -0.7444266081 -0.0140350163 2.348132155e-38
0.1510138363 -0.3390151858 -0.1502988189 2.348132155e-38
0.2253007293 -0.1505880654 -0.1877073646 2.348132155e-38
-0.05251750723 -0.7203140855 -0.2731693089 2.348132155e-38
0.2146617472 -0.4728955626 -0.09356265515 2.348132155e-38
0.2661548555 -0.4680473208 -0.04245978594 2.348132155e-38
-0.003808284178 -0.7434203625 -0.0824893862 2.348060128e-38
-0.05113597587 -0.7233114243 -0.2504065037 2.348060128e-38
0.02152658999 -0.7433382273 -0.07297722995 2.348060128e-38
0.05780205131 -0.7394685149 -0.08716245741 2.348060128e-38
0.009204536676 -0.7441285849 -0.07204261422 2.348060128e-38
0.174917534 -0.7458432317 0.00685852766 2.348060128e-38
0.1281413585 -0.2586829066 -0.1565736681 2.348060128e-38
0.2571391165 -0.7590850592 0.1378276348 2.348060128e-38
0.3237322867 -0.4828698337 0.09037853777 2.347952368e-38
0.2031546682 -0.1705290675 -0.1817068458 2.347952368e-38
-0.02096572146 -0.7337200642 -0.1612245739 2.347952368e-38
0.3384152353 -0.375585109 0.2967674136 2.347952368e-38
0.1790687591 -0.1797913015 -0.1891533434 2.347952368e-38
0.03315790743 -0.7410492301 -0.08529322594 2.347952368e-38
-0.03674159944 -0.727017045 -0.2171969414 2.347952368e-38
-0.02925489843 -0.7157360315 -0.2978013158 2.347952368e-38
0.1963952631 -0.5141941905 -0.06066799909 2.347880341e-38
0.007823005319 -0.7411313057 -0.09480543435 2.347880341e-38
0.1529536247 -0.3496939838 -0.1368517727 2.347880341e-38
0.2517604828 -0.4643417001 -0.07566932589 2.347880341e-38
0.1274506003 -0.2571842372 -0.1679550558 2.347880341e-38
0.1576134562 -0.201230973 -0.171771422 2.347880341e-38
0.005750712939 -0.7366353273 -0.1289495826 2.347880341e-38
0.1679957211 -0.1897617877 -0.186153084 2.347880341e-38
0.20246391 -0.1690303981 -0.1930882335 2.347808455e-38
0.3366079628 -0.3587234914 0.304017514 2.347808455e-38
0.1713526845 -0.3022125363 -0.1490492672 2.347808455e-38
0.1810085326 -0.1904700994 -0.1757063121 2.347808455e-38
0.3079563677 -0.476166904 0.03440617025 2.347808455e-38
0.2269838005 -0.4721052051 -0.09449727088 2.347808455e-38
0.03177637607 -0.7380518913 -0.1080560461 2.347808455e-38
-0.02441954613 -0.7262266874 -0.2181315571 2.347808455e-38
0.2139559984 -0.7479681373 0.0381989032 2.347700555e-38
0.3256720603 -0.4935486615 0.1038255841 2.347700555e-38
0.1742491275 -0.5341352224 -0.05466745794 2.347700555e-38
0.005059946328 -0.7351366282 -0.1403310001 2.347700555e-38
0.2694611549 -0.7582947016 0.1368930042 2.347700555e-38
0.1262015849 -0.2480041087 -0.1700207144 2.347700555e-38
0.1937647015 -0.5020167232 -0.08549647778 2.347700555e-38
0.1552835703 -0.2754624784 -0.1543115973 2.347700555e-38
0.3223507702 -0.4798725247 0.06761571765 2.347628668e-38
0.1308075488 -0.3696349859 -0.1308512539 2.347628668e-38
0.2480050623 -0.1383285373 -0.2030236423 2.347628668e-38
0.3409132659 -0.3939453959 0.300898701 2.347628668e-38
0.08401732147 -0.391156733 -0.1229814738 2.347628668e-38
0.2503789365 -0.4613443613 -0.09843215346 2.347628668e-38
0.2044036835 -0.1797092259 -0.1796411872 2.347628668e-38
0.3072656095 -0.4746682346 0.02302479744 2.347628668e-38
0.1077810973 -0.7378057241 -0.07951953262 2.347520768e-38
0.1338067204 -0.7392222881 -0.05862598121 2.347520768e-38
0.14584966 -0.2097027898 -0.1801525503 2.347520768e-38
0.1706619263 -0.3007138669 -0.1604306549 2.347520768e-38
0.2136925906 -0.5840735435 0.1317625791 2.347520768e-38
0.03108561411 -0.7365531921 -0.1194374338 2.347520768e-38
0.3151572347 -0.5112006664 0.09751011431 2.347520768e-38
0.1874217987 -0.3289625943 -0.1437869221 2.347520768e-38
0.1397726536 -0.2563938797 -0.1688896716 2.347448882e-38
-0.01347899064 -0.7224390507 -0.2418289334 2.347448882e-38
0.05642051995 -0.7364711761 -0.1099252775 2.347448882e-38
0.3501790762 -0.3671132922 0.3051485419 2.347448882e-38
0.1201031506 -0.7370153666 -0.0804541409 2.347448882e-38
0.1889159232 -0.5918371081 0.1129346937 2.347448882e-38
0.2388718128 -0.1589778513 -0.1865763366 2.347448882e-38
0.1070903242 -0.736307025 -0.09090092033 2.347448882e-38
0.2152200043 -0.4805770814 -0.1028783917 2.347340982e-38
0.1694129109 -0.2915337384 -0.1624962986 2.347340982e-38
0.1331159621 -0.7377236485 -0.07000736892 2.347340982e-38
0.1692447513 -0.198941946 -0.1840874255 2.347340982e-38
0.2543760538 -0.7530903816 0.09230202436 2.347340982e-38
0.3353635967 -0.4805808365 0.07806253433 2.347340982e-38
0.2355690598 -0.4454607069 0.308257103 2.347340982e-38
0.1854820251 -0.3182837963 -0.1572339684 2.347340982e-38
0.1527855247 -0.2571021914 -0.1584428996 2.347269095e-38
0.1598323733 -0.7406389713 -0.03773239255 2.347269095e-38
0.1194123775 -0.7355166674 -0.09183552861 2.347269095e-38
0.2492541075 -0.1475086808 -0.2009579837 2.347269095e-38
0.2125744671 -0.7449707985 0.01543612778 2.347269095e-38
0.1926398277 -0.1881810725 -0.1880223155 2.347269095e-38
0.2536852956 -0.7515916824 0.08092063665 2.347269095e-38
0.2673888505 -0.7537987232 0.1027488112 2.347269095e-38
0.3490671515 -0.4827877879 0.09989069402 2.347161195e-38
0.1470986903 -0.2188829184 -0.1780869067 2.347161195e-38
0.2056526989 -0.1888893545 -0.1775755435 2.347161195e-38
0.1811766922 -0.2830618918 -0.1541151851 2.347161195e-38
0.2005472183 -0.589548111 0.1006186455 2.347161195e-38
0.251193881 -0.1581874788 -0.1875109524 2.347161195e-38
0.01461894251 -0.728351593 -0.1867911816 2.347161195e-38
0.137274608 -0.2380335927 -0.1730209738 2.347161195e-38
0.1858580559 -0.7420555353 -0.01683884859 2.347089308e-38
0.2401208282 -0.1681579798 -0.1845106781 2.347089308e-38
0.172176823 -0.5296392441 -0.08881166577 2.347089308e-38
0.2516279817 -0.4705244899 -0.09636650234 2.347089308e-38
0.2186900526 -0.3230837584 -0.007184655406 2.347089308e-38
0.2164690197 -0.48975721 -0.1008127332 2.347089308e-38
0.2009928674 -0.3373523951 -0.1426558793 2.347089308e-38
0.2049619406 -0.1873906851 -0.1889569312 2.347089308e-38
0.1057087928 -0.7333097458 -0.1136637405 2.346981408e-38
0.1947477758 -0.2914516628 -0.1529841423 2.346981408e-38
0.341471523 -0.4016268849 0.2915829718 2.346981408e-38
0.2118836939 -0.7434720993 0.004054695368 2.346981408e-38
0.266007334 -0.7508013248 0.07998603582 2.346981408e-38
0.0420261398 -0.7327655554 -0.1431348473 2.346981408e-38
0.1786786467 -0.2647016048 -0.1582464874 2.346981408e-38
0.2797109187 -0.753008306 0.1018141806 2.346981408e-38
0.1310436726 -0.7332276702 -0.1041515842 2.346909522e-38
0.1835065782 -0.2088303864 -0.1715750098 2.346909522e-38
0.2128693312 -0.5887577534 0.09968401492 2.346909522e-38
0.09269592166 -0.7326014042 -0.124110505 2.346909522e-38
0.1577600688 -0.7361429334 -0.07187660038 2.346909522e-38
0.1745377779 -0.4231448472 0.1185118258 2.346909522e-38
0.1741166264 -0.5403180122 -0.07536463439 2.346909522e-38
0.2524428964 -0.1673676223 -0.1854452938 2.346909522e-38
0.332600534 -0.474586159 0.03253693879 2.346801622e-38
0.1443786323 -0.3780247569 -0.129720211 2.346801622e-38
0.1981801093 -0.7412651777 -0.01777346432 2.346801622e-38
0.04467751831 -0.710993886 -0.3034089804 2.346801622e-38
0.228791073 -0.4889668524 -0.1017473489 2.346801622e-38
0.2111929357 -0.7419734597 -0.007326692343 2.346801622e-38
0.1975117624 -0.5295571685 -0.07929951698 2.346801622e-38
0.1707729548 -0.7368512154 -0.06142982841 2.346801622e-38
0.1173400879 -0.731020689 -0.1259797364 2.346693862e-38
0.1910007 -0.2639112473 -0.1591811031 2.346693862e-38
