# .PCD v0.7 - Point Cloud Data file format
VERSION 0.7
FIELDS x y z rgb
SIZE 4 4 4 4
TYPE F F F F
COUNT 1 1 1 1
WIDTH 833
HEIGHT 1
VIEWPOINT 0 0 0 1 0 0 0
POINTS 833
DATA ascii
0.1343699098 -0.7408286333 -0.04745902121 4.673152414e-39
0.3108653724 -0.04033792019 0.09067378938 4.673152414e-39
-0.144260034 -0.7417243719 -0.1521039456 4.673152414e-39
0.2918017805 -0.01997434348 -0.001498864498 4.673152414e-39
-0.299672544 -0.7347292304 -0.2660794556 4.673152414e-39
0.1908687949 -0.1808111817 -0.1222408116 4.673152414e-39
-0.3407213688 -0.7558467388 -0.1257957071 4.857539469e-39
0.2909920216 -0.0246626474 -0.03356534988 4.857539469e-39
0.2906927466 -0.07563967258 -0.1876835078 4.857539469e-39
0.1336833984 -0.7393318415 -0.05883830786 4.857539469e-39
0.1603864133 -0.7422440052 -0.02656652033 4.857539469e-39
0.3033137321 -0.02387355268 -0.03449840844 4.857539469e-39
-0.184657827 -0.7366079092 -0.2062012255 4.857539469e-39
0.3380431235 -0.1698452532 -0.1448167861 4.857539469e-39
0.1473781615 -0.7415363193 -0.03701274097 5.041567793e-39
0.1987246722 -0.7428702116 -0.00660713017 5.041567793e-39
-0.185225606 -0.1616838425 -0.2050701678 5.041567793e-39
-0.1552087367 -0.7455070019 -0.1284123063 5.041567793e-39
-0.3277130723 -0.7565543652 -0.1153494865 5.041567793e-39
0.117929101 -0.732637167 -0.1148017123 5.041567793e-39
-0.1572682858 -0.7410167456 -0.1625501662 5.041567793e-39
0.3015710115 -0.03943511099 -0.1193185374 5.041567793e-39
0.16103746 -0.7160099149 -0.2209475487 5.225597518e-39
0.2808222771 -0.7006351352 -0.2871745825 5.225597518e-39
0.292488277 -0.02147110179 0.009880416095 5.225597518e-39
-0.3619677424 -0.737177968 -0.272793442 5.225597518e-39
-0.2443346977 -0.1839864403 -0.1962620765 5.225597518e-39
-0.1545222253 -0.7470037937 -0.1170329899 5.225597518e-39
-0.2490125746 -0.7345663309 -0.2470531017 5.225597518e-39
-0.2866643071 -0.7354369164 -0.255633235 5.225597518e-39
0.3048099875 -0.02068200335 0.008947357535 5.409984573e-39
-0.3147048354 -0.7572621107 -0.104903236 5.409984573e-39
0.3004800081 -0.05180232972 0.1050575301 5.409984573e-39
-0.3989329934 -0.7395452261 -0.2699942589 5.409984573e-39
-0.07557974756 -0.145403415 -0.2155390829 5.409984573e-39
0.1980381608 -0.7413734198 -0.01798641682 5.409984573e-39
0.1193021312 -0.7356306911 -0.09204309434 5.409984573e-39
-0.336637795 -0.7370965481 -0.2632802725 5.409984573e-39
-0.1894279122 -0.7538613677 -0.08009598404 5.594012897e-39
-0.3742895126 -0.7379670739 -0.2718603909 5.594012897e-39
-0.2989860177 -0.7362259626 -0.2547001839 5.594012897e-39
0.2610198855 -0.7404214144 0.0001068562269 5.594012897e-39
0.3025743961 -0.06098375842 -0.1586215049 5.594012897e-39
0.3154245317 -0.0631853044 0.1289544851 5.594012897e-39
0.1850299239 -0.7406657934 -0.02843263745 5.594012897e-39
0.1186156198 -0.7341339588 -0.1034224331 5.594012897e-39
0.2103598863 -0.7405843735 -0.01891946793 5.77804122e-39
0.1819796413 -0.1890840828 -0.06441129744 5.77804122e-39
0.2938613296 -0.02446462214 0.03263897821 5.77804122e-39
-0.3420943618 -0.7528532147 -0.1485542953 5.77804122e-39
-0.1248666942 -0.1485597938 -0.2118068635 5.77804122e-39
0.3128017187 -0.05101323128 0.1041244715 5.77804122e-39
0.3040002584 -0.02537031099 -0.02311912738 5.77804122e-39
0.3010779321 -0.1722125411 -0.1420176178 5.77804122e-39
-0.1682170182 -0.7447993755 -0.1388585269 5.962428276e-39
-0.1689035296 -0.7433025837 -0.1502378285 5.962428276e-39
0.2764344215 -0.1737907231 -0.1401515007 5.962428276e-39
-0.3701704144 -0.7469476461 -0.2035846412 5.962428276e-39
0.2733415961 -0.7396323681 -0.0008261948824 5.962428276e-39
0.1843434125 -0.7391690016 -0.0398119241 5.962428276e-39
-0.3023831248 -0.7564729452 -0.1058362946 5.962428276e-39
-0.1962975562 -0.1716515124 -0.2020657063 5.962428276e-39
-0.2893748283 -0.7571806312 -0.09539007396 6.1464566e-39
-0.1798522174 -0.7470852137 -0.1265461743 6.1464566e-39
-0.2606477737 -0.736852169 -0.2347407639 6.1464566e-39
0.1391399801 -0.7235751748 -0.173564285 6.1464566e-39
-0.3605947495 -0.7401714325 -0.2500348687 6.1464566e-39
0.04763765261 -0.1375124156 -0.2248696685 6.1464566e-39
-0.298299551 -0.7377227545 -0.2433208674 6.1464566e-39
0.2815088034 -0.7021318674 -0.2757953107 6.1464566e-39
0.2923650444 -0.02765616775 -0.01080678962 6.330484923e-39
-0.179165706 -0.7485820055 -0.1151668727 6.330484923e-39
0.3147380352 -0.06168854609 0.1175752059 6.330484923e-39
0.1706486493 -0.7369645834 -0.06163747609 6.330484923e-39
0.3037009835 -0.07634733617 -0.1772372872 6.330484923e-39
-0.2729695439 -0.7376413345 -0.2338076979 6.330484923e-39
0.2842903137 -0.7358497381 -0.02451781929 6.330484923e-39
0.2161987573 -0.1807297468 -0.1127276495 6.330484923e-39
0.1959786117 -0.7368831635 -0.05212432146 6.514514648e-39
-0.2093013078 -0.738186121 -0.2043351084 6.514514648e-39
-0.1921739578 -0.7478743196 -0.1256131232 6.514514648e-39
0.3677609563 -0.6966081858 -0.2823266983 6.514514648e-39
0.1740456969 -0.7167176008 -0.2105013281 6.514514648e-39
-0.3030695915 -0.754976213 -0.1172156036 6.514514648e-39
-0.448805064 -0.2341153622 -0.1721144766 6.514514648e-39
0.3022575378 -0.04093187302 -0.1079392582 6.514514648e-39
0.3037537932 -0.0377403684 -0.06449347734 6.698542971e-39
-0.3455269337 -0.7453694344 -0.2054507583 6.698542971e-39
0.2925058305 -0.09250003099 -0.1949199885 6.698542971e-39
0.2706788182 -0.1324872077 -0.2395933121 6.698542971e-39
-0.2051822245 -0.7471666336 -0.1360593438 6.698542971e-39
0.2771209478 -0.1752874851 -0.1287722141 6.698542971e-39
-0.2058687359 -0.7456699014 -0.1474386603 6.698542971e-39
0.1692756265 -0.7339710593 -0.08439604193 6.698542971e-39
0.1802243143 -0.7301884294 -0.1080877185 6.882571295e-39
0.28497684 -0.73734653 -0.01313853264 6.882571295e-39
-0.2976130247 -0.7392194867 -0.2319415808 6.882571295e-39
0.2182583064 -0.1852200329 -0.07858975232 6.882571295e-39
-0.3051291704 -0.7504858971 -0.1513534784 6.882571295e-39
0.1809108406 -0.7316851616 -0.09670837969 6.882571295e-39
0.3017297983 -0.06098087505 0.1071289256 6.882571295e-39
0.2919425368 -0.08481824398 -0.1856121123 6.882571295e-39
0.2326396555 -0.1889212132 -0.04538491741 7.066599618e-39
0.1822838634 -0.7346787453 -0.07394981384 7.066599618e-39
0.2863498926 -0.740340054 0.009620085359 7.066599618e-39
-0.3195104599 -0.7467847466 -0.1845582873 7.066599618e-39
0.3394161463 -0.1728387624 -0.1220582277 7.066599618e-39
-0.3044426441 -0.7519826889 -0.1399741918 7.066599618e-39
-0.2517231107 -0.7563101053 -0.08680997044 7.066599618e-39
-0.2846047282 -0.7399271727 -0.2214953303 7.066599618e-39
0.2945525646 -0.7305703759 -0.05958878994 7.250627941e-39
0.2922418416 -0.03384120017 -0.03149395064 7.250627941e-39
0.2959256172 -0.7335639 -0.03683017194 7.250627941e-39
0.3314822316 -0.7004722357 -0.2681482434 7.250627941e-39
-0.2818586826 -0.7459142208 -0.1759781837 7.250627941e-39
-0.06200818717 -0.1537928581 -0.2144007534 7.250627941e-39
-0.2592747808 -0.7398457527 -0.2119821608 7.250627941e-39
0.3081193268 -0.03435087949 0.04515661299 7.250627941e-39
0.2954455018 -0.1247239858 -0.2207722664 7.434656265e-39
-0.1482603699 -0.1593165398 -0.207869336 7.434656265e-39
0.3107421696 -0.04652295262 0.06998662651 7.434656265e-39
0.292118609 -0.04002622515 -0.05218113586 7.434656265e-39
-0.252409637 -0.7548133135 -0.09818924963 7.434656265e-39
0.3186106682 -0.08303918689 0.1444765776 7.434656265e-39
-0.2462664992 -0.7405533791 -0.2015359402 7.434656265e-39
-0.2455800027 -0.7420501709 -0.1901566386 7.434656265e-39
0.2678495049 -0.7276582718 -0.09186050296 7.618684588e-39
0.3029440343 -0.04242863506 -0.09655994922 7.618684588e-39
-0.2558422089 -0.7473295331 -0.1550857127 7.618684588e-39
0.2943189144 -0.1093603894 -0.2021564841 7.618684588e-39
-0.2442069799 -0.7450436354 -0.1673980504 7.618684588e-39
0.306640625 -0.108571291 -0.2030895501 7.618684588e-39
0.3088937998 -0.1392984986 -0.2403210849 7.618684588e-39
-0.2661044002 -0.7526088953 -0.1200147793 7.618684588e-39
0.073530972 -0.1451127827 -0.2246643901 7.802712912e-39
0.306746304 -0.03135735914 0.02239805087 7.802712912e-39
0.3052500784 -0.03454886377 -0.02104772627 7.802712912e-39
-0.2530961633 -0.7533165812 -0.1095685288 7.802712912e-39
0.3068742752 -0.72978127 -0.06052184105 7.802712912e-39
0.3055140376 -0.09320769459 -0.1844737679 7.802712912e-39
0.2719286084 -0.1416657865 -0.2375219017 7.802712912e-39
0.1788512915 -0.7271949053 -0.1308462769 7.802712912e-39
0.3100556731 -0.04502619058 0.05860735103 7.986382503e-39
0.2538505197 -0.179859221 -0.1041474938 7.986382503e-39
0.2926290631 -0.08631499857 -0.1742328256 7.986382503e-39
-0.2421474308 -0.7495339513 -0.1332601756 7.986382503e-39
-0.3268374503 -0.2170458138 -0.1835164577 7.986382503e-39
-0.2307631522 -0.1923758984 -0.1951237321 7.986382503e-39
-0.25378263 -0.751819849 -0.1209478378 7.986382503e-39
0.2784939706 -0.1782810092 -0.1060136035 7.986382503e-39
0.3056024313 -0.0823315233 0.134030357 8.170410826e-39
0.1877404451 -0.718922019 -0.188675791 8.170410826e-39
0.1774782687 -0.7242013812 -0.1536048651 8.170410826e-39
0.3029795885 -0.07015942782 0.1092003286 8.170410826e-39
0.2970474362 -0.04431852326 0.04816107079 8.170410826e-39
-0.3748746216 -0.2293807864 -0.177712813 8.170410826e-39
0.01192227006 -0.1490582675 -0.2199990898 8.170410826e-39
0.2349633873 -0.1440330744 -0.2347227335 8.170410826e-39
0.2812400162 -0.1842680573 -0.06049647927 8.35443915e-39
0.3119919598 -0.05570150167 0.07205802947 8.35443915e-39
0.3066231012 -0.03754238784 0.001710890327 8.35443915e-39
-0.1593323052 -0.1692842096 -0.2048648745 8.35443915e-39
0.307890445 -0.11774984 -0.2010181397 8.35443915e-39
0.3103068471 -0.7372650504 -0.003625378013 8.35443915e-39
0.2805535197 -0.1827712953 -0.07187576592 8.35443915e-39
0.2791804671 -0.1797777712 -0.09463432431 8.35443915e-39
0.2916257083 -0.06476637721 -0.1349298507 8.538467473e-39
0.2794847488 -0.7253724337 -0.1041728407 8.538467473e-39
0.3022930622 -0.06866266578 0.09782104939 8.538467473e-39
-0.3625528812 -0.2285916805 -0.178645879 8.538467473e-39
0.3038239777 -0.1781995893 -0.09650044143 8.538467473e-39
0.3161457181 -0.1774104834 -0.09743349999 8.538467473e-39
0.2938788533 -0.09549355507 -0.1721614301 8.538467473e-39
0.3205690384 -0.7319856882 -0.03869627416 8.538467473e-39
0.3049159348 -0.08083476126 0.1226510704 8.722137064e-39
0.2978218794 -0.1492661387 -0.2373166233 8.722137064e-39
0.3113054633 -0.05420473963 0.060678754 8.722137064e-39
0.3064998686 -0.04372741282 -0.01897632517 8.722137064e-39
-0.1470105648 -0.1684951186 -0.2057979405 8.722137064e-39
0.2021217197 -0.722623229 -0.1554709822 8.722137064e-39
0.2596113384 -0.7096971273 -0.2284120023 8.722137064e-39
0.260856688 -0.1516334265 -0.2345174551 8.722137064e-39
0.2982972264 -0.05349707231 0.05023247376 8.906165387e-39
0.3291539848 -0.1781181395 -0.0869872719 8.906165387e-39
0.3063766062 -0.04991244152 -0.03966348246 8.906165387e-39
-0.4955924153 -0.255628854 -0.1642394364 8.906165387e-39
0.3305270076 -0.1811116636 -0.06422871351 8.906165387e-39
0.2917489111 -0.05858132988 -0.1142426729 8.906165387e-39
0.06245899573 -0.1550804526 -0.2216599137 8.906165387e-39
0.3085769713 -0.1192466021 -0.1896388382 8.906165387e-39
-0.1704042554 -0.1792518646 -0.201860413 9.089834978e-39
0.3108300865 -0.1499738097 -0.2268704027 9.089834978e-39
0.3335773349 -0.7326933742 -0.02825005352 9.089834978e-39
0.2781116962 -0.7223789096 -0.1269314587 9.089834978e-39
0.3046339452 -0.06547404081 -0.1244836301 9.089834978e-39
-0.1100453585 -0.1661278158 -0.2085971087 9.089834978e-39
-0.01147144008 -0.1598150432 -0.2160615772 9.089834978e-39
0.3178229928 -0.7259986401 -0.084213458 9.089834978e-39
0.2520952225 -0.7209635973 -0.1478239 9.273863302e-39
0.2238914371 -0.1540007293 -0.231718272 9.273863302e-39
0.02549380064 -0.1574477404 -0.2188607454 9.273863302e-39
0.2486626357 -0.7134797573 -0.204720363 9.273863302e-39
0.331517756 -0.7282030582 -0.06238795817 9.273863302e-39
0.3698205352 -0.7010985017 -0.2481888533 9.273863302e-39
0.2115697116 -0.1547898203 -0.2307852209 9.273863302e-39
0.286749959 -0.1592337787 -0.2343121618 9.273863302e-39
-0.1580825001 -0.1784627587 -0.202793479 9.457532893e-39
-0.4709489346 -0.2540506423 -0.1661055535 9.457532893e-39
0.3465855122 -0.7334010601 -0.01780383289 9.457532893e-39
0.3118687272 -0.06188652292 0.05137081817 9.457532893e-39
0.4051280916 -0.1932834685 0.1153273731 9.457532893e-39
0.3828642964 -0.7295370102 -0.03198228776 9.457532893e-39
0.3021698594 -0.07484772056 0.07713389397 9.457532893e-39
0.2988605201 -0.06117885932 0.04092459381 9.457532893e-39
0.2929987311 -0.06775990129 -0.11217127 9.641561216e-39
0.2946886122 -0.09080528468 -0.140094921 9.641561216e-39
0.2974874675 -0.0581853427 0.01816602983 9.641561216e-39
0.3581852913 -0.7033843398 -0.2358764708 9.641561216e-39
0.2966777682 -0.06287362427 -0.01390046068 9.641561216e-39
0.3014833629 -0.07335095853 0.06575461477 9.641561216e-39
0.3705070019 -0.7025952339 -0.2368095368 9.641561216e-39
0.3294582367 -0.7237128019 -0.09652579576 9.641561216e-39
0.3342282772 -0.7064592838 -0.2226310819 9.825230807e-39
0.3007968366 -0.07185418904 0.05437527969 9.825230807e-39
0.2981915474 -0.1307110339 -0.17525509 9.825230807e-39
0.2746791244 -0.7148951292 -0.1838279217 9.825230807e-39
0.2870009542 -0.7141059637 -0.1847609878 9.825230807e-39
0.2753656507 -0.7163918614 -0.1724486053 9.825230807e-39
0.2965016961 -0.1076656431 -0.1473314315 9.825230807e-39
0.3099499941 -0.1222401261 -0.1668802798 9.825230807e-39
0.1758542657 -0.1663356721 -0.2259146422 1.000925913e-38
0.3280851841 -0.7207192779 -0.1192844138 1.000925913e-38
0.2876874208 -0.7156027555 -0.1733816713 1.000925913e-38
0.0390653424 -0.1658371985 -0.217722401 1.000925913e-38
0.3000091314 -0.7148136497 -0.1743147373 1.000925913e-38
-0.4339837134 -0.2516833544 -0.1689047217 1.000925913e-38
0.3071335554 -0.08383113891 -0.1203408316 1.000925913e-38
0.2972410321 -0.07055541873 -0.02320834063 1.000925913e-38
0.3130174279 -0.7155213356 -0.1638685018 1.019292872e-38
-0.01022163779 -0.1689935923 -0.2139901668 1.019292872e-38
0.2979275584 -0.07205217332 -0.01182905957 1.019292872e-38
-0.4943426251 -0.2648074329 -0.162168026 1.019292872e-38
0.3595582843 -0.7063778639 -0.2131178826 1.019292872e-38
-0.07183033973 -0.172939077 -0.2093248814 1.019292872e-38
0.3718800545 -0.7055888176 -0.2140509486 1.019292872e-38
0.2971882224 -0.1091624051 -0.1359521151 1.019292872e-38
0.1265672892 -0.1694920659 -0.222182408 1.037659831e-38
0.3128896356 -0.1544640809 -0.1927325279 1.037659831e-38
0.3479231 -0.708663702 -0.2008055449 1.037659831e-38
0.3089466095 -0.1006914973 -0.1275773048 1.037659831e-38
0.3369743228 -0.712446332 -0.1771139055 1.037659831e-38
0.3390339017 -0.7169366479 -0.1429760307 1.037659831e-38
0.2978043258 -0.0782372281 -0.032516215 1.037659831e-38
0.3671099544 -0.7228422165 -0.08794568479 1.037659831e-38
0.3134529293 -0.1621458828 -0.2020404041 1.056062664e-38
0.3725665808 -0.7070855498 -0.202671662 1.056062664e-38
0.3527287245 -0.7191410661 -0.1211505309 1.056062664e-38
0.2963080704 -0.08142873645 -0.07596199214 1.056062664e-38
0.2017475814 -0.1739360392 -0.2257093489 1.056062664e-38
0.2991773784 -0.08123074472 -0.009757654741 1.056062664e-38
0.311499089 -0.08044165373 -0.01069071144 1.056062664e-38
0.3107597232 -0.1175518632 -0.1348137707 1.056062664e-38
0.2769278288 -0.1783799976 -0.2292363048 1.074429623e-38
0.2961848676 -0.08761376143 -0.09664918482 1.074429623e-38
0.05263686553 -0.1742266417 -0.2165840566 1.074429623e-38
0.2998638749 -0.08272750676 0.001621626783 1.074429623e-38
0.3135761619 -0.155960843 -0.1813532263 1.074429623e-38
0.3506691456 -0.7146507502 -0.1552883685 1.074429623e-38
0.3100028038 -0.08363315463 -0.05413645878 1.074429623e-38
0.2646061182 -0.1791691035 -0.2283032387 1.074429623e-38
0.3090698421 -0.09450647235 -0.1068901122 1.092796582e-38
0.3657369614 -0.719848752 -0.1107042506 1.092796582e-38
-0.03361529112 -0.1797503233 -0.2100526541 1.092796582e-38
0.3091930747 -0.08832142502 -0.08620293438 1.092796582e-38
-0.2516572475 -0.2214897871 -0.1870433986 1.092796582e-38
-0.2159418017 -0.2099439204 -0.1919139773 1.092796582e-38
0.2982444167 -0.09210404009 -0.06251130998 1.092796582e-38
0.3097563684 -0.09600323439 -0.09551083297 1.092796582e-38
0.2979979217 -0.1044741198 -0.1038856581 1.111163541e-38
0.3147027194 -0.1713244468 -0.1999690086 1.111163541e-38
0.3629908562 -0.7138617039 -0.1562214196 1.111163541e-38
0.4001992643 -0.1889911592 0.01498513669 1.111163541e-38
0.01567167789 -0.1765939444 -0.2137848884 1.111163541e-38
-0.2873726487 -0.233035624 -0.18217282 1.111163541e-38
0.3011136651 -0.09190605581 0.003693028819 1.111163541e-38
0.3136993945 -0.149775818 -0.1606660634 1.111163541e-38
0.3131361008 -0.1420940161 -0.1513581574 1.1295305e-38
-0.132189244 -0.1860631108 -0.2025881857 1.1295305e-38
0.2276408672 -0.1815363914 -0.2255040705 1.1295305e-38
0.3029443324 -0.1797953248 -0.2083438486 1.1295305e-38
0.09085191786 -0.1810379177 -0.2173118293 1.1295305e-38
0.376685679 -0.7160661221 -0.1343959272 1.1295305e-38
0.3110061586 -0.1051817834 -0.09343943 1.1295305e-38
0.3753126264 -0.713072598 -0.1571544856 1.1295305e-38
0.2994942069 -0.1012826115 -0.06043990329 1.147897319e-38
0.3139986992 -0.09879875183 -0.006547907833 1.147897319e-38
-0.1555828899 -0.1968199015 -0.198650673 1.147897319e-38
-0.395768702 -0.2584946454 -0.1696324944 1.147897319e-38
0.312502414 -0.1019902825 -0.04999365285 1.147897319e-38
0.3159525394 -0.1805029958 -0.1978975981 1.147897319e-38
-0.3354097903 -0.2453705668 -0.1763691902 1.147897319e-38
0.1660321355 -0.185481891 -0.2208387703 1.147897319e-38
0.3123791814 -0.1081753075 -0.0706808418 1.166264278e-38
0.3155124784 -0.166636169 -0.1679025441 1.166264278e-38
0.2412123978 -0.1899258792 -0.2243657112 1.166264278e-38
0.3226416409 -0.2402626276 -0.2175356448 1.166264278e-38
0.2288906574 -0.1907149851 -0.2234326601 1.166264278e-38
0.3115697205 -0.2502302825 -0.2145311832 1.166264278e-38
-0.02004376054 -0.1881397963 -0.2089143097 1.166264278e-38
0.3152484894 -0.1079773158 -0.004476502072 1.166264278e-38
0.1413886845 -0.187060073 -0.2189726681 1.184631237e-38
0.3021874428 -0.1458766311 -0.1276665032 1.184631237e-38
0.313382566 -0.1297239363 -0.1099838167 1.184631237e-38
0.4020123482 -0.2058515251 0.007748663425 1.184631237e-38
0.2979981899 -0.2418408096 -0.2156695276 1.184631237e-38
0.116745159 -0.1886382699 -0.217106536 1.184631237e-38
0.3156356812 -0.1604511291 -0.1472153515 1.184631237e-38
0.3139458299 -0.1374057382 -0.1192916855 1.184631237e-38
0.004599694163 -0.1865616143 -0.2107804269 1.202998196e-38
0.3135057688 -0.1235389039 -0.08929662406 1.202998196e-38
0.2917491794 -0.1959480345 -0.2260265499 1.202998196e-38
0.2869262397 -0.2518084645 -0.212665081 1.202998196e-38
0.304880619 -0.1904706657 -0.1948931366 1.202998196e-38
0.3038772941 -0.1689220071 -0.1555902064 1.202998196e-38
0.3161990047 -0.168132931 -0.1565232575 1.202998196e-38
0.2967483699 -0.2326622605 -0.2177409381 1.202998196e-38
0.3220783174 -0.2325808108 -0.2082277685 1.221365155e-38
0.3028739393 -0.1473733783 -0.1162872314 1.221365155e-38
-0.06933073699 -0.19129619 -0.2051820755 1.221365155e-38
-0.2023702711 -0.2183333933 -0.1907756329 1.221365155e-38
0.3065705001 -0.2135160565 -0.2228167951 1.221365155e-38
0.4155838788 -0.2142409682 0.008887007833 1.221365155e-38
0.3040004969 -0.1627369821 -0.1349030137 1.221365155e-38
-0.2984445691 -0.243003279 -0.1791683584 1.221365155e-38
0.3163222075 -0.1619478911 -0.1358360648 1.239732115e-38
-0.3464817405 -0.2553382516 -0.1733647287 1.239732115e-38
0.3053207099 -0.2043374777 -0.2248882055 1.239732115e-38
0.3054439127 -0.1981524527 -0.2042010427 1.239732115e-38
0.3195787072 -0.2142237127 -0.2123705745 1.239732115e-38
0.2942487597 -0.2143051624 -0.221883744 1.239732115e-38
0.4182066917 -0.2264130712 0.03371697292 1.239732115e-38
0.2265673578 -0.264932543 -0.2059283853 1.239732115e-38
-0.2861228287 -0.2422141731 -0.1801014245 1.258099074e-38
0.4051984549 -0.2257053852 0.02327075228 1.258099074e-38
0.3072569966 -0.2150127888 -0.2114375234 1.258099074e-38
0.1426384896 -0.1962386668 -0.2169012576 1.258099074e-38
0.3180120885 -0.1849932671 -0.1637597233 1.258099074e-38
0.4168336689 -0.2234195471 0.01095841452 1.258099074e-38
-0.2257639468 -0.2290901542 -0.1868381202 1.258099074e-38
0.2647823393 -0.2717437744 -0.2066561431 1.258099074e-38
0.3039301038 -0.1303150505 -0.04284638539 1.276466033e-38
0.3062536716 -0.1934641898 -0.1721345484 1.276466033e-38
0.3046166301 -0.1318117976 -0.03146710619 1.276466033e-38
0.3111296296 -0.2363634408 -0.1845361292 1.276466033e-38
0.3046870232 -0.1642337441 -0.1235237047 1.276466033e-38
0.1303166896 -0.1970277429 -0.2159681916 1.276466033e-38
0.2524606287 -0.2725328803 -0.205723092 1.276466033e-38
0.3175720274 -0.1711264551 -0.1337646693 1.276466033e-38
0.3176248372 -0.1325194687 -0.02102085575 1.294832852e-38
-0.4795212746 -0.2823754251 -0.158958286 1.294832852e-38
0.3044934273 -0.1379968226 -0.05215429142 1.294832852e-38
-0.03111568652 -0.1981074512 -0.2059098482 1.294832852e-38
0.4064482749 -0.2348839343 0.02534215152 1.294832852e-38
0.3147558272 -0.2700841427 -0.1990091056 1.294832852e-38
0.2117460221 -0.2473644912 -0.2091381252 1.294832852e-38
0.3042469621 -0.1503669024 -0.09352864325 1.294832852e-38
0.3168151379 -0.1372077316 -0.05308734998 1.313163938e-38
0.3058135808 -0.179597348 -0.1421394795 1.313163938e-38
0.3191386461 -0.2003568709 -0.1823755056 1.313163938e-38
-0.2134421915 -0.2283010483 -0.1877711713 1.313163938e-38
0.2228179425 -0.2373968661 -0.2121425867 1.313163938e-38
0.3197019398 -0.2080386579 -0.1916833967 1.313163938e-38
0.3058664501 -0.1409903467 -0.02939570509 1.313163938e-38
0.2006740123 -0.2573321462 -0.2061336637 1.313163938e-38
0.3073626757 -0.1377988458 0.01405004412 1.331530897e-38
0.2019238174 -0.266510725 -0.2040622532 1.331530897e-38
0.3086300194 -0.2180063128 -0.1886789352 1.331530897e-38
0.319948405 -0.195668608 -0.1503090411 1.331530897e-38
0.3180649281 -0.1463862956 -0.05101594329 1.331530897e-38
0.243712008 -0.2082829773 -0.2202229202 1.331530897e-38
0.3155655563 -0.2653958797 -0.1669426262 1.331530897e-38
0.3198251724 -0.2018536329 -0.170996204 1.331530897e-38
0.4193332791 -0.2417766452 0.01510122046 1.349897856e-38
-0.1173678637 -0.2036311328 -0.1993784457 1.349897856e-38
0.2092464119 -0.2290073931 -0.2132809311 1.349897856e-38
0.3071866333 -0.182590872 -0.1193808988 1.349897856e-38
0.3267607093 -0.2492431998 -0.14925991 1.349897856e-38
0.3093165457 -0.2195030749 -0.1772996485 1.349897856e-38
0.1760305613 -0.258910358 -0.2042675465 1.349897856e-38
0.3071162403 -0.1501689255 -0.02732430026 1.349897856e-38
0.3194379508 -0.1493798196 -0.02825735696 1.368228942e-38
-0.1530832946 -0.2151769996 -0.1945078671 1.368228942e-38
0.1858526766 -0.239764154 -0.2093434185 1.368228942e-38
0.1821032763 -0.212228477 -0.2155576199 1.368228942e-38
0.3191914856 -0.1617498994 -0.0696317032 1.368228942e-38
-0.1887987405 -0.2267228663 -0.1896372885 1.368228942e-38
0.328327328 -0.2784736156 -0.1978707612 1.368228942e-38
0.3207581639 -0.1909803152 -0.1182425544 1.368228942e-38
0.4232059121 -0.2631272972 0.04200258479 1.386595901e-38
0.3075563014 -0.1640357673 -0.05731936172 1.386595901e-38
-0.2245141417 -0.2382687032 -0.1847667098 1.386595901e-38
0.3211981952 -0.204847157 -0.1482376456 1.386595901e-38
0.3217614889 -0.212528944 -0.1575455219 1.386595901e-38
0.320318073 -0.1771134883 -0.08824748546 1.386595901e-38
0.3090525568 -0.1608442366 -0.01387359016 1.386595901e-38
0.3086828887 -0.1793993413 -0.07593515515 1.386595901e-38
-0.3686256111 -0.2752735615 -0.1673558056 1.404926846e-38
0.1612092257 -0.2413423359 -0.2074773014 1.404926846e-38
0.3213742673 -0.1600551307 -0.01480664685 1.404926846e-38
0.3215678632 -0.1862920523 -0.08617608249 1.404926846e-38
0.4218328893 -0.2601337731 0.01924402267 1.404926846e-38
0.3292602897 -0.2676002979 -0.1451171041 1.404926846e-38
0.06995780766 -0.2101517916 -0.2092315108 1.404926846e-38
0.3098094761 -0.1947629452 -0.09455092996 1.404926846e-38
0.3281337321 -0.2522367239 -0.1265013069 1.423293806e-38
0.3158120215 -0.2530258 -0.1255682558 1.423293806e-38
-0.4413062334 -0.2891866863 -0.1596860588 1.423293806e-38
-0.3563038707 -0.2744844556 -0.1682888567 1.423293806e-38
0.3216910958 -0.1801070124 -0.06548889726 1.423293806e-38
0.3113760948 -0.223993361 -0.1431617737 1.423293806e-38
0.3104256094 -0.1638377607 0.008884971961 1.423293806e-38
-0.428984493 -0.2883976102 -0.1606191099 1.423293806e-38
0.3096158504 -0.1685260534 -0.02318149246 1.441624891e-38
0.322571218 -0.2078406811 -0.1254790425 1.441624891e-38
0.3243843019 -0.2247010469 -0.1327155232 1.441624891e-38
0.4107609689 -0.270101428 0.02224848792 1.441624891e-38
0.4262687862 -0.2891662121 0.03683751449 1.441624891e-38
0.3103023469 -0.1700228155 -0.01180218346 1.441624891e-38
0.3110592663 -0.203941524 -0.092479527 1.441624891e-38
0.2549602389 -0.2908900082 -0.201580286 1.441624891e-38
0.3288202584 -0.2537334859 -0.1151220351 1.459991851e-38
0.3282569647 -0.2460516691 -0.1058141291 1.459991851e-38
-0.2232643366 -0.2474472523 -0.1826952994 1.459991851e-38
0.3232577443 -0.2093374431 -0.114099741 1.459991851e-38
0.3116753995 -0.1730163395 0.01095637679 1.459991851e-38
-0.3920192719 -0.2860302925 -0.163418293 1.459991851e-38
0.3115521371 -0.1792013645 -0.00973078236 1.459991851e-38
0.02067089081 -0.2133081853 -0.2054992765 1.459991851e-38
-0.3193386495 -0.2721171677 -0.1710880399 1.478322936e-38
0.3159352541 -0.246840775 -0.1048810706 1.478322936e-38
0.4255822897 -0.28766945 0.02545823529 1.478322936e-38
0.3129251897 -0.1821948886 0.0130277779 1.478322936e-38
0.1229941845 -0.2345310748 -0.2067495286 1.478322936e-38
0.3252469003 -0.1814057827 0.0120947212 1.478322936e-38
0.3295067847 -0.255230248 -0.1037427261 1.478322936e-38
0.3250004351 -0.1937758625 -0.02927962132 1.478322936e-38
0.3136116862 -0.1836916357 0.02440705895 1.496689755e-38
0.3133652508 -0.1960617006 -0.01696728356 1.496689755e-38
0.2303167582 -0.2924681902 -0.1997141689 1.496689755e-38
-0.4523781836 -0.2991543412 -0.1566815972 1.496689755e-38
0.08977842331 -0.2644340396 -0.1977361441 1.496689755e-38
-0.4400564432 -0.2983652353 -0.1576146483 1.496689755e-38
0.1605810672 -0.3475866914 -0.261166662 1.496689755e-38
0.3146150708 -0.2052402496 -0.01489588246 1.496689755e-38
0.3251940608 -0.2200127542 -0.1006490588 1.515020841e-38
0.326443851 -0.2291913331 -0.09857765585 1.515020841e-38
-0.1025465429 -0.2211991549 -0.1961686909 1.515020841e-38
0.04656415805 -0.2209085524 -0.2052939832 1.515020841e-38
-0.1862991303 -0.2450799644 -0.1854944825 1.515020841e-38
0.3260037899 -0.2153244615 -0.06858259439 1.515020841e-38
-0.270051688 -0.2689607739 -0.1748202741 1.515020841e-38
0.3258805871 -0.2215095162 -0.08926977962 1.515020841e-38
0.315864861 -0.2144188285 -0.01282447577 1.533351927e-38
-0.1629054397 -0.2343232036 -0.1894319952 1.533351927e-38
-0.403091222 -0.2959979475 -0.1604138315 1.533351927e-38
0.0219206959 -0.2224867344 -0.2034278661 1.533351927e-38
0.3308798075 -0.258223772 -0.08098416775 1.533351927e-38
0.3167449832 -0.2421524823 -0.07281460613 1.533351927e-38
0.4157601893 -0.306815654 0.03053409979 1.533351927e-38
0.187037617 -0.3628688455 -0.2702692747 1.533351927e-38
-0.3057670891 -0.2805066109 -0.1699496955 1.551683013e-38
0.3186284602 -0.2914347947 -0.1721076965 1.551683013e-38
-0.4880936146 -0.3107002079 -0.1518110186 1.551683013e-38
0.2808535397 -0.2984903455 -0.2013750076 1.551683013e-38
0.06263528764 -0.2476551235 -0.2000128329 1.551683013e-38
0.3309501708 -0.2906456888 -0.1730407625 1.551683013e-38
0.3178187311 -0.2961230576 -0.2041741759 1.551683013e-38
0.3195614219 -0.2805614769 -0.1193540543 1.551683013e-38
0.3194381893 -0.2867465317 -0.1400412321 1.570049832e-38
-0.06433152407 -0.228010416 -0.1968964636 1.570049832e-38
0.03549222648 -0.2308762074 -0.2022895217 1.570049832e-38
-0.2467229068 -0.3721301556 -0.2417550385 1.570049832e-38
0.2438882887 -0.3008576334 -0.1985758245 1.570049832e-38
0.4312680066 -0.3258804381 0.04512312636 1.570049832e-38
0.1618308723 -0.3567652106 -0.2590952516 1.570049832e-38
-0.07665325701 -0.2287995219 -0.1959634125 1.570049832e-38
-0.4634501338 -0.3091219962 -0.1536771357 1.588380918e-38
0.05156336352 -0.2576227784 -0.1970083714 1.588380918e-38
0.4332043231 -0.3365557492 0.05857380852 1.588380918e-38
0.1907870173 -0.3904045224 -0.2640550435 1.588380918e-38
0.3291898966 -0.2351783812 -0.05306047201 1.588380918e-38
0.002276390791 -0.2607791722 -0.1932761371 1.588380918e-38
-0.2344011813 -0.3713410497 -0.2426880896 1.588380918e-38
0.12430235 -0.3514507413 -0.2469882071 1.588380918e-38
0.3178011477 -0.2250941396 0.0006262329407 1.606712004e-38
-0.1136184633 -0.2311668098 -0.1931642294 1.606712004e-38
0.1784652919 -0.3911936283 -0.2631219923 1.606712004e-38
0.4305815101 -0.3243836761 0.03374384716 1.606712004e-38
0.3304397166 -0.2443569303 -0.05098907277 1.606712004e-38
-0.06183191761 -0.2463675439 -0.1927536577 1.606712004e-38
0.1902237236 -0.3827227056 -0.2547471523 1.606712004e-38
-0.2817518115 -0.3851727545 -0.2255051732 1.606712004e-38
0.02816970646 -0.2683795393 -0.1930708587 1.625043089e-38
0.3204943836 -0.2696881592 -0.06660039723 1.625043089e-38
0.320371151 -0.275873214 -0.08728758246 1.625043089e-38
0.3182412386 -0.2389609814 -0.02936885692 1.625043089e-38
0.434454143 -0.3457342982 0.06064521894 1.625043089e-38
0.1766521931 -0.3743332624 -0.2558855116 1.625043089e-38
-0.2220794261 -0.3705519438 -0.2436211556 1.625043089e-38
0.3176779449 -0.2312791646 -0.02006095462 1.625043089e-38
-0.1782308668 -0.4772208333 0.1661494225 1.643374035e-38
0.003526192158 -0.2699577212 -0.1912047416 1.643374035e-38
0.01203363948 -0.3555591106 -0.2613492608 1.643374035e-38
-0.3771979511 -0.3035983145 -0.1602085382 1.643374035e-38
0.3299996555 -0.2304900885 -0.02099401131 1.643374035e-38
0.1278763413 -0.4468181133 0.1293722987 1.643374035e-38
-0.2171324193 -0.4689128399 0.1554979235 1.643374035e-38
-0.2294541597 -0.4697019458 0.1564309746 1.643374035e-38
-0.143201977 -0.4641782641 0.1498995721 1.661705121e-38
-0.2577948272 -0.3820978403 -0.238750577 1.661705121e-38
0.1537695974 -0.4544184208 0.1295775771 1.661705121e-38
-0.1246904284 -0.2411344945 -0.1901597679 1.661705121e-38
-0.2097576857 -0.3697628975 -0.2445542067 1.661705121e-38
0.322360307 -0.2479415536 0.03890688345 1.661705121e-38
0.3190509677 -0.2342726886 0.002697634045 1.661705121e-38
0.3306861818 -0.2319868505 -0.009614730254 1.661705121e-38
0.08733709902 -0.3538180292 -0.2441890389 1.680036207e-38
0.09953565896 -0.3592139482 -0.265809238 1.680036207e-38
0.1557059288 -0.4650937915 0.1430282742 1.680036207e-38
-0.2644830346 -0.4827445149 0.172680825 1.680036207e-38
0.3335026205 -0.2703958154 -0.05615417287 1.680036207e-38
0.1155545637 -0.4476072192 0.1303053498 1.680036207e-38
-0.2207063884 -0.3735454679 -0.2208625823 1.680036207e-38
0.1550715715 -0.4019503593 -0.2591844797 1.680036207e-38
0.2159415931 -0.4581547379 0.1156043559 1.698367293e-38
0.3333793879 -0.2765808702 -0.07684136182 1.698367293e-38
0.3336258531 -0.2642107904 -0.03546698391 1.698367293e-38
0.3198782504 -0.3006133437 -0.170036301 1.698367293e-38
-0.09391500056 -0.4610218406 0.1461673379 1.698367293e-38
0.3334322274 -0.2379738986 0.03590242192 1.698367293e-38
-0.0987971276 -0.2487348318 -0.1899544895 1.698367293e-38
0.1997472346 -0.4375932217 0.08963605762 1.698367293e-38
0.07489214838 -0.36079216 -0.2639431357 1.716698239e-38
0.3209872842 -0.2449480295 0.01614832133 1.716698239e-38
-0.1043004096 -0.4724862576 0.1605510861 1.716698239e-38
-0.499165535 -0.3206678629 -0.1488065571 1.716698239e-38
0.3320592046 -0.2349803746 0.01314385794 1.716698239e-38
0.3324992657 -0.2488471866 -0.01685120352 1.716698239e-38
-0.1465113312 -0.4505093694 0.113690272 1.716698239e-38
0.3229236305 -0.2556233406 0.02959900163 1.716698239e-38
0.1663900316 -0.3796126246 -0.2208145857 1.735029324e-38
0.3326224685 -0.2426621616 0.00383598404 1.735029324e-38
0.334189117 -0.2718926072 -0.04477486387 1.735029324e-38
0.1806480587 -0.3894988596 -0.2082969397 1.735029324e-38
0.1521319151 -0.3697264194 -0.2333322018 1.735029324e-38
0.142749846 -0.4027394652 -0.2582514286 1.735029324e-38
0.3340658844 -0.2780776322 -0.06546205282 1.735029324e-38
0.1187406853 -0.4674610496 0.1458274424 1.735029324e-38
-0.07965695858 -0.4709080458 0.1586849689 1.75336041e-38
-0.2195149362 -0.2749829292 -0.1764810979 1.75336041e-38
0.3228003681 -0.2618083954 0.008911846206 1.75336041e-38
-0.01192330476 -0.3586340547 -0.248103857 1.75336041e-38
0.3352453411 -0.2548342347 0.0286659468 1.75336041e-38
0.3205647767 -0.3021101058 -0.1586570293 1.75336041e-38
-0.437556833 -0.3167223632 -0.1534718424 1.75336041e-38
0.1983742118 -0.4345996976 0.06687748432 1.75336041e-38
-0.1069232449 -0.4603141546 0.1357210577 1.771655483e-38
-0.2671058774 -0.470572412 0.1478508115 1.771655483e-38
-0.0249315761 -0.3579263985 -0.2585500777 1.771655483e-38
0.1015952006 -0.3637042344 -0.231671378 1.771655483e-38
0.08846367896 -0.369181633 -0.2628048062 1.771655483e-38
0.1546315104 -0.3880835176 -0.2291894108 1.771655483e-38
0.1279285103 -0.385171473 -0.2614611387 1.771655483e-38
0.1860524863 -0.4353888035 0.06781055033 1.771655483e-38
-0.2054972053 -0.4666269422 0.1431855261 1.789986569e-38
0.140496701 -0.3720122874 -0.2210198641 1.789986569e-38
0.1006100029 -0.4362242222 0.1064083874 1.789986569e-38
0.1627819836 -0.4399605393 0.09243522584 1.789986569e-38
0.335808605 -0.2625160515 0.01935807057 1.789986569e-38
0.06382022053 -0.3707598448 -0.2609386742 1.789986569e-38
-0.03725330532 -0.3587154746 -0.2576169968 1.789986569e-38
-0.05501347035 -0.4693298936 0.1568188518 1.789986569e-38
0.3345059752 -0.291944474 -0.09545711428 1.808317654e-38
-0.06995803118 -0.4579468966 0.1329218894 1.808317654e-38
0.1737306863 -0.4361779094 0.06874360144 1.808317654e-38
0.001648226753 -0.3670234978 -0.2469655126 1.808317654e-38
-0.05808250979 -0.2739032209 -0.1865394562 1.808317654e-38
0.3335730135 -0.3028177619 -0.1482107639 1.808317654e-38
0.3204415739 -0.3082951605 -0.179344207 1.808317654e-38
-0.3759481311 -0.3127768636 -0.1581371427 1.808317654e-38
0.2178779095 -0.4688301086 0.1290550977 1.826612727e-38
0.1168565974 -0.3951390982 -0.258456707 1.826612727e-38
-0.1322532594 -0.4603956342 0.126207903 1.826612727e-38
0.01465646736 -0.3677311838 -0.2365192771 1.826612727e-38
-0.1199315116 -0.4596065283 0.125274837 1.826612727e-38
-0.09629753232 -0.2670919597 -0.1858116835 1.826612727e-38
0.2587096393 -0.3184256554 -0.1953660697 1.826612727e-38
0.1181064025 -0.404317677 -0.2563852966 1.826612727e-38
0.2125090212 -0.4506709576 0.05870789289 1.844943813e-38
0.1334206313 -0.3971455097 -0.1704268306 1.844943813e-38
0.1497737467 -0.4392528534 0.08198900521 1.844943813e-38
0.1158532575 -0.3735904694 -0.2191537619 1.844943813e-38
0.1846794486 -0.4323952794 0.04505192488 1.844943813e-38
0.3326400518 -0.3136910796 -0.200964421 1.844943813e-38
0.3238037229 -0.2833569944 -0.03039112128 1.844943813e-38
0.1471153796 -0.3993499279 -0.1486012936 1.844943813e-38
-0.1209410131 -0.2686701417 -0.1839455664 1.863274899e-38
0.336248666 -0.2763828635 -0.01063699462 1.863274899e-38
0.08760176599 -0.4355165362 0.09596216679 1.863274899e-38
0.1963146627 -0.4301093817 0.03273959458 1.863274899e-38
-0.1715426743 -0.3765741587 -0.2452819794 1.863274899e-38
0.1211344376 -0.4256654382 0.03626653552 1.863274899e-38
-0.3266611695 -0.3096204698 -0.161869362 1.863274899e-38
-0.1938619614 -0.464341104 0.1308731884 1.863274899e-38
0.1716711372 -0.4316875935 0.0346057117 1.881569971e-38
0.3350692689 -0.299626261 -0.1047650203 1.881569971e-38
-0.08585376292 -0.3633686304 -0.2425055057 1.881569971e-38
0.148400709 -0.4362593293 0.05923038721 1.881569971e-38
0.1054678336 -0.3850548863 -0.2047699839 1.881569971e-38
-0.2185054421 -0.4659193158 0.1327393055 1.881569971e-38
-0.120618023 -0.458109796 0.1138955653 1.881569971e-38
-0.2554706633 -0.4682866335 0.1355384737 1.881569971e-38
0.2094226331 -0.3215820491 -0.1916338503 1.899901057e-38
0.1367655098 -0.4385451674 0.07154278457 1.899901057e-38
0.1437183321 -0.4195969701 0.0002625212073 1.899901057e-38
0.3210048378 -0.3159769475 -0.1886520833 1.899901057e-38
0.0786415562 -0.388327837 -0.2577289343 1.899901057e-38
0.1833064258 -0.4294017553 0.02229336649 1.899901057e-38
0.1360789835 -0.4370484352 0.06016343832 1.899901057e-38
0.002898031846 -0.3762020767 -0.2448941022 1.899901057e-38
0.1316779256 -0.41270715 -0.2552469373 1.91819627e-38
0.0648946166 -0.4477700591 0.1112789661 1.91819627e-38
0.1353924721 -0.4355516434 0.04878416657 1.91819627e-38
-0.473272264 -0.32826823 -0.1486012638 1.91819627e-38
-0.2442232966 -0.3904873133 -0.2376122326 1.91819627e-38
0.4362672269 -0.3625946641 0.05340873823 1.91819627e-38
0.09855046123 -0.4317339063 0.07227054238 1.91819627e-38
0.1361666769 -0.4031325579 -0.1249096841 1.91819627e-38
0.05644547194 -0.4699097872 0.139113456 1.936527215e-38
0.05257283151 -0.448559165 0.1122120321 1.936527215e-38
0.1484884024 -0.402343452 -0.1258427352 1.936527215e-38
-0.1099339575 -0.3726286292 -0.2499472648 1.936527215e-38
0.1879532635 -0.418333292 -0.1244991124 1.936527215e-38
-0.2762415111 -0.4912154675 0.1643060148 1.936527215e-38
0.1094636992 -0.4002204537 -0.1571814418 1.936527215e-38
0.3251767457 -0.2863505185 -0.007632531691 1.936527215e-38
0.3383082151 -0.2808731496 0.02350087464 1.954822428e-38
-0.1089827865 -0.4558238983 0.1015832126 1.954822428e-38
0.05399809778 -0.3899060488 -0.2558628321 1.954822428e-38
0.2001517713 -0.4237292409 -0.1461193264 1.954822428e-38
-0.05558290333 -0.292260319 -0.1823966354 1.954822428e-38
-0.05775953084 -0.4633428454 0.1113016605 1.954822428e-38
-0.0551366955 -0.4755148888 0.1361316442 1.954822428e-38
0.3357557952 -0.301123023 -0.09338571131 1.954822428e-38
0.1491749287 -0.4038402438 -0.1144634336 1.973153514e-38
-0.1092474461 -0.3741253912 -0.2385679781 1.973153514e-38
0.2969246507 -0.3252369463 -0.1960938424 1.973153514e-38
0.1942551136 -0.4256191254 -0.001398310065 1.973153514e-38
-0.2619834244 -0.5011016726 0.1768236458 1.973153514e-38
-0.1448396295 -0.3794862032 -0.2130102217 1.973153514e-38
0.07322048396 -0.4318153262 0.06275732815 1.973153514e-38
0.07253397256 -0.430318594 0.05137804151 1.973153514e-38
0.01948028244 -0.4722771049 0.1419126242 1.991448586e-38
0.3365654945 -0.2964347601 -0.06131924316 1.991448586e-38
-0.1096692979 -0.4543271661 0.09020394087 1.991448586e-38
-0.2191919535 -0.464422524 0.1213600188 1.991448586e-38
0.1812468767 -0.4249114394 -0.0118445307 1.991448586e-38
-0.3623766005 -0.3211663365 -0.1569987833 1.991448586e-38
0.06978791952 -0.4243315458 0.005860865116 1.991448586e-38
0.1539805233 -0.4143175483 -0.03480837867 1.991448586e-38
-0.2676169574 -0.4012440443 -0.233674705 2.009743799e-38
0.03956458718 -0.4478514791 0.1017658114 2.009743799e-38
-0.3500548601 -0.3203772604 -0.1579318494 2.009743799e-38
-0.1333276182 -0.3833854198 -0.2460097522 2.009743799e-38
0.1751914769 -0.4052555561 -0.0935709551 2.009743799e-38
0.09851493686 -0.4040030837 -0.1334897876 2.009743799e-38
0.005397634581 -0.3945592046 -0.2407512963 2.009743799e-38
-0.1253003925 -0.4414473772 0.05492769182 2.009743799e-38
0.06910140067 -0.422834754 -0.00551841408 2.028074885e-38
-0.2168337554 -0.3948961496 -0.1939612031 2.028074885e-38
0.138226226 -0.4076228738 -0.09077177942 2.028074885e-38
-0.1702928692 -0.3857526779 -0.243210569 2.028074885e-38
0.1675520539 -0.4227070212 -0.03367003053 2.028074885e-38
0.1409722865 -0.4136099219 -0.04525462911 2.028074885e-38
0.3222546279 -0.3251554966 -0.1865806878 2.028074885e-38
0.08073662221 -0.4205489159 -0.01783075184 2.028074885e-38
0.153294012 -0.412820816 -0.04618769139 2.046369957e-38
0.1798738539 -0.4219179153 -0.03460309282 2.046369957e-38
-0.1376221329 -0.4422364831 0.05586075783 2.046369957e-38
0.1921955794 -0.4211288095 -0.03553614765 2.046369957e-38
-0.1103558168 -0.4528303742 0.07882459462 2.046369957e-38
-0.2788643539 -0.4790433645 0.1394760013 2.046369957e-38
0.01852910407 -0.3890818059 -0.209617883 2.046369957e-38
0.09988796711 -0.4069966078 -0.1107311994 2.046369957e-38
-0.006924093701 -0.3953483105 -0.2398182452 2.06466517e-38
0.128650561 -0.4143989682 -0.04432157427 2.06466517e-38
0.1526074857 -0.4113240242 -0.05756697059 2.06466517e-38
-0.1739008427 -0.446100533 0.0700391978 2.06466517e-38
0.338871479 -0.2885549664 0.01419299841 2.06466517e-38
0.05649770796 -0.4082631469 -0.2517200112 2.06466517e-38
0.1005744785 -0.4084933996 -0.09935191274 2.06466517e-38
-0.05433309823 -0.3014388978 -0.1803252399 2.06466517e-38
0.03153734654 -0.3897894919 -0.1991716325 2.082996116e-38
0.3380617797 -0.2932432294 -0.01787349582 2.082996116e-38
-0.291010648 -0.4120007753 -0.2297371924 2.082996116e-38
0.1519209743 -0.409827292 -0.06894627959 2.082996116e-38
0.1265910119 -0.4099087119 -0.07845944166 2.082996116e-38
-0.1259869039 -0.439950645 0.04354841262 2.082996116e-38
0.05811718106 -0.398886621 -0.1875870824 2.082996116e-38
-0.2101795822 -0.4499645829 0.08421765268 2.082996116e-38
-0.1349993199 -0.454408586 0.08069071174 2.101291328e-38
0.05609316379 -0.4221271276 -0.01596463844 2.101291328e-38
0.3229411542 -0.3266522586 -0.1752014011 2.101291328e-38
0.04720394313 -0.4304000139 0.04186488688 2.101291328e-38
-0.004864552058 -0.3998385668 -0.2056803703 2.101291328e-38
-0.06665483117 -0.3022280037 -0.1793921739 2.101291328e-38
-0.112872757 -0.5008110404 0.1676983535 2.101291328e-38
0.04651743174 -0.4289032817 0.03048560023 2.101291328e-38
-0.0322540924 -0.3954297304 -0.2493314147 2.119586541e-38
0.1019475088 -0.4114869237 -0.07659332454 2.119586541e-38
-0.07407711446 -0.4489663243 0.06464613974 2.119586541e-38
-0.2648709118 -0.4072310925 -0.1881575584 2.119586541e-38
0.08825274557 -0.4092825055 -0.09841886163 2.119586541e-38
-0.1506304145 -0.4415287971 0.04541452974 2.119586541e-38
-0.1745873541 -0.4446038008 0.05865992606 2.119586541e-38
-0.09442608058 -0.3916934133 -0.2353582382 2.119586541e-38
-0.2322002053 -0.4637148976 0.1109137982 2.137881613e-38
0.00259937346 -0.4502187967 0.1045649797 2.137881613e-38
-0.4473789632 -0.3358685672 -0.1483959854 2.137881613e-38
0.103320539 -0.4144804478 -0.05383473635 2.137881613e-38
-0.08822927624 -0.4992328286 0.1658322364 2.137881613e-38
0.3104962111 -0.3336263895 -0.194955498 2.137881613e-38
0.008830204606 -0.402042985 -0.1838548332 2.137881613e-38
-0.1143516675 -0.4376647472 0.03123607486 2.137881613e-38
-0.2525491714 -0.4064419866 -0.1890906096 2.156176826e-38
0.3237509131 -0.3219639957 -0.1431349069 2.156176826e-38
0.09031228721 -0.4137727618 -0.06428098679 2.156176826e-38
-0.01581328176 -0.4036211967 -0.181988731 2.156176826e-38
0.01953245513 -0.4106304646 -0.2489208281 2.156176826e-38
0.07006923854 -0.4166526198 -0.2505816817 2.156176826e-38
-0.1389951706 -0.439242959 0.03310219198 2.156176826e-38
0.3245606422 -0.317275703 -0.111068435 2.156176826e-38
0.008020468056 -0.4067313075 -0.2159212977 2.174471899e-38
-0.0151267685 -0.405117929 -0.1706094444 2.174471899e-38
-0.1744814515 -0.5047565103 0.1723636389 2.174471899e-38
0.2014015764 -0.4329078197 -0.1440479159 2.174471899e-38
0.07524450868 -0.4085748196 -0.1088650823 2.174471899e-38
-0.2730554044 -0.5110692978 0.1798281074 2.174471899e-38
-0.2795508504 -0.4775465727 0.1280967146 2.174471899e-38
0.2116992921 -0.4553592205 0.02664145827 2.174471899e-38
-0.2060082704 -0.3972985148 -0.2383400053 2.192767111e-38
-0.1567213088 -0.3941421509 -0.2420722246 2.192767111e-38
-0.004301262088 -0.4075203538 -0.2149882466 2.192767111e-38
0.0232114736 -0.4057441354 -0.1506500244 2.192767111e-38
-0.2776145637 -0.4882219434 0.1415473968 2.192767111e-38
-0.01375374012 -0.4081114531 -0.1478508562 2.192767111e-38
-0.001431981102 -0.4073223472 -0.1487839222 2.192767111e-38
-0.2148974389 -0.4055714607 -0.1805104911 2.192767111e-38
-0.2889511287 -0.4164910913 -0.1955993176 2.211062324e-38
0.007210725918 -0.4114195704 -0.247987777 2.211062324e-38
-0.01306722499 -0.4096081853 -0.1364715397 2.211062324e-38
0.01423461922 -0.447932899 0.09225264192 2.211062324e-38
-0.2484118938 -0.509491086 0.1779619753 2.211062324e-38
-5.895271897e-05 -0.4103158712 -0.1260253191 2.211062324e-38
-0.09520033002 -0.4241124988 -0.06166439876 2.211062324e-38
0.06498231739 -0.4138541818 -0.07379415631 2.211062324e-38
-0.3611267805 -0.3303448856 -0.1549273878 2.229357396e-38
0.1971592754 -0.4301123023 -0.2330108732 2.229357396e-38
-0.003913402557 -0.4830338359 0.1458501518 2.229357396e-38
-0.0310042873 -0.4046083093 -0.2472600043 2.229357396e-38
0.05403362215 -0.4176368117 -0.05010250956 2.229357396e-38
0.05060105026 -0.4101530313 -0.1069989651 2.229357396e-38
0.04542578012 -0.4182308316 -0.2487155497 2.229357396e-38
0.2110127807 -0.4538624883 0.01526217908 2.229357396e-38
-0.2237684131 -0.5079129338 0.1760958731 2.247652609e-38
-0.1020654663 -0.4091448784 -0.1754573137 2.247652609e-38
-0.2526724041 -0.4126269817 -0.2097778022 2.247652609e-38
0.1711427867 -0.4286969304 -0.2539033294 2.247652609e-38
-0.1034384966 -0.4061513543 -0.1982159019 2.247652609e-38
0.008742503822 -0.4359588027 0.001218281686 2.247652609e-38
-0.08768416941 -0.4128460288 -0.1422525048 2.247652609e-38
-0.08845841885 -0.4452651143 0.03144136071 2.247652609e-38
-0.01315492392 -0.4435240626 0.04860158265 2.265947681e-38
-0.003579253331 -0.4367479086 0.002151340246 2.265947681e-38
-0.01658749394 -0.4360402822 -0.00829488039 2.265947681e-38
-0.01032117009 -0.4155952334 -0.0909544006 2.265947681e-38
-0.05925577879 -0.4665343761 0.06785589457 2.265947681e-38
-0.1232763529 -0.4182068706 -0.116694741 2.265947681e-38
-0.1040894836 -0.432385385 -0.003834880888 2.265947681e-38
-0.1185062751 -0.4009534121 -0.2427999973 2.265947681e-38
-0.002206223086 -0.4397414327 0.02490995824 2.284242894e-38
0.004746645689 -0.4207932353 -0.04637027532 2.284242894e-38
-0.2636211216 -0.4164096117 -0.186086148 2.284242894e-38
0.3268666267 -0.3093959391 -0.03555619344 2.284242894e-38
-0.1205302924 -0.4241939187 -0.07117756456 2.284242894e-38
-0.08162876964 -0.4325019717 -0.06052605435 2.284242894e-38
-0.01384143718 -0.4420273304 0.037222296 2.284242894e-38
-0.1267089248 -0.4107230902 -0.1735911965 2.284242894e-38
-0.05594643205 -0.4802032113 0.1040651947 2.302537966e-38
-0.1164112091 -0.4331744909 -0.002901822329 2.302537966e-38
-0.104775995 -0.4308885932 -0.01521416008 2.302537966e-38
-0.01521446742 -0.4390338063 0.014463678 2.302537966e-38
0.2994242609 -0.3435940444 -0.1919510365 2.302537966e-38
0.3365126848 -0.3350417316 -0.1740630567 2.302537966e-38
-0.1479198486 -0.4197850823 -0.1148286238 2.302537966e-38
0.01706837304 -0.4200041294 -0.04730332643 2.302537966e-38
0.3290493786 -0.3077011704 0.0192688629 2.320833179e-38
-0.0255121775 -0.416582346 -0.1562256664 2.320833179e-38
0.2103262544 -0.4523656964 0.003882840276 2.320833179e-38
-0.1431497633 -0.4025316238 -0.2409338802 2.320833179e-38
0.007369477302 -0.4329652786 -0.02154027671 2.320833179e-38
0.02870358713 -0.4177182317 -0.05961569399 2.320833179e-38
0.3240677416 -0.3420158327 -0.1938171536 2.320833179e-38
-0.02207960561 -0.424066186 -0.09932921082 2.320833179e-38
-0.1191572696 -0.4271874428 -0.04841899872 2.339092378e-38
-0.1629876792 -0.4145870805 -0.1594127417 2.339092378e-38
-0.1766469032 -0.4401134849 0.02452202141 2.339092378e-38
-0.2047584802 -0.4064770937 -0.2362685949 2.339092378e-38
-0.2368825823 -0.4470524788 0.05194593966 2.339092378e-38
-0.08712087572 -0.4205278754 -0.1515603811 2.339092378e-38
-0.07819619775 -0.4399857521 -0.003629595041 2.339092378e-38
0.3406845927 -0.3054153025 0.006956496742 2.339092378e-38
-0.06805723906 -0.4408913851 -0.05938770995 2.348204041e-38
-0.0518334955 -0.319795996 -0.176182434 2.348204041e-38
-0.2212515026 -0.4599322677 0.08722211421 2.348204041e-38
-0.1301060021 -0.4309700727 -0.02472735196 2.348204041e-38
-0.2527956367 -0.4188120365 -0.2304649651 2.348204041e-38
-0.1239446923 -0.5107787251 0.1707028151 2.348204041e-38
-0.01259163581 -0.4512058496 0.03929369152 2.348204041e-38
-0.0566329509 -0.4787064195 0.09268590808 2.348204041e-38
0.08358859271 -0.4866887331 0.1413901448 2.348132155e-38
0.3248774707 -0.3373275697 -0.1617506891 2.348132155e-38
-0.06599769741 -0.445381701 -0.02524983883 2.348132155e-38
