# .PCD v0.7 - Point Cloud Data file format
VERSION 0.7
FIELDS x y z rgb
SIZE 4 4 4 4
TYPE F F F F
COUNT 1 1 1 1
WIDTH 855
HEIGHT 1
VIEWPOINT 0 0 0 1 0 0 0
POINTS 855
DATA ascii
0.1926349998 -0.1809711754 0.1910969317 3.994471337e-39
0.1902265549 -0.2259370238 0.2483940125 3.994471337e-39
0.1467441618 -0.3157195449 0.3518902063 3.994471337e-39
0.1545771956 -0.1693277657 0.168718487 3.81151781e-39
0.1854096651 -0.3158687651 0.3629881442 3.81151781e-39
0.1743293852 -0.2820104063 0.3173306584 3.81151781e-39
0.1632491052 -0.2481520027 0.2716731131 3.81151781e-39
0.2264836431 -0.2710521519 0.3167890608 3.628921614e-39
0.1521687508 -0.2142936438 0.2260155678 3.628921614e-39
0.4959191978 -0.04826653749 0.2413789928 3.628921614e-39
0.1932426989 -0.1694770008 0.1798164248 3.628921614e-39
0.190834254 -0.214442879 0.2371135056 3.446326818e-39
0.1338631213 -0.3153328598 0.3522492349 3.446326818e-39
0.5088225603 -0.04764238745 0.2531949878 3.446326818e-39
0.1725286543 -0.31548208 0.3633471727 3.446326818e-39
0.1614483595 -0.2816237211 0.3176896572 3.26337189e-39
0.150368005 -0.2477653176 0.2720321119 3.26337189e-39
0.2246828973 -0.3045238256 0.3628055751 3.26337189e-39
0.5211182833 -0.05851240456 0.2762915194 3.26337189e-39
0.2136025429 -0.2706654668 0.3171480894 3.080777095e-39
0.1914419681 -0.2029486895 0.2258329988 3.080777095e-39
0.5094302893 -0.03614822775 0.2419144809 3.080777095e-39
0.211194098 -0.3156313002 0.3744451702 3.080777095e-39
0.1890335232 -0.2479145676 0.2831300795 2.898180898e-39
0.1344708204 -0.3038387001 0.3409687281 2.898180898e-39
0.1533841491 -0.1913052946 0.2034545541 2.898180898e-39
0.1509757042 -0.2362711281 0.2607516348 2.898180898e-39
0.2252905965 -0.2930296361 0.3515250683 2.715227371e-39
0.1596476138 -0.3150953948 0.3637061715 2.715227371e-39
0.1920496672 -0.1914545298 0.2145524919 2.715227371e-39
0.1485672593 -0.281237036 0.3180486858 2.715227371e-39
0.4830380976 -0.04787985235 0.2417380214 2.532632576e-39
0.2007215023 -0.2702787817 0.317507118 2.532632576e-39
0.1896412224 -0.236420393 0.2718495727 2.532632576e-39
0.1350785345 -0.2923445106 0.3296882212 2.532632576e-39
0.1983130574 -0.3152446151 0.3748041689 2.349677647e-39
0.1761524975 -0.2475278825 0.2834890783 2.349677647e-39
0.2258982956 -0.2815354764 0.3402445614 2.349677647e-39
0.4959415495 -0.04725570232 0.2535539865 2.349677647e-39
0.1515834183 -0.2247769684 0.2494710684 2.167082852e-39
0.1926573813 -0.1799603403 0.2032719851 2.167082852e-39
0.2265059948 -0.2700413167 0.3289640546 2.167082852e-39
0.1902489364 -0.2249261886 0.2605690658 2.167082852e-39
0.1467665285 -0.3147087097 0.3640652001 1.984127923e-39
0.1356862336 -0.2808503509 0.3184077144 1.984127923e-39
0.1680883467 -0.157209456 0.1692539454 1.984127923e-39
0.4965492487 -0.03576154262 0.2422734797 1.984127923e-39
0.1878404766 -0.2698920965 0.3178661168 1.801533128e-39
0.227113694 -0.2585471272 0.3176835775 1.801533128e-39
0.1545995623 -0.1683169454 0.1808934808 1.801533128e-39
0.5082372427 -0.05812571943 0.276650548 1.801533128e-39
0.1854320467 -0.3148579299 0.3751631975 1.618578199e-39
0.163271457 -0.2471411675 0.2838481069 1.618578199e-39
0.5088449717 -0.04663155228 0.2653700411 1.618578199e-39
0.1932650805 -0.1684661657 0.1919914186 1.618578199e-39
0.1908566356 -0.2134320438 0.2492884994 1.435982003e-39
0.1338854879 -0.3143220246 0.3644242287 1.435982003e-39
0.521140635 -0.05750157684 0.2884665132 1.435982003e-39
0.174959451 -0.2695054114 0.3182251453 1.435982003e-39
0.1527988315 -0.2017886192 0.2269100547 1.253028475e-39
0.521748364 -0.04600740969 0.2771860063 1.253028475e-39
0.1725510061 -0.3144712448 0.3755222261 1.253028475e-39
0.1938727796 -0.156972006 0.1807109118 1.253028475e-39
0.1503903866 -0.2467544824 0.2842071354 1.070432279e-39
0.2247052491 -0.3035129905 0.3749806285 1.070432279e-39
0.1914643347 -0.2019378543 0.2380079925 1.070432279e-39
0.4830604494 -0.04686901718 0.2539130151 1.070432279e-39
0.134493202 -0.3028278649 0.3531437218 8.874787512e-40
0.2253129482 -0.292018801 0.3637000918 8.874787512e-40
0.1944804788 -0.1454778016 0.1694304049 8.874787512e-40
0.4836681485 -0.03537485003 0.2426325083 8.874787512e-40
0.1534065306 -0.1902944595 0.2156295478 7.045238224e-40
0.1620784104 -0.2691187263 0.3185841739 7.045238224e-40
0.2259206772 -0.2805246413 0.352419585 7.045238224e-40
0.2142325938 -0.2581604421 0.3180425763 7.045238224e-40
0.1596699804 -0.3140845597 0.3758812249 5.219290273e-40
0.1920720339 -0.1904436946 0.2267274857 5.219290273e-40
0.4953562319 -0.05773902684 0.2770095468 5.219290273e-40
0.189663589 -0.2354095578 0.2840245664 5.219290273e-40
0.1351009011 -0.2913336754 0.341863215 3.389740985e-40
0.4959639311 -0.04624486715 0.2657290399 3.389740985e-40
0.2265283763 -0.2690304816 0.3411390781 3.389740985e-40
0.198335439 -0.3142337799 0.3869791925 3.389740985e-40
0.4965716004 -0.03475070745 0.2544484735 1.56020571e-40
0.1540142298 -0.17880027 0.204349041 1.56020571e-40
0.1516057849 -0.2237661332 0.2616461217 1.56020571e-40
0.2271360755 -0.2575362921 0.3298585713 1.56020571e-40
0.192679733 -0.1789495051 0.2154469788 6.490113838e-41
0.14919734 -0.2687320113 0.3189431727 6.490113838e-41
0.1815994531 -0.1450911164 0.1697894335 6.490113838e-41
0.5082595944 -0.05711489171 0.2888255417 6.490113838e-41
0.201351583 -0.257773757 0.3184016049 2.496469266e-40
0.1902712882 -0.2239153683 0.2727440596 2.496469266e-40
0.1467888951 -0.3136978745 0.3762402534 2.496469266e-40
0.1357086003 -0.2798395157 0.3305827081 2.496469266e-40
0.2277437747 -0.2460421473 0.3185780644 4.340353837e-40
0.5088673234 -0.04562071711 0.2775450349 4.340353837e-40
0.1767825633 -0.2350228429 0.284383595 4.340353837e-40
0.1546219289 -0.1673061103 0.1930684745 4.340353837e-40
0.1854543984 -0.3138470948 0.3873381913 6.184224396e-40
0.152213484 -0.2122719735 0.2503655553 6.184224396e-40
0.1932874322 -0.1674553305 0.204166472 6.184224396e-40
0.1908789873 -0.2124212086 0.2614635527 6.184224396e-40
0.1363162994 -0.2683453262 0.3193022013 8.028094954e-40
0.2247276306 -0.3025021553 0.3871556222 8.028094954e-40
0.1687184274 -0.1447044313 0.1701484472 8.028094954e-40
0.1938951463 -0.1559611708 0.1928859055 8.028094954e-40
0.1884705424 -0.2573870718 0.3187606335 9.871979525e-40
0.1339078546 -0.3133111894 0.376599282 9.871979525e-40
0.1552296281 -0.1558119506 0.1817879677 9.871979525e-40
0.1639015377 -0.2346361578 0.2847425938 9.871979525e-40
0.4824751318 -0.05735234171 0.2773685753 1.171585008e-39
0.1528211832 -0.200777784 0.2390850484 1.171585008e-39
0.2253353298 -0.2910079658 0.3758751452 1.171585008e-39
0.1945028454 -0.1444669813 0.1816054136 1.171585008e-39
0.1725733876 -0.3134604096 0.3876972198 1.355972064e-39
0.4830828309 -0.04585818201 0.2660880685 1.355972064e-39
0.1914867014 -0.2009270191 0.2501829863 1.355972064e-39
0.4836905003 -0.03436402231 0.254807502 1.355972064e-39
0.2259430289 -0.2795138061 0.3645945787 1.540360521e-39
0.1951105595 -0.1329728067 0.1703249067 1.540360521e-39
0.1345155537 -0.3018170297 0.3653187156 1.540360521e-39
0.1755895317 -0.2570003867 0.3191196322 1.540360521e-39
0.2265507281 -0.2680196464 0.3533140719 1.724747577e-39
0.2148626745 -0.2456554621 0.3189370632 1.724747577e-39
0.1534288824 -0.1892836243 0.2278045416 1.724747577e-39
0.4953785837 -0.05672819167 0.2891845405 1.724747577e-39
0.1510204375 -0.2342494726 0.2851016223 1.909134633e-39
0.159692347 -0.3130737245 0.3880562484 1.909134633e-39
0.1920944005 -0.1894328594 0.2389024794 1.909134633e-39
0.2271584272 -0.2565254569 0.342033565 1.909134633e-39
0.2118465304 -0.3021154702 0.3875146508 2.09352309e-39
0.1351232678 -0.2903228402 0.3540382087 2.09352309e-39
0.2277661264 -0.2450313121 0.3307530582 2.09352309e-39
0.1540365964 -0.1777894348 0.2165240347 2.09352309e-39
0.1927021146 -0.1779386699 0.2276219726 2.277910146e-39
0.1627084911 -0.2566137016 0.3194786608 2.277910146e-39
0.1516281515 -0.2227553129 0.2738211155 2.277910146e-39
0.2283738554 -0.2335371077 0.3194725513 2.277910146e-39
0.1933098137 -0.1664444953 0.2163414657 2.462297202e-39
0.1902936697 -0.2229045331 0.2849190533 2.462297202e-39
0.1468112618 -0.3126870394 0.3884152472 2.462297202e-39
0.469594121 -0.05696565658 0.2777275741 2.462297202e-39
0.1546442956 -0.1662952751 0.2052435279 2.646685659e-39
0.1939175129 -0.1549503356 0.2050609589 2.646685659e-39
0.1822295189 -0.1325861216 0.1706839204 2.646685659e-39
0.1854767799 -0.3128362596 0.399513185 2.646685659e-39
0.1522358507 -0.2112611383 0.2625406086 2.830713982e-39
0.1498274058 -0.2562269866 0.3198376894 2.830713982e-39
0.2253576815 -0.2899971306 0.388050139 2.830713982e-39
0.2019816339 -0.245268777 0.3192960918 2.830713982e-39
0.194525212 -0.1434561461 0.1937804222 3.015101038e-39
0.1909013689 -0.2114103884 0.2736385465 3.015101038e-39
0.136338681 -0.267334491 0.331477195 3.015101038e-39
0.4824974835 -0.05634150654 0.2895435691 3.015101038e-39
0.1774126291 -0.222517848 0.2852780819 3.199488094e-39
0.1339302212 -0.3123003542 0.3887742758 3.199488094e-39
0.4831052125 -0.04484734684 0.2782630622 3.199488094e-39
0.2259654105 -0.2785029709 0.3767696321 3.199488094e-39
0.1552520096 -0.1548011154 0.1939629614 3.383517819e-39
0.1951329112 -0.1319619864 0.1824999154 3.383517819e-39
0.4837128818 -0.03335317969 0.2669825554 3.383517819e-39
0.1528435647 -0.1997669488 0.2512600422 3.383517819e-39
0.1725957394 -0.3124495745 0.3998722136 3.567904875e-39
0.2265731096 -0.2670088112 0.3654890656 3.567904875e-39
0.1957406104 -0.1204677746 0.1712194085 3.567904875e-39
0.191509068 -0.1999161839 0.2623580396 3.567904875e-39
0.1369463801 -0.2558403015 0.3201966882 3.75229193e-39
0.1693484932 -0.1321994364 0.171042949 3.75229193e-39
0.1891006231 -0.2448820919 0.3196551204 3.75229193e-39
0.1345379353 -0.3008061945 0.3774937689 3.75229193e-39
0.2271808088 -0.2555146217 0.3542085588 3.936320254e-39
0.2154927552 -0.2331504226 0.3198315799 3.936320254e-39
0.1921167672 -0.1884220243 0.2510774732 3.936320254e-39
0.1534512639 -0.1882727891 0.2399795353 3.936320254e-39
0.2277885079 -0.2440204769 0.3429280519 4.120708711e-39
0.1927244663 -0.1769278347 0.2397969663 4.120708711e-39
0.1597147137 -0.3120628893 0.4002312422 4.120708711e-39
0.1351456344 -0.289312005 0.3662132025 4.120708711e-39
0.2283962071 -0.2325262725 0.3316475451 4.304737034e-39
0.1933321655 -0.1654336601 0.2285164595 4.304737034e-39
0.1564674079 -0.1318127513 0.1714019626 4.304737034e-39
0.1762195975 -0.2444954067 0.3200141191 4.304737034e-39
0.1540589631 -0.1767785996 0.2286990285 4.48912409e-39
0.1516505182 -0.2217444777 0.2859961092 4.48912409e-39
0.4696164727 -0.05595482141 0.2899025977 4.48912409e-39
0.1939398795 -0.1539395005 0.2172359824 4.48912409e-39
0.4702242017 -0.04446066171 0.2786220908 4.673152414e-39
0.1468336284 -0.3116762042 0.400590241 4.673152414e-39
0.1357533336 -0.2778178453 0.3549326956 4.673152414e-39
0.2253800631 -0.2889862955 0.4002251327 4.673152414e-39
0.1945475787 -0.142445311 0.2059554756 4.857539469e-39
0.1828595996 -0.1200810894 0.1715784222 4.857539469e-39
0.1989878714 -0.3007179499 0.4000486732 4.857539469e-39
0.1546666622 -0.1652844399 0.2174185216 4.857539469e-39
0.1633385718 -0.2441086918 0.3203731477 5.041567793e-39
0.1522582173 -0.2102503181 0.2747156024 5.041567793e-39
0.2259877622 -0.2774921358 0.3889446259 5.041567793e-39
0.2026117146 -0.2327637374 0.3201905787 5.041567793e-39
0.1951552927 -0.1309511513 0.1946749091 5.225597518e-39
0.1909237206 -0.2103995532 0.2858135402 5.225597518e-39
0.1363610327 -0.2663236558 0.3436521888 5.225597518e-39
0.2265954614 -0.2659979761 0.377664119 5.225597518e-39
0.1957629919 -0.1194569543 0.1833944023 5.409984573e-39
0.1915314347 -0.1989053637 0.2745330334 5.409984573e-39
0.1339525878 -0.3112895191 0.4009492695 5.409984573e-39
0.1552743614 -0.1537902802 0.2061380148 5.409984573e-39
0.1528659165 -0.1987561136 0.2634350955 5.594012897e-39
0.2272031605 -0.2545037866 0.3663835526 5.594012897e-39
0.2155151069 -0.2321395874 0.3320065737 5.594012897e-39
0.1963706911 -0.1079627872 0.1721138954 5.594012897e-39
0.1921391338 -0.1874111891 0.2632525265 5.77804122e-39
0.1726181209 -0.3114387393 0.4120472074 5.77804122e-39
0.1504574716 -0.2437220067 0.3207321763 5.77804122e-39
0.1369687319 -0.2548294663 0.3323716819 5.77804122e-39
0.2278108597 -0.2430096418 0.3551030457 5.962428276e-39
0.1969783902 -0.09646862 0.1608333886 5.962428276e-39
0.1927468479 -0.1759169996 0.2519719899 5.962428276e-39
0.134560287 -0.2997953594 0.3896687627 5.962428276e-39
0.1558820605 -0.1422960907 0.1948574781 6.1464566e-39
0.1534736156 -0.1872619539 0.2521545291 6.1464566e-39
0.2284185886 -0.2315154374 0.3438225389 6.1464566e-39
0.169978559 -0.1196944043 0.1719374359 6.1464566e-39
0.1597370803 -0.3110520542 0.4124062359 6.330484923e-39
0.1375764459 -0.2433353215 0.3210911751 6.330484923e-39
0.1939622462 -0.1529286653 0.2294109762 6.330484923e-39
0.1897306889 -0.2323770523 0.3205496073 6.330484923e-39
0.1351680011 -0.2883011699 0.3783882558 6.514514648e-39
0.1564897746 -0.130801931 0.1835769564 6.514514648e-39
0.1651616693 -0.2096261829 0.2865315676 6.514514648e-39
0.1540813297 -0.1757677644 0.2408740222 6.514514648e-39
0.2254024148 -0.2879754603 0.4124001265 6.698542971e-39
0.4702465534 -0.04344983399 0.2907970846 6.698542971e-39
0.1945699453 -0.1414344758 0.2181304693 6.698542971e-39
0.2260101438 -0.2764813006 0.4011196196 6.698542971e-39
0.1951776445 -0.1299403161 0.2068499625 6.882571295e-39
0.1834896654 -0.107576102 0.1724729091 6.882571295e-39
0.1468559951 -0.310665369 0.4127652645 6.882571295e-39
0.1357757002 -0.2768070102 0.3671076894 6.882571295e-39
0.1570974737 -0.1193077192 0.1722964644 7.066599618e-39
0.1990102232 -0.2997071147 0.4122236669 7.066599618e-39
0.1768496633 -0.2319903374 0.3209086359 7.066599618e-39
0.1546890289 -0.1642736048 0.2295935154 7.066599618e-39
0.2266178429 -0.2649871409 0.3898391128 7.250627941e-39
0.1957853436 -0.1184461191 0.195569396 7.250627941e-39
0.1915538013 -0.1978945285 0.2867080271 7.250627941e-39
0.1840973645 -0.09608193487 0.1611924171 7.250627941e-39
0.4831499159 -0.04282568395 0.3026130497 7.434656265e-39
0.152280584 -0.2092394829 0.2868905962 7.434656265e-39
0.2272255421 -0.2534929514 0.3785586059 7.434656265e-39
0.2155374885 -0.2311287522 0.3441815674 7.434656265e-39
0.1963930577 -0.106951952 0.1842888892 7.618684588e-39
0.1921615005 -0.1864003688 0.2754275501 7.618684588e-39
0.1363833994 -0.2653128207 0.3558271825 7.618684588e-39
0.1339749545 -0.3102786839 0.4131242633 7.618684588e-39
0.1552967429 -0.1527794451 0.2183130383 7.802712912e-39
0.2278332412 -0.2419988066 0.3672780395 7.802712912e-39
0.1970007569 -0.09545779228 0.1730083823 7.802712912e-39
0.1927691996 -0.1749061644 0.2641470432 7.802712912e-39
0.1639686227 -0.2316036522 0.3212676346 7.986382503e-39
0.152888298 -0.1977452934 0.2756100893 7.986382503e-39
0.2284409404 -0.2305046171 0.3559975326 7.986382503e-39
0.2125213146 -0.2875887752 0.412759155 7.986382503e-39
0.1976084709 -0.08396358788 0.1617278755 8.170410826e-39
0.1933768988 -0.1634119898 0.2528664768 8.170410826e-39
0.1369911134 -0.2538186312 0.3445466757 8.170410826e-39
0.1345826685 -0.2987845242 0.4018437564 8.170410826e-39
0.1559044421 -0.1412852556 0.2070325315 8.35443915e-39
0.1897530556 -0.2313662171 0.332724601 8.35443915e-39
0.1939846128 -0.1519178301 0.2415859699 8.35443915e-39
0.1706086397 -0.1071894169 0.1728319228 8.35443915e-39
0.1534959972 -0.1862511188 0.2643295825 8.538467473e-39
0.1510875523 -0.2312169671 0.3216266632 8.538467473e-39
0.2254247963 -0.2869646251 0.4245751202 8.538467473e-39
0.194592312 -0.1404236406 0.2303054631 8.538467473e-39
0.1786727756 -0.1975078434 0.2870670557 8.722137064e-39
0.1712163389 -0.09569524229 0.1615514159 8.722137064e-39
0.159759447 -0.310041219 0.4245812297 8.722137064e-39
0.1375988126 -0.2423244864 0.3332661688 8.722137064e-39
0.1351903677 -0.2872903347 0.3905632496 8.906165387e-39
0.2260324955 -0.2754704654 0.4132946134 8.906165387e-39
0.1565121412 -0.1297910959 0.195751965 8.906165387e-39
0.2026564479 -0.2307420671 0.344540596 8.906165387e-39
0.195200026 -0.1289294809 0.2190249562 9.089834978e-39
0.1541036963 -0.1747569293 0.2530490458 9.089834978e-39
0.2266401947 -0.2639763057 0.4020141065 9.089834978e-39
0.1958077252 -0.117435284 0.2077444494 9.089834978e-39
0.1382065117 -0.230830282 0.3219856918 9.273863302e-39
0.1468783617 -0.3096545339 0.4249402583 9.273863302e-39
0.1357980669 -0.275796175 0.3792827427 9.273863302e-39
0.2272478938 -0.2524821162 0.3907335997 9.273863302e-39
0.2155598402 -0.230117932 0.3563565612 9.457532893e-39
0.1571198404 -0.1182968989 0.1844714582 9.457532893e-39
0.1964154243 -0.1059411243 0.1964638829 9.457532893e-39
0.1921838671 -0.1853895336 0.2876025438 9.457532893e-39
0.1847274303 -0.08357690275 0.162086904 9.641561216e-39
0.16579175 -0.1971211582 0.2874260843 9.641561216e-39
0.1547113955 -0.1632627696 0.241768539 9.641561216e-39
0.227855593 -0.2409879714 0.3794530928 9.641561216e-39
0.1970231235 -0.09444695711 0.1851833761 9.825230807e-39
0.1927915812 -0.1738953441 0.276322037 9.825230807e-39
0.1577275395 -0.1068027318 0.1731909513 9.825230807e-39
0.136405766 -0.2643019855 0.3680021763 9.825230807e-39
0.2284633219 -0.2294937819 0.3681725562 1.000925913e-38
0.2125436962 -0.28657794 0.4249341488 1.000925913e-38
0.1976308227 -0.08295276016 0.1739028841 1.000925913e-38
0.1933992803 -0.1624011546 0.2650415301 1.000925913e-38
0.1583352387 -0.09530855715 0.1619104445 1.019292872e-38
0.1339973211 -0.3092678487 0.425299257 1.019292872e-38
0.1553190947 -0.1517686099 0.2304880321 1.019292872e-38
0.1861515641 -0.2983095944 0.4247576892 1.019292872e-38
0.1529106498 -0.1967344582 0.2877850831 1.037659831e-38
0.1982385218 -0.07145859301 0.1626223773 1.037659831e-38
0.1940069795 -0.1509069949 0.2537609637 1.037659831e-38
0.1897754222 -0.230355382 0.3448995948 1.037659831e-38
0.1370134652 -0.252807796 0.3567216992 1.056062664e-38
0.1946146786 -0.1394128054 0.2424804568 1.056062664e-38
0.1346050203 -0.297773689 0.4140187502 1.056062664e-38
0.1559267938 -0.1402744204 0.2192075253 1.056062664e-38
0.1535183489 -0.1852402985 0.2765045762 1.074429623e-38
0.226054877 -0.2744596303 0.4254696071 1.074429623e-38
0.2026788294 -0.2297312468 0.3567155898 1.074429623e-38
0.1952223778 -0.1279186457 0.23119995 1.074429623e-38
0.1793028414 -0.1850028485 0.2879615426 1.092796582e-38
0.1718464047 -0.08319021761 0.1624459177 1.092796582e-38
0.1732705534 -0.2979229093 0.425116688 1.092796582e-38
0.1376211792 -0.2413136512 0.3454411924 1.092796582e-38
0.1958300769 -0.1164244488 0.2199194431 1.111163541e-38
0.1565345079 -0.1287802607 0.2079270184 1.111163541e-38
0.1352127343 -0.2862794995 0.4027382433 1.111163541e-38
0.154126063 -0.1737460941 0.2652240992 1.111163541e-38
0.2272702754 -0.2514712811 0.4029085934 1.1295305e-38
0.2155822217 -0.2291070968 0.3685315549 1.1295305e-38
0.196437791 -0.1049302816 0.2086389363 1.1295305e-38
0.1996626556 -0.2861912549 0.4252931476 1.1295305e-38
0.157142207 -0.1172860637 0.196646452 1.147897319e-38
0.1603895128 -0.2975362241 0.4254757166 1.147897319e-38
0.1970454901 -0.09343612939 0.1973583698 1.147897319e-38
0.1928139329 -0.172884509 0.2884970307 1.147897319e-38
0.185357511 -0.07107190788 0.162981391 1.166264278e-38
0.1577499211 -0.1057918966 0.1853659451 1.166264278e-38
0.1547337621 -0.1622519344 0.2539435327 1.166264278e-38
0.2284856737 -0.2284829468 0.3803476095 1.166264278e-38
0.2125660479 -0.2855671048 0.4371092021 1.184631237e-38
0.1976532042 -0.08194192499 0.1860778779 1.184631237e-38
0.1934216321 -0.1613903344 0.2772165239 1.184631237e-38
0.1775020957 -0.2184745073 0.3339781165 1.184631237e-38
0.1982609034 -0.07044776529 0.174797371 1.202998196e-38
0.1897977889 -0.2293445617 0.3570745885 1.202998196e-38
0.1664218009 -0.1846161485 0.2883205712 1.202998196e-38
0.1475084275 -0.297149539 0.4258347452 1.202998196e-38
0.1364281476 -0.2632911503 0.3801772594 1.221365155e-38
0.1553414762 -0.1507577747 0.2426630259 1.221365155e-38
0.1946370453 -0.1384019703 0.2546554506 1.221365155e-38
0.2260772288 -0.2734487951 0.4376446605 1.221365155e-38
0.2027011812 -0.2287204117 0.3688905835 1.239732115e-38
0.1952447593 -0.1269078106 0.2433749437 1.239732115e-38
0.1559491754 -0.1392635852 0.231382519 1.239732115e-38
0.1370358467 -0.2517969608 0.368896693 1.239732115e-38
0.1346274018 -0.2967628539 0.4261937439 1.258099074e-38
0.2266849279 -0.2619546354 0.4263641238 1.258099074e-38
0.1958524585 -0.1154136136 0.2320944369 1.258099074e-38
0.1799329221 -0.1724978089 0.2888560593 1.258099074e-38
0.1724764705 -0.07068522274 0.1633404195 1.276466033e-38
0.1565568745 -0.1277694255 0.2201020122 1.276466033e-38
0.16462107 -0.2180878222 0.3343371451 1.276466033e-38
0.1535407305 -0.1842294633 0.2886795998 1.276466033e-38
0.1732929051 -0.2969120741 0.4372917712 1.294832852e-38
0.2272926271 -0.2504604459 0.415083617 1.294832852e-38
0.2156045735 -0.2280962616 0.3807066083 1.294832852e-38
0.1996850371 -0.2851804197 0.4374682307 1.294832852e-38
0.1964601576 -0.1039194539 0.22081393 1.313163938e-38
0.1571645737 -0.1162752286 0.2088215053 1.313163938e-38
0.1376435459 -0.240302816 0.3576161861 1.313163938e-38
0.135235101 -0.2852686644 0.4149132669 1.313163938e-38
0.2279003263 -0.2389663011 0.4038031101 1.331530897e-38
0.1970678568 -0.09242528677 0.209533453 1.331530897e-38
0.1769167632 -0.2289578468 0.3574336171 1.331530897e-38
0.1577722728 -0.1047810689 0.1975409389 1.331530897e-38
0.1541484296 -0.1727352738 0.2773990929 1.349897856e-38
0.2285080552 -0.2274721116 0.3925226033 1.349897856e-38
0.1934440136 -0.1603794992 0.2893915176 1.349897856e-38
0.1859875768 -0.05856688321 0.1638758779 1.349897856e-38
0.1775244772 -0.2174636722 0.3461531103 1.368228942e-38
0.138251245 -0.2288086116 0.3463356793 1.368228942e-38
0.1358428001 -0.2737745047 0.40363276 1.368228942e-38
0.2131961286 -0.2730621099 0.4380036891 1.368228942e-38
0.1982832551 -0.06943693012 0.1869723797 1.386595901e-38
0.1940517128 -0.1488853395 0.2781110108 1.386595901e-38
0.1898201555 -0.2283337265 0.3692496121 1.386595901e-38
0.158987686 -0.08179270476 0.1749799252 1.386595901e-38
0.1547561288 -0.1612410992 0.2661185861 1.404926846e-38
0.1988909543 -0.05794274062 0.1756918728 1.404926846e-38
0.1670518816 -0.1721111238 0.2892150581 1.404926846e-38
0.1595953852 -0.07029853761 0.1636994332 1.404926846e-38
0.1553638279 -0.1497469395 0.2548380196 1.423293806e-38
0.1610195935 -0.2850311995 0.4263702035 1.423293806e-38
0.1388589442 -0.2173144519 0.3350551724 1.423293806e-38
0.2027235627 -0.2277095765 0.3810656369 1.423293806e-38
0.1952671111 -0.1258969754 0.2555499375 1.441624891e-38
0.1868040115 -0.2847937346 0.4378272295 1.441624891e-38
0.1559715271 -0.13825275 0.2435575128 1.441624891e-38
0.1640357375 -0.2285711616 0.3577926457 1.441624891e-38
0.2267073095 -0.2609438002 0.4385391772 1.459991851e-38
0.1958748102 -0.1144027784 0.2442694604 1.459991851e-38
0.1565792412 -0.1267585903 0.2322770059 1.459991851e-38
0.1481384933 -0.2846445143 0.4267292321 1.459991851e-38
0.2273150086 -0.2494496256 0.4272586107 1.478322936e-38
0.215626955 -0.2270854264 0.392881602 1.478322936e-38
0.1964825243 -0.1029086187 0.2329889536 1.478322936e-38
0.180562973 -0.1599928141 0.2897505462 1.478322936e-38
0.1731065512 -0.05818019807 0.1642349064 1.496689755e-38
0.1646434367 -0.217076987 0.3465121388 1.496689755e-38
0.2279227078 -0.2379554659 0.4159781039 1.496689755e-38
0.2003151178 -0.2726754248 0.4383627176 1.496689755e-38
0.1970902234 -0.09141445905 0.2217084467 1.515020841e-38
0.1769391298 -0.2279470116 0.3696086109 1.515020841e-38
0.1577946544 -0.1037702262 0.2097159922 1.515020841e-38
0.1511546373 -0.2281844765 0.3581516445 1.515020841e-38
0.1376659125 -0.2392919809 0.3697911799 1.533351927e-38
0.228530407 -0.2264612764 0.404697597 1.533351927e-38
0.1976979375 -0.07992025465 0.2104279399 1.533351927e-38
0.1860099435 -0.05755605549 0.1760508865 1.533351927e-38
0.1584023535 -0.09227606654 0.1984354258 1.551683013e-38
0.1541707963 -0.1717244387 0.2895740867 1.551683013e-38
0.1352574676 -0.2842578292 0.4270882607 1.551683013e-38
0.1983056366 -0.0684261024 0.1991473734 1.551683013e-38
0.1940740794 -0.1478745043 0.2902860045 1.570049832e-38
0.1898425221 -0.2273228914 0.3814246655 1.570049832e-38
0.1739229858 -0.2844070494 0.4381862581 1.570049832e-38
0.1590100527 -0.08078186959 0.1871549338 1.570049832e-38
0.1547784954 -0.160230279 0.2782935798 1.588380918e-38
0.1517623514 -0.2166903019 0.3468711376 1.588380918e-38
0.1382736117 -0.2277977914 0.358510673 1.588380918e-38
0.2138262093 -0.2605571151 0.438898176 1.588380918e-38
0.1989133358 -0.05693190545 0.1878668666 1.606712004e-38
0.1946817786 -0.1363803148 0.2790054977 1.606712004e-38
0.1596177518 -0.06928770989 0.175874427 1.606712004e-38
0.1553862095 -0.1487361044 0.267013073 1.606712004e-38
0.1358651668 -0.2727636695 0.4158077538 1.625043089e-38
0.1952894926 -0.1248861328 0.2677250206 1.625043089e-38
0.1676819474 -0.1596061289 0.290109545 1.625043089e-38
0.160225451 -0.05779350549 0.164593935 1.625043089e-38
0.1559939086 -0.1372419149 0.2557325065 1.643374035e-38
0.1388813257 -0.2163036168 0.3472301662 1.643374035e-38
0.1958971918 -0.1133919507 0.2564444542 1.643374035e-38
0.1874340773 -0.2722887397 0.4387217164 1.643374035e-38
0.1640580893 -0.2275603265 0.3699676394 1.661705121e-38
0.1566016078 -0.1257477552 0.2444519997 1.661705121e-38
0.1364728808 -0.26126948 0.404527247 1.661705121e-38
0.2273373604 -0.2484387904 0.4394336641 1.661705121e-38
0.1965048909 -0.101897791 0.2451639473 1.680036207e-38
0.1731289029 -0.05716937035 0.1764099002 1.680036207e-38
0.157209307 -0.1142535582 0.2331714928 1.680036207e-38
0.1616496444 -0.2725262046 0.4272647202 1.680036207e-38
0.2279450595 -0.2369446456 0.4281530976 1.698367293e-38
0.1971125901 -0.09040362388 0.2338834405 1.698367293e-38
0.1811930537 -0.1474878192 0.2906450331 1.698367293e-38
0.1769614965 -0.2269361764 0.3817836642 1.698367293e-38
0.1578170061 -0.1027593985 0.221890986 1.716698239e-38
0.13708058 -0.2497753054 0.3932467401 1.716698239e-38
0.2285527885 -0.2254504412 0.4168725908 1.716698239e-38
0.2009451687 -0.2601704299 0.4392572045 1.716698239e-38
0.1977202892 -0.07890942693 0.2226029336 1.735029324e-38
0.1860323101 -0.05654522032 0.1882258952 1.735029324e-38
0.1584247053 -0.09126522392 0.2106104791 1.735029324e-38
0.1511770189 -0.2271736413 0.370326668 1.735029324e-38
0.1983279884 -0.06741525978 0.2113224268 1.75336041e-38
0.1590324193 -0.07977104187 0.1993299425 1.75336041e-38
0.1548008621 -0.1592194438 0.2904685736 1.75336041e-38
0.148768574 -0.2721395195 0.427623719 1.75336041e-38
0.1376882792 -0.2382811457 0.3819662333 1.771655483e-38
0.1989356875 -0.05592107773 0.2000418603 1.771655483e-38
0.1947041452 -0.1353694797 0.2911805212 1.771655483e-38
0.1745530516 -0.2719020545 0.439080745 1.771655483e-38
0.1596401185 -0.06827687472 0.1880494356 1.789986569e-38
0.1554085612 -0.1477252841 0.2791880667 1.789986569e-38
0.2144562602 -0.2480521053 0.4397926927 1.789986569e-38
0.1953118443 -0.1238753125 0.2799000144 1.789986569e-38
0.1602478325 -0.05678267777 0.1767689288 1.808317654e-38
0.1560162604 -0.1362310797 0.2679075599 1.808317654e-38
0.1382959783 -0.2267869562 0.3706856668 1.808317654e-38
0.1358875334 -0.2717528343 0.4279827476 1.808317654e-38
0.2033759952 -0.2141937166 0.3941351175 1.826612727e-38
0.1959195435 -0.1123811156 0.2686195076 1.826612727e-38
0.1683120131 -0.1471011341 0.2910040617 1.826612727e-38
0.1640804708 -0.2265494913 0.3821426928 1.826612727e-38
0.1566239744 -0.1247369125 0.2566269934 1.844943813e-38
0.1965272576 -0.1008869559 0.2573389411 1.844943813e-38
0.1880641431 -0.2597837448 0.4396162331 1.844943813e-38
0.1731512845 -0.05615853518 0.1885848939 1.844943813e-38
0.1572316736 -0.1132427305 0.2453464866 1.863274899e-38
0.1389036775 -0.2152927965 0.35940516 1.863274899e-38
0.1364952326 -0.2602586448 0.4167022407 1.863274899e-38
0.2279674411 -0.2359337956 0.440328151 1.863274899e-38
0.2162793875 -0.2135695964 0.4059511125 1.881569971e-38
0.1971349567 -0.08939279616 0.2460584342 1.881569971e-38
0.1854469776 -0.06702857465 0.2116814554 1.881569971e-38
0.1578393877 -0.1017485633 0.2340660095 1.881569971e-38
0.2285751402 -0.224439621 0.4290475845 1.899901057e-38
0.1977426708 -0.07789859176 0.2347779274 1.899901057e-38
0.1860546768 -0.0555343926 0.2004008889 1.899901057e-38
0.1818231195 -0.1349827945 0.29153952 1.899901057e-38
0.1584470868 -0.0902543962 0.2227855027 1.91819627e-38
0.1395113766 -0.2037986219 0.3481246531 1.91819627e-38
0.1371029317 -0.2487644702 0.4054217339 1.91819627e-38
0.2015752494 -0.2476654202 0.4401516914 1.91819627e-38
0.1983503699 -0.06640443206 0.2234974205 1.936527215e-38
0.1622797251 -0.2600212097 0.4281592071 1.936527215e-38
0.159054786 -0.07876019925 0.2115049958 1.936527215e-38
0.1904949546 -0.2138070315 0.3944941461 1.936527215e-38
0.1596624851 -0.067266047 0.2002244294 1.954822428e-38
0.1554309428 -0.1467144489 0.2913630605 1.954822428e-38
0.1511993706 -0.2261628062 0.3825017214 1.954822428e-38
0.1377106458 -0.2372703105 0.394141227 1.954822428e-38
0.1953342259 -0.1228644773 0.2920750082 1.973153514e-38
0.1911026537 -0.2023128867 0.3832136393 1.973153514e-38
0.1751831174 -0.2593970597 0.4399752319 1.973153514e-38
0.1602701843 -0.0557718426 0.1889439225 1.973153514e-38
0.1560386419 -0.1352202594 0.2800825536 1.991448586e-38
0.2150863409 -0.2355471104 0.4406871796 1.991448586e-38
0.195941925 -0.1113702804 0.2807945013 1.991448586e-38
0.1757908165 -0.2479028851 0.4286946654 1.991448586e-38
0.172565937 -0.06664188951 0.2120404541 2.009743799e-38
0.1566463411 -0.1237260774 0.2688020468 2.009743799e-38
0.1493986249 -0.2596344948 0.4285182059 2.009743799e-38
0.138318345 -0.225776121 0.3828607202 2.009743799e-38
0.2040060461 -0.2016887367 0.3950296044 2.028074885e-38
0.1965496242 -0.09987612069 0.2695139945 2.028074885e-38
0.1731736362 -0.05514770746 0.2007598877 2.028074885e-38
0.1689420938 -0.1345961094 0.2918985486 2.028074885e-38
0.1572540402 -0.1122318953 0.2575215101 2.046369957e-38
0.2163017392 -0.2125587612 0.4181261063 2.046369957e-38
0.2046137452 -0.1901945472 0.3837491274 2.046369957e-38
0.1971573234 -0.08838196099 0.258233428 2.046369957e-38
0.1886942089 -0.247278735 0.44051072 2.06466517e-38
0.1854693294 -0.06601774693 0.2238564491 2.06466517e-38
0.1578617394 -0.1007377356 0.2462410033 2.06466517e-38
0.138926059 -0.2142819613 0.3715801537 2.06466517e-38
0.2285975218 -0.2234287709 0.4412226379 2.082996116e-38
0.2169094384 -0.2010645866 0.4068455994 2.082996116e-38
0.1977650225 -0.07688776404 0.2469529212 2.082996116e-38
0.1584694386 -0.08924356103 0.2349604964 2.082996116e-38
0.1365175992 -0.2592478096 0.4288772345 2.101291328e-38
0.2175171375 -0.1895703971 0.3955650926 2.101291328e-38
0.1983727217 -0.06539359689 0.2356724143 2.101291328e-38
0.178221643 -0.2019262016 0.3835726678 2.101291328e-38
0.1824531853 -0.1224777922 0.2924340069 2.119586541e-38
0.1590771526 -0.07774937153 0.2236799896 2.119586541e-38
0.1395337582 -0.2027878016 0.3602996469 2.119586541e-38
0.2022053003 -0.2351604253 0.4410461783 2.119586541e-38
0.1629097909 -0.2475161999 0.429053694 2.137881613e-38
0.1596848518 -0.06625520438 0.2123994827 2.137881613e-38
0.1371253133 -0.247753635 0.4175967276 2.137881613e-38
0.1911250353 -0.2013020515 0.395388633 2.137881613e-38
0.1602925658 -0.05476101488 0.2011189163 2.156176826e-38
0.1560609937 -0.1342094243 0.2922575772 2.156176826e-38
0.1401414573 -0.1912935972 0.34901914 2.156176826e-38
0.2034207284 -0.2121720463 0.4184851348 2.156176826e-38
0.1959642768 -0.1103594527 0.2929694951 2.174471899e-38
0.1917327344 -0.189807862 0.3841081262 2.174471899e-38
0.1725883037 -0.06563106179 0.2242154479 2.174471899e-38
0.1566687077 -0.1227152571 0.2809770703 2.174471899e-38
0.1377330124 -0.2362594754 0.4063162208 2.192767111e-38
0.2157164216 -0.2230420858 0.4415816665 2.192767111e-38
0.2040284276 -0.2006779015 0.407204628 2.192767111e-38
0.1965719908 -0.09886528552 0.2816889882 2.192767111e-38
0.1764208972 -0.2353979051 0.4295891821 2.211062324e-38
0.1647329032 -0.2130336612 0.3952121735 2.211062324e-38
0.1572764069 -0.1112210602 0.2696965635 2.211062324e-38
0.2163241208 -0.211547941 0.4303011 2.211062324e-38
0.2046361268 -0.189183712 0.3959241211 2.229357396e-38
0.19717969 -0.08737112582 0.2704084814 2.229357396e-38
0.1854917109 -0.06500691175 0.2360314429 2.229357396e-38
0.1695721596 -0.1220911071 0.2927930355 2.229357396e-38
0.1578841209 -0.09972690046 0.258415997 2.247652609e-38
0.1383407116 -0.2247652858 0.3950357139 2.247652609e-38
0.2169318199 -0.2000537515 0.4190205932 2.247652609e-38
0.1977874041 -0.07587692887 0.2591279149 2.247652609e-38
0.1893242896 -0.2347737402 0.4414052069 2.265947681e-38
0.1584918201 -0.08823273331 0.2471354902 2.265947681e-38
0.2175395191 -0.188559562 0.4077400863 2.265947681e-38
0.1983951032 -0.06438276917 0.2478474081 2.265947681e-38
0.1590995193 -0.07673853636 0.2358549833 2.284242894e-38
0.1389484107 -0.2132711262 0.3837552071 2.284242894e-38
0.1905396879 -0.2117853612 0.4188441336 2.284242894e-38
0.183083266 -0.1099727675 0.2933285236 2.284242894e-38
0.1788517088 -0.1894211769 0.3844671547 2.302537966e-38
0.1597072184 -0.06524437666 0.2245744765 2.302537966e-38
0.1395561099 -0.2017769665 0.3724746704 2.302537966e-38
0.202835381 -0.2226554006 0.441940695 2.302537966e-38
0.1635398567 -0.2350111902 0.4299481809 2.320833179e-38
0.151851818 -0.2126469761 0.395571202 2.320833179e-38
0.140163824 -0.190282777 0.3611941636 2.320833179e-38
0.137147665 -0.2467427999 0.4297717214 2.320833179e-38
0.2034430802 -0.211161226 0.4306601286 2.339092378e-38
0.1917551011 -0.1887970269 0.3962831199 2.339092378e-38
0.1726106703 -0.06462022662 0.2363904417 2.339092378e-38
0.1566910744 -0.1217044219 0.2931520641 2.339092378e-38
0.1407715231 -0.1787886024 0.3499136567 2.348204041e-38
0.1965943575 -0.0978544578 0.293863982 2.348204041e-38
0.1572987735 -0.110210225 0.2818715572 2.348204041e-38
0.1377553791 -0.2352486402 0.4184912145 2.348204041e-38
0.2163464725 -0.2105370909 0.4424761534 2.348132155e-38
0.1972020566 -0.08636029065 0.2825834751 2.348132155e-38
0.1855140626 -0.06399608403 0.2482064366 2.348132155e-38
0.177050963 -0.2228928506 0.430483669 2.348132155e-38
0.165362969 -0.2005286813 0.3961066604 2.348060128e-38
0.1579064727 -0.09871606529 0.2705910504 2.348060128e-38
0.2169541717 -0.1990429312 0.4311955869 2.348060128e-38
0.1978097558 -0.0748660937 0.2713029683 2.348060128e-38
0.1702022254 -0.1095860824 0.2936875224 2.347952368e-38
0.1585141718 -0.08722189814 0.2593104839 2.347952368e-38
0.1383630782 -0.2237544507 0.4072107375 2.347952368e-38
0.2175618708 -0.1875487268 0.4199150801 2.347952368e-38
0.198417455 -0.063371934 0.2600224018 2.347880341e-38
0.1899543554 -0.2222687155 0.4422996938 2.347880341e-38
0.1782663763 -0.1999045312 0.4079226553 2.347880341e-38
0.1591218859 -0.07572770864 0.2480299771 2.347880341e-38
0.1506587863 -0.234624505 0.4303072095 2.347808455e-38
0.1389707923 -0.212260291 0.3959302306 2.347808455e-38
0.1905620694 -0.2107745409 0.4310191274 2.347808455e-38
0.1788740754 -0.1884103417 0.3966421485 2.347808455e-38
0.1597295851 -0.06423354149 0.2367494702 2.347700555e-38
0.1395784914 -0.2007661313 0.3846497238 2.347700555e-38
0.1401861906 -0.1892719418 0.3733691573 2.347700555e-38
0.2034654617 -0.210150376 0.442835182 2.347700555e-38
0.172633037 -0.0636093989 0.2485654652 2.347628668e-38
0.1641699374 -0.2225061655 0.4308426678 2.347628668e-38
0.1524818838 -0.2001419812 0.3964656889 2.347628668e-38
0.1407938898 -0.1777777821 0.3620886505 2.347628668e-38
0.1647776365 -0.2110119909 0.4195621908 2.347520768e-38
0.1573211402 -0.1091993973 0.294046551 2.347520768e-38
0.1972244233 -0.08534946293 0.2947584689 2.347520768e-38
0.1855364442 -0.06298524886 0.2603814304 2.347520768e-38
0.1653853357 -0.1995178461 0.4082816541 2.347448882e-38
0.1579288542 -0.09770523012 0.2827660441 2.347448882e-38
0.1377777457 -0.2342378199 0.4306662381 2.347448882e-38
0.2169765532 -0.1980320811 0.4433706403 2.347448882e-38
0.1978321373 -0.07385525852 0.2834779918 2.347340982e-38
0.1776810288 -0.2103878558 0.4313781559 2.347340982e-38
0.1659930348 -0.1880236566 0.3970011771 2.347340982e-38
0.1585365534 -0.08621106297 0.2714855373 2.347340982e-38
0.1383854449 -0.2227436155 0.4193857312 2.347269095e-38
0.2175842524 -0.1865379065 0.4320901036 2.347269095e-38
0.1984398365 -0.06236109883 0.272197485 2.347269095e-38
0.178288728 -0.1988936961 0.4200976491 2.347269095e-38
0.1708323061 -0.09708108753 0.2945820093 2.347161195e-38
0.1591442525 -0.07471687347 0.2602049708 2.347161195e-38
0.138993144 -0.2112494558 0.4081052244 2.347161195e-38
0.1905844212 -0.2097636908 0.4431941807 2.347161195e-38
0.1788964421 -0.1873995066 0.4088171422 2.347089308e-38
0.1597519517 -0.06322271377 0.248924464 2.347089308e-38
0.1512888372 -0.2221194804 0.4312016964 2.347089308e-38
0.1396008432 -0.1997552961 0.3968247175 2.347089308e-38
0.1402085572 -0.1882611066 0.3855442107 2.346981408e-38
0.1726554036 -0.06259856373 0.260740459 2.346981408e-38
0.1408162564 -0.1767669469 0.3742636442 2.346981408e-38
0.1648000032 -0.2100011706 0.4317371845 2.346981408e-38
0.1531119645 -0.1876369566 0.3973601758 2.346909522e-38
0.1414239705 -0.1652727574 0.3629831374 2.346909522e-38
0.1972467899 -0.08433862776 0.3069334924 2.346909522e-38
0.157951206 -0.0966944024 0.2949410379 2.346909522e-38
0.1420316696 -0.1537785828 0.3517026305 2.346801622e-38
0.1978544891 -0.07284442335 0.2956529856 2.346801622e-38
0.1660154164 -0.1870128214 0.4091761708 2.346801622e-38
0.1585589051 -0.0852002278 0.283660531 2.346801622e-38
0.1384078115 -0.2217327952 0.431560725 2.346693862e-38
0.2176066041 -0.1855270565 0.444265157 2.346693862e-38
0.1984621882 -0.06135026366 0.2843724787 2.346693862e-38
0.1666231155 -0.1755186468 0.397895664 2.346693862e-38
0.1591666192 -0.0737060383 0.2723800242 2.346621835e-38
0.1390155256 -0.2102386206 0.4202802181 2.346621835e-38
0.1990698874 -0.04985607415 0.2730919719 2.346621835e-38
0.1789188087 -0.1863886714 0.420992136 2.346621835e-38
0.1597743183 -0.0622118786 0.2610994577 2.346514075e-38
0.1396232247 -0.1987444609 0.4089997113 2.346514075e-38
0.1519189179 -0.2096144855 0.4320961833 2.346514075e-38
0.1402309239 -0.1872502714 0.3977192044 2.346514075e-38
0.1843657643 -0.08395194262 0.3072924912 2.346406175e-38
0.1525266171 -0.1981203109 0.4208156765 2.346406175e-38
0.140838623 -0.1757561117 0.3864386976 2.346406175e-38
0.1531343162 -0.1866261214 0.4095351994 2.346406175e-38
0.1414463222 -0.1642619222 0.3751581311 2.346334289e-38
0.1537420154 -0.1751319617 0.3982546628 2.346334289e-38
0.1420540214 -0.1527677625 0.3638776243 2.346334289e-38
0.1978768706 -0.07183359563 0.3078279793 2.346334289e-38
0.1861888766 -0.04946938902 0.2734509706 2.346226389e-38
0.1585812867 -0.08418939263 0.2958355248 2.346226389e-38
0.1426617354 -0.1412735879 0.3525971174 2.346226389e-38
0.1984845698 -0.06033942848 0.2965474725 2.346226389e-38
0.1666454673 -0.1745078117 0.4100706577 2.346118629e-38
0.1591889858 -0.07269520313 0.2845550179 2.346118629e-38
0.1390378773 -0.2092278004 0.4324552119 2.346118629e-38
0.1990922689 -0.04884523898 0.2852669656 2.346118629e-38
0.1714847386 -0.08356525004 0.3076515198 2.346010729e-38
0.159796685 -0.06120104343 0.2732745409 2.346010729e-38
0.1396455765 -0.1977336258 0.421174705 2.346010729e-38
0.1795488745 -0.1738836765 0.4218866229 2.346010729e-38
0.1402532905 -0.1862394363 0.4098941982 2.345938842e-38
0.1525489837 -0.1971094906 0.4329906702 2.345938842e-38
0.1408609897 -0.1747452766 0.3986136913 2.345938842e-38
0.1849958301 -0.0714469105 0.3081869781 2.345938842e-38
0.1733078361 -0.04908270389 0.2738099992 2.345830942e-38
0.1531566978 -0.1856152862 0.4217101932 2.345830942e-38
0.1414687037 -0.1632510871 0.3873331845 2.345830942e-38
0.1420764029 -0.1517569274 0.376052618 2.345830942e-38
0.1862112433 -0.04845855385 0.2856259942 2.345723183e-38
0.1586036384 -0.08317856491 0.3080105186 2.345723183e-38
0.1426841021 -0.1402627677 0.3647721112 2.345723183e-38
0.1985069215 -0.05932860076 0.3087224662 2.345723183e-38
0.1592113525 -0.07168436795 0.2967300415 2.345615283e-38
0.1432918012 -0.1287685633 0.3534916341 2.345615283e-38
0.1991146207 -0.04783441126 0.2974419594 2.345615283e-38
0.167275548 -0.162002787 0.4109651446 2.345615283e-38
0.1598190516 -0.06019020826 0.2854495347 2.345507523e-38
0.139667958 -0.1967228055 0.4333496988 2.345507523e-38
0.1721148044 -0.07106022537 0.3085460067 2.345507523e-38
0.1604267657 -0.0486960113 0.2741690278 2.345507523e-38
0.1402756572 -0.1852286011 0.4220691919 2.345399623e-38
0.1408833563 -0.1737344414 0.4107886851 2.345399623e-38
0.1733302176 -0.04807186872 0.285984993 2.345399623e-38
0.1531790495 -0.184604466 0.4338851869 2.345399623e-38
0.1414910555 -0.1622402519 0.3995081782 2.345291723e-38
0.1856259108 -0.05894191563 0.3090814948 2.345291723e-38
0.1420987546 -0.1507460922 0.3882276714 2.345291723e-38
0.1862336099 -0.04744772613 0.297800988 2.345291723e-38
0.1427064687 -0.1392519325 0.3769471347 2.345219836e-38
0.1433141679 -0.127757743 0.3656666279 2.345219836e-38
0.1991370022 -0.04682357609 0.3096169531 2.345219836e-38
0.1598414183 -0.05917937309 0.2976245284 2.345219836e-38
0.1439218819 -0.116263561 0.354386121 2.345111936e-38
0.1604491174 -0.04768517613 0.2863440216 2.345111936e-38
0.1402980238 -0.1842177808 0.4342441857 2.345111936e-38
0.1727448702 -0.0585552305 0.3094404936 2.345111936e-38
0.140905723 -0.1727236062 0.4229636788 2.345004176e-38
0.1733525693 -0.047061041 0.2981599867 2.345004176e-38
0.141513437 -0.1612294167 0.4116832018 2.345004176e-38
0.1421211362 -0.149735257 0.4004026949 2.345004176e-38
0.1427288353 -0.1382410973 0.3891221881 2.344896276e-38
0.1433365345 -0.1267469078 0.3778416216 2.344896276e-38
0.1598637849 -0.05816854537 0.3097995222 2.344896276e-38
0.160471499 -0.04667434841 0.2985190153 2.344896276e-38
0.1409280896 -0.171712786 0.4351387024 2.344788516e-38
0.1733749509 -0.04605020583 0.3103349805 2.344788516e-38
0.1415357888 -0.1602185816 0.4238581955 2.344788516e-38
0.1421434879 -0.1487244219 0.4125776887 2.344788516e-38
0.142751202 -0.1372302622 0.4012971818 2.344680616e-38
0.1433589011 -0.1257360727 0.390016675 2.344680616e-38
0.1439666152 -0.1142419055 0.3787361085 2.344680616e-38
0.1604938507 -0.04566351324 0.3106940091 2.344680616e-38
0.1445743144 -0.1027477086 0.3674556017 2.344572857e-38
0.1451820135 -0.09125354886 0.3561750948 2.344572857e-38
0.1856929958 -0.05590941012 0.3456065357 2.344572857e-38
0.1421658695 -0.1477135867 0.4247526824 2.344572857e-38
0.1427735686 -0.136219427 0.4134721756 2.344464957e-38
0.1433812678 -0.12472523 0.4021916687 2.344464957e-38
0.1439889669 -0.1132310629 0.3909111619 2.344464957e-38
0.1445966661 -0.1017368808 0.3796305954 2.344464957e-38
0.1728119701 -0.05552272499 0.3459655344 2.344357197e-38
0.1452043802 -0.09024271369 0.3683500886 2.344357197e-38
0.1458120793 -0.07874854654 0.3570695817 2.344357197e-38
0.1857153773 -0.0548985824 0.3577815294 2.344357197e-38
0.1421882212 -0.1467027664 0.4369276762 2.344249297e-38
0.1863230765 -0.0434043929 0.3465010226 2.344249297e-38
0.1427959353 -0.1352085918 0.4256471694 2.344249297e-38
0.1434036344 -0.1237143949 0.4143666625 2.344249297e-38
0.1599308848 -0.05513603985 0.346324563 2.344141397e-38
0.1440113485 -0.1122202352 0.4030861557 2.344141397e-38
0.1446190476 -0.1007260382 0.3918056488 2.344141397e-38
0.1728343368 -0.05451189727 0.3581405282 2.344141397e-38
0.1452267468 -0.08923188597 0.3805250823 2.344033637e-38
0.1734420359 -0.04301770777 0.3468600512 2.344033637e-38
0.145834446 -0.07773771137 0.3692445755 2.344033637e-38
0.1857377291 -0.05388774723 0.3699565232 2.344033637e-38
0.1464421451 -0.06624352187 0.3579640985 2.343925737e-38
0.1863454431 -0.04239355773 0.3586760163 2.343925737e-38
0.1470498443 -0.05474934727 0.3466835916 2.343925737e-38
0.1434260011 -0.1227035597 0.4265416563 2.343925737e-38
0.1599532515 -0.05412521213 0.3584995568 2.343817977e-38
0.1440337002 -0.1112094 0.4152611494 2.343817977e-38
0.1605609655 -0.04263101518 0.3472190499 2.343817977e-38
0.1446413994 -0.0997152105 0.4039806426 2.343817977e-38
0.1728567034 -0.0535010621 0.3703155518 2.343710077e-38
0.1452491134 -0.08822104335 0.3927001655 2.343710077e-38
0.1734644175 -0.04200687259 0.3590350449 2.343710077e-38
0.1458568126 -0.07672688365 0.3814195991 2.343710077e-38
0.1857601106 -0.05287691951 0.3821315169 2.343566444e-38
0.1464645267 -0.0652326867 0.3701390922 2.343566444e-38
0.1863678098 -0.04138273001 0.3708510101 2.343566444e-38
0.1470722258 -0.05373851955 0.3588585854 2.343566444e-38
0.147679925 -0.04224433005 0.3475780785 2.343458544e-38
0.1599756181 -0.05311437696 0.3706745505 2.343458544e-38
0.1440560818 -0.1101985723 0.4274361432 2.343458544e-38
0.1605833173 -0.04162018001 0.3593940437 2.343458544e-38
0.1446637809 -0.09870437533 0.4161556661 2.343350644e-38
0.17287907 -0.05249023438 0.3824905455 2.343350644e-38
0.1734867692 -0.04099604487 0.3712100387 2.343350644e-38
0.1458791792 -0.07571604103 0.3935946524 2.343350644e-38
0.1857824624 -0.05186607689 0.3943065703 2.343242884e-38
0.1464868784 -0.06422185898 0.382314086 2.343242884e-38
0.1863901764 -0.04037189484 0.3830260038 2.343242884e-38
0.1470945776 -0.05272768438 0.3710335791 2.343242884e-38
0.1599979848 -0.05210354924 0.3828495443 2.343134984e-38
0.1606056988 -0.04060935229 0.3715690672 2.343134984e-38
0.1446861327 -0.09769354761 0.4283306599 2.343134984e-38
0.1729014367 -0.0514793992 0.3946655989 2.343134984e-38
0.1452938467 -0.08619938046 0.417050153 2.343027224e-38
0.1735091507 -0.0399852097 0.3833850324 2.343027224e-38
0.1459015459 -0.07470521331 0.4057696462 2.343027224e-38
0.1858048439 -0.05085524917 0.406481564 2.343027224e-38
0.1465092599 -0.06321101636 0.3944891393 2.342919324e-38
0.1864125431 -0.03936105967 0.3952010572 2.342919324e-38
0.1471169591 -0.05171685666 0.3832085729 2.342919324e-38
0.1477246583 -0.04022266716 0.371928066 2.342919324e-38
0.1600203514 -0.05109271407 0.3950246274 2.342811565e-38
0.1606280506 -0.03959851712 0.383744061 2.342811565e-38
0.1729238033 -0.05046856403 0.4068405926 2.342811565e-38
0.1453162134 -0.08518855274 0.4292251468 2.342811565e-38
0.1735315025 -0.03897437453 0.3955600858 2.342703665e-38
0.1459239125 -0.07369437814 0.4179446399 2.342703665e-38
0.1858271956 -0.049844414 0.4186565578 2.342703665e-38
0.1465316117 -0.06220018864 0.4066641331 2.342703665e-38
0.1864349097 -0.03835022449 0.4073760808 2.342559891e-38
0.1471393108 -0.05070602149 0.3953836262 2.342559891e-38
0.1477470249 -0.03921183199 0.3841030598 2.342559891e-38
0.1600427181 -0.0500818789 0.4071996212 2.342559891e-38
0.1606504321 -0.03858768195 0.3959191144 2.342452132e-38
0.17294617 -0.04945772886 0.4190155864 2.342452132e-38
0.173553884 -0.03796353936 0.4077350795 2.342452132e-38
0.1459462792 -0.07268355042 0.4301196337 2.342452132e-38
0.1858495772 -0.04883358628 0.4308315814 2.342344232e-38
0.1465539932 -0.06118935347 0.4188391268 2.342344232e-38
0.1864572763 -0.03733938932 0.4195510745 2.342344232e-38
0.1471616924 -0.04969518632 0.40755862 2.342344232e-38
0.1477693915 -0.03820099682 0.3962781131 2.342236472e-38
0.1600650847 -0.04907104373 0.419374615 2.342236472e-38
0.1606727839 -0.03757684678 0.4080941081 2.342236472e-38
0.1729685366 -0.04844690114 0.4311905801 2.342236472e-38
0.1735762358 -0.03695270419 0.4199100733 2.342128572e-38
0.1858719289 -0.0478227511 0.4430065751 2.342128572e-38
0.146576345 -0.06017852575 0.4310141206 2.342128572e-38
0.186479643 -0.0363285616 0.4317260683 2.342128572e-38
0.1471840441 -0.04868435115 0.4197336137 2.342020812e-38
0.1477917582 -0.03719016165 0.4084531367 2.342020812e-38
0.1600874513 -0.04806021601 0.4315496087 2.342020812e-38
0.1606951654 -0.03656601161 0.4202691019 2.342020812e-38
0.1729909033 -0.04743606597 0.4433655739 2.341912912e-38
0.1735986173 -0.03594187647 0.432085067 2.341912912e-38
0.1865020096 -0.03531772643 0.443901062 2.341912912e-38
0.1472064257 -0.04767352343 0.4319086373 2.341912912e-38
0.1478141248 -0.03617932647 0.4206281304 2.341805152e-38
0.1607175171 -0.03555518389 0.4324440956 2.341805152e-38
0.1736209691 -0.0349310413 0.4442600906 2.341805152e-38
0.1478364915 -0.03516849875 0.4328031242 2.341805152e-38
