# .PCD v0.7 - Point Cloud Data file format
VERSION 0.7
FIELDS x y z rgb
SIZE 4 4 4 4
TYPE F F F F
COUNT 1 1 1 1
WIDTH 827
HEIGHT 1
VIEWPOINT 0 0 0 1 0 0 0
POINTS 827
DATA ascii
-0.12398009 -0.4210740626 -0.1918188483 9.472685133e-39
0.05080711842 -0.3990083039 -0.1893597841 9.290090338e-39
0.05071455613 -0.3992758393 -0.1769266427 9.290090338e-39
-0.03650515899 -0.3978592753 -0.1778649688 9.290090338e-39
-0.0364125967 -0.3975917399 -0.1902981251 9.290090338e-39
-0.1491664499 -0.433386296 -0.1799449921 9.290090338e-39
0.07555313408 -0.4118624926 -0.1893828958 9.290090338e-39
-0.186627686 -0.4449611008 -0.1930714846 9.290090338e-39
-0.3240237534 -0.4795484245 -0.2202859521 9.290090338e-39
-0.09888628125 -0.4090293348 -0.191259563 9.107495543e-39
0.02606111765 -0.3861541152 -0.1893366873 9.107495543e-39
-0.2618277371 -0.4689133465 -0.1820250154 9.107495543e-39
0.02596855536 -0.3864216506 -0.176903531 9.107495543e-39
-0.04887254909 -0.3973893523 -0.190432176 9.107495543e-39
0.0135085471 -0.3862192631 -0.1770375818 9.107495543e-39
-0.186720252 -0.4452286363 -0.1806383282 9.107495543e-39
0.1002066284 -0.4249842465 -0.1769728363 9.107495543e-39
0.001048600767 -0.3860169053 -0.1771716326 8.924899347e-39
0.03852106258 -0.386356473 -0.1892026365 8.924899347e-39
-0.2263914645 -0.4604877234 -0.2315492481 8.924899347e-39
-0.3241163194 -0.4798159301 -0.2078527957 8.924899347e-39
-0.01131878328 -0.3855469823 -0.189738825 8.924899347e-39
-0.3231906891 -0.4771407545 -0.3321844637 8.924899347e-39
-0.2511262596 -0.4595479667 -0.2566836774 8.924899347e-39
-0.06142508611 -0.39745453 -0.1781330705 8.924899347e-39
-0.1365326196 -0.4211392403 -0.1795197427 8.742304551e-39
-0.02377872914 -0.3853446245 -0.1898728758 8.742304551e-39
-0.07388503104 -0.3972521722 -0.1782671213 8.742304551e-39
-0.2742876709 -0.4687109888 -0.1821590662 8.742304551e-39
-0.1991802007 -0.4450262785 -0.180772379 8.742304551e-39
-0.3234795928 -0.4660288692 -0.2697274387 8.742304551e-39
-0.3232018948 -0.4652263224 -0.3070269227 8.742304551e-39
-0.3235721588 -0.4662963748 -0.2572942376 8.742304551e-39
-0.03623870388 -0.3851422668 -0.1900069267 8.560068489e-39
-0.174086377 -0.4329815805 -0.1802130938 8.560068489e-39
-0.2115475684 -0.4445563853 -0.1933395863 8.560068489e-39
-0.0863449797 -0.3970497847 -0.1784011573 8.560068489e-39
-0.2384924293 -0.4473008513 -0.2562584281 8.560068489e-39
-0.3236647248 -0.4665639102 -0.2448610961 8.560068489e-39
0.001315054018 -0.3732999265 -0.1893135905 8.560068489e-39
-0.1238987669 -0.4088921249 -0.1790945083 8.560068489e-39
0.06344096363 -0.3867612183 -0.1889345497 8.377473694e-39
0.0386023894 -0.3741745651 -0.1764782816 8.377473694e-39
-0.2491939217 -0.456666261 -0.181599766 8.377473694e-39
-0.09871239215 -0.3965798914 -0.1909683645 8.377473694e-39
-0.1864537895 -0.4325116575 -0.1927802861 8.377473694e-39
-0.3243014216 -0.4803509712 -0.1829864532 8.377473694e-39
-0.3230055571 -0.4766057134 -0.3570507765 8.377473694e-39
0.08809445798 -0.3998829424 -0.1765244901 8.377473694e-39
-0.09880495816 -0.3968474269 -0.1785352081 8.194878899e-39
-0.238943994 -0.4605528712 -0.2192501426 8.194878899e-39
-0.2240075469 -0.4443539977 -0.1934736371 8.194878899e-39
-0.2636788189 -0.4596130848 -0.2443845719 8.194878899e-39
-0.06125119328 -0.3850050569 -0.177841872 8.194878899e-39
0.05106233805 -0.3743769228 -0.1763442457 8.194878899e-39
-0.136358723 -0.4086897671 -0.1792285442 8.194878899e-39
-0.3230167925 -0.4646912813 -0.3318932652 8.194878899e-39
-0.07361857593 -0.3845351636 -0.1904090643 8.012284103e-39
-0.1111723334 -0.3963775337 -0.1911024153 8.012284103e-39
-0.07371114194 -0.3848026991 -0.1779759228 8.012284103e-39
0.02631633356 -0.361522764 -0.176321134 8.012284103e-39
-0.2241001129 -0.4446215332 -0.1810404807 8.012284103e-39
-0.03606481478 -0.3726928234 -0.1897157282 8.012284103e-39
0.02640889585 -0.3612552285 -0.1887542903 8.012284103e-39
0.01385632716 -0.3613203764 -0.1764551848 8.012284103e-39
-0.1989137381 -0.4323092997 -0.1929143369 7.829687907e-39
-0.322912991 -0.4763382077 -0.3694839478 7.829687907e-39
-0.03615738079 -0.3729603589 -0.1772825718 7.829687907e-39
-0.1738199294 -0.4202646017 -0.1923550516 7.829687907e-39
-0.2740212381 -0.45599401 -0.1943010241 7.829687907e-39
-0.1487261057 -0.4082198441 -0.1917957515 7.829687907e-39
0.001396380831 -0.3611180186 -0.1765892357 7.829687907e-39
0.06352229416 -0.3745793104 -0.1762101948 7.829687907e-39
-0.08607852459 -0.3843327761 -0.1905431151 7.647093112e-39
-0.3229242265 -0.4644237459 -0.3443264067 7.647093112e-39
-0.263771385 -0.4598805904 -0.2319513857 7.647093112e-39
-0.04852476716 -0.3724904358 -0.189849779 7.647093112e-39
-0.1236323118 -0.3961751461 -0.1912364662 7.647093112e-39
-0.1488186717 -0.4084873796 -0.1793625951 7.647093112e-39
0.0883609131 -0.3871659338 -0.188666448 7.647093112e-39
-0.1237248778 -0.3964426816 -0.1788033098 7.647093112e-39
-0.3230279982 -0.4527768791 -0.3067357242 7.464498317e-39
0.1253929734 -0.4126719534 -0.1888466924 7.464498317e-39
-0.3240349889 -0.4676339626 -0.1951284111 7.464498317e-39
-0.3232131302 -0.4533119202 -0.2818693817 7.464498317e-39
-0.322935462 -0.4525093436 -0.3191688657 7.464498317e-39
-0.3233982623 -0.4538469315 -0.2570030391 7.464498317e-39
-0.06107730418 -0.3725556135 -0.1775506735 7.464498317e-39
-0.2113736719 -0.4321069419 -0.1930483878 7.464498317e-39
-0.02343094908 -0.3604457378 -0.1892904788 7.281903522e-39
0.02649022639 -0.3490732908 -0.1760299355 7.281903522e-39
-0.07344467938 -0.3720857203 -0.1901178658 7.281903522e-39
0.07607480884 -0.3745141327 -0.1885093004 7.281903522e-39
0.07598224282 -0.3747816682 -0.176076144 7.281903522e-39
0.01412278041 -0.3486033678 -0.1885971427 7.281903522e-39
-0.3228316605 -0.4641562402 -0.356759578 7.281903522e-39
0.1131069213 -0.4000201523 -0.1886895448 7.281903522e-39
0.1130143553 -0.4002876878 -0.1762563884 7.099307325e-39
-0.03589092568 -0.3602433801 -0.1894245297 7.099307325e-39
0.03904273361 -0.3490081131 -0.188329041 7.099307325e-39
-0.3235833943 -0.4543819726 -0.2321367264 7.099307325e-39
-0.1361848265 -0.3962403238 -0.1789373457 7.099307325e-39
-0.3241275251 -0.4679014981 -0.1826952547 7.099307325e-39
0.1008208618 -0.3873683214 -0.1885323972 7.099307325e-39
-0.08590462804 -0.3718833327 -0.1902519166 7.099307325e-39
0.1007282957 -0.3876358569 -0.1760992408 6.91671253e-39
-0.1110910103 -0.384195596 -0.1783780605 6.91671253e-39
-0.3236759603 -0.454649508 -0.2197035551 6.91671253e-39
0.02675667778 -0.336356312 -0.1881718934 6.91671253e-39
-0.02325705998 -0.3479962647 -0.1889992803 6.91671253e-39
-0.06090341508 -0.3601061702 -0.177259475 6.91671253e-39
-0.32275033 -0.4519743025 -0.3440352082 6.91671253e-39
-0.1737385988 -0.408082664 -0.1796306968 6.91671253e-39
-0.1234584227 -0.383725673 -0.1909452677 6.734117735e-39
-0.2990337014 -0.4558568001 -0.1821359694 6.734117735e-39
-0.3114011586 -0.4553869069 -0.1947031617 6.734117735e-39
-0.1988324225 -0.4201273918 -0.1801899821 6.734117735e-39
0.125474304 -0.4004900455 -0.1761223525 6.734117735e-39
-0.1486447752 -0.3960379362 -0.1790713966 6.734117735e-39
-0.07327079028 -0.359636277 -0.1898266822 6.734117735e-39
0.001836724114 -0.3359515667 -0.1884399951 6.734117735e-39
-0.2379707694 -0.4099524915 -0.2553848326 6.55152294e-39
-0.1235509887 -0.3839932084 -0.1785121113 6.55152294e-39
-0.07336335629 -0.3599038124 -0.1773935258 6.55152294e-39
0.06396263838 -0.3494128585 -0.1880609542 6.55152294e-39
0.001744160894 -0.3362191021 -0.1760068387 6.55152294e-39
-0.03571703658 -0.3477939069 -0.1891333312 6.55152294e-39
-0.03580959886 -0.3480614424 -0.1767001748 6.55152294e-39
-0.2111997902 -0.4196574986 -0.1927571893 6.55152294e-39
-0.236386165 -0.431969732 -0.1808833331 6.368926744e-39
0.02693056688 -0.3239068389 -0.1878806949 6.368926744e-39
-0.08573073894 -0.3594338894 -0.1899607182 6.368926744e-39
0.02683800459 -0.3241743743 -0.1754475534 6.368926744e-39
0.01447056234 -0.3237044513 -0.1880147457 6.368926744e-39
-0.1109171137 -0.3717461526 -0.178086862 6.368926744e-39
-0.0205710642 -0.3286310136 -0.1681961417 6.368926744e-39
0.08870869875 -0.3622670472 -0.188084051 6.368926744e-39
0.1009021923 -0.3751864135 -0.1758080423 6.186331949e-39
0.1379342526 -0.4006924331 -0.1759883016 6.186331949e-39
-0.08582330495 -0.3597014248 -0.1775275767 6.186331949e-39
0.08861613274 -0.3625345826 -0.1756508946 6.186331949e-39
-0.1611047536 -0.3958355784 -0.1792054474 6.186331949e-39
0.002010614146 -0.3235020936 -0.1881487966 6.186331949e-39
0.07633002102 -0.3498827517 -0.175493747 6.186331949e-39
-0.02317573316 -0.3358143568 -0.1762749404 6.186331949e-39
-0.3226689994 -0.4397923648 -0.3313108683 6.003737154e-39
-0.2487535775 -0.431499809 -0.1934505254 6.003737154e-39
-0.06072952226 -0.347656697 -0.1769682765 6.003737154e-39
0.004348894581 -0.329035759 -0.16792804 6.003737154e-39
0.004256328568 -0.3293032646 -0.1554948539 6.003737154e-39
-0.01044933219 -0.3232997358 -0.1882828474 6.003737154e-39
-0.02075619064 -0.3291660547 -0.1433297992 6.003737154e-39
0.06413652748 -0.3369634151 -0.1877697557 6.003737154e-39
-0.0454909578 -0.3282262683 -0.1684642285 5.820783626e-39
-0.1214216352 -0.4979645908 -0.231214568 5.820783626e-39
0.1257407516 -0.387773037 -0.1882643104 5.820783626e-39
-0.03321613744 -0.328963697 -0.14346385 5.820783626e-39
-0.03563570976 -0.335611999 -0.1764089763 5.820783626e-39
0.1504868269 -0.4006272554 -0.1882874072 5.820783626e-39
0.1503942609 -0.4008947909 -0.1758542508 5.820783626e-39
-0.1233770922 -0.3715437651 -0.1782209128 5.820783626e-39
0.1256481856 -0.3880405724 -0.175831154 5.63818743e-39
0.0167162735 -0.3295056224 -0.1553608179 5.63818743e-39
0.05175789818 -0.3245790899 -0.1751794517 5.63818743e-39
-0.02048973739 -0.3164490759 -0.1554717571 5.63818743e-39
-0.3225764334 -0.4395248294 -0.3437440097 5.63818743e-39
-0.04567608237 -0.3287613094 -0.1435979009 5.63818743e-39
-0.3234094977 -0.4419324994 -0.2318455279 5.63818743e-39
-0.1735647023 -0.3956332207 -0.1793394983 5.63818743e-39
-0.0230018422 -0.3233648837 -0.1759837419 5.455592635e-39
0.1011686474 -0.3624694347 -0.1879500002 5.455592635e-39
0.08879002184 -0.3500851095 -0.1753596961 5.455592635e-39
-0.03294968233 -0.3162467182 -0.1556058079 5.455592635e-39
-0.02058229968 -0.3167166114 -0.1430386007 5.455592635e-39
-0.04809565842 -0.3354096413 -0.1765430272 5.455592635e-39
-0.1337890029 -0.4974946678 -0.2437817901 5.455592635e-39
-0.1338815689 -0.4977622032 -0.2313486189 5.455592635e-39
-0.06046307087 -0.3349397182 -0.1891102344 5.272997839e-39
-0.3235020638 -0.4422000349 -0.2194123566 5.272997839e-39
-0.03304224461 -0.3165142536 -0.1431726515 5.272997839e-39
-0.03536925465 -0.3228949904 -0.1885509342 5.272997839e-39
-0.1339741349 -0.4980297089 -0.2189154774 5.272997839e-39
0.02908365987 -0.3299755454 -0.1427936107 5.272997839e-39
0.06431041658 -0.324513942 -0.1874785572 5.272997839e-39
-0.007855899632 -0.3042019904 -0.1550465077 5.272997839e-39
-0.1357444823 -0.3710738719 -0.1907881051 5.090401643e-39
-0.06055563316 -0.3352072537 -0.176677078 5.090401643e-39
-0.160838306 -0.3831185699 -0.1913474053 5.090401643e-39
-0.1460638642 -0.4967572987 -0.2687821686 5.090401643e-39
-0.04550219327 -0.316311866 -0.1433067024 5.090401643e-39
-0.3224838674 -0.4392573237 -0.3561772108 5.090401643e-39
-0.311227262 -0.4429374337 -0.1944119632 5.090401643e-39
-0.07292301208 -0.3347373605 -0.1892442852 5.090401643e-39
0.02935011126 -0.3172585666 -0.1549355686 4.907806848e-39
-0.03277579322 -0.303797245 -0.1553146094 4.907806848e-39
-0.1464341283 -0.4978273511 -0.2190495282 4.907806848e-39
0.08206839859 0.06094921008 -0.1658842415 4.907806848e-39
-0.2111184597 -0.4074755609 -0.1800328344 4.907806848e-39
0.02925754897 -0.3175261021 -0.1425024122 4.907806848e-39
-0.1465266794 -0.4980948865 -0.2066163421 4.907806848e-39
-0.1585238129 -0.4965549111 -0.2689161897 4.907806848e-39
0.08905647695 -0.3373681605 -0.187501654 4.725212053e-39
-0.05786960572 -0.3158419728 -0.1558739096 4.725212053e-39
0.1506607085 -0.3881777823 -0.1879962087 4.725212053e-39
0.07667779922 -0.3249838352 -0.17491135 4.725212053e-39
0.1259146482 -0.3753235936 -0.1879731119 4.725212053e-39
-0.09810939431 -0.3470495939 -0.1773704141 4.725212053e-39
-0.2249890864 -0.3728065193 -0.2543772161 4.725212053e-39
0.1505681425 -0.3884453177 -0.1755630523 4.725212053e-39
-0.1708911955 -0.4960850179 -0.2814834416 4.542257124e-39
0.0481268093 0.04240503907 -0.2741480768 4.542257124e-39
-0.3223913014 -0.4389898181 -0.3686103523 4.542257124e-39
-0.3226802349 -0.4278779626 -0.3061533272 4.542257124e-39
-0.1232032031 -0.3590943217 -0.1779297143 4.542257124e-39
-0.1709837615 -0.4963525534 -0.2690502405 4.542257124e-39
-0.1710763127 -0.496620059 -0.256617099 4.542257124e-39
-0.1707986295 -0.4958175123 -0.2939165831 4.542257124e-39
0.04478110746 0.06182383373 -0.1787195355 4.359662329e-39
0.0540035516 -0.3303802609 -0.142525509 4.359662329e-39
0.08198707551 0.04876728728 -0.1786085814 4.359662329e-39
0.03232116252 0.06202619895 -0.1788535863 4.359662329e-39
0.04803424701 0.04213751853 -0.2617149353 4.359662329e-39
0.04451465607 0.04910686985 -0.1665775776 4.359662329e-39
-0.1732982546 -0.3829162121 -0.1914814562 4.359662329e-39
-0.3236871958 -0.4427350461 -0.1945460141 4.359662329e-39
0.04460721835 0.04937439039 -0.179010734 4.177066133e-39
0.03566686437 0.04260740429 -0.2742821276 4.177066133e-39
-0.08538296074 -0.3345350027 -0.1893783212 4.177066133e-39
0.004685433581 -0.2922224402 -0.1421881169 4.177066133e-39
0.08172061294 0.0360503234 -0.1664666235 4.177066133e-39
-0.1712614447 -0.4971551001 -0.2317507714 4.177066133e-39
0.1631206572 -0.3883801401 -0.1878621578 4.177066133e-39
-0.03269446641 -0.2916153371 -0.1425902545 4.177066133e-39
-0.1733908206 -0.3831837475 -0.1790482998 3.994471337e-39
0.0693532303 0.03652021289 -0.1790338308 3.994471337e-39
0.02943143807 -0.3050766289 -0.1422112137 3.994471337e-39
-0.1983920634 -0.3949609399 -0.1920407414 3.994471337e-39
-0.07274912298 -0.3222878873 -0.1889530867 3.994471337e-39
0.08181317896 0.03631784394 -0.1788997799 3.994471337e-39
-0.1835362911 -0.4964177012 -0.2567511499 3.994471337e-39
0.09418061376 0.03584795445 -0.1663325876 3.994471337e-39
-0.1713540107 -0.4974226058 -0.219317615 3.81151781e-39
0.02329947986 0.04307729751 -0.2868493199 3.81151781e-39
0.06030913442 0.04140011221 -0.236714527 3.81151781e-39
-0.2234858721 -0.4070056379 -0.1926000416 3.81151781e-39
-0.05769571662 -0.3033924997 -0.1555827111 3.81151781e-39
-0.08547552675 -0.3348025382 -0.1769451797 3.81151781e-39
-0.1984846294 -0.3952284753 -0.1796076 3.81151781e-39
-0.3224025667 -0.427075386 -0.3434528112 3.81151781e-39
-0.04506184906 -0.2911454439 -0.1551574618 3.628921614e-39
0.01111722272 0.04408221692 -0.3242828846 3.628921614e-39
-0.183166042 -0.4953476191 -0.3064837754 3.628921614e-39
-0.04515441507 -0.2914129794 -0.1427243054 3.628921614e-39
0.03188082203 0.03685979545 -0.1670028269 3.628921614e-39
-0.07284168899 -0.3225554228 -0.1765199304 3.628921614e-39
0.1015164256 -0.3375705183 -0.1873676181 3.628921614e-39
0.0691793412 0.02407070994 -0.1793250293 3.628921614e-39
-0.1714465767 -0.4976901412 -0.2068844289 3.446326818e-39
0.06908677518 0.02380319312 -0.1668918729 3.446326818e-39
-0.1959036887 -0.495947808 -0.2693183422 3.446326818e-39
-0.02006062865 -0.2793682218 -0.1421650052 3.446326818e-39
0.07258395106 0.04066271335 -0.2117141485 3.446326818e-39
0.0418913886 -0.3052789867 -0.1420771629 3.446326818e-39
0.1014238596 -0.3378380537 -0.1749344617 3.446326818e-39
0.1066405624 0.03564558551 -0.1661985368 3.446326818e-39
0.09400672466 0.0233984571 -0.1666237861 3.26337189e-39
-0.1837214231 -0.4969527423 -0.2318848222 3.26337189e-39
0.1137099192 -0.3504898548 -0.1750916094 3.26337189e-39
-0.0324280113 -0.2788983285 -0.1547322124 3.26337189e-39
0.1260885298 -0.3628741503 -0.1876819134 3.26337189e-39
0.1755806059 -0.3885825276 -0.187728107 3.26337189e-39
-0.1959962398 -0.4962153137 -0.2568852007 3.26337189e-39
-0.1356631666 -0.358891964 -0.1780637652 3.26337189e-39
-0.1956259906 -0.4951452315 -0.3066178262 3.080777095e-39
-0.03252057731 -0.279165864 -0.1422990561 3.080777095e-39
0.1754880399 -0.3888500631 -0.1752949655 3.080777095e-39
-0.323779732 -0.4430025816 -0.1821128577 3.080777095e-39
-0.09533081204 -0.3274168074 -0.1690004319 3.080777095e-39
0.01959470287 0.04951160774 -0.1668456644 3.080777095e-39
-0.2082711011 -0.4954779148 -0.2818855643 3.080777095e-39
0.03170693293 0.02441029809 -0.1672940254 3.080777095e-39
-0.1857582331 -0.3827138245 -0.191615507 2.898180898e-39
0.1193669662 0.04816018045 -0.1782064438 2.898180898e-39
0.01093209628 0.04354717582 -0.2994165421 2.898180898e-39
0.0601240024 0.04086507857 -0.2118481994 2.898180898e-39
-0.2083636671 -0.4957454503 -0.2694523931 2.898180898e-39
0.05435133725 -0.3054813445 -0.1419431269 2.898180898e-39
0.0690054521 0.01162126847 -0.1796162277 2.898180898e-39
0.05800303072 -0.0440428406 -0.1358279735 2.898180898e-39
-0.04488795996 -0.2786959708 -0.1548662633 2.715227371e-39
-0.08278953284 -0.3154372275 -0.1561419964 2.715227371e-39
-0.01979417726 -0.2666512728 -0.1543069631 2.715227371e-39
0.08146540076 0.01141890138 -0.1794821769 2.715227371e-39
0.06663744152 -0.3181332052 -0.1421002746 2.715227371e-39
0.04563564807 -0.04357295483 -0.1483951807 2.715227371e-39
0.02071574517 -0.04316821694 -0.1486632675 2.715227371e-39
0.005125777796 -0.2670560181 -0.1540388763 2.715227371e-39
0.04408554733 0.01202600636 -0.1798843145 2.532632576e-39
-0.08520907164 -0.3220855296 -0.1890871376 2.532632576e-39
-0.1858507991 -0.38298136 -0.1791823506 2.532632576e-39
0.04399298504 0.01175848767 -0.1674511731 2.532632576e-39
-0.001250192523 0.04455210268 -0.3368501067 2.532632576e-39
0.1065592393 0.02346360497 -0.1789228916 2.532632576e-39
0.1507420391 -0.3759958744 -0.1752718538 2.532632576e-39
0.09392540157 0.01121653244 -0.1793481261 2.532632576e-39
0.02062318288 -0.04343573749 -0.1362301111 2.349677647e-39
0.01942081377 0.0370621644 -0.1671368629 2.349677647e-39
0.03162560239 0.01222837344 -0.1800183654 2.349677647e-39
-0.1954408735 -0.4946101904 -0.3314841688 2.349677647e-39
-0.1961813718 -0.4967503548 -0.2320188731 2.349677647e-39
-0.05761438981 -0.2912105918 -0.1428583562 2.349677647e-39
-0.0828820914 -0.3157047629 -0.14370884 2.349677647e-39
0.0420652777 -0.2928295434 -0.1417859644 2.349677647e-39
0.03529661149 0.04153732955 -0.2245494425 2.167082852e-39
-0.122936748 -0.3463773131 -0.1900716722 2.167082852e-39
0.1062927842 0.01074664667 -0.1667809337 2.167082852e-39
0.01074697077 0.04301214218 -0.2745502293 2.167082852e-39
-0.2079934031 -0.4946753681 -0.3191850781 2.167082852e-39
0.118926622 0.02299371921 -0.1663556844 2.167082852e-39
0.07038170844 -0.05642713606 -0.1484182775 2.167082852e-39
0.05637161061 -0.000625804998 -0.1800414771 2.167082852e-39
0.1015977487 -0.3253885806 -0.1746432632 1.984127923e-39
0.007401210722 0.06243093684 -0.1791216731 1.984127923e-39
0.068831563 -0.0008281732444 -0.1799074262 1.984127923e-39
0.0952090472 -0.05709938705 -0.1357170343 1.984127923e-39
0.1063853502 0.01101416349 -0.1792140752 1.984127923e-39
0.06873899698 -0.001095690764 -0.1674742699 1.984127923e-39
0.01758572273 -0.2672583759 -0.1539048254 1.984127923e-39
0.08129151165 -0.001030541258 -0.1797733754 1.984127923e-39
0.08119894564 -0.001298059011 -0.167340219 1.801533128e-39
0.06681133807 -0.305683732 -0.1418090761 1.801533128e-39
0.09375151247 -0.001232910436 -0.1796393245 1.801533128e-39
0.04381909594 -0.0006909545045 -0.1677423716 1.801533128e-39
0.119019188 0.02326123603 -0.1787888408 1.801533128e-39
0.0352040492 0.04126981646 -0.2121162862 1.801533128e-39
0.02054185607 -0.05561766028 -0.148954466 1.801533128e-39
0.00722732069 0.04998149723 -0.1794128716 1.801533128e-39
0.01065440755 0.04274462163 -0.262117058 1.618578199e-39
-0.207900852 -0.4944078326 -0.3316182196 1.618578199e-39
0.1262624264 -0.3504247069 -0.1873907149 1.618578199e-39
0.03145171329 -0.0002210685052 -0.1803095639 1.618578199e-39
0.1632019877 -0.3761982322 -0.175137803 1.618578199e-39
-0.1481231153 -0.3586896062 -0.1781978011 1.618578199e-39
-0.1077907607 -0.3272144496 -0.1691344678 1.618578199e-39
-0.00455198437 -0.06766239554 -0.1495137662 1.618578199e-39
0.005299666896 -0.2546065748 -0.1537476778 1.435982003e-39
0.02283666469 0.04173970222 -0.2246834934 1.435982003e-39
0.03135915101 -0.0004885862581 -0.1678764075 1.435982003e-39
-0.01683804207 -0.05501055717 -0.1493566185 1.435982003e-39
0.1261698604 -0.3506922424 -0.1749575585 1.435982003e-39
-0.06998177618 -0.2907406986 -0.1554255486 1.435982003e-39
0.1062114611 -0.001435278682 -0.1795052737 1.435982003e-39
-0.2210087329 -0.4960781038 -0.2447201163 1.435982003e-39
-0.08261564374 -0.3029877543 -0.1558507979 1.253028475e-39
0.107761547 -0.05703423917 -0.1480161399 1.253028475e-39
0.07011524588 -0.0691441223 -0.1362763196 1.253028475e-39
-0.2330984175 -0.4948056638 -0.2945868373 1.253028475e-39
-0.3110533953 -0.4304879904 -0.1941207647 1.253028475e-39
0.007908022031 -0.06786476076 -0.1493797153 1.253028475e-39
-0.01352501102 0.04528950155 -0.3618504703 1.253028475e-39
-0.1103954464 -0.3343977928 -0.1772132665 1.253028475e-39
0.01916559786 0.01243074238 -0.1801524162 1.070432279e-39
0.0686576739 -0.01327761449 -0.1801986247 1.070432279e-39
-0.00464454852 -0.06792991608 -0.1370806098 1.070432279e-39
-0.2986859381 -0.4309578836 -0.1815535724 1.070432279e-39
0.1327628344 -0.04525705427 -0.1350236833 1.070432279e-39
-0.01693060622 -0.05527807772 -0.1369234622 1.070432279e-39
0.006960867438 0.03726453334 -0.1672709137 1.070432279e-39
-0.02912409976 -0.04235874489 -0.149199456 1.070432279e-39
0.06856510788 -0.01354513317 -0.1677654684 8.874787512e-40
-0.1078833193 -0.3274819553 -0.1567012966 8.874787512e-40
-0.07007434219 -0.291008234 -0.1429924071 8.874787512e-40
0.04373776913 -0.01287287846 -0.1804667115 8.874787512e-40
0.007815459743 -0.0681322813 -0.136946559 8.874787512e-40
0.0561051555 -0.01334276423 -0.1678995192 8.874787512e-40
0.09357762337 -0.01368235238 -0.179930523 8.874787512e-40
0.1440204084 0.0350384824 -0.1657963842 8.874787512e-40
0.09348505735 -0.0139498692 -0.1674973667 7.045238224e-40
-0.0827082023 -0.3032552898 -0.1434176415 7.045238224e-40
-0.01701193303 -0.06746002287 -0.149647817 7.045238224e-40
-0.0976690501 -0.321883142 -0.1892211735 7.045238224e-40
-0.004725875333 -0.08011183888 -0.1498049647 7.045238224e-40
-0.323420763 -0.4300180972 -0.2066880018 7.045238224e-40
-0.3223212361 -0.4148934782 -0.3307284713 7.045238224e-40
0.0299531091 -0.2677282691 -0.1413376182 7.045238224e-40
0.1185788438 -0.001905164681 -0.1669380814 5.219290273e-40
0.1509159207 -0.3635464311 -0.1749806553 5.219290273e-40
0.01775961183 -0.2548089325 -0.153613627 5.219290273e-40
-0.005058736075 0.06263330579 -0.179255724 5.219290273e-40
0.07927128673 -0.3058860898 -0.1416750252 5.219290273e-40
-0.09776161611 -0.3221506774 -0.1767880321 5.219290273e-40
-0.245743528 -0.4951383471 -0.2698545456 5.219290273e-40
0.09156857431 -0.330452323 -0.1669897139 5.219290273e-40
-0.2334686667 -0.4958757162 -0.2448541671 3.389740985e-40
-0.04454017803 -0.2537970841 -0.1542838663 3.389740985e-40
-0.2329132855 -0.4942706227 -0.3194531798 3.389740985e-40
0.007734132931 -0.0803142041 -0.1496709138 3.389740985e-40
0.1186714098 -0.001637646928 -0.1793712378 3.389740985e-40
-0.01710449532 -0.06772754341 -0.1372146606 3.389740985e-40
0.006879539695 0.02508255281 -0.1799952686 3.389740985e-40
0.05469911546 -0.280582428 -0.1413607299 3.389740985e-40
-0.01718582213 -0.07990946621 -0.1499390006 1.56020571e-40
0.007641570643 -0.08058172464 -0.1372377574 1.56020571e-40
-0.3225989044 -0.4156960249 -0.2934289873 1.56020571e-40
-0.02579986118 0.04602691531 -0.3868508637 1.56020571e-40
0.04250562191 -0.2676631212 -0.1536367238 1.56020571e-40
-0.01380270161 0.04448695481 -0.3245509863 1.56020571e-40
0.006786976475 0.02481503598 -0.1675621122 1.56020571e-40
-0.2458360791 -0.4954058528 -0.2574213743 1.56020571e-40
-0.004899764434 -0.09256128222 -0.1500961632 6.490113838e-41
0.1141502634 -0.3253234029 -0.1869423687 6.490113838e-41
-0.01944639534 -0.2417523712 -0.153724581 6.490113838e-41
-0.1354892701 -0.3464424908 -0.1777725667 6.490113838e-41
-0.02939055301 -0.05507570505 -0.137057513 6.490113838e-41
0.05757392198 -0.08112367988 -0.1491347253 6.490113838e-41
-0.00532518886 0.0499163419 -0.1671137661 6.490113838e-41
-0.24546583 -0.4943357706 -0.3071540296 6.490113838e-41
-0.0138952639 0.04421943426 -0.312117815 2.496469266e-40
-0.01953895763 -0.2420198917 -0.1412914246 2.496469266e-40
-0.3226914704 -0.4159635603 -0.2809957862 2.496469266e-40
0.1439390779 0.0228565 -0.1785207391 2.496469266e-40
0.03021956049 -0.2550113201 -0.1534795761 2.496469266e-40
0.131038785 -0.002107532695 -0.1668040305 2.496469266e-40
-0.2335612327 -0.4961432517 -0.2324210256 2.496469266e-40
-0.2077157199 -0.4938728213 -0.3564845622 2.496469266e-40
0.06725168228 -0.2805172801 -0.1536598355 4.340353837e-40
-0.2328207344 -0.4940030873 -0.3318863213 4.340353837e-40
0.120047614 -0.06968607754 -0.1481732875 4.340353837e-40
0.04511397332 -0.08092131466 -0.1492687613 4.340353837e-40
-0.005166219547 -0.105278261 -0.1379542053 4.340353837e-40
-0.04167661071 -0.04242389649 -0.1369003505 4.340353837e-40
0.138722375 -0.3506270647 -0.187256664 4.340353837e-40
0.09155733883 -0.3185379207 -0.1418321729 4.340353837e-40
0.02010151558 -0.08078409731 -0.1371037066 6.184224396e-40
-0.06990044564 -0.2785587609 -0.1427012086 6.184224396e-40
0.1436726302 0.0101395417 -0.1663787812 6.184224396e-40
-0.3111459315 -0.4307555258 -0.1816876084 6.184224396e-40
-0.2484057993 -0.4066009223 -0.1928681284 6.184224396e-40
-0.00524754636 -0.1174601912 -0.1506785452 6.184224396e-40
0.1565729827 0.035103634 -0.1780954897 6.184224396e-40
-0.01753360406 -0.1048083827 -0.1505213976 6.184224396e-40
-0.09507558495 -0.3027853966 -0.1559848487 8.028094954e-40
-0.006905121729 -0.2297728211 -0.1408661753 8.028094954e-40
-0.0825343132 -0.2908058465 -0.143126443 8.028094954e-40
-0.005499078892 0.03746690229 -0.1674049646 8.028094954e-40
0.1324150562 -0.07015597075 -0.1356060803 8.028094954e-40
-0.1856769025 -0.3705319464 -0.1788911521 8.028094954e-40
-0.1227628589 -0.3339278698 -0.1897804737 8.028094954e-40
0.01028415468 0.04167455435 -0.2123843879 8.028094954e-40
0.09477992356 -0.09418022633 -0.1490237713 9.871979525e-40
0.005647448823 -0.2297076583 -0.1531652808 9.871979525e-40
-0.01745227724 -0.09262642264 -0.1377970576 9.871979525e-40
-0.02964576893 -0.07970710099 -0.1500730515 9.871979525e-40
-0.0417579338 -0.05460581928 -0.1496247053 9.871979525e-40
-0.2580183446 -0.4944009483 -0.2948549092 9.871979525e-40
0.007212461904 -0.1176625639 -0.1505445093 9.871979525e-40
-0.2582960129 -0.495203495 -0.2575554252 9.871979525e-40
0.1325076222 -0.06988845021 -0.1480392367 1.171585008e-39
-0.2336537987 -0.4964107573 -0.2199878544 1.171585008e-39
0.02002018504 -0.09296602011 -0.1498280615 1.171585008e-39
-0.00542143546 -0.1299096644 -0.1509697437 1.171585008e-39
-0.2327281684 -0.4937355816 -0.3443194926 1.171585008e-39
0.007119899616 -0.117930077 -0.1381113529 1.171585008e-39
-0.02973833308 -0.07997462153 -0.1376398951 1.171585008e-39
-0.2201756686 -0.4936704636 -0.356618613 1.171585008e-39
0.006531759631 0.0001836689189 -0.1805776656 1.355972064e-39
-0.01761124656 0.06256815791 -0.1669566184 1.355972064e-39
-0.01936506853 -0.2295704484 -0.1410002261 1.355972064e-39
-0.04436628893 -0.2413476408 -0.1539926678 1.355972064e-39
0.1198737174 -0.08213552088 -0.148464486 1.355972064e-39
-0.2579257786 -0.4941334128 -0.3072880805 1.355972064e-39
0.0918238014 -0.3058209121 -0.1539741307 1.355972064e-39
0.1434987336 -0.002309901174 -0.1666699797 1.355972064e-39
0.1071473211 -0.09465010464 -0.136456579 1.540360521e-39
-0.2460212111 -0.4959408939 -0.2325550467 1.540360521e-39
-0.1101289913 -0.3216807842 -0.1893552244 1.540360521e-39
0.1563990861 0.02265413105 -0.1783866882 1.540360521e-39
-0.005580407102 0.02528491989 -0.1801293194 1.540360521e-39
0.1687664688 0.02218424715 -0.1658194959 1.540360521e-39
-0.006638666615 -0.2170558274 -0.1530081332 1.540360521e-39
-0.01780005544 -0.1175253391 -0.1383794397 1.540360521e-39
-0.2107706815 -0.3825766444 -0.1794504374 1.724747577e-39
0.042586945 -0.2554811835 -0.1409123838 1.724747577e-39
0.07971163094 -0.2807196379 -0.1535257846 1.724747577e-39
0.1561326385 0.009937172756 -0.1662447304 1.724747577e-39
-0.02607755177 0.04522436112 -0.3495513499 1.724747577e-39
-0.2452807128 -0.4938007295 -0.3320203722 1.724747577e-39
-0.006731230766 -0.2173233479 -0.1405749768 1.724747577e-39
0.1449675709 -0.07009081542 -0.1479051858 1.724747577e-39
0.007038569078 -0.1301120371 -0.1508357078 1.909134633e-39
0.03030089103 -0.2428293675 -0.1407552212 1.909134633e-39
0.04494008422 -0.09337075055 -0.1495599598 1.909134633e-39
-0.02981965989 -0.09215654433 -0.1503642499 1.909134633e-39
-0.005595326424 -0.1423591077 -0.1512609422 1.909134633e-39
0.03248013556 -0.09316838533 -0.1496940106 1.909134633e-39
-0.02617011406 0.04495684057 -0.3371181786 1.909134633e-39
0.01801483147 -0.2301775515 -0.1405980736 1.909134633e-39
0.1812264174 0.02198187821 -0.1656854451 2.09352309e-39
0.09460604191 -0.1066296995 -0.1493149698 2.09352309e-39
0.09451347589 -0.1068972126 -0.1368818134 2.09352309e-39
0.08214609325 -0.1064273268 -0.1494490206 2.09352309e-39
-0.01797394827 -0.1299748123 -0.1386706382 2.09352309e-39
-0.01778513566 0.05011871085 -0.1672478169 2.09352309e-39
0.005821337923 -0.2172582 -0.1528740823 2.09352309e-39
-0.2583885789 -0.4954710007 -0.2451222688 2.09352309e-39
0.06742557138 -0.2680678666 -0.153368637 2.277910146e-39
0.006357869599 -0.01226577349 -0.1808688641 2.277910146e-39
0.005728775635 -0.2175257206 -0.140440926 2.277910146e-39
0.01967240684 -0.1178649291 -0.1504104584 2.277910146e-39
-0.2704783082 -0.4941985607 -0.29498896 2.277910146e-39
-0.2213789821 -0.497148186 -0.1949874759 2.277910146e-39
-0.005687890574 -0.1426266283 -0.1388277858 2.277910146e-39
-0.2707560062 -0.4950011075 -0.257689476 2.277910146e-39
-0.005754297134 0.01283547841 -0.1804205179 2.462297202e-39
-0.2484983653 -0.4068684578 -0.1804349869 2.462297202e-39
0.1323337257 -0.08233789355 -0.1483304352 2.462297202e-39
-0.2703857422 -0.4939310253 -0.3074221313 2.462297202e-39
0.1759283841 -0.363683641 -0.1871457249 2.462297202e-39
0.06959357858 -0.1064924747 -0.1371499151 2.462297202e-39
-0.01426551677 0.04314935952 -0.2623851597 2.462297202e-39
-0.01909861527 -0.2168534547 -0.153142184 2.462297202e-39
-0.01919117942 -0.2171209753 -0.1407090276 2.646685659e-39
0.1039359719 -0.3309222162 -0.1544224769 2.646685659e-39
-0.1478566527 -0.3459725976 -0.190339759 2.646685659e-39
-0.2337463647 -0.4966782928 -0.2075546682 2.646685659e-39
0.1562252045 0.01020468958 -0.1786778867 2.646685659e-39
0.1688590348 0.02245176397 -0.1782526523 2.646685659e-39
-0.005861779675 -0.1550760716 -0.1391189843 2.646685659e-39
-0.05413658544 -0.04222152382 -0.1370344013 2.646685659e-39
-0.2326356024 -0.493468076 -0.3567526639 2.830713982e-39
0.1447011083 -0.08280777931 -0.1357632279 2.830713982e-39
0.06733300537 -0.2683353722 -0.1409354806 2.830713982e-39
0.006772117689 -0.142828986 -0.1386937499 2.830713982e-39
-0.1729504764 -0.3580173254 -0.1908990592 2.830713982e-39
0.1433248371 -0.01475934312 -0.1669611782 2.830713982e-39
0.05722614378 -0.1060225964 -0.1497171223 2.830713982e-39
0.1038434058 -0.3311897516 -0.1419893205 2.830713982e-39
0.04285340011 -0.2427642047 -0.1530543417 3.015101038e-39
-0.0823604241 -0.2783564031 -0.1428352445 3.015101038e-39
-0.2451881468 -0.4935332239 -0.3444535434 3.015101038e-39
-0.005943106487 -0.1672580242 -0.1518433392 3.015101038e-39
0.09443215281 -0.1190791428 -0.1496061683 3.015101038e-39
-0.01814783737 -0.1424242556 -0.1389618367 3.015101038e-39
-0.2830308378 -0.4942637086 -0.2826898694 3.015101038e-39
0.08197220415 -0.1188767701 -0.1497402191 3.015101038e-39
-0.006035670638 -0.1675255448 -0.1394101828 3.199488094e-39
0.08187963814 -0.1191442832 -0.1373070627 3.199488094e-39
-0.2357719243 -0.3943538368 -0.192442894 3.199488094e-39
-0.03844493628 0.04569423944 -0.362118572 3.199488094e-39
-0.006383450702 -0.1924244612 -0.1399925798 3.199488094e-39
-0.05421791226 -0.05440344661 -0.1497587562 3.199488094e-39
-0.1980442852 -0.3700620234 -0.1914583445 3.199488094e-39
0.006690790877 -0.1550109237 -0.1514180899 3.199488094e-39
0.006076557562 -0.1926268339 -0.139858529 3.383517819e-39
0.01828128286 -0.2174605578 -0.1527400315 3.383517819e-39
0.006598228589 -0.1552784443 -0.1389849484 3.383517819e-39
-0.01435807906 0.04288184643 -0.2499519736 3.383517819e-39
-0.02635523863 0.04442180693 -0.3122518659 3.383517819e-39
0.01818872057 -0.2177280784 -0.1403068751 3.383517819e-39
-0.04219827801 -0.07977224886 -0.1377739459 3.383517819e-39
-0.0302600041 -0.1173229665 -0.1385134906 3.383517819e-39
-0.2577406764 -0.4935983717 -0.332154423 3.567904875e-39
-0.3236058652 -0.4305531383 -0.1818216592 3.567904875e-39
-0.03034133092 -0.129504934 -0.1512378454 3.567904875e-39
0.1388036907 -0.3384451568 -0.1745323092 3.567904875e-39
-0.1075355336 -0.3025830388 -0.1561188996 3.567904875e-39
0.03203979135 -0.1183348149 -0.1378432512 3.567904875e-39
0.1557848454 -0.01496171206 -0.1668271273 3.567904875e-39
0.3183369637 -0.04919151962 -0.2141293585 3.567904875e-39
0.1937789172 0.02204702608 -0.1779845506 3.75229193e-39
0.1388962567 -0.3381776214 -0.1869654655 3.75229193e-39
0.01836261339 -0.205278635 -0.1400156766 3.75229193e-39
0.106799528 -0.1195490211 -0.1370389611 3.75229193e-39
0.05705225468 -0.1184720322 -0.1500083059 3.75229193e-39
-0.2955833375 -0.4943288863 -0.2703907192 3.75229193e-39
0.106892094 -0.119281508 -0.1494721174 3.75229193e-39
0.3184295297 -0.0489240028 -0.2265625447 3.75229193e-39
0.01932462491 -0.1427638531 -0.1509928554 3.936320254e-39
-0.05431047827 -0.05467096716 -0.1373255998 3.936320254e-39
-0.01901728846 -0.2046715319 -0.1404178292 3.936320254e-39
-0.006020749919 0.0001185191795 -0.16827856 3.936320254e-39
-0.01892472431 -0.2044040114 -0.1528509855 3.936320254e-39
0.2059724182 0.009127698839 -0.1657085419 3.936320254e-39
-0.04428496212 -0.229165718 -0.1412683129 3.936320254e-39
-0.1328032315 -0.3270772099 -0.1569693834 3.936320254e-39
-0.2827531695 -0.4934611619 -0.3199893534 4.120708711e-39
-0.03155856207 -0.216651082 -0.15327622 4.120708711e-39
0.1445272267 -0.0952572152 -0.1360544264 4.120708711e-39
0.1635497659 -0.3512993455 -0.1745554209 4.120708711e-39
-0.2953056693 -0.4935263097 -0.307690233 4.120708711e-39
-0.01813291758 0.02521977201 -0.1678302139 4.120708711e-39
-0.01445064135 0.04261432588 -0.2375188172 4.120708711e-39
-0.1352228224 -0.333725512 -0.1899145246 4.120708711e-39
-0.03007122315 0.06277053058 -0.1670906693 4.304737034e-39
0.1811451018 0.00979995355 -0.1784097999 4.304737034e-39
0.08179831505 -0.1313262433 -0.1500314176 4.304737034e-39
0.06750689447 -0.2558859289 -0.1406442821 4.304737034e-39
-0.03051522002 -0.1419543773 -0.1515290439 4.304737034e-39
0.01905817352 -0.155480817 -0.1388508976 4.304737034e-39
-0.04237217084 -0.09222168475 -0.1380651444 4.304737034e-39
-0.2231380939 -0.3821067214 -0.1920176446 4.304737034e-39
-0.3080433309 -0.4941264987 -0.27052477 4.48912409e-39
0.0921715796 -0.2809220254 -0.1533917338 4.48912409e-39
0.1936050355 0.009597584605 -0.1782757491 4.48912409e-39
0.1318933815 -0.1075043157 -0.1364796758 4.48912409e-39
-0.06955266744 -0.2536598742 -0.1421188116 4.48912409e-39
-0.006194639951 -0.01233092137 -0.1685697585 4.48912409e-39
-0.2956759036 -0.4945963919 -0.2579575777 4.48912409e-39
-0.04254605994 -0.1046711579 -0.1383563429 4.48912409e-39
0.1558774114 -0.01469419338 -0.1792602837 4.673152414e-39
-0.02654036693 0.04388677329 -0.2873855233 4.673152414e-39
-0.04262738675 -0.1168530881 -0.1510806978 4.673152414e-39
-0.1328957975 -0.3273447454 -0.144536227 4.673152414e-39
0.1067182124 -0.1317309886 -0.1497633159 4.673152414e-39
0.1807047427 -0.01536644809 -0.1665590405 4.673152414e-39
0.03178457171 -0.1429662257 -0.1508588046 4.673152414e-39
0.03169201314 -0.1432337314 -0.1384256482 4.673152414e-39
-0.3231543005 -0.4173011482 -0.2188299596 4.857539469e-39
-0.01454320736 0.04234680533 -0.225085631 4.857539469e-39
-0.2701080739 -0.4931284785 -0.3447216451 4.857539469e-39
-0.082186535 -0.2659069598 -0.1425440609 4.857539469e-39
-0.04411107302 -0.2167162448 -0.1409771144 4.857539469e-39
-0.0183881335 0.000588404946 -0.1808457524 4.857539469e-39
-0.09472780675 -0.2778864801 -0.1554024518 4.857539469e-39
-0.03147723526 -0.2044691592 -0.14055188 4.857539469e-39
0.0443258509 -0.1309866607 -0.1380003989 5.041567793e-39
-0.06650397182 -0.04175163805 -0.1496016085 5.041567793e-39
0.1317194849 -0.119953759 -0.1367708743 5.041567793e-39
-0.03138467297 -0.2042016387 -0.1529850364 5.041567793e-39
0.104191184 -0.3062908351 -0.1414069235 5.041567793e-39
-0.2951205373 -0.4929912686 -0.3325565457 5.041567793e-39
0.1513562649 -0.3383799791 -0.1868314147 5.041567793e-39
0.08153185993 -0.1440431923 -0.1378894597 5.041567793e-39
-0.3204106987 -0.4936566055 -0.2830920219 5.225597518e-39
0.1443533301 -0.1077066883 -0.1363456249 5.225597518e-39
-0.05456569046 -0.0793023631 -0.1503411531 5.225597518e-39
0.04337507486 -0.2054158598 -0.1521807462 5.225597518e-39
0.119085595 -0.1322008669 -0.1371961236 5.225597518e-39
-0.1603166312 -0.34577021 -0.1904738098 5.225597518e-39
0.119178161 -0.1319333464 -0.1496292651 5.225597518e-39
0.05566113442 -0.2180676609 -0.1523378938 5.225597518e-39
-0.2586662769 -0.4962735772 -0.2078227699 5.409984573e-39
0.05556856841 -0.2183351815 -0.1399047375 5.409984573e-39
-0.2609582841 -0.4066660702 -0.1805690229 5.409984573e-39
0.1064517498 -0.1444479376 -0.137621358 5.409984573e-39
0.2058910877 -0.003054225352 -0.1784328967 5.409984573e-39
0.1807973087 -0.01509892941 -0.1789921969 5.409984573e-39
0.0441519618 -0.1434360892 -0.1382915974 5.409984573e-39
-0.1073616445 -0.2901335955 -0.1558277011 5.409984573e-39
0.1760097146 -0.3515017033 -0.17442137 5.594012897e-39
0.06916447729 -0.1435733289 -0.150456652 5.594012897e-39
0.04345639795 -0.193233937 -0.1394563913 5.594012897e-39
-0.3202255964 -0.4931215644 -0.3079583049 5.594012897e-39
-0.03103689104 -0.1793027371 -0.1524026394 5.594012897e-39
0.06794723868 -0.2307195067 -0.1524950415 5.594012897e-39
-0.05465825647 -0.07956988364 -0.1379079968 5.594012897e-39
0.09381791204 -0.1566950232 -0.1380466074 5.594012897e-39
-0.04297516868 -0.1417520046 -0.1516630948 5.77804122e-39
-0.06659653783 -0.0420191586 -0.1371684521 5.77804122e-39
-0.2950279713 -0.492723763 -0.3449897468 5.77804122e-39
0.1441794336 -0.1201561242 -0.1366368234 5.77804122e-39
0.3180817366 -0.07382288575 -0.2271449268 5.77804122e-39
0.1442719996 -0.1198886111 -0.1490699798 5.77804122e-39
-0.3075805306 -0.4927888811 -0.3326905966 5.77804122e-39
-0.2105042189 -0.3698596656 -0.1915923953 5.77804122e-39
-0.1855030209 -0.3580825031 -0.1785999537 5.962428276e-39
0.1932572424 -0.01530129835 -0.1788581461 5.962428276e-39
0.09391047806 -0.1564275026 -0.1504797637 5.962428276e-39
0.1929907948 -0.02801828831 -0.1667161882 5.962428276e-39
0.1316381693 -0.1321357191 -0.1494952291 5.962428276e-39
-0.3222399056 -0.4027115107 -0.3180040717 5.962428276e-39
0.05670447648 -0.1433709562 -0.1505907029 5.962428276e-39
-0.03059289418 0.02542214096 -0.1679642648 5.962428276e-39
0.04372285306 -0.1805169433 -0.1515983492 6.1464566e-39
-0.06667786092 -0.0542010814 -0.149892807 6.1464566e-39
-0.08192007989 -0.253189981 -0.1546860039 6.1464566e-39
0.1389775872 -0.3259956837 -0.1742411107 6.1464566e-39
-0.05473957956 -0.09175180644 -0.1506323516 6.1464566e-39
0.1164884865 -0.3308570683 -0.1667216122 6.1464566e-39
-0.01865458675 -0.01212855428 -0.1687037945 6.1464566e-39
0.04389674217 -0.1680675 -0.1513071507 6.1464566e-39
0.1163959205 -0.3311245739 -0.154288426 6.330484923e-39
-0.3220547736 -0.4021764696 -0.3428704143 6.330484923e-39
0.1063704342 -0.1566298753 -0.1503457129 6.330484923e-39
0.06889801472 -0.1562902927 -0.1383147091 6.330484923e-39
0.05591634661 -0.1934363097 -0.1393223405 6.330484923e-39
0.2523854673 -0.3096182048 -0.2209147364 6.330484923e-39
0.1044576317 -0.2935738564 -0.1535488814 6.330484923e-39
-0.04314905778 -0.154201448 -0.1519542933 6.330484923e-39
0.1190042645 -0.1443828046 -0.1499204636 6.514514648e-39
-0.2482319027 -0.394151479 -0.1925769448 6.514514648e-39
0.2308923751 0.008722962812 -0.1654404551 6.514514648e-39
-0.04306773096 -0.1420195252 -0.1392299384 6.514514648e-39
0.1390701532 -0.3257281482 -0.1866742671 6.514514648e-39
-0.332778126 -0.4931867123 -0.2956592143 6.514514648e-39
0.08040718734 -0.2309218794 -0.1523609906 6.514514648e-39
0.05600891262 -0.1931687891 -0.1517554969 6.514514648e-39
-0.2105967849 -0.3701272011 -0.1791592389 6.698542971e-39
0.06899058074 -0.1560227722 -0.1507478505 6.698542971e-39
-0.03067421913 0.0132402163 -0.1806886047 6.698542971e-39
0.0925193578 -0.2560231388 -0.1528093368 6.698542971e-39
-0.332870692 -0.4934542179 -0.283226043 6.698542971e-39
-0.05491347238 -0.1042012796 -0.1509235501 6.698542971e-39
0.1440981179 -0.1323380917 -0.1493611783 6.698542971e-39
-0.3326855898 -0.4929191768 -0.3080923557 6.698542971e-39
0.1930833608 -0.02775077149 -0.1791493446 6.882571295e-39
-0.03890775144 0.0443566516 -0.2999527454 6.882571295e-39
-0.03076678328 0.01297269762 -0.1682554483 6.882571295e-39
0.1638162136 -0.3385823667 -0.1866973788 6.882571295e-39
-0.06677042693 -0.05446860194 -0.1374596506 6.882571295e-39
-0.05657104775 -0.2165138721 -0.1411111653 6.882571295e-39
-0.1476827711 -0.3335231543 -0.1900485605 6.882571295e-39
0.1187378168 -0.1570997536 -0.1377785057 6.882571295e-39
0.08058108389 -0.2184724063 -0.1520697922 7.066599618e-39
0.31790784 -0.08627235889 -0.2274361253 7.066599618e-39
0.08048851788 -0.2187399268 -0.1396366358 7.066599618e-39
-0.04376329109 -0.1918173581 -0.1403947324 7.066599618e-39
-0.06685175002 -0.06665055454 -0.1501840055 7.066599618e-39
-0.3325930238 -0.4926516712 -0.3205255568 7.066599618e-39
-0.04341550916 -0.1669184417 -0.1398123354 7.066599618e-39
-0.06911232322 -0.2284934521 -0.153969571 7.066599618e-39
0.06881669164 -0.1684722453 -0.151039049 7.250627941e-39
0.2648454607 -0.3098205626 -0.2207806855 7.250627941e-39
0.09260068089 -0.2438412011 -0.1400849819 7.250627941e-39
-0.04287895188 0.0380740054 -0.1678071022 7.250627941e-39
0.1884696484 -0.351704061 -0.1742873192 7.250627941e-39
-0.03900031745 0.04408913851 -0.2875195742 7.250627941e-39
-0.2355980426 -0.3819043636 -0.1921516955 7.250627941e-39
0.092867136 -0.2311242372 -0.1522269398 7.250627941e-39
0.08083629608 -0.1938410401 -0.1390542537 7.434656265e-39
-0.05118257552 0.04509405792 -0.3249531388 7.434656265e-39
-0.06345742196 0.04583146423 -0.3499535024 7.434656265e-39
-0.0270031821 0.042549178 -0.2252196819 7.434656265e-39
-0.3225175738 -0.4035140872 -0.2807045877 7.434656265e-39
-0.3198553324 -0.492051512 -0.35769099 7.434656265e-39
0.09277456999 -0.2313917577 -0.1397937983 7.434656265e-39
0.08092886209 -0.1935735196 -0.1514873952 7.434656265e-39
0.09312235564 -0.2064928561 -0.1392114013 7.618684588e-39
0.1311978251 -0.1573021263 -0.1376444697 7.618684588e-39
-0.07573223859 0.04656886309 -0.374953866 7.618684588e-39
-0.03909287602 0.04382161796 -0.2750864029 7.618684588e-39
-0.05489858612 0.06344278157 -0.1797919124 7.618684588e-39
-0.1978704035 -0.3576125801 -0.1911671609 7.618684588e-39
0.317548871 -0.09925683588 -0.2028609961 7.618684588e-39
-0.0551799275 -0.116918236 -0.1387815922 7.618684588e-39
0.1514375955 -0.3261980414 -0.1741070747 7.802712912e-39
-0.07896395028 -0.04154927284 -0.1497356594 7.802712912e-39
0.1312903911 -0.1570346057 -0.1500776112 7.802712912e-39
-0.05526125431 -0.1291001886 -0.1515059471 7.802712912e-39
-0.333055824 -0.493989259 -0.2583597302 7.802712912e-39
-0.04296027869 0.02589202672 -0.1805314571 7.802712912e-39
0.230544582 -0.01617592201 -0.1660228372 7.802712912e-39
0.2053694129 -0.04040258005 -0.1793064922 7.802712912e-39
0.2308110446 -0.003458962543 -0.178164795 7.986382503e-39
0.1802756488 -0.05244731531 -0.1798657775 7.986382503e-39
0.2051029652 -0.05311957374 -0.1671645343 7.986382503e-39
0.1055822968 -0.2066952139 -0.1390773505 7.986382503e-39
-0.05639715865 -0.2040644288 -0.1408199668 7.986382503e-39
-0.04305284098 0.0256245099 -0.1680983007 7.986382503e-39
0.1054084152 -0.2191446573 -0.139368549 7.986382503e-39
0.1056748629 -0.2064276934 -0.1515105069 7.986382503e-39
0.3177339733 -0.09872180223 -0.2277273238 8.170410826e-39
0.105060637 -0.2440435737 -0.139950946 8.170410826e-39
-0.03918544203 0.04355409741 -0.2626532614 8.170410826e-39
-0.119821623 -0.2899312079 -0.1559617519 8.170410826e-39
0.1048867404 -0.256493032 -0.1402421445 8.170410826e-39
0.3305305541 -0.06211084872 -0.2018533498 8.170410826e-39
0.1436577737 -0.157504499 -0.1375104189 8.170410826e-39
-0.03102200106 -0.01165866852 -0.1812710017 8.170410826e-39
-0.285785675 -0.4059938192 -0.193270281 8.35443915e-39
0.1761835963 -0.3390522599 -0.1741301715 8.35443915e-39
-0.05507247522 0.05099333823 -0.1800831109 8.35443915e-39
-0.1728691459 -0.3458353877 -0.1781747043 8.35443915e-39
0.2175629735 -0.05332194269 -0.1670304835 8.35443915e-39
0.1311164945 -0.1694840789 -0.1503688097 8.35443915e-39
0.2178294212 -0.040604949 -0.1791724414 8.35443915e-39
-0.2229641974 -0.3696572781 -0.1917264462 8.35443915e-39
-0.06354998797 0.04556394368 -0.3375203311 8.538467473e-39
0.1182161421 -0.1944481432 -0.1386521012 8.538467473e-39
-0.119914189 -0.2901987433 -0.1435285956 8.538467473e-39
0.2303707004 -0.02862539329 -0.1663140357 8.538467473e-39
-0.22429353 -0.3230086863 -0.2532124221 8.538467473e-39
-0.03927800059 0.04328658432 -0.2502200902 8.538467473e-39
0.19246912 -0.06536664814 -0.1675897837 8.538467473e-39
0.1183087081 -0.1941806227 -0.1510852575 8.538467473e-39
0.1434838772 -0.1699539721 -0.1378016174 8.722137064e-39
-0.06711820513 -0.07936751097 -0.1380420476 8.722137064e-39
-0.04313417152 0.01344258524 -0.1808226556 8.722137064e-39
0.2049290687 -0.06556901336 -0.1674557328 8.722137064e-39
0.1308500469 -0.1822010428 -0.1382268518 8.722137064e-39
-0.0513677001 0.04455901682 -0.3000867963 8.722137064e-39
0.1178683639 -0.2193470299 -0.1392344981 8.722137064e-39
-0.05524636433 0.03854389489 -0.1803743094 8.722137064e-39
0.1176944673 -0.2317965031 -0.1395256966 8.906165387e-39
0.2173890769 -0.06577138603 -0.167321682 8.906165387e-39
0.1181348115 -0.206630066 -0.151376456 8.906165387e-39
-0.1450893283 -0.3144254088 -0.1568122357 8.906165387e-39
0.1435764432 -0.1696864516 -0.1502347738 8.906165387e-39
0.1176131517 -0.2439784259 -0.1522500515 8.906165387e-39
0.1177870333 -0.2315289825 -0.151958853 8.906165387e-39
0.1796614081 -0.0900631845 -0.1683062166 8.906165387e-39
0.2050216347 -0.06530149281 -0.1798888892 9.089834978e-39
0.3303566575 -0.07456029207 -0.2021445483 9.089834978e-39
-0.05622326583 -0.1916149855 -0.1405287683 9.089834978e-39
-0.1325480193 -0.3024458289 -0.1439538449 9.089834978e-39
-0.05533892661 0.03827637434 -0.167941153 9.089834978e-39
-0.05570159853 -0.1542665958 -0.1396551877 9.089834978e-39
0.3175600767 -0.1111712754 -0.2280185223 9.089834978e-39
-0.08157230169 -0.2282910794 -0.1541036218 9.089834978e-39
0.1797539741 -0.0897956714 -0.180739373 9.273863302e-39
0.1433099955 -0.1824034154 -0.1380928159 9.273863302e-39
0.2432709783 -0.003661330789 -0.1780307591 9.273863302e-39
-0.05146025866 0.04429150373 -0.287653625 9.273863302e-39
0.1169175804 -0.2937762141 -0.1534148455 9.273863302e-39
-0.2606918514 -0.3939490914 -0.1927109808 9.273863302e-39
-0.06876454502 -0.2035945356 -0.153387174 9.273863302e-39
-0.1601427495 -0.3333207667 -0.1901826113 9.273863302e-39
0.2045812905 -0.09046792239 -0.1680381298 9.457532893e-39
0.201022163 -0.3516389132 -0.1865864247 9.457532893e-39
-0.06735853106 0.06364514679 -0.1799259633 9.457532893e-39
0.1795800775 -0.1022451147 -0.1810305715 9.457532893e-39
0.3172936141 -0.1238882318 -0.2158765346 9.457532893e-39
0.1303283721 -0.2195494026 -0.1391004473 9.457532893e-39
0.1301544756 -0.2319988757 -0.1393916458 9.457532893e-39
0.18864353 -0.3392546177 -0.1739961207 9.457532893e-39
0.143136099 -0.1948528886 -0.1383840144 9.641561216e-39
-0.07931172848 -0.06644818187 -0.1503180563 9.641561216e-39
