# .PCD v0.7 - Point Cloud Data file format
VERSION 0.7
FIELDS x y z rgb
SIZE 4 4 4 4
TYPE F F F F
COUNT 1 1 1 1
WIDTH 831
HEIGHT 1
VIEWPOINT 0 0 0 1 0 0 0
POINTS 831
DATA ascii
0.0111523699 -0.3572827876 0.03749801964 1.056789517e-38
-0.02884771489 -0.3851772845 -0.01192079857 1.056789517e-38
-0.04177603871 -0.3868132234 -0.03591617942 1.056789517e-38
0.06709517539 -0.2712970674 0.04231721535 1.056789517e-38
0.03941588849 -0.3090489507 0.0281773936 1.038530038e-38
0.01052143611 -0.3697874844 0.03660482541 1.038530038e-38
-0.04179941863 -0.387824595 -0.04809299856 1.038530038e-38
0.02461809106 -0.3471876681 0.01367928274 1.038530038e-38
0.009259568527 -0.3947969079 0.03481843323 1.020306431e-38
-0.03256317228 -0.4571714103 0.01925051585 1.020306431e-38
0.02277205512 -0.3826790154 0.03535333648 1.020306431e-38
0.02337960713 -0.3711856902 0.02406971343 1.020306431e-38
-0.003084581345 -0.385950923 -0.01263738424 1.002046952e-38
-0.02894124575 -0.3892228305 -0.06062810868 1.002046952e-38
0.06517899781 -0.309822619 0.0274608098 1.002046952e-38
0.00982035324 -0.3853263557 -0.0008188299835 1.002046952e-38
-0.01603628509 -0.3885982633 -0.0488095805 9.837874723e-39
0.0645480603 -0.3223273456 0.02656761371 9.837874723e-39
0.04979708791 -0.3584432304 0.036423143 9.837874723e-39
0.03626121953 -0.3715725243 0.02371141873 9.837874723e-39
-0.003738896921 -0.3994669914 -0.02570740134 9.655279928e-39
0.06330957264 -0.3463253677 0.03695804253 9.655279928e-39
0.04977370799 -0.3594546318 0.02424632199 9.655279928e-39
-0.01669059508 -0.4021143615 -0.0618795976 9.655279928e-39
0.06389374286 -0.3358434141 0.01349760033 9.472685133e-39
0.03560690582 -0.3850886226 0.0106414035 9.472685133e-39
0.009142655879 -0.3998538256 -0.02606569231 9.472685133e-39
0.02265514061 -0.3877359331 -0.02553079277 9.472685133e-39
-0.01977511682 -0.4616037309 -0.02981508523 9.290090338e-39
0.009119273163 -0.400865227 -0.03824254125 9.290090338e-39
0.009726824239 -0.3893719018 -0.0495261699 9.290090338e-39
-0.003809044138 -0.4025011659 -0.06223788857 9.290090338e-39
-0.01979850046 -0.4626151323 -0.04199192673 9.107495543e-39
0.04788090289 -0.3969687819 0.02156673744 9.107495543e-39
0.02141665667 -0.4117340147 -0.01514035836 9.107495543e-39
0.006665685214 -0.4478498995 -0.005284804851 9.107495543e-39
0.009703440592 -0.3903833032 -0.06170298904 8.924899347e-39
0.04785752296 -0.3979801536 0.009389918298 8.924899347e-39
0.0355367586 -0.3881227672 -0.02588908374 8.924899347e-39
0.02017817274 -0.435732007 -0.004749901593 8.924899347e-39
0.0220008269 -0.4012520313 -0.03860083222 8.742304551e-39
0.006034751423 -0.4603545964 -0.006177999079 8.742304551e-39
0.04844169319 -0.3874982297 -0.01407055557 8.742304551e-39
0.02195406146 -0.4032748044 -0.06295447052 8.742304551e-39
0.06071569026 -0.3993783295 -0.003145191818 8.560068489e-39
0.04778737575 -0.4010142982 -0.02714057267 8.560068489e-39
0.03182130307 -0.4601168931 0.005282234401 8.560068489e-39
0.06129986048 -0.3888964057 -0.02660566568 8.560068489e-39
0.01886953972 -0.4627642035 -0.03088995814 8.377473694e-39
0.0754199028 -0.3652852178 -0.03735441715 8.377473694e-39
0.01884615794 -0.463775605 -0.04306680709 8.377473694e-39
0.06125309318 -0.3909191787 -0.05095933378 8.377473694e-39
0.08830145746 -0.3656720221 -0.03771270812 8.194878899e-39
0.07415803522 -0.3902946413 -0.0391408056 8.194878899e-39
0.04465608671 -0.4625264704 -0.01942972466 8.194878899e-39
0.0735270977 -0.4027993381 -0.04003400356 8.194878899e-39
0.03105007112 -0.4786899388 -0.06867193431 8.012284103e-39
0.2223282605 -0.2624228597 0.05108777806 8.012284103e-39
0.2075539082 -0.2995501757 0.04876648635 8.012284103e-39
0.2204354703 -0.2999370098 0.04840819538 8.012284103e-39
0.1939946562 -0.3136908412 0.02387788706 7.829687907e-39
0.2339480072 -0.2878191173 0.04894309491 7.829687907e-39
0.2480680346 -0.2642078996 0.03819431365 7.829687907e-39
0.2210196257 -0.289455086 0.02494768985 7.829687907e-39
0.2198045403 -0.3124417067 0.04751500115 7.647093112e-39
0.2333170772 -0.3003238142 0.04804990068 7.647093112e-39
0.2056611031 -0.337064296 0.04608689994 7.647093112e-39
0.192125231 -0.3501935899 0.03337511793 7.647093112e-39
0.2191735953 -0.3249464333 0.04662180319 7.464498317e-39
0.2603420317 -0.2760880291 0.0491197072 7.464498317e-39
0.2339012325 -0.2898418903 0.02458939701 7.464498317e-39
0.2326861471 -0.312828511 0.04715670645 7.464498317e-39
0.1921018511 -0.3512049913 0.02119829878 7.281903522e-39
0.2185426652 -0.3374511302 0.04572860897 7.281903522e-39
0.2056143284 -0.339087069 0.0217332039 7.281903522e-39
0.190863356 -0.3752029836 0.03158872947 7.281903522e-39
0.2179117352 -0.3499558568 0.04483541474 7.099307325e-39
0.2867360711 -0.2643569708 0.04929631576 7.099307325e-39
0.2184958905 -0.3394739032 0.02137491293 7.099307325e-39
0.1896014959 -0.4002124071 0.02980234101 7.099307325e-39
0.2719617188 -0.3014842868 0.04697502404 6.91671253e-39
0.2037215233 -0.3766012192 0.01905361935 6.91671253e-39
0.2725459039 -0.291002363 0.02351452038 6.91671253e-39
0.2448899895 -0.3277428448 0.02155151963 6.91671253e-39
0.2160189301 -0.3874699771 0.04215582833 6.734117735e-39
0.229531467 -0.3753520846 0.04269073159 6.734117735e-39
0.2442590594 -0.3402475417 0.0206583254 6.734117735e-39
0.1901389062 -0.3917532563 -0.01801177114 6.734117735e-39
0.2854274511 -0.2913891971 0.02315622941 6.55152294e-39
0.2700689435 -0.3389984071 0.04429544136 6.55152294e-39
0.2153646052 -0.4009860456 0.02908575535 6.55152294e-39
0.2030438334 -0.3911286891 -0.006193213165 6.55152294e-39
0.2571406066 -0.3406343758 0.02030003443 6.368926744e-39
0.2977015078 -0.3032692969 0.03408155963 6.368926744e-39
0.2552945614 -0.3761257231 0.04197414964 6.368926744e-39
0.228246212 -0.4013728797 0.02872746438 6.368926744e-39
0.2159253955 -0.3915154934 -0.00655150786 6.186331949e-39
0.2823195457 -0.3518899679 0.04304395244 6.186331949e-39
0.2546636462 -0.3886304498 0.04108095169 6.186331949e-39
0.1894378215 -0.4072920978 -0.05543544888 6.186331949e-39
0.2964396477 -0.3282787204 0.03229517117 6.003737154e-39
0.2829037309 -0.3414080143 0.01958345249 6.003737154e-39
0.2152710855 -0.4050315917 -0.01962155104 6.003737154e-39
0.2816886008 -0.3643946648 0.04215075821 6.003737154e-39
0.2540327013 -0.4011351466 0.04018775746 5.820783626e-39
0.2952011824 -0.3522768021 0.04268565774 5.820783626e-39
0.2411043942 -0.4027711153 0.01619235054 5.820783626e-39
0.2287836224 -0.392913729 -0.01908664778 5.820783626e-39
0.2152476907 -0.4060429633 -0.03179837018 5.63818743e-39
0.2540093064 -0.4021465182 0.02801087871 5.63818743e-39
0.2945702374 -0.3647814989 0.04179246351 5.63818743e-39
0.2281526923 -0.4054184258 -0.01997984201 5.63818743e-39
0.2152243108 -0.4070543647 -0.04397521913 5.455592635e-39
0.2158318609 -0.3955610394 -0.05525884032 5.455592635e-39
0.2281292975 -0.4064297974 -0.03215666115 5.455592635e-39
0.215808481 -0.3965724409 -0.06743566692 5.455592635e-39
0.2668908536 -0.4025333524 0.02765258774 5.272997839e-39
0.2951310277 -0.3553109467 0.006155140698 5.272997839e-39
0.2945234776 -0.3668042719 0.01743876562 5.272997839e-39
0.2545467317 -0.3936873674 -0.01980323344 5.272997839e-39
0.2416184098 -0.3953233361 -0.04379861057 5.090401643e-39
0.2286900878 -0.396959275 -0.06779395789 5.090401643e-39
0.2674516439 -0.3930628002 -0.007984675467 5.090401643e-39
0.237949729 -0.4652946591 0.01172637567 5.090401643e-39
0.2668207288 -0.405567497 -0.008877869695 4.907806848e-39
0.3079891801 -0.3567091227 -0.006379969418 4.907806848e-39
0.2415716499 -0.3973461092 -0.06815224886 4.907806848e-39
0.279725641 -0.4049429297 0.00294065848 4.907806848e-39
0.2674048841 -0.3950855732 -0.03233834356 4.725212053e-39
0.2538690269 -0.4082148373 -0.04505009204 4.725212053e-39
0.2379029691 -0.4673174024 -0.01262726262 4.725212053e-39
0.2803098261 -0.3944610059 -0.02051981911 4.725212053e-39
0.2797022462 -0.4059543014 -0.009236160666 4.542257124e-39
0.2944299281 -0.3708497882 -0.0312685445 4.542257124e-39
0.2508078814 -0.4666928649 -0.0008087344468 4.542257124e-39
0.2514154315 -0.4551995397 -0.01209235936 4.542257124e-39
0.3073348701 -0.3702252209 -0.01945001259 4.359662329e-39
0.3073114753 -0.3712365925 -0.03162683547 4.359662329e-39
0.2796554863 -0.4079770744 -0.03358983248 4.359662329e-39
0.2667271793 -0.4096130431 -0.05758520961 4.359662329e-39
0.2507611215 -0.4687156379 -0.02516239882 4.177066133e-39
0.2931447029 -0.3968706131 -0.04523177445 4.177066133e-39
0.292537123 -0.4083639085 -0.03394812346 4.177066133e-39
0.2796087265 -0.4099998474 -0.05794349313 4.177066133e-39
0.2500834167 -0.4832431376 -0.05040926486 3.994471337e-39
0.2894292176 -0.4688647091 -0.01406043023 3.994471337e-39
0.2629415691 -0.4846413434 -0.06294438243 3.994471337e-39
-0.1026556641 -0.1932536215 0.3134881258 3.994471337e-39
-0.1039175391 -0.2182630599 0.3117017448 3.81151781e-39
-0.0910359472 -0.2186498791 0.3113434315 3.81151781e-39
-0.06527282298 -0.2194235176 0.3106268644 3.81151781e-39
-0.0530222021 -0.2323150784 0.3093753755 3.81151781e-39
-0.02599719912 -0.2080792934 0.3104451597 3.628921614e-39
0.0113856243 -0.2342491895 0.3075838983 3.628921614e-39
0.02552904561 -0.2096265852 0.3090119958 3.628921614e-39
0.02426717617 -0.2346360087 0.3072256148 3.628921614e-39
0.05129221082 -0.2104002237 0.3082954288 3.446326818e-39
0.08993686736 -0.2115606964 0.3072205484 3.446326818e-39
0.1150691062 -0.2248390317 0.3056107759 3.446326818e-39
0.1144381613 -0.2373437583 0.3047175705 3.446326818e-39
-0.01778978109 -0.321927011 -0.1579918414 3.26337189e-39
-0.01842071488 -0.3344317377 -0.1588850319 3.26337189e-39
0.007342418656 -0.3352053761 -0.1596016139 3.26337189e-39
0.006080552936 -0.3602147996 -0.1613880098 3.26337189e-39
0.02022397146 -0.3355922103 -0.1599599123 3.080777095e-39
0.03184365854 -0.3609884381 -0.1621045917 3.080777095e-39
0.1773732901 -0.288192451 -0.1363330036 3.080777095e-39
0.1902548522 -0.2885792553 -0.1366912872 3.080777095e-39
0.1742186248 -0.3507159948 -0.1407989711 2.898180898e-39
0.1896005273 -0.3020953536 -0.1497613043 2.898180898e-39
0.1864692569 -0.3636075258 -0.14205046 2.898180898e-39
0.2006126642 -0.3389849365 -0.1406223625 2.898180898e-39
0.1877077222 -0.3396095335 -0.1524408907 2.715227371e-39
0.229507044 -0.2782464325 -0.1490497887 2.715227371e-39
0.2134942114 -0.3393717706 -0.1409806609 2.715227371e-39
0.2147326767 -0.3153737485 -0.1513710916 2.715227371e-39
0.2141017467 -0.3278784454 -0.1522642821 2.532632576e-39
0.2552936077 -0.2780086994 -0.137589559 2.532632576e-39
0.2282451838 -0.3032558262 -0.1508361846 2.532632576e-39
0.2122323513 -0.3643811643 -0.1427670419 2.532632576e-39
0.2374113351 -0.3756367564 -0.1200231612 2.349677647e-39
0.2128398865 -0.3528878689 -0.154050678 2.349677647e-39
0.2540317476 -0.3030180633 -0.13937594 2.349677647e-39
0.2251139134 -0.3647679985 -0.1431253403 2.349677647e-39
0.2392573804 -0.3401454091 -0.1416972429 2.167082852e-39
0.2263523787 -0.3407700062 -0.153515771 2.167082852e-39
0.2540083528 -0.3040294647 -0.1515527666 2.167082852e-39
0.2244595736 -0.3782841265 -0.1561953574 2.167082852e-39
0.2508770823 -0.3655416369 -0.1438419223 1.984127923e-39
0.279163897 -0.3162964582 -0.1409857273 1.984127923e-39
0.2502461374 -0.3780463636 -0.1447351128 1.984127923e-39
0.2385796756 -0.354672879 -0.1669440717 1.984127923e-39
0.2637586296 -0.3659284711 -0.1442002207 1.801533128e-39
0.2649970949 -0.341930449 -0.1545906514 1.801533128e-39
0.2631276846 -0.3784331977 -0.1450934112 1.801533128e-39
0.2914145291 -0.3291879594 -0.1422372162 1.801533128e-39
0.2926529944 -0.3051899374 -0.1526276469 1.618578199e-39
0.2766401768 -0.3663152754 -0.1445585042 1.618578199e-39
0.3049270809 -0.3170700967 -0.1417023093 1.618578199e-39
0.2920220494 -0.317694664 -0.1535208374 1.618578199e-39
0.306165576 -0.2930720747 -0.1520927399 1.435982003e-39
0.2901526392 -0.3541974127 -0.1440235972 1.435982003e-39
0.3042961657 -0.3295747936 -0.1425954998 1.435982003e-39
0.2772476971 -0.35482198 -0.1558421254 1.435982003e-39
0.304903686 -0.3180814981 -0.1538791358 1.253028475e-39
0.3042727709 -0.330586195 -0.1547723264 1.253028475e-39
-0.2257991582 -0.3470392227 0.02626029402 1.253028475e-39
-0.187131092 -0.3471883237 0.03736223653 1.253028475e-39
-0.2135485411 -0.3599307239 0.02500880882 1.070432279e-39
-0.2258225381 -0.3480506241 0.01408347487 1.070432279e-39
-0.2129409909 -0.3484374285 0.0137251839 1.070432279e-39
-0.225845933 -0.3490619957 0.00190659659 1.070432279e-39
-0.1742962599 -0.3495979011 0.01265030541 8.874787512e-40
-0.2007137239 -0.3623403311 0.0002968185581 8.874787512e-40
-0.2258693129 -0.3500733972 -0.01027022302 8.874787512e-40
-0.252286762 -0.3628158271 -0.02262365073 8.874787512e-40
-0.2136186957 -0.3629648983 -0.01152170822 7.045238224e-40
-0.2129877657 -0.3504602015 -0.01062851399 7.045238224e-40
-0.2265236229 -0.3635894656 -0.0233402364 7.045238224e-40
-0.1872246265 -0.3512338698 -0.01134509966 7.045238224e-40
-0.2130111456 -0.3514715731 -0.02280533314 5.219290273e-40
-0.2387976199 -0.3517093062 -0.03426557034 5.219290273e-40
-0.1935573369 -0.4772923589 -0.03245386854 5.219290273e-40
-0.1929264069 -0.4647876024 -0.03156067431 5.219290273e-40
-0.2259160727 -0.3520961404 -0.03462386131 3.389740985e-40
-0.18193762 -0.5026885867 -0.03459855169 3.389740985e-40
-0.1813066751 -0.4901838601 -0.03370535374 3.389740985e-40
-0.180675745 -0.4776791632 -0.03281216323 3.389740985e-40
-0.2523335218 -0.3648386002 -0.04697731882 1.56020571e-40
-0.2136654556 -0.3649876416 -0.03587534651 1.56020571e-40
-0.1362825185 -0.3632630706 0.01068223361 1.56020571e-40
-0.1491874754 -0.3638876081 -0.001136350678 1.56020571e-40
-0.1356515884 -0.3507583737 0.01157542784 6.490113838e-41
-0.2007838637 -0.3653744757 -0.03623364121 6.490113838e-41
-0.1614614874 -0.3520075083 -0.01206168532 6.490113838e-41
-0.1916879267 -0.4407895803 -0.041951105 6.490113838e-41
-0.1897951216 -0.4032754302 -0.03927151859 2.496469266e-40
-0.1872713864 -0.353256613 -0.03569873795 2.496469266e-40
-0.2517260015 -0.3533452749 -0.05826094374 2.496469266e-40
-0.1769135296 -0.4036622643 -0.03962980956 2.496469266e-40
-0.1363058984 -0.3642744422 -0.001494643511 4.340353837e-40
-0.1492108554 -0.3648990095 -0.01331317052 4.340353837e-40
-0.2523803115 -0.3668613732 -0.07133097947 4.340353837e-40
-0.2137122303 -0.3670104146 -0.06022901461 4.340353837e-40
-0.2394987047 -0.3672481775 -0.07168927789 6.184224396e-40
-0.2001997083 -0.3548925519 -0.05969411507 6.184224396e-40
-0.1363292783 -0.3652858436 -0.01367146336 6.184224396e-40
-0.2259862274 -0.3551303148 -0.0711543709 6.184224396e-40
-0.1750441045 -0.3671595156 -0.0491270721 8.028094954e-40
-0.1879490912 -0.3677840829 -0.06094560027 8.028094954e-40
-0.1492576152 -0.3669217527 -0.03766680881 8.028094954e-40
-0.2131280601 -0.3565284908 -0.08368948102 8.028094954e-40
-0.1879724711 -0.3687954843 -0.07312244177 9.871979525e-40
-0.1615316272 -0.3550416529 -0.04859217256 9.871979525e-40
-0.2266639173 -0.3696577847 -0.0964012146 9.871979525e-40
-0.2518195212 -0.357390821 -0.1069682837 9.871979525e-40
-0.1234711185 -0.3666840494 -0.02620657533 1.171585008e-39
-0.2389379144 -0.3577776253 -0.1073265672 1.171585008e-39
-0.1234944984 -0.367695421 -0.03838339448 1.171585008e-39
-0.136399433 -0.3683199883 -0.05020194873 1.171585008e-39
-0.14930439 -0.3689445257 -0.06202047691 1.355972064e-39
-0.2138291299 -0.3720673621 -0.1211131662 1.355972064e-39
-0.2131981999 -0.3595626652 -0.1202199757 1.355972064e-39
-0.2138525248 -0.3730787337 -0.1332900077 1.355972064e-39
-0.2396389991 -0.3733164966 -0.1447502524 1.540360521e-39
-0.1874116808 -0.3593249321 -0.108759746 1.540360521e-39
-0.2132215947 -0.3605740368 -0.1323968172 1.540360521e-39
-0.2267574519 -0.3737033308 -0.1451085359 1.540360521e-39
-0.2519130409 -0.361436367 -0.15567559 1.724747577e-39
-0.1235412657 -0.369718194 -0.06273706257 1.724747577e-39
-0.239662379 -0.3743278682 -0.1569270641 1.724747577e-39
-0.1880659908 -0.3728410304 -0.1218297631 1.724747577e-39
-0.2390548289 -0.362834543 -0.16821073 1.909134633e-39
-0.1235646456 -0.3707295954 -0.07491390407 1.909134633e-39
-0.2009943128 -0.3744769692 -0.1458251327 1.909134633e-39
-0.2519598007 -0.3634591401 -0.1800292581 1.909134633e-39
-0.2189935148 -0.4771619737 -0.1891428828 2.09352309e-39
-0.2010176927 -0.3754883409 -0.1580019444 2.09352309e-39
-0.2318984419 -0.477786541 -0.2009614408 2.09352309e-39
-0.1874818355 -0.3623591065 -0.1452902257 2.09352309e-39
-0.2003867626 -0.362983644 -0.1571087539 2.277910146e-39
-0.2261966616 -0.3642327785 -0.1807458401 2.277910146e-39
-0.1358854026 -0.3608722091 -0.1101929098 2.277910146e-39
-0.2139460444 -0.3771242797 -0.181997329 2.277910146e-39
-0.1616953164 -0.3621213436 -0.133829996 2.462297202e-39
-0.2423030287 -0.4294036627 -0.2213840038 2.462297202e-39
-0.1365397274 -0.3743883073 -0.1232629269 2.462297202e-39
-0.1623496264 -0.3756374419 -0.1468999982 2.462297202e-39
-0.2275052965 -0.3912649751 -0.2068858892 2.646685659e-39
-0.1752545536 -0.3762619793 -0.1587185264 2.646685659e-39
-0.1230038628 -0.3612590432 -0.1105512083 2.646685659e-39
-0.1881595254 -0.3768865466 -0.1705370843 2.646685659e-39
-0.2520533502 -0.3675046861 -0.2287365794 2.830713982e-39
-0.1236581802 -0.3747751415 -0.1236212254 2.830713982e-39
-0.1359321773 -0.3628949821 -0.1345465779 2.830713982e-39
-0.2262668163 -0.3672669232 -0.2172763199 2.830713982e-39
-0.2520767152 -0.3685160577 -0.240913406 3.015101038e-39
-0.2281830013 -0.4057924449 -0.2321327627 3.015101038e-39
-0.1365864873 -0.3764110804 -0.147616595 3.015101038e-39
-0.2146471292 -0.3926631808 -0.2194209993 3.015101038e-39
-0.1101456657 -0.362657249 -0.1230863184 3.199488094e-39
-0.1230506301 -0.3632818162 -0.1349048615 3.199488094e-39
-0.2288373113 -0.4193085134 -0.2452027649 3.199488094e-39
-0.2391951233 -0.3689028621 -0.2412717044 3.199488094e-39
-0.2449202836 -0.4834680259 -0.2736641467 3.383517819e-39
-0.2307534963 -0.457834065 -0.2600592077 3.383517819e-39
-0.2333005965 -0.5088642836 -0.2758088112 3.383517819e-39
-0.2146705091 -0.3936745822 -0.2315978557 3.383517819e-39
-0.2326696813 -0.4963595867 -0.2749156356 3.567904875e-39
-0.2165866941 -0.4322000742 -0.2464542538 3.567904875e-39
-0.1617888361 -0.3661668897 -0.1825373024 3.567904875e-39
-0.2398494333 -0.3824189603 -0.2543417513 3.567904875e-39
-0.2263135761 -0.3692896962 -0.241629988 3.75229193e-39
-0.2392185032 -0.3699142635 -0.2534485459 3.75229193e-39
-0.2204190493 -0.5092511177 -0.2761671245 3.75229193e-39
-0.2178719491 -0.4582208991 -0.260417521 3.75229193e-39
-0.2333239913 -0.5098756552 -0.2879856527 3.936320254e-39
-0.2275988162 -0.3953105211 -0.2555932403 3.936320254e-39
-0.2011579871 -0.3815566599 -0.2310629487 3.936320254e-39
-0.1747171581 -0.3678028286 -0.206532672 3.936320254e-39
-0.0979418084 -0.377571553 -0.1486914605 4.120708711e-39
-0.149561584 -0.3800697625 -0.1959656328 4.120708711e-39
-0.1231207773 -0.3663159609 -0.1714353561 4.120708711e-39
-0.226991266 -0.3838171661 -0.2668768764 4.120708711e-39
-0.239265278 -0.3719370067 -0.2778021991 4.304737034e-39
-0.08506024629 -0.3779583573 -0.1490497589 4.304737034e-39
-0.201204747 -0.383579433 -0.2554166317 4.304737034e-39
-0.1489540488 -0.368576467 -0.207249254 4.304737034e-39
-0.2270146608 -0.3848285377 -0.279053688 4.48912409e-39
-0.239919588 -0.385453105 -0.290872246 4.48912409e-39
-0.2005738169 -0.3710747361 -0.2545234263 4.48912409e-39
-0.1237984747 -0.3808434308 -0.1966822147 4.48912409e-39
-0.1496083587 -0.3820925355 -0.2203192711 4.673152414e-39
-0.1489774287 -0.3695878386 -0.2194260806 4.673152414e-39
-0.2270380408 -0.3858399391 -0.2912305295 4.673152414e-39
-0.0722020492 -0.3793565631 -0.161584869 4.673152414e-39
-0.2361339927 -0.3104248643 -0.2855130732 4.857539469e-39
-0.1754416078 -0.3843530715 -0.2561332285 4.857539469e-39
-0.1360958517 -0.3699746728 -0.2197843641 4.857539469e-39
-0.1877156496 -0.3724729419 -0.2670585513 4.857539469e-39
-0.2006205916 -0.3730974793 -0.2788770795 5.041567793e-39
-0.04641553015 -0.37911883 -0.1501246393 5.041567793e-39
-0.08513040096 -0.380992502 -0.1855802536 5.041567793e-39
-0.1109402701 -0.3822416365 -0.2092173249 5.041567793e-39
-0.2232524455 -0.3108116686 -0.2858713567 5.225597518e-39
-0.1367501616 -0.3834907711 -0.232854411 5.225597518e-39
-0.1754649878 -0.3853644431 -0.2683100402 5.225597518e-39
-0.1232143119 -0.3703615069 -0.2201426625 5.225597518e-39
-0.1883699745 -0.3859890103 -0.2801285684 5.409984573e-39
-0.1361192316 -0.3709860742 -0.2319612205 5.409984573e-39
-0.2012749016 -0.3866135776 -0.2919471264 5.409984573e-39
-0.03353397548 -0.3795056641 -0.1504829228 5.409984573e-39
-0.2110018283 -0.3237031996 -0.2871228456 5.594012897e-39
-0.04643891007 -0.3801302016 -0.162301451 5.594012897e-39
-0.08515378088 -0.3820038736 -0.1977570951 5.594012897e-39
-0.2000130266 -0.3616041541 -0.2901607156 5.594012897e-39
-0.1238686219 -0.3838776052 -0.2332127094 5.77804122e-39
-0.1993820965 -0.3490994573 -0.28926754 5.77804122e-39
-0.1625834405 -0.3857512772 -0.2686683238 5.77804122e-39
-0.1103327274 -0.3707483113 -0.2205009609 5.77804122e-39
-0.1754883826 -0.3863758147 -0.2804868519 5.962428276e-39
-0.1232376918 -0.3713729084 -0.232319504 5.962428276e-39
-0.02065242454 -0.3798924685 -0.1508412212 5.962428276e-39
-0.03355735913 -0.3805170357 -0.1626597494 5.962428276e-39
-0.0851771608 -0.383015275 -0.2099339217 6.1464566e-39
-0.09808210284 -0.3836398423 -0.221752435 6.1464566e-39
-0.1109870374 -0.3842644095 -0.2335709929 6.1464566e-39
-0.1367969364 -0.3855135441 -0.2572081089 6.1464566e-39
-0.1361660063 -0.3730088472 -0.2563149035 6.330484923e-39
-0.1490709484 -0.3736333847 -0.2681334317 6.330484923e-39
-0.02067580633 -0.3809038401 -0.1630180478 6.330484923e-39
-0.04585474357 -0.3696482778 -0.1857619286 6.330484923e-39
0.05100531131 -0.4927330613 -0.1366760582 6.514514648e-39
-0.1736189574 -0.3498730958 -0.289984107 6.514514648e-39
-0.1626302153 -0.3877740502 -0.2930220068 6.514514648e-39
-0.1729880273 -0.3373683989 -0.2890909314 6.514514648e-39
0.06262505054 -0.5181293488 -0.1388207525 6.698542971e-39
-0.1619992852 -0.3752693534 -0.2921288013 6.698542971e-39
-0.02069918811 -0.3819152117 -0.1751948893 6.698542971e-39
-0.05941402912 -0.3837889433 -0.2106505036 6.698542971e-39
0.03744606674 -0.5068737268 -0.1615646333 6.882571295e-39
-0.03297319263 -0.3700351119 -0.186120227 6.882571295e-39
-0.0587830916 -0.3712842166 -0.2097572982 6.882571295e-39
0.0380769968 -0.4943690002 -0.1606714427 6.882571295e-39
0.06451785564 -0.480615139 -0.1361411661 7.066599618e-39
0.05415998399 -0.4302094877 -0.1322100908 7.066599618e-39
-0.1491177231 -0.3756561577 -0.2924870849 7.066599618e-39
0.0367917493 -0.5203897953 -0.1746346503 7.066599618e-39
0.07613754272 -0.5060114264 -0.1382858455 7.250627941e-39
0.01862322725 -0.3685482442 -0.1510228962 7.250627941e-39
0.005718294531 -0.3691728115 -0.1628414392 7.250627941e-39
-0.08524730802 -0.3860494196 -0.2464644015 7.250627941e-39
0.07676847279 -0.4935066998 -0.137392655 7.434656265e-39
0.02514868043 -0.4960049391 -0.1846668124 7.434656265e-39
0.07739941031 -0.4810019732 -0.1364994496 7.434656265e-39
0.08838815987 -0.5189029574 -0.1395373344 7.434656265e-39
0.07803034782 -0.4684972763 -0.1356062591 7.618684588e-39
0.01796890981 -0.3820643127 -0.1640929133 7.618684588e-39
0.005063977093 -0.38268888 -0.1759114712 7.618684588e-39
-0.03365088999 -0.3845625818 -0.2113670856 7.618684588e-39
0.01859984361 -0.3695596159 -0.1631997228 7.802712912e-39
-0.08527069539 -0.3870608211 -0.2586412728 7.802712912e-39
0.06893438846 -0.3930822015 -0.1298888028 7.802712912e-39
0.05857652426 -0.3426765203 -0.1259577274 7.802712912e-39
0.04312446713 -0.3943313062 -0.153525874 7.986382503e-39
0.02512529679 -0.4970163405 -0.196843639 7.986382503e-39
-0.08463976532 -0.3745561242 -0.2577480674 7.986382503e-39
-0.1453321278 -0.3006278872 -0.287127912 7.986382503e-39
0.08055408299 -0.4184783995 -0.1320334822 8.170410826e-39
0.1019006446 -0.5067850351 -0.1390024275 8.170410826e-39
0.05983839184 -0.3176670671 -0.1241713315 8.170410826e-39
-0.007864401676 -0.3843248188 -0.1999068409 8.170410826e-39
-0.02076933719 -0.3849493861 -0.2117253691 8.35443915e-39
-0.007233467884 -0.371820122 -0.1990136504 8.35443915e-39
0.09472088516 -0.3928444386 -0.1184285581 8.35443915e-39
-0.08529407531 -0.3880721927 -0.2708180845 8.35443915e-39
-0.05885323882 -0.3743183613 -0.2462877929 8.538467473e-39
-0.1220927313 -0.3514203727 -0.2914173007 8.538467473e-39
0.3090107441 -0.4842873216 0.05098740011 8.538467473e-39
0.07208906114 -0.3305586278 -0.1254228204 8.538467473e-39
-0.09756807983 -0.3761920631 -0.2817434072 8.722137064e-39
0.04627913982 -0.3318077624 -0.1490599066 8.722137064e-39
0.03082708456 -0.3834625185 -0.1766280532 8.722137064e-39
0.01792214625 -0.3840870857 -0.1884465814 8.722137064e-39
0.005017211661 -0.384711653 -0.2002651393 8.906165387e-39
0.04962652922 -0.5227993727 -0.199346602 8.906165387e-39
0.1044243798 -0.4567662179 -0.1354296505 8.906165387e-39
-0.007887784392 -0.3853362203 -0.2120836675 8.906165387e-39
0.03145802021 -0.3709578216 -0.1757348627 9.089834978e-39
-0.03369765729 -0.3865853548 -0.2357207537 9.089834978e-39
0.08370874822 -0.3559548557 -0.1275674999 9.089834978e-39
0.01855308004 -0.3715823889 -0.1875533909 9.089834978e-39
0.03735253215 -0.5109192133 -0.2102719694 9.273863302e-39
0.04499388486 -0.3578285277 -0.1630231142 9.273863302e-39
0.04754099995 -0.3067983389 -0.1472735107 9.273863302e-39
0.07398186624 -0.2930444777 -0.122743234 9.273863302e-39
0.3121420145 -0.4227751493 0.04327649623 9.457532893e-39
0.3146891594 -0.3717449009 0.05902615562 9.457532893e-39
0.1270328909 -0.5200634003 -0.1406122148 9.457532893e-39
-0.07178156078 -0.37595433 -0.2702831924 9.457532893e-39
0.1141278818 -0.5206879973 -0.1524307579 9.641561216e-39
0.1166750118 -0.4696577489 -0.1366811395 9.641561216e-39
0.1012229398 -0.5213125348 -0.1642492861 9.641561216e-39
0.3237851858 -0.4471600056 0.05330869183 9.641561216e-39
0.3256779909 -0.4096458554 0.05598827824 9.825230807e-39
0.3231542408 -0.4596647024 0.0524154976 9.825230807e-39
0.07541307807 -0.5225616693 -0.1878863722 9.825230807e-39
0.0178987626 -0.3850984573 -0.2006234378 9.825230807e-39
0.1173059419 -0.4571530521 -0.1357879341 1.000925913e-38
0.04960314929 -0.5238108039 -0.2115234584 1.000925913e-38
-0.02081610262 -0.3869721591 -0.2360790372 1.000925913e-38
0.0972212404 -0.3438369632 -0.1270326078 1.000925913e-38
-0.05953093618 -0.388845861 -0.2715346813 1.019292872e-38
0.0868634209 -0.293431282 -0.1231015325 1.019292872e-38
-0.07243587822 -0.3894703984 -0.2833532095 1.019292872e-38
0.323761791 -0.448171407 0.04113181308 1.019292872e-38
0.04560144246 -0.3463352025 -0.1743067652 1.037659831e-38
-0.04599504173 -0.3757165968 -0.2588229477 1.037659831e-38
0.0411381349 -0.4358909726 -0.2049127966 1.037659831e-38
0.04623237252 -0.3338305056 -0.1734135747 1.037659831e-38
0.0753896907 -0.523573041 -0.2000631988 1.056062664e-38
0.01787538268 -0.3861098588 -0.2128002495 1.056062664e-38
0.109471865 -0.3567284942 -0.1282840967 1.056062664e-38
0.03922194988 -0.4744164944 -0.2197691947 1.056062664e-38
0.04176907241 -0.423386246 -0.2040196061 1.074429623e-38
0.04686331004 -0.321325779 -0.1725203693 1.074429623e-38
0.1016611606 -0.2552925944 -0.1086034179 1.074429623e-38
-0.02083948441 -0.3879835308 -0.2482558638 1.074429623e-38
0.08875621855 -0.2559171617 -0.120421946 1.092796582e-38
-0.09506772459 -0.3271845877 -0.2903474867 1.092796582e-38
0.3335120678 -0.5100703835 0.04848442599 1.092796582e-38
0.04494712502 -0.3598513007 -0.1873767823 1.092796582e-38
0.04749424011 -0.3088210821 -0.1716271788 1.111163541e-38
0.05004135519 -0.2577908635 -0.1558775455 1.111163541e-38
0.323107481 -0.4616874754 0.02806179971 1.111163541e-38
-0.04664935544 -0.3892326653 -0.2718929648 1.111163541e-38
-0.02020855248 -0.3754788339 -0.2473626733 1.1295305e-38
0.1210915521 -0.3821247518 -0.1304287761 1.1295305e-38
0.1107337251 -0.3317191005 -0.1264977008 1.1295305e-38
0.03793670237 -0.5004373193 -0.2337324172 1.1295305e-38
-0.05955432355 -0.3898572326 -0.283711493 1.147897319e-38
0.3205837607 -0.5117063522 0.02448901907 1.147897319e-38
0.03012599982 -0.3990014195 -0.2140517384 1.147897319e-38
0.3379051983 -0.4235488176 0.04255991057 1.147897319e-38
0.3281783164 -0.3606384099 0.04738418013 1.166264278e-38
0.1405220032 -0.5089569092 -0.1522541493 1.166264278e-38
0.04875610769 -0.2838116586 -0.1698407829 1.166264278e-38
-0.093805857 -0.3021751642 -0.2885611057 1.166264278e-38
-0.05892338604 -0.3773525059 -0.2828182876 1.184631237e-38
0.01785199903 -0.3871212304 -0.2249770761 1.184631237e-38
0.049556382 -0.5258335471 -0.2358770967 1.184631237e-38
0.1333422363 -0.3950163126 -0.1316802651 1.184631237e-38
-0.007957931608 -0.3883703649 -0.2486141622 1.202998196e-38
-0.08218616992 -0.3275714219 -0.2907057703 1.202998196e-38
0.1126265302 -0.2942049503 -0.1238181144 1.202998196e-38
0.04492373765 -0.3608626723 -0.1995536238 1.202998196e-38
0.3205603659 -0.5127177835 0.01231219992 1.221365155e-38
0.04747085273 -0.3098324835 -0.1838040054 1.221365155e-38
0.05001797527 -0.2588022351 -0.1680544019 1.221365155e-38
-0.007326997817 -0.3758656681 -0.2477209568 1.221365155e-38
0.3378818333 -0.4245601892 0.03038309142 1.239732115e-38
0.3372508883 -0.4370648861 0.02948990092 1.239732115e-38
0.3404289484 -0.3735299408 0.04613269493 1.239732115e-38
0.346393615 -0.5104572177 0.04812613502 1.239732115e-38
0.3249768913 -0.4251847565 0.01856456697 1.258099074e-38
0.3120718598 -0.425809294 0.006746038795 1.258099074e-38
0.3146190047 -0.3747790754 0.0224956423 1.258099074e-38
0.1346040964 -0.3700068593 -0.1298938692 1.258099074e-38
0.03854425251 -0.4889439642 -0.2450160682 1.276466033e-38
0.08824786544 -0.5249712467 -0.2125983387 1.276466033e-38
0.3281549513 -0.3616497815 0.03520736098 1.276466033e-38
0.1404986233 -0.5099682808 -0.1644309759 1.276466033e-38
0.1430457234 -0.4589380622 -0.1486813724 1.294832852e-38
0.3507867455 -0.423935622 0.0422016196 1.294832852e-38
0.04953300208 -0.5268449187 -0.2480539382 1.294832852e-38
0.3501558006 -0.4364403188 0.04130842537 1.294832852e-38
0.1411295533 -0.4974635839 -0.1635377854 1.313163938e-38
0.00492368266 -0.388757199 -0.2489724457 1.313163938e-38
0.08870945126 -0.2579399347 -0.1447756141 1.313163938e-38
0.0398061201 -0.4639345706 -0.2432296723 1.313163938e-38
0.3372274935 -0.4380762875 0.01731308177 1.331530897e-38
0.3243225515 -0.438700825 0.005494553596 1.331530897e-38
-0.05831583589 -0.3658591807 -0.2941019535 1.331530897e-38
0.3662154377 -0.3732921779 0.05759298801 1.331530897e-38
0.04490035772 -0.3618740737 -0.2117304504 1.349897856e-38
0.1261390299 -0.2820870578 -0.1232832074 1.349897856e-38
-0.02088624984 -0.3900063038 -0.2726095617 1.349897856e-38
0.3378584385 -0.4255715907 0.01820627227 1.349897856e-38
0.04043705761 -0.4514298439 -0.2423364818 1.368228942e-38
0.1398442984 -0.5234843493 -0.177500993 1.368228942e-38
0.1449385285 -0.4214238822 -0.146001786 1.368228942e-38
0.3334419131 -0.513104558 0.01195390895 1.368228942e-38
0.0499945879 -0.2598136365 -0.1802312136 1.386595901e-38
0.3507633805 -0.4249469936 0.03002480045 1.386595901e-38
0.3539414108 -0.3614120781 0.04666759446 1.386595901e-38
0.03007923625 -0.4010241926 -0.2384054065 1.386595901e-38
0.3211445212 -0.5022358298 -0.01114824042 1.404926846e-38
-0.03316025063 -0.3781261742 -0.2835348845 1.404926846e-38
-0.04606518894 -0.3787507415 -0.2953534424 1.404926846e-38
0.3636682928 -0.4243224561 0.04184332862 1.404926846e-38
0.01780523174 -0.3891440034 -0.2493307441 1.423293806e-38
0.1015910134 -0.2583267689 -0.1451338977 1.423293806e-38
0.3340494335 -0.5016112328 0.0006702872925 1.423293806e-38
0.311394155 -0.4403367639 -0.0185008496 1.423293806e-38
-0.04543425143 -0.3662460148 -0.294460237 1.441624891e-38
0.3507399857 -0.425958395 0.0178479813 1.441624891e-38
0.3501090407 -0.4384630919 0.01695478708 1.441624891e-38
0.07578113675 -0.2595758736 -0.1687709838 1.441624891e-38
-0.05579210073 -0.3158403635 -0.2905291617 1.459991851e-38
0.3765732348 -0.423697859 0.0536619164 1.459991851e-38
0.3204902112 -0.5157518983 -0.02421831712 1.459991851e-38
0.3539180458 -0.3624234498 0.03449077532 1.459991851e-38
0.04742409289 -0.3118552566 -0.2081576735 1.478322936e-38
0.3463234603 -0.5134913921 0.01159561798 1.478322936e-38
0.3721567094 -0.511230886 0.04740954936 1.478322936e-38
0.1402825117 -0.2574644387 -0.1218551099 1.478322936e-38
0.1442608386 -0.4359514117 -0.1712486297 1.496689755e-38
0.31137079 -0.4413481653 -0.03067766875 1.496689755e-38
0.3210977614 -0.5042585731 -0.03550193831 1.496689755e-38
0.004876917228 -0.3907799721 -0.2733261287 1.496689755e-38
0.03131771833 -0.3770261407 -0.2487958372 1.515020841e-38
0.3094546199 -0.479873687 -0.04553407431 1.515020841e-38
0.3463000655 -0.5145027637 -0.0005812013987 1.515020841e-38
0.366799593 -0.3628102541 0.03413248435 1.515020841e-38
0.04931689054 -0.2743411064 -0.2054780871 1.533351927e-38
0.3919786215 -0.3740658462 0.05687640235 1.533351927e-38
0.3280847967 -0.3646839559 -0.001323097153 1.533351927e-38
0.1404284835 -0.5130024552 -0.2009614557 1.533351927e-38
0.1480698287 -0.3599117398 -0.1537126303 1.551683013e-38
0.3151797652 -0.3653085232 -0.0131416833 1.551683013e-38
-0.007397145964 -0.3788998127 -0.2842514515 1.551683013e-38
0.0623678416 -0.5292545557 -0.2727659047 1.551683013e-38
0.1539643407 -0.4998731613 -0.188249737 1.570049832e-38
-0.03129083291 -0.3416234255 -0.2930321395 1.570049832e-38
0.3081693351 -0.5058944821 -0.05949728191 1.570049832e-38
-0.02030208148 -0.37952438 -0.2960700095 1.570049832e-38
0.04946285486 -0.5298790932 -0.2845844328 1.588380918e-38
0.3217053115 -0.492765218 -0.04678556323 1.588380918e-38
0.3242524266 -0.4417349994 -0.03103596345 1.588380918e-38
0.3088002801 -0.4933897853 -0.05860409141 1.588380918e-38
-0.01967114583 -0.3670196533 -0.2951768339 1.606712004e-38
0.3403354287 -0.3775754869 -0.002574582119 1.606712004e-38
0.0416521579 -0.4284431934 -0.2649037838 1.606712004e-38
0.3223362565 -0.4802604914 -0.045892369 1.606712004e-38
0.160320431 -0.3728033006 -0.1549641192 1.625043089e-38
0.1423212737 -0.4754883051 -0.1982818693 1.625043089e-38
0.1448683888 -0.4244580269 -0.1825322658 1.625043089e-38
0.004853535444 -0.3917913437 -0.2855029404 1.625043089e-38
0.04929350317 -0.2753525078 -0.2176548988 1.643374035e-38
0.1480464488 -0.3609231114 -0.1658894569 1.643374035e-38
0.04737732559 -0.3138780296 -0.2325113416 1.643374035e-38
0.3081459701 -0.5069059134 -0.07167412341 1.643374035e-38
0.3468842208 -0.5040208101 -0.02404170483 1.661705121e-38
-0.00742052868 -0.3799112141 -0.2964283228 1.661705121e-38
0.3371339738 -0.4421218336 -0.03139425442 1.661705121e-38
0.1725710481 -0.3856948018 -0.1562156081 1.661705121e-38
0.3919318616 -0.3760886192 0.03252270445 1.680036207e-38
0.3790268302 -0.3767131865 0.02070418 1.680036207e-38
0.1486773789 -0.3484184146 -0.1649962515 1.680036207e-38
0.3138711452 -0.3923407197 -0.03928171098 1.680036207e-38
0.04800826311 -0.3013733029 -0.2316181362 1.698367293e-38
0.159666121 -0.3863193691 -0.1680341363 1.698367293e-38
0.1442140788 -0.4379741848 -0.1956022978 1.698367293e-38
0.151224494 -0.2973881662 -0.1492466629 1.698367293e-38
0.3894081116 -0.4261074662 0.02894992381 1.716698239e-38
0.3403120339 -0.3785868585 -0.01475145947 1.716698239e-38
0.3887771666 -0.4386121631 0.02805672958 1.716698239e-38
0.3796577454 -0.3642084897 0.02159737423 1.716698239e-38
0.4048367739 -0.375464052 0.04434123263 1.735029324e-38
0.3229437768 -0.4687671661 -0.05717599392 1.735029324e-38
0.1403817087 -0.5150251985 -0.2253151238 1.735029324e-38
0.3151330054 -0.3673312962 -0.03749532253 1.735029324e-38
0.03971259296 -0.4679800868 -0.2919369936 1.75336041e-38
0.04672301561 -0.327394098 -0.2455813438 1.75336041e-38
0.3210276067 -0.5072927475 -0.07203242183 1.75336041e-38
0.3726940751 -0.5027716756 -0.000404589111 1.75336041e-38
0.4183726311 -0.3623347878 0.05705301091 1.771655483e-38
0.350015521 -0.4425086379 -0.03175254911 1.771655483e-38
0.04034352303 -0.4554753602 -0.291043818 1.771655483e-38
0.3919084668 -0.3771000206 0.02034588531 1.771655483e-38
0.1854526103 -0.386081636 -0.1565738916 1.789986569e-38
0.1351181269 -0.3625590503 -0.1898848265 1.789986569e-38
0.3790034354 -0.3777245581 0.008527360857 1.789986569e-38
0.04289064556 -0.4044451416 -0.2752942145 1.789986569e-38
0.3635513783 -0.4293793738 -0.01904082671 1.808317654e-38
0.1461068839 -0.4004600346 -0.1929227114 1.808317654e-38
0.3796343505 -0.3652198613 0.009420555085 1.808317654e-38
0.1397273839 -0.5285413265 -0.2383851409 1.808317654e-38
0.3119315803 -0.4318776131 -0.06631496549 1.826612727e-38
0.1441906989 -0.4389855564 -0.2077791393 1.826612727e-38
0.3203732967 -0.520808816 -0.08510243893 1.826612727e-38
0.155179441 -0.476886481 -0.2108170092 1.826612727e-38
0.4114323556 -0.4998866022 0.04722787067 1.844943813e-38
0.1268224418 -0.529165864 -0.2502036989 1.844943813e-38
0.03905827552 -0.4814961851 -0.3050070405 1.844943813e-38
0.340919584 -0.3670935631 -0.02603508905 1.844943813e-38
-0.004265859723 -0.3173876405 -0.2919623256 1.863274899e-38
0.05004702508 -0.5193971395 -0.3080449104 1.863274899e-38
0.1144024208 -0.2617477477 -0.1820226759 1.863274899e-38
0.1139174476 -0.5297904611 -0.262022227 1.863274899e-38
0.1403583288 -0.5160365701 -0.2374919504 1.881569971e-38
0.3893613219 -0.4281302392 0.004596285522 1.881569971e-38
0.3628970683 -0.442895472 -0.03211084008 1.881569971e-38
0.05067795515 -0.5068924427 -0.3071517348 1.881569971e-38
0.415194571 -0.4258697331 0.04041015729 1.899901057e-38
0.3591114879 -0.5179237723 -0.0374700129 1.899901057e-38
0.1409892589 -0.5035318732 -0.2365987599 1.899901057e-38
0.3370871842 -0.4441445768 -0.05574789271 1.899901057e-38
0.04478344321 -0.3669309914 -0.2726146281 1.91819627e-38
0.3855757117 -0.5031585097 -0.0007628838066 1.91819627e-38
0.1983342171 -0.3864684701 -0.1569321901 1.91819627e-38
0.3112772405 -0.4453936815 -0.07938498259 1.91819627e-38
0.147999689 -0.3629458845 -0.190243125 1.936527215e-38
0.3635280132 -0.4303907752 -0.03121764585 1.936527215e-38
0.3660751283 -0.379360497 -0.01546804514 1.936527215e-38
0.0473305583 -0.3159008026 -0.2568650246 1.936527215e-38
0.1241059229 -0.3256694674 -0.1990237981 1.954822428e-38
0.3074449003 -0.5224447846 -0.1090978086 1.954822428e-38
0.007984820753 -0.3302791715 -0.2932138145 1.954822428e-38
0.3925159872 -0.3656066656 0.009062260389 1.954822428e-38
0.1397040039 -0.5295526981 -0.2505619824 1.973153514e-38
0.1530939192 -0.2608854175 -0.1587438881 1.973153514e-38
0.4280995131 -0.4252451658 0.05222874507 1.973153514e-38
0.0629286319 -0.5197839737 -0.3084032238 1.973153514e-38
0.3209808469 -0.5093154907 -0.09638608992 1.991448586e-38
0.3538011312 -0.3674803972 -0.02639338002 1.991448586e-38
0.3080758154 -0.5099400282 -0.1082046181 1.991448586e-38
0.144167304 -0.4399969578 -0.2199559659 1.991448586e-38
0.05193982273 -0.4818830192 -0.305365324 2.009743799e-38
0.1511777341 -0.2994109094 -0.1736003309 2.009743799e-38
0.1403349489 -0.5170480013 -0.2496687919 2.009743799e-38
0.4243139029 -0.5002734065 0.04686957598 2.009743799e-38
0.3087067604 -0.4974353313 -0.1073114276 2.028074885e-38
0.1602502912 -0.3758374453 -0.1914946139 2.028074885e-38
0.1518086642 -0.2869062126 -0.1727071255 2.028074885e-38
0.009246688336 -0.305269748 -0.2914274335 2.028074885e-38
0.4299689233 -0.3887424171 0.04273144901 2.046369957e-38
0.03122419305 -0.3810716867 -0.2975032032 2.046369957e-38
0.3074215055 -0.5234561563 -0.1212746352 2.046369957e-38
0.3789566755 -0.3797473311 -0.01582633704 2.046369957e-38
0.4287070632 -0.4137518406 0.04094506428 2.06466517e-38
0.2112157792 -0.3868552744 -0.1572904885 2.06466517e-38
0.1564179212 -0.452888459 -0.2212074399 2.06466517e-38
0.07566422224 -0.2646327913 -0.2296551466 2.06466517e-38
0.1524395943 -0.2744015455 -0.171813935 2.082996116e-38
0.3531468213 -0.3809964657 -0.03946339339 2.082996116e-38
0.4053975344 -0.3659934998 0.008703969419 2.082996116e-38
0.04476006329 -0.367942363 -0.2847914398 2.082996116e-38
0.4268142581 -0.4512659907 0.03826547414 2.101291328e-38
0.02086637355 -0.3306660056 -0.2935721278 2.101291328e-38
0.3795875907 -0.3672426343 -0.01493314188 2.101291328e-38
0.06482142955 -0.4822698236 -0.3057236373 2.101291328e-38
0.126775682 -0.5311886668 -0.2745573819 2.119586541e-38
0.2118467093 -0.3743505776 -0.156397298 2.119586541e-38
0.3408727944 -0.3691163063 -0.05038872734 2.119586541e-38
0.4145168662 -0.440397203 0.0151633285 2.119586541e-38
0.3628502786 -0.4449182153 -0.05646447837 2.137881613e-38
0.3150628507 -0.3703654408 -0.07402580976 2.137881613e-38
0.07644111663 -0.507666111 -0.3078683019 2.137881613e-38
0.1422277391 -0.4795338511 -0.2469892055 2.137881613e-38
0.4409810603 -0.4256319702 0.0518704541 2.156176826e-38
0.1401655972 -0.2625213861 -0.1827392727 2.156176826e-38
0.1009657383 -0.5324377418 -0.2981944382 2.156176826e-38
0.322219342 -0.485317409 -0.1067765206 2.156176826e-38
0.3332080841 -0.5232183933 -0.1098144054 2.174471899e-38
0.4299455583 -0.3897537887 0.03055462986 2.174471899e-38
0.1272606105 -0.2631459534 -0.1945578158 2.174471899e-38
0.4390882552 -0.4631461203 0.04919086769 2.174471899e-38
0.3461130261 -0.5225938559 -0.09799587727 2.192767111e-38
0.4047432542 -0.379509598 -0.004366044421 2.192767111e-38
0.07707205415 -0.4951613545 -0.3069750965 2.192767111e-38
0.4371954501 -0.5006602407 0.04651128501 2.192767111e-38
0.04856904596 -0.2919027507 -0.2672554553 2.211062324e-38
0.03311699629 -0.3435575366 -0.2948236167 2.211062324e-38
0.1517852843 -0.287917614 -0.1848839521 2.211062324e-38
0.06608330458 -0.4572604001 -0.3039372265 2.211062324e-38
0.3402185142 -0.3826324046 -0.06345877051 2.229357396e-38
0.1563945413 -0.4538998306 -0.2333842665 2.229357396e-38
0.3273135722 -0.3832569718 -0.07527729869 2.229357396e-38
0.0885457769 -0.2650196254 -0.2300134301 2.229357396e-38
0.4021961093 -0.4305398464 -0.02011570334 2.247652609e-38
0.1434896141 -0.4545244277 -0.2452028245 2.247652609e-38
0.3666592836 -0.3688785732 -0.03892849013 2.247652609e-38
0.04919997603 -0.2793980539 -0.2663622499 2.247652609e-38
0.3590179384 -0.5219692588 -0.08617731929 2.265947681e-38
0.410707891 -0.5164368749 -0.002372663934 2.265947681e-38
0.4311840236 -0.3657557666 0.0201642029 2.265947681e-38
0.4409576654 -0.4266433716 0.03969357535 2.265947681e-38
0.2247282565 -0.3747374117 -0.1567555815 2.284242894e-38
0.3984104991 -0.5055680871 -0.02547487244 2.284242894e-38
0.4396958053 -0.4516528249 0.03790718317 2.284242894e-38
0.4286603034 -0.4157746136 0.01659142599 2.284242894e-38
0.4390648603 -0.4641575217 0.03701398894 2.302537966e-38
0.3892678022 -0.4321757853 -0.04411105067 2.302537966e-38
0.113847293 -0.5328245759 -0.2985527217 2.302537966e-38
0.1375950724 -0.3145630062 -0.2106657177 2.302537966e-38
0.04791473597 -0.3054188192 -0.2803254724 2.320833179e-38
0.4015417993 -0.4440559447 -0.03318571672 2.320833179e-38
0.4415652454 -0.4151500165 0.02840995044 2.320833179e-38
0.4409343004 -0.4276547432 0.02751675621 2.320833179e-38
0.06797610223 -0.4197462797 -0.3012576401 2.339092378e-38
0.4298987687 -0.3917765617 0.006200991571 2.339092378e-38
0.04599855095 -0.3439443707 -0.2951819003 2.339092378e-38
0.4292678237 -0.4042812884 0.005307797343 2.339092378e-38
0.1602035165 -0.3778602183 -0.215848282 2.348204041e-38
0.2240739465 -0.3882534802 -0.1698255986 2.348204041e-38
0.05698729306 -0.3818453252 -0.2982197702 2.348204041e-38
0.3124689758 -0.4234184325 -0.1141290814 2.348204041e-38
0.2111690193 -0.3888780177 -0.1816441566 2.348132155e-38
0.4261131585 -0.4668048322 0.0008418220095 2.348132155e-38
0.4150776565 -0.4309266508 -0.02047399804 2.348132155e-38
0.3892444074 -0.4331871569 -0.05628786981 2.348132155e-38
0.4235894382 -0.516823709 -0.002730958397 2.348060128e-38
0.3634344637 -0.4344362915 -0.07992495596 2.348060128e-38
0.4434346557 -0.3786472976 0.0189127177 2.348060128e-38
0.3589711785 -0.5239920616 -0.1105309874 2.348060128e-38
0.1479295343 -0.3659800291 -0.2267736048 2.347952368e-38
0.113823913 -0.5338359475 -0.3107295632 2.347952368e-38
0.08022672683 -0.4326377809 -0.302509129 2.347952368e-38
0.3466971517 -0.5121119022 -0.1214563251 2.347952368e-38
0.3357084095 -0.4742109478 -0.1184184402 2.347880341e-38
0.06923796982 -0.3947368562 -0.2994712591 2.347880341e-38
0.4053274095 -0.3690276742 -0.02782654762 2.347880341e-38
0.3924224675 -0.3696522117 -0.0396450758 2.347880341e-38
0.3725070357 -0.5108627677 -0.0978192538 2.347808455e-38
0.1730850637 -0.3782470226 -0.2162065655 2.347808455e-38
0.06986889988 -0.3822321594 -0.2985780537 2.347808455e-38
0.3627801538 -0.4479523897 -0.09299498796 2.347808455e-38
0.1601801366 -0.3788715899 -0.2280250937 2.347700555e-38
0.09247734398 -0.4455293417 -0.303760618 2.347700555e-38
0.3143617809 -0.3859043121 -0.111449495 2.347700555e-38
0.08148858696 -0.4076283872 -0.300722748 2.347700555e-38
0.4298520088 -0.3937993348 -0.01815270633 2.347628668e-38
0.4402565658 -0.4421822131 0.002269923221 2.347628668e-38
0.1396104693 -0.5335982442 -0.2992693186 2.347628668e-38
0.4292210639 -0.4063040614 -0.01904590055 2.347628668e-38
0.3634110987 -0.4354476929 -0.09210179746 2.347520768e-38
0.4383637905 -0.4796963632 -0.0004096629564 2.347520768e-38
0.3259815276 -0.4113005698 -0.1135941744 2.347520768e-38
0.05951103568 -0.3318264484 -0.2946469784 2.347520768e-38
0.4260663986 -0.4688276052 -0.02351187542 2.347448882e-38
0.4150308967 -0.4329494238 -0.04482763633 2.347448882e-38
0.4143999517 -0.4454541206 -0.04572082683 2.347448882e-38
0.1479061544 -0.3669914305 -0.2389504611 2.347448882e-38
0.4235426784 -0.5188465118 -0.02708465606 2.347340982e-38
0.3376012146 -0.4366968274 -0.1157388538 2.347340982e-38
0.3659582138 -0.3844174147 -0.07635217905 2.347340982e-38
0.1273364723 -0.5217180848 -0.3101946712 2.347340982e-38
0.09373921156 -0.4205199182 -0.301974237 2.347269095e-38
0.2891828418 -0.3746487498 -0.1341933757 2.347269095e-38
0.3530533016 -0.3850420117 -0.08817072213 2.347269095e-38
0.4396022856 -0.4556983709 -0.01080009341 2.347269095e-38
0.3976860642 -0.52211833 -0.07507537305 2.347161195e-38
0.1447047144 -0.4315377474 -0.2677701116 2.347161195e-38
0.2762779295 -0.3752732873 -0.1460119337 2.347161195e-38
0.07176170498 -0.3447180092 -0.2958984673 2.347161195e-38
0.366589129 -0.3719127178 -0.07545897365 2.347089308e-38
0.4377094805 -0.4932124913 -0.01347967703 2.347089308e-38
0.04978414625 -0.2689161003 -0.2898227274 2.347089308e-38
0.3608405888 -0.4874892831 -0.1200282127 2.347089308e-38
0.3536842167 -0.3725373149 -0.08727753162 2.346981408e-38
0.3498518169 -0.4495883286 -0.1169903427 2.346981408e-38
0.1169785783 -0.4713124335 -0.3062635958 2.346981408e-38
0.4241502285 -0.507353127 -0.03836827725 2.346981408e-38
0.3143384159 -0.3869156837 -0.1236263365 2.346909522e-38
0.08338139206 -0.3701142371 -0.2980431616 2.346909522e-38
0.2111222595 -0.3909007907 -0.2059978247 2.346909522e-38
0.06140383333 -0.2943123281 -0.2919674218 2.346909522e-38
0.2885285616 -0.3881648183 -0.1472634226 2.346801622e-38
0.1853123158 -0.3921499252 -0.2296348661 2.346801622e-38
0.4395788908 -0.4567097425 -0.02297697216 2.346801622e-38
0.08401232213 -0.3576095402 -0.2971499562 2.346801622e-38
0.378839761 -0.3848042488 -0.07671046257 2.346693862e-38
0.1478827745 -0.3680028021 -0.2511272728 2.346693862e-38
0.4052806199 -0.3710504174 -0.05218018591 2.346693862e-38
0.4376860857 -0.4942238629 -0.02565655485 2.346693862e-38
0.1066207588 -0.4209067523 -0.3023325205 2.346621835e-38
0.4266505837 -0.4583456814 -0.04697231948 2.346621835e-38
0.3923757076 -0.3716749847 -0.06399874389 2.346621835e-38
0.4241268337 -0.5083644986 -0.0505450964 2.346621835e-38
0.3511137068 -0.4245789051 -0.1152039468 2.346514075e-38
0.1504298747 -0.3169726133 -0.2353776693 2.346514075e-38
0.3794706762 -0.372299552 -0.07581727207 2.346514075e-38
0.0755706951 -0.2686783373 -0.278362453 2.346514075e-38
0.07365451008 -0.3072038591 -0.2932188809 2.346406175e-38
0.3627333641 -0.4499751627 -0.1173486412 2.346406175e-38
0.4408173859 -0.4327116907 -0.03336739913 2.346406175e-38
0.09626294672 -0.3705010712 -0.2984014452 2.346406175e-38
0.4401864409 -0.4452163875 -0.03426059335 2.346334289e-38
0.1582171917 -0.4194198847 -0.2672352195 2.346334289e-38
0.3536608219 -0.3735486865 -0.09945435822 2.346334289e-38
