# .PCD v0.7 - Point Cloud Data file format
VERSION 0.7
FIELDS x y z rgb
SIZE 4 4 4 4
TYPE F F F F
COUNT 1 1 1 1
WIDTH 825
HEIGHT 1
VIEWPOINT 0 0 0 1 0 0 0
POINTS 825
DATA ascii
-0.3335289955 -0.1810013056 -0.2594893277 1.002046952e-38
-0.3133282959 -0.3153074086 -0.184758991 1.002046952e-38
-0.328425914 -0.2114778906 -0.2304680049 1.002046952e-38
-0.3367052078 -0.1611784697 -0.2750429511 1.002046952e-38
-0.3397756219 -0.1351557374 -0.269919157 9.837874723e-39
-0.3316021264 -0.1916550398 -0.2460216284 9.837874723e-39
-0.3385262787 -0.1443248391 -0.2678331733 9.837874723e-39
-0.3264990747 -0.2221316248 -0.2170003355 9.837874723e-39
-0.3213959932 -0.25260818 -0.1879790276 9.837874723e-39
-0.3372769654 -0.1534939706 -0.2657472193 9.837874723e-39
-0.3477375507 -0.06625661254 -0.2524617314 9.837874723e-39
-0.3187915981 -0.2647465467 -0.1631296426 9.837874723e-39
-0.3439895809 -0.09376396239 -0.2462038249 9.655279928e-39
-0.3126507401 -0.3167920113 -0.1733772904 9.655279928e-39
-0.3125449717 -0.3105921149 -0.152699843 9.655279928e-39
-0.3539841771 -0.02041100338 -0.262891531 9.655279928e-39
-0.3414909542 -0.1121022105 -0.2420319021 9.655279928e-39
-0.302508682 -0.2790713906 -0.1164420769 9.655279928e-39
-0.3124391735 -0.3043922186 -0.1320223808 9.655279928e-39
-0.3396698236 -0.1289558411 -0.249241665 9.655279928e-39
-0.2901853025 -0.278288722 -0.1173673198 9.472685133e-39
-0.3458106816 -0.0769103393 -0.2389940321 9.472685133e-39
-0.3470599949 -0.06774123013 -0.2410799861 9.472685133e-39
-0.3445613682 -0.08607947081 -0.2369080633 9.472685133e-39
-0.3118674159 -0.3120767176 -0.1413181424 9.472685133e-39
-0.3119731843 -0.3182766438 -0.1619955748 9.472685133e-39
-0.3420627117 -0.1044176891 -0.2327361405 9.472685133e-39
-0.3433120251 -0.09524857998 -0.2348220944 9.472685133e-39
-0.277861923 -0.2775060236 -0.1182925627 9.290090338e-39
-0.3533066213 -0.02189561725 -0.2515098155 9.290090338e-39
-0.3389922976 -0.1304404438 -0.2378599644 9.290090338e-39
-0.3371711671 -0.1472940594 -0.2450697571 9.290090338e-39
-0.3117616475 -0.3058768511 -0.1206406727 9.290090338e-39
-0.3359218538 -0.156463176 -0.2429837883 9.290090338e-39
-0.3346725404 -0.1656323075 -0.2408978194 9.290090338e-39
-0.3112956583 -0.3197612464 -0.1506138742 9.290090338e-39
-0.3111898601 -0.3135613203 -0.129936412 9.107495543e-39
-0.3251439631 -0.2251008451 -0.1942369193 9.107495543e-39
-0.3463824391 -0.06922584027 -0.2296982855 9.107495543e-39
-0.3476317823 -0.06005670503 -0.2317842543 9.107495543e-39
-0.3120789528 -0.3244765103 -0.1826730371 9.107495543e-39
-0.3488810956 -0.05088759586 -0.2338702083 9.107495543e-39
-0.3283201754 -0.2052779943 -0.2097905427 9.107495543e-39
-0.3401358426 -0.1150714308 -0.219268471 9.107495543e-39
-0.3232170939 -0.2357545644 -0.1807692349 8.924899347e-39
-0.350130409 -0.04171849042 -0.2359561771 8.924899347e-39
-0.3005818129 -0.2897251248 -0.1029744148 8.924899347e-39
-0.3383147418 -0.1319250613 -0.2264782488 8.924899347e-39
-0.2753632665 -0.2958442569 -0.1141206399 8.924899347e-39
-0.3174364865 -0.2677157521 -0.1403662264 8.924899347e-39
-0.3106181026 -0.3212458491 -0.1392321736 8.924899347e-39
-0.2635796666 -0.3682976663 -0.09882344306 8.924899347e-39
-0.2771524191 -0.3599112332 -0.09998415411 8.742304551e-39
-0.2630398571 -0.2950615585 -0.1150458828 8.742304551e-39
-0.3135398328 -0.3277072012 -0.2261139154 8.742304551e-39
-0.3388864994 -0.1242405325 -0.2171825171 8.742304551e-39
-0.3407076001 -0.1073869094 -0.2099727094 8.742304551e-39
-0.3244664073 -0.2265854478 -0.1828551888 8.742304551e-39
-0.3105123341 -0.3150459528 -0.1185547113 8.742304551e-39
-0.3432062566 -0.08904869109 -0.2141446322 8.742304551e-39
-0.34445557 -0.07987955958 -0.2162306011 8.560068489e-39
-0.3469542265 -0.06154131889 -0.2204025239 8.560068489e-39
-0.3225395679 -0.237239182 -0.1693875343 8.560068489e-39
-0.3482035398 -0.05237220973 -0.2224884927 8.560068489e-39
-0.311655879 -0.2996769249 -0.09996321797 8.560068489e-39
-0.3494528532 -0.04320310056 -0.2245744467 8.560068489e-39
-0.2741139531 -0.3050133884 -0.1120346785 8.560068489e-39
-0.2993324995 -0.2988942266 -0.1008884609 8.560068489e-39
-0.3507021964 -0.0340339914 -0.2266604155 8.377473694e-39
-0.320612669 -0.2478929013 -0.1559198797 8.377473694e-39
-0.334566772 -0.1594324112 -0.2202203572 8.377473694e-39
-0.3544501662 -0.006526619196 -0.2329183072 8.377473694e-39
-0.3143231571 -0.3324224949 -0.2581730783 8.377473694e-39
-0.2734044492 -0.3874185979 -0.09372627735 8.377473694e-39
-0.3412793875 -0.0997024104 -0.2006769776 8.377473694e-39
-0.3425287306 -0.09053330123 -0.2027629465 8.377473694e-39
-0.3400300741 -0.1088715196 -0.1985910088 8.194878899e-39
-0.3098347783 -0.3165305555 -0.1071729884 8.194878899e-39
-0.3450273573 -0.07219506055 -0.2069348693 8.194878899e-39
-0.2494671792 -0.3034479916 -0.1138851643 8.194878899e-39
-0.3475260139 -0.05385681987 -0.2111067921 8.194878899e-39
-0.2980831563 -0.3080633581 -0.09880249202 8.194878899e-39
-0.3269650638 -0.2082472146 -0.1870271266 8.194878899e-39
-0.2500389516 -0.2957634628 -0.1045894325 8.194878899e-39
-0.3512739837 -0.02634944767 -0.2173646837 8.012284103e-39
-0.3338892162 -0.1609170139 -0.2088386565 8.012284103e-39
-0.2605412304 -0.3133997917 -0.11087396 8.012284103e-39
-0.3525232971 -0.0171803385 -0.2194506377 8.012284103e-39
-0.3108296394 -0.3336456418 -0.1805870682 8.012284103e-39
-0.3313905597 -0.179255262 -0.2046667337 8.012284103e-39
-0.3418511748 -0.09201790392 -0.1913812459 8.012284103e-39
-0.2371438146 -0.3026652932 -0.1148103997 8.012284103e-39
-0.338103205 -0.1195252538 -0.1851233542 7.829687907e-39
-0.3362821043 -0.1363788843 -0.1923331171 7.829687907e-39
-0.3344609737 -0.1532325 -0.1995429099 7.829687907e-39
-0.296833843 -0.3172324896 -0.09671653807 7.829687907e-39
-0.3037580252 -0.2699022889 -0.1185280457 7.829687907e-39
-0.3480977714 -0.04617231712 -0.2018110603 7.829687907e-39
-0.3294636905 -0.1899089664 -0.1911990494 7.829687907e-39
-0.272187084 -0.3156670928 -0.09856702387 7.829687907e-39
-0.3086912036 -0.3318995535 -0.1257644892 7.647093112e-39
-0.3368538618 -0.1286943704 -0.1830373853 7.647093112e-39
-0.3518457413 -0.01866494492 -0.208068952 7.647093112e-39
-0.2598317266 -0.3958050311 -0.0925655514 7.647093112e-39
-0.2026722729 -0.2819789648 -0.1217580587 7.647093112e-39
-0.3530950844 -0.009495835751 -0.2101549059 7.647093112e-39
-0.341173619 -0.09350252151 -0.1799995154 7.647093112e-39
-0.2592918873 -0.3225689232 -0.1087879911 7.647093112e-39
-0.2358944863 -0.3118343949 -0.1127244383 7.464498317e-39
-0.3094745278 -0.336614877 -0.157823652 7.464498317e-39
-0.3130738139 -0.3415915966 -0.2560871243 7.464498317e-39
-0.3192575872 -0.2508621216 -0.1331564635 7.464498317e-39
-0.3337834477 -0.1547171175 -0.1881612092 7.464498317e-39
-0.3374256492 -0.1210098714 -0.1737416238 7.464498317e-39
-0.3474202156 -0.04765693098 -0.1904293299 7.464498317e-39
-0.266787827 -0.2675542235 -0.1213037744 7.464498317e-39
-0.3079079092 -0.3271842897 -0.09370532632 7.281903522e-39
-0.3287861645 -0.191393584 -0.1798173487 7.281903522e-39
-0.3080136776 -0.333384186 -0.1143827885 7.281903522e-39
-0.2475402951 -0.314101696 -0.1004175097 7.281903522e-39
-0.2832611501 -0.3256189227 -0.09555581212 7.281903522e-39
-0.3030804694 -0.2713868916 -0.1071463525 7.281903522e-39
-0.3325341344 -0.1638862342 -0.1860752404 7.281903522e-39
-0.2014229447 -0.2911480963 -0.1196720973 7.281903522e-39
-0.3087970018 -0.3380994797 -0.1464419514 7.099307325e-39
-0.3102578819 -0.3413301706 -0.1898828298 7.099307325e-39
-0.336176306 -0.130178988 -0.1716556698 7.099307325e-39
-0.2709377408 -0.3248362243 -0.09648105502 7.099307325e-39
-0.3300354779 -0.1822244823 -0.1819033176 7.099307325e-39
-0.223571077 -0.3110517263 -0.1136496887 7.099307325e-39
-0.3236830831 -0.221870169 -0.1507960409 7.099307325e-39
-0.3392467499 -0.1041562408 -0.1665318608 7.099307325e-39
-0.3379974365 -0.1133253425 -0.164445892 6.91671253e-39
-0.3117187321 -0.3445608318 -0.2333236933 6.91671253e-39
-0.3268592954 -0.2020473033 -0.1663496941 6.91671253e-39
-0.3417454064 -0.08581800014 -0.1707037836 6.91671253e-39
-0.3050073385 -0.2607331872 -0.1206140071 6.91671253e-39
-0.2709057927 -0.4057568312 -0.08955433965 6.91671253e-39
-0.3331058919 -0.1562017202 -0.1767795086 6.91671253e-39
-0.2019947171 -0.2834635973 -0.110376358 6.91671253e-39
-0.3349269927 -0.1393481195 -0.169569701 6.734117735e-39
-0.3185800314 -0.2523467541 -0.1217747331 6.734117735e-39
-0.2001736313 -0.3003172278 -0.1175861359 6.734117735e-39
-0.3073361218 -0.3348687887 -0.1030010656 6.734117735e-39
-0.2462909669 -0.3232708275 -0.09833154082 6.734117735e-39
-0.3062566519 -0.2515640259 -0.1226999685 6.734117735e-39
-0.18909958 -0.2903653979 -0.1205973402 6.734117735e-39
-0.2118194848 -0.3025845289 -0.1052791923 6.734117735e-39
-0.2457192093 -0.3309553266 -0.1076272726 6.55152294e-39
-0.3293579221 -0.183709085 -0.1705216169 6.55152294e-39
-0.2803605795 -0.2591677904 -0.1224644929 6.55152294e-39
-0.3517400026 -0.01246505603 -0.1873914897 6.55152294e-39
-0.2421410978 -0.2659888268 -0.1231542528 6.55152294e-39
-0.2032440305 -0.2742944956 -0.1124623269 6.55152294e-39
-0.2223217487 -0.3202208579 -0.1115637198 6.55152294e-39
-0.2228935212 -0.312536329 -0.1022679955 6.55152294e-39
-0.2820118368 -0.3347880244 -0.09346984327 6.368926744e-39
-0.2939332724 -0.2507813573 -0.1236252114 6.368926744e-39
-0.3166531622 -0.2630004585 -0.1083070636 6.368926744e-39
-0.3082252145 -0.3457840085 -0.1557376832 6.368926744e-39
-0.3423171639 -0.07813350111 -0.161408022 6.368926744e-39
-0.2362894714 -0.7084565163 -0.442476809 6.368926744e-39
-0.3448158205 -0.05979526043 -0.1655799448 6.368926744e-39
-0.3360705674 -0.1239790916 -0.1509782076 6.368926744e-39
-0.3274951577 -0.09568905085 -0.1581613272 6.186331949e-39
-0.3262458146 -0.10485816 -0.1560753733 6.186331949e-39
-0.3249965012 -0.1140272692 -0.1539894193 6.186331949e-39
-0.1896713525 -0.2826808989 -0.1113016009 6.186331949e-39
-0.3485637903 -0.03228788823 -0.1718378365 6.186331949e-39
-0.3111469448 -0.3522453606 -0.2426194549 6.186331949e-39
-0.3312431276 -0.06818167865 -0.1644192189 6.186331949e-39
-0.2920064032 -0.2614350915 -0.1101575494 6.186331949e-39
-0.2105701566 -0.3117536306 -0.1031932235 6.003737154e-39
-0.3237471879 -0.1231964007 -0.1519034505 6.003737154e-39
-0.3324924409 -0.05901256949 -0.1665051877 6.003737154e-39
-0.3151717782 -0.09490635991 -0.1590865701 6.003737154e-39
-0.313922435 -0.1040754616 -0.1570006162 6.003737154e-39
-0.2356119156 -0.7099411488 -0.4310951233 6.003737154e-39
-0.3510624468 -0.0139496699 -0.1760097593 6.003737154e-39
-0.2692864835 -0.2492159605 -0.1254757047 6.003737154e-39
-0.3337417543 -0.04984346032 -0.1685911417 5.820783626e-39
-0.3055790961 -0.2530486584 -0.1113182753 5.820783626e-39
-0.3299297094 -0.1760245711 -0.1612258554 5.820783626e-39
-0.2298176885 -0.2652061284 -0.1240795031 5.820783626e-39
-0.3087553084 -0.2332258224 -0.1268718988 5.820783626e-39
-0.2327182889 -0.3316572607 -0.09717081487 5.820783626e-39
-0.3348212242 -0.1331481934 -0.1488922387 5.820783626e-39
-0.241463542 -0.2674733996 -0.1117725521 5.820783626e-39
-0.2696564794 -0.4149259329 -0.0874683857 5.63818743e-39
-0.2828592062 -0.2408295423 -0.1266364157 5.63818743e-39
-0.3189197481 -0.06739898026 -0.1653444618 5.63818743e-39
-0.3374897242 -0.02233608812 -0.1748490334 5.63818743e-39
-0.3003497422 -0.1124618873 -0.1558398902 5.63818743e-39
-0.1884220243 -0.2918500006 -0.109215647 5.63818743e-39
-0.2232885361 -0.7091584802 -0.4320203364 5.63818743e-39
-0.3224978447 -0.1323655099 -0.1498174816 5.63818743e-39
-0.3223280013 -0.2248393893 -0.1280326247 5.455592635e-39
-0.25733307 -0.4141432345 -0.0883936286 5.455592635e-39
-0.2673596144 -0.2598696947 -0.1120080352 5.455592635e-39
-0.3317508101 -0.1591709405 -0.1540160775 5.455592635e-39
-0.243390426 -0.256819725 -0.1252402216 5.455592635e-39
-0.3060868084 -0.3440379202 -0.1009151042 5.455592635e-39
-0.3268176019 -0.09717366099 -0.1467796415 5.455592635e-39
-0.345387578 -0.0521107614 -0.1562842131 5.455592635e-39
-0.3068284392 -0.2438795269 -0.1134042293 5.272997839e-39
-0.1982467473 -0.3109709322 -0.1041184813 5.272997839e-39
-0.3280669153 -0.08800452948 -0.1488655955 5.272997839e-39
-0.309791863 -0.355214566 -0.2198560238 5.272997839e-39
-0.3293162286 -0.07883542031 -0.1509515643 5.272997839e-39
-0.3478862345 -0.03377249837 -0.1604561359 5.272997839e-39
-0.3101744652 -0.1315828264 -0.1507427245 5.272997839e-39
-0.2203948796 -0.3308745623 -0.09809605777 5.272997839e-39
-0.2892756462 -0.1025100797 -0.158851102 5.090401643e-39
-0.3264156878 -0.01238428429 -0.1778602451 5.090401643e-39
-0.3061925769 -0.3502378166 -0.1215925589 5.090401643e-39
-0.2917743027 -0.08417183906 -0.1630230248 5.090401643e-39
-0.3230696321 -0.1246810108 -0.1405217499 5.090401643e-39
-0.2841085494 -0.2316604406 -0.1287223846 5.090401643e-39
-0.3144942224 -0.0963909626 -0.1477048844 5.090401643e-39
-0.1644528061 -0.2888000011 -0.122447826 5.090401643e-39
-0.3157435358 -0.08722183108 -0.1497908384 4.907806848e-39
-0.2930236161 -0.07500272989 -0.1651089936 4.907806848e-39
-0.199319303 -0.7061084509 -0.4452525377 4.907806848e-39
-0.2582124472 -0.2392641604 -0.1284869015 4.907806848e-39
-0.2978510857 -0.130800128 -0.1516679674 4.907806848e-39
-0.3343135417 -0.0421589613 -0.1592954099 4.907806848e-39
-0.3169928491 -0.07805272192 -0.1518768072 4.907806848e-39
-0.3212485313 -0.1415346414 -0.1477315277 4.907806848e-39
-0.2942729592 -0.06583359838 -0.1671949476 4.725212053e-39
-0.1533787549 -0.2788482308 -0.1254590303 4.725212053e-39
-0.3267535269 -0.195847407 -0.1456722319 4.725212053e-39
-0.3182421923 -0.0688835904 -0.1539627761 4.725212053e-39
-0.2291401327 -0.266690731 -0.1126978099 4.725212053e-39
-0.1853516102 -0.3178727627 -0.1143394485 4.725212053e-39
-0.3280028403 -0.1866783202 -0.1477581859 4.725212053e-39
-0.3009214997 -0.1047773883 -0.1465441585 4.725212053e-39
-0.3368121684 -0.02382069826 -0.1634673476 4.542257124e-39
-0.2769522965 -0.1017273888 -0.1597763449 4.542257124e-39
-0.3194915056 -0.05971448496 -0.15604873 4.542257124e-39
-0.2967715859 -0.04749538004 -0.1713668704 4.542257124e-39
-0.2821816802 -0.242314145 -0.1152547151 4.542257124e-39
-0.2321465164 -0.3393417597 -0.1064665541 4.542257124e-39
-0.27178514 -0.2308777422 -0.1296476275 4.542257124e-39
-0.3054092526 -0.3455225229 -0.08953340352 4.542257124e-39
-0.320740819 -0.05054537207 -0.1581346989 4.359662329e-39
-0.2855276763 -0.1300174296 -0.1525932103 4.359662329e-39
-0.1760986447 -0.2910673022 -0.1101408899 4.359662329e-39
-0.208071515 -0.3300918639 -0.09902130067 4.359662329e-39
-0.3046694696 -0.07727003098 -0.1528020501 4.359662329e-39
-0.3080457747 -0.315631032 -0.1085634977 4.359662329e-39
-0.1869959384 -0.7053257823 -0.4461777806 4.359662329e-39
-0.1859233826 -0.3101882339 -0.1050437093 4.359662329e-39
-0.298422873 -0.1231156215 -0.1423722357 4.177066133e-39
-0.2310670167 -0.2560369968 -0.1261654645 4.177066133e-39
-0.2819495797 -0.06505090743 -0.1681201905 4.177066133e-39
-0.2437923253 -0.3416090608 -0.09415961802 4.177066133e-39
-0.3310732543 -0.1606555581 -0.142634362 4.177066133e-39
-0.2633796036 -0.110113807 -0.1586156189 4.177066133e-39
-0.3112539649 -0.2148875743 -0.1310438216 4.177066133e-39
-0.3071681261 -0.05893179402 -0.1569739729 4.177066133e-39
-0.2898474336 -0.09482558072 -0.1495553702 3.994471337e-39
-0.2698582411 -0.2415314615 -0.116179958 3.994471337e-39
-0.301768899 -0.01081889868 -0.1797107309 3.994471337e-39
-0.2853578627 -0.222491309 -0.1308083534 3.994471337e-39
-0.2671275735 -0.08260645717 -0.1648735106 3.994471337e-39
-0.325738132 -0.01386889443 -0.1664785445 3.994471337e-39
-0.2683768868 -0.07343734801 -0.1669594646 3.994471337e-39
-0.2856975496 -0.03754357994 -0.1743780822 3.994471337e-39
-0.2732043266 -0.1292347312 -0.1535184532 3.81151781e-39
-0.2869468927 -0.02837442607 -0.176464051 3.81151781e-39
-0.3098976314 -0.3614144623 -0.240533486 3.81151781e-39
-0.1748493314 -0.3002364337 -0.108054921 3.81151781e-39
-0.3076758385 -0.1499210596 -0.1465708017 3.81151781e-39
-0.2762747407 -0.1032119989 -0.1483946443 3.81151781e-39
-0.284278363 -0.1391865611 -0.1505072564 3.81151781e-39
-0.2881962061 -0.0192053169 -0.178550005 3.81151781e-39
-0.1746725291 -0.7045431137 -0.4471030235 3.628921614e-39
-0.2329017222 -0.7158796191 -0.3855682611 3.628921614e-39
-0.329823941 -0.1698246747 -0.1405483931 3.628921614e-39
-0.2834309936 -0.2331450433 -0.1173406839 3.628921614e-39
-0.2989305854 -0.2141048908 -0.1319690645 3.628921614e-39
-0.253554821 -0.09099289775 -0.1637127846 3.628921614e-39
-0.2721248567 -0.04592999816 -0.1732173562 3.628921614e-39
-0.3205709755 -0.143019259 -0.1363498271 3.628921614e-39
-0.3056207895 -0.3579223156 -0.130888328 3.446326818e-39
-0.2730344534 -0.2217086107 -0.1317335814 3.446326818e-39
-0.2548041642 -0.08182376623 -0.1657987535 3.446326818e-39
-0.3125032783 -0.2057184577 -0.1331297904 3.446326818e-39
-0.2733741701 -0.03676088899 -0.1753033251 3.446326818e-39
-0.2833990157 -0.314065665 -0.1104139835 3.446326818e-39
-0.2800227106 -0.07570464909 -0.1546525359 3.446326818e-39
-0.2560534775 -0.07265464962 -0.1678847224 3.446326818e-39
-0.2801907063 -0.351641655 -0.1006796211 3.26337189e-39
-0.3070816696 -0.3611530066 -0.1743291765 3.26337189e-39
-0.2608809471 -0.1284520477 -0.1544436961 3.26337189e-39
-0.3092201054 -0.362899065 -0.2291517705 3.26337189e-39
-0.1508800983 -0.2971864641 -0.1212871 3.26337189e-39
-0.3228997886 -0.2171548754 -0.118736878 3.26337189e-39
-0.2498068511 -0.1185002401 -0.1574549079 3.26337189e-39
-0.269826293 -0.3224520683 -0.1092532575 3.26337189e-39
-0.2812720239 -0.06653551757 -0.1567385048 3.080777095e-39
-0.2925141156 -0.3524243534 -0.0997543782 3.080777095e-39
-0.2848501503 -0.1315020323 -0.1412115246 3.080777095e-39
-0.2627020478 -0.1115984172 -0.1472339183 3.080777095e-39
-0.2758728266 -0.01842262596 -0.1794752479 3.080777095e-39
-0.2471383959 -0.2293123603 -0.1314981133 3.080777095e-39
-0.3048374951 -0.3532070518 -0.0988291353 3.080777095e-39
-0.2719549835 -0.1384038627 -0.1514324844 3.080777095e-39
-0.2205783427 -0.7150969505 -0.386493504 2.898180898e-39
-0.2771221399 -0.009253516793 -0.1815612167 2.898180898e-39
-0.2866071761 -0.2133221924 -0.1328943074 2.898180898e-39
-0.3196916282 -0.3178983331 -0.09625655413 2.898180898e-39
-0.2598014474 -0.04514730349 -0.1741425991 2.898180898e-39
-0.3010913432 -0.01230350882 -0.1683290303 2.898180898e-39
-0.2837706804 -0.04819729924 -0.1609104127 2.898180898e-39
-0.1736000031 -0.3094055355 -0.1059689522 2.898180898e-39
-0.2452115119 -0.2399660647 -0.1180304438 2.715227371e-39
-0.2830290496 -0.1483556628 -0.1484212875 2.715227371e-39
-0.2607110739 -0.2209259272 -0.1326588243 2.715227371e-39
-0.2610507607 -0.03597819433 -0.176228568 2.715227371e-39
-0.2614527047 -0.1207675487 -0.1451479644 2.715227371e-39
-0.1527011991 -0.2803328037 -0.1140773296 2.715227371e-39
-0.2850199938 -0.03902819008 -0.1629963815 2.715227371e-39
-0.2424807847 -0.08104106784 -0.1667239964 2.715227371e-39
-0.3303956985 -0.1621401608 -0.1312526613 2.532632576e-39
-0.3049432337 -0.3594069183 -0.1195065975 2.532632576e-39
-0.2959242165 -0.1414538622 -0.138200298 2.532632576e-39
-0.3085425496 -0.3643836677 -0.2177700698 2.532632576e-39
-0.2689486444 -0.06575282663 -0.1576637328 2.532632576e-39
-0.2941031158 -0.1583074778 -0.1454100907 2.532632576e-39
-0.305177182 -0.1682592928 -0.1423988789 2.532632576e-39
-0.2846803069 -0.2239759117 -0.1194266453 2.532632576e-39
-0.2516279519 -0.1016466171 -0.1502451301 2.349677647e-39
-0.2449794263 -0.06270282716 -0.1708959192 2.349677647e-39
-0.1849633008 -0.7097796202 -0.4120326638 2.349677647e-39
-0.2723249197 -0.3041138649 -0.1134251803 2.349677647e-39
-0.2082549334 -0.7143142223 -0.3874187469 2.349677647e-39
-0.2671897709 -0.3523435593 -0.09022316337 2.349677647e-39
-0.2714473009 -0.0474146083 -0.1618356556 2.349677647e-39
-0.2462287545 -0.05353372172 -0.1729818881 2.349677647e-39
-0.2541266084 -0.08330836892 -0.1544170529 2.167082852e-39
-0.2795131803 -0.3531262577 -0.08929792047 2.167082852e-39
-0.1951763332 -0.3369936943 -0.1092422828 2.167082852e-39
-0.3069982827 -0.1514056623 -0.1351891011 2.167082852e-39
-0.2553759217 -0.07413925976 -0.1565030217 2.167082852e-39
-0.2276587337 -0.09859661758 -0.1634773165 2.167082852e-39
-0.2918365598 -0.3539089561 -0.08837267756 2.167082852e-39
-0.2068221867 -0.3392609656 -0.09693534672 2.167082852e-39
-0.3078649938 -0.3658682704 -0.2063883394 1.984127923e-39
-0.2199929804 -0.2460851967 -0.1291766763 1.984127923e-39
-0.2289080471 -0.08942750841 -0.1655632704 1.984127923e-39
-0.2739459574 -0.02907634154 -0.1660075933 1.984127923e-39
-0.2878565192 -0.2041530609 -0.1349802762 1.984127923e-39
-0.2566252351 -0.06497012824 -0.1585889906 1.984127923e-39
-0.1377023906 -0.7021950483 -0.4498787522 1.984127923e-39
-0.2764446139 -0.01073812693 -0.1701795161 1.984127923e-39
-0.2578745782 -0.05580101907 -0.1606749445 1.801533128e-39
-0.3014292121 -0.1957666427 -0.1361409873 1.801533128e-39
-0.2473082095 -0.1368384808 -0.1532829702 1.801533128e-39
-0.3026785254 -0.186597541 -0.1382269561 1.801533128e-39
-0.2314067036 -0.07108926773 -0.1697352082 1.801533128e-39
-0.2512260675 -0.01685724035 -0.1813257337 1.801533128e-39
-0.2393045872 -0.1008639187 -0.151170373 1.801533128e-39
-0.2946749032 -0.1506229639 -0.136114344 1.801533128e-39
-0.2405539006 -0.0916948095 -0.1532563269 1.618578199e-39
-0.242542997 -0.3507781923 -0.09207364917 1.618578199e-39
-0.2326560169 -0.06192013621 -0.1718211621 1.618578199e-39
-0.2616225481 -0.0282936506 -0.1669328362 1.618578199e-39
-0.219223246 -0.7180660963 -0.363730073 1.618578199e-39
-0.2212422937 -0.2369160801 -0.1312626302 1.618578199e-39
-0.3253984153 -0.1988166273 -0.1229088083 1.618578199e-39
-0.1539505273 -0.271163702 -0.116163291 1.618578199e-39
-0.125379011 -0.7014123201 -0.4508039951 1.435982003e-39
-0.2443018705 -0.0641874373 -0.1595142186 1.435982003e-39
-0.2805303931 -0.166693911 -0.1442493647 1.435982003e-39
-0.305049032 -0.3656068444 -0.1401840597 1.435982003e-39
-0.2916044891 -0.1766457111 -0.141238153 1.435982003e-39
-0.1944987774 -0.338478297 -0.09786058962 1.435982003e-39
-0.2165846825 -0.08864481747 -0.1664885134 1.435982003e-39
-0.2153353691 -0.09781392664 -0.1644025594 1.435982003e-39
-0.1928475499 -0.2628580332 -0.1268552244 1.253028475e-39
-0.258954078 -0.1391057968 -0.1409760267 1.253028475e-39
-0.2455511987 -0.05501832813 -0.1616001874 1.253028475e-39
-0.309325844 -0.3690989614 -0.2498292178 1.253028475e-39
-0.2140860409 -0.1069830358 -0.1623165905 1.253028475e-39
-0.2376533151 -0.02524365485 -0.1801650226 1.253028475e-39
-0.2891058326 -0.1949839592 -0.1370662302 1.253028475e-39
-0.1486706585 -0.7059469223 -0.4261900783 1.253028475e-39
-0.246800527 -0.04584921896 -0.1636861414 1.070432279e-39
-0.2903551459 -0.1858148426 -0.139152199 1.070432279e-39
-0.2389026433 -0.01607454568 -0.1822509766 1.070432279e-39
-0.1299813092 -0.2681137323 -0.1293954849 1.070432279e-39
-0.306509912 -0.3688375056 -0.1836249381 1.070432279e-39
-0.1360580623 -0.3147419989 -0.1180404201 1.070432279e-39
-0.1603165269 -0.7082142234 -0.4138831496 1.070432279e-39
-0.1836082041 -0.7127488852 -0.3892692327 1.070432279e-39
-0.2480498403 -0.0366801098 -0.1657721102 8.874787512e-40
-0.2460588962 -0.1460075974 -0.1511970162 8.874787512e-40
-0.2425149083 -0.7226007581 -0.3391161561 8.874787512e-40
-0.2180660963 -0.2567389309 -0.1157090068 8.874787512e-40
-0.3066906929 -0.3186002672 -0.08580006659 8.874787512e-40
-0.2355566174 -0.1283712685 -0.1449124813 8.874787512e-40
-0.2682070136 -0.1659112126 -0.1451746076 8.874787512e-40
-0.2307291478 -0.07257387787 -0.1583535075 8.874787512e-40
-0.2792810798 -0.1758630276 -0.1421633959 7.045238224e-40
-0.2632097304 -0.202587679 -0.136830762 7.045238224e-40
-0.2789413929 -0.3608107567 -0.0985936597 7.045238224e-40
-0.2477101535 -0.2216278315 -0.1222023666 7.045238224e-40
-0.2319784611 -0.06340474635 -0.1604394764 7.045238224e-40
-0.222491622 -0.2277469784 -0.1333485842 7.045238224e-40
-0.1391284913 -0.2887192369 -0.1129166186 7.045238224e-40
-0.2466306537 -0.1383230984 -0.1419012696 7.045238224e-40
-0.2912647724 -0.3615934551 -0.0976684168 5.219290273e-40
-0.3035881519 -0.3623761535 -0.0967431739 5.219290273e-40
-0.2332277894 -0.05423563719 -0.1625254303 5.219290273e-40
-0.2871789634 -0.2056376636 -0.1235985756 5.219290273e-40
-0.1587779671 -0.3269611001 -0.1027222723 5.219290273e-40
-0.2921762466 -0.1689612269 -0.1319424212 5.219290273e-40
-0.2577047646 -0.1482748985 -0.1388900727 5.219290273e-40
-0.2178962231 -0.3492127955 -0.09392413497 5.219290273e-40
-0.1829306483 -0.714233458 -0.3778875172 3.389740985e-40
-0.1596389711 -0.7096987963 -0.4025014043 3.389740985e-40
-0.1123780757 -0.7021142244 -0.4403475225 3.389740985e-40
-0.235726431 -0.03589741886 -0.1666973531 3.389740985e-40
-0.2394744009 -0.008390046656 -0.1729552448 3.389740985e-40
-0.1477039158 -0.3170093 -0.105733484 3.389740985e-40
-0.2448095679 -0.1551766992 -0.1491110623 3.389740985e-40
-0.1416271329 -0.2703810334 -0.1170885339 3.389740985e-40
-0.2612828612 -0.2132414132 -0.1233630925 1.56020571e-40
-0.2062222809 -0.7187680006 -0.3532736301 1.56020571e-40
-0.2232332081 -0.1275885701 -0.1458377242 1.56020571e-40
-0.2055106312 -0.07869299501 -0.1694997251 1.56020571e-40
-0.137879163 -0.2978883684 -0.1108306497 1.56020571e-40
-0.2184057832 -0.07179118693 -0.1592787504 1.56020571e-40
-0.2798528373 -0.1681785285 -0.1328676641 1.56020571e-40
-0.1805241704 -0.2620753646 -0.1277804673 1.56020571e-40
-0.2919103503 -0.441029489 -0.1021234393 6.490113838e-41
-0.2644590437 -0.1934185624 -0.138916716 6.490113838e-41
-0.2121591568 -0.1176367775 -0.148848936 6.490113838e-41
-0.2089188844 -0.2361333966 -0.1321878731 6.490113838e-41
-0.2237409353 -0.2185778469 -0.135434553 6.490113838e-41
-0.2296478748 -0.3576799929 -0.1022946313 6.490113838e-41
-0.2373136282 -0.2101914287 -0.136595279 6.490113838e-41
-0.2055728585 -0.3484300971 -0.09484937787 6.490113838e-41
-0.2871469855 -0.2865583301 -0.1166718751 2.496469266e-40
-0.2564554214 -0.1574440002 -0.1368041188 2.496469266e-40
-0.2548344135 -0.4324814975 -0.08422170579 2.496469266e-40
-0.1822531074 -0.7157180309 -0.3665058017 2.496469266e-40
-0.2884282768 -0.1964685619 -0.1256845295 2.496469266e-40
-0.2353867441 -0.2208451331 -0.1231276169 2.496469266e-40
-0.2905872166 -0.3630780578 -0.08628672361 2.496469266e-40
-0.1464545876 -0.3261784017 -0.1036475152 2.496469266e-40
-0.222153753 -0.04428383708 -0.1655366272 4.340353837e-40
-0.3095767498 -0.1675950289 -0.4267250299 4.340353837e-40
-0.2324862033 -0.1543940157 -0.1500362903 4.340353837e-40
-0.1268051118 -0.2879365385 -0.1138418466 4.340353837e-40
-0.1938989162 -0.7179853916 -0.354198873 4.340353837e-40
-0.2259017229 -0.01677646488 -0.1717945188 4.340353837e-40
-0.2246523947 -0.02594557405 -0.1697085649 4.340353837e-40
-0.2435602397 -0.1643458307 -0.1470250934 4.340353837e-40
-0.2155052125 -0.005340054631 -0.1861874163 6.184224396e-40
-0.2412936836 -0.359947294 -0.08998769522 6.184224396e-40
-0.1940968782 -0.2536889315 -0.1289411932 6.184224396e-40
-0.3044772446 -0.3732913435 -0.1494797915 6.184224396e-40
-0.2219838798 -0.1367577016 -0.1437517554 6.184224396e-40
-0.3212226033 -0.16986233 -0.4144180715 6.184224396e-40
-0.2330579758 -0.1467095017 -0.1407405585 6.184224396e-40
-0.3059380949 -0.3765220344 -0.1929206848 6.184224396e-40
-0.1699296981 -0.7149353623 -0.3674310446 8.028094954e-40
-0.0640649274 -0.3175922334 -0.2447149754 8.028094954e-40
-0.274823606 -0.2857756019 -0.117597118 8.028094954e-40
-0.2672635913 -0.4394640923 -0.1039739102 8.028094954e-40
-0.2010851055 -0.107684955 -0.1518601328 8.028094954e-40
-0.1992640197 -0.1245385855 -0.1590699106 8.028094954e-40
-0.2972533703 -0.1668123305 -0.4276502728 8.028094954e-40
-0.2773542106 -0.1865167618 -0.1286957413 8.028094954e-40
-0.1906885952 -0.0962485373 -0.1662530452 9.871979525e-40
-0.2432943732 -0.4364141226 -0.1172060966 9.871979525e-40
-0.1894392669 -0.1054176539 -0.1641670763 9.871979525e-40
-0.2060824037 -0.07100849599 -0.1602039784 9.871979525e-40
-0.1953462064 -0.2445198148 -0.1310271621 9.871979525e-40
-0.1343146563 -0.7096180916 -0.3929702044 9.871979525e-40
-0.228970319 -0.3591645956 -0.09091293812 9.871979525e-40
-0.1114113256 -0.3131766021 -0.1198908985 9.871979525e-40
-0.2450737953 -0.314686805 -0.09042628109 1.171585008e-39
-0.207331717 -0.06183936447 -0.1622899473 1.171585008e-39
-0.1956858784 -0.05957205966 -0.1745968908 1.171585008e-39
-0.1459604651 -0.7118853927 -0.3806632459 1.171585008e-39
-0.1998357773 -0.1168540865 -0.1497741789 1.171585008e-39
-0.1576063335 -0.7141526937 -0.3683562875 1.171585008e-39
-0.3007196784 -0.2781718671 -0.1178325862 1.171585008e-39
-0.2912328243 -0.4425140917 -0.09074173868 1.171585008e-39
-0.2085810453 -0.0526702553 -0.1643759161 1.355972064e-39
-0.1969352067 -0.0504029505 -0.1766828597 1.355972064e-39
-0.2069920152 -0.246787101 -0.1187202185 1.355972064e-39
-0.254940182 -0.4386813939 -0.104899168 1.355972064e-39
-0.2098303735 -0.04350114614 -0.1664618701 1.355972064e-39
-0.2123290151 -0.0251628831 -0.1706338078 1.355972064e-39
-0.04981465638 -0.3274632692 -0.2321725488 1.355972064e-39
-0.2148276567 -0.006824664772 -0.1748057306 1.355972064e-39
-0.1981845349 -0.04123384133 -0.1787688136 1.540360521e-39
-0.1335594207 -0.3330802321 -0.1138684973 1.540360521e-39
-0.2096605152 -0.1359750181 -0.1446769983 1.540360521e-39
-0.3080765307 -0.3782680631 -0.2477432638 1.540360521e-39
-0.2637814879 -0.1949031651 -0.1275350153 1.540360521e-39
-0.1243064702 -0.3062747717 -0.1096699238 1.540360521e-39
-0.3205450475 -0.1713469326 -0.403036356 1.540360521e-39
-0.2428826839 -0.1658304334 -0.1356433928 1.540360521e-39
-0.2900154591 -0.3707625866 -0.0955824554 1.724747577e-39
-0.1809260845 -0.3468647301 -0.09669986367 1.724747577e-39
-0.2530452907 -0.3684145212 -0.0983581841 1.724747577e-39
-0.2690429688 -0.3177368045 -0.07719409466 1.724747577e-39
-0.2539567947 -0.1757822335 -0.132632181 1.724747577e-39
-0.1985864639 -0.1260232031 -0.14768821 1.724747577e-39
-0.1230571494 -0.3154439032 -0.1075839549 1.724747577e-39
-0.1003372446 -0.303224802 -0.1229021102 1.724747577e-39
-0.1798466146 -0.2635599375 -0.1163987666 1.909134633e-39
-0.192509681 -0.07939490676 -0.1590432674 1.909134633e-39
-0.1569287777 -0.7156372666 -0.3569746017 1.909134633e-39
-0.05174152553 -0.3168095648 -0.2456402183 1.909134633e-39
-0.1808980107 -0.7186872959 -0.3437423706 1.909134633e-39
-0.3067214489 -0.3812372983 -0.2249798328 1.909134633e-39
-0.1937590092 -0.07022579759 -0.1611292213 1.909134633e-39
-0.1132324189 -0.2963229716 -0.1126811355 1.909134633e-39
-0.2842524648 -0.1675142497 -0.4171938002 2.09352309e-39
-0.2084112018 -0.1451441348 -0.1425910443 2.09352309e-39
-0.302444607 -0.3777451515 -0.1153346747 2.09352309e-39
-0.2126668543 -0.2086260468 -0.1384457648 2.09352309e-39
-0.3019690216 -0.2690027654 -0.119918555 2.09352309e-39
-0.09908792377 -0.3123939335 -0.1208161414 2.09352309e-39
-0.2416333705 -0.1749995649 -0.1335574239 2.09352309e-39
-0.1962576509 -0.05188755691 -0.165301159 2.09352309e-39
-0.1218078211 -0.3246130049 -0.105498001 2.277910146e-39
-0.197844848 -0.2261815816 -0.13519907 2.277910146e-39
-0.2043235451 -0.3575992286 -0.09276342392 2.277910146e-39
-0.3198674917 -0.1728315502 -0.3916546404 2.277910146e-39
-0.2000056207 -0.02438018844 -0.1715590507 2.277910146e-39
-0.3039054573 -0.3809758425 -0.1587755531 2.277910146e-39
-0.1975069791 -0.04271844774 -0.167387113 2.277910146e-39
-0.1856912971 -0.1329250187 -0.1579091847 2.277910146e-39
-0.1558773965 -0.2605099678 -0.1296309531 2.462297202e-39
-0.2770145237 -0.3714644909 -0.08512599766 2.462297202e-39
-0.1846118271 -0.04962025955 -0.1776081026 2.462297202e-39
-0.2287382334 -0.1819013804 -0.1437783986 2.462297202e-39
-0.1896091253 -0.01294377819 -0.1859519482 2.462297202e-39
-0.1858611554 -0.04045115039 -0.1796940565 2.462297202e-39
-0.1021583453 -0.2863711715 -0.1156923398 2.462297202e-39
-0.1955160499 -0.1520459354 -0.152812019 2.462297202e-39
-0.3016612828 -0.3730298877 -0.08327551186 2.646685659e-39
-0.1089903265 -0.7095372677 -0.3834389746 2.646685659e-39
-0.09734450281 -0.7072700262 -0.3957459331 2.646685659e-39
-0.08926319331 -0.2932730019 -0.125913322 2.646685659e-39
-0.08569864929 -0.7050026655 -0.4080528617 2.646685659e-39
-0.03749128431 -0.3266805708 -0.2330977917 2.646685659e-39
-0.2094906569 -0.2284488827 -0.1228921413 2.646685659e-39
-0.289645642 -0.268220067 -0.1208437979 2.646685659e-39
-0.1107337773 -0.3146612048 -0.1085091978 2.830713982e-39
-0.3053663373 -0.3842065036 -0.2022164166 2.830713982e-39
-0.2400443554 -0.3691164255 -0.08790172637 2.830713982e-39
-0.1862630695 -0.1252405047 -0.1486134529 2.830713982e-39
-0.180354327 -0.3545492291 -0.1059955955 2.830713982e-39
-0.1946686506 -0.2460044175 -0.119645454 2.830713982e-39
-0.3075441122 -0.1720488667 -0.3925798833 2.830713982e-39
-0.1328818649 -0.3345648348 -0.1024868041 2.830713982e-39
-0.1920001358 -0.3568165302 -0.09368866682 3.015101038e-39
-0.2356364578 -0.1628988683 -0.4322764874 3.015101038e-39
-0.1789369732 -0.08778134733 -0.1578825414 3.015101038e-39
-0.1842721403 -0.2345679998 -0.1340383589 3.015101038e-39
-0.1960878223 -0.1443614364 -0.1435162872 3.015101038e-39
-0.1801863015 -0.07861221582 -0.1599685103 3.015101038e-39
-0.1322820038 -0.7140718699 -0.3588250875 3.015101038e-39
-0.164792493 -0.1038522646 -0.1660175622 3.015101038e-39
-0.1814356297 -0.06944310665 -0.1620544642 3.199488094e-39
-0.2296159118 -0.4386006296 -0.09536793828 3.199488094e-39
-0.09666694701 -0.7087545991 -0.3843642175 3.199488094e-39
-0.08502110839 -0.706487298 -0.396671176 3.199488094e-39
-0.225562036 -0.2017242014 -0.1282247901 3.199488094e-39
-0.1672911346 -0.08551404625 -0.170189485 3.199488094e-39
-0.1901808828 -0.005259279162 -0.1766562164 3.199488094e-39
-0.2107399702 -0.2192797512 -0.1249781027 3.199488094e-39
-0.2472823262 -0.1651661694 -0.4199695289 3.383517819e-39
-0.2804984152 -0.2476145178 -0.1373226792 3.383517819e-39
-0.1864329129 -0.03276664764 -0.1703983247 3.383517819e-39
-0.1851835996 -0.0419357568 -0.1683123559 3.383517819e-39
-0.1839342713 -0.05110486597 -0.1662264019 3.383517819e-39
-0.2908949554 -0.2590509653 -0.1229297519 3.383517819e-39
-0.1685404629 -0.07634491473 -0.1722754538 3.383517819e-39
-0.2233130932 -0.1621161699 -0.4332017303 3.383517819e-39
-0.1785350442 -0.002991974354 -0.1889631599 3.567904875e-39
-0.2412617356 -0.4408679307 -0.08306097984 3.567904875e-39
-0.1733679175 -0.1321423352 -0.1588344276 3.567904875e-39
-0.1439278275 -0.7163392305 -0.3465180993 3.567904875e-39
-0.08676454425 -0.3116112351 -0.1217413843 3.567904875e-39
-0.1323100924 -0.3422493637 -0.1117825285 3.567904875e-39
-0.1747870743 -0.03049934655 -0.1827052534 3.567904875e-39
-0.3040112555 -0.3871757388 -0.1794530153 3.567904875e-39
-0.2059125453 -0.163482368 -0.1384191215 3.75229193e-39
-0.2003434896 -0.2078433484 -0.1393710077 3.75229193e-39
-0.2589281201 -0.1674334705 -0.4076625705 3.75229193e-39
-0.08983497322 -0.2855884433 -0.1166175753 3.75229193e-39
-0.09841037542 -0.3138785362 -0.1094344407 3.75229193e-39
-0.2641193569 -0.3783663213 -0.09534697235 3.75229193e-39
-0.1205585003 -0.3337821364 -0.103412047 3.75229193e-39
-0.2785715461 -0.2582682669 -0.1238549948 3.75229193e-39
-0.2764427364 -0.3791490197 -0.0944217369 3.936320254e-39
-0.2517959476 -0.3775836229 -0.0962722227 3.936320254e-39
-0.2268113494 -0.1925550997 -0.130310744 3.936320254e-39
-0.09598940611 -0.710239172 -0.372982502 3.936320254e-39
-0.05106397718 -0.3182941675 -0.2342585027 3.936320254e-39
-0.2119892985 -0.2101106495 -0.1270640641 3.936320254e-39
-0.3068272173 -0.3874371946 -0.245657295 3.936320254e-39
-0.1837644279 -0.143578738 -0.1444415301 3.936320254e-39
-0.3010895252 -0.3807143867 -0.09257125109 4.120708711e-39
-0.2109896839 -0.1613334715 -0.4341269732 4.120708711e-39
-0.2226355374 -0.1636007875 -0.4218200147 4.120708711e-39
-0.1641149372 -0.1053368747 -0.1546358615 4.120708711e-39
-0.1555736959 -0.718606472 -0.3342111707 4.120708711e-39
-0.1653642654 -0.09616776556 -0.1567218304 4.120708711e-39
-0.3033336997 -0.3886603415 -0.1680712849 4.120708711e-39
-0.2015928179 -0.1986742169 -0.1414569616 4.120708711e-39
-0.07693979144 -0.2924903035 -0.1268385649 4.304737034e-39
-0.3061496615 -0.3889218271 -0.2342755944 4.304737034e-39
-0.1199867278 -0.3414666653 -0.1127077714 4.304737034e-39
-0.2030742168 -0.3667683601 -0.09067745507 4.304737034e-39
-0.1726903617 -0.1336269379 -0.147452727 4.304737034e-39
-0.1867707819 -0.2162297666 -0.1382102817 4.304737034e-39
-0.1703615487 -0.05949128419 -0.165065676 4.304737034e-39
-0.1432502866 -0.717823863 -0.3351364136 4.304737034e-39
-0.2132386267 -0.2009415179 -0.129150033 4.48912409e-39
-0.1935891658 -0.1626996696 -0.1393443495 4.48912409e-39
-0.2028421313 -0.1895051003 -0.1435429305 4.48912409e-39
-0.2342813611 -0.1658680886 -0.4095130563 4.48912409e-39
-0.1610445231 -0.1313596368 -0.1597596705 4.48912409e-39
-0.2582505643 -0.1689180881 -0.3962808549 4.48912409e-39
-0.1649623513 -0.01137839258 -0.187802434 4.48912409e-39
-0.3061890304 -0.1750180721 -0.3698164821 4.48912409e-39
-0.2103121281 -0.162818104 -0.4227452576 4.673152414e-39
-0.1512198001 -0.1122387052 -0.1648568362 4.673152414e-39
-0.0270947516 -0.315244168 -0.2474907041 4.673152414e-39
-0.1312306225 -0.258944571 -0.1314814389 4.673152414e-39
-0.2282608151 -0.4415698647 -0.07260452211 4.673152414e-39
-0.1587157398 -0.05722398311 -0.1773726195 4.673152414e-39
-0.3047945797 -0.3918910325 -0.2115121782 4.673152414e-39
-0.2459272146 -0.1681354046 -0.3972060978 4.673152414e-39
-0.1806940138 -0.1696014851 -0.1495653391 4.857539469e-39
-0.1984166056 -0.2184970677 -0.1259033382 4.857539469e-39
-0.2698963881 -0.1711853892 -0.3839739263 4.857539469e-39
-0.2511183918 -0.3790682256 -0.08489052951 4.857539469e-39
-0.1791049987 -0.3637183607 -0.1039096341 4.857539469e-39
-0.1433841735 -0.3522011638 -0.1087713242 4.857539469e-39
-0.2892001569 -0.4469679296 -0.05659658834 4.857539469e-39
-0.07444114238 -0.3108285367 -0.1226666272 4.857539469e-39
-0.1714410484 -0.1427960396 -0.145366773 5.041567793e-39
-0.2034139037 -0.1818206012 -0.1342471987 5.041567793e-39
-0.2768768072 -0.4461852312 -0.05752183124 5.041567793e-39
-0.1583760381 -0.2421717346 -0.1338028759 5.041567793e-39
-0.07751157135 -0.2848057747 -0.1175428256 5.041567793e-39
-0.3041170239 -0.3933756351 -0.2001304477 5.041567793e-39
-0.1696199477 -0.1596496701 -0.1525765359 5.041567793e-39
-0.2522299886 -0.4446198344 -0.05937231705 5.041567793e-39
-0.1979887635 -0.1620354056 -0.4236704707 5.225597518e-39
-0.1517915726 -0.1045541838 -0.1555611044 5.225597518e-39
-0.2096345872 -0.1643027067 -0.4113635421 5.225597518e-39
-0.2914667428 -0.2513664365 -0.1136340201 5.225597518e-39
-0.2815422714 -0.1734526902 -0.3716669679 5.225597518e-39
-0.1530409008 -0.09538507462 -0.1576470733 5.225597518e-39
-0.3055114746 -0.1765026897 -0.3584347665 5.225597518e-39
-0.1892694384 -0.1978915185 -0.1423822045 5.225597518e-39
-0.0128445141 -0.3251152039 -0.2349482775 5.409984573e-39
-0.214825809 -0.3752355576 -0.09904794395 5.409984573e-39
-0.1186035275 -0.7162584066 -0.3369868994 5.409984573e-39
-0.1538883001 -0.001426592469 -0.1908136308 5.409984573e-39
-0.1605368257 -0.04037037492 -0.1701628417 5.409984573e-39
-0.1555395424 -0.07704683393 -0.1618189961 5.409984573e-39
-0.158038184 -0.05870859325 -0.1659909189 5.409984573e-39
-0.08298845589 -0.7109411359 -0.3625260592 5.409984573e-39
-0.1505422443 -0.1137233153 -0.1534751505 5.594012897e-39
-0.1996659338 -0.2093279511 -0.127989307 5.594012897e-39
-0.1487211436 -0.1305769384 -0.1606849134 5.594012897e-39
-0.3013010621 -0.3931141794 -0.1339261681 5.594012897e-39
-0.07626224309 -0.2939749062 -0.1154568568 5.594012897e-39
-0.1427066177 -0.3536857665 -0.09738962352 5.594012897e-39
-0.1488910019 -0.03810307384 -0.1824697852 5.594012897e-39
-0.1596253663 -0.233002618 -0.1358888447 5.594012897e-39
-0.07319182158 -0.3199976385 -0.1205806658 5.77804122e-39
-0.08483768255 -0.3222649395 -0.1082737297 5.77804122e-39
-0.3027619421 -0.3963448703 -0.1773670465 5.77804122e-39
-0.2329262644 -0.1688373089 -0.3867496252 5.77804122e-39
-0.1302493662 -0.7185257673 -0.3246799409 5.77804122e-39
-0.1910905242 -0.1810379028 -0.1351724267 5.77804122e-39
-0.2089570314 -0.1657873094 -0.3999818265 5.77804122e-39
-0.2021645755 -0.1909897029 -0.1321612298 5.77804122e-39
-0.2009152621 -0.2001588196 -0.1300752759 5.962428276e-39
-0.09591172636 -0.3322167397 -0.1052625328 5.962428276e-39
-0.1572965533 -0.1588669866 -0.1535017937 5.962428276e-39
-0.1689423919 -0.1611342877 -0.1411948353 5.962428276e-39
-0.2628700435 -0.387535423 -0.09326101094 5.962428276e-39
-0.275193423 -0.3883181214 -0.09233577549 5.962428276e-39
-0.1460526437 -0.2413890362 -0.1347281188 5.962428276e-39
-0.2638758421 -0.4468871355 -0.04706537351 5.962428276e-39
-0.1756967157 -0.2062779665 -0.1412214935 6.1464566e-39
-0.1179259866 -0.7177430391 -0.3256051838 6.1464566e-39
-0.1860932261 -0.2177143693 -0.1268285811 6.1464566e-39
-0.1564491689 -0.2528254688 -0.1203352213 6.1464566e-39
-0.1661040634 -0.364420265 -0.09345318377 6.1464566e-39
-0.2515524626 -0.4461044371 -0.04799061641 6.1464566e-39
-0.1494627744 -0.03041857108 -0.1731740385 6.1464566e-39
-0.1303832233 -0.3529030681 -0.09831486642 6.1464566e-39
-0.148213461 -0.03958768398 -0.1710880846 6.330484923e-39
-0.1966336668 -0.1650046259 -0.4009070694 6.330484923e-39
-0.1671213061 -0.1779879183 -0.1484046131 6.330484923e-39
-0.1608746797 -0.2238335162 -0.1379747987 6.330484923e-39
-0.2685413063 -0.1741546094 -0.3612104952 6.330484923e-39
-0.1469641328 -0.04875679314 -0.1690021306 6.330484923e-39
-0.06518819928 -0.2840230763 -0.1184680611 6.330484923e-39
0.02277053334 -0.3197979033 -0.2604874372 6.330484923e-39
-0.1457148194 -0.05792590231 -0.1669161618 6.514514648e-39
-0.1403155774 -0.009813006967 -0.1896529198 6.514514648e-39
-0.1578683257 -0.1511824727 -0.144206062 6.514514648e-39
-0.165864408 -0.7238430381 -0.299140811 6.514514648e-39
-0.3164797425 -0.1802546084 -0.3347460926 6.514514648e-39
-0.09395675361 -0.7146930695 -0.3388373852 6.514514648e-39
-0.1901790351 -0.3736701608 -0.1008984298 6.514514648e-39
-0.3035452366 -0.401060164 -0.2094262093 6.514514648e-39
-0.1390662491 -0.01898211613 -0.1875669509 6.698542971e-39
-0.156047225 -0.1680361032 -0.1514158249 6.698542971e-39
-0.05834170803 -0.7093757391 -0.3643765152 6.698542971e-39
-0.2562179267 -0.173371911 -0.3621357381 6.698542971e-39
-0.1535410434 -0.7230603695 -0.3000660539 6.698542971e-39
-0.1576984972 -0.2436563373 -0.1224211827 6.698542971e-39
-0.1787671298 -0.1802552342 -0.1360976845 6.698542971e-39
-0.1408873498 -0.002128507942 -0.180357188 6.698542971e-39
-0.1473019719 -0.2322199345 -0.1368140876 6.882571295e-39
-0.153780669 -0.3636375666 -0.09437842667 6.882571295e-39
-0.1621240079 -0.2146643847 -0.1400607675 6.882571295e-39
-0.2868392467 -0.3905854225 -0.08002883196 6.882571295e-39
-0.1172484457 -0.7192276716 -0.3142234683 6.882571295e-39
-0.2382232696 -0.3859700561 -0.09511149675 6.882571295e-39
-0.05229305103 -0.2909249067 -0.1286890507 6.882571295e-39
-0.07194250077 -0.32916677 -0.1184947044 6.882571295e-39
-0.08358835429 -0.3314340413 -0.1061877608 7.066599618e-39
-0.302190125 -0.4040293992 -0.1866627932 7.066599618e-39
-0.1726644486 -0.1619546264 -0.4141392708 7.066599618e-39
-0.1180598587 -0.3521203697 -0.09924010932 7.066599618e-39
-0.1292415261 0.0001387968659 -0.1926641166 7.066599618e-39
-0.08301657438 -0.3391185701 -0.1154835001 7.066599618e-39
-0.1895014793 -0.3751547635 -0.08951672912 7.066599618e-39
-0.1778556705 -0.3728874624 -0.1018236727 7.066599618e-39
-0.06268955767 -0.3023613095 -0.1142961383 7.250627941e-39
-0.1633733362 -0.2054952681 -0.1421467364 7.250627941e-39
-0.2918329835 -0.1786892116 -0.3365965784 7.250627941e-39
-0.13713938 -0.02963588014 -0.1740992814 7.250627941e-39
-0.09327921271 -0.7161776423 -0.3274556696 7.250627941e-39
-0.3158022165 -0.1817392111 -0.3233644068 7.250627941e-39
-0.133729279 -0.2406063527 -0.1356533617 7.250627941e-39
-0.1358900517 -0.03880498558 -0.1720133275 7.250627941e-39
-0.1441257745 -0.2520427704 -0.1212604642 7.434656265e-39
-0.1346407384 -0.04797409847 -0.1699273735 7.434656265e-39
-0.1646226645 -0.1963261366 -0.1442326903 7.434656265e-39
-0.1333914101 -0.05714320764 -0.1678414047 7.434656265e-39
-0.2315711677 -0.1718065292 -0.3639862239 7.434656265e-39
-0.1288942695 -0.7214949727 -0.3019165397 7.434656265e-39
-0.1267428845 -0.01819942519 -0.1884921938 7.434656265e-39
-0.1836327463 -0.1657065451 -0.3904505968 7.434656265e-39
-0.16101861 -0.1596873254 -0.4264461994 7.618684588e-39
-0.01409383863 -0.3159460723 -0.2370342314 7.618684588e-39
-0.06144022942 -0.311530441 -0.1122101694 7.618684588e-39
-0.09409063309 -0.3490703702 -0.1124722958 7.618684588e-39
-0.303478837 -0.1809565127 -0.3242896497 7.618684588e-39
0.02344808169 -0.321282506 -0.2491056919 7.618684588e-39
-0.1242442355 -0.03653768823 -0.184320271 7.618684588e-39
-0.1229949147 -0.04570679739 -0.1822343022 7.618684588e-39
-0.2375457138 -0.3874546587 -0.08372980356 7.802712912e-39
0.01180225983 -0.3235498071 -0.2367987633 7.802712912e-39
-0.2192478031 -0.1710238457 -0.3649114668 7.802712912e-39
-0.09155002981 -0.1158716455 -0.2906061411 7.802712912e-39
-0.3000517488 -0.4022833109 -0.1318402141 7.802712912e-39
-0.09030070901 -0.1250407547 -0.2885201871 7.802712912e-39
-0.1775178015 -0.1894243211 -0.1340117157 7.802712912e-39
-0.1771781147 -0.3743720651 -0.09044197202 7.802712912e-39
-0.08280476928 -0.1800554693 -0.2760044038 7.986382503e-39
-0.0890513882 -0.1342098862 -0.2864342332 7.986382503e-39
-0.08655273914 -0.1525481045 -0.2822622955 7.986382503e-39
-0.04534075782 -0.7100776434 -0.3539200425 7.986382503e-39
-0.3008350432 -0.4069986045 -0.1638993621 7.986382503e-39
-0.1453751028 -0.2428736389 -0.1233464256 7.986382503e-39
-0.2911554575 -0.1801738143 -0.3252148926 7.986382503e-39
-0.1498006135 -0.2138816863 -0.1409860104 7.986382503e-39
-0.1349785924 -0.2314372361 -0.1377393305 8.170410826e-39
-0.1442956328 -0.1595689058 -0.1430453211 8.170410826e-39
-0.1601971388 -0.2253181189 -0.1265931129 8.170410826e-39
-0.3151246607 -0.1832238138 -0.3119827211 8.170410826e-39
-0.1713093519 -0.1649238467 -0.3913758397 8.170410826e-39
-0.1535485834 -0.1863743365 -0.1472439021 8.170410826e-39
-0.06019090861 -0.3206995428 -0.1101242155 8.170410826e-39
-0.05698661134 -0.7123450041 -0.3416131139 8.170410826e-39
-0.1042474955 -0.7199295759 -0.3037670255 8.35443915e-39
-0.08030612767 -0.1983937025 -0.2718324959 8.35443915e-39
-0.201253131 -0.3836219609 -0.09788722545 8.35443915e-39
-0.2548628151 -0.1763411462 -0.3393723071 8.35443915e-39
-0.1223173663 -0.04719140381 -0.1708526015 8.35443915e-39
-0.2862674892 -0.3982699513 -0.08932456374 8.35443915e-39
-0.1144194826 -0.01741673052 -0.1894174367 8.35443915e-39
-0.278832078 -0.1793911308 -0.3261401355 8.35443915e-39
-0.1210680455 -0.0563605167 -0.1687666476 8.538467473e-39
-0.1829551905 -0.1671911478 -0.3790689111 8.538467473e-39
-0.15229927 -0.1955434531 -0.1451579332 8.538467473e-39
-0.3001574874 -0.4084832072 -0.1525176615 8.538467473e-39
-0.09087248147 -0.1173562557 -0.2792244554 8.538467473e-39
-0.2739441097 -0.397487253 -0.09024980664 8.538467473e-39
-0.1532088965 -0.3713220954 -0.1036741585 8.538467473e-39
-0.2185702473 -0.1725084484 -0.3535297513 8.538467473e-39
-0.08837383986 -0.1356944889 -0.2750525177 8.722137064e-39
-0.08587519079 -0.1540327072 -0.2708806098 8.722137064e-39
-0.1362279207 -0.2222681195 -0.1398252845 8.722137064e-39
-0.09192411602 -0.7191468477 -0.3046922684 8.722137064e-39
-0.08212722093 -0.1815400869 -0.2646227181 8.722137064e-39
-0.08462586999 -0.1632018387 -0.268794626 8.722137064e-39
-0.08176725358 -0.3482877016 -0.1133975387 8.722137064e-39
-0.1466244161 -0.2337045372 -0.125432387 8.722137064e-39
-0.07905679941 -0.207562834 -0.2697465122 8.906165387e-39
-0.1051647067 -0.3590222001 -0.109461084 8.906165387e-39
-0.165194422 -0.1886416376 -0.1349369586 8.906165387e-39
-0.2904779017 -0.1816584319 -0.3138331771 8.906165387e-39
-0.07922662795 -0.1150889471 -0.291531384 8.906165387e-39
