# .PCD v0.7 - Point Cloud Data file format
VERSION 0.7
FIELDS x y z rgb
SIZE 4 4 4 4
TYPE F F F F
COUNT 1 1 1 1
WIDTH 830
HEIGHT 1
VIEWPOINT 0 0 0 1 0 0 0
POINTS 830
DATA ascii
-0.06886716932 0.07381842285 0.1451889575 6.55152294e-39
0.4074807465 0.07442147285 -0.23514539 6.55152294e-39
-0.1624619365 -0.3493840098 0.196515739 6.55152294e-39
-0.2324929684 -0.04777781293 0.1281011552 6.368926744e-39
-0.243528083 0.01627693139 0.0548241064 6.368926744e-39
0.419755578 0.07368406653 -0.2101449966 6.368926744e-39
-0.2432616353 0.02899388969 0.04268215224 6.368926744e-39
0.2809373438 0.07082728297 0.02461064234 6.368926744e-39
-0.2440609932 -0.009156989865 0.07910808176 6.368926744e-39
-0.2458336055 -0.09790828079 0.1516686827 6.368926744e-39
0.2184524089 0.07130409032 0.04880671203 6.368926744e-39
-0.2429951727 0.04171090946 0.03054019436 6.186331949e-39
-0.1735307872 -0.249586001 0.1987112761 6.186331949e-39
0.3434222639 0.07035046816 0.0004145149142 6.186331949e-39
-0.2472247183 -0.1975039095 0.1493391097 6.186331949e-39
-0.2500069737 -0.3966951966 0.1446799487 6.186331949e-39
-0.2427287251 0.05442786962 0.01839824021 6.186331949e-39
-0.2470508367 -0.1850544661 0.1496303082 6.186331949e-39
-0.2463552654 -0.1352566332 0.1507950872 6.186331949e-39
-0.2173684686 0.07918953896 0.006815515459 6.003737154e-39
-0.2324004024 -0.04751029611 0.1156679988 6.003737154e-39
-0.0563146323 0.07388356328 0.1328897923 6.003737154e-39
-0.2447677851 -0.04704041034 0.103100799 6.003737154e-39
-0.2437019795 0.003827488516 0.0545329079 6.003737154e-39
-0.2439684421 -0.008889471181 0.06667486578 6.003737154e-39
-0.2487785071 -0.3214634061 0.1215607673 6.003737154e-39
0.3825607896 0.07482621074 -0.2354134768 6.003737154e-39
-0.2442348748 -0.02160646208 0.07881688327 5.820783626e-39
0.4068328142 0.07254884392 -0.1481132209 5.820783626e-39
-0.1623693854 -0.3491165042 0.1840825379 5.820783626e-39
-0.2370141149 -0.3714635968 0.1205300242 5.820783626e-39
-0.2462626994 -0.1349891126 0.1383619308 5.820783626e-39
-0.1183367297 0.07569795847 0.09492009878 5.820783626e-39
-0.2471321523 -0.1972363889 0.1369059533 5.820783626e-39
-0.01893476024 0.07327646017 0.1332919449 5.820783626e-39
0.3947431445 0.07382129133 -0.197979942 5.63818743e-39
0.381079793 0.07054591924 -0.03648283333 5.63818743e-39
-0.2075730562 -0.04818255082 0.1283692569 5.63818743e-39
-0.2328407466 -0.07267670333 0.1275187582 5.63818743e-39
-0.2467843741 -0.1723375022 0.1374883503 5.63818743e-39
0.3701008558 0.07502858341 -0.2355475277 5.63818743e-39
0.1560600549 0.07204841077 0.06056962907 5.63818743e-39
0.2060850263 0.07177396864 0.03623950854 5.63818743e-39
-0.1497355551 -0.3368694186 0.1845077723 5.455592635e-39
0.3938175142 0.07114610821 -0.07364827394 5.455592635e-39
0.3823756576 0.07429116964 -0.2105471492 5.455592635e-39
0.3686198592 0.07074829191 -0.03661688417 5.455592635e-39
0.3942803144 0.07248369604 -0.1358141005 5.455592635e-39
-0.2330146432 -0.08512616903 0.1272275597 5.455592635e-39
0.3700082898 0.07476106286 -0.2231143713 5.455592635e-39
-0.1864086241 -0.2983789146 0.1601129174 5.455592635e-39
0.381264925 0.07108096033 -0.06134917215 5.272997839e-39
-0.1058767885 0.07549559325 0.09505414218 5.272997839e-39
-0.04376212135 0.07394871861 0.1205906868 5.272997839e-39
-0.2492889315 -0.370726198 0.09552966058 5.272997839e-39
-0.2077469528 -0.06063199043 0.1280780584 5.272997839e-39
0.381357491 0.07134847343 -0.07378232479 5.272997839e-39
0.1185875833 0.07238800079 0.07260064036 5.272997839e-39
0.3311474621 0.07108788192 -0.02458584122 5.272997839e-39
-0.2461701483 -0.1347215921 0.1259287298 5.090401643e-39
-0.1622768193 -0.3488489985 0.1716493815 5.090401643e-39
-0.1860608459 -0.2734799981 0.1606953144 5.090401643e-39
0.3819128573 0.07295358181 -0.1483813077 5.090401643e-39
-0.2373618931 -0.3963625133 0.1199476272 5.090401643e-39
-0.1951131076 -0.04838491604 0.1285032928 5.090401643e-39
-0.249462828 -0.3831756413 0.09523846954 5.090401643e-39
0.3699157238 0.07449354231 -0.2106811851 5.090401643e-39
-0.2470396012 -0.1969688684 0.1244727373 4.907806848e-39
-0.2497292757 -0.3958926499 0.10738042 4.907806848e-39
-0.1924485862 0.07878480107 0.007083611563 4.907806848e-39
-0.246691823 -0.1720699817 0.1250551343 4.907806848e-39
0.3816351593 0.07215102762 -0.1110818163 4.907806848e-39
0.3699269593 0.06257914007 -0.2358387262 4.907806848e-39
0.1183211505 0.05967104062 0.08474265039 4.907806848e-39
0.4193264544 0.03660326079 -0.2234517783 4.907806848e-39
0.3436999619 0.07115302235 -0.03688497841 4.725212053e-39
0.006077695638 0.07313924283 0.1211268753 4.725212053e-39
0.4069590569 0.03707314655 -0.2360189706 4.725212053e-39
0.3575483561 0.07496342808 -0.2232484221 4.725212053e-39
0.2436499894 0.07170190662 0.01177528501 4.725212053e-39
-0.2231630236 -0.2720703483 0.1229936481 4.725212053e-39
-0.2120942026 -0.3718683422 0.120798111 4.725212053e-39
-0.2485933751 -0.320928365 0.09669445455 4.725212053e-39
0.131140098 0.07245314866 0.06030152738 4.542257124e-39
-0.2455559224 -0.0971057266 0.1143691689 4.542257124e-39
0.1811650693 0.07217870653 0.0359714143 4.542257124e-39
-0.2422771454 0.06767986715 -0.01861008629 4.542257124e-39
-0.1855391711 -0.2361316383 0.1615689099 4.542257124e-39
-0.09341681004 0.07529322058 0.09518819302 4.542257124e-39
0.2686625123 0.07156468183 -0.0003897733986 4.542257124e-39
-0.2079208344 -0.07308143377 0.1277868599 4.542257124e-39
-0.2368289828 -0.3709285557 0.09566371143 4.359662329e-39
0.1308736503 0.0597361885 0.07244348526 4.359662329e-39
-0.2197552919 -0.04717763141 0.09093573689 4.359662329e-39
-0.2340579778 -0.1598228812 0.1254803836 4.359662329e-39
-0.2491963655 -0.3704586923 0.08309651166 4.359662329e-39
-0.2113986462 -0.3220705092 0.1219629049 4.359662329e-39
0.4192451537 0.02442127839 -0.2361761332 4.359662329e-39
-0.237269327 -0.3960950077 0.1075144708 4.359662329e-39
0.4068664908 0.03680562973 -0.2235858142 4.177066133e-39
0.3563450575 0.07148569822 -0.06161727011 4.177066133e-39
-0.1950205415 -0.04811739922 0.1160701364 4.177066133e-39
-0.2370028794 -0.3833779991 0.09537251294 4.177066133e-39
0.05610267818 0.07286480069 0.09679676592 4.177066133e-39
0.3062275052 0.07149261981 -0.02485393733 4.177066133e-39
-0.232389167 -0.0594247058 0.09051049501 4.177066133e-39
0.1436926723 0.07251829654 0.04800242186 4.177066133e-39
0.3450883925 0.0751657933 -0.223382473 3.994471337e-39
-0.2330959737 -0.09730809182 0.1145032048 3.994471337e-39
0.09366770089 0.07279273868 0.07233253866 3.994471337e-39
0.3573632538 0.07442839444 -0.1983820796 3.994471337e-39
-0.211050868 -0.2971716225 0.1225453019 3.994471337e-39
0.3821204305 0.04965980724 -0.2235627174 3.994471337e-39
-0.249370262 -0.3829081357 0.08280531317 3.994471337e-39
0.3564376235 0.07175321132 -0.07405042648 3.994471337e-39
-0.2464253604 -0.159352988 0.1129131764 3.81151781e-39
-0.1826531291 -0.04858728498 0.1286373436 3.81151781e-39
-0.2108769715 -0.2847221792 0.1228365004 3.81151781e-39
0.1184137017 0.05993855745 0.07230944186 3.81151781e-39
-0.246599257 -0.1718024611 0.1126219779 3.81151781e-39
0.01863026805 0.0732043907 0.1088277698 3.81151781e-39
0.4191525877 0.0241537597 -0.2237429768 3.81151781e-39
-0.2222935706 -0.209823072 0.1244496405 3.81151781e-39
0.3573744595 0.06251398474 -0.2235396206 3.628921614e-39
-0.1742038876 -0.3232126534 0.1472314149 3.628921614e-39
-0.2107030898 -0.2722727358 0.1231276989 3.628921614e-39
0.0686551854 0.07292995602 0.0844976604 3.628921614e-39
0.3566227257 0.07228825241 -0.09891676158 3.628921614e-39
-0.137356922 -0.3492537141 0.1719174683 3.628921614e-39
-0.2215979993 -0.160025239 0.1256144196 3.628921614e-39
0.006170257926 0.07340676337 0.1086937338 3.628921614e-39
-0.1732531041 -0.2487834543 0.1614117622 3.446326818e-39
-0.09332425147 0.07556074113 0.08275503665 3.446326818e-39
-0.1056916639 0.07603063434 0.07018777728 3.446326818e-39
0.2937675416 0.07169498503 -0.02498798445 3.446326818e-39
-0.2454633564 -0.09683820605 0.1019360051 3.446326818e-39
-0.2367364168 -0.3706610501 0.08323055506 3.446326818e-39
-0.2424510419 0.05523042381 -0.01890128292 3.446326818e-39
0.1562451869 0.07258344442 0.03570332006 3.446326818e-39
0.3326284587 0.07536816597 -0.2235165238 3.26337189e-39
-0.237176761 -0.3958274722 0.09508131444 3.26337189e-39
-0.05603694171 0.07468611747 0.09559033811 3.26337189e-39
0.1812576354 0.07244622707 0.02353825793 3.26337189e-39
-0.222896561 -0.2593533695 0.1108516902 3.26337189e-39
-0.2124419808 -0.3967672586 0.120215714 3.26337189e-39
-0.198764801 -0.3098234534 0.1223881543 3.26337189e-39
0.08120775223 0.0729951039 0.07219849527 3.26337189e-39
-0.1729053259 -0.2238845378 0.1619941443 3.080777095e-39
-0.2084425092 -0.1104298234 0.1269132644 3.080777095e-39
-0.1497243047 -0.3487838209 0.159350276 3.080777095e-39
-0.2343132049 -0.1844542623 0.1124648303 3.080777095e-39
-0.04357699677 0.07448375225 0.09572438151 3.080777095e-39
0.2813076079 0.0718973577 -0.02512203343 3.080777095e-39
-0.249277696 -0.3826406002 0.0703721568 3.080777095e-39
-0.2098336369 -0.2100254446 0.1245836765 3.080777095e-39
0.3819465339 0.03721036762 -0.2238539159 2.898180898e-39
-0.2330034077 -0.09704057127 0.1020700559 2.898180898e-39
-0.01865707152 0.07407901436 0.09599247575 2.898180898e-39
0.3325358927 0.07510064542 -0.2110833377 2.898180898e-39
-0.1982431412 -0.2724750936 0.1232617497 2.898180898e-39
-0.2169982046 0.08025960624 -0.04291713238 2.898180898e-39
-0.2091380656 -0.1602276117 0.1257484704 2.898180898e-39
0.09376025945 0.07306025177 0.05989938974 2.898180898e-39
0.318872571 0.07182528079 -0.04958622903 2.715227371e-39
0.1185062677 0.06020607427 0.05987628549 2.715227371e-39
-0.2093119621 -0.1726770848 0.1254572719 2.715227371e-39
0.4189786911 0.01170431823 -0.2240341753 2.715227371e-39
0.357200563 0.05006454512 -0.2238308191 2.715227371e-39
-0.2466805875 -0.1839843839 0.09989762306 2.715227371e-39
-0.09323168546 0.07582826167 0.07032182068 2.715227371e-39
-0.1922634542 0.07931983471 -0.01778269745 2.715227371e-39
0.3201684356 0.07557053119 -0.2236505598 2.532632576e-39
-0.1864787191 -0.3224752545 0.1222310066 2.532632576e-39
0.3315177262 0.07215794921 -0.07431851327 2.532632576e-39
0.3078010678 0.07604042441 -0.236217767 2.532632576e-39
0.3942326903 0.02455849573 -0.2240110636 2.532632576e-39
0.2688476443 0.07209972292 -0.02525608055 2.532632576e-39
-0.1999820322 -0.3969696164 0.1203497648 2.532632576e-39
-0.2220271081 -0.1971060783 0.1123076826 2.532632576e-39
-0.1990200281 -0.3344548643 0.1093726009 2.349677647e-39
-0.2426249236 0.04278098047 -0.01919247955 2.349677647e-39
-0.2327369452 -0.08432361484 0.08992809802 2.349677647e-39
-0.2335250676 -0.1343889236 0.1011964604 2.349677647e-39
-0.1798960418 0.07884994149 -0.005215494893 2.349677647e-39
-0.2104366273 -0.259555757 0.110985741 2.349677647e-39
-0.2453707904 -0.09657069296 0.08950285614 2.349677647e-39
-0.237084195 -0.3955599666 0.08264816552 2.349677647e-39
-0.2490112484 -0.3699236512 0.05823013932 2.167082852e-39
-0.1830009073 -0.07348617166 0.1280549467 2.167082852e-39
0.320087105 0.0633886084 -0.2363749146 2.167082852e-39
0.3694866002 0.03741273656 -0.2239879668 2.167082852e-39
0.3322582245 0.07429809123 -0.1737838387 2.167082852e-39
-0.245544672 -0.1090201661 0.08921165764 2.167082852e-39
-0.2324704826 -0.0716066286 0.07778614014 2.167082852e-39
-0.1975475699 -0.2226772457 0.1244265288 2.167082852e-39
0.1563377529 0.07285096496 0.02327016369 1.984127923e-39
-0.2345684171 -0.2090856582 0.09944927692 1.984127923e-39
-0.1303339005 0.07723791897 0.03262021765 1.984127923e-39
0.2814001739 0.0721648708 -0.03755521774 1.984127923e-39
-0.2169056535 0.08052712679 -0.05535028502 1.984127923e-39
0.1813501865 0.07271374762 0.01110504568 1.984127923e-39
-0.1959825605 -0.1106321886 0.1270473152 1.984127923e-39
0.3317953944 0.0729605034 -0.1116180122 1.984127923e-39
-0.2404371351 0.08494462818 -0.2421158701 1.801533128e-39
0.256387651 0.07230208814 -0.02539012954 1.801533128e-39
-0.1859570444 -0.2851268947 0.1231045872 1.801533128e-39
0.3323732316 0.05073679984 -0.2365320623 1.801533128e-39
-0.1973736882 -0.2102278024 0.1247177273 1.801533128e-39
-0.2451043278 -0.08385372907 0.07736089826 1.801533128e-39
-0.2419994622 0.06848242134 -0.05590957776 1.801533128e-39
-0.1961564571 -0.123081632 0.1267561167 1.801533128e-39
-0.157733202 -0.04899202287 0.1289054453 1.618578199e-39
0.3318879604 0.07322802395 -0.1240511909 1.618578199e-39
-0.1921708882 0.07958735526 -0.03021585196 1.618578199e-39
0.05628780276 0.07339984179 0.07193040103 1.618578199e-39
-0.2460663468 -0.1463685036 0.08833806217 1.618578199e-39
-0.1857831627 -0.2726774514 0.1233957857 1.618578199e-39
-0.2422659099 0.05576546118 -0.0437676236 1.618578199e-39
-0.2484895885 -0.3325752914 0.05910373479 1.618578199e-39
0.3319805264 0.07349553704 -0.1364843547 1.435982003e-39
-0.0931391269 0.07609577477 0.05788867176 1.435982003e-39
-0.1981505752 -0.272207588 0.1108285934 1.435982003e-39
0.01881539263 0.07373942435 0.08396147192 1.435982003e-39
0.3570266664 0.03761510178 -0.2241220176 1.435982003e-39
0.3198907673 0.074767977 -0.1863510758 1.435982003e-39
0.3076271713 0.06359098107 -0.2365089655 1.435982003e-39
-0.1550686806 0.07817769051 0.007485754788 1.435982003e-39
-0.1979766786 -0.2597581148 0.1111197919 1.253028475e-39
0.3192428052 0.07289535552 -0.09931890666 1.253028475e-39
0.3446592689 0.03808498755 -0.2366892099 1.253028475e-39
-0.05585181713 0.07522115856 0.07072396576 1.253028475e-39
-0.1738448739 -0.310228169 0.1226562411 1.253028475e-39
0.2828811705 0.0764451623 -0.2364858687 1.253028475e-39
0.3065977693 0.0725626871 -0.07458661497 1.253028475e-39
-0.2405296862 0.08467710763 -0.2296827137 1.253028475e-39
0.3816913366 0.01257894095 -0.2368694693 1.070432279e-39
-0.2103440613 -0.2592882216 0.09855258465 1.070432279e-39
0.2940452397 0.07249753922 -0.06228750572 1.070432279e-39
-0.185261488 -0.2353290915 0.1242693812 1.070432279e-39
-0.2367251962 -0.3825754523 0.05807299167 1.070432279e-39
-0.2493590266 -0.3948225677 0.05764774978 1.070432279e-39
-0.1622543484 -0.3726778328 0.1213343143 1.070432279e-39
-0.2336063981 -0.1465708762 0.08847211301 1.070432279e-39
-0.2228853256 -0.2712678015 0.08569418639 8.874787512e-40
0.3196130693 0.07396542281 -0.1490515471 8.874787512e-40
0.406344831 -0.0005427560536 -0.2244594097 8.874787512e-40
0.2951672077 0.06379334629 -0.2366430163 8.874787512e-40
-0.1734970957 -0.2853292823 0.123238638 8.874787512e-40
-0.2344758511 -0.2088181376 0.08701612055 8.874787512e-40
0.3067828715 0.07309772819 -0.09945295006 8.874787512e-40
-0.2421733588 0.056032978 -0.05620077625 8.874787512e-40
-0.03093189374 0.07481642067 0.07099206001 7.045238224e-40
0.131417796 0.07325570285 0.02300206944 7.045238224e-40
0.1814427525 0.07298126072 -0.001328108832 7.045238224e-40
0.2064552754 0.07284404337 -0.01349316631 7.045238224e-40
0.3815987706 0.0123114232 -0.2244363129 7.045238224e-40
0.2941378057 0.07276505232 -0.07472066581 7.045238224e-40
0.270421207 0.07664752752 -0.2366199046 7.045238224e-40
-0.01847194508 0.07461405545 0.07112611085 7.045238224e-40
0.3198206425 0.05067165196 -0.2242329568 5.219290273e-40
-0.2207986414 -0.1218743399 0.08918855339 5.219290273e-40
0.2815853059 0.07269991189 -0.06242155656 5.219290273e-40
-0.2280697376 0.08447474241 -0.2295486629 5.219290273e-40
-0.1838703603 -0.1357334405 0.1265989691 5.219290273e-40
-0.2459737808 -0.1461009979 0.07590491325 5.219290273e-40
-0.1673435271 0.07891509682 -0.01751460135 5.219290273e-40
0.3069680035 0.07363276184 -0.1243192926 5.219290273e-40
-0.2289953679 0.08179956675 -0.1052170098 3.389740985e-40
-0.2094746083 -0.1970409304 0.1000085697 3.389740985e-40
0.2942303419 0.07303257287 -0.08715381473 3.389740985e-40
-0.1980580091 -0.2719400525 0.098395437 3.389740985e-40
-0.1549761146 0.0784452036 -0.004947399721 3.389740985e-40
0.3072457016 0.07443531603 -0.1616187841 3.389740985e-40
0.282707274 0.06399571896 -0.2367770523 3.389740985e-40
-0.246321559 -0.1709999144 0.07532251626 3.389740985e-40
-0.2407035679 0.07222767174 -0.2299739122 1.56020571e-40
0.3071531355 0.07416779548 -0.1491855979 1.56020571e-40
0.1689828187 0.07318362594 -0.001462155953 1.56020571e-40
-0.1612110138 -0.2979811132 0.1230814904 1.56020571e-40
0.1189578474 0.07345806807 0.0228680186 1.56020571e-40
-0.2420807928 0.05630049482 -0.0686339587 1.56020571e-40
-0.2407849133 0.06004574522 -0.2426982671 1.56020571e-40
0.256572783 0.07283712178 -0.05025646836 1.56020571e-40
-0.2193850428 -0.04610755667 0.04120306298 6.490113838e-41
0.3073607087 0.05087401718 -0.2243670076 6.490113838e-41
-0.2412701994 0.08253696561 -0.1302174032 6.490113838e-41
-0.2355079651 -0.2954293191 0.06011137366 6.490113838e-41
-0.2333399355 -0.1338538975 0.07633015513 6.490113838e-41
0.3567714691 0.01298367791 -0.2371375561 6.490113838e-41
0.294878304 0.07490519434 -0.1741859913 6.490113838e-41
0.2817704082 0.07323494554 -0.08728786558 6.490113838e-41
0.2315603197 0.07297433913 -0.03809140623 2.496469266e-40
-0.2156097591 0.08427237719 -0.229414627 2.496469266e-40
-0.1608632356 -0.2730821967 0.1236638874 2.496469266e-40
-0.1726276428 -0.2230819911 0.1246946305 2.496469266e-40
0.031460464 0.07407209277 0.05922915041 2.496469266e-40
-0.1672509611 0.07918261737 -0.02994775586 2.496469266e-40
-0.191893205 0.08038990945 -0.06751537323 2.496469266e-40
0.1815353185 0.07324878126 -0.01376126241 2.496469266e-40
0.2065478414 0.07311156392 -0.02592632174 4.340353837e-40
-0.2416291982 0.06955249608 -0.1056422517 4.340353837e-40
-0.2426136881 0.03086651489 -0.04435001686 4.340353837e-40
0.3320254683 0.02583785728 -0.2371144593 4.340353837e-40
0.294785738 0.07463768125 -0.1617528349 4.340353837e-40
-0.195971325 -0.1225465909 0.101889804 4.340353837e-40
-0.2227927595 -0.2710002661 0.07326103002 4.340353837e-40
0.3814248741 -0.0001380185131 -0.2247275114 4.340353837e-40
0.2818629742 0.07350246608 -0.0997210443 6.184224396e-40
-0.2428801358 0.01814955473 -0.03220802918 6.184224396e-40
-0.234383285 -0.208550632 0.07458297163 6.184224396e-40
0.2441128194 0.07303949445 -0.05039051548 6.184224396e-40
-0.2040754557 0.08139482886 -0.1049489155 6.184224396e-40
0.2578686476 0.07658237219 -0.2243207991 6.184224396e-40
-0.1548835486 0.07871272415 -0.01738055423 6.184224396e-40
-0.1970146596 -0.1972432882 0.1001426205 6.184224396e-40
0.3072793782 0.03869209439 -0.2370913625 8.028094954e-40
-0.2419882268 0.05656801164 -0.08106711507 8.028094954e-40
-0.142516166 0.07824283838 -0.004813351668 8.028094954e-40
0.3566789031 0.01271616016 -0.2247044146 8.028094954e-40
-0.2283249646 0.05984337628 -0.2425642163 8.028094954e-40
-0.005919435993 0.07467919588 0.05882700533 8.028094954e-40
0.08148544282 0.07379765064 0.03489902988 8.028094954e-40
-0.2408774644 0.0597782284 -0.2302651107 8.028094954e-40
0.2824183702 0.07510756701 -0.1743200272 9.871979525e-40
0.1940878332 0.07331393659 -0.02606036887 9.871979525e-40
-0.1945577264 -0.04677981138 0.05390430987 9.871979525e-40
0.2694030106 0.0737048313 -0.09985509515 9.871979525e-40
0.2823258042 0.07484005392 -0.1618868709 9.871979525e-40
-0.2111097276 -0.3331823945 0.05950587988 9.871979525e-40
-0.11768879 0.0775705874 0.007887898013 9.871979525e-40
0.1440629214 0.07358836383 -0.001730252057 9.871979525e-40
-0.2163502723 0.08213223517 -0.1299493015 1.171585008e-39
-0.08049405366 0.07642844319 0.03315640986 1.171585008e-39
-0.2409812659 0.07142511755 -0.1926744282 1.171585008e-39
-0.1547909826 0.0789802447 -0.02981370687 1.171585008e-39
-0.2427875698 0.01841707341 -0.04464121163 1.171585008e-39
-0.22174941 -0.1963035315 0.07500821352 1.171585008e-39
0.245408684 0.07678474486 -0.22445485 1.171585008e-39
-0.191615507 0.08119246364 -0.1048148647 1.171585008e-39
-0.2418030947 0.05710304901 -0.1059334502 1.355972064e-39
-0.173138082 -0.2723447978 0.09866353124 1.355972064e-39
0.1566154361 0.07365351915 -0.01402935758 1.355972064e-39
-0.1598198861 -0.1983854473 0.1254110783 1.355972064e-39
-0.2410738319 0.07115759701 -0.1802412421 1.355972064e-39
0.2569430172 0.07390719652 -0.09998914599 1.355972064e-39
-0.2239061892 -0.3697933555 0.03363192827 1.355972064e-39
-0.2421621084 0.0441185683 -0.08135831356 1.355972064e-39
-0.1670658439 0.07971765101 -0.05481409281 1.540360521e-39
-0.2410513461 0.04732878506 -0.2305563092 1.540360521e-39
0.2698658407 0.07504241914 -0.1620209217 1.540360521e-39
0.2576835454 0.07604733855 -0.1994544715 1.540360521e-39
-0.2413515151 0.07035504282 -0.1429417431 1.540360521e-39
-0.2162577063 0.08239974827 -0.142382443 1.540360521e-39
-0.1906898767 0.0838676393 -0.2291465253 1.540360521e-39
-0.241258949 0.07062256336 -0.1553748995 1.540360521e-39
0.1541247964 -0.04106672853 0.1076815277 1.724747577e-39
0.2697732747 0.07477489859 -0.1495877355 1.724747577e-39
-0.1944651604 -0.04651229084 0.04147115722 1.724747577e-39
-0.23609972 -0.3568740189 0.02135592327 1.724747577e-39
0.2318380177 0.07377689332 -0.07539090514 1.724747577e-39
-0.2420695424 0.04438608885 -0.09379146248 1.724747577e-39
-0.1697303653 -0.04745206609 0.06660556048 1.724747577e-39
-0.1792480946 0.08072257042 -0.09224763513 1.724747577e-39
0.1441554874 0.07385588437 -0.01416340563 1.909134633e-39
0.1169187874 -0.02801018022 0.1075705737 1.909134633e-39
0.2574984133 0.07551229745 -0.1745881289 1.909134633e-39
-0.1052288488 0.07736822218 0.008021945134 1.909134633e-39
-0.1573629379 -0.04792195186 0.0791728273 1.909134633e-39
-0.2110171616 -0.3329148591 0.04707272351 1.909134633e-39
-0.1299636513 0.07830799371 -0.01711245812 1.909134633e-39
-0.2037977725 0.0821973756 -0.142248407 1.909134633e-39
0.356423676 -0.01191520598 -0.2377199531 2.09352309e-39
-0.1976989806 -0.2589555383 0.07382032275 2.09352309e-39
0.1191429645 0.07399310172 -0.001998348162 2.09352309e-39
0.04410554469 0.0744047612 0.03449688852 2.09352309e-39
-0.1791555285 0.08099009097 -0.1046808213 2.09352309e-39
0.129471302 -0.02794503048 0.09527147561 2.09352309e-39
0.2193780392 0.07397926599 -0.07552494854 2.09352309e-39
0.3934558034 -0.0374212265 -0.2379002124 2.09352309e-39
-0.2412252426 0.03487928584 -0.2308475077 2.277910146e-39
-0.1908750087 0.08333260566 -0.2042801827 2.277910146e-39
0.3316776752 0.000938972109 -0.2376968563 2.277910146e-39
-0.1614549905 -0.3345269263 0.08490844071 2.277910146e-39
-0.2034976035 0.05917112157 -0.2298629731 2.277910146e-39
-0.1908637583 0.07141819596 -0.2294377238 2.277910146e-39
-0.160504207 -0.2600976825 0.09908877313 2.277910146e-39
0.1542173624 -0.04079921171 0.09524837136 2.277910146e-39
-0.173822403 -0.3340570033 0.07234123349 2.462297202e-39
0.2068255246 0.07391411811 -0.06322584301 2.462297202e-39
-0.1782298982 0.08366526663 -0.2290124744 2.462297202e-39
-0.195786193 -0.1220115572 0.07702349871 2.462297202e-39
-0.2440272868 -0.04490026459 0.00363544561 2.462297202e-39
-0.173045516 -0.2720772922 0.08623037487 2.462297202e-39
0.1316954792 0.07405825704 -0.01429745369 2.462297202e-39
0.3069316149 0.01379315183 -0.2376737595 2.462297202e-39
0.2451534569 0.05215337873 -0.2374704033 2.646685659e-39
0.1539509147 -0.05351619795 0.1073903292 2.646685659e-39
0.2194706053 0.07424678653 -0.08795810491 2.646685659e-39
-0.1720947325 -0.1976480335 0.1004107147 2.646685659e-39
-0.2415254116 0.0579056032 -0.1432329416 2.646685659e-39
0.2204888016 0.07718948275 -0.2247229517 2.646685659e-39
0.1041923836 -0.04052476957 0.1195784956 2.646685659e-39
0.2081214041 0.07765936852 -0.237290144 2.646685659e-39
0.1170113534 -0.02774266154 0.09513742477 2.830713982e-39
-0.2426024526 0.01895210892 -0.06950755417 2.830713982e-39
0.3933632374 -0.03768874332 -0.225467056 2.830713982e-39
0.2449458838 0.07544715703 -0.1622890234 2.830713982e-39
-0.1943725944 -0.04624477401 0.02903800458 2.830713982e-39
0.2447607517 0.07491211593 -0.1374226809 2.830713982e-39
-0.1985572129 -0.3331172466 0.04720677435 2.830713982e-39
-0.05548156798 0.07629122585 0.02099135146 2.830713982e-39
0.2327748537 0.06453767419 -0.2248800993 3.015101038e-39
0.2574395239 0.03950156644 -0.237627551 3.015101038e-39
-0.1051362902 0.07763573527 -0.004411208443 3.015101038e-39
-0.2413178086 0.0346117653 -0.2184143215 3.015101038e-39
0.05665805191 0.07446990907 0.02219778299 3.015101038e-39
-0.2413290441 0.04652623087 -0.1932568103 3.015101038e-39
-0.206739977 -0.04577489197 0.01647080109 3.015101038e-39
-0.1910376549 0.05896875262 -0.2297289222 3.015101038e-39
0.1545763761 -0.027814731 0.07067320496 3.199488094e-39
-0.1950794011 -0.08412817121 0.05303072184 3.199488094e-39
0.2070106566 0.07444915175 -0.0880921483 3.199488094e-39
-0.2413991243 0.0224298425 -0.2311387062 3.199488094e-39
0.3562497795 -0.02436467633 -0.2380111516 3.199488094e-39
-0.1666955799 0.08078772575 -0.1045467705 3.199488094e-39
0.1543099284 -0.04053169116 0.08281521499 3.199488094e-39
0.2944716513 0.01399551984 -0.2378077954 3.199488094e-39
-0.2425098866 0.0192196276 -0.08194070309 3.383517819e-39
-0.197780326 -0.2711375058 0.06109591573 3.383517819e-39
-0.2103215903 -0.2831170559 0.04823751748 3.383517819e-39
-0.1784851253 0.0590339005 -0.2420280278 3.383517819e-39
-0.207887128 -0.108824715 0.05231428146 3.383517819e-39
-0.2121530622 -0.4078791142 0.05775869638 3.383517819e-39
-0.1785075963 0.08286271244 -0.1917129904 3.383517819e-39
0.2697256505 0.02684969828 -0.2377846986 3.383517819e-39
0.232578516 0.07591703534 -0.1748562306 3.567904875e-39
0.1944580823 0.07438400388 -0.07579304278 3.567904875e-39
0.1290309578 -0.05311146379 0.107122235 3.567904875e-39
0.1317880452 0.07432577759 -0.0267306082 3.567904875e-39
0.2573469579 0.03923404962 -0.2251943946 3.567904875e-39
0.3685358465 -0.03701648861 -0.2381682992 3.567904875e-39
-0.03056164086 0.07588648796 0.0212594457 3.567904875e-39
-0.2439347208 -0.04463274777 -0.008797708899 3.567904875e-39
0.1537770182 -0.06596563756 0.1070991307 3.75229193e-39
-0.2080610245 -0.1212741584 0.05202308297 3.75229193e-39
-0.2289391756 0.02222747356 -0.2310046554 3.75229193e-39
-0.2416992933 0.04545615986 -0.1435241401 3.75229193e-39
-0.2198141515 -0.08318839967 0.02789631486 3.75229193e-39
-0.2235471755 -0.356808871 0.00905681774 3.75229193e-39
0.2079475224 0.06520992517 -0.2375813425 3.75229193e-39
-0.1843695492 -0.1969106346 0.07541035861 3.75229193e-39
0.3314112127 -0.0117779877 -0.2255548984 3.936320254e-39
-0.2082349062 -0.1337235868 0.05173188448 3.936320254e-39
-0.1727790534 -0.2593602836 0.07408841699 3.936320254e-39
-0.1658625156 0.08319538087 -0.2164452523 3.936320254e-39
0.2326009572 0.05208822712 -0.2251712978 3.936320254e-39
-0.199426651 -0.3953644931 0.04575078189 3.936320254e-39
-0.1859233379 -0.3208701313 0.04763201624 3.936320254e-39
0.3684432805 -0.03728400543 -0.2257351428 3.936320254e-39
0.2696330845 0.02658217959 -0.2253515422 4.120708711e-39
0.1193280965 0.07452814281 -0.02686465532 4.120708711e-39
0.2079362869 0.07712432742 -0.2124238163 4.120708711e-39
-0.1296859533 0.0791105479 -0.05441195145 4.120708711e-39
-0.2484558672 -0.3683185279 -0.01636884175 4.120708711e-39
0.1046439633 -0.02727277577 0.082570225 4.120708711e-39
0.3066651523 0.001076191897 -0.2255318016 4.120708711e-39
-0.178659007 0.04658446088 -0.2423192263 4.120708711e-39
-0.185146451 -0.2588903904 0.06152115762 4.304737034e-39
0.1544024795 -0.04026417434 0.07038200647 4.304737034e-39
-0.219547689 -0.07047140598 0.01575436071 4.304737034e-39
0.01927820779 0.07507701218 0.02179563791 4.304737034e-39
-0.1659438312 0.07101345807 -0.2291696221 4.304737034e-39
-0.1173185408 0.07864065468 -0.04184474796 4.304737034e-39
-0.1659550816 0.08292786777 -0.2040120959 4.304737034e-39
-0.2419657558 0.03273914009 -0.1313821822 4.304737034e-39
0.05675061792 0.07473742962 0.009764567018 4.48912409e-39
0.2198408544 0.07531685382 -0.1376907825 4.48912409e-39
0.1694456339 0.07452122122 -0.0636279881 4.48912409e-39
0.2942977548 0.001546077547 -0.2380989939 4.48912409e-39
0.2325196564 0.03990630433 -0.2378956527 4.48912409e-39
-0.1988937408 -0.3699305952 0.02146686986 4.48912409e-39
0.09431564063 0.07466536015 -0.01469959691 4.48912409e-39
0.3807293177 -0.04993584752 -0.2258923054 4.48912409e-39
-0.08021636307 0.07723099738 -0.004143112339 4.673152414e-39
-0.2165605426 0.009843180887 -0.2435949594 4.673152414e-39
-0.1736372858 -0.3335219622 0.0474748686 4.673152414e-39
0.1820906997 0.07485388964 -0.08836025 4.673152414e-39
-0.1624983251 -0.4092236161 0.08316124976 4.673152414e-39
0.2072883397 0.07525170594 -0.1253916621 4.673152414e-39
-0.2291130722 0.009778032079 -0.2312958539 4.673152414e-39
-0.2416880578 0.03354169428 -0.1686816812 4.673152414e-39
-0.1699855775 -0.07208343595 0.05359001458 4.857539469e-39
0.1288570613 -0.06556089967 0.1068310365 4.857539469e-39
-0.19768776 -0.2708699703 0.04866275936 4.857539469e-39
0.269551754 0.01440025587 -0.2380758971 4.857539469e-39
0.1171964705 -0.02720762603 0.07027105987 4.857539469e-39
-0.159542188 -0.1975828856 0.08811160922 4.857539469e-39
-0.1855755597 -0.2959712446 0.04821441323 4.857539469e-39
-0.1295934021 0.07937806845 -0.0668451339 4.857539469e-39
-0.2230255008 -0.3194604814 0.009930411354 5.041567793e-39
-0.1957749575 -0.1339259595 0.05186592788 5.041567793e-39
0.3065838218 -0.01110573206 -0.2382561415 5.041567793e-39
0.04429066926 0.07493980229 0.009630519897 5.041567793e-39
-0.2190147936 -0.04503748566 -0.008529612795 5.041567793e-39
-0.2486297637 -0.3807679713 -0.01666004024 5.041567793e-39
-0.2479342073 -0.3309701681 -0.01549525 5.041567793e-39
-0.1973399669 -0.2459710538 0.04924515635 5.041567793e-39
-0.1708662659 -0.1224162951 0.07729159296 5.225597518e-39
-0.1728603989 -0.2715422511 0.06136400998 5.225597518e-39
-0.2422322035 0.02002218179 -0.119240202 5.225597518e-39
-0.2109133452 -0.3445617557 0.009482063353 5.225597518e-39
-0.1740663797 -0.3706028163 0.03416812047 5.225597518e-39
-0.1661177278 0.05856401846 -0.2294608206 5.225597518e-39
0.1821832657 0.07512141019 -0.1007934287 5.225597518e-39
-0.2197215855 -0.08292087913 0.01546316221 5.225597518e-39
-0.1971660852 -0.2335216105 0.04953634739 5.409984573e-39
0.2076585889 0.07632177323 -0.1751243174 5.409984573e-39
-0.1615250856 -0.3586232662 0.04702652246 5.409984573e-39
0.2324270904 0.03963878751 -0.2254624963 5.409984573e-39
-0.1961227357 -0.158824876 0.05128353834 5.409984573e-39
0.281837821 0.00174844556 -0.2382330447 5.409984573e-39
0.3682693839 -0.04973347858 -0.2260263413 5.409984573e-39
-0.05529643595 0.07682625949 -0.003875017166 5.409984573e-39
-0.2353929281 -0.318990618 -0.002636850812 5.594012897e-39
0.2075660378 0.07605426013 -0.162691161 5.594012897e-39
-0.2166530937 0.009575664066 -0.231161803 5.594012897e-39
-0.2236285061 -0.3689908087 -0.003667592071 5.594012897e-39
0.2074734718 0.07578673959 -0.1502579749 5.594012897e-39
0.3064912558 -0.01137324981 -0.2258230001 5.594012897e-39
-0.1964705288 -0.1837237924 0.05070114136 5.594012897e-39
0.2570917606 0.01460262481 -0.2382099479 5.594012897e-39
-0.2421396375 0.02028969862 -0.1316733807 5.77804122e-39
-0.170159474 -0.08453290164 0.05329881608 5.77804122e-39
0.1830275655 0.06561466306 -0.2378494442 5.77804122e-39
-0.2084901184 -0.1583549827 0.03871633485 5.77804122e-39
-0.04283649102 0.07662389427 -0.003740969114 5.77804122e-39
0.4053014815 -0.07523946464 -0.2262066007 5.77804122e-39
0.2076810747 0.05249296501 -0.2254393846 5.77804122e-39
-0.0924911797 0.0779684037 -0.02914346755 5.77804122e-39
0.3929341137 -0.07476957887 -0.238773793 5.962428276e-39
0.07919115573 -0.05230198801 0.1065860391 5.962428276e-39
-0.2352190316 -0.3065411747 -0.002345653251 5.962428276e-39
0.1445257366 0.07492595911 -0.06389608234 5.962428276e-39
-0.1829672009 -0.1092294529 0.05258237571 5.962428276e-39
-0.1611773074 -0.3337243497 0.04760891199 5.962428276e-39
-0.1731156111 -0.2961736321 0.04834845662 5.962428276e-39
0.3681880534 -0.06191539764 -0.2387506962 5.962428276e-39
0.1069607139 0.07499802858 -0.03943188488 6.1464566e-39
-0.1789254546 0.03386744112 -0.2301772684 6.1464566e-39
0.1172890365 -0.02694010735 0.0578379035 6.1464566e-39
0.1697233319 0.07532377541 -0.1009274796 6.1464566e-39
-0.1915593147 0.02162036858 -0.2306025177 6.1464566e-39
-0.1294082701 0.07991310209 -0.09171143919 6.1464566e-39
0.006910761818 0.0755469054 0.009228376672 6.1464566e-39
-0.1831410974 -0.1216788962 0.05229117721 6.1464566e-39
0.2693778574 0.001950814039 -0.2383670956 6.330484923e-39
0.06939569116 0.07507009804 -0.01496769302 6.330484923e-39
-0.1584062874 -0.1226186603 0.07742563635 6.330484923e-39
-0.1537727863 0.08192294091 -0.1665785462 6.330484923e-39
0.1951060295 0.0762566328 -0.1628252119 6.330484923e-39
-0.2361698151 -0.380970329 -0.01652599126 6.330484923e-39
0.2569991946 0.01433510706 -0.2257767916 6.330484923e-39
-0.05520387739 0.07709378004 -0.01630817167 6.330484923e-39
-0.2042745054 -0.002808628604 -0.243752107 6.514514648e-39
-0.1663729548 0.03393259272 -0.2424763739 6.514514648e-39
-0.2318225503 -0.06973400712 -0.009246055037 6.514514648e-39
-0.1834888756 -0.1465778053 0.05170878023 6.514514648e-39
0.1950134635 0.07598911226 -0.1503920257 6.514514648e-39
-0.0800312385 0.07776603848 -0.02900942042 6.514514648e-39
-0.1982795149 -0.3323146999 0.009907308966 6.514514648e-39
-0.1843583286 -0.2088250667 0.05025279522 6.514514648e-39
-0.1836627573 -0.1590272337 0.05141758174 6.698542971e-39
-0.1978504062 -0.2952338755 0.02321405709 6.698542971e-39
0.2322531939 0.02718928456 -0.2257536948 6.698542971e-39
-0.2200693637 -0.1078197882 0.01488076895 6.698542971e-39
0.1952210665 0.05269533396 -0.2255734354 6.698542971e-39
-0.184184432 -0.1963755935 0.05054399371 6.698542971e-39
-0.2231881618 -0.3438243568 -0.01551835146 6.698542971e-39
-0.1409425884 0.08279064298 -0.2161771506 6.698542971e-39
-0.1817274988 -0.04591210559 0.004305684939 6.882571295e-39
-0.1861673146 -0.3574159741 0.009458960965 6.882571295e-39
-0.2450706363 -0.1195969731 0.001888260245 6.882571295e-39
-0.1981056184 -0.3198652267 0.01019850746 6.882571295e-39
0.182831198 0.07699403167 -0.1878256053 6.882571295e-39
0.1828536689 0.05316521972 -0.2381406426 6.882571295e-39
0.1447108686 0.07546099275 -0.08876238763 6.882571295e-39
-0.1948017031 -0.08332561702 0.01573125646 6.882571295e-39
-0.1790993363 0.02141799964 -0.2304684669 7.066599618e-39
-0.1917332113 0.009170927107 -0.2308937162 7.066599618e-39
-0.166465506 0.0336650759 -0.2300432175 7.066599618e-39
-0.1730230451 -0.2959061265 0.03591530398 7.066599618e-39
-0.03028395027 0.07668904215 -0.01604007557 7.066599618e-39
-0.1283900738 0.0828557983 -0.2284762859 7.066599618e-39
-0.1538316309 0.04591220617 -0.2296179682 7.066599618e-39
-0.1722461581 -0.2339263558 0.04980444908 7.066599618e-39
-0.2100438923 -0.2823145092 0.01093805209 7.250627941e-39
-0.1705072522 -0.1094318181 0.0527164191 7.250627941e-39
-0.2324367911 -0.1073499024 0.002313505858 7.250627941e-39
0.04447579384 0.07547483593 -0.01523578819 7.250627941e-39
-0.197502628 -0.270334959 0.02379645035 7.250627941e-39
0.1704638302 0.07746391743 -0.2003927976 7.250627941e-39
-0.1791806817 0.009236075915 -0.2431928217 7.250627941e-39
-0.1720722616 -0.2214768827 0.05009564757 7.250627941e-39
-0.2113424689 -0.3816426098 -0.00382474158 7.434656265e-39
0.3062360585 -0.03600464761 -0.2388385385 7.434656265e-39
-0.104580909 0.07924084365 -0.07901018858 7.434656265e-39
-0.06747872382 0.07783118635 -0.04130855948 7.434656265e-39
-0.2326106876 -0.1197993457 0.002022309229 7.434656265e-39
-0.2224112749 -0.2818446159 -0.001629209146 7.434656265e-39
0.3926676512 -0.08748657256 -0.22663185 7.434656265e-39
-0.1708550304 -0.1343306899 0.05213402957 7.434656265e-39
0.3308895528 -0.04912637174 -0.2264284939 7.618684588e-39
-0.2107282281 -0.3440267146 -0.01538430341 7.618684588e-39
0.107145831 0.07553306967 -0.06429822743 7.618684588e-39
-0.1717244834 -0.1965779662 0.05067803711 7.618684588e-39
-0.1712028086 -0.1592296064 0.05155163258 7.618684588e-39
0.1703712642 0.07719639689 -0.1879596412 7.618684588e-39
-0.1576069295 -0.08446775377 0.04099971056 7.618684588e-39
-0.1957637221 -0.1458403915 0.02670842409 7.618684588e-39
-0.2209388167 -0.170067057 0.01342478022 7.802712912e-39
0.1049216539 -0.02647022158 0.04527070373 7.802712912e-39
0.3555542231 -0.07416247576 -0.2391759455 7.802712912e-39
0.2320792973 0.01473984309 -0.2260448933 7.802712912e-39
0.3925863504 -0.09966848791 -0.23935619 7.802712912e-39
0.1457290649 0.07840368897 -0.2255272269 7.802712912e-39
-0.1865150928 -0.3823148608 0.008876567706 7.802712912e-39
-0.1285752058 0.08232076466 -0.2036099434 7.802712912e-39
-0.1959376037 -0.1582898349 0.02641722932 7.986382503e-39
-0.1666393876 0.02121563256 -0.230334416 7.986382503e-39
-0.104488343 0.0795083642 -0.09144334495 7.986382503e-39
-0.2046222836 -0.02770754136 -0.244334504 7.986382503e-39
-0.1733595878 -0.3327194154 0.01017540507 7.986382503e-39
-0.1286677718 0.08205324411 -0.1911768019 7.986382503e-39
-0.1580472738 -0.1096341908 0.05285046995 7.986382503e-39
0.158015132 0.06575188041 -0.2256843895 7.986382503e-39
-0.1167631596 0.08024576306 -0.1164437309 8.170410826e-39
0.2567439675 -0.01029625814 -0.2387923449 8.170410826e-39
0.141420871 -0.07741015404 0.06937436759 8.170410826e-39
-0.129038021 0.08098316938 -0.1414441168 8.170410826e-39
-0.2081311047 -0.1453705132 0.01414122432 8.170410826e-39
-0.128945455 0.08125068992 -0.1538772732 8.170410826e-39
-0.166720733 0.009033707902 -0.2430587709 8.170410826e-39
-0.01773144118 0.07675419748 -0.0283391811 8.170410826e-39
-0.1721535921 -0.2336588353 0.03737129271 8.35443915e-39
0.3184295297 -0.0489240028 -0.2265625447 8.35443915e-39
-0.1982682794 -0.3442291021 -0.01525025535 8.35443915e-39
0.1579113156 0.07739876956 -0.1880936921 8.35443915e-39
-0.2489775419 -0.4056668878 -0.01724243537 8.35443915e-39
0.3430942595 -0.07396010309 -0.2393099964 8.35443915e-39
-0.2342570126 -0.2440263629 -0.01332282089 8.35443915e-39
0.3060621619 -0.04845411703 -0.239129737 8.35443915e-39
-0.1288191825 0.0457749851 -0.2417830378 8.538467473e-39
0.2196193635 0.01494221203 -0.2261789292 8.538467473e-39
-0.1568075716 -0.04631684348 0.004573781043 8.538467473e-39
0.3307156563 -0.06157581508 -0.2267196923 8.538467473e-39
-0.2325181216 -0.1195318326 -0.01041084528 8.538467473e-39
-0.2424424738 -0.05226686969 -0.2328858823 8.538467473e-39
-0.2425238043 -0.06444878876 -0.2456102371 8.538467473e-39
-0.1711102426 -0.1589620858 0.03911847621 8.538467473e-39
0.1542398334 -0.06462804973 0.04493330419 8.722137064e-39
-0.1161152199 0.08211839199 -0.2034759074 8.722137064e-39
-0.1954972595 -0.1331234127 0.01456646994 8.722137064e-39
-0.2088266611 -0.1951683164 0.01297643408 8.722137064e-39
0.1545062959 -0.05191108957 0.03279134259 8.722137064e-39
-0.1740551442 -0.3825172186 0.009010614827 8.722137064e-39
0.2566514015 -0.0105637759 -0.2263591886 8.722137064e-39
0.1576336324 0.07659621537 -0.1507941782 8.722137064e-39
0.08222594112 0.07593780011 -0.06456632167 8.906165387e-39
0.1702198535 0.04091814533 -0.238565892 8.906165387e-39
-0.1034701541 0.08245106041 -0.2282081842 8.906165387e-39
0.375605166 -0.4231519699 -0.2470613718 8.906165387e-39
-0.0176388789 0.07702171057 -0.04077236354 8.906165387e-39
0.1455439329 0.07786865532 -0.2006608993 8.906165387e-39
0.1455551833 0.06595425308 -0.2258184254 8.906165387e-39
-0.1734409183 -0.3449013531 -0.002549006604 8.906165387e-39
0.3676663935 -0.09926375747 -0.2396242917 9.089834978e-39
0.04466091841 0.07600986958 -0.04010212421 9.089834978e-39
0.3759529591 -0.3982530534 -0.2464789897 9.089834978e-39
-0.157247901 -0.07148324698 0.01642460003 9.089834978e-39
-0.1542607546 0.008831339888 -0.24292472 9.089834978e-39
-0.1974913925 -0.2822493613 -0.001361114904 9.089834978e-39
0.1454513669 0.07760113478 -0.1882277429 9.089834978e-39
-0.174854517 -0.420668155 0.0454364866 9.089834978e-39
-0.03000626341 0.07749159634 -0.05333956704 9.273863302e-39
0.06700884551 -0.05129706487 0.0691524744 9.273863302e-39
0.2195380181 0.00276028784 -0.2389032841 9.273863302e-39
-0.1596936136 -0.2338611931 0.03750533983 9.273863302e-39
0.2689374983 -0.02321561798 -0.2265163362 9.273863302e-39
-0.2181929648 -0.03071538731 -0.09527055174 9.273863302e-39
0.2071594149 0.01514458004 -0.2263129801 9.273863302e-39
-0.06720103323 0.07863374054 -0.07860805094 9.273863302e-39
0.1420463473 -0.05170872435 0.03265729547 9.457532893e-39
0.256570071 -0.02274573036 -0.2390835434 9.457532893e-39
0.3429203629 -0.08640957624 -0.2396011949 9.457532893e-39
-0.1737886965 -0.3698002696 -0.003131401725 9.457532893e-39
-0.1967144907 -0.2202695906 0.01252808608 9.457532893e-39
0.1454738379 0.05377232283 -0.2385427803 9.457532893e-39
-0.1162778735 0.05775454268 -0.2289246321 9.457532893e-39
-0.2426163554 -0.06471630931 -0.2331770808 9.457532893e-39
-0.1163592041 0.04557261989 -0.2416489869 9.641561216e-39
-0.192254886 -0.02817742899 -0.2317672968 9.641561216e-39
0.3923198879 -0.1123854816 -0.2272142321 9.641561216e-39
-0.196540609 -0.2078201473 0.01281928271 9.641561216e-39
0.04475348443 0.07627739012 -0.05253528059 9.641561216e-39
-0.1036440432 0.07000161707 -0.2284993827 9.641561216e-39
0.244191438 -0.01036140881 -0.2264932394 9.641561216e-39
-0.1586502641 -0.1591644585 0.03925252706 9.641561216e-39
-0.1605518162 -0.3080228865 0.01089184731 9.825230807e-39
-0.2176038772 -0.06485352665 -0.2453421503 9.825230807e-39
-0.1700556725 -0.09617979079 0.01570815593 9.825230807e-39
0.2318240702 -0.009891522117 -0.2390604317 9.825230807e-39
0.4046059251 -0.1250372827 -0.2273713946 9.825230807e-39
-0.1041180938 0.08057843149 -0.1411760151 9.825230807e-39
0.05730599165 0.076342538 -0.06483441591 9.825230807e-39
-0.1039329693 0.08111347258 -0.1660423577 9.825230807e-39
-0.1710176766 -0.1586945653 0.02668532357 1.000925913e-38
0.3428277969 -0.08667709678 -0.2271680385 1.000925913e-38
0.03229353577 0.07647975534 -0.05266932771 1.000925913e-38
-0.1574217975 -0.08393272012 0.01613340154 1.000925913e-38
-0.06710847467 0.07890126109 -0.09104119986 1.000925913e-38
-0.2301564068 -0.06491868198 -0.2330430448 1.000925913e-38
0.3798598647 -0.1121831164 -0.2273482829 1.000925913e-38
-0.2048999667 -0.02851009555 -0.20703502 1.000925913e-38
-0.1615951657 -0.3827196062 0.009144663811 1.019292872e-38
-0.1954047084 -0.1328558922 0.002133253962 1.019292872e-38
-0.2089080065 -0.207350269 0.0002520214766 1.019292872e-38
-0.1973988265 -0.2819818258 -0.01379426848 1.019292872e-38
0.4043507278 -0.1496686786 -0.2403869331 1.019292872e-38
-0.192347452 -0.02844494767 -0.2193341255 1.019292872e-38
0.2441101074 -0.02254336141 -0.2392175794 1.019292872e-38
0.04484604299 0.07654491067 -0.06496846676 1.019292872e-38
-0.1165330932 0.03312311694 -0.2419401854 1.037659831e-38
-0.1840806305 -0.2080225199 0.01295333169 1.037659831e-38
0.1576673537 0.04085299745 -0.2262667716 1.037659831e-38
-0.09119530022 0.0817136541 -0.2032078058 1.037659831e-38
-0.07863155752 0.06986439973 -0.2406644523 1.037659831e-38
-0.2430454791 -0.1017971784 -0.2464838326 1.037659831e-38
-0.1702295542 -0.1086292639 0.01541695744 1.037659831e-38
0.1823320091 0.01581683569 -0.2390142381 1.037659831e-38
-0.06701590866 0.07916878164 -0.103474386 1.056062664e-38
-0.1038992628 0.04537025094 -0.2415149361 1.056062664e-38
-0.1689898521 -0.04531192407 -0.03285973147 1.056062664e-38
-0.1566224396 -0.04578180984 -0.02029252797 1.056062664e-38
-0.09156554937 0.08064357936 -0.1534751356 1.056062664e-38
-0.09147299081 0.08091109991 -0.1659083068 1.056062664e-38
-0.160204038 -0.28312397 0.01147424243 1.056062664e-38
-0.1613287181 -0.3700026572 -0.002997353673 1.056062664e-38
0.2193641216 -0.009689155035 -0.2391944826 1.074429623e-38
-0.205640465 -0.03065023944 -0.1075696871 1.074429623e-38
-0.1545272022 -0.003885620274 -0.2307827622 1.074429623e-38
-0.1418933719 0.00836145319 -0.2303575128 1.074429623e-38
0.1699534059 0.02820112742 -0.2264239341 1.074429623e-38
-0.1798762381 -0.04056175053 -0.2443576008 1.074429623e-38
0.2563962042 -0.03519517183 -0.2393747419 1.074429623e-38
0.117392838 -0.0385869965 0.02024724334 1.074429623e-38
-0.07929073274 0.0799061805 -0.128474772 1.092796582e-38
-0.04218855128 0.0784965232 -0.09077310562 1.092796582e-38
-0.2304116488 -0.08955007046 -0.2460585833 1.092796582e-38
-0.1292595267 0.02060852759 -0.2299322784 1.092796582e-38
-0.1932730824 -0.0311201252 -0.0950024575 1.092796582e-38
0.07938751578 -0.06368135661 0.05656217039 1.092796582e-38
-0.1705773324 -0.1335281432 0.01483456418 1.092796582e-38
0.2440175414 -0.02281088009 -0.2267844379 1.092796582e-38
0.01992615126 0.07694964111 -0.065236561 1.111163541e-38
0.2810496986 -0.04831689969 -0.2269646823 1.111163541e-38
-0.05455593765 0.07896640897 -0.1033403426 1.111163541e-38
0.3510330915 -0.3978483081 -0.2467470765 1.111163541e-38
-0.2433932573 -0.1266960502 -0.2470662296 1.111163541e-38
0.3426539302 -0.09912654012 -0.227459237 1.111163541e-38
-0.1672424078 -0.0283146482 -0.2439323664 1.111163541e-38
-0.1166256592 0.03285560012 -0.2295070291 1.111163541e-38
-0.1717945635 -0.220674336 0.01279618219 1.1295305e-38
0.3762081563 -0.3736216426 -0.2334634364 1.1295305e-38
0.044938609 0.07681242377 -0.07740162313 1.1295305e-38
-0.2305855304 -0.1019995436 -0.2463497818 1.1295305e-38
-0.2059069127 -0.0433672294 -0.09542770684 1.1295305e-38
-0.1688972861 -0.04504440352 -0.04529291391 1.1295305e-38
-0.2104505301 -0.3432241678 -0.05268379673 1.1295305e-38
-0.1716206819 -0.2082248926 0.01308737881 1.1295305e-38
0.07992043346 -0.03824741021 0.03227825463 1.147897319e-38
-0.07880544662 0.05741495639 -0.2409556508 1.147897319e-38
0.2933357358 -0.06096871197 -0.22712183 1.147897319e-38
-0.04107779264 0.08170673996 -0.2399711013 1.147897319e-38
-0.1596823633 -0.2457756102 0.01234783418 1.147897319e-38
-0.1973062605 -0.2817143202 -0.02622742206 1.147897319e-38
0.1049328893 -0.03838462755 0.02011319622 1.147897319e-38
-0.1953121424 -0.1325883716 -0.01029989962 1.147897319e-38
0.2563036382 -0.03546268865 -0.2269415855 1.166264278e-38
-0.1565298736 -0.04551429302 -0.03272568434 1.166264278e-38
-0.218540743 -0.05561430007 -0.09585294873 1.166264278e-38
-0.2177889943 -0.06538856775 -0.2204758078 1.166264278e-38
-0.1577695757 -0.1088316366 0.01555100828 1.166264278e-38
-0.2106244266 -0.355673641 -0.05297499523 1.166264278e-38
0.3548586667 -0.1239602938 -0.2403407395 1.166264278e-38
0.350766629 -0.4105652571 -0.2346051186 1.166264278e-38
-0.1811721176 -0.04430700094 -0.07029329985 1.184631237e-38
-0.06618284434 0.08157643676 -0.2153728604 1.184631237e-38
-0.1420672536 -0.004087988287 -0.2306487113 1.184631237e-38
-0.1800501347 -0.05301119387 -0.2446487993 1.184631237e-38
-0.2218671292 -0.2683250904 -0.05107066035 1.184631237e-38
0.4040842652 -0.1623856425 -0.2282449752 1.184631237e-38
0.3627974689 -0.447848469 -0.2477778196 1.184631237e-38
-0.1294334233 0.008159085177 -0.2302234769 1.184631237e-38
-0.2434858084 -0.1269635707 -0.2346330732 1.202998196e-38
0.268589735 -0.04811453074 -0.2270987332 1.202998196e-38
-0.06626416743 0.06939451396 -0.2280972451 1.202998196e-38
-0.1581173539 -0.1337305158 0.0149686113 1.202998196e-38
-0.1836403012 -0.1828560829 0.001102512702 1.202998196e-38
-0.02861781605 0.08150436729 -0.2398370653 1.202998196e-38
-0.1295147389 -0.004022839479 -0.2429478168 1.202998196e-38
0.3637482226 -0.3734192848 -0.2335974872 1.202998196e-38
-0.05372286588 0.08137406409 -0.2152388096 1.221365155e-38
0.3178265393 -0.09845428169 -0.2401604801 1.221365155e-38
0.0794800818 -0.06341383606 0.04412901402 1.221365155e-38
-0.1564373076 -0.04524677247 -0.04515886679 1.221365155e-38
-0.1856231689 -0.3438964486 -0.03998251632 1.221365155e-38
0.3546847701 -0.1364097297 -0.240631938 1.221365155e-38
-0.2182994485 -0.1146513522 -0.2465069294 1.221365155e-38
0.3511144221 -0.3856663406 -0.2340227216 1.221365155e-38
0.3547661006 -0.1242278144 -0.2279075831 1.239732115e-38
-0.05390799046 0.08083903044 -0.1903725117 1.239732115e-38
0.3423987031 -0.1237579361 -0.2404747754 1.239732115e-38
0.3916243315 -0.1621832699 -0.2283790261 1.239732115e-38
-0.1704847813 -0.1332606226 0.002401350066 1.239732115e-38
-0.05400055647 0.0805715099 -0.1779393256 1.239732115e-38
-0.2308519781 -0.1147165075 -0.2342078239 1.239732115e-38
-0.2444366068 -0.2013927847 -0.2488134056 1.239732115e-38
0.3913691044 -0.1868146658 -0.2413945794 1.258099074e-38
-0.207586959 -0.1318509579 -0.03530025482 1.258099074e-38
-0.04125168175 0.06925729662 -0.2402622998 1.258099074e-38
