# .PCD v0.7 - Point Cloud Data file format
VERSION 0.7
FIELDS x y z rgb
SIZE 4 4 4 4
TYPE F F F F
COUNT 1 1 1 1
WIDTH 829
HEIGHT 1
VIEWPOINT 0 0 0 1 0 0 0
POINTS 829
DATA ascii
-0.06794060767 -0.264757663 -0.07124407589 1.038530038e-38
-0.1191828623 -0.1718879342 -0.1748690158 1.038530038e-38
-0.05493966863 -0.2654595971 -0.06078762189 1.038530038e-38
-0.1049326211 -0.18175897 -0.1623265892 1.038530038e-38
-0.06904193759 -0.2627156377 -0.145403415 1.038530038e-38
-0.07111679018 -0.2449348271 -0.08679772913 1.038530038e-38
-0.06450995803 -0.3108647168 -0.1270185709 1.038530038e-38
-0.06215999648 -0.2967188358 -0.03084106743 1.038530038e-38
-0.06736883521 -0.272442162 -0.08053983748 1.020306431e-38
-0.05369034782 -0.2746286988 -0.05870166048 1.020306431e-38
-0.1431520879 -0.1749379337 -0.1616368294 1.020306431e-38
-0.05333011225 -0.2947130203 -0.1093523055 1.020306431e-38
-0.09186761826 -0.2811346352 -0.150762707 1.020306431e-38
-0.05447367206 -0.2793439925 -0.09076081216 1.020306431e-38
-0.026672557 -0.2122546732 -0.1709158868 1.020306431e-38
-0.05436789617 -0.2731440961 -0.07008335739 1.020306431e-38
-0.0550673008 -0.1863126904 -0.1753232926 1.002046952e-38
-0.05176347867 -0.285282433 -0.04523396865 1.002046952e-38
-0.06072028354 -0.2334984243 -0.1011906266 1.002046952e-38
-0.06796176732 -0.2047678977 -0.1850345135 1.002046952e-38
-0.0628375411 -0.2952342331 -0.04222276434 1.002046952e-38
-0.09453608841 -0.1703225523 -0.1767195016 1.002046952e-38
-0.07033348083 -0.2402195334 -0.05473854393 1.002046952e-38
-0.03831841052 -0.2145219743 -0.1586089432 1.002046952e-38
-0.1469635069 -0.2736100256 0.03900871426 9.837874723e-39
-0.0655477345 -0.2892957926 -0.08774961531 9.837874723e-39
-0.07236611843 -0.2357656956 -0.08888369054 9.837874723e-39
-0.05733254179 -0.2409214675 -0.04428208619 9.837874723e-39
-0.1489961445 -0.2691561878 0.004863565322 9.837874723e-39
-0.1462859511 -0.2750946283 0.05039041117 9.837874723e-39
-0.1450789571 -0.1642841846 -0.175104484 9.837874723e-39
-0.07101102173 -0.2387349308 -0.06612026691 9.837874723e-39
-0.1435757577 -0.2810330689 0.09591726214 9.655279928e-39
-0.0635150969 -0.2937496305 -0.05360449106 9.655279928e-39
-0.1436815262 -0.2872329354 0.07523977011 9.655279928e-39
-0.05322434381 -0.288513124 -0.08867485821 9.655279928e-39
-0.0526525639 -0.2961976528 -0.09797059 9.655279928e-39
-0.1327555776 -0.1635014862 -0.1760297269 9.655279928e-39
-0.144359082 -0.2857483327 0.06385807693 9.655279928e-39
-0.07168857753 -0.2372503281 -0.07750196755 9.655279928e-39
-0.1457141787 -0.2827791274 0.04109467566 9.472685133e-39
-0.07960760593 -0.2070352137 -0.172727555 9.472685133e-39
-0.06497596204 -0.2969803214 -0.09704534709 9.472685133e-39
-0.04274392873 -0.185529992 -0.1762485355 9.472685133e-39
-0.05119169876 -0.2929669321 -0.05452973396 9.472685133e-39
-0.07497054338 -0.2236273587 -0.1137330532 9.472685133e-39
-0.1152650639 -0.2918691635 -0.1468262523 9.472685133e-39
-0.1204321831 -0.1627188027 -0.1769549698 9.472685133e-39
-0.1428982168 -0.2825176716 0.1072989553 9.290090338e-39
-0.1346401125 -0.2728273273 0.03808347136 9.290090338e-39
-0.05936518684 -0.2364676297 -0.07842721045 9.290090338e-39
-0.06315486133 -0.3138339221 -0.1042551547 9.290090338e-39
-0.1467519552 -0.2612102032 0.0803636387 9.290090338e-39
-0.147429496 -0.2597256005 0.06898188591 9.290090338e-39
-0.05186924711 -0.2914823294 -0.06591142714 9.290090338e-39
-0.045072712 -0.259665668 -0.1586356014 9.290090338e-39
-0.06372663379 -0.3061494529 -0.09495938569 9.107495543e-39
-0.06196961179 -0.2243292928 -0.1032765955 9.107495543e-39
-0.142220661 -0.2840023041 0.118680656 9.107495543e-39
-0.06988934427 -0.1687571555 -0.1785699725 9.107495543e-39
-0.04926482961 -0.3036206961 -0.04106204212 9.107495543e-39
-0.07158280909 -0.2310504019 -0.05682450533 9.107495543e-39
-0.1415431201 -0.285486877 0.1300623566 9.107495543e-39
-0.05858187005 -0.231752336 -0.04636805132 9.107495543e-39
-0.07226034999 -0.2295657992 -0.06820623577 8.924899347e-39
-0.1427924484 -0.2763177752 0.1279763877 8.924899347e-39
-0.04733796045 -0.3142744005 -0.02759438381 8.924899347e-39
-0.06247731671 -0.3153185546 -0.09287342429 8.924899347e-39
-0.05129747465 -0.2991668582 -0.07520718873 8.924899347e-39
-0.1402937919 -0.2946559787 0.1321483105 8.924899347e-39
-0.1052704826 -0.3652220666 -0.1301385462 8.924899347e-39
-0.07757495344 -0.2114890218 -0.1385824382 8.924899347e-39
-0.09061829001 -0.2903037667 -0.1486767381 8.742304551e-39
-0.1401880234 -0.2884561419 0.1528258026 8.742304551e-39
-0.1451424062 -0.2904636264 0.03179891407 8.742304551e-39
-0.1318241358 -0.2725658417 0.104287751 8.742304551e-39
-0.04206638038 -0.1870146096 -0.1648668349 8.742304551e-39
-0.1444648504 -0.2919482589 0.04318064079 8.742304551e-39
-0.1364611983 -0.2559736967 0.04529324174 8.742304551e-39
-0.137816295 -0.2530044913 0.02252981812 8.742304551e-39
-0.05025969073 -0.3207357526 -0.1144761294 8.560068489e-39
-0.07886666059 -0.2818365693 -0.1403062493 8.560068489e-39
-0.1371387541 -0.254489094 0.03391154483 8.560068489e-39
-0.1389386952 -0.2976252437 0.1549117714 8.560068489e-39
-0.121681504 -0.153549701 -0.1790409386 8.560068489e-39
-0.04869305715 -0.3113051653 -0.05035780743 8.560068489e-39
-0.1513890028 -0.2446180582 0.02136909962 8.560068489e-39
-0.07113867253 -0.1595880389 -0.1806559414 8.560068489e-39
-0.1459686309 -0.2564949393 0.1124227718 8.377473694e-39
-0.07621985674 -0.214458257 -0.1158190072 8.377473694e-39
-0.04524257034 -0.1671917737 -0.1804204583 8.377473694e-39
-0.04331570491 -0.1778455079 -0.1669528037 8.377473694e-39
-0.06044467911 -0.3197723627 -0.05872830376 8.377473694e-39
-0.01060121693 -0.2389793247 -0.1655832529 8.377473694e-39
-0.02849365585 -0.1954010427 -0.1637061238 8.377473694e-39
-0.127864629 -0.2876734138 0.1519005597 8.377473694e-39
-0.03166985139 -0.1755781919 -0.1792597473 8.194878899e-39
-0.06118628755 -0.2196139991 -0.07121743262 8.194878899e-39
-0.1492505968 -0.2428719848 0.07619170845 8.194878899e-39
-0.1394046992 -0.2837408185 0.1848849356 8.194878899e-39
-0.1499281377 -0.2413873672 0.06480995566 8.194878899e-39
-0.1350003332 -0.2527430058 0.08873412758 8.194878899e-39
-0.1294312626 -0.297104001 0.08778224885 8.194878899e-39
-0.07046112418 -0.1610726416 -0.1692742407 8.194878899e-39
-0.1271870732 -0.2891580462 0.1632822603 8.012284103e-39
-0.1348734051 -0.3065328896 0.223202005 8.012284103e-39
-0.02099771984 -0.2504157424 -0.1511903405 8.012284103e-39
-0.1341958642 -0.3080174923 0.2345837057 8.012284103e-39
-0.0438233912 -0.2688347697 -0.1565496325 8.012284103e-39
-0.153315872 -0.233964324 0.007901437581 8.012284103e-39
-0.1539934278 -0.2324797064 -0.003480287502 8.012284103e-39
-0.1352542341 -0.1451632529 -0.1802016646 8.012284103e-39
-0.1287537217 -0.2985886335 0.09916394204 7.829687907e-39
-0.1329676956 -0.2571968436 0.122879222 7.829687907e-39
-0.1256615669 -0.3033055663 -0.1324333549 7.829687907e-39
-0.1086805835 -0.1542516053 -0.1685844809 7.829687907e-39
-0.1512832344 -0.238418147 0.04204655811 7.829687907e-39
-0.1366945058 -0.2896792591 0.2304117829 7.829687907e-39
-0.1472179443 -0.2473258078 0.1103368029 7.829687907e-39
-0.1390444785 -0.30382514 0.1342342794 7.829687907e-39
-0.1102677733 -0.3285456002 -0.1384824067 7.647093112e-39
-0.1290081739 -0.2723044157 0.1704920381 7.647093112e-39
-0.08312235028 -0.3453184664 -0.1361609697 7.647093112e-39
-0.131612584 -0.2601660788 0.145642668 7.647093112e-39
-0.08187302947 -0.3544875979 -0.1340750009 7.647093112e-39
-0.03099230304 -0.1770628095 -0.1678780466 7.647093112e-39
-0.06582334638 -0.2030218542 -0.1302119344 7.647093112e-39
-0.1379438341 -0.2805101275 0.228325814 7.647093112e-39
-0.0329191722 -0.1664090902 -0.1813457012 7.464498317e-39
-0.1309350431 -0.2616506815 0.1570243686 7.464498317e-39
-0.143893078 -0.2996327579 0.03388487175 7.464498317e-39
-0.06347218156 -0.332433641 -0.1662874967 7.464498317e-39
-0.1459257305 -0.29517892 -0.0002602483146 7.464498317e-39
-0.1498223692 -0.2351874709 0.08548744768 7.464498317e-39
-0.1335183084 -0.309502095 0.2459654063 7.464498317e-39
-0.1355721056 -0.2450585067 0.09802986681 7.464498317e-39
-0.1211949214 -0.3087193966 0.2450401634 7.281903522e-39
-0.1398707032 -0.2698564529 0.2148581594 7.281903522e-39
-0.1545652002 -0.2247952074 0.005815475713 7.281903522e-39
-0.0007764939219 -0.2198583931 -0.1706804186 7.281903522e-39
-0.1127664223 -0.3102073669 -0.1426543295 7.281903522e-39
-0.04822704569 -0.3251895905 -0.08033099771 7.281903522e-39
-0.1238404661 -0.3201591671 -0.1396431327 7.281903522e-39
-0.07533077896 -0.203543067 -0.06308238953 7.281903522e-39
-0.06910531223 -0.1893988848 -0.1664430201 7.099307325e-39
-0.1372662783 -0.28199476 0.2397075146 7.099307325e-39
-0.121913597 -0.3308129311 -0.1261754632 7.099307325e-39
-0.1484672725 -0.2381566912 0.1082508415 7.099307325e-39
-0.1115170941 -0.3193764985 -0.1405683607 7.099307325e-39
-0.1349791735 -0.3127328157 0.2025245726 7.099307325e-39
-0.1365035474 -0.1359941363 -0.1822876185 7.099307325e-39
-0.0847106725 -0.1765586287 -0.2017488629 7.099307325e-39
-0.1398277879 -0.3085404038 0.1021751463 6.91671253e-39
-0.08369412273 -0.3376339674 -0.1268652231 6.91671253e-39
-0.04754950479 -0.3266741931 -0.06894930452 6.91671253e-39
-0.0683003068 -0.3628740013 -0.1329142749 6.91671253e-39
-0.04687195644 -0.3281588256 -0.05756757781 6.91671253e-39
-0.06279464066 -0.3339182734 -0.1549057961 6.91671253e-39
-0.04257407039 -0.2780038714 -0.1544636786 6.91671253e-39
-0.1281819493 -0.3062731028 0.08986821026 6.91671253e-39
-0.1402091682 -0.2284663469 0.03903535381 6.734117735e-39
-0.0695496276 -0.3537048995 -0.1350002438 6.734117735e-39
-0.08007360995 -0.1931507885 -0.142754361 6.734117735e-39
-0.1144176573 -0.3858276308 -0.1136596799 6.734117735e-39
-0.08919911087 -0.391946733 -0.1248059049 6.734117735e-39
-0.06436248124 -0.1997911632 -0.08677105606 6.734117735e-39
-0.06707265973 -0.1938527226 -0.1322979033 6.734117735e-39
-0.07939606905 -0.1946353912 -0.1313726604 6.734117735e-39
-0.1219782457 -0.31343472 0.2129810303 6.55152294e-39
0.009048232809 -0.2007374614 -0.1757775843 6.55152294e-39
-0.1457570791 -0.2440951318 0.1537776887 6.55152294e-39
-0.1119190156 -0.4041658938 -0.1094877571 6.55152294e-39
-0.08794978261 -0.4011158645 -0.1227199435 6.55152294e-39
-0.1361438781 -0.2373740077 0.1073255986 6.55152294e-39
-0.07103218138 -0.1787451506 -0.1799106896 6.55152294e-39
-0.04979369417 -0.3346201777 -0.1444493234 6.55152294e-39
-0.04833282158 -0.3313894868 -0.1010084599 6.368926744e-39
0.007798908278 -0.1915683597 -0.1778635383 6.368926744e-39
-0.07804097235 -0.1976046264 -0.1086092293 6.368926744e-39
-0.1377951503 -0.3129942417 0.1363202333 6.368926744e-39
-0.1497166008 -0.2289875597 0.1061648801 6.368926744e-39
-0.1551369876 -0.2171106786 0.01511120796 6.368926744e-39
-0.0833555758 -0.179527849 -0.1789854318 6.368926744e-39
-0.03082247451 -0.269536674 -0.1460931748 6.368926744e-39
-0.1359111816 -0.2849639654 0.2624709606 6.186331949e-39
-0.1347887814 -0.240343228 0.1300890446 6.186331949e-39
-0.09953337908 -0.133646071 -0.1850633472 6.186331949e-39
-0.13341254 -0.3033022285 0.2666428685 6.186331949e-39
-0.1199456006 -0.3178885579 0.2471261173 6.186331949e-39
-0.06425669789 -0.1935912669 -0.06609359384 6.186331949e-39
-0.1394258589 -0.2237510532 0.07109454274 6.186331949e-39
-0.1439988613 -0.3058326244 0.01320741139 6.186331949e-39
-0.1406111121 -0.3132556677 0.07011596113 6.003737154e-39
-0.1235877946 -0.2841812968 0.2615457177 6.003737154e-39
-0.07137072086 -0.3368512988 -0.127790466 6.003737154e-39
0.002399701625 -0.2396812439 -0.1551267952 6.003737154e-39
-0.08596000075 -0.1673895121 -0.2038348317 6.003737154e-39
-0.06493423879 -0.1921066493 -0.07747532427 6.003737154e-39
-0.1357624978 -0.3174480796 0.1704653949 6.003737154e-39
-0.03541781753 -0.148070842 -0.1855176389 6.003737154e-39
-0.08977089077 -0.3842622638 -0.1155101657 5.820783626e-39
-0.1379009187 -0.3191941381 0.1156428009 5.820783626e-39
-0.1289652735 -0.3109883964 0.05780901387 5.820783626e-39
-0.126932621 -0.3154422343 0.09195416421 5.820783626e-39
-0.1320786029 -0.2462816685 0.1756158471 5.820783626e-39
0.009725781158 -0.2022220641 -0.1643958837 5.820783626e-39
-0.06899952888 -0.1831989884 -0.1457655728 5.820783626e-39
-0.06143954024 -0.3368874788 -0.1321423799 5.820783626e-39
-0.1247942075 -0.313696146 0.1467767507 5.63818743e-39
-0.07295905054 -0.1680914164 -0.193378374 5.63818743e-39
-0.04899054393 -0.1396844089 -0.18667835 5.63818743e-39
-0.006345560774 -0.1754974127 -0.1697285324 5.63818743e-39
-0.07454691827 -0.3170284033 -0.1433440894 5.63818743e-39
-0.1367156655 -0.2296894789 0.1166213304 5.63818743e-39
-0.1563863009 -0.2079415768 0.01302525029 5.63818743e-39
-0.1463288665 -0.2364106029 0.1630734205 5.63818743e-39
-0.1352336407 -0.2864485979 0.2738526464 5.455592635e-39
-0.1337298602 -0.3219019175 0.2046105415 5.455592635e-39
-0.1372233778 -0.3206787407 0.1270245016 5.455592635e-39
-0.1557087451 -0.2094261944 0.02440697514 5.455592635e-39
-0.1502883732 -0.2213030607 0.1154606193 5.455592635e-39
-0.1360381097 -0.2311740965 0.1280030906 5.455592635e-39
-0.07861272991 -0.1899201274 -0.09931349754 5.455592635e-39
-0.1327349991 -0.3047868311 0.2780245841 5.455592635e-39
-0.1423693448 -0.2515181899 0.2106862366 5.272997839e-39
-0.1493986994 -0.1290923357 -0.1720666438 5.272997839e-39
-0.05472761393 -0.3712604344 -0.1317535639 5.272997839e-39
-0.06256323308 -0.1312979907 -0.1878390759 5.272997839e-39
-0.04697773233 -0.3343586922 -0.07824504375 5.272997839e-39
-0.06696689129 -0.1876528263 -0.1116204411 5.272997839e-39
-0.1447404623 -0.2056742758 0.0007183067501 5.272997839e-39
-0.1353605688 -0.2326587141 0.1393847764 5.272997839e-39
-0.1535703391 -0.2076801211 0.07922956347 5.090401643e-39
-0.1323747635 -0.3248711228 0.2273739278 5.090401643e-39
-0.1007826999 -0.1244769543 -0.1871493012 5.090401643e-39
-0.1528927982 -0.2091647387 0.09061126411 5.090401643e-39
-0.134683013 -0.2341433167 0.150766477 5.090401643e-39
0.0134737473 -0.229729414 -0.158137992 5.090401643e-39
-0.1124285534 -0.1267442554 -0.1748423576 5.090401643e-39
-0.04562263563 -0.3373279274 -0.05548161641 5.090401643e-39
-0.1373291463 -0.3268786669 0.1063470766 4.907806848e-39
-0.02309444733 -0.1472881436 -0.1864428669 4.907806848e-39
0.01472307183 -0.2388985455 -0.1560520232 4.907806848e-39
-0.1513255686 -0.118438594 -0.1855342984 4.907806848e-39
-0.1420719773 -0.3164863884 0.02667510509 4.907806848e-39
-0.1351907253 -0.3251325786 0.1611696482 4.907806848e-39
-0.1576356292 -0.1987724602 0.01093928888 4.907806848e-39
0.03244570643 -0.1900029778 -0.1797140241 4.907806848e-39
0.03369503468 -0.1991720796 -0.1776280701 4.725212053e-39
-0.02900137566 -0.2863903046 -0.1533029526 4.725212053e-39
-0.1326503754 -0.2385971546 0.1849116236 4.725212053e-39
-0.01792729832 -0.2764384747 -0.1563141644 4.725212053e-39
-0.07024885714 -0.1740298569 -0.1478515267 4.725212053e-39
-0.1412469447 -0.2068974376 0.07830431312 4.725212053e-39
-0.1432795972 -0.2024435997 0.04415916279 4.725212053e-39
-0.136482954 -0.2772794962 0.2717666924 4.725212053e-39
-0.08720932901 -0.1582203805 -0.2059207857 4.542257124e-39
-0.05023986846 -0.1305152923 -0.1887643188 4.542257124e-39
-0.1459897906 -0.196505174 -0.001367654651 4.542257124e-39
-0.1235448867 -0.3228652775 0.1488627046 4.542257124e-39
-0.1405694038 -0.2083820552 0.08968601376 4.542257124e-39
-0.1222326979 -0.2871505022 0.284309119 4.542257124e-39
-0.1359740496 -0.3298478723 0.1291104704 4.542257124e-39
-0.02241690084 -0.1487727612 -0.1750611812 4.542257124e-39
-0.139891848 -0.2098666579 0.1010677144 4.359662329e-39
-0.1446346939 -0.1994743943 0.02139576711 4.359662329e-39
-0.1359323412 -0.2249742001 0.148680523 4.359662329e-39
-0.06889376044 -0.1769990772 -0.1250881106 4.359662329e-39
-0.08653177321 -0.1597049981 -0.194539085 4.359662329e-39
-0.04865085706 -0.324632138 -0.1431086212 4.359662329e-39
-0.122019954 -0.4183083773 0.1934109777 4.359662329e-39
-0.07545841485 -0.1243961751 -0.1776180863 4.359662329e-39
-0.1392143071 -0.2113512605 0.1124494076 4.177066133e-39
-0.1575298607 -0.192572549 0.03161674738 4.177066133e-39
-0.1527870297 -0.2029648125 0.1112886891 4.177066133e-39
-0.1345772445 -0.2279434204 0.1714439094 4.177066133e-39
-0.1429411322 -0.2438336611 0.2199819684 4.177066133e-39
-0.02832382731 -0.2878749073 -0.141921252 4.177066133e-39
0.01597239636 -0.2480676621 -0.1539660692 4.177066133e-39
-0.1267627925 -0.4079160988 0.113739036 4.177066133e-39
-0.1488275081 -0.2180723846 0.1589014977 3.994471337e-39
-0.1239468232 -0.4076546431 0.1799433231 3.994471337e-39
-0.08970866352 -0.1145251319 -0.1901605129 3.994471337e-39
-0.03990559652 -0.3888159692 -0.128506884 3.994471337e-39
-0.1418187171 -0.1992129236 0.08760005236 3.994471337e-39
-0.06313501298 -0.1236134917 -0.1785433292 3.994471337e-39
-0.1354022771 -0.3375323713 0.1198147386 3.994471337e-39
-0.1472391039 -0.1873360276 -0.003453619778 3.994471337e-39
-0.1193097681 -0.4242468178 0.238937825 3.81151781e-39
-0.1479166597 -0.1858514249 -0.01483534463 3.81151781e-39
-0.1338996887 -0.229428038 0.1828256696 3.81151781e-39
-0.1229731143 -0.3305498064 0.1395669281 3.81151781e-39
-0.1234820187 -0.2779814005 0.2822231352 3.81151781e-39
-0.05280074477 -0.3819141686 -0.1182858944 3.81151781e-39
-0.03507813066 -0.3330185711 -0.1419478953 3.81151781e-39
-0.04865014181 -0.3499891758 -0.1630408168 3.81151781e-39
0.04726772755 -0.2075585127 -0.1764673442 3.628921614e-39
-0.1273345649 -0.4002315998 0.1230347753 3.628921614e-39
-0.1455455422 -0.2316953391 0.1951326132 3.628921614e-39
-0.06097353622 -0.3507718444 -0.1621155739 3.628921614e-39
-0.06019021198 -0.3460565805 -0.130056411 3.628921614e-39
0.02994706668 -0.1716647297 -0.1838859618 3.628921614e-39
-0.1401451081 -0.3271400928 0.04014276341 3.628921614e-39
-0.1144393981 -0.4071334004 0.1128137931 3.628921614e-39
-0.126466617 -0.3293266296 0.06198094413 3.446326818e-39
-0.1156887189 -0.3979642987 0.1107278317 3.446326818e-39
0.03187393397 -0.182318449 -0.1704182923 3.446326818e-39
-0.1325863153 -0.3372709453 0.1860190183 3.446326818e-39
-0.1271441728 -0.3278420269 0.05059924722 3.446326818e-39
-0.1248359159 -0.418569833 0.1272066981 3.446326818e-39
-0.1540363431 -0.1937957108 0.1092027277 3.446326818e-39
-0.05047195405 -0.3077785373 -0.1358988434 3.446326818e-39
-0.0546640642 -0.3517335951 -0.01832529157 3.26337189e-39
-0.117446959 -0.3362267613 0.2512980402 3.26337189e-39
-0.1156047508 -0.1069214046 -0.190395996 3.26337189e-39
-0.1396591514 -0.2574566305 0.256213069 3.26337189e-39
-0.1331151724 -0.3682703972 0.08263174444 3.26337189e-39
-0.1170438156 -0.3949950635 0.08796438575 3.26337189e-39
-0.1090190187 -0.4190102816 0.2038674355 3.26337189e-39
-0.0708206296 -0.1663453579 -0.138555795 3.26337189e-39
-0.1169380397 -0.388795197 0.1086418703 3.080777095e-39
-0.1278217137 -0.3263573945 0.03921752051 3.080777095e-39
-0.1343645006 -0.3591012657 0.08054577559 3.080777095e-39
-0.1083414704 -0.4204948843 0.2152491361 3.080777095e-39
-0.1261910051 -0.4156005979 0.1044432521 3.080777095e-39
-0.1358265728 -0.2187743187 0.1693579555 3.080777095e-39
-0.1361856014 -0.3422476649 0.08775554597 3.080777095e-39
-0.1337927282 -0.3667857945 0.07125004381 3.080777095e-39
-0.1437455863 -0.1885591894 0.07413239032 2.898180898e-39
0.0282958243 -0.2472849637 -0.1548913121 2.898180898e-39
-0.0694655329 -0.1693145782 -0.1157923639 2.898180898e-39
-0.1284992695 -0.3248727918 0.0278358236 2.898180898e-39
-0.1272505671 -0.1091887057 -0.1780890524 2.898180898e-39
-0.1213635579 -0.3598031998 0.09100222588 2.898180898e-39
-0.1268685609 -0.4141159952 0.0930615589 2.898180898e-39
-0.1089132354 -0.4128103852 0.2245449275 2.898180898e-39
-0.1526812464 -0.1967649311 0.1319661736 2.715227371e-39
-0.1206860095 -0.3612878323 0.1023839787 2.715227371e-39
-0.1573183089 -0.1801727563 0.07297167182 2.715227371e-39
-0.1198815405 -0.4165623188 0.2482335716 2.715227371e-39
-0.1238622069 -0.3414649665 0.08683030307 2.715227371e-39
-0.1284781098 -0.384862572 0.1416262537 2.715227371e-39
-0.1325446069 -0.2323972583 0.2055890709 2.715227371e-39
-0.1384309828 -0.2066359669 0.1445085853 2.715227371e-39
-0.1500768363 -0.2089032531 0.1568155438 2.532632576e-39
-0.01202039979 -0.1373363286 -0.1894540787 2.532632576e-39
-0.1441904455 -0.2346645594 0.2178960145 2.532632576e-39
-0.1471333355 -0.1811361313 0.01722384058 2.532632576e-39
-0.04301821813 -0.3494662941 -0.03063223325 2.532632576e-39
0.06084042042 -0.2159449309 -0.1753066331 2.532632576e-39
0.04919459671 -0.218212232 -0.1629996896 2.532632576e-39
-0.1559632123 -0.1831419766 0.09573506564 2.532632576e-39
-0.1135502979 -0.3962182403 0.1655504107 2.349677647e-39
-0.1138676181 -0.4148178995 0.1035180092 2.349677647e-39
-0.04505086318 -0.3450124562 -0.06477738172 2.349677647e-39
-0.1291985661 -0.3446939886 0.2429275662 2.349677647e-39
-0.0391657874 -0.1205634922 -0.1917755157 2.349677647e-39
-0.1467948705 -0.2225262225 0.1930466443 2.349677647e-39
-0.1098023281 -0.4237255752 0.1718083024 2.349677647e-39
-0.1173828915 -0.434900552 0.2524054646 2.349677647e-39
-0.1290498972 -0.3771780729 0.1509219855 2.167082852e-39
-0.1546081156 -0.1861111969 0.1184985191 2.167082852e-39
-0.01600042731 -0.2870922089 -0.1428464949 2.167082852e-39
-0.1178071797 -0.3161424696 0.3019486964 2.167082852e-39
-0.1145451665 -0.4133332968 0.092136316 2.167082852e-39
-0.1224859506 -0.4044239819 0.2233842015 2.167082852e-39
-0.05722556636 -0.3782792389 -0.1558576822 2.167082852e-39
-0.1456724703 -0.1779054403 0.06066472456 2.167082852e-39
-0.1166636348 -0.3315114975 0.2833572328 1.984127923e-39
-0.01832924597 -0.36122787 -0.1252335459 1.984127923e-39
-0.1435128897 -0.2361491621 0.2292777002 1.984127923e-39
-0.1153502464 -0.4393543899 0.2865506113 1.984127923e-39
-0.1497377604 -0.1689977944 -0.007625546306 1.984127923e-39
-0.1344714761 -0.221743539 0.1921214014 1.984127923e-39
-0.1223372743 -0.4369080663 0.1313786209 1.984127923e-39
-0.1402508914 -0.333340019 0.01946530305 1.984127923e-39
-0.115477182 -0.3855645061 0.1520826966 1.801533128e-39
-0.121257782 -0.3536033034 0.1116797179 1.801533128e-39
0.04061919451 -0.2465022802 -0.155816555 1.801533128e-39
-0.1262967885 -0.4218004942 0.08376581967 1.801533128e-39
-0.1070921421 -0.4296640158 0.2173351049 1.801533128e-39
-0.1265724003 -0.335526526 0.04130348191 1.801533128e-39
-0.1599227339 -0.1680344194 0.04812225699 1.801533128e-39
0.05226501822 -0.2442349792 -0.1681234986 1.801533128e-39
-0.03814855218 -0.3069958687 -0.1368240863 1.618578199e-39
-0.04490217194 -0.3774965405 -0.1567829251 1.618578199e-39
-0.1101625562 -0.4036412835 0.2224589586 1.618578199e-39
-0.1240737513 -0.3538647592 0.04547540471 1.618578199e-39
-0.1327549517 -0.3883547187 0.03198107705 1.618578199e-39
-0.1291774362 -0.09853497148 -0.1915567219 1.618578199e-39
-0.1112632006 -0.4269562662 0.128367424 1.618578199e-39
-0.1042761803 -0.42940256 0.2835394144 1.618578199e-39
-0.03848823905 -0.1220480949 -0.180393815 1.435982003e-39
-0.1205802336 -0.3550879061 0.1230614185 1.435982003e-39
-0.1244128346 -0.3937702477 0.2099164873 1.435982003e-39
-0.1094850153 -0.405125916 0.2338406593 1.435982003e-39
-0.1578900963 -0.1724882424 0.0822674036 1.435982003e-39
-0.04583417252 -0.34972772 -0.09683653712 1.435982003e-39
-0.00492637977 -0.277140379 -0.1458576918 1.435982003e-39
-0.1269743294 -0.4203158915 0.07238411903 1.435982003e-39
-0.07795705646 -0.1060579419 -0.181790024 1.253028475e-39
-0.1141220778 -0.3885337114 0.1748461574 1.253028475e-39
0.02744841762 -0.1533264816 -0.1880578846 1.253028475e-39
-0.1314427555 -0.3526399434 0.1674275398 1.253028475e-39
-0.1132958457 -0.4225024283 0.0942222774 1.253028475e-39
0.000302972272 -0.1365536451 -0.1903793216 1.253028475e-39
-0.109230563 -0.431410104 0.162512511 1.253028475e-39
-0.1572125405 -0.17397286 0.09364910424 1.253028475e-39
0.06941582263 -0.1876548976 -0.1824897528 1.070432279e-39
-0.1050594971 -0.4341178536 0.2514802217 1.070432279e-39
-0.04240353033 -0.395834744 -0.1526110023 1.070432279e-39
-0.1043819487 -0.4356024563 0.2628619373 1.070432279e-39
0.06276728958 -0.2265986502 -0.1618389636 1.070432279e-39
0.07316379249 -0.2151622474 -0.176231876 1.070432279e-39
-0.1120465249 -0.4316715598 0.0963082388 1.070432279e-39
-0.05206096545 -0.1136616617 -0.181554541 1.070432279e-39
-0.1371804625 -0.3593627512 0.01434149593 8.874787512e-40
0.04102111608 -0.1617129296 -0.1868971586 8.874787512e-40
-0.1199026853 -0.3565725088 0.1344431192 8.874787512e-40
-0.02207721397 -0.3337205052 -0.1314914376 8.874787512e-40
-0.130870983 -0.3603244424 0.158131808 8.874787512e-40
-0.1165778115 -0.4088794589 0.05799118802 8.874787512e-40
-0.02684241533 -0.1197808012 -0.1927007586 8.874787512e-40
-0.1045306697 -0.09696958214 -0.1934071928 8.874787512e-40
-0.1127240732 -0.4301869571 0.08492653817 7.045238224e-40
-0.01542865299 -0.2947767377 -0.1521422267 7.045238224e-40
-0.1363983303 -0.2110898048 0.1786537468 7.045238224e-40
-0.1509870738 -0.1598286778 -0.009711505845 7.045238224e-40
-0.1284998953 -0.1000195742 -0.1801750213 7.045238224e-40
-0.1402309388 -0.2497721016 0.2655088007 7.045238224e-40
-0.04661749676 -0.3544430137 -0.1288957 7.045238224e-40
-0.1174886599 -0.4411004186 0.231728062 7.045238224e-40
-0.1293043494 -0.3508938849 0.2222501189 5.219290273e-40
-0.1325234473 -0.2923870087 0.3193795085 5.219290273e-40
-0.08303825557 -0.16092816 -0.1169530898 5.219290273e-40
-0.08970797062 -0.1398821473 -0.2100927085 5.219290273e-40
-0.1153713986 -0.3793646097 0.1727601886 5.219290273e-40
-0.01043135859 -0.3314532042 -0.1437983811 5.219290273e-40
-0.1249845996 -0.3860857189 0.2192122787 5.219290273e-40
-0.1503095329 -0.1613132954 0.001670192461 5.219290273e-40
-0.131274119 -0.3015561402 0.3214654624 3.389740985e-40
-0.1618496031 -0.1573807001 0.03465459496 3.389740985e-40
-0.05155072734 -0.4164403081 -0.136132136 3.389740985e-40
0.02812596597 -0.1548110992 -0.1766761839 3.389740985e-40
-0.1591394097 -0.1633191407 0.08018144965 3.389740985e-40
-0.1161335707 -0.4440696537 0.2544914484 3.389740985e-40
-0.1236295104 -0.3890549541 0.24197568 3.389740985e-40
0.0009805187583 -0.1380382478 -0.1789976209 3.389740985e-40
-0.130933851 -0.4052083492 0.02477131039 1.56020571e-40
-0.1093792468 -0.3989259899 0.2545180917 1.56020571e-40
-0.1337727606 -0.283217907 0.3172935247 1.56020571e-40
-0.1189507321 -0.3007734418 0.3205402195 1.56020571e-40
-0.05212249979 -0.4087558091 -0.1268363744 1.56020571e-40
-0.1383252144 -0.2004360706 0.1651860327 1.56020571e-40
-0.1584618539 -0.1648037434 0.09156314284 1.56020571e-40
-0.1126612052 -0.3853030503 0.2182870358 1.56020571e-40
-0.1295158863 -0.3632936776 0.1808951944 6.490113838e-41
-0.06857644022 -0.1583993882 -0.06305575371 6.490113838e-41
-0.1106285676 -0.3897568882 0.2524321079 6.490113838e-41
-0.1664866656 -0.1407885253 -0.02433991246 6.490113838e-41
-0.1170867309 -0.3563110828 0.2006473988 6.490113838e-41
0.08548722416 -0.214379549 -0.1771571189 6.490113838e-41
-0.1495262086 -0.1565980017 0.03372935206 6.490113838e-41
0.07259202003 -0.2074777335 -0.1669361293 6.490113838e-41
-0.1262339205 -0.3769165874 0.2171263099 2.496469266e-40
-0.00543406792 -0.3681296408 -0.1354545355 2.496469266e-40
-0.1271659285 -0.3491478264 0.2770726979 2.496469266e-40
-0.1488486528 -0.1580826193 0.04511104897 2.496469266e-40
0.05527134985 -0.1715839505 -0.1743547469 2.496469266e-40
-0.1255563796 -0.3784012198 0.2285080105 2.496469266e-40
-0.1133176014 -0.443808198 0.3206957281 2.496469266e-40
-0.01583059877 -0.3795661032 -0.1210616156 2.496469266e-40
-0.149971053 -0.2027033716 0.1774930209 4.340353837e-40
0.01262640022 -0.1357709467 -0.1913045645 4.340353837e-40
-0.1508813053 -0.1536287963 0.01096595451 4.340353837e-40
-0.1515588462 -0.1521441787 -0.0004157694057 4.340353837e-40
-0.1038101763 -0.4432869852 0.2535662055 4.340353837e-40
-0.1010999829 -0.4492254257 0.2990930378 4.340353837e-40
-0.04447907582 -0.3526969254 -0.07407312095 4.340353837e-40
-0.1637764722 -0.1467269659 0.02118693292 4.340353837e-40
-0.1177014112 -0.3099425733 0.3226261735 6.184224396e-40
-0.1118778884 -0.3805877566 0.250346154 6.184224396e-40
-0.1461384594 -0.1640210599 0.09063789994 6.184224396e-40
-0.1428564936 -0.1776439995 0.1268690079 6.184224396e-40
-0.1162393391 -0.4502695501 0.233814016 6.184224396e-40
-0.1427501738 -0.09014855325 -0.192717433 6.184224396e-40
-0.1145880818 -0.3746493161 0.2048193216 6.184224396e-40
-0.1287754774 -0.3198943734 0.3256373703 6.184224396e-40
-0.01458127797 -0.3887352049 -0.1189756617 8.028094954e-40
-0.05331028998 -0.1044925451 -0.1836405098 8.028094954e-40
-0.1414802521 -0.2406029999 0.2634228468 8.028094954e-40
-0.02809173986 -0.1106116697 -0.1947867274 8.028094954e-40
-0.06993153691 -0.1554301679 -0.08581916988 8.028094954e-40
-0.1281607896 -0.3662628829 0.2036585957 8.028094954e-40
0.07691176236 -0.2426695973 -0.1699739844 8.028094954e-40
-0.136948958 -0.263395071 0.3017399013 8.028094954e-40
-0.1143765375 -0.3622495234 0.2461742312 9.871979525e-40
-0.1067748219 -0.4110643566 0.2793674767 9.871979525e-40
-0.04380153492 -0.3541815579 -0.06269142032 9.871979525e-40
-0.1145669296 -0.4346390665 0.3186097443 9.871979525e-40
-0.1350220889 -0.2740488052 0.3152075708 9.871979525e-40
-0.04176888987 -0.3586353958 -0.02854626998 9.871979525e-40
-0.08699777722 -0.1458205879 -0.164565891 9.871979525e-40
0.01847104169 -0.2664058805 -0.1497941464 9.871979525e-40
0.09656126797 -0.2044277489 -0.1801683158 1.171585008e-39
-0.1121740565 -0.4591772258 0.3021042347 1.171585008e-39
-0.03979910538 -0.4079731107 -0.1277616173 1.171585008e-39
0.08241680264 -0.1883568168 -0.172033295 1.171585008e-39
0.01330394857 -0.1372555494 -0.1799228638 1.171585008e-39
-0.1528081745 -0.1429750472 -0.002501734532 1.171585008e-39
-0.1264883727 -0.3506324291 0.2884543836 1.171585008e-39
-0.04166443273 -0.1022252515 -0.1959474385 1.171585008e-39
-0.01333195344 -0.3979043365 -0.1168896928 1.355972064e-39
-0.04536817595 -0.3636121452 -0.1268097311 1.355972064e-39
-0.1421789527 -0.179128617 0.1382507086 1.355972064e-39
-0.1136989892 -0.3637341261 0.2575559318 1.355972064e-39
-0.1388758421 -0.2527413368 0.288272202 1.355972064e-39
-0.08632022142 -0.1473052055 -0.1531841755 1.355972064e-39
-0.1369701177 -0.2034052908 0.1879494786 1.355972064e-39
-0.1203475446 -0.4026779234 0.2782067657 1.355972064e-39
-0.1447833627 -0.1669902802 0.1134013459 1.540360521e-39
-0.1158374026 -0.3654801846 0.2027333528 1.540360521e-39
-0.01384149864 -0.120482713 -0.1822443008 1.540360521e-39
-0.1643482447 -0.1390424669 0.03048266843 1.540360521e-39
-0.1395745426 -0.191266939 0.1631000638 1.540360521e-39
-0.1005282104 -0.4569099545 0.2897973061 1.540360521e-39
-0.08361002803 -0.153243646 -0.1076573581 1.540360521e-39
0.05209515989 -0.1517611146 -0.1899083704 1.540360521e-39
-0.1141649857 -0.3498497307 0.2875291407 1.724747577e-39
-0.1215968654 -0.3935087919 0.2761208117 1.724747577e-39
-0.09345662594 -0.08701778203 -0.1964184046 1.724747577e-39
-0.1486159563 -0.2056725919 0.2002564222 1.724747577e-39
-0.1174258515 -0.09006777406 -0.1831862181 1.724747577e-39
-0.1554125845 -0.1308367252 -0.02735111862 1.724747577e-39
-0.1623155922 -0.1434962898 0.06462781876 1.724747577e-39
-0.1131272092 -0.3714186251 0.2482602149 1.724747577e-39
0.08866342157 -0.2342023998 -0.1616034806 1.909134633e-39
-0.1151598468 -0.3669647872 0.214115113 1.909134633e-39
-0.1284793168 -0.2413049191 0.2738792896 1.909134633e-39
-0.002195673063 -0.1182154194 -0.1945512444 1.909134633e-39
-0.1022435352 -0.4338563681 0.3176845014 1.909134633e-39
-0.05690824613 -0.3596795201 -0.09382534027 1.909134633e-39
-0.04098688811 -0.1037098616 -0.1845657527 1.909134633e-39
-0.1547350287 -0.1323213279 -0.01596939377 1.909134633e-39
-0.1362925619 -0.2048899084 0.1993311793 2.09352309e-39
-0.08113325387 -0.08623509109 -0.1973436475 2.09352309e-39
-0.07795633376 -0.1314149499 -0.2017222196 2.09352309e-39
-0.01576836966 -0.1098289788 -0.1957119703 2.09352309e-39
-0.1247730553 -0.3736859262 0.2605671287 2.09352309e-39
0.03900066763 -0.320196569 0.1699912101 2.09352309e-39
-0.1362714171 -0.2648796737 0.3131216168 2.09352309e-39
0.007968766615 -0.2840422392 -0.1560786813 2.09352309e-39
-0.09849556535 -0.4613637626 0.3239423931 2.277910146e-39
-0.1003166586 -0.4445101023 0.3311521709 2.277910146e-39
0.10888464 -0.2036450505 -0.1810935587 2.277910146e-39
-0.0526942797 -0.4010712802 -0.1175406426 2.277910146e-39
0.1101339534 -0.2128141671 -0.1790076047 2.277910146e-39
0.09598950297 -0.1967432201 -0.170872584 2.277910146e-39
-0.1683077514 -0.1239348948 -0.01713011414 2.277910146e-39
-0.1258748919 -0.2534432411 0.2987287045 2.277910146e-39
-0.03912155703 -0.4094577134 -0.1163799167 2.462297202e-39
-0.07727879286 -0.1328995675 -0.1903404891 2.462297202e-39
-0.1177431196 -0.4148162603 0.3030561209 2.462297202e-39
0.008138624951 -0.3765160739 -0.1342938095 2.462297202e-39
0.01205462776 -0.1280864477 -0.1820088327 2.462297202e-39
-0.1101414114 -0.4636310339 0.3362493515 2.462297202e-39
-0.001518126577 -0.1197000295 -0.1831695437 2.462297202e-39
0.1113832816 -0.2219832838 -0.1769216359 2.462297202e-39
0.003818880767 -0.34132424 -0.1312559545 2.646685659e-39
-0.1401251554 -0.2435722202 0.2861862481 2.646685659e-39
-0.0122524593 -0.3145995736 -0.1365886033 2.646685659e-39
0.1126326099 -0.2311524004 -0.174835667 2.646685659e-39
-0.140823856 -0.1820978224 0.1610141098 2.646685659e-39
-0.04162020609 -0.3911194801 -0.1205518395 2.646685659e-39
-0.002427734435 -0.295478642 -0.141685769 2.646685659e-39
0.07991815358 -0.1700185835 -0.1762052327 2.646685659e-39
-0.155984357 -0.1231521964 -0.0180553589 2.830713982e-39
-0.1117721125 -0.3743878603 0.2710236311 2.830713982e-39
-0.1175956354 -0.3037426472 0.3433036208 2.830713982e-39
-0.1433219463 -0.08246405423 -0.1834216863 2.830713982e-39
-0.128669709 -0.3136944771 0.3463148177 2.830713982e-39
-0.04894630983 -0.428578645 -0.111282751 2.830713982e-39
-0.1193527207 -0.07941405475 -0.1966538727 2.830713982e-39
-0.05326605216 -0.3933867812 -0.1082449108 2.830713982e-39
-0.07592369616 -0.1358687878 -0.1675771028 3.015101038e-39
-0.05555315688 -0.3626487255 -0.0710619092 3.015101038e-39
0.09349084646 -0.1784049869 -0.1750445068 3.015101038e-39
0.01012775488 -0.117432721 -0.1954764873 3.015101038e-39
0.03136624396 -0.2733077109 -0.1600151211 3.015101038e-39
-0.09781801701 -0.4628483653 0.3353241086 3.015101038e-39
-0.1498652846 -0.1965034753 0.1981704533 3.015101038e-39
0.04024999216 -0.3293656707 0.1720771641 3.015101038e-39
-0.1262768358 -0.3382326365 0.3298093081 3.199488094e-39
0.04035576805 -0.3231657743 0.1927546561 3.199488094e-39
-0.1112849563 -0.4482620358 0.3548408747 3.199488094e-39
-0.1709121764 -0.1117965579 -0.04197949916 3.199488094e-39
0.1224573329 -0.2120314687 -0.1799328327 3.199488094e-39
-0.1132118329 -0.4376083016 0.3413732052 3.199488094e-39
-0.08756953478 -0.1381360888 -0.1552701294 3.199488094e-39
0.1095621958 -0.2051296532 -0.169711858 3.199488094e-39
-0.05487560853 -0.364133358 -0.05968021601 3.383517819e-39
-0.1257050633 -0.3459171057 0.3205135763 3.383517819e-39
0.01063727401 -0.394854337 -0.1301218867 3.383517819e-39
-0.05508715287 -0.3765331805 -0.1010351032 3.383517819e-39
-0.1232704744 -0.2655816078 0.3235780597 3.383517819e-39
0.1108115092 -0.2142987698 -0.1676259041 3.383517819e-39
-0.09220661223 -0.1215439141 -0.2142646462 3.383517819e-39
-0.06813230366 -0.08693700284 -0.1868871897 3.383517819e-39
-0.151241526 -0.1335444748 0.06161661074 3.567904875e-39
-0.07988321781 -0.1207612157 -0.2151898891 3.567904875e-39
-0.07389104366 -0.1403226256 -0.1334319562 3.567904875e-39
0.05179004371 -0.3332982659 0.139092803 3.567904875e-39
0.04092754051 -0.3308502734 0.1834589243 3.567904875e-39
-0.1517921537 -0.1858497411 0.1847027987 3.567904875e-39
-0.1183148995 -0.4071317315 0.3123518527 3.567904875e-39
-0.04094265774 -0.3926040828 -0.1091701537 3.567904875e-39
-0.1446775943 -0.1607903689 0.1340787858 3.75229193e-39
0.0922415331 -0.1692358851 -0.1771304756 3.75229193e-39
-0.1505639851 -0.1350290775 0.07299830765 3.75229193e-39
-0.1565561444 -0.1154676974 -0.008759620599 3.75229193e-39
0.02903740294 -0.3474433422 -0.1424021721 3.75229193e-39
0.01739157923 -0.3497106731 -0.1300952435 3.75229193e-39
0.105814226 -0.1776222885 -0.1759697497 3.75229193e-39
-0.1181674153 -0.2960581779 0.3525993526 3.75229193e-39
-0.1452488154 -0.07181031257 -0.1968893558 3.936320254e-39
0.009218091145 -0.2932113409 -0.1539927125 3.936320254e-39
-0.1558785886 -0.1169523075 0.002622104716 3.936320254e-39
-0.1368643492 -0.1972053796 0.208626911 3.936320254e-39
0.03602381796 -0.1250364482 -0.1952410191 3.936320254e-39
0.02245112695 -0.11665003 -0.1964017302 3.936320254e-39
0.1138819233 -0.240321517 -0.1727497131 3.936320254e-39
0.05303936452 -0.3424673676 0.141178757 3.936320254e-39
0.1231348887 -0.2135160714 -0.1685511321 4.120708711e-39
-0.1511146128 -0.1873343587 0.1960844994 4.120708711e-39
-0.1072408259 -0.3971799314 0.3093406558 4.120708711e-39
-0.1413956285 -0.1744133383 0.1703098863 4.120708711e-39
-0.12559928 -0.3397172391 0.3411909938 4.120708711e-39
-0.1156687737 -0.3143964112 0.3567712605 4.120708711e-39
-0.1104170159 -0.3773570657 0.2937870324 4.120708711e-39
-0.09017395973 -0.125997752 -0.1801195145 4.120708711e-39
-0.1206020415 -0.07024492323 -0.1987398416 4.304737034e-39
-0.1648142487 -0.1251580566 0.06045589224 4.304737034e-39
0.05325091258 -0.330067575 0.1825336814 4.304737034e-39
-0.1125342846 -0.4390929043 0.3527548909 4.304737034e-39
0.07741951197 -0.1516803205 -0.1803771555 4.304737034e-39
-0.1238839626 -0.3627707362 0.3133037388 4.304737034e-39
0.01489293016 -0.3313724399 -0.1342671663 4.304737034e-39
-0.1466044635 -0.1501366496 0.1206111163 4.304737034e-39
-0.1093580872 -0.4589157403 0.3683085144 4.48912409e-39
-0.1322478652 -0.07251222432 -0.186432898 4.48912409e-39
0.1045648977 -0.1684531868 -0.1780557036 4.48912409e-39
-0.08543112874 -0.1363900155 -0.1004475504 4.48912409e-39
-0.1115605682 -0.3619880378 0.3123784959 4.48912409e-39
-0.07310773432 -0.1356073171 -0.1013727933 4.48912409e-39
-0.1492088884 -0.1379982978 0.09576170892 4.48912409e-39
-0.1524908543 -0.1243753582 0.05953064933 4.48912409e-39
0.07549264282 -0.1410266161 -0.1938448101 4.673152414e-39
0.009895639494 -0.2946959138 -0.1426110119 4.673152414e-39
-0.1199244931 -0.07172953337 -0.1873581409 4.673152414e-39
-0.08881886303 -0.1289669573 -0.1573560983 4.673152414e-39
-0.07378527522 -0.1341226995 -0.1127545238 4.673152414e-39
-0.08610866964 -0.1349053979 -0.1118292809 4.673152414e-39
0.04436716437 -0.274009645 -0.1495586634 4.673152414e-39
0.09116206318 -0.252540648 -0.1574315578 4.673152414e-39
-0.05373205617 -0.3795023859 -0.07827167958 4.857539469e-39
-0.07581792772 -0.1296688765 -0.1468996406 4.857539469e-39
-0.07514037192 -0.1311534941 -0.135517925 4.857539469e-39
-0.08746376634 -0.1319361925 -0.1345926821 4.857539469e-39
-0.09828401357 -0.4489639401 0.3652973175 4.857539469e-39
-0.1471550912 -0.2024419159 0.2436973006 4.857539469e-39
0.1028078869 -0.2502733469 -0.1697385013 4.857539469e-39
-0.1065632775 -0.3986645341 0.3207223713 4.857539469e-39
0.05601298809 -0.2717423439 -0.1618656069 5.041567793e-39
0.06400763988 -0.3387154639 0.1174900681 5.041567793e-39
-0.1097394675 -0.3788416684 0.3051687181 5.041567793e-39
0.1297834069 -0.1745723039 -0.1892019361 5.041567793e-39
0.1317102909 -0.185226053 -0.1757342666 5.041567793e-39
0.052256044 -0.3471826613 0.1091195792 5.041567793e-39
0.0549662374 -0.3531211317 0.1546464264 5.041567793e-39
0.0432877019 -0.3573144078 -0.1298597604 5.041567793e-39
-0.1276959926 -0.2365896404 0.3059384823 5.225597518e-39
-0.1226346418 -0.3719398677 0.3153897226 5.225597518e-39
0.04635811597 -0.3833371103 -0.1349835694 5.225597518e-39
-0.1588215083 -0.06342389435 -0.1980500817 5.225597518e-39
0.06604028493 -0.3431693017 0.1516352147 5.225597518e-39
-0.09527772665 -0.07016415149 -0.1892086267 5.225597518e-39
-0.1464981288 -0.0626412034 -0.1989753246 5.225597518e-39
0.05574955791 -0.3484058082 0.1867056042 5.225597518e-39
0.1033155844 -0.159284085 -0.1801416725 5.409984573e-39
-0.1348316967 -0.2016592175 0.2427720577 5.409984573e-39
-0.03183970973 -0.08310431987 -0.2010446191 5.409984573e-39
-0.1601771861 -0.1417502165 0.1194504052 5.409984573e-39
0.07617019117 -0.1425112188 -0.1824631095 5.409984573e-39
0.02238886617 -0.3863871396 -0.1217513829 5.409984573e-39
-0.1137418896 -0.3250501454 0.3702389896 5.409984573e-39
-0.0853253603 -0.1301901191 -0.0797700882 5.409984573e-39
0.01364360563 -0.3222033083 -0.1363531351 5.594012897e-39
0.04493893683 -0.2816941738 -0.1588544101 5.594012897e-39
-0.1169598028 -0.4101009667 0.3351153135 5.594012897e-39
-0.1125983447 -0.3404191434 0.3516474664 5.594012897e-39
0.1013887003 -0.1486303359 -0.193609342 5.594012897e-39
-0.03859269992 -0.3784582615 -0.01299264282 5.594012897e-39
0.1304609627 -0.1760569215 -0.1778202355 5.594012897e-39
0.0354520455 -0.1173519492 -0.1859452724 5.594012897e-39
0.1379569024 -0.2310716212 -0.1653044522 5.77804122e-39
0.07424331456 -0.1318574846 -0.195930779 5.77804122e-39
-0.04691366479 -0.4330324829 -0.07713763416 5.77804122e-39
0.04453702271 -0.3664835095 -0.1277738065 5.77804122e-39
0.1285340935 -0.1654031873 -0.1912878901 5.77804122e-39
-0.1544177085 -0.1137216389 0.0460629873 5.77804122e-39
-0.1046364084 -0.4093182683 0.3341900706 5.77804122e-39
-0.05227119103 -0.3762716949 -0.03483082354 5.77804122e-39
0.05993081629 -0.3917235732 -0.1338228583 5.962428276e-39
-0.04130289331 -0.3725198209 -0.05851949006 5.962428276e-39
0.08008795232 -0.2624924183 -0.1544203609 5.962428276e-39
0.1465323716 -0.2027815878 -0.1724875867 5.962428276e-39
0.04578634351 -0.3756526411 -0.1256878376 5.962428276e-39
0.02187935077 -0.1089655012 -0.1871059984 5.962428276e-39
-0.03927024826 -0.3769736588 -0.02437433973 5.962428276e-39
0.02221900783 -0.2939132452 -0.1435362548 5.962428276e-39
0.1151312515 -0.2494906485 -0.1706637442 6.1464566e-39
-0.1445718259 -0.1545904875 0.1547562182 6.1464566e-39
-0.1393418312 -0.2388569415 0.3182454109 6.1464566e-39
-0.1250915676 -0.2487279624 0.3307878375 6.1464566e-39
-0.1248159632 -0.3350019455 0.3732501864 6.1464566e-39
0.06600756943 -0.3450952768 -0.1451779008 6.1464566e-39
0.1452830583 -0.1936124563 -0.1745735556 6.1464566e-39
-0.07842235267 -0.1175305396 -0.1717490256 6.1464566e-39
-0.1653860211 -0.1174735576 0.06975163519 6.330484923e-39
0.05436174572 -0.3473626077 -0.1328709722 6.330484923e-39
-0.1155629903 -0.308196485 0.3774487674 6.330484923e-39
0.1385286748 -0.2387561351 -0.1746001989 6.330484923e-39
0.05118555576 -0.327539742 -0.1484245956 6.330484923e-39
0.008306657895 -0.100579083 -0.1882667243 6.330484923e-39
0.0697555393 -0.3726026118 -0.138920024 6.330484923e-39
-0.1412687153 -0.2282031924 0.3047777712 6.330484923e-39
-0.1510088295 -0.1811344624 0.2167619318 6.514514648e-39
0.0710048601 -0.3817717433 -0.1368340552 6.514514648e-39
-0.05112763867 -0.3916407526 -0.05342232436 6.514514648e-39
0.04709786922 -0.1150846481 -0.198252216 6.514514648e-39
0.01114496402 -0.3038650751 -0.140525043 6.514514648e-39
-0.1212378293 -0.2700354457 0.3577232063 6.514514648e-39
0.14403373 -0.1844433546 -0.1766595095 6.514514648e-39
0.06796716154 -0.353823036 0.1651028842 6.514514648e-39
-0.04841744527 -0.3975791931 -0.007895477116 6.698542971e-39
-0.1143136695 -0.3173656166 0.3795347214 6.698542971e-39
-0.09006819129 -0.1197978556 -0.1594420522 6.698542971e-39
-0.03641136363 -0.4153961539 -0.07085306942 6.698542971e-39
-0.08735799789 -0.1257362962 -0.1139152348 6.698542971e-39
-0.1316343397 -0.2814718485 0.3721161187 6.698542971e-39
-0.1707006246 -0.09939676523 -0.0006245789118 6.698542971e-39
-0.1503312886 -0.1826190799 0.2281436771 6.698542971e-39
-0.1096336991 -0.3726418018 0.325846225 6.882571295e-39
-0.08589711785 -0.1225056201 -0.07047435641 6.882571295e-39
-0.159054786 -0.0971294567 -0.01293154713 6.882571295e-39
-0.1130643412 -0.3265347481 0.3816206753 6.882571295e-39
-0.1438942701 -0.1560750902 0.1661379635 6.882571295e-39
-0.14128986 -0.1682134271 0.1909873188 6.882571295e-39
-0.04909499362 -0.3960945904 -0.01927717403 6.882571295e-39
0.1581781805 -0.2005142868 -0.1847945303 6.882571295e-39
-0.113106057 -0.4314084053 0.3620506227 7.066599618e-39
0.1569288671 -0.1913451552 -0.1868804991 7.066599618e-39
0.02279078402 -0.301597774 -0.1528319865 7.066599618e-39
-0.146498695 -0.1439367384 0.1412885487 7.066599618e-39
-0.04862899706 -0.409978956 -0.04925040156 7.066599618e-39
-0.04473485425 -0.07620251179 -0.1908236295 7.066599618e-39
0.08207891136 -0.3718199432 -0.1398452669 7.066599618e-39
-0.08488122374 -0.05872774124 -0.2036015242 7.066599618e-39
-0.1162822545 -0.4115855694 0.3464969993 7.250627941e-39
0.06060836464 -0.3932082057 -0.1224411502 7.250627941e-39
-0.08657467365 -0.1210210174 -0.08185605705 7.250627941e-39
-0.1231006384 -0.3580554724 0.3453629315 7.250627941e-39
0.1427844018 -0.1752742231 -0.1787454784 7.250627941e-39
0.006379785016 -0.08992534876 -0.2017343789 7.250627941e-39
-0.1386642903 -0.2403415442 0.3296271265 7.250627941e-39
0.06668511778 -0.3465799093 -0.1337962002 7.250627941e-39
-0.04659635201 -0.4144327939 -0.01510525309 7.434656265e-39
0.1502803415 -0.2302889377 -0.1662296951 7.434656265e-39
-0.1593932807 -0.05573937297 -0.1887543499 7.434656265e-39
-0.04727390036 -0.4129481614 -0.02648697793 7.434656265e-39
-0.03823246434 -0.3985425234 -0.06364330649 7.434656265e-39
0.08457755297 -0.3901581764 -0.1356733292 7.434656265e-39
-0.01883879118 -0.08380623907 -0.1905881613 7.434656265e-39
-0.1470699161 -0.05495668203 -0.1896795928 7.434656265e-39
-0.04352593049 -0.4404555261 -0.02022908628 7.618684588e-39
-0.1083843708 -0.3818109035 0.327932179 7.618684588e-39
-0.1297074705 -0.2921255827 0.3855837882 7.618684588e-39
-0.1241384149 -0.3364865482 0.384631902 7.618684588e-39
0.1601050645 -0.2111680061 -0.1713268608 7.618684588e-39
-0.1556670368 -0.1045525074 0.04397702217 7.618684588e-39
0.1544302106 -0.173006922 -0.1910524219 7.618684588e-39
0.05942124128 -0.1143019572 -0.1991774589 7.618684588e-39
0.06853893399 -0.3615075648 0.1558071375 7.802712912e-39
-0.1301946342 -0.2182513922 0.3017665446 7.802712912e-39
0.06718383729 -0.3585383296 0.1330437511 7.802712912e-39
0.02346833237 -0.3030824065 -0.1414502859 7.802712912e-39
-0.1432167292 -0.1575596929 0.1775196642 7.802712912e-39
-0.1522581577 -0.1719653308 0.2146759629 7.802712912e-39
-0.1666353494 -0.1083044261 0.06766566634 7.802712912e-39
0.0247176569 -0.3122515082 -0.139364332 7.802712912e-39
-0.0381266959 -0.3923426569 -0.04296584055 7.986382503e-39
0.06989402324 -0.3644767702 0.1785705388 7.986382503e-39
-0.1826849431 -0.06027397886 -0.1641404331 7.986382503e-39
0.08150713146 -0.3641354442 -0.1305495203 7.986382503e-39
-0.03484473005 -0.4059655964 -0.006734758615 7.986382503e-39
-0.1733050495 -0.08725842834 -0.02547396347 7.986382503e-39
-0.07560637593 -0.1172690988 -0.1055447161 7.986382503e-39
0.06418647617 -0.3282416761 -0.1379681379 7.986382503e-39
0.1613543779 -0.2203371078 -0.1692409068 8.170410826e-39
-0.1089561507 -0.3741264045 0.3372279108 8.170410826e-39
-0.09443028271 -0.4702714384 0.3922326267 8.170410826e-39
0.1124627516 -0.1386785358 -0.1966205388 8.170410826e-39
0.07583229244 -0.3259743452 -0.1502750665 8.170410826e-39
0.08133727312 -0.2716615498 -0.1523343921 8.170410826e-39
0.09065431356 -0.34352988 -0.1470283866 8.170410826e-39
-0.1229948774 -0.3518555462 0.366040349 8.170410826e-39
-0.07899411023 -0.1098460481 -0.162453264 8.35443915e-39
-0.1366527975 -0.1848056018 0.2499818355 8.35443915e-39
-0.03312940523 -0.4290191233 -0.03462198749 8.35443915e-39
0.07057157904 -0.3659613729 0.1899522841 8.35443915e-39
0.1163805798 -0.25865978 -0.1685777903 8.35443915e-39
0.07367154211 -0.1241729707 -0.1866350472 8.35443915e-39
0.1047347561 -0.2609270513 -0.1562708467 8.35443915e-39
-0.1548625678 -0.1598269939 0.1898266077 8.35443915e-39
0.09690092504 -0.389375478 -0.1365985721 8.538467473e-39
0.1042270586 -0.3519163132 -0.1458676755 8.538467473e-39
-0.1659577936 -0.1097890288 0.07904736698 8.538467473e-39
-0.170594871 -0.0931968689 0.02005285583 8.538467473e-39
-0.1596265584 -0.08944495767 -0.003635783447 8.538467473e-39
