# .PCD v0.7 - Point Cloud Data file format
VERSION 0.7
FIELDS x y z rgb
SIZE 4 4 4 4
TYPE F F F F
COUNT 1 1 1 1
WIDTH 851
HEIGHT 1
VIEWPOINT 0 0 0 1 0 0 0
POINTS 851
DATA ascii
0.2446544468 -0.308683753 0.3717753887 8.028094954e-40
0.4147509038 -0.1860600412 -0.04175185412 8.028094954e-40
0.1307773143 -0.09459625185 0.08154150099 8.028094954e-40
0.1748619676 -0.1492604911 0.095454216 8.028094954e-40
0.1068246812 -0.09768229723 0.09480629116 8.028094954e-40
0.1775054187 -0.1614651978 0.1202679276 9.871979525e-40
0.2093884498 -0.1949931383 0.1814441383 9.871979525e-40
0.1713580787 -0.248469919 0.295856595 9.871979525e-40
0.2735899687 -0.3423042595 0.3667909205 9.871979525e-40
0.2195491642 -0.1074474007 0.07905612886 9.871979525e-40
0.1738088727 -0.2003792226 0.2070272267 9.871979525e-40
0.2385572046 -0.355352968 0.3830723763 9.871979525e-40
0.2607173324 -0.3354276419 0.3770391941 9.871979525e-40
0.1864888519 -0.1469604671 0.08313593268 1.171585008e-39
0.09993693233 -0.3805751503 0.2609711885 1.171585008e-39
0.252392143 -0.2850024104 0.3325733244 1.171585008e-39
0.09908600152 -0.3852097392 0.2289258987 1.171585008e-39
0.07532694936 -0.1847450435 0.2609162033 1.171585008e-39
0.3266780078 -0.1747229099 -0.02789470553 1.171585008e-39
0.09449893236 -0.09846831858 0.09575279802 1.171585008e-39
0.2717974186 -0.3254649937 0.3740225732 1.171585008e-39
0.05557700247 -0.09013573825 0.08515045792 1.355972064e-39
0.2060461044 -0.1812744737 0.1452586651 1.355972064e-39
0.1687146127 -0.2362652421 0.271042943 1.355972064e-39
0.3649009764 -0.1815414727 -0.02866413444 1.355972064e-39
0.1678230762 -0.1744558811 0.1460280865 1.355972064e-39
0.1577672809 -0.3813722134 0.1580327302 1.355972064e-39
0.1690003723 -0.1014148444 0.08077206463 1.355972064e-39
0.2514297962 -0.3622295856 0.3728241324 1.355972064e-39
0.3765278459 -0.1792414486 -0.04098242521 1.540360521e-39
0.2007591873 -0.1568651199 0.0956313014 1.540360521e-39
0.1651796103 -0.1622512043 0.1212144345 1.540360521e-39
0.2120319158 -0.2071978003 0.2062577903 1.540360521e-39
0.05822046846 -0.1023403928 0.1099641025 1.540360521e-39
0.4425927103 -0.2043552846 -0.0281329006 1.540360521e-39
0.2543367147 -0.2956930697 0.3460151851 1.540360521e-39
0.2072234154 -0.108233422 0.08000263572 1.540360521e-39
0.275382489 -0.3591435254 0.3595593572 1.724747577e-39
0.1704665422 -0.186660558 0.1708417386 1.724747577e-39
0.4024251401 -0.1868460625 -0.04080533981 1.724747577e-39
0.428322345 -0.1944506466 -0.04062826931 1.724747577e-39
0.2323286831 -0.3094697595 0.3727219105 1.724747577e-39
0.2403497398 -0.3721922636 0.3758407533 1.724747577e-39
0.3907982707 -0.1891461015 -0.02848705649 1.724747577e-39
0.09753618389 -0.3883303106 0.1855088323 1.724747577e-39
0.4166955054 -0.1967506856 -0.02830997854 1.909134633e-39
0.1010919809 -0.3636432886 0.3343634009 1.909134633e-39
0.06545197964 -0.1374403834 0.1730333418 1.909134633e-39
0.2373114973 -0.3461763561 0.3810023069 1.909134633e-39
0.3143521845 -0.1755089313 -0.02694819868 1.909134633e-39
0.2562813163 -0.3063836992 0.3594570756 1.909134633e-39
0.199706167 -0.2079838216 0.2072042972 1.909134633e-39
0.1832707077 -0.1113194674 0.09326743335 1.909134633e-39
0.06280851364 -0.1252357215 0.1482196897 2.09352309e-39
0.1733026803 -0.2591605484 0.3092985153 2.09352309e-39
0.3259791136 -0.1732088923 -0.039266482 2.09352309e-39
0.093800053 -0.09695430845 0.08438102156 2.09352309e-39
0.1570684016 -0.3798581958 0.1466609538 2.09352309e-39
0.2723442614 -0.3331276178 0.3647208214 2.09352309e-39
0.2027037591 -0.1675557643 0.109073177 2.09352309e-39
0.2161137611 -0.2888744473 0.3467846215 2.09352309e-39
0.167124182 -0.1729418635 0.1346563101 2.277910146e-39
0.0814742893 -0.0977403298 0.08532752842 2.277910146e-39
0.1000889838 -0.3744265139 0.2816446424 2.277910146e-39
0.2214937508 -0.1181380451 0.09249799699 2.277910146e-39
0.177890718 -0.2820558846 0.3475540578 2.277910146e-39
0.06739655882 -0.1481310427 0.1864752173 2.277910146e-39
0.1706592143 -0.2469559014 0.2844848335 2.277910146e-39
0.0575215891 -0.1008263826 0.09859232605 2.277910146e-39
0.2741367817 -0.3499668837 0.3574892581 2.462297202e-39
0.0983871147 -0.3836957216 0.2175541222 2.462297202e-39
0.169767648 -0.1851465404 0.1594699621 2.462297202e-39
0.441893816 -0.2028412819 -0.03950467706 2.462297202e-39
0.07198461145 -0.1710263789 0.2247307897 2.462297202e-39
0.3900993764 -0.1876320839 -0.03985883296 2.462297202e-39
0.1873804033 -0.2087698281 0.208150804 2.462297202e-39
0.1734642088 -0.1462324709 0.07271066308 2.462297202e-39
0.4302669466 -0.2051413059 -0.02718639374 2.646685659e-39
0.2181504369 -0.36826545 0.1512300968 2.646685659e-39
0.1447426379 -0.380644232 0.1476074606 2.646685659e-39
0.2459001541 -0.3178603649 0.3738454878 2.646685659e-39
0.2331206203 -0.1158380136 0.08017971367 2.646685659e-39
0.340249449 -0.1831135154 -0.02677112073 2.646685659e-39
0.09683730453 -0.3868163228 0.1741370559 2.646685659e-39
0.2169439197 -0.3829409182 0.3798038661 2.646685659e-39
0.172411114 -0.1973511875 0.1842836589 2.830713982e-39
0.2249857485 -0.3469623625 0.3819487989 2.830713982e-39
0.1611383855 -0.1470184922 0.07365718484 2.830713982e-39
0.209168002 -0.1189240664 0.09344450384 2.830713982e-39
0.06210963428 -0.1237217039 0.1368478537 2.830713982e-39
0.07921612263 -0.206126377 0.287800014 2.830713982e-39
0.236065805 -0.3369996846 0.3789322078 2.830713982e-39
0.1002410352 -0.3682779074 0.3023180962 2.830713982e-39
0.2046483457 -0.1782464385 0.1225150973 3.015101038e-39
0.175247252 -0.2698512077 0.3227404058 3.015101038e-39
0.1324168891 -0.3814302385 0.1485539675 3.015101038e-39
0.2207948714 -0.1166240275 0.08112622052 3.015101038e-39
0.2020048797 -0.1660417616 0.09770140052 3.015101038e-39
0.1664253175 -0.171427846 0.1232845336 3.015101038e-39
0.09574463964 -0.1076449752 0.09782289714 3.015101038e-39
0.2471458614 -0.3270370364 0.3759155869 3.015101038e-39
0.2728910744 -0.3407902718 0.3554191589 3.199488094e-39
0.1690687835 -0.1836325228 0.1480981857 3.199488094e-39
0.1637818515 -0.1592231691 0.09847083688 3.199488094e-39
0.05682270974 -0.09931236506 0.08722054958 3.199488094e-39
0.3013275266 -0.174780935 -0.03737346083 3.199488094e-39
0.3279237151 -0.1838995367 -0.02582461387 3.199488094e-39
0.2297773063 -0.365965426 0.1389118135 3.199488094e-39
0.1003931016 -0.3621293008 0.3229916394 3.199488094e-39
0.1084641814 -0.3845162988 0.1618187577 3.383517819e-39
0.3661466837 -0.1907181442 -0.02659404278 3.383517819e-39
0.05946617573 -0.1115170494 0.1120342016 3.383517819e-39
0.06669767946 -0.14661704 0.175103426 3.383517819e-39
0.2536378503 -0.2941790521 0.3346434236 3.383517819e-39
0.09768823534 -0.382181704 0.2061823457 3.383517819e-39
0.1702460796 -0.1105914786 0.08284216374 3.383517819e-39
0.07128573954 -0.1695123613 0.2133590132 3.383517819e-39
0.1196972728 -0.1045589298 0.08455809951 3.567904875e-39
0.2710985541 -0.3239509761 0.3626507521 3.567904875e-39
0.4438384175 -0.2135319412 -0.02606280148 3.567904875e-39
0.2335743904 -0.3186464012 0.3747920096 3.567904875e-39
0.392043978 -0.1983227283 -0.02641696483 3.567904875e-39
0.2174515575 -0.3667514324 0.1398583204 3.567904875e-39
0.4179412127 -0.2059273124 -0.02623988688 3.567904875e-39
0.0985391736 -0.3775471151 0.238227576 3.567904875e-39
0.1200911254 -0.3822162449 0.1495004743 3.75229193e-39
0.228570804 -0.3806408942 0.3674855828 3.75229193e-39
0.1073715091 -0.1053449437 0.08550461382 3.75229193e-39
0.09939010441 -0.3729124963 0.2702728808 3.75229193e-39
0.1717122346 -0.1958371699 0.1729118377 3.75229193e-39
0.08341887593 -0.1084309965 0.09876940399 3.75229193e-39
0.2084691226 -0.1174100488 0.08207272738 3.75229193e-39
0.2132776231 -0.2163744569 0.2083278894 3.75229193e-39
0.06405422091 -0.1344123632 0.1502897739 3.936320254e-39
0.1870356649 -0.154623121 0.07383425534 3.936320254e-39
0.1630829573 -0.1577091664 0.08709906042 3.936320254e-39
0.191462189 -0.29044649 0.3486776352 3.936320254e-39
0.2555824518 -0.3048696816 0.3480852842 3.936320254e-39
0.2396508604 -0.370678246 0.364468962 3.936320254e-39
0.3155978918 -0.1846855581 -0.02487809956 3.936320254e-39
0.2039494663 -0.1767324209 0.1111432761 3.936320254e-39
0.2393675148 -0.2842743993 0.3221480548 4.120708711e-39
0.09504576027 -0.1061309651 0.08645112067 4.120708711e-39
0.35382092 -0.1915041506 -0.02564752847 4.120708711e-39
0.07109306008 -0.1092170179 0.0997159183 4.120708711e-39
0.06864226609 -0.1573076844 0.1885453016 4.120708711e-39
0.2011445314 -0.2774558365 0.3229174912 4.120708711e-39
0.1771918386 -0.2805418968 0.3361822665 4.120708711e-39
0.2099352777 -0.2026557624 0.1721424013 4.120708711e-39
0.1657264233 -0.1699138284 0.1119126976 4.304737034e-39
0.06141075492 -0.1222076938 0.1254760772 4.304737034e-39
0.3272248209 -0.182385534 -0.03719639033 4.304737034e-39
0.1743557006 -0.2080418468 0.1977255344 4.304737034e-39
0.2013060004 -0.1645277441 0.08632962406 4.304737034e-39
0.1077653021 -0.3830022812 0.1504469812 4.304737034e-39
0.2009518594 -0.2171604633 0.2092743963 4.304737034e-39
0.1579203159 -0.1113775 0.0837886706 4.304737034e-39
0.2144525051 -0.3645876348 0.3756636679 4.48912409e-39
0.1961432993 -0.1181960702 0.08301924169 4.48912409e-39
0.05876729637 -0.1100030392 0.1006624252 4.48912409e-39
0.1934067756 -0.3011371791 0.3621195257 4.48912409e-39
0.0659988001 -0.1451030374 0.1637316495 4.48912409e-39
0.2413121015 -0.2949650884 0.3355899155 4.48912409e-39
0.4431395233 -0.2120179236 -0.03743458539 4.48912409e-39
0.2716453671 -0.3316136003 0.3533490598 4.48912409e-39
0.2173594683 -0.2980511189 0.3488547206 4.673152414e-39
0.1339676082 -0.1144635528 0.09705346823 4.673152414e-39
0.3032721281 -0.1854715794 -0.0239315927 4.673152414e-39
0.1623840928 -0.1561951637 0.07572728395 4.673152414e-39
0.4315126538 -0.2143179476 -0.02511629462 4.673152414e-39
0.405615449 -0.2067133486 -0.02529338002 4.673152414e-39
0.07323031127 -0.1802030206 0.2268008739 4.673152414e-39
0.266207844 -0.3559447527 0.1453739703 4.673152414e-39
0.1688473374 -0.3714095354 0.1550161242 4.857539469e-39
0.4172423184 -0.2044133097 -0.03761166334 4.857539469e-39
0.2734379172 -0.3484528661 0.3461174667 4.857539469e-39
0.1791364253 -0.2912325263 0.349624157 4.857539469e-39
0.2343663275 -0.1250146627 0.08224981278 4.857539469e-39
0.07039418072 -0.1077030078 0.08834413439 4.857539469e-39
0.2401976883 -0.3783408701 0.3551672697 4.857539469e-39
0.2125787437 -0.2148604393 0.1969560981 4.857539469e-39
0.07058685273 -0.1679983437 0.2019871771 5.041567793e-39
0.1650275588 -0.1683998108 0.1005409211 5.041567793e-39
0.188818723 -0.278241843 0.3238639832 5.041567793e-39
0.2270417511 -0.2850604057 0.3230945468 5.041567793e-39
0.203089118 -0.288146466 0.3363593519 5.041567793e-39
0.203372404 -0.3745503128 0.378680259 5.041567793e-39
0.3531220257 -0.1899901479 -0.03701930493 5.041567793e-39
0.09969422221 -0.3606152833 0.311619848 5.041567793e-39
0.1093160957 -0.1160355881 0.09894648194 5.225597518e-39
0.2092363983 -0.2011417449 0.1607706249 5.225597518e-39
0.2104137093 -0.128100723 0.09551460296 5.225597518e-39
0.1719049066 -0.2561325431 0.2865549326 5.225597518e-39
0.1838175356 -0.1189820915 0.08396574855 5.225597518e-39
0.1565215886 -0.3721955717 0.1559626311 5.225597518e-39
0.2512777448 -0.368378222 0.3521506786 5.225597518e-39
0.1922923476 -0.3845129609 0.3816968799 5.225597518e-39
0.05806841701 -0.1084890217 0.0892906487 5.409984573e-39
0.2220405787 -0.1258006841 0.08319631964 5.409984573e-39
0.06071187556 -0.1206936836 0.1141042933 5.409984573e-39
0.2415563166 -0.3575167954 0.147266984 5.409984573e-39
0.3790192604 -0.197594732 -0.03684223443 5.409984573e-39
0.2132068127 -0.3554109931 0.3735935688 5.409984573e-39
0.3025732338 -0.1839575768 -0.03530336916 5.409984573e-39
0.1763002872 -0.218732506 0.21116741 5.409984573e-39
0.3291694224 -0.1930761933 -0.02375451475 5.594012897e-39
0.06529992074 -0.1435890198 0.1523598731 5.594012897e-39
0.1703144759 -0.1928091645 0.1501682699 5.594012897e-39
0.168148458 -0.3698955178 0.1436443478 5.594012897e-39
0.1882813722 -0.1637997478 0.07590435445 5.594012897e-39
0.2518245578 -0.3760408163 0.3428489864 5.594012897e-39
0.3932896852 -0.2074993551 -0.02434687316 5.594012897e-39
0.4049165547 -0.205199331 -0.03666515648 5.594012897e-39
0.1643286645 -0.1668857932 0.08916914463 5.77804122e-39
0.1764929593 -0.2790278792 0.3248105049 5.77804122e-39
0.4191869199 -0.2151039839 -0.02416978776 5.77804122e-39
0.08466457576 -0.1176076233 0.1008394957 5.77804122e-39
0.1714917868 -0.1197681129 0.08491225541 5.77804122e-39
0.2069782913 -0.3095277846 0.363243103 5.77804122e-39
0.07781835645 -0.2030983418 0.2650564015 5.77804122e-39
0.1907633096 -0.2889325023 0.3373058736 5.77804122e-39
0.2118798643 -0.2133464217 0.1855843216 5.962428276e-39
0.2147160023 -0.285846442 0.3240410686 5.962428276e-39
0.2703996897 -0.3224369586 0.3512789607 5.962428276e-39
0.07253143936 -0.178689003 0.2154290974 5.962428276e-39
0.07517489791 -0.190893665 0.2402427495 5.962428276e-39
0.2739847302 -0.3561154902 0.3368157744 5.962428276e-39
0.1759556085 -0.1645857692 0.07685086131 5.962428276e-39
0.2629046142 -0.3660781682 0.3398323953 5.962428276e-39
0.1086172163 -0.114521578 0.08757470548 6.1464566e-39
0.208537519 -0.1996277273 0.1493988484 6.1464566e-39
0.2169047296 -0.3590888381 0.1491599977 6.1464566e-39
0.06265646219 -0.131384328 0.1275461763 6.1464566e-39
0.2025517076 -0.1737043858 0.08839972317 6.1464566e-39
0.2531831861 -0.3552167416 0.1349487007 6.1464566e-39
0.0723387599 -0.1183936521 0.10178601 6.1464566e-39
0.3550666273 -0.2006807923 -0.0235774368 6.1464566e-39
0.2145233154 -0.2255510688 0.2103979737 6.330484923e-39
0.2039192319 -0.3822129369 0.3693785965 6.330484923e-39
0.2119611055 -0.3462343514 0.3715234697 6.330484923e-39
0.1318700612 -0.3737676144 0.1578556448 6.330484923e-39
0.06724450737 -0.1542796493 0.1658017486 6.330484923e-39
0.1857621223 -0.1296727657 0.09740762413 6.330484923e-39
0.1475391388 -0.1228541583 0.09817704558 6.330484923e-39
0.1927078962 -0.2996231616 0.3507477343 6.330484923e-39
0.2051951736 -0.1859090626 0.1132133603 6.514514648e-39
0.1636298001 -0.1653717905 0.07779736817 6.514514648e-39
0.2406132221 -0.2934510708 0.324218154 6.514514648e-39
0.2008809894 -0.3561970294 0.3745400906 6.514514648e-39
0.0600129962 -0.119179666 0.1027325168 6.514514648e-39
0.2408574224 -0.3560027778 0.1358952075 6.514514648e-39
0.2230411619 -0.3362717032 0.3685068786 6.514514648e-39
0.216660589 -0.2965371013 0.3374829292 6.514514648e-39
0.1973890066 -0.1273727268 0.08508934081 6.698542971e-39
0.08396569639 -0.1160936207 0.0894677192 6.698542971e-39
0.2263428718 -0.2835463881 0.3117227852 6.698542971e-39
0.392590791 -0.2059853524 -0.03571864963 6.698542971e-39
0.175601393 -0.2172184885 0.1997956336 6.698542971e-39
0.1712060273 -0.2546185255 0.2751831412 6.698542971e-39
0.09899534285 -0.3591012657 0.3002480268 6.698542971e-39
0.09559159726 -0.3776396811 0.1720669568 6.698542971e-39
0.1784375459 -0.2897185087 0.3382523656 6.882571295e-39
0.2023902386 -0.2866324484 0.3249875605 6.882571295e-39
0.211180985 -0.2118324041 0.1742125005 6.882571295e-39
0.1352133155 -0.1236401796 0.09912355989 6.882571295e-39
0.420214355 -0.2998432517 0.1227188781 6.882571295e-39
0.194652468 -0.3103138208 0.364189595 6.882571295e-39
0.2021975666 -0.226337105 0.2113444805 6.882571295e-39
0.1195442975 -0.3745536208 0.1588021517 6.882571295e-39
0.1228875667 -0.124426201 0.1000700668 7.066599618e-39
0.2745315433 -0.3637781441 0.327514112 7.066599618e-39
0.2018528283 -0.1721903831 0.07702794671 7.066599618e-39
0.3045178354 -0.194648236 -0.02186149359 7.066599618e-39
0.4184880257 -0.2135899663 -0.03554157168 7.066599618e-39
0.272739023 -0.3469388485 0.3347457051 7.066599618e-39
0.239498809 -0.3768268526 0.3437955081 7.066599618e-39
0.07163988054 -0.116879642 0.09041423351 7.066599618e-39
0.2709465027 -0.3300995827 0.3419772685 7.250627941e-39
0.1311711818 -0.3722535968 0.1464838684 7.250627941e-39
0.1722590625 -0.203499794 0.1636101454 7.250627941e-39
0.2205497473 -0.31791839 0.3643666804 7.250627941e-39
0.4327583611 -0.2234945893 -0.02304620296 7.250627941e-39
0.3369721472 -0.3313613236 0.1241829321 7.250627941e-39
0.2162058502 -0.3575748205 0.1377882212 7.250627941e-39
0.3610769212 -0.3221266568 0.1315916181 7.250627941e-39
0.2155461609 -0.3799129128 0.3570602834 7.434656265e-39
0.1850632429 -0.1281587481 0.08603584766 7.434656265e-39
0.3253452778 -0.3336613476 0.1365012378 7.434656265e-39
0.1689167172 -0.1897811294 0.1274247169 7.434656265e-39
0.2044962943 -0.184395045 0.1018415838 7.434656265e-39
0.1072184891 -0.3753396571 0.1597486734 7.434656265e-39
0.1803821325 -0.300409168 0.3516942561 7.434656265e-39
0.06195758283 -0.1298703253 0.116174385 7.434656265e-39
0.1468402594 -0.1213401556 0.08680526912 7.618684588e-39
0.1757940799 -0.2775138617 0.3134387136 7.618684588e-39
0.06918909401 -0.1649703383 0.1792436242 7.618684588e-39
0.2282874584 -0.2942370772 0.3251646459 7.618684588e-39
0.1895270795 -0.1729764044 0.07797445357 7.618684588e-39
0.2138244361 -0.224037081 0.1990261972 7.618684588e-39
0.2038801014 -0.358360827 0.1387347281 7.618684588e-39
0.214017123 -0.2843324244 0.3126692772 7.618684588e-39
0.06654562801 -0.1527656466 0.1544299722 7.802712912e-39
0.09644253552 -0.3730050623 0.2041122466 7.802712912e-39
0.2684550881 -0.3117462993 0.3378371 7.802712912e-39
0.2232862711 -0.1349773109 0.0852664113 7.802712912e-39
0.3802649677 -0.2067713737 -0.03477213532 7.802712912e-39
0.1900644302 -0.2874184847 0.3259340823 7.802712912e-39
0.3686380982 -0.2090713978 -0.022453852 7.802712912e-39
0.1655743718 -0.1760624647 0.09123924375 7.802712912e-39
0.1188454181 -0.3730396032 0.1474303752 7.986382503e-39
0.1345144361 -0.122126177 0.08775178343 7.986382503e-39
0.2511256933 -0.3745268285 0.3314772248 7.986382503e-39
0.1823267043 -0.3110998273 0.3651361167 7.986382503e-39
0.2217954546 -0.3270950615 0.3664367795 7.986382503e-39
0.0948927179 -0.3761256635 0.1606951803 7.986382503e-39
0.09814439714 -0.3637358546 0.2682027817 7.986382503e-39
0.2104821056 -0.2103183866 0.162840724 7.986382503e-39
0.396109581 -0.3090779185 0.115310207 8.170410826e-39
0.1775459945 -0.2279091477 0.2132375091 8.170410826e-39
0.3304151297 -0.202252835 -0.02168442309 8.170410826e-39
0.1993335783 -0.1380633712 0.09853120893 8.170410826e-39
0.3038189411 -0.1931342185 -0.03323327005 8.170410826e-39
0.1221886873 -0.1229121983 0.08869829029 8.170410826e-39
0.06390216202 -0.1405609846 0.1296162754 8.170410826e-39
0.1682178378 -0.1882671118 0.1160528958 8.170410826e-39
0.08170753717 -0.2244796604 0.2919402122 8.35443915e-39
0.406162262 -0.2143759876 -0.03459505737 8.35443915e-39
0.1915543377 -0.3591468632 0.139681235 8.35443915e-39
0.1715601832 -0.2019857913 0.152238369 8.35443915e-39
0.2271730453 -0.377612859 0.3447420001 8.35443915e-39
0.2109605223 -0.1357633471 0.08621291816 8.35443915e-39
0.3246463835 -0.33214733 0.1251294613 8.35443915e-39
0.2375566363 -0.1448819637 0.09776178002 8.35443915e-39
0.4320594668 -0.2219805717 -0.03441797942 8.538467473e-39
0.09753716737 -0.1244842336 0.090591304 8.538467473e-39
0.07906406373 -0.2122749835 0.2671265006 8.538467473e-39
0.3130195141 -0.3344473839 0.1374477446 8.538467473e-39
0.09829645604 -0.3575872481 0.2888762355 8.538467473e-39
0.2697007954 -0.320922941 0.3399071991 8.538467473e-39
0.360378027 -0.3206126392 0.1202198267 8.538467473e-39
0.1676016301 -0.3622329235 0.15294604 8.538467473e-39
0.08521140367 -0.1252702475 0.09153781086 8.722137064e-39
0.2131255567 -0.2225230634 0.1876544207 8.722137064e-39
0.1487848461 -0.1320308149 0.1002471447 8.722137064e-39
0.1914716661 -0.1836670339 0.09141631424 8.722137064e-39
0.09574365616 -0.3714910448 0.1927404106 8.722137064e-39
0.3487510979 -0.322912693 0.1325381249 8.722137064e-39
0.1873095334 -0.3478063941 0.3734164834 8.722137064e-39
0.1648755074 -0.1745484471 0.07986746728 8.722137064e-39
0.07642059773 -0.2000703216 0.2423128486 8.906165387e-39
0.2032203525 -0.3806989193 0.3580068052 8.906165387e-39
0.06125870347 -0.1283563077 0.1048026085 8.906165387e-39
0.1742036343 -0.2141904831 0.177052021 8.906165387e-39
0.06849021465 -0.1634563208 0.1678718477 8.906165387e-39
0.07113367319 -0.1756609678 0.1926854998 8.906165387e-39
0.252636373 -0.3475541174 0.144250378 8.906165387e-39
0.1983895898 -0.3378437459 0.3703998923 8.906165387e-39
0.3180893064 -0.2030388415 -0.02073790878 9.089834978e-39
0.2157690227 -0.2347277403 0.2124680728 9.089834978e-39
0.09419383854 -0.3746116459 0.1493234038 9.089834978e-39
0.198634699 -0.1365493536 0.08715943247 9.089834978e-39
0.1364590228 -0.1328168511 0.101193659 9.089834978e-39
0.06584674865 -0.151251629 0.1430581361 9.089834978e-39
0.1708613038 -0.2004717737 0.1408665925 9.089834978e-39
0.1675189584 -0.1867530942 0.1046811193 9.089834978e-39
0.2252308726 -0.1456679851 0.09870828688 9.273863302e-39
0.3822095692 -0.217462033 -0.02133025974 9.273863302e-39
0.124133274 -0.1336028576 0.1021401659 9.273863302e-39
0.1750952005 -0.2759998441 0.3020668924 9.273863302e-39
0.3938364983 -0.215162009 -0.03364855051 9.273863302e-39
0.2738326788 -0.3622641265 0.316142261 9.273863302e-39
0.2387999296 -0.375312835 0.3324237168 9.273863302e-39
0.1768471003 -0.2263951302 0.2018657327 9.273863302e-39
0.2418589294 -0.3026276827 0.3262882531 9.457532893e-39
0.2064408809 -0.1950856894 0.1152834594 9.457532893e-39
0.06320328265 -0.139046967 0.1182444841 9.457532893e-39
0.09744552523 -0.3622218668 0.2568309903 9.457532893e-39
0.1791459024 -0.1844530702 0.0923628211 9.457532893e-39
0.2036359459 -0.2958091199 0.3270576596 9.457532893e-39
0.1746820658 -0.1396354139 0.1004242226 9.457532893e-39
0.1891020536 -0.3646456599 0.3661848903 9.457532893e-39
0.2702476382 -0.3285855651 0.3306055069 9.641561216e-39
0.2743794918 -0.3699267507 0.3068405986 9.641561216e-39
0.2034432739 -0.2355137467 0.2134145796 9.641561216e-39
0.1480859667 -0.1305167973 0.08887536824 9.641561216e-39
0.2642632425 -0.3452540636 0.1319320947 9.641561216e-39
0.2148472816 -0.3783988953 0.3456885219 9.641561216e-39
0.3057635427 -0.2038248777 -0.01979140192 9.641561216e-39
0.1669027507 -0.3607189059 0.1415742636 9.641561216e-39
0.3006937802 -0.3352333903 0.1383942515 9.825230807e-39
0.1863089353 -0.1373353899 0.08810593933 9.825230807e-39
0.1724517345 -0.2637951672 0.2772532403 9.825230807e-39
0.3556134403 -0.2083434165 -0.0328791216 9.825230807e-39
0.4197337329 -0.222766608 -0.03347147256 9.825230807e-39
0.3721569777 -0.3121640086 0.1285750121 9.825230807e-39
0.0950447768 -0.3699770272 0.1813686341 9.825230807e-39
0.1735047698 -0.2126764655 0.1656802446 9.825230807e-39
0.3173904121 -0.2015248388 -0.03210969269 1.000925913e-38
0.2677562237 -0.3102322817 0.3264653087 1.000925913e-38
0.06055982411 -0.1268422902 0.09343083203 1.000925913e-38
0.1701624244 -0.1989577711 0.1294948161 1.000925913e-38
0.1860638261 -0.3386297524 0.3713463843 1.000925913e-38
0.3480522037 -0.3213986754 0.121166341 1.000925913e-38
0.2519374788 -0.3460400999 0.1328786016 1.000925913e-38
0.2245319784 -0.1441539824 0.08733651042 1.000925913e-38
0.2090843469 -0.2072903812 0.1400971562 1.019292872e-38
0.1908945888 -0.3814849555 0.3589533269 1.019292872e-38
0.4340040684 -0.2326712459 -0.02097610384 1.019292872e-38
0.1816278249 -0.3095858097 0.3537643254 1.019292872e-38
0.1234343946 -0.13208884 0.0907683894 1.019292872e-38
0.07043479383 -0.1741469651 0.1813137233 1.019292872e-38
0.381510675 -0.2159480304 -0.03270204365 1.019292872e-38
0.1668200791 -0.1852390766 0.09330934286 1.019292872e-38
0.1623563021 -0.1404214352 0.1013707295 1.037659831e-38
0.3698838055 -0.2182480693 -0.02038375288 1.037659831e-38
0.2150701433 -0.2332137227 0.2010962963 1.037659831e-38
0.2057420015 -0.1935716867 0.103911683 1.037659831e-38
0.1911175102 -0.236299783 0.2143610865 1.037659831e-38
0.1835724115 -0.320276469 0.3672062159 1.037659831e-38
0.2152628303 -0.2935090661 0.3147393763 1.037659831e-38
0.2707944512 -0.336248219 0.3213038146 1.037659831e-38
0.06514786929 -0.1497376263 0.1316863596 1.056062664e-38
0.2005792856 -0.1472400278 0.100601308 1.056062664e-38
0.1770397872 -0.2866904736 0.3155088127 1.056062664e-38
0.1111086309 -0.1328748763 0.09171489626 1.056062664e-38
0.2396117151 -0.3468261063 0.1338251084 1.056062664e-38
0.1739831865 -0.1381213963 0.08905244619 1.056062664e-38
0.1761482358 -0.2248811126 0.1904939413 1.056062664e-38
0.2264741659 -0.3760988712 0.3333702385 1.056062664e-38
0.09774962813 -0.349924624 0.2981779277 1.074429623e-38
0.3316608369 -0.2114294618 -0.01961433142 1.074429623e-38
0.2033332735 -0.3506982028 0.1480364054 1.074429623e-38
0.2122062296 -0.1449399889 0.08828301728 1.074429623e-38
0.09589570761 -0.3653424382 0.213413924 1.074429623e-38
0.1422512382 -0.3622909188 0.1434672773 1.074429623e-38
0.2999948859 -0.3337193727 0.127022475 1.074429623e-38
0.2272859216 -0.3476121426 0.1347716153 1.074429623e-38
0.06250440329 -0.1375329643 0.1068727076 1.092796582e-38
0.2883679569 -0.3360194266 0.1393407583 1.092796582e-38
0.211727798 -0.2194950283 0.1649108082 1.092796582e-38
0.2690019011 -0.3194089234 0.3285354078 1.092796582e-38
0.2388023436 -0.1540586054 0.09983187169 1.092796582e-38
0.1728058755 -0.2111624479 0.1543084681 1.092796582e-38
0.1848181188 -0.3294531107 0.369276315 1.092796582e-38
0.2620536685 -0.3707127571 0.3077870905 1.092796582e-38
0.1500305384 -0.1412074566 0.1023172364 1.111163541e-38
0.2025214732 -0.3791849017 0.3466350436 1.111163541e-38
0.09674663842 -0.3607078493 0.2454591691 1.111163541e-38
0.09434589744 -0.3684630394 0.1699968576 1.111163541e-38
0.1743963063 -0.2744858265 0.290695101 1.111163541e-38
0.08645710349 -0.1344469041 0.09360790998 1.111163541e-38
0.3714580834 -0.310649991 0.1172032207 1.111163541e-38
0.4182697535 -0.2891525924 0.1092769951 1.111163541e-38
0.1182985902 -0.3653769791 0.1567320675 1.1295305e-38
0.1787917018 -0.2370857894 0.2153075933 1.1295305e-38
0.214960143 -0.348398149 0.1357181221 1.1295305e-38
0.33572644 -0.3221846819 0.1221128479 1.1295305e-38
0.3240995705 -0.3244847059 0.1344311386 1.1295305e-38
0.2050431222 -0.1920576692 0.0925399065 1.1295305e-38
0.1377047151 -0.141993463 0.1032637507 1.1295305e-38
0.2083854675 -0.2057763636 0.1287253797 1.1295305e-38
0.080309771 -0.2214516401 0.2691965997 1.147897319e-38
0.186610654 -0.3462924063 0.3620447218 1.147897319e-38
0.4216783345 -0.2334572673 -0.02002959698 1.147897319e-38
0.1789843738 -0.2973811626 0.3289506733 1.147897319e-38
0.2731338143 -0.360750109 0.3047704995 1.147897319e-38
0.4066428244 -0.2914526463 0.1215952858 1.147897319e-38
0.1927173734 -0.1928436756 0.09348641336 1.147897319e-38
0.07413128763 -0.1352329254 0.09455442429 1.147897319e-38
0.07766630501 -0.2092469484 0.2443829477 1.166264278e-38
0.06709245592 -0.1604282856 0.1451282352 1.166264278e-38
0.2264765799 -0.1548446119 0.1007783785 1.166264278e-38
0.07502284646 -0.1970423013 0.2195692956 1.166264278e-38
0.21701473 -0.243904382 0.2145381719 1.166264278e-38
0.2026343942 -0.3491841853 0.136664629 1.166264278e-38
0.1059727818 -0.3661630154 0.1576785743 1.166264278e-38
0.4475755394 -0.2410618663 -0.01985251904 1.166264278e-38
0.3834552765 -0.2266386747 -0.01926016808 1.184631237e-38
0.2713412642 -0.3439108431 0.3120020926 1.184631237e-38
0.2141484022 -0.3768848777 0.3343167305 1.184631237e-38
0.06444898993 -0.1482236087 0.1203145757 1.184631237e-38
0.1493316591 -0.139693439 0.0909454599 1.184631237e-38
0.3950822055 -0.2243386358 -0.03157845885 1.184631237e-38
0.1759277731 -0.1488120705 0.1024943218 1.184631237e-38
0.1721070111 -0.2096484303 0.1429366916 1.184631237e-38
0.1884031743 -0.3631316423 0.3548131287 1.202998196e-38
0.1175997108 -0.3638629615 0.145360291 1.202998196e-38
0.2110289186 -0.2179810107 0.1535390317 1.202998196e-38
0.2381034493 -0.1525445879 0.08846009523 1.202998196e-38
0.09364701807 -0.3669490218 0.1586250812 1.202998196e-38
0.1875546426 -0.1465120316 0.09017603844 1.202998196e-38
0.2670573294 -0.3087182641 0.3150935471 1.202998196e-38
0.1763409078 -0.285176456 0.3041369915 1.202998196e-38
0.1786817461 -0.3522702456 0.1499294192 1.221365155e-38
0.1903086305 -0.3499701917 0.1376111358 1.221365155e-38
0.1803916097 -0.193629697 0.09443292022 1.221365155e-38
0.2048816532 -0.3049857616 0.3291277587 1.221365155e-38
0.124680087 -0.1412654817 0.09283848107 1.221365155e-38
0.3452322781 -0.2198200971 -0.01849073917 1.221365155e-38
0.3117738068 -0.3252707422 0.1353776455 1.221365155e-38
0.3070092499 -0.2130015045 -0.01772131026 1.221365155e-38
0.09705074877 -0.3484106064 0.2868061364 1.239732115e-38
0.1780928075 -0.2355718017 0.2039358169 1.239732115e-38
0.2637164295 -0.3375914693 0.141233772 1.239732115e-38
0.2046889812 -0.2446903884 0.2154846787 1.239732115e-38
0.4093525708 -0.2342432886 -0.01908309013 1.239732115e-38
0.3186361194 -0.2107014656 -0.03003959358 1.239732115e-38
0.1052739024 -0.3646489978 0.1463067979 1.239732115e-38
0.1636020094 -0.1495980918 0.1034408286 1.239732115e-38
0.4059439301 -0.2899386287 0.1102235094 1.258099074e-38
0.3475053906 -0.3137360215 0.1304680258 1.258099074e-38
0.2257776856 -0.1533306092 0.08940660208 1.258099074e-38
0.1123543233 -0.1420515031 0.09378498793 1.258099074e-38
0.2718880773 -0.3515734673 0.3027004004 1.258099074e-38
0.4209794402 -0.2319432497 -0.0314013809 1.258099074e-38
0.1736974418 -0.2729718089 0.2793233395 1.258099074e-38
0.4468766451 -0.2395478487 -0.0312242955 1.258099074e-38
0.4611470401 -0.2494524717 -0.01872894168 1.276466033e-38
0.3827563822 -0.2251246572 -0.03063194454 1.276466033e-38
0.1828735322 -0.3187624514 0.3558344245 1.276466033e-38
0.07961089164 -0.2199376225 0.2578248084 1.276466033e-38
0.1752288938 -0.1472980678 0.0911225453 1.276466033e-38
0.2513906658 -0.3383774757 0.1421802789 1.276466033e-38
0.187157467 -0.3539550304 0.3527430296 1.276466033e-38
0.06903703511 -0.1711189449 0.1585701555 1.276466033e-38
0.4352497756 -0.2418478727 -0.01890601218 1.294832852e-38
0.1000285745 -0.1428375244 0.09473149478 1.294832852e-38
0.2018225938 -0.3776708841 0.3352632523 1.294832852e-38
0.09449794888 -0.3623144031 0.1906703264 1.294832852e-38
0.2753432989 -0.3352914155 0.1289154887 1.294832852e-38
0.1512762457 -0.1503840983 0.1043873355 1.294832852e-38
0.2163158506 -0.2423903644 0.2031663954 1.294832852e-38
0.1680657864 -0.1944157183 0.09537942708 1.294832852e-38
0.09294813871 -0.3654350042 0.1472533047 1.313163938e-38
0.2547315061 -0.3095043004 0.3160400391 1.313163938e-38
0.2134519368 -0.1541166306 0.09035310894 1.313163938e-38
0.261354804 -0.3691987395 0.296415329 1.313163938e-38
0.1889500022 -0.3707942963 0.3455114365 1.313163938e-38
0.1925558299 -0.3057717681 0.3300742805 1.313163938e-38
0.2069877088 -0.2027483284 0.1059817821 1.313163938e-38
0.3329065442 -0.2206061184 -0.01754423231 1.313163938e-38
0.1389504224 -0.1511701345 0.1053338498 1.331530897e-38
0.2400480509 -0.1632352322 0.1019019634 1.331530897e-38
0.2724349201 -0.3592360914 0.2933987081 1.331530897e-38
0.08419894427 -0.2428329289 0.2960803807 1.331530897e-38
0.3970268071 -0.23502931 -0.01813658327 1.331530897e-38
0.4730572701 -0.3335562646 0.01127368957 1.331530897e-38
0.1266246736 -0.151956141 0.1062803566 1.331530897e-38
0.1859117746 -0.3447783887 0.3506729305 1.331530897e-38
0.3468064964 -0.3122220039 0.1190962419 1.349897856e-38
0.09619982541 -0.3530452251 0.254760921 1.349897856e-38
0.1773939431 -0.2340577841 0.1925640404 1.349897856e-38
0.1656570435 -0.3515422344 0.1395041645 1.349897856e-38
0.3351796269 -0.314522028 0.1314145327 1.349897856e-38
0.4086536765 -0.232729286 -0.03045486659 1.349897856e-38
0.3702123761 -0.3014733195 0.1151331291 1.349897856e-38
0.2144133151 -0.3407355249 0.1450198144 1.349897856e-38
0.2688498497 -0.3255575299 0.3078618944 1.368228942e-38
0.4488212168 -0.250238508 -0.01778242737 1.368228942e-38
0.1417044103 -0.3546282947 0.1527689546 1.368228942e-38
0.1877042949 -0.3616176248 0.3434413373 1.368228942e-38
0.09379906952 -0.3608003855 0.1792985499 1.368228942e-38
0.1800373942 -0.2462624311 0.2173776925 1.368228942e-38
0.0656946972 -0.1574002504 0.1223846748 1.368228942e-38
0.07891201228 -0.218423605 0.2464530468 1.368228942e-38
0.07626855373 -0.2062189281 0.2216393799 1.386595901e-38
0.1771734804 -0.1579886973 0.1045644134 1.386595901e-38
0.2424057573 -0.3102903068 0.3169865608 1.386595901e-38
0.0963518694 -0.3468965888 0.2754343748 1.386595901e-38
0.138251543 -0.149656117 0.09396207333 1.386595901e-38
0.2096311599 -0.2149530053 0.1307954788 1.386595901e-38
0.3819913268 -0.2930246592 0.1234882995 1.386595901e-38
0.3322076499 -0.2190921009 -0.02891600877 1.386595901e-38
0.1533312947 -0.3523282409 0.1404506713 1.404926846e-38
0.06305123121 -0.1451955736 0.09757102281 1.404926846e-38
0.1888003498 -0.1556886733 0.09224613011 1.404926846e-38
0.2182604373 -0.2530809939 0.2166082561 1.404926846e-38
0.2250764072 -0.3730708361 0.310626626 1.404926846e-38
0.2693966627 -0.3332201838 0.2985602021 1.404926846e-38
0.1293786466 -0.3554143012 0.1537154615 1.404926846e-38
0.2871222496 -0.3268427849 0.1372706592 1.404926846e-38
0.2260402143 -0.3384355009 0.1327015311 1.423293806e-38
0.3344807327 -0.3130080104 0.1200427487 1.423293806e-38
0.2011237144 -0.3761568666 0.3238914311 1.423293806e-38
0.1648477167 -0.1587747186 0.1055109203 1.423293806e-38
0.1766950488 -0.2325437665 0.1811922193 1.423293806e-38
0.1136000305 -0.1512281597 0.09585508704 1.423293806e-38
0.09465000033 -0.3561657965 0.2113438398 1.423293806e-38
0.1846660674 -0.3356017172 0.3486028314 1.423293806e-38
0.141005531 -0.3531142771 0.1413971782 1.441624891e-38
0.4481223226 -0.2487244904 -0.02915420383 1.441624891e-38
0.2137144357 -0.3392215073 0.1336480379 1.441624891e-38
0.1775866151 -0.2943531275 0.3062070906 1.441624891e-38
0.1700103581 -0.2051063925 0.1088213027 1.441624891e-38
0.2676041722 -0.3163808882 0.3057917953 1.441624891e-38
0.3082549572 -0.2221781611 -0.01565121114 1.441624891e-38
0.08350006491 -0.2413189262 0.2847086191 1.441624891e-38
0.2122746259 -0.2271576822 0.1556091309 1.459991851e-38
0.2270233929 -0.162507236 0.09147669375 1.459991851e-38
0.2300799936 -0.3110763133 0.3179330528 1.459991851e-38
0.1012742817 -0.152014181 0.0968015939 1.459991851e-38
0.4364954531 -0.2510245144 -0.01683592051 1.459991851e-38
0.176474601 -0.1564746946 0.09319263697 1.459991851e-38
0.1882511228 -0.3692802787 0.3341396749 1.459991851e-38
0.09550093859 -0.3515312076 0.24338907 1.459991851e-38
0.152521953 -0.15956074 0.1064574271 1.478322936e-38
0.3578866124 -0.3022593558 0.1160796359 1.478322936e-38
0.181637302 -0.2028063536 0.09650301933 1.478322936e-38
0.410598278 -0.2434199154 -0.01701299846 1.478322936e-38
0.09580504894 -0.3392339647 0.2847360373 1.478322936e-38
0.3812924325 -0.2915106416 0.1121165231 1.478322936e-38
0.2367032915 -0.3707707822 0.2983083427 1.478322936e-38
0.08085659146 -0.2291142493 0.2598949075 1.478322936e-38
0.2089322805 -0.2134389579 0.1194236428 1.496689755e-38
0.07556966692 -0.2047049105 0.2102675587 1.496689755e-38
0.3723752201 -0.2366013527 -0.0162435621 1.496689755e-38
0.06499581784 -0.1558862478 0.1110128984 1.496689755e-38
0.3462596834 -0.3045594096 0.1283979267 1.496689755e-38
0.2059346735 -0.2538670301 0.2175547779 1.496689755e-38
0.1286797673 -0.3539002836 0.142343685 1.496689755e-38
0.07028274238 -0.1802955717 0.1606402546 1.496689755e-38
0.1749431491 -0.2821484506 0.2813934386 1.515020841e-38
0.2127506435 -0.3738568425 0.3115731478 1.515020841e-38
0.2149180919 -0.2393623292 0.1804227829 1.515020841e-38
0.07821313292 -0.2169096023 0.2350812554 1.515020841e-38
0.3696655631 -0.2938106954 0.1244348064 1.515020841e-38
0.1401961297 -0.1603467613 0.1074039415 1.515020841e-38
0.1834203601 -0.3264251053 0.3465327621 1.515020841e-38
0.1759961843 -0.2310297489 0.1698204428 1.515020841e-38
0.3457790911 -0.2274827212 -0.02779242396 1.533351927e-38
0.2412937582 -0.1724118888 0.1039720625 1.533351927e-38
0.2864233553 -0.3253287673 0.1258988827 1.533351927e-38
0.08544464409 -0.2520095706 0.2981504798 1.533351927e-38
0.2656595707 -0.3056902587 0.2923499346 1.533351927e-38
0.09395112097 -0.3546517789 0.1999720633 1.533351927e-38
0.2417068779 -0.3087762892 0.3056147099 1.533351927e-38
0.2175615579 -0.2515670061 0.2052364796 1.533351927e-38
0.1870054156 -0.360103637 0.3320695758 1.551683013e-38
0.1163540035 -0.3546863198 0.1432901919 1.551683013e-38
0.1887979507 -0.3769429028 0.324837923 1.551683013e-38
0.3075560629 -0.2206641436 -0.0270229876 1.551683013e-38
0.1693114936 -0.2035923749 0.09744952619 1.551683013e-38
0.1518230736 -0.1580467224 0.09508565068 1.551683013e-38
0.2177542299 -0.3118623495 0.3188795745 1.551683013e-38
0.1774360389 -0.3430936038 0.1478593349 1.551683013e-38
0.2115757465 -0.2256436646 0.1442373544 1.570049832e-38
0.2023718208 -0.1640792787 0.09336971492 1.570049832e-38
0.1155446172 -0.161918804 0.1092969552 1.570049832e-38
0.07662270218 -0.1535862237 0.09869461507 1.570049832e-38
0.4500669241 -0.2594151497 -0.01571232826 1.570049832e-38
0.1936089247 -0.2546530366 0.2185012698 1.570049832e-38
0.3982725143 -0.2442059517 -0.0160664916 1.570049832e-38
0.4241697192 -0.2518105507 -0.01588941365 1.570049832e-38
0.2483301759 -0.3684707582 0.2859900594 1.588380918e-38
0.2686977983 -0.3317061663 0.2871884406 1.588380918e-38
0.1394972503 -0.1588327587 0.09603216499 1.588380918e-38
0.2243775278 -0.3715568185 0.2992548645 1.588380918e-38
0.0828011781 -0.2398049086 0.2733367682 1.588380918e-38
0.3339339197 -0.3053454161 0.1293444335 1.588380918e-38
0.1752972901 -0.2295157313 0.1584486663 1.588380918e-38
0.09480205923 -0.35001719 0.2320172936 1.588380918e-38
0.3218264282 -0.2305687666 -0.01452762634 1.606712004e-38
0.3689666688 -0.2922966778 0.1130630299 1.606712004e-38
0.07487078756 -0.2031908929 0.1988957822 1.606712004e-38
0.2501449585 -0.329200834 0.1401101947 1.606712004e-38
0.06694039702 -0.1665768921 0.124454774 1.606712004e-38
0.07751426101 -0.2153955847 0.223709479 1.606712004e-38
0.2142192125 -0.2378483117 0.1690510064 1.606712004e-38
0.1032188684 -0.1627048254 0.110243462 1.606712004e-38
0.07222732157 -0.1909862459 0.1740821302 1.625043089e-38
0.0801577121 -0.2276002318 0.2485231459 1.625043089e-38
0.06958386302 -0.1787815541 0.1492684186 1.625043089e-38
0.1900460571 -0.164865315 0.09431622177 1.625043089e-38
0.1719549596 -0.2157970369 0.1222631782 1.625043089e-38
0.2293811142 -0.3095622957 0.3065612316 1.625043089e-38
0.3098292053 -0.3145800531 0.1219357625 1.625043089e-38
0.4711126983 -0.3228656352 -0.002168178558 1.625043089e-38
0.4636384547 -0.2678057551 -0.0145887509 1.643374035e-38
0.1767371595 -0.3415795863 0.1364875585 1.643374035e-38
0.459333688 -0.3313142657 -0.01052334905 1.643374035e-38
0.166093424 -0.1679513454 0.107581012 1.643374035e-38
0.1814757884 -0.3157344162 0.3330908716 1.643374035e-38
0.1875522435 -0.3677662611 0.3227678239 1.643374035e-38
0.2378192246 -0.3299868703 0.1410567015 1.643374035e-38
0.09170243144 -0.3562583625 0.1451832056 1.643374035e-38
0.2982023656 -0.3168801069 0.1342540532 1.661705121e-38
0.1148457378 -0.1604048014 0.09792517871 1.661705121e-38
0.4493680298 -0.2579011321 -0.02708410472 1.661705121e-38
0.2692446113 -0.3393687904 0.2778867483 1.661705121e-38
0.2108768672 -0.224129647 0.1328655779 1.661705121e-38
0.2075345218 -0.2104109526 0.09668008983 1.661705121e-38
0.09495411813 -0.3438685834 0.2526908219 1.661705121e-38
0.4377411604 -0.2602011859 -0.0147658214 1.661705121e-38
0.1777203083 -0.1656513214 0.09526272863 1.680036207e-38
0.3593505621 -0.2358733565 -0.02666883171 1.680036207e-38
0.4118439555 -0.2525965571 -0.0149429068 1.680036207e-38
0.2599570453 -0.3661707342 0.2736717761 1.680036207e-38
0.08474576473 -0.2504955828 0.2867787182 1.680036207e-38
0.2360044122 -0.3692567945 0.2869365513 1.680036207e-38
0.2617718279 -0.32690081 0.1277919114 1.680036207e-38
0.2282691002 -0.1716839075 0.09354679286 1.680036207e-38
0.3332350254 -0.3038313985 0.1179726571 1.698367293e-38
0.2649607062 -0.3041762412 0.2809781432 1.698367293e-38
0.102519989 -0.1611908078 0.09887168556 1.698367293e-38
0.321608156 -0.3061314225 0.1302909553 1.698367293e-38
0.2410079986 -0.3072622716 0.2942429483 1.698367293e-38
0.3211275339 -0.2290547639 -0.0258994028 1.698367293e-38
0.07856728137 -0.1642768681 0.1121364832 1.698367293e-38
0.2043164074 -0.1747699529 0.1068115905 1.698367293e-38
0.2674521208 -0.3225295246 0.2851183414 1.716698239e-38
0.1644113362 -0.3423655927 0.1374340653 1.716698239e-38
0.1788323075 -0.3035297692 0.3082771599 1.716698239e-38
0.1827214956 -0.3249110878 0.3351609707 1.716698239e-38
0.1653945446 -0.1664373428 0.09620923549 1.716698239e-38
0.4360799491 -0.3359143436 0.01411322504 1.716698239e-38
0.1931026578 -0.3134343922 0.3207725883 1.716698239e-38
0.1880990714 -0.3754288852 0.3134661615 1.716698239e-38
0.09410317987 -0.3485031724 0.2206455171 1.735029324e-38
0.08669035137 -0.2611862123 0.3002205789 1.735029324e-38
0.1845140159 -0.3417503536 0.3279293776 1.735029324e-38
0.08210229874 -0.2382908911 0.2619650066 1.735029324e-38
0.06624151766 -0.1650628746 0.1130829901 1.735029324e-38
0.2131676078 -0.331558913 0.1429497153 1.735029324e-38
0.0768153742 -0.2138815671 0.2123376578 1.735029324e-38
0.141441837 -0.1695233881 0.1094740331 1.735029324e-38
0.3566409051 -0.2930827141 0.1140095368 1.75336041e-38
0.2425394654 -0.1815885305 0.1060421541 1.75336041e-38
0.2159433514 -0.172469914 0.09449329972 1.75336041e-38
0.09255336225 -0.3516237438 0.1772284508 1.75336041e-38
0.0715284422 -0.1894722283 0.1627103537 1.75336041e-38
0.4704138041 -0.3213516176 -0.01353995502 1.75336041e-38
0.2135203332 -0.2363343239 0.15767923 1.75336041e-38
0.07945883274 -0.2260862291 0.2371513546 1.75336041e-38
0.09455934167 -0.3300572932 0.2826659381 1.771655483e-38
0.2697914541 -0.3470314145 0.2685850561 1.771655483e-38
0.4513126314 -0.2685917914 -0.01364223659 1.771655483e-38
0.2858765423 -0.3176661134 0.135200575 1.771655483e-38
0.3852477968 -0.2434779406 -0.02649175376 1.771655483e-38
0.3353979588 -0.2389594018 -0.01340404153 1.771655483e-38
0.3450139761 -0.2953827381 0.1263278425 1.771655483e-38
0.2679989338 -0.3301921487 0.2758166492 1.771655483e-38
0.458786875 -0.3236516714 -0.00122166425 1.789986569e-38
0.1530687809 -0.1672233641 0.09715574235 1.789986569e-38
0.09019421786 -0.1619768292 0.09981819242 1.789986569e-38
0.258711338 -0.3569940925 0.2716016769 1.789986569e-38
0.1805842221 -0.2539250553 0.2080760151 1.789986569e-38
0.3470247984 -0.2366593778 -0.02572232485 1.789986569e-38
0.4470079243 -0.332100302 -0.009576842189 1.789986569e-38
0.2526348829 -0.3049622476 0.281924665 1.789986569e-38
0.2161637992 -0.2485389709 0.1824928671 1.808317654e-38
0.2101779878 -0.2226156294 0.1214937419 1.808317654e-38
0.3088017702 -0.2298407853 -0.02495289594 1.808317654e-38
0.1997259557 -0.3731288314 0.3011478782 1.808317654e-38
0.1281329542 -0.3462376893 0.1516453624 1.808317654e-38
0.2144118994 -0.2981436849 0.2826941013 1.808317654e-38
0.1167903244 -0.1710954309 0.1113670468 1.808317654e-38
0.3092823923 -0.3069174588 0.1312374622 1.808317654e-38
0.2036175281 -0.1732559502 0.09543981403 1.826612727e-38
0.2047296017 -0.3111343384 0.3084542453 1.826612727e-38
0.077868402 -0.1627628505 0.1007647067 1.826612727e-38
0.1807768941 -0.3142203987 0.32171911 1.826612727e-38
0.09440729022 -0.3362059295 0.2619924843 1.826612727e-38
0.2188072652 -0.2607436478 0.2073065788 1.826612727e-38
0.1796648949 -0.1763419807 0.1087046042 1.826612727e-38
0.4648841619 -0.2769824266 -0.01251865178 1.826612727e-38
0.09425523132 -0.3423545659 0.2413189709 1.844943813e-38
0.2124687284 -0.3300448954 0.1315779388 1.844943813e-38
0.0655426383 -0.1635488719 0.1017112136 1.844943813e-38
0.09340430051 -0.3469891548 0.2092737406 1.844943813e-38
0.1397598237 -0.3439376354 0.1393270791 1.844943813e-38
0.2685457468 -0.3378547728 0.2665149868 1.844943813e-38
0.3612951636 -0.2465640008 -0.01322696358 1.844943813e-38
0.1850608289 -0.3494129777 0.3186276555 1.844943813e-38
0.3729220331 -0.2442639768 -0.0255452469 1.863274899e-38
0.4506137371 -0.2670777738 -0.02501401305 1.863274899e-38
0.1948546171 -0.2638297081 0.2205713689 1.863274899e-38
0.2574656308 -0.3478174508 0.2695315778 1.863274899e-38
0.2418405712 -0.180074513 0.09467037767 1.863274899e-38
0.1158071905 -0.3470236957 0.1525918692 1.863274899e-38
0.1284172088 -0.1687954068 0.09904876351 1.863274899e-38
0.1832683086 -0.3325736821 0.3258592784 1.863274899e-38
0.3443150818 -0.2938687205 0.1149560511 1.881569971e-38
0.2463855892 -0.3577801287 0.2725481987 1.881569971e-38
0.1912917644 -0.1740419567 0.09638632089 1.881569971e-38
0.08140341938 -0.2367768735 0.2505932152 1.881569971e-38
0.07347302884 -0.2001628727 0.1761522293 1.881569971e-38
0.3326882124 -0.2961687446 0.1272743493 1.881569971e-38
0.09401251376 -0.3223946989 0.2919676304 1.881569971e-38
0.4389868677 -0.2693777978 -0.01269572973 1.881569971e-38
0.2851776481 -0.3161520958 0.1238287911 1.899901057e-38
0.1885160953 -0.3331309557 0.144842729 1.899901057e-38
0.1044645756 -0.1718814522 0.1123135537 1.899901057e-38
0.2667532265 -0.321015507 0.2737465501 1.899901057e-38
0.2178879231 -0.1831605732 0.1079351678 1.899901057e-38
0.2163564712 -0.3088343143 0.296135962 1.899901057e-38
0.1781334281 -0.3020157516 0.2969053984 1.899901057e-38
0.1274340749 -0.3447236717 0.1402735859 1.899901057e-38
0.2094791085 -0.2211016119 0.1101219654 1.91819627e-38
0.1924037784 -0.3119203746 0.3094007671 1.91819627e-38
0.1160914451 -0.1695814282 0.09999527037 1.91819627e-38
0.08599147201 -0.2596722245 0.2888488173 1.91819627e-38
0.4130896628 -0.2617732286 -0.01287280768 1.91819627e-38
0.2113528848 -0.3708288372 0.288829565 1.91819627e-38
0.4247165322 -0.2594731748 -0.025191091 1.91819627e-38
0.4464611113 -0.3244376779 -0.000275157392 1.91819627e-38
0.1034813672 -0.347809732 0.153538391 1.936527215e-38
0.1550133675 -0.1779140234 0.1105976179 1.936527215e-38
0.2154649198 -0.2470249534 0.1711210907 1.936527215e-38
0.4346821904 -0.3328863084 -0.008630335331 1.936527215e-38
0.2969566584 -0.307703495 0.132183969 1.936527215e-38
0.2295148075 -0.1808605343 0.09561688453 1.936527215e-38
0.08793605864 -0.270362854 0.302290678 1.936527215e-38
0.3107463717 -0.2405314445 -0.01151102036 1.936527215e-38
0.1838151217 -0.340236336 0.3165575564 1.954822428e-38
0.2612250149 -0.3192381561 0.1370935887 1.954822428e-38
0.4525583386 -0.2777684331 -0.01157213748 1.954822428e-38
0.09270542115 -0.3454751372 0.1979019642 1.954822428e-38
0.1856076568 -0.3570756018 0.3093259633 1.954822428e-38
0.1761903316 -0.3339169621 0.1457892358 1.954822428e-38
0.2055620998 -0.1839465797 0.1088816822 1.954822428e-38
0.1666402519 -0.1756139994 0.0982793346 1.954822428e-38
0.3223732412 -0.2382314205 -0.02382931113 1.973153514e-38
0.2562199235 -0.3386408091 0.2674614787 1.973153514e-38
0.09115560353 -0.3485957384 0.1544848979 1.973153514e-38
0.07981298864 -0.1734534949 0.1142065749 1.973153514e-38
0.2279833555 -0.3065342903 0.2838176787 1.973153514e-38
0.2437851727 -0.1907651871 0.1081122532 1.973153514e-38
0.245139882 -0.3486034572 0.2704780996 1.973153514e-38
0.3319893181 -0.294654727 0.115902558 1.973153514e-38
0.3748666048 -0.2549546361 -0.01210337877 1.991448586e-38
0.1426875442 -0.1787000597 0.1115441322 1.991448586e-38
0.2340598255 -0.3585661352 0.2734946907 1.991448586e-38
0.2137130201 -0.2966296673 0.27132231 1.991448586e-38
0.1897603124 -0.2997157276 0.284587115 1.991448586e-38
0.1791864634 -0.2508970201 0.1853324026 1.991448586e-38
0.08334799856 -0.2474675477 0.2640351057 1.991448586e-38
0.2121225744 -0.2333062887 0.1349356622 1.991448586e-38
0.2171890438 -0.1816465557 0.09656339139 2.009743799e-38
0.4266611338 -0.2701638341 -0.01174922287 2.009743799e-38
0.2655075192 -0.3118388653 0.2716764808 2.009743799e-38
0.07806107402 -0.2230581939 0.214407742 2.009743799e-38
0.2728518844 -0.316938132 0.1247752979 2.009743799e-38
0.07541761547 -0.2108535469 0.18959409 2.009743799e-38
0.4114284217 -0.3374863863 0.01600623876 2.009743799e-38
0.1027824879 -0.3462957144 0.1421666145 2.009743799e-38
0.08070454001 -0.2352628708 0.2392214537 2.028074885e-38
0.07277414948 -0.19864887 0.1647804379 2.028074885e-38
0.07013068348 -0.1864441931 0.1399667412 2.028074885e-38
0.2229797691 -0.3685287833 0.2765112817 2.028074885e-38
0.175844118 -0.2371783555 0.1491469741 2.028074885e-38
0.4007638991 -0.2625592351 -0.01192630082 2.028074885e-38
