# .PCD v0.7 - Point Cloud Data file format
VERSION 0.7
FIELDS x y z rgb
SIZE 4 4 4 4
TYPE F F F F
COUNT 1 1 1 1
WIDTH 909
HEIGHT 1
VIEWPOINT 0 0 0 1 0 0 0
POINTS 909
DATA ascii
0.07499998808 -0.3249999881 -0.150000006 3.842381409e-39
0.1750000119 -0.3000000119 -0.25 4.482718755e-39
0.08749997616 -0.287499994 0.3000000119 4.757149046e-39
-0.287499994 -0.3125 0.125 4.1168117e-39
0.0625 -0.4250000119 -0.3000000119 1.555462315e-39
-0.4250000119 -0.349999994 -0.02500000596 3.293520826e-39
0.1125000119 -0.349999994 -0.1999999881 3.293520826e-39
0.05000001192 -0.3249999881 -0.2624999881 3.842381409e-39
0.1000000238 -0.2375000119 0.3125 5.946346975e-39
0.1750000119 -0.4875000119 -0.03749999404 9.183409486e-41
-0.1999999881 -0.3249999881 -0.25 3.842381409e-39
0.1499999762 -0.2375000119 -0.1374999881 5.946346975e-39
0.1374999881 -0.3249999881 -0.1999999881 3.842381409e-39
0.1374999881 -0.150000006 -0.150000006 7.958835777e-39
0.02499997616 -0.3125 0.3125 4.1168117e-39
0.125 -0.1750000119 -0.125 7.409975195e-39
0.0625 -0.375 -0.25 2.65318348e-39
0.0625 -0.4875000119 -0.08750000596 9.183409486e-41
0.1000000238 -0.1125000119 0.3125 8.873603415e-39
0.0625 -0.349999994 -0.1750000119 3.293520826e-39
0.125 -0.2375000119 0.3125 5.946346975e-39
0.125 -0.1750000119 -0.275000006 7.409975195e-39
0.1750000119 -0.337500006 -0.275000006 3.567951117e-39
0.0625 -0.4499999881 -0.2624999881 9.151249686e-40
0.0625 -0.462500006 -0.1875 6.406946774e-40
0.1625000238 -0.212500006 -0.212500006 6.495207557e-39
0.1750000119 -0.275000006 -0.2624999881 5.031579337e-39
-0.4250000119 -0.337500006 -0.0625 3.567951117e-39
-0.4250000119 -0.3874999881 -0.08750000596 2.378753189e-39
0.0625 -0.400000006 -0.25 2.104322897e-39
-0.4375 -0.349999994 -0.1125000119 3.293520826e-39
-0.3000000119 -0.3249999881 -0.1999999881 3.842381409e-39
0.0625 -0.349999994 -0.3249999881 3.293520826e-39
0.08749997616 -0.2624999881 0.3000000119 5.306009629e-39
0.03750002384 -0.1750000119 0.3125 7.409975195e-39
0.125 -0.375 0.3125 2.65318348e-39
0.0625 -0.3249999881 -0.25 3.842381409e-39
0.1499999762 -0.224999994 -0.3000000119 6.220777266e-39
0.0625 -0.412499994 -0.212500006 1.829892606e-39
0.1374999881 -0.1875 -0.3249999881 7.04406814e-39
0.1499999762 -0.4875000119 -0.0625 9.183409486e-41
0.1625000238 -0.3249999881 -0.08750000596 3.842381409e-39
0.1374999881 -0.400000006 0.3125 2.104322897e-39
0.0625 -0.3874999881 -0.07499998808 2.378753189e-39
-0.3125 -0.3625000119 0.02499997616 3.019090535e-39
0.08749997616 -0.1374999881 0.3125 8.233266069e-39
0.1750000119 -0.412499994 -0.07499998808 1.829892606e-39
0.0625 -0.474999994 -0.224999994 3.662643861e-40
0.05000001192 -0.3874999881 -0.1875 2.378753189e-39
-0.337500006 -0.3249999881 0.01249998808 3.842381409e-39
-0.4250000119 -0.3249999881 0.1499999762 3.842381409e-39
-0.2624999881 -0.337500006 -0.1999999881 3.567951117e-39
0.1625000238 -0.4375 -0.05000001192 1.18955526e-39
0.07499998808 -0.4250000119 -0.1999999881 1.555462315e-39
0.1499999762 -0.337500006 -0.09999999404 3.567951117e-39
0.02499997616 -0.412499994 0.3000000119 1.829892606e-39
0.125 -0.1374999881 -0.1750000119 8.233266069e-39
-0.3000000119 -0.337500006 0.01249998808 3.567951117e-39
0.1374999881 -0.162499994 0.2124999762 7.684405486e-39
0.0625 -0.349999994 -0.09999999404 3.293520826e-39
0.05000001192 -0.3625000119 -0.125 3.019090535e-39
0.1374999881 -0.337500006 -0.07499998808 3.567951117e-39
-0.3000000119 -0.375 -0.1999999881 2.65318348e-39
0.07499998808 -0.1999999881 0.3125 6.769637849e-39
0.0625 -0.3874999881 -0.3249999881 2.378753189e-39
-0.3125 -0.349999994 0.01249998808 3.293520826e-39
0.07499998808 -0.09999999404 0.3125 9.148033706e-39
0.05000001192 -0.2375000119 0.3125 5.946346975e-39
0.05000001192 -0.4250000119 -0.1875 1.555462315e-39
0.08749997616 -0.3249999881 -0.09999999404 3.842381409e-39
-0.375 -0.337500006 -0.09999999404 3.567951117e-39
-0.3125 -0.3249999881 0.125 3.842381409e-39
-0.412499994 -0.375 0.1750000119 2.65318348e-39
0.07499998808 -0.3625000119 -0.1999999881 3.019090535e-39
-0.1875 -0.349999994 -0.212500006 3.293520826e-39
0.02499997616 -0.375 0.3125 2.65318348e-39
0.08749997616 -0.462500006 -0.1999999881 6.406946774e-40
0.125 -0.337500006 -0.3000000119 3.567951117e-39
0.1499999762 -0.337500006 -0.2624999881 3.567951117e-39
0.1000000238 -0.09999999404 0.3125 9.148033706e-39
0.1750000119 -0.337500006 -0.150000006 3.567951117e-39
0.125 -0.1875 0.3125 7.04406814e-39
-0.3125 -0.3249999881 -0.03749999404 3.842381409e-39
0.1625000238 -0.162499994 -0.125 7.684405486e-39
0.1499999762 -0.1875 0.3000000119 7.04406814e-39
0.0625 -0.4375 -0.287499994 1.18955526e-39
0.05000001192 -0.3874999881 -0.09999999404 2.378753189e-39
0.1374999881 -0.287499994 0.3125 4.757149046e-39
-0.3874999881 -0.3249999881 -0.0625 3.842381409e-39
0.05000001192 -0.3625000119 -0.1374999881 3.019090535e-39
0.0625 -0.349999994 -0.1374999881 3.293520826e-39
0.1374999881 -0.337500006 -0.09999999404 3.567951117e-39
0.1374999881 -0.412499994 -0.07499998808 1.829892606e-39
0.1374999881 -0.162499994 -0.1999999881 7.684405486e-39
0.125 -0.25 0.2124999762 5.58043992e-39
0.1625000238 -0.275000006 -0.125 5.031579337e-39
0.125 -0.1374999881 -0.3125 8.233266069e-39
0.0625 -0.4375 -0.3125 1.18955526e-39
0.1374999881 -0.474999994 -0.07499998808 3.662643861e-40
-0.3125 -0.3249999881 -0.08750000596 3.842381409e-39
0.1125000119 -0.4499999881 0.3125 9.151249686e-40
-0.1875 -0.3249999881 -0.2375000119 3.842381409e-39
0.1125000119 -0.07499998808 0.3000000119 9.696894289e-39
0.0625 -0.150000006 0.3125 7.958835777e-39
-0.375 -0.3249999881 0.01249998808 3.842381409e-39
0.1000000238 -0.4375 -0.2375000119 1.18955526e-39
0.07499998808 -0.462500006 -0.3249999881 6.406946774e-40
-0.3125 -0.349999994 -0.1750000119 3.293520826e-39
0.1125000119 -0.1125000119 0.3125 8.873603415e-39
0.1750000119 -0.275000006 -0.3000000119 5.031579337e-39
0.08749997616 -0.212500006 0.3000000119 6.495207557e-39
-0.337500006 -0.3249999881 -0.07499998808 3.842381409e-39
0.08749997616 -0.349999994 -0.150000006 3.293520826e-39
0.1000000238 -0.337500006 -0.2624999881 3.567951117e-39
0.03750002384 -0.375 0.3125 2.65318348e-39
0.08749997616 -0.07499998808 0.3000000119 9.696894289e-39
-0.375 -0.375 0.1750000119 2.65318348e-39
0.0625 -0.474999994 -0.09999999404 3.662643861e-40
-0.25 -0.3249999881 0.1125000119 3.842381409e-39
0.05000001192 -0.4250000119 -0.1125000119 1.555462315e-39
0.1374999881 -0.09999999404 0.3000000119 9.148033706e-39
0.1125000119 -0.212500006 0.3000000119 6.495207557e-39
0.1750000119 -0.1750000119 -0.1374999881 7.409975195e-39
-0.412499994 -0.3125 -0.1374999881 4.1168117e-39
-0.3874999881 -0.3249999881 0.1625000238 3.842381409e-39
0.1000000238 -0.4875000119 -0.3249999881 9.183409486e-41
0.1374999881 -0.1999999881 -0.287499994 6.769637849e-39
0.1625000238 -0.4499999881 -0.03749999404 9.151249686e-40
-0.275000006 -0.3874999881 -0.1999999881 2.378753189e-39
0.08749997616 -0.4875000119 -0.1999999881 9.183409486e-41
0.05000001192 -0.3874999881 -0.1750000119 2.378753189e-39
0.125 -0.3249999881 0.3125 3.842381409e-39
0.08749997616 -0.462500006 -0.3249999881 6.406946774e-40
0.1750000119 -0.212500006 -0.25 6.495207557e-39
0.08749997616 -0.09999999404 0.3000000119 9.148033706e-39
0.1374999881 -0.1125000119 0.1999999881 8.873603415e-39
0.0625 -0.4250000119 -0.09999999404 1.555462315e-39
0.1125000119 -0.07499998808 0.3125 9.696894289e-39
0.0625 -0.349999994 -0.224999994 3.293520826e-39
-0.412499994 -0.3249999881 0.1000000238 3.842381409e-39
0.07499998808 -0.287499994 0.25 4.757149046e-39
0.1374999881 -0.412499994 0.3000000119 1.829892606e-39
0.1374999881 -0.1999999881 -0.1374999881 6.769637849e-39
0.0625 -0.4499999881 -0.25 9.151249686e-40
0.05000001192 -0.3249999881 -0.125 3.842381409e-39
0.1750000119 -0.212500006 -0.2375000119 6.495207557e-39
0.125 -0.349999994 -0.1999999881 3.293520826e-39
0.1125000119 -0.162499994 0.3000000119 7.684405486e-39
0.1499999762 -0.1875 -0.212500006 7.04406814e-39
0.1499999762 -0.2375000119 -0.09999999404 5.946346975e-39
0.1625000238 -0.25 -0.1875 5.58043992e-39
0.0625 -0.4250000119 -0.212500006 1.555462315e-39
0.1125000119 -0.25 0.3125 5.58043992e-39
0.08749997616 -0.474999994 -0.2375000119 3.662643861e-40
0.05000001192 -0.4250000119 -0.287499994 1.555462315e-39
0.02499997616 -0.09999999404 0.3125 9.148033706e-39
0.1625000238 -0.275000006 -0.25 5.031579337e-39
0.05000001192 -0.4375 -0.1374999881 1.18955526e-39
-0.2624999881 -0.287499994 0.1000000238 4.757149046e-39
0.07499998808 -0.337500006 -0.2375000119 3.567951117e-39
0.0625 -0.150000006 0.3000000119 7.958835777e-39
0.0625 -0.4875000119 -0.2375000119 9.183409486e-41
-0.25 -0.3249999881 0.1374999881 3.842381409e-39
0.125 -0.3125 0.2124999762 4.1168117e-39
0.1374999881 -0.4250000119 0.3125 1.555462315e-39
0.1125000119 -0.337500006 -0.1875 3.567951117e-39
0.125 -0.125 0.2124999762 8.50769636e-39
0.1374999881 -0.162499994 -0.224999994 7.684405486e-39
-0.400000006 -0.3125 -0.02500000596 4.1168117e-39
-0.275000006 -0.3125 0.08749997616 4.1168117e-39
-0.4250000119 -0.375 -0.02500000596 2.65318348e-39
0.07499998808 -0.08750000596 0.3000000119 9.422463997e-39
-0.275000006 -0.3249999881 0.1625000238 3.842381409e-39
0.1374999881 -0.150000006 0.3125 7.958835777e-39
-0.2375000119 -0.3249999881 0.0625 3.842381409e-39
0.05000001192 -0.400000006 -0.1875 2.104322897e-39
0.07499998808 -0.2624999881 0.3000000119 5.306009629e-39
0.05000001192 -0.4375 -0.3249999881 1.18955526e-39
0.1000000238 -0.337500006 0.3000000119 3.567951117e-39
-0.3125 -0.375 -0.08750000596 2.65318348e-39
0.1374999881 -0.1374999881 -0.275000006 8.233266069e-39
0.1750000119 -0.4375 -0.05000001192 1.18955526e-39
-0.2624999881 -0.3249999881 0.1374999881 3.842381409e-39
0.1000000238 -0.337500006 -0.275000006 3.567951117e-39
0.1374999881 -0.1125000119 0.3000000119 8.873603415e-39
0.08749997616 -0.462500006 0.3000000119 6.406946774e-40
0.1374999881 -0.3625000119 0.2124999762 3.019090535e-39
0.07499998808 -0.337500006 -0.212500006 3.567951117e-39
0.125 -0.3125 0.3000000119 4.1168117e-39
-0.3874999881 -0.3874999881 0.1750000119 2.378753189e-39
0.1499999762 -0.1875 -0.3249999881 7.04406814e-39
0.08749997616 -0.337500006 -0.08750000596 3.567951117e-39
-0.349999994 -0.3249999881 0.05000001192 3.842381409e-39
0.07499998808 -0.4499999881 -0.3249999881 9.151249686e-40
0.08749997616 -0.4250000119 -0.1125000119 1.555462315e-39
0.1625000238 -0.224999994 -0.08750000596 6.220777266e-39
0.1000000238 -0.3625000119 -0.3249999881 3.019090535e-39
0.1374999881 -0.150000006 -0.3000000119 7.958835777e-39
0.05000001192 -0.125 0.3000000119 8.50769636e-39
0.125 -0.4250000119 -0.1999999881 1.555462315e-39
0.0625 -0.400000006 -0.3125 2.104322897e-39
0.1374999881 -0.375 -0.07499998808 2.65318348e-39
0.08749997616 -0.375 -0.1125000119 2.65318348e-39
0.02499997616 -0.337500006 0.3125 3.567951117e-39
-0.3874999881 -0.3125 -0.1374999881 4.1168117e-39
0.1625000238 -0.275000006 -0.3000000119 5.031579337e-39
-0.412499994 -0.3249999881 0.1750000119 3.842381409e-39
0.1000000238 -0.212500006 0.3000000119 6.495207557e-39
0.125 -0.162499994 -0.224999994 7.684405486e-39
0.1625000238 -0.1125000119 0.3000000119 8.873603415e-39
0.07499998808 -0.1374999881 0.3000000119 8.233266069e-39
0.03750002384 -0.275000006 0.3125 5.031579337e-39
-0.25 -0.337500006 -0.1999999881 3.567951117e-39
0.08749997616 -0.412499994 -0.3249999881 1.829892606e-39
0.1374999881 -0.224999994 -0.125 6.220777266e-39
-0.1875 -0.337500006 -0.25 3.567951117e-39
-0.4250000119 -0.3249999881 -0.02500000596 3.842381409e-39
0.0625 -0.474999994 -0.07499998808 3.662643861e-40
0.1499999762 -0.1374999881 0.3125 8.233266069e-39
0.1750000119 -0.1750000119 -0.275000006 7.409975195e-39
-0.275000006 -0.3625000119 0.1750000119 3.019090535e-39
0.1000000238 -0.474999994 0.3125 3.662643861e-40
0.07499998808 -0.09999999404 0.3000000119 9.148033706e-39
0.1374999881 -0.150000006 -0.1125000119 7.958835777e-39
0.05000001192 -0.412499994 0.3125 1.829892606e-39
0.125 -0.162499994 -0.162499994 7.684405486e-39
0.1625000238 -0.275000006 -0.287499994 5.031579337e-39
0.0625 -0.349999994 -0.3125 3.293520826e-39
0.07499998808 -0.287499994 0.3000000119 4.757149046e-39
-0.3125 -0.3249999881 0.02499997616 3.842381409e-39
0.1750000119 -0.3125 -0.08750000596 4.1168117e-39
0.1499999762 -0.1999999881 -0.287499994 6.769637849e-39
0.1499999762 -0.3249999881 -0.1125000119 3.842381409e-39
-0.4375 -0.337500006 -0.125 3.567951117e-39
0.05000001192 -0.412499994 -0.1875 1.829892606e-39
-0.375 -0.337500006 -0.125 3.567951117e-39
-0.337500006 -0.337500006 -0.05000001192 3.567951117e-39
-0.1875 -0.337500006 0.1499999762 3.567951117e-39
0.05000001192 -0.375 -0.3249999881 2.65318348e-39
0.1499999762 -0.1999999881 -0.224999994 6.769637849e-39
0.05000001192 -0.3249999881 -0.150000006 3.842381409e-39
-0.3249999881 -0.3249999881 -0.125 3.842381409e-39
0.1499999762 -0.09999999404 0.3000000119 9.148033706e-39
0.1750000119 -0.3125 -0.224999994 4.1168117e-39
0.05000001192 -0.400000006 -0.09999999404 2.104322897e-39
0.1374999881 -0.337500006 -0.224999994 3.567951117e-39
0.07499998808 -0.150000006 0.3000000119 7.958835777e-39
0.07499998808 -0.3249999881 -0.1999999881 3.842381409e-39
-0.3874999881 -0.375 0.1750000119 2.65318348e-39
0.1000000238 -0.3249999881 -0.275000006 3.842381409e-39
0.125 -0.287499994 0.3000000119 4.757149046e-39
0.1374999881 -0.349999994 0.1999999881 3.293520826e-39
-0.3625000119 -0.337500006 -0.01249998808 3.567951117e-39
0.1374999881 -0.1875 0.3125 7.04406814e-39
0.1125000119 -0.3000000119 0.3000000119 4.482718755e-39
0.125 -0.349999994 0.2124999762 3.293520826e-39
-0.3125 -0.3625000119 -0.0625 3.019090535e-39
0.1750000119 -0.162499994 -0.1374999881 7.684405486e-39
0.07499998808 -0.337500006 -0.25 3.567951117e-39
0.1374999881 -0.1999999881 -0.2624999881 6.769637849e-39
0.08749997616 -0.337500006 -0.3125 3.567951117e-39
-0.375 -0.337500006 0.1750000119 3.567951117e-39
-0.3874999881 -0.3249999881 0.07499998808 3.842381409e-39
0.1125000119 -0.400000006 -0.1999999881 2.104322897e-39
0.1374999881 -0.162499994 -0.08750000596 7.684405486e-39
-0.337500006 -0.3249999881 -0.0625 3.842381409e-39
0.08749997616 -0.3000000119 0.3125 4.482718755e-39
0.1125000119 -0.4250000119 0.3000000119 1.555462315e-39
-0.375 -0.349999994 0.1750000119 3.293520826e-39
-0.400000006 -0.3874999881 0.1750000119 2.378753189e-39
-0.349999994 -0.3249999881 0.125 3.842381409e-39
0.1625000238 -0.275000006 -0.09999999404 5.031579337e-39
0.08749997616 -0.08750000596 0.3000000119 9.422463997e-39
0.08749997616 -0.3625000119 0.3000000119 3.019090535e-39
0.125 -0.1374999881 -0.275000006 8.233266069e-39
0.03750002384 -0.3249999881 -0.287499994 3.842381409e-39
0.1499999762 -0.1875 -0.3125 7.04406814e-39
0.1125000119 -0.3249999881 -0.08750000596 3.842381409e-39
0.05000001192 -0.4250000119 0.3000000119 1.555462315e-39
0.05000001192 -0.3625000119 -0.3125 3.019090535e-39
0.1125000119 -0.3249999881 -0.275000006 3.842381409e-39
-0.349999994 -0.3625000119 0.1750000119 3.019090535e-39
-0.375 -0.3249999881 0.07499998808 3.842381409e-39
0.1000000238 -0.462500006 0.3125 6.406946774e-40
0.125 -0.150000006 -0.09999999404 7.958835777e-39
0.125 -0.4875000119 -0.07499998808 9.183409486e-41
0.0625 -0.4250000119 -0.275000006 1.555462315e-39
0.08749997616 -0.125 0.3125 8.50769636e-39
-0.3249999881 -0.3249999881 -0.01249998808 3.842381409e-39
0.05000001192 -0.400000006 -0.08750000596 2.104322897e-39
-0.1875 -0.337500006 -0.224999994 3.567951117e-39
0.1000000238 -0.3249999881 -0.3249999881 3.842381409e-39
0.1125000119 -0.3249999881 -0.212500006 3.842381409e-39
0.125 -0.1750000119 -0.09999999404 7.409975195e-39
0.1000000238 -0.150000006 0.3125 7.958835777e-39
-0.349999994 -0.3249999881 0 3.842381409e-39
0.07499998808 -0.3249999881 -0.212500006 3.842381409e-39
0.02499997616 -0.1875 0.3125 7.04406814e-39
0.125 -0.337500006 -0.287499994 3.567951117e-39
0.03750002384 -0.25 0.2875000238 5.58043992e-39
0.1625000238 -0.2624999881 -0.3249999881 5.306009629e-39
0.1374999881 -0.1750000119 0.3000000119 7.409975195e-39
-0.400000006 -0.3249999881 0.01249998808 3.842381409e-39
0.0625 -0.4375 -0.1374999881 1.18955526e-39
-0.1875 -0.3249999881 -0.287499994 3.842381409e-39
0.125 -0.287499994 0.2124999762 4.757149046e-39
-0.287499994 -0.3249999881 0.1750000119 3.842381409e-39
0.1374999881 -0.07499998808 0.1999999881 9.696894289e-39
-0.3125 -0.349999994 0.02499997616 3.293520826e-39
0.1125000119 -0.3249999881 -0.3249999881 3.842381409e-39
-0.3625000119 -0.3249999881 0.07499998808 3.842381409e-39
-0.375 -0.3249999881 0.0625 3.842381409e-39
0.05000001192 -0.3249999881 -0.07499998808 3.842381409e-39
0.125 -0.125 -0.212500006 8.50769636e-39
0.03750002384 -0.4375 0.2875000238 1.18955526e-39
0.1000000238 -0.3249999881 0.3000000119 3.842381409e-39
0.1125000119 -0.1374999881 -0.150000006 8.233266069e-39
-0.4250000119 -0.349999994 0.03750002384 3.293520826e-39
0.1374999881 -0.2375000119 0.2124999762 5.946346975e-39
0.08749997616 -0.400000006 0.3125 2.104322897e-39
0.1625000238 -0.275000006 -0.3249999881 5.031579337e-39
0.05000001192 -0.3625000119 -0.1999999881 3.019090535e-39
0.1000000238 -0.275000006 0.3000000119 5.031579337e-39
0.1374999881 -0.07499998808 0.3000000119 9.696894289e-39
0.05000001192 -0.462500006 -0.287499994 6.406946774e-40
0.1750000119 -0.3125 -0.07499998808 4.1168117e-39
0.1750000119 -0.337500006 -0.2624999881 3.567951117e-39
0.1125000119 -0.4250000119 -0.07499998808 1.555462315e-39
0.05000001192 -0.474999994 -0.1125000119 3.662643861e-40
0.0625 -0.3625000119 -0.09999999404 3.019090535e-39
0.125 -0.224999994 0.3000000119 6.220777266e-39
-0.224999994 -0.3249999881 -0.25 3.842381409e-39
-0.2375000119 -0.3125 0.125 4.1168117e-39
0.1625000238 -0.3249999881 -0.212500006 3.842381409e-39
0.08749997616 -0.3249999881 -0.1999999881 3.842381409e-39
0.1499999762 -0.224999994 -0.3249999881 6.220777266e-39
0.1374999881 -0.224999994 -0.09999999404 6.220777266e-39
0.125 -0.1374999881 -0.2624999881 8.233266069e-39
0.07499998808 -0.3625000119 0.3125 3.019090535e-39
0.1374999881 -0.349999994 -0.07499998808 3.293520826e-39
-0.412499994 -0.3249999881 -0.01249998808 3.842381409e-39
-0.3249999881 -0.3249999881 0.1125000119 3.842381409e-39
0.0625 -0.3625000119 -0.275000006 3.019090535e-39
0.1125000119 -0.4375 0.3000000119 1.18955526e-39
-0.3125 -0.3249999881 -0.05000001192 3.842381409e-39
0.1125000119 -0.3249999881 -0.125 3.842381409e-39
0.125 -0.1125000119 0.2124999762 8.873603415e-39
0.1374999881 -0.1875 -0.150000006 7.04406814e-39
0.1374999881 -0.162499994 0.1999999881 7.684405486e-39
0.08749997616 -0.3249999881 -0.125 3.842381409e-39
0.1750000119 -0.2375000119 -0.2624999881 5.946346975e-39
0.125 -0.125 -0.09999999404 8.50769636e-39
-0.4375 -0.337500006 -0.08750000596 3.567951117e-39
0.1750000119 -0.275000006 -0.1875 5.031579337e-39
0.1499999762 -0.3249999881 -0.2375000119 3.842381409e-39
0.07499998808 -0.224999994 0.3125 6.220777266e-39
-0.4250000119 -0.3249999881 -0.03749999404 3.842381409e-39
-0.2375000119 -0.3249999881 0.07499998808 3.842381409e-39
0.125 -0.2375000119 0.2124999762 5.946346975e-39
0.1750000119 -0.337500006 -0.09999999404 3.567951117e-39
0.125 -0.25 0.3000000119 5.58043992e-39
0.1750000119 -0.2624999881 -0.1374999881 5.306009629e-39
0.07499998808 -0.337500006 -0.1374999881 3.567951117e-39
0.1000000238 -0.1999999881 0.3125 6.769637849e-39
0.05000001192 -0.275000006 0.3125 5.031579337e-39
0.125 -0.1374999881 0.3000000119 8.233266069e-39
0.1625000238 -0.212500006 -0.150000006 6.495207557e-39
0.1000000238 -0.3874999881 -0.07499998808 2.378753189e-39
0.1374999881 -0.1875 0.2124999762 7.04406814e-39
-0.3000000119 -0.3249999881 0.0625 3.842381409e-39
0.05000001192 -0.3249999881 -0.337500006 3.842381409e-39
0.0625 -0.400000006 -0.212500006 2.104322897e-39
-0.01249998808 -0.3125 -0.3000000119 4.1168117e-39
0.1499999762 -0.4875000119 -0.05000001192 9.183409486e-41
0.0625 -0.412499994 -0.150000006 1.829892606e-39
0.125 -0.125 -0.2624999881 8.50769636e-39
-0.2624999881 -0.3625000119 0.1750000119 3.019090535e-39
0.03750002384 -0.4875000119 0.3125 9.183409486e-41
-0.224999994 -0.3249999881 -0.224999994 3.842381409e-39
0.05000001192 -0.337500006 -0.212500006 3.567951117e-39
-0.3125 -0.3625000119 0.01249998808 3.019090535e-39
0.1625000238 -0.275000006 -0.1374999881 5.031579337e-39
0.1499999762 -0.3249999881 -0.09999999404 3.842381409e-39
0.0625 -0.3625000119 -0.1750000119 3.019090535e-39
-0.1875 -0.349999994 -0.2624999881 3.293520826e-39
0.1374999881 -0.224999994 0.1999999881 6.220777266e-39
0.05000001192 -0.400000006 -0.25 2.104322897e-39
0.1499999762 -0.162499994 -0.1125000119 7.684405486e-39
0.0625 -0.412499994 -0.1750000119 1.829892606e-39
0.1125000119 -0.375 -0.1999999881 2.65318348e-39
-0.3125 -0.337500006 -0.1750000119 3.567951117e-39
0.07499998808 -0.3249999881 -0.162499994 3.842381409e-39
-0.1875 -0.337500006 0.07499998808 3.567951117e-39
0.125 -0.337500006 -0.2375000119 3.567951117e-39
-0.3249999881 -0.3249999881 -0.212500006 3.842381409e-39
-0.349999994 -0.337500006 -0.03749999404 3.567951117e-39
0.1125000119 -0.474999994 -0.07499998808 3.662643861e-40
0.1125000119 -0.3625000119 0.3125 3.019090535e-39
-0.1875 -0.337500006 -0.287499994 3.567951117e-39
-0.287499994 -0.3249999881 0.07499998808 3.842381409e-39
0.0625 -0.349999994 -0.150000006 3.293520826e-39
-0.2375000119 -0.3125 0.08749997616 4.1168117e-39
0.03750002384 -0.3249999881 0.3125 3.842381409e-39
0.1125000119 -0.3249999881 -0.287499994 3.842381409e-39
-0.1999999881 -0.3249999881 0.1374999881 3.842381409e-39
0.125 -0.3249999881 -0.1125000119 3.842381409e-39
0.08749997616 -0.4375 -0.3249999881 1.18955526e-39
0.1499999762 -0.07499998808 0.3125 9.696894289e-39
-0.3125 -0.3249999881 0.03750002384 3.842381409e-39
0.1000000238 -0.3625000119 -0.1999999881 3.019090535e-39
0.0625 -0.375 -0.1875 2.65318348e-39
0.125 -0.412499994 0.3000000119 1.829892606e-39
0.1499999762 -0.1750000119 -0.1999999881 7.409975195e-39
0.05000001192 -0.349999994 -0.125 3.293520826e-39
0.0625 -0.4499999881 -0.3125 9.151249686e-40
0.1374999881 -0.1374999881 -0.2624999881 8.233266069e-39
0.05000001192 -0.3000000119 0.3125 4.482718755e-39
-0.375 -0.3249999881 -0.07499998808 3.842381409e-39
-0.1875 -0.349999994 0.1750000119 3.293520826e-39
0.02499997616 -0.4375 0.3000000119 1.18955526e-39
0.07499998808 -0.3249999881 -0.1125000119 3.842381409e-39
0.1374999881 -0.150000006 -0.07499998808 7.958835777e-39
0.1125000119 -0.3000000119 0.2375000119 4.482718755e-39
0.0625 -0.3874999881 -0.08750000596 2.378753189e-39
0.05000001192 -0.375 -0.25 2.65318348e-39
0.03750002384 -0.09999999404 0.2875000238 9.148033706e-39
-0.3249999881 -0.3249999881 -0.02500000596 3.842381409e-39
0.1625000238 -0.337500006 -0.2624999881 3.567951117e-39
-0.2624999881 -0.3249999881 0.1125000119 3.842381409e-39
0.07499998808 -0.3625000119 -0.3249999881 3.019090535e-39
0.1374999881 -0.1999999881 -0.125 6.769637849e-39
0.05000001192 -0.337500006 -0.25 3.567951117e-39
0.125 -0.08750000596 0.3125 9.422463997e-39
0.125 -0.125 -0.1999999881 8.50769636e-39
0.03750002384 -0.275000006 0.2875000238 5.031579337e-39
0.1750000119 -0.275000006 -0.08750000596 5.031579337e-39
0.1000000238 -0.400000006 0.3000000119 2.104322897e-39
0.1625000238 -0.2375000119 -0.1750000119 5.946346975e-39
0.1000000238 -0.3874999881 0.3000000119 2.378753189e-39
0.1750000119 -0.462500006 -0.07499998808 6.406946774e-40
-0.375 -0.3249999881 0.03750002384 3.842381409e-39
0.07499998808 -0.4875000119 -0.1999999881 9.183409486e-41
0.1000000238 -0.07499998808 0.3000000119 9.696894289e-39
0.1499999762 -0.1999999881 -0.3125 6.769637849e-39
0.03750002384 -0.1999999881 0.2875000238 6.769637849e-39
0.0625 -0.4375 -0.125 1.18955526e-39
0.1374999881 -0.1875 -0.212500006 7.04406814e-39
0.1499999762 -0.25 0.3000000119 5.58043992e-39
0.08749997616 -0.462500006 -0.150000006 6.406946774e-40
0.07499998808 -0.4375 -0.07499998808 1.18955526e-39
-0.337500006 -0.3249999881 0.1750000119 3.842381409e-39
0.07499998808 -0.474999994 0.3125 3.662643861e-40
0.1374999881 -0.3874999881 0.3125 2.378753189e-39
0.1000000238 -0.07499998808 0.3125 9.696894289e-39
0.125 -0.1750000119 -0.1125000119 7.409975195e-39
0.05000001192 -0.3625000119 -0.1750000119 3.019090535e-39
-0.25 -0.3249999881 0.1625000238 3.842381409e-39
0.07499998808 -0.224999994 0.3000000119 6.220777266e-39
0.0625 -0.462500006 -0.212500006 6.406946774e-40
0.05000001192 -0.400000006 -0.162499994 2.104322897e-39
-0.400000006 -0.3249999881 0 3.842381409e-39
0.125 -0.125 -0.3249999881 8.50769636e-39
-0.349999994 -0.3249999881 0.1125000119 3.842381409e-39
-0.3125 -0.3249999881 -0.1750000119 3.842381409e-39
0.05000001192 -0.09999999404 0.3125 9.148033706e-39
0.1374999881 -0.1750000119 -0.212500006 7.409975195e-39
0.1750000119 -0.212500006 -0.125 6.495207557e-39
0.05000001192 -0.4375 -0.2624999881 1.18955526e-39
0.1750000119 -0.3125 -0.25 4.1168117e-39
-0.3125 -0.3249999881 0.01249998808 3.842381409e-39
0.05000001192 -0.337500006 -0.08750000596 3.567951117e-39
-0.275000006 -0.3625000119 -0.1999999881 3.019090535e-39
0.1625000238 -0.462500006 -0.0625 6.406946774e-40
0.05000001192 -0.400000006 -0.1374999881 2.104322897e-39
0.1750000119 -0.337500006 -0.3000000119 3.567951117e-39
0.0625 -0.375 -0.07499998808 2.65318348e-39
0.1374999881 -0.1750000119 -0.08750000596 7.409975195e-39
0.05000001192 -0.349999994 -0.1999999881 3.293520826e-39
0.07499998808 -0.3625000119 -0.07499998808 3.019090535e-39
0.07499998808 -0.400000006 0.3125 2.104322897e-39
-0.2375000119 -0.3249999881 -0.275000006 3.842381409e-39
0.08749997616 -0.349999994 -0.2375000119 3.293520826e-39
-0.3125 -0.3249999881 0.07499998808 3.842381409e-39
0.0625 -0.3874999881 -0.224999994 2.378753189e-39
0.125 -0.337500006 -0.162499994 3.567951117e-39
0.05000001192 -0.4250000119 -0.1750000119 1.555462315e-39
-0.3249999881 -0.3249999881 0.05000001192 3.842381409e-39
0.05000001192 -0.474999994 0.2749999762 3.662643861e-40
0.0625 -0.4875000119 -0.287499994 9.183409486e-41
0.1750000119 -0.212500006 -0.1125000119 6.495207557e-39
-0.224999994 -0.3249999881 -0.1999999881 3.842381409e-39
-0.3874999881 -0.3249999881 0.08749997616 3.842381409e-39
0.1750000119 -0.3000000119 -0.125 4.482718755e-39
0.1625000238 -0.1750000119 -0.275000006 7.409975195e-39
0.125 -0.3249999881 -0.3249999881 3.842381409e-39
-0.412499994 -0.3249999881 0.1499999762 3.842381409e-39
0.1374999881 -0.2375000119 -0.275000006 5.946346975e-39
0.05000001192 -0.412499994 -0.3125 1.829892606e-39
0.1499999762 -0.337500006 -0.1750000119 3.567951117e-39
0.1625000238 -0.337500006 -0.150000006 3.567951117e-39
0.02499997616 -0.4250000119 0.3125 1.555462315e-39
0.1499999762 -0.1999999881 -0.1999999881 6.769637849e-39
0.1125000119 -0.4875000119 0.3125 9.183409486e-41
0.125 -0.349999994 0.3125 3.293520826e-39
0.1499999762 -0.3249999881 -0.25 3.842381409e-39
0.1499999762 -0.1875 -0.287499994 7.04406814e-39
0.125 -0.150000006 -0.2624999881 7.958835777e-39
0.0625 -0.3625000119 -0.3000000119 3.019090535e-39
0.1000000238 -0.4375 -0.07499998808 1.18955526e-39
0.08749997616 -0.3249999881 -0.1374999881 3.842381409e-39
-0.3000000119 -0.3874999881 -0.1999999881 2.378753189e-39
0.125 -0.275000006 0.3125 5.031579337e-39
0.125 -0.349999994 0.3000000119 3.293520826e-39
0.08749997616 -0.3625000119 -0.3249999881 3.019090535e-39
-0.212500006 -0.3125 0.08749997616 4.1168117e-39
0.07499998808 -0.3249999881 0.3000000119 3.842381409e-39
0.125 -0.3000000119 0.2124999762 4.482718755e-39
0.1750000119 -0.2375000119 -0.1374999881 5.946346975e-39
-0.3249999881 -0.3249999881 0.08749997616 3.842381409e-39
-0.4375 -0.3249999881 -0.1125000119 3.842381409e-39
0.05000001192 -0.4250000119 -0.125 1.555462315e-39
0.0625 -0.4875000119 -0.1374999881 9.183409486e-41
0.05000001192 -0.3625000119 -0.25 3.019090535e-39
0.07499998808 -0.3874999881 -0.07499998808 2.378753189e-39
-0.275000006 -0.3249999881 0.1750000119 3.842381409e-39
0.1750000119 -0.2624999881 -0.162499994 5.306009629e-39
0.1750000119 -0.2624999881 -0.1125000119 5.306009629e-39
-0.212500006 -0.3249999881 -0.2624999881 3.842381409e-39
0.05000001192 -0.08750000596 0.3125 9.422463997e-39
-0.4250000119 -0.3249999881 -0.09999999404 3.842381409e-39
0.07499998808 -0.337500006 -0.09999999404 3.567951117e-39
0.05000001192 -0.474999994 -0.150000006 3.662643861e-40
0.1374999881 -0.1374999881 -0.3000000119 8.233266069e-39
0.05000001192 -0.400000006 -0.1125000119 2.104322897e-39
0.1499999762 -0.337500006 -0.3000000119 3.567951117e-39
0.1499999762 -0.3249999881 -0.1875 3.842381409e-39
0.05000001192 -0.462500006 -0.3000000119 6.406946774e-40
0.125 -0.474999994 0.3125 3.662643861e-40
0.0625 -0.4250000119 -0.162499994 1.555462315e-39
0.125 -0.3625000119 -0.3249999881 3.019090535e-39
-0.349999994 -0.337500006 -0.1750000119 3.567951117e-39
-0.4250000119 -0.337500006 0.05000001192 3.567951117e-39
0.05000001192 -0.4250000119 -0.3249999881 1.555462315e-39
-0.375 -0.337500006 0.02499997616 3.567951117e-39
-0.400000006 -0.3625000119 0.1750000119 3.019090535e-39
-0.25 -0.349999994 0.1750000119 3.293520826e-39
-0.3249999881 -0.3249999881 0.1374999881 3.842381409e-39
0.1374999881 -0.150000006 0.1999999881 7.958835777e-39
-0.275000006 -0.3249999881 0.125 3.842381409e-39
0.125 -0.4875000119 0.3000000119 9.183409486e-41
0.0625 -0.4250000119 -0.2375000119 1.555462315e-39
-0.287499994 -0.375 -0.1999999881 2.65318348e-39
0.1499999762 -0.3249999881 -0.07499998808 3.842381409e-39
-0.412499994 -0.3249999881 0.1374999881 3.842381409e-39
0.02499997616 -0.1125000119 0.3125 8.873603415e-39
0.08749997616 -0.1750000119 0.3125 7.409975195e-39
0.125 -0.412499994 -0.1999999881 1.829892606e-39
0.0625 -0.4875000119 -0.162499994 9.183409486e-41
0.02499997616 -0.3874999881 0.3000000119 2.378753189e-39
0.1000000238 -0.224999994 0.3125 6.220777266e-39
-0.3625000119 -0.349999994 0.1750000119 3.293520826e-39
0.1499999762 -0.1999999881 -0.07499998808 6.769637849e-39
0.05000001192 -0.3249999881 -0.25 3.842381409e-39
0.1625000238 -0.2624999881 -0.162499994 5.306009629e-39
0.0625 -0.4875000119 -0.3000000119 9.183409486e-41
0.08749997616 -0.4250000119 -0.07499998808 1.555462315e-39
0.08749997616 -0.3000000119 0.2624999881 4.482718755e-39
-0.4250000119 -0.3249999881 0.125 3.842381409e-39
0.08749997616 -0.4875000119 0.3000000119 9.183409486e-41
0.1625000238 -0.2624999881 -0.08750000596 5.306009629e-39
0.1750000119 -0.2624999881 -0.08750000596 5.306009629e-39
-0.3125 -0.3249999881 0.1000000238 3.842381409e-39
0.0625 -0.375 -0.08750000596 2.65318348e-39
0.1499999762 -0.1999999881 -0.162499994 6.769637849e-39
0.1374999881 -0.1374999881 -0.2375000119 8.233266069e-39
0.1374999881 -0.337500006 -0.2624999881 3.567951117e-39
-0.212500006 -0.349999994 -0.1999999881 3.293520826e-39
0.125 -0.125 -0.1750000119 8.50769636e-39
-0.4250000119 -0.3625000119 0.1625000238 3.019090535e-39
0.1374999881 -0.1875 -0.1374999881 7.04406814e-39
0.1374999881 -0.1374999881 -0.224999994 8.233266069e-39
-0.1875 -0.349999994 0.07499998808 3.293520826e-39
0.08749997616 -0.337500006 -0.3249999881 3.567951117e-39
0.07499998808 -0.337500006 -0.3249999881 3.567951117e-39
0.08749997616 -0.3249999881 -0.1750000119 3.842381409e-39
0.1374999881 -0.1750000119 -0.3000000119 7.409975195e-39
0.1374999881 -0.224999994 -0.150000006 6.220777266e-39
0.0625 -0.462500006 0.2875000238 6.406946774e-40
0.0625 -0.3249999881 -0.07499998808 3.842381409e-39
0.0625 -0.337500006 0.3000000119 3.567951117e-39
0.1374999881 -0.212500006 0.2124999762 6.495207557e-39
0.08749997616 -0.4875000119 -0.07499998808 9.183409486e-41
-0.1875 -0.3249999881 -0.1999999881 3.842381409e-39
0.05000001192 -0.474999994 -0.125 3.662643861e-40
0.1625000238 -0.2624999881 -0.1125000119 5.306009629e-39
-0.337500006 -0.337500006 -0.08750000596 3.567951117e-39
-0.4250000119 -0.3625000119 0.1000000238 3.019090535e-39
-0.3125 -0.3625000119 -0.03749999404 3.019090535e-39
0.125 -0.3249999881 -0.09999999404 3.842381409e-39
0.125 -0.3249999881 -0.1875 3.842381409e-39
0.08749997616 -0.337500006 -0.212500006 3.567951117e-39
0.1750000119 -0.3125 -0.1875 4.1168117e-39
0.1374999881 -0.375 0.2124999762 2.65318348e-39
0.1374999881 -0.09999999404 0.2124999762 9.148033706e-39
0.0625 -0.462500006 0.2749999762 6.406946774e-40
0.05000001192 -0.412499994 -0.287499994 1.829892606e-39
0.1625000238 -0.224999994 -0.1750000119 6.220777266e-39
-0.4250000119 -0.3625000119 -0.0625 3.019090535e-39
0.1374999881 -0.337500006 -0.287499994 3.567951117e-39
0.1625000238 -0.275000006 -0.1125000119 5.031579337e-39
0.1374999881 -0.212500006 -0.162499994 6.495207557e-39
-0.3125 -0.349999994 -0.01249998808 3.293520826e-39
0.0625 -0.3249999881 0.3000000119 3.842381409e-39
-0.4250000119 -0.3874999881 -0.02500000596 2.378753189e-39
0.0625 -0.412499994 -0.3125 1.829892606e-39
-0.212500006 -0.3249999881 0.1000000238 3.842381409e-39
0.1750000119 -0.2624999881 -0.150000006 5.306009629e-39
0.0625 -0.3874999881 -0.275000006 2.378753189e-39
0.1374999881 -0.1374999881 -0.150000006 8.233266069e-39
0.1374999881 -0.1875 -0.25 7.04406814e-39
0.07499998808 -0.275000006 0.3000000119 5.031579337e-39
0.1125000119 -0.412499994 0.3125 1.829892606e-39
0.05000001192 -0.349999994 0.3125 3.293520826e-39
-0.3625000119 -0.3249999881 0.1125000119 3.842381409e-39
0.07499998808 -0.212500006 0.3000000119 6.495207557e-39
-0.3125 -0.3625000119 -0.09999999404 3.019090535e-39
0.1750000119 -0.462500006 -0.03749999404 6.406946774e-40
-0.224999994 -0.3249999881 0.1499999762 3.842381409e-39
0.0625 -0.4250000119 -0.125 1.555462315e-39
0.1625000238 -0.224999994 -0.1875 6.220777266e-39
0.1499999762 -0.474999994 -0.03749999404 3.662643861e-40
-0.3249999881 -0.3249999881 0 3.842381409e-39
0.125 -0.150000006 -0.287499994 7.958835777e-39
0.1625000238 -0.2375000119 -0.08750000596 5.946346975e-39
0.05000001192 -0.3125 0.3125 4.1168117e-39
0.1125000119 -0.3249999881 -0.1750000119 3.842381409e-39
0.1750000119 -0.337500006 -0.125 3.567951117e-39
0.1625000238 -0.337500006 -0.2375000119 3.567951117e-39
0.0625 -0.4875000119 -0.125 9.183409486e-41
0.1374999881 -0.09999999404 0.3125 9.148033706e-39
0.03750002384 -0.1999999881 0.3125 6.769637849e-39
0.1750000119 -0.3125 -0.1374999881 4.1168117e-39
0.05000001192 -0.349999994 -0.07499998808 3.293520826e-39
0.0625 -0.3874999881 -0.287499994 2.378753189e-39
0.1499999762 -0.1875 -0.3000000119 7.04406814e-39
0.07499998808 -0.337500006 -0.224999994 3.567951117e-39
0.08749997616 -0.3125 0.2624999881 4.1168117e-39
0.1750000119 -0.3125 -0.150000006 4.1168117e-39
0.0625 -0.4250000119 -0.2624999881 1.555462315e-39
0.1125000119 -0.4375 -0.3249999881 1.18955526e-39
0.05000001192 -0.4250000119 -0.2375000119 1.555462315e-39
0.125 -0.412499994 0.2124999762 1.829892606e-39
0.07499998808 -0.3249999881 -0.1750000119 3.842381409e-39
-0.4250000119 -0.3625000119 0.1499999762 3.019090535e-39
-0.1999999881 -0.349999994 -0.1999999881 3.293520826e-39
0.1000000238 -0.4375 -0.3249999881 1.18955526e-39
0.05000001192 -0.337500006 -0.1875 3.567951117e-39
0.02499997616 -0.275000006 0.3000000119 5.031579337e-39
0.05000001192 -0.474999994 0.2875000238 3.662643861e-40
0.05000001192 -0.1750000119 0.3000000119 7.409975195e-39
0.03750002384 -0.1875 0.2875000238 7.04406814e-39
-0.375 -0.337500006 -0.162499994 3.567951117e-39
-0.3874999881 -0.337500006 -0.125 3.567951117e-39
-0.275000006 -0.3249999881 0.0625 3.842381409e-39
-0.337500006 -0.337500006 -0.150000006 3.567951117e-39
0.1125000119 -0.474999994 0.3125 3.662643861e-40
0.125 -0.162499994 -0.2375000119 7.684405486e-39
0.1750000119 -0.337500006 -0.1750000119 3.567951117e-39
0.02499997616 -0.08750000596 0.3000000119 9.422463997e-39
-0.212500006 -0.3249999881 -0.287499994 3.842381409e-39
0.02499997616 -0.1750000119 0.3125 7.409975195e-39
-0.375 -0.337500006 -0.150000006 3.567951117e-39
0.1625000238 -0.2375000119 -0.1999999881 5.946346975e-39
0.1750000119 -0.1999999881 -0.275000006 6.769637849e-39
0.05000001192 -0.375 -0.1999999881 2.65318348e-39
0.1374999881 -0.150000006 -0.275000006 7.958835777e-39
0.1000000238 -0.287499994 0.2375000119 4.757149046e-39
0.1499999762 -0.224999994 -0.08750000596 6.220777266e-39
-0.3000000119 -0.337500006 -0.05000001192 3.567951117e-39
-0.3125 -0.349999994 0 3.293520826e-39
0.0625 -0.375 -0.1125000119 2.65318348e-39
0.07499998808 -0.1875 0.3125 7.04406814e-39
0.1625000238 -0.224999994 -0.07499998808 6.220777266e-39
0.05000001192 -0.412499994 -0.125 1.829892606e-39
0.1125000119 -0.337500006 -0.1750000119 3.567951117e-39
-0.275000006 -0.3125 0.1000000238 4.1168117e-39
-0.212500006 -0.3249999881 0.1750000119 3.842381409e-39
0.125 -0.162499994 -0.150000006 7.684405486e-39
0.1750000119 -0.1750000119 -0.150000006 7.409975195e-39
0.1374999881 -0.2375000119 0.1999999881 5.946346975e-39
-0.4250000119 -0.3249999881 0.1125000119 3.842381409e-39
0.1374999881 -0.3249999881 -0.212500006 3.842381409e-39
-0.337500006 -0.337500006 -0.09999999404 3.567951117e-39
-0.349999994 -0.337500006 -0.162499994 3.567951117e-39
0.1000000238 -0.400000006 -0.07499998808 2.104322897e-39
0.125 -0.3249999881 -0.287499994 3.842381409e-39
0.05000001192 -0.400000006 -0.3000000119 2.104322897e-39
0.05000001192 -0.4250000119 -0.3125 1.555462315e-39
0.1750000119 -0.2375000119 -0.150000006 5.946346975e-39
0.1125000119 -0.462500006 0.3000000119 6.406946774e-40
0.07499998808 -0.412499994 -0.3249999881 1.829892606e-39
0.1000000238 -0.4875000119 0.3125 9.183409486e-41
-0.337500006 -0.3249999881 0.1625000238 3.842381409e-39
0.1000000238 -0.3249999881 -0.125 3.842381409e-39
0.1374999881 -0.3125 0.2124999762 4.1168117e-39
-0.287499994 -0.349999994 0.05000001192 3.293520826e-39
0.05000001192 -0.4499999881 -0.275000006 9.151249686e-40
-0.3249999881 -0.3249999881 0.1000000238 3.842381409e-39
0.1374999881 -0.08750000596 0.3125 9.422463997e-39
0.1625000238 -0.125 0.3000000119 8.50769636e-39
-0.287499994 -0.3249999881 0.125 3.842381409e-39
0.1625000238 -0.3249999881 -0.1125000119 3.842381409e-39
0.07499998808 -0.4875000119 0.3000000119 9.183409486e-41
0.05000001192 -0.375 0.3125 2.65318348e-39
0.05000001192 -0.4250000119 -0.08750000596 1.555462315e-39
0.0625 -0.3874999881 -0.1750000119 2.378753189e-39
0.05000001192 -0.3625000119 -0.2624999881 3.019090535e-39
0.03750002384 -0.3625000119 0.3125 3.019090535e-39
0.125 -0.1125000119 0.3125 8.873603415e-39
0.02499997616 -0.3000000119 0.3000000119 4.482718755e-39
-0.224999994 -0.3125 0.08749997616 4.1168117e-39
0.0625 -0.375 -0.3000000119 2.65318348e-39
0.0625 -0.2375000119 0.3000000119 5.946346975e-39
-0.3625000119 -0.3249999881 0.1499999762 3.842381409e-39
0.08749997616 -0.3625000119 0.3125 3.019090535e-39
0.07499998808 -0.287499994 0.2749999762 4.757149046e-39
0.05000001192 -0.400000006 -0.2375000119 2.104322897e-39
0.1750000119 -0.3125 -0.3125 4.1168117e-39
0.0625 -0.400000006 -0.287499994 2.104322897e-39
0.05000001192 -0.25 0.3125 5.58043992e-39
-0.224999994 -0.3249999881 -0.287499994 3.842381409e-39
0.0625 -0.3874999881 -0.2624999881 2.378753189e-39
0.1625000238 -0.25 -0.3000000119 5.58043992e-39
-0.1999999881 -0.3249999881 0.1499999762 3.842381409e-39
0.0625 -0.3625000119 -0.1374999881 3.019090535e-39
0.1625000238 -0.337500006 -0.1875 3.567951117e-39
0.08749997616 -0.400000006 -0.2375000119 2.104322897e-39
0.08749997616 -0.3625000119 -0.07499998808 3.019090535e-39
0.02499997616 -0.462500006 0.3000000119 6.406946774e-40
0.1499999762 -0.1875 -0.1875 7.04406814e-39
0.1000000238 -0.287499994 0.25 4.757149046e-39
-0.3249999881 -0.337500006 0.1750000119 3.567951117e-39
0.1374999881 -0.1875 -0.08750000596 7.04406814e-39
-0.3874999881 -0.349999994 0.1750000119 3.293520826e-39
0.1374999881 -0.08750000596 0.2124999762 9.422463997e-39
0.08749997616 -0.4250000119 0.3000000119 1.555462315e-39
-0.4375 -0.375 -0.08750000596 2.65318348e-39
-0.224999994 -0.3249999881 -0.2375000119 3.842381409e-39
-0.1999999881 -0.3249999881 -0.287499994 3.842381409e-39
0.1625000238 -0.162499994 -0.1374999881 7.684405486e-39
0.1125000119 -0.337500006 -0.07499998808 3.567951117e-39
-0.400000006 -0.337500006 -0.125 3.567951117e-39
-0.4250000119 -0.337500006 0.1750000119 3.567951117e-39
0.1125000119 -0.4499999881 -0.07499998808 9.151249686e-40
-0.4250000119 -0.3625000119 0.08749997616 3.019090535e-39
-0.3125 -0.375 0.01249998808 2.65318348e-39
-0.4250000119 -0.375 0.02499997616 2.65318348e-39
0.03750002384 -0.08750000596 0.3125 9.422463997e-39
0.1374999881 -0.349999994 0.3125 3.293520826e-39
0.07499998808 -0.400000006 -0.1999999881 2.104322897e-39
0.05000001192 -0.462500006 -0.150000006 6.406946774e-40
0.1499999762 -0.224999994 -0.1750000119 6.220777266e-39
-0.375 -0.337500006 -0.02500000596 3.567951117e-39
0.1750000119 -0.275000006 -0.212500006 5.031579337e-39
0.125 -0.3625000119 -0.1999999881 3.019090535e-39
0.05000001192 -0.4875000119 0.3000000119 9.183409486e-41
0.1750000119 -0.2624999881 -0.2624999881 5.306009629e-39
0.03750002384 -0.4499999881 0.3125 9.151249686e-40
0.05000001192 -0.337500006 -0.09999999404 3.567951117e-39
0.08749997616 -0.287499994 0.3125 4.757149046e-39
-0.4250000119 -0.337500006 0.02499997616 3.567951117e-39
0.1374999881 -0.3249999881 -0.25 3.842381409e-39
-0.224999994 -0.3125 0.1125000119 4.1168117e-39
-0.4250000119 -0.375 -0.05000001192 2.65318348e-39
0.1374999881 -0.162499994 -0.09999999404 7.684405486e-39
-0.25 -0.3125 0.1000000238 4.1168117e-39
-0.212500006 -0.3249999881 0.1374999881 3.842381409e-39
0.1374999881 -0.212500006 -0.125 6.495207557e-39
0.1125000119 -0.375 0.3000000119 2.65318348e-39
0.0625 -0.462500006 -0.1374999881 6.406946774e-40
0.07499998808 -0.3249999881 -0.287499994 3.842381409e-39
0.1374999881 -0.125 0.2124999762 8.50769636e-39
0.0625 -0.4375 -0.224999994 1.18955526e-39
0.1125000119 -0.3249999881 -0.1374999881 3.842381409e-39
-0.275000006 -0.3249999881 -0.224999994 3.842381409e-39
0.1374999881 -0.212500006 0.3125 6.495207557e-39
0.1625000238 -0.275000006 -0.2375000119 5.031579337e-39
0.0625 -0.4375 -0.3000000119 1.18955526e-39
0.125 -0.337500006 -0.08750000596 3.567951117e-39
-0.25 -0.3249999881 -0.224999994 3.842381409e-39
0.1499999762 -0.212500006 -0.07499998808 6.495207557e-39
0.05000001192 -0.349999994 -0.2624999881 3.293520826e-39
0.07499998808 -0.474999994 0.3000000119 3.662643861e-40
0.07499998808 -0.349999994 -0.3249999881 3.293520826e-39
-0.3000000119 -0.3249999881 0.1625000238 3.842381409e-39
0.05000001192 -0.462500006 -0.275000006 6.406946774e-40
0.1625000238 -0.275000006 -0.07499998808 5.031579337e-39
0.0625 -0.462500006 -0.07499998808 6.406946774e-40
0.08749997616 -0.3249999881 -0.1125000119 3.842381409e-39
0.1374999881 -0.400000006 -0.3249999881 2.104322897e-39
0.125 -0.150000006 -0.25 7.958835777e-39
-0.3125 -0.349999994 -0.125 3.293520826e-39
0.1750000119 -0.2624999881 -0.3000000119 5.306009629e-39
0.0625 -0.287499994 0.3125 4.757149046e-39
0.1000000238 -0.4250000119 -0.3249999881 1.555462315e-39
0.07499998808 -0.337500006 0.3000000119 3.567951117e-39
0.05000001192 -0.349999994 -0.1125000119 3.293520826e-39
0.1125000119 -0.412499994 -0.07499998808 1.829892606e-39
0.02499997616 -0.349999994 0.3125 3.293520826e-39
0.05000001192 -0.337500006 0.3125 3.567951117e-39
-0.4250000119 -0.3249999881 -0.08750000596 3.842381409e-39
0.1750000119 -0.3625000119 -0.07499998808 3.019090535e-39
0.0625 -0.474999994 0.2749999762 3.662643861e-40
0.08749997616 -0.474999994 -0.07499998808 3.662643861e-40
0.05000001192 -0.349999994 -0.212500006 3.293520826e-39
0.1499999762 -0.3249999881 -0.3000000119 3.842381409e-39
0.05000001192 -0.375 -0.150000006 2.65318348e-39
0.05000001192 -0.3874999881 -0.125 2.378753189e-39
0.1750000119 -0.337500006 -0.1374999881 3.567951117e-39
0.1374999881 -0.4875000119 -0.07499998808 9.183409486e-41
-0.25 -0.3249999881 -0.2624999881 3.842381409e-39
-0.275000006 -0.287499994 0.1000000238 4.757149046e-39
0.1750000119 -0.2375000119 -0.1125000119 5.946346975e-39
0.125 -0.2624999881 0.3000000119 5.306009629e-39
-0.412499994 -0.3125 -0.02500000596 4.1168117e-39
0.05000001192 -0.4250000119 -0.07499998808 1.555462315e-39
0.1374999881 -0.3625000119 -0.3249999881 3.019090535e-39
-0.3625000119 -0.3249999881 0.1750000119 3.842381409e-39
-0.337500006 -0.337500006 -0.03749999404 3.567951117e-39
-0.412499994 -0.3249999881 0.07499998808 3.842381409e-39
-0.375 -0.3625000119 0.1750000119 3.019090535e-39
0.1499999762 -0.3249999881 -0.125 3.842381409e-39
0.1750000119 -0.337500006 -0.3249999881 3.567951117e-39
-0.400000006 -0.3249999881 -0.0625 3.842381409e-39
0.1000000238 -0.3249999881 -0.162499994 3.842381409e-39
0.125 -0.4250000119 -0.3249999881 1.555462315e-39
0.0625 -0.3625000119 0.3125 3.019090535e-39
0.1000000238 -0.1374999881 0.3125 8.233266069e-39
-0.4250000119 -0.337500006 -0.03749999404 3.567951117e-39
0.1625000238 -0.09999999404 0.3000000119 9.148033706e-39
0.1499999762 -0.337500006 -0.3249999881 3.567951117e-39
0.0625 -0.375 -0.287499994 2.65318348e-39
0.1750000119 -0.275000006 -0.150000006 5.031579337e-39
0.0625 -0.412499994 0.3000000119 1.829892606e-39
0.125 -0.3249999881 -0.3125 3.842381409e-39
-0.412499994 -0.3249999881 -0.09999999404 3.842381409e-39
-0.212500006 -0.3125 0.125 4.1168117e-39
0.02499997616 -0.375 0.3000000119 2.65318348e-39
0.05000001192 -0.3249999881 -0.2375000119 3.842381409e-39
-0.349999994 -0.3249999881 0.08749997616 3.842381409e-39
-0.275000006 -0.3125 0.125 4.1168117e-39
0.1750000119 -0.337500006 -0.1875 3.567951117e-39
0.08749997616 -0.3249999881 -0.1875 3.842381409e-39
0.1374999881 -0.400000006 0.2124999762 2.104322897e-39
0.1374999881 -0.150000006 -0.212500006 7.958835777e-39
0.125 -0.212500006 0.2124999762 6.495207557e-39
-0.337500006 -0.3249999881 0.1125000119 3.842381409e-39
0.08749997616 -0.4375 -0.150000006 1.18955526e-39
0.1374999881 -0.275000006 0.3000000119 5.031579337e-39
0.08749997616 -0.4499999881 0.3125 9.151249686e-40
0.1625000238 -0.162499994 -0.25 7.684405486e-39
0.05000001192 -0.3249999881 -0.212500006 3.842381409e-39
0.1374999881 -0.1374999881 -0.09999999404 8.233266069e-39
0.125 -0.1125000119 0.3000000119 8.873603415e-39
-0.3874999881 -0.3625000119 0.1750000119 3.019090535e-39
0.1374999881 -0.474999994 0.3000000119 3.662643861e-40
-0.3625000119 -0.3249999881 0.08749997616 3.842381409e-39
0.05000001192 -0.4375 0.3000000119 1.18955526e-39
0.05000001192 -0.4375 -0.275000006 1.18955526e-39
0.05000001192 -0.4499999881 -0.3125 9.151249686e-40
0.1499999762 -0.462500006 -0.07499998808 6.406946774e-40
0.0625 -0.474999994 -0.2624999881 3.662643861e-40
0.08749997616 -0.349999994 -0.1999999881 3.293520826e-39
0.125 -0.212500006 0.3000000119 6.495207557e-39
0.07499998808 -0.162499994 0.3000000119 7.684405486e-39
-0.287499994 -0.3249999881 0.1374999881 3.842381409e-39
0.1000000238 -0.3874999881 0.3125 2.378753189e-39
-0.275000006 -0.349999994 0.05000001192 3.293520826e-39
0.1125000119 -0.2624999881 0.2124999762 5.306009629e-39
0.1374999881 -0.349999994 0.3000000119 3.293520826e-39
0.1625000238 -0.25 -0.162499994 5.58043992e-39
0.0625 -0.349999994 0.3125 3.293520826e-39
0.1750000119 -0.3249999881 -0.08750000596 3.842381409e-39
0.125 -0.2624999881 0.2124999762 5.306009629e-39
0.08749997616 -0.08750000596 0.3125 9.422463997e-39
0.05000001192 -0.375 -0.1750000119 2.65318348e-39
0.03750002384 -0.462500006 0.2875000238 6.406946774e-40
-0.1875 -0.337500006 -0.2624999881 3.567951117e-39
0.1750000119 -0.2375000119 -0.25 5.946346975e-39
-0.337500006 -0.349999994 0.1750000119 3.293520826e-39
0.05000001192 -0.375 -0.08750000596 2.65318348e-39
0.0625 -0.3874999881 0.3000000119 2.378753189e-39
-0.1999999881 -0.3249999881 0.1625000238 3.842381409e-39
0.0625 -0.412499994 -0.2375000119 1.829892606e-39
0.02499997616 -0.2375000119 0.3000000119 5.946346975e-39
0.08749997616 -0.3249999881 -0.212500006 3.842381409e-39
0.125 -0.3000000119 0.3125 4.482718755e-39
0.1499999762 -0.4250000119 -0.07499998808 1.555462315e-39
0.07499998808 -0.4250000119 -0.3249999881 1.555462315e-39
0.0625 -0.3625000119 0.3000000119 3.019090535e-39
0.05000001192 -0.349999994 -0.08750000596 3.293520826e-39
-0.375 -0.3249999881 0.1499999762 3.842381409e-39
-0.3249999881 -0.3249999881 0.1625000238 3.842381409e-39
-0.3000000119 -0.337500006 0.03750002384 3.567951117e-39
0.1750000119 -0.2624999881 -0.07499998808 5.306009629e-39
-0.4250000119 -0.3249999881 0.1374999881 3.842381409e-39
-0.3125 -0.3625000119 -0.08750000596 3.019090535e-39
0.0625 -0.375 -0.3249999881 2.65318348e-39
0.07499998808 -0.3249999881 -0.1875 3.842381409e-39
