# .PCD v0.7 - Point Cloud Data file format
VERSION 0.7
FIELDS x y z rgb
SIZE 4 4 4 4
TYPE F F F F
COUNT 1 1 1 1
WIDTH 902
HEIGHT 1
VIEWPOINT 0 0 0 1 0 0 0
POINTS 902
DATA ascii
-0.07499998808 -0.400000006 -0.09999999404 2.378753189e-39
0.1125000119 -0.4875000119 -0.08750000596 3.662643861e-40
-0.07499998808 -0.275000006 0.2624999881 5.306009629e-39
-0.0625 -0.1999999881 0.125 7.04406814e-39
-0.03749999404 -0.462500006 -0.162499994 9.151249686e-40
-0.0625 -0.25 0.07499998808 5.946346975e-39
-0.07499998808 -0.4250000119 -0.0625 1.829892606e-39
-0.0625 -0.1875 -0.0625 7.409975195e-39
-0.0625 -0.162499994 0.01249998808 7.958835777e-39
-0.0625 -0.400000006 0.3374999762 2.378753189e-39
-0.07499998808 -0.4499999881 0.2749999762 1.18955526e-39
-0.0625 -0.1999999881 0.01249998808 7.04406814e-39
-0.0625 -0.337500006 -0.02500000596 3.842381409e-39
-0.1125000119 -0.4875000119 0.0625 3.662643861e-40
-0.0625 -0.4875000119 0.3500000238 3.662643861e-40
-0.0625 -0.224999994 0.2375000119 6.495207557e-39
0.2250000238 -0.400000006 -0.150000006 2.378753189e-39
0.1750000119 -0.4250000119 -0.1374999881 1.829892606e-39
0.1750000119 -0.4875000119 0.03750002384 3.662643861e-40
0.25 -0.462500006 -0.162499994 9.151249686e-40
0.2124999762 -0.3625000119 -0.162499994 3.293520826e-39
-0.4875000119 -0.162499994 -0.162499994 7.958835777e-39
-0.07499998808 -0.224999994 0.2375000119 6.495207557e-39
-0.0625 -0.3625000119 0.125 3.293520826e-39
0.2749999762 -0.25 -0.162499994 5.946346975e-39
0.07499998808 -0.4875000119 0.0625 3.662643861e-40
-0.0625 -0.375 -0.08750000596 3.019090535e-39
-0.07499998808 -0.4499999881 0.1000000238 1.18955526e-39
0.03750002384 -0.4875000119 -0.162499994 3.662643861e-40
0.1999999881 -0.349999994 -0.162499994 3.567951117e-39
-0.01249998808 -0.4875000119 0.2124999762 3.662643861e-40
0.3625000119 -0.3000000119 0.2749999762 4.757149046e-39
0.1499999762 -0.4875000119 0.02499997616 3.662643861e-40
-0.02500000596 -0.4875000119 0.1000000238 3.662643861e-40
-0.02500000596 -0.212500006 -0.150000006 6.769637849e-39
-0.07499998808 -0.375 0.08749997616 3.019090535e-39
-0.0625 -0.4875000119 0.07499998808 3.662643861e-40
0.02499997616 -0.4875000119 0.3874999881 3.662643861e-40
0.1875 -0.3000000119 -0.162499994 4.757149046e-39
-0.07499998808 -0.400000006 -0.1125000119 2.378753189e-39
-0.08750000596 -0.474999994 -0.162499994 6.406946774e-40
0.02499997616 -0.4875000119 0.4125000238 3.662643861e-40
-0.07499998808 -0.287499994 -0.1374999881 5.031579337e-39
-0.0625 -0.1999999881 0.08749997616 7.04406814e-39
-0.03749999404 -0.4875000119 -0.125 3.662643861e-40
-0.07499998808 -0.1875 0.05000001192 7.409975195e-39
-0.07499998808 -0.349999994 0.01249998808 3.567951117e-39
0.1875 -0.4250000119 -0.1125000119 1.829892606e-39
0.4125000238 -0.3249999881 0.2375000119 4.1168117e-39
0.3374999762 -0.375 -0.125 3.019090535e-39
-0.0625 -0.4375 -0.1125000119 1.555462315e-39
-0.0625 -0.3625000119 0.1750000119 3.293520826e-39
-0.05000001192 -0.349999994 -0.150000006 3.567951117e-39
0.3500000238 -0.462500006 -0.162499994 9.151249686e-40
0.05000001192 -0.4875000119 0.1625000238 3.662643861e-40
-0.0625 -0.3125 0.08749997616 4.482718755e-39
0.1875 -0.4875000119 0.2749999762 3.662643861e-40
0.01249998808 -0.4875000119 0.2124999762 3.662643861e-40
-0.03749999404 -0.224999994 0.25 6.495207557e-39
-0.07499998808 -0.3874999881 0.2124999762 2.65318348e-39
0.1499999762 -0.275000006 -0.162499994 5.306009629e-39
-0.0625 -0.3000000119 0.03750002384 4.757149046e-39
-0.07499998808 -0.412499994 0.2624999881 2.104322897e-39
-0.07499998808 -0.4875000119 0.3500000238 3.662643861e-40
-0.07499998808 -0.224999994 0.1000000238 6.495207557e-39
-0.0625 -0.400000006 -0.08750000596 2.378753189e-39
-0.07499998808 -0.4875000119 -0.03749999404 3.662643861e-40
0.08749997616 -0.4875000119 0.0625 3.662643861e-40
0.1000000238 -0.4875000119 0.1750000119 3.662643861e-40
0.01249998808 -0.4875000119 0.2624999881 3.662643861e-40
0.1499999762 -0.4875000119 -0.162499994 3.662643861e-40
-0.01249998808 -0.4875000119 0.25 3.662643861e-40
-0.0625 -0.224999994 0.3249999881 6.495207557e-39
-0.07499998808 -0.3125 0 4.482718755e-39
-0.07499998808 -0.412499994 0.1625000238 2.104322897e-39
-0.07499998808 -0.2375000119 0.3000000119 6.220777266e-39
-0.0625 -0.224999994 0.0625 6.495207557e-39
-0.03749999404 -0.224999994 0.1999999881 6.495207557e-39
0.1875 -0.2624999881 -0.162499994 5.58043992e-39
0.4125000238 -0.337500006 0.2250000238 3.842381409e-39
-0.07499998808 -0.2375000119 0.01249998808 6.220777266e-39
-0.0625 -0.212500006 -0.162499994 6.769637849e-39
-0.07499998808 -0.3249999881 0.08749997616 4.1168117e-39
-0.07499998808 -0.2624999881 -0.05000001192 5.58043992e-39
-0.0625 -0.4250000119 0.08749997616 1.829892606e-39
-0.07499998808 -0.2375000119 -0.1374999881 6.220777266e-39
-0.03749999404 -0.4875000119 0.2124999762 3.662643861e-40
0.08749997616 -0.4875000119 -0.162499994 3.662643861e-40
-0.05000001192 -0.4375 -0.150000006 1.555462315e-39
-0.05000001192 -0.4875000119 -0.125 3.662643861e-40
0.1000000238 -0.4875000119 -0.07499998808 3.662643861e-40
-0.0625 -0.474999994 0.1000000238 6.406946774e-40
-0.07499998808 -0.1875 0.2749999762 7.409975195e-39
-0.07499998808 -0.462500006 0.08749997616 9.151249686e-40
-0.0625 -0.287499994 -0.162499994 5.031579337e-39
0.07499998808 -0.4875000119 0.3500000238 3.662643861e-40
-0.09999999404 -0.1875 -0.162499994 7.409975195e-39
-0.0625 -0.287499994 0.2875000238 5.031579337e-39
0.1000000238 -0.4875000119 0.3125 3.662643861e-40
-0.07499998808 -0.4875000119 -0.150000006 3.662643861e-40
-0.07499998808 -0.4875000119 0.01249998808 3.662643861e-40
-0.09999999404 -0.4499999881 -0.162499994 1.18955526e-39
-0.0625 -0.287499994 0.1625000238 5.031579337e-39
-0.03749999404 -0.4375 -0.162499994 1.555462315e-39
-0.07499998808 -0.2624999881 0.1125000119 5.58043992e-39
-0.0625 -0.3874999881 -0.08750000596 2.65318348e-39
0.1750000119 -0.224999994 -0.150000006 6.495207557e-39
-0.07499998808 -0.3000000119 -0.1374999881 4.757149046e-39
-0.0625 -0.150000006 -0.162499994 8.233266069e-39
0.375 -0.3249999881 0.1999999881 4.1168117e-39
0.05000001192 -0.4875000119 0.2875000238 3.662643861e-40
-0.02500000596 -0.1750000119 -0.162499994 7.684405486e-39
-0.07499998808 -0.3249999881 0.3125 4.1168117e-39
0.1625000238 -0.4875000119 0.05000001192 3.662643861e-40
-0.07499998808 -0.2375000119 -0.08750000596 6.220777266e-39
-0.08750000596 -0.4875000119 0.3374999762 3.662643861e-40
-0.07499998808 -0.3874999881 0.2250000238 2.65318348e-39
-0.05000001192 -0.412499994 -0.150000006 2.104322897e-39
-0.07499998808 -0.3125 -0.05000001192 4.482718755e-39
-0.0625 -0.4375 0.1875 1.555462315e-39
0.4125000238 -0.3249999881 0.2124999762 4.1168117e-39
-0.0625 -0.287499994 -0.02500000596 5.031579337e-39
-0.07499998808 -0.4875000119 0.375 3.662643861e-40
-0.07499998808 -0.349999994 -0.162499994 3.567951117e-39
-0.09999999404 -0.4875000119 0.01249998808 3.662643861e-40
-0.0625 -0.25 0.05000001192 5.946346975e-39
-0.07499998808 -0.25 0.2124999762 5.946346975e-39
-0.03749999404 -0.1750000119 0.2124999762 7.684405486e-39
0.05000001192 -0.4875000119 -0.07499998808 3.662643861e-40
-0.07499998808 -0.275000006 -0.125 5.306009629e-39
0.1750000119 -0.4875000119 0.02499997616 3.662643861e-40
0.1999999881 -0.4875000119 -0.09999999404 3.662643861e-40
-0.07499998808 -0.3000000119 0.02499997616 4.757149046e-39
0.1125000119 -0.4875000119 0.2375000119 3.662643861e-40
-0.0625 -0.287499994 -0.05000001192 5.031579337e-39
-0.0625 -0.1750000119 0.1000000238 7.684405486e-39
-0.07499998808 -0.4499999881 -0.1125000119 1.18955526e-39
0.1875 -0.462500006 -0.125 9.151249686e-40
-0.03749999404 -0.287499994 -0.150000006 5.031579337e-39
-0.0625 -0.275000006 0.3374999762 5.306009629e-39
-0.07499998808 -0.4375 0.1499999762 1.555462315e-39
-0.125 -0.4875000119 0.2375000119 3.662643861e-40
-0.0625 -0.462500006 0.3249999881 9.151249686e-40
-0.0625 -0.337500006 0.125 3.842381409e-39
0.1875 -0.375 -0.162499994 3.019090535e-39
-0.0625 -0.474999994 0.3125 6.406946774e-40
0 -0.4875000119 0.3000000119 3.662643861e-40
-0.0625 -0.400000006 -0.125 2.378753189e-39
0.2749999762 -0.375 -0.125 3.019090535e-39
0.3374999762 -0.400000006 -0.07499998808 2.378753189e-39
-0.0625 -0.212500006 0.3000000119 6.769637849e-39
-0.0625 -0.3625000119 0.1000000238 3.293520826e-39
0 -0.4875000119 0.3249999881 3.662643861e-40
0.2250000238 -0.462500006 -0.1374999881 9.151249686e-40
-0.0625 -0.4375 0.2375000119 1.555462315e-39
-0.0625 -0.3125 0.1999999881 4.482718755e-39
-0.03749999404 -0.3249999881 -0.162499994 4.1168117e-39
-0.09999999404 -0.4875000119 -0.07499998808 3.662643861e-40
-0.0625 -0.287499994 0.07499998808 5.031579337e-39
-0.0625 -0.4250000119 0.125 1.829892606e-39
0.01249998808 -0.4875000119 0.08749997616 3.662643861e-40
0.125 -0.4875000119 0.08749997616 3.662643861e-40
-0.0625 -0.337500006 0.3125 3.842381409e-39
0.07499998808 -0.4875000119 0.01249998808 3.662643861e-40
0.2250000238 -0.3625000119 -0.162499994 3.293520826e-39
-0.07499998808 -0.349999994 -0.0625 3.567951117e-39
-0.03749999404 -0.1750000119 -0.150000006 7.684405486e-39
-0.0625 -0.412499994 0.02499997616 2.104322897e-39
0.1750000119 -0.4875000119 0.01249998808 3.662643861e-40
-0.0625 -0.4499999881 0.3000000119 1.18955526e-39
-0.150000006 -0.1750000119 -0.162499994 7.684405486e-39
-0.1125000119 -0.4875000119 -0.1125000119 3.662643861e-40
0.2375000119 -0.349999994 -0.162499994 3.567951117e-39
0.1625000238 -0.462500006 -0.150000006 9.151249686e-40
0.3000000119 -0.400000006 -0.03749999404 2.378753189e-39
-0.05000001192 -0.1750000119 -0.162499994 7.684405486e-39
-0.07499998808 -0.3249999881 0.1374999881 4.1168117e-39
-0.0625 -0.4250000119 0.1999999881 1.829892606e-39
0.1750000119 -0.3625000119 -0.162499994 3.293520826e-39
0.3125 -0.3874999881 -0.162499994 2.65318348e-39
-0.0625 -0.337500006 0.3249999881 3.842381409e-39
0.2124999762 -0.1875 -0.162499994 7.409975195e-39
-0.0625 -0.3125 -0.02500000596 4.482718755e-39
-0.07499998808 -0.2624999881 0.1000000238 5.58043992e-39
-0.0625 -0.375 0 3.019090535e-39
0.25 -0.162499994 -0.162499994 7.958835777e-39
0.1999999881 -0.474999994 -0.1125000119 6.406946774e-40
0.2624999881 -0.375 -0.1125000119 3.019090535e-39
0.3374999762 -0.400000006 -0.1125000119 2.378753189e-39
-0.07499998808 -0.275000006 -0.07499998808 5.306009629e-39
0.1625000238 -0.4875000119 0.0625 3.662643861e-40
0.1125000119 -0.4875000119 0.3125 3.662643861e-40
-0.0625 -0.412499994 0 2.104322897e-39
-0.08750000596 -0.4875000119 -0.1374999881 3.662643861e-40
-0.09999999404 -0.1999999881 -0.162499994 7.04406814e-39
0.1125000119 -0.4875000119 0.125 3.662643861e-40
-0.01249998808 -0.4875000119 0.0625 3.662643861e-40
-0.07499998808 -0.400000006 0.02499997616 2.378753189e-39
0.01249998808 -0.4875000119 0.1999999881 3.662643861e-40
-0.07499998808 -0.3000000119 -0.162499994 4.757149046e-39
-0.0625 -0.349999994 -0.0625 3.567951117e-39
0.0625 -0.4875000119 -0.09999999404 3.662643861e-40
-0.0625 -0.4250000119 -0.1374999881 1.829892606e-39
-0.0625 -0.1875 0.1000000238 7.409975195e-39
-0.0625 -0.224999994 0.2250000238 6.495207557e-39
0.125 -0.4875000119 -0.1374999881 3.662643861e-40
-0.0625 -0.287499994 -0.09999999404 5.031579337e-39
0.1625000238 -0.474999994 -0.162499994 6.406946774e-40
-0.03749999404 -0.4875000119 0.2250000238 3.662643861e-40
-0.0625 -0.3625000119 0 3.293520826e-39
-0.01249998808 -0.4875000119 -0.07499998808 3.662643861e-40
0.03750002384 -0.4875000119 0.3999999762 3.662643861e-40
-0.07499998808 -0.4250000119 0.2124999762 1.829892606e-39
-0.07499998808 -0.275000006 -0.03749999404 5.306009629e-39
-0.09999999404 -0.4875000119 -0.125 3.662643861e-40
0.1625000238 -0.4875000119 0.01249998808 3.662643861e-40
-0.07499998808 -0.4499999881 -0.01249998808 1.18955526e-39
-0.09999999404 -0.4875000119 -0.162499994 3.662643861e-40
-0.0625 -0.3249999881 0.1999999881 4.1168117e-39
0.2375000119 -0.1374999881 -0.162499994 8.50769636e-39
0.3500000238 -0.3000000119 0.3249999881 4.757149046e-39
0.1625000238 -0.2624999881 -0.162499994 5.58043992e-39
-0.0625 -0.474999994 0.2375000119 6.406946774e-40
-0.0625 -0.3625000119 0.02499997616 3.293520826e-39
0.1374999881 -0.4875000119 0.2624999881 3.662643861e-40
0.1125000119 -0.4875000119 -0.162499994 3.662643861e-40
-0.01249998808 -0.4875000119 0.2375000119 3.662643861e-40
-0.07499998808 -0.3000000119 -0.125 4.757149046e-39
-0.07499998808 -0.287499994 0.07499998808 5.031579337e-39
0.125 -0.4875000119 0.125 3.662643861e-40
0.1875 -0.224999994 -0.162499994 6.495207557e-39
0.0625 -0.4875000119 -0.03749999404 3.662643861e-40
0.2875000238 -0.4250000119 -0.1125000119 1.829892606e-39
-0.07499998808 -0.3874999881 0.08749997616 2.65318348e-39
-0.0625 -0.224999994 -0.125 6.495207557e-39
0.3874999881 -0.3125 0.3125 4.482718755e-39
-0.07499998808 -0.25 0.125 5.946346975e-39
-0.05000001192 -0.4875000119 -0.1374999881 3.662643861e-40
0 -0.4875000119 0.07499998808 3.662643861e-40
-0.07499998808 -0.1999999881 0 7.04406814e-39
-0.0625 -0.275000006 0.1000000238 5.306009629e-39
-0.07499998808 -0.4250000119 -0.150000006 1.829892606e-39
-0.0625 -0.3125 -0.09999999404 4.482718755e-39
0.2749999762 -0.3874999881 -0.162499994 2.65318348e-39
-0.07499998808 -0.2375000119 -0.1125000119 6.220777266e-39
0.2624999881 -0.2375000119 -0.162499994 6.220777266e-39
-0.0625 -0.349999994 0.0625 3.567951117e-39
0 -0.4875000119 0.1875 3.662643861e-40
-0.07499998808 -0.375 -0.1125000119 3.019090535e-39
-0.0625 -0.3000000119 -0.150000006 4.757149046e-39
0.1000000238 -0.4875000119 0.1000000238 3.662643861e-40
-0.07499998808 -0.375 0.1000000238 3.019090535e-39
-0.07499998808 -0.3625000119 0.1999999881 3.293520826e-39
-0.0625 -0.349999994 0.1125000119 3.567951117e-39
-0.0625 -0.162499994 0.05000001192 7.958835777e-39
-0.0625 -0.1875 -0.07499998808 7.409975195e-39
0.2749999762 -0.3874999881 -0.150000006 2.65318348e-39
-0.0625 -0.2624999881 -0.150000006 5.58043992e-39
-0.0625 -0.375 0.3000000119 3.019090535e-39
-0.03749999404 -0.224999994 0.2875000238 6.495207557e-39
0.05000001192 -0.4875000119 0.1875 3.662643861e-40
-0.05000001192 -0.3625000119 -0.162499994 3.293520826e-39
0.1875 -0.3625000119 -0.150000006 3.293520826e-39
0.3125 -0.4375 -0.1125000119 1.555462315e-39
-0.01249998808 -0.4875000119 0 3.662643861e-40
0.1000000238 -0.4875000119 -0.03749999404 3.662643861e-40
-0.07499998808 -0.4250000119 -0.1125000119 1.829892606e-39
-0.07499998808 -0.224999994 -0.09999999404 6.495207557e-39
-0.07499998808 -0.4875000119 0.02499997616 3.662643861e-40
0.1125000119 -0.4875000119 0.0625 3.662643861e-40
0.1875 -0.4875000119 0.125 3.662643861e-40
0.1499999762 -0.4875000119 0.1875 3.662643861e-40
-0.0625 -0.212500006 0.2124999762 6.769637849e-39
0.02499997616 -0.4875000119 0.01249998808 3.662643861e-40
-0.150000006 -0.1374999881 -0.162499994 8.50769636e-39
0.1000000238 -0.474999994 -0.162499994 6.406946774e-40
-0.07499998808 -0.3249999881 0.2875000238 4.1168117e-39
-0.07499998808 -0.349999994 0.2875000238 3.567951117e-39
-0.03749999404 -0.4875000119 0.1625000238 3.662643861e-40
-0.03749999404 -0.224999994 0.2124999762 6.495207557e-39
0.2624999881 -0.400000006 -0.1125000119 2.378753189e-39
0.2124999762 -0.4875000119 0.2250000238 3.662643861e-40
-0.0625 -0.150000006 0.05000001192 8.233266069e-39
-0.03749999404 -0.349999994 -0.162499994 3.567951117e-39
0.3500000238 -0.400000006 -0.09999999404 2.378753189e-39
-0.07499998808 -0.275000006 -0.09999999404 5.306009629e-39
-0.1125000119 -0.4875000119 -0.01249998808 3.662643861e-40
-0.02500000596 -0.3625000119 -0.150000006 3.293520826e-39
-0.0625 -0.349999994 -0.08750000596 3.567951117e-39
-0.07499998808 -0.3625000119 0.1750000119 3.293520826e-39
-0.0625 -0.4499999881 0.2124999762 1.18955526e-39
-0.1374999881 -0.4875000119 0.2749999762 3.662643861e-40
-0.0625 -0.2624999881 0.2250000238 5.58043992e-39
-0.0625 -0.3000000119 0.3125 4.757149046e-39
-0.0625 -0.3625000119 0.3500000238 3.293520826e-39
0.1750000119 -0.4375 -0.1125000119 1.555462315e-39
0.07499998808 -0.4875000119 0.1499999762 3.662643861e-40
0 -0.4875000119 -0.01249998808 3.662643861e-40
0.2124999762 -0.4875000119 0.1999999881 3.662643861e-40
0.1999999881 -0.462500006 -0.162499994 9.151249686e-40
-0.0625 -0.2624999881 -0.1374999881 5.58043992e-39
-0.0625 -0.337500006 0.1000000238 3.842381409e-39
-0.0625 -0.412499994 0.3374999762 2.104322897e-39
-0.07499998808 -0.212500006 -0.02500000596 6.769637849e-39
-0.162499994 -0.1374999881 -0.150000006 8.50769636e-39
0.2250000238 -0.375 -0.1374999881 3.019090535e-39
0.3000000119 -0.224999994 -0.162499994 6.495207557e-39
0.3999999762 -0.337500006 0.25 3.842381409e-39
-0.02500000596 -0.400000006 -0.150000006 2.378753189e-39
-0.0625 -0.474999994 -0.01249998808 6.406946774e-40
-0.0625 -0.3125 0.25 4.482718755e-39
-0.09999999404 -0.4875000119 -0.01249998808 3.662643861e-40
-0.07499998808 -0.4250000119 0.2875000238 1.829892606e-39
-0.07499998808 -0.275000006 0.1999999881 5.306009629e-39
-0.0625 -0.400000006 0.3000000119 2.378753189e-39
-0.07499998808 -0.3874999881 -0.08750000596 2.65318348e-39
-0.4875000119 -0.150000006 -0.162499994 8.233266069e-39
-0.05000001192 -0.4875000119 0.2875000238 3.662643861e-40
-0.0625 -0.412499994 -0.09999999404 2.104322897e-39
0.1499999762 -0.1875 -0.162499994 7.409975195e-39
-0.0625 -0.1875 0.125 7.409975195e-39
0.1875 -0.4375 -0.150000006 1.555462315e-39
-0.07499998808 -0.349999994 0.0625 3.567951117e-39
-0.07499998808 -0.25 0.01249998808 5.946346975e-39
0.3625000119 -0.287499994 0.1999999881 5.031579337e-39
0.2250000238 -0.375 -0.162499994 3.019090535e-39
-0.07499998808 -0.4250000119 0.2624999881 1.829892606e-39
-0.09999999404 -0.224999994 0.3000000119 6.495207557e-39
-0.162499994 -0.1374999881 -0.162499994 8.50769636e-39
0.3500000238 -0.375 -0.09999999404 3.019090535e-39
0.3249999881 -0.349999994 -0.162499994 3.567951117e-39
0.1499999762 -0.4875000119 0.1499999762 3.662643861e-40
0.125 -0.4875000119 -0.125 3.662643861e-40
0.2875000238 -0.400000006 -0.162499994 2.378753189e-39
0.1000000238 -0.4875000119 0.1625000238 3.662643861e-40
0.125 -0.4875000119 -0.150000006 3.662643861e-40
0.3625000119 -0.287499994 0.2749999762 5.031579337e-39
-0.0625 -0.337500006 -0.09999999404 3.842381409e-39
0.2375000119 -0.400000006 -0.162499994 2.378753189e-39
0.1750000119 -0.3125 -0.150000006 4.482718755e-39
-0.0625 -0.287499994 0.05000001192 5.031579337e-39
-0.02500000596 -0.4875000119 0.3625000119 3.662643861e-40
-0.08750000596 -0.224999994 0.3000000119 6.495207557e-39
-0.07499998808 -0.287499994 0.1750000119 5.031579337e-39
-0.0625 -0.224999994 0.2749999762 6.495207557e-39
0.3625000119 -0.3125 0.2124999762 4.482718755e-39
-0.07499998808 -0.25 -0.03749999404 5.946346975e-39
-0.08750000596 -0.2375000119 0.1625000238 6.220777266e-39
0.2375000119 -0.3125 -0.162499994 4.482718755e-39
-0.07499998808 -0.212500006 0.1750000119 6.769637849e-39
-0.07499998808 -0.224999994 -0.02500000596 6.495207557e-39
0.07499998808 -0.4875000119 0.2375000119 3.662643861e-40
-0.0625 -0.2375000119 0 6.220777266e-39
-0.03749999404 -0.1999999881 0.2124999762 7.04406814e-39
-0.0625 -0.412499994 0.1499999762 2.104322897e-39
0.1750000119 -0.4875000119 0 3.662643861e-40
-0.07499998808 -0.1875 0.2124999762 7.409975195e-39
0.1750000119 -0.1875 -0.150000006 7.409975195e-39
0.2124999762 -0.3874999881 -0.150000006 2.65318348e-39
-0.0625 -0.4250000119 0 1.829892606e-39
-0.02500000596 -0.4875000119 0.3500000238 3.662643861e-40
-0.0625 -0.4375 -0.01249998808 1.555462315e-39
-0.0625 -0.3249999881 0.1875 4.1168117e-39
0.1875 -0.3625000119 -0.162499994 3.293520826e-39
-0.03749999404 -0.4875000119 0.01249998808 3.662643861e-40
-0.07499998808 -0.400000006 0.0625 2.378753189e-39
-0.03749999404 -0.4875000119 -0.08750000596 3.662643861e-40
-0.08750000596 -0.4875000119 0.1625000238 3.662643861e-40
0.125 -0.4875000119 0.3625000119 3.662643861e-40
-0.07499998808 -0.4875000119 0.05000001192 3.662643861e-40
-0.07499998808 -0.4375 0.3374999762 1.555462315e-39
-0.07499998808 -0.375 0.1499999762 3.019090535e-39
-0.0625 -0.4250000119 0.2124999762 1.829892606e-39
-0.07499998808 -0.3125 0.01249998808 4.482718755e-39
-0.0625 -0.3874999881 0.2875000238 2.65318348e-39
-0.0625 -0.3125 0.3000000119 4.482718755e-39
0.01249998808 -0.4875000119 0.3500000238 3.662643861e-40
-0.01249998808 -0.4875000119 0.1999999881 3.662643861e-40
-0.02500000596 -0.337500006 -0.162499994 3.842381409e-39
-0.07499998808 -0.4375 -0.125 1.555462315e-39
-0.07499998808 -0.4875000119 -0.05000001192 3.662643861e-40
-0.01249998808 -0.4875000119 0.02499997616 3.662643861e-40
-0.0625 -0.349999994 0.1999999881 3.567951117e-39
-0.02500000596 -0.287499994 -0.162499994 5.031579337e-39
-0.5 -0.1750000119 -0.162499994 7.684405486e-39
-0.0625 -0.4375 0.3249999881 1.555462315e-39
-0.0625 -0.3874999881 0.1374999881 2.65318348e-39
-0.09999999404 -0.3249999881 -0.162499994 4.1168117e-39
0.2124999762 -0.4375 -0.162499994 1.555462315e-39
0.3625000119 -0.3000000119 0.2375000119 4.757149046e-39
-0.03749999404 -0.1999999881 0.2624999881 7.04406814e-39
-0.07499998808 -0.337500006 -0.08750000596 3.842381409e-39
0.1374999881 -0.4875000119 0.2875000238 3.662643861e-40
-0.0625 -0.2624999881 0.2375000119 5.58043992e-39
-0.0625 -0.2624999881 0.1750000119 5.58043992e-39
-0.0625 -0.2624999881 -0.01249998808 5.58043992e-39
0.1499999762 -0.3625000119 -0.162499994 3.293520826e-39
0.125 -0.4875000119 0.05000001192 3.662643861e-40
-0.0625 -0.337500006 0.2375000119 3.842381409e-39
0.2250000238 -0.4499999881 -0.1374999881 1.18955526e-39
-0.0625 -0.4375 0.3374999762 1.555462315e-39
0.125 -0.4875000119 0.3125 3.662643861e-40
-0.09999999404 -0.4875000119 0.1125000119 3.662643861e-40
-0.05000001192 -0.3125 -0.150000006 4.482718755e-39
0.05000001192 -0.4875000119 0.3374999762 3.662643861e-40
0.1625000238 -0.1875 -0.162499994 7.409975195e-39
-0.03749999404 -0.25 0.3000000119 5.946346975e-39
-0.07499998808 -0.3000000119 -0.09999999404 4.757149046e-39
-0.05000001192 -0.4875000119 0.0625 3.662643861e-40
0.1374999881 -0.4875000119 0.3500000238 3.662643861e-40
-0.0625 -0.375 -0.1374999881 3.019090535e-39
-0.0625 -0.287499994 -0.1125000119 5.031579337e-39
-0.0625 -0.224999994 0.1625000238 6.495207557e-39
-0.07499998808 -0.2624999881 -0.162499994 5.58043992e-39
-0.07499998808 -0.462500006 -0.02500000596 9.151249686e-40
-0.1125000119 -0.4875000119 -0.09999999404 3.662643861e-40
-0.0625 -0.1875 0.1625000238 7.409975195e-39
0.3374999762 -0.400000006 -0.150000006 2.378753189e-39
-0.1875 -0.150000006 -0.162499994 8.233266069e-39
-0.03749999404 -0.212500006 -0.150000006 6.769637849e-39
0.1750000119 -0.1999999881 -0.150000006 7.04406814e-39
0.1499999762 -0.4250000119 -0.162499994 1.829892606e-39
-0.1125000119 -0.4875000119 0.3125 3.662643861e-40
-0.07499998808 -0.4375 0.3249999881 1.555462315e-39
-0.0625 -0.3625000119 -0.07499998808 3.293520826e-39
0.1625000238 -0.4499999881 -0.150000006 1.18955526e-39
-0.07499998808 -0.4875000119 0.125 3.662643861e-40
-0.07499998808 -0.2624999881 0.1875 5.58043992e-39
-0.07499998808 -0.275000006 -0.150000006 5.306009629e-39
-0.05000001192 -0.1999999881 -0.150000006 7.04406814e-39
-0.0625 -0.212500006 -0.09999999404 6.769637849e-39
0.0625 -0.4875000119 0.3500000238 3.662643861e-40
0.125 -0.4875000119 0.2124999762 3.662643861e-40
0.3249999881 -0.400000006 -0.162499994 2.378753189e-39
-0.0625 -0.25 0.3000000119 5.946346975e-39
0.25 -0.1750000119 -0.162499994 7.684405486e-39
-0.1374999881 -0.162499994 -0.162499994 7.958835777e-39
-0.07499998808 -0.4375 -0.01249998808 1.555462315e-39
-0.07499998808 -0.2624999881 -0.1374999881 5.58043992e-39
-0.07499998808 -0.4375 0.08749997616 1.555462315e-39
-0.0625 -0.3249999881 0.3500000238 4.1168117e-39
-0.07499998808 -0.1999999881 0.1999999881 7.04406814e-39
-0.0625 -0.2375000119 -0.1125000119 6.220777266e-39
-0.05000001192 -0.3874999881 -0.150000006 2.65318348e-39
-0.07499998808 -0.4499999881 0.01249998808 1.18955526e-39
-0.0625 -0.3249999881 -0.0625 4.1168117e-39
-0.07499998808 -0.4375 0.1125000119 1.555462315e-39
-0.08750000596 -0.3125 -0.162499994 4.482718755e-39
0.1875 -0.2375000119 -0.162499994 6.220777266e-39
0.1499999762 -0.212500006 -0.162499994 6.769637849e-39
-0.07499998808 -0.474999994 0.3000000119 6.406946774e-40
-0.0625 -0.474999994 -0.07499998808 6.406946774e-40
-0.07499998808 -0.3249999881 -0.1125000119 4.1168117e-39
0.08749997616 -0.4875000119 0.1875 3.662643861e-40
-0.07499998808 -0.25 0.0625 5.946346975e-39
-0.07499998808 -0.337500006 0.05000001192 3.842381409e-39
-0.05000001192 -0.4875000119 0.03750002384 3.662643861e-40
0.1750000119 -0.4875000119 0.2124999762 3.662643861e-40
-0.03749999404 -0.4875000119 0.3000000119 3.662643861e-40
0.08749997616 -0.4875000119 0.3374999762 3.662643861e-40
0.3625000119 -0.3000000119 0.2250000238 4.757149046e-39
0.1875 -0.162499994 -0.162499994 7.958835777e-39
-0.0625 -0.3000000119 0.2124999762 4.757149046e-39
-0.07499998808 -0.400000006 -0.03749999404 2.378753189e-39
-0.07499998808 -0.287499994 -0.09999999404 5.031579337e-39
-0.01249998808 -0.4875000119 0.3625000119 3.662643861e-40
-0.07499998808 -0.4250000119 0.2749999762 1.829892606e-39
0.05000001192 -0.4875000119 0.3249999881 3.662643861e-40
0.2375000119 -0.3625000119 -0.162499994 3.293520826e-39
-0.0625 -0.275000006 0.08749997616 5.306009629e-39
0.1750000119 -0.3000000119 -0.150000006 4.757149046e-39
-0.02500000596 -0.3625000119 -0.162499994 3.293520826e-39
-0.05000001192 -0.162499994 -0.150000006 7.958835777e-39
-0.0625 -0.1750000119 0.02499997616 7.684405486e-39
-0.08750000596 -0.1999999881 0.2124999762 7.04406814e-39
-0.0625 -0.4250000119 0.3125 1.829892606e-39
-0.09999999404 -0.4875000119 -0.150000006 3.662643861e-40
-0.0625 -0.337500006 -0.1374999881 3.842381409e-39
0.3874999881 -0.3000000119 0.3249999881 4.757149046e-39
-0.0625 -0.4875000119 -0.07499998808 3.662643861e-40
-0.03749999404 -0.150000006 0.3000000119 8.233266069e-39
-0.03749999404 -0.3874999881 -0.150000006 2.65318348e-39
-0.07499998808 -0.1875 -0.03749999404 7.409975195e-39
0.1750000119 -0.4875000119 -0.05000001192 3.662643861e-40
-0.0625 -0.3249999881 0.25 4.1168117e-39
-0.07499998808 -0.3000000119 -0.1125000119 4.757149046e-39
-0.03749999404 -0.4875000119 0.1499999762 3.662643861e-40
-0.0625 -0.3000000119 0.08749997616 4.757149046e-39
-0.07499998808 -0.150000006 -0.02500000596 8.233266069e-39
0.2875000238 -0.375 -0.0625 3.019090535e-39
-0.125 -0.162499994 -0.162499994 7.958835777e-39
-0.0625 -0.3249999881 0.125 4.1168117e-39
-0.07499998808 -0.4875000119 0.2375000119 3.662643861e-40
-0.1125000119 -0.412499994 -0.162499994 2.104322897e-39
-0.08750000596 -0.4875000119 0.2124999762 3.662643861e-40
-0.0625 -0.412499994 0.3000000119 2.104322897e-39
0.375 -0.3249999881 0.2250000238 4.1168117e-39
0.2749999762 -0.375 -0.1125000119 3.019090535e-39
-0.08750000596 -0.1875 0.3000000119 7.409975195e-39
0.2124999762 -0.1750000119 -0.162499994 7.684405486e-39
-0.0625 -0.4375 -0.08750000596 1.555462315e-39
0.2124999762 -0.400000006 -0.1374999881 2.378753189e-39
-0.02500000596 -0.4875000119 0.0625 3.662643861e-40
0.03750002384 -0.4875000119 -0.1374999881 3.662643861e-40
-0.07499998808 -0.224999994 -0.07499998808 6.495207557e-39
0.1750000119 -0.1999999881 -0.162499994 7.04406814e-39
-0.0625 -0.3000000119 0.2624999881 4.757149046e-39
0.08749997616 -0.474999994 -0.150000006 6.406946774e-40
-0.09999999404 -0.4875000119 -0.03749999404 3.662643861e-40
0.2375000119 -0.4875000119 0.2375000119 3.662643861e-40
0.1750000119 -0.375 -0.162499994 3.019090535e-39
-0.0625 -0.3625000119 0.1875 3.293520826e-39
-0.07499998808 -0.212500006 0.08749997616 6.769637849e-39
0.3874999881 -0.3249999881 0.2624999881 4.1168117e-39
-0.05000001192 -0.3874999881 -0.162499994 2.65318348e-39
-0.02500000596 -0.4499999881 -0.150000006 1.18955526e-39
-0.07499998808 -0.212500006 0.2749999762 6.769637849e-39
-0.0625 -0.2624999881 0.03750002384 5.58043992e-39
-0.0625 -0.4875000119 -0.162499994 3.662643861e-40
-0.07499998808 -0.287499994 0.3125 5.031579337e-39
-0.0625 -0.1875 0.1374999881 7.409975195e-39
0.01249998808 -0.474999994 -0.162499994 6.406946774e-40
0.125 -0.4875000119 0.3374999762 3.662643861e-40
0.2624999881 -0.287499994 -0.162499994 5.031579337e-39
-0.07499998808 -0.400000006 0.2875000238 2.378753189e-39
-0.07499998808 -0.412499994 0.01249998808 2.104322897e-39
-0.07499998808 -0.474999994 -0.1125000119 6.406946774e-40
-0.0625 -0.4250000119 -0.0625 1.829892606e-39
0.2749999762 -0.400000006 -0.125 2.378753189e-39
-0.0625 -0.224999994 0.03750002384 6.495207557e-39
-0.0625 -0.4250000119 0.25 1.829892606e-39
-0.07499998808 -0.400000006 0.2124999762 2.378753189e-39
0.01249998808 -0.4875000119 0.1875 3.662643861e-40
-0.0625 -0.3125 0.1125000119 4.482718755e-39
-0.07499998808 -0.1999999881 0.02499997616 7.04406814e-39
-0.0625 -0.400000006 -0.1374999881 2.378753189e-39
-0.07499998808 -0.3625000119 0.2749999762 3.293520826e-39
0.1000000238 -0.4875000119 0.3000000119 3.662643861e-40
-0.07499998808 -0.2624999881 -0.01249998808 5.58043992e-39
-0.08750000596 -0.4875000119 0.25 3.662643861e-40
-0.0625 -0.3249999881 0.2624999881 4.1168117e-39
-0.07499998808 -0.4375 -0.162499994 1.555462315e-39
0.25 -0.400000006 -0.162499994 2.378753189e-39
-0.07499998808 -0.3874999881 0.3000000119 2.65318348e-39
-0.07499998808 -0.3249999881 0.1000000238 4.1168117e-39
-0.07499998808 -0.412499994 0.1875 2.104322897e-39
0.1999999881 -0.4875000119 -0.05000001192 3.662643861e-40
-0.0625 -0.375 0.3249999881 3.019090535e-39
-0.0625 -0.275000006 -0.05000001192 5.306009629e-39
-0.05000001192 -0.4875000119 0.3625000119 3.662643861e-40
0.1625000238 -0.4875000119 0.02499997616 3.662643861e-40
-0.03749999404 -0.275000006 -0.162499994 5.306009629e-39
0.2875000238 -0.1875 -0.162499994 7.409975195e-39
-0.0625 -0.474999994 0.05000001192 6.406946774e-40
0.1625000238 -0.2375000119 -0.150000006 6.220777266e-39
0.1625000238 -0.412499994 -0.162499994 2.104322897e-39
-0.08750000596 -0.25 0.3000000119 5.946346975e-39
-0.0625 -0.1999999881 -0.05000001192 7.04406814e-39
0.1000000238 -0.4875000119 -0.1374999881 3.662643861e-40
0.2624999881 -0.375 -0.07499998808 3.019090535e-39
-0.05000001192 -0.2624999881 0.1625000238 5.58043992e-39
-0.03749999404 -0.4875000119 -0.162499994 3.662643861e-40
0.3000000119 -0.337500006 -0.162499994 3.842381409e-39
-0.07499998808 -0.4875000119 0.2749999762 3.662643861e-40
0.01249998808 -0.4875000119 -0.03749999404 3.662643861e-40
-0.07499998808 -0.4875000119 0.3000000119 3.662643861e-40
0.03750002384 -0.4875000119 0.2124999762 3.662643861e-40
0.3500000238 -0.3000000119 0.25 4.757149046e-39
-0.0625 -0.4375 -0.09999999404 1.555462315e-39
0.1875 -0.4875000119 0.1625000238 3.662643861e-40
0.3125 -0.375 -0.1374999881 3.019090535e-39
-0.0625 -0.3125 0.03750002384 4.482718755e-39
0.1625000238 -0.4875000119 0.3000000119 3.662643861e-40
0.1875 -0.474999994 -0.1125000119 6.406946774e-40
-0.0625 -0.2375000119 0.1999999881 6.220777266e-39
-0.0625 -0.4375 0.01249998808 1.555462315e-39
0.07499998808 -0.4875000119 0.3125 3.662643861e-40
-0.07499998808 -0.212500006 0.01249998808 6.769637849e-39
-0.4875000119 -0.1999999881 -0.162499994 7.04406814e-39
-0.07499998808 -0.3000000119 0 4.757149046e-39
-0.02500000596 -0.4875000119 0 3.662643861e-40
-0.02500000596 -0.25 -0.150000006 5.946346975e-39
0.08749997616 -0.4875000119 0.1374999881 3.662643861e-40
0.1750000119 -0.162499994 -0.162499994 7.958835777e-39
-0.0625 -0.287499994 0.2749999762 5.031579337e-39
0.05000001192 -0.4875000119 0.07499998808 3.662643861e-40
-0.07499998808 -0.1875 0.2375000119 7.409975195e-39
-0.07499998808 -0.412499994 0.3374999762 2.104322897e-39
0.1750000119 -0.150000006 -0.150000006 8.233266069e-39
0.25 -0.275000006 -0.162499994 5.306009629e-39
0.1999999881 -0.3249999881 -0.162499994 4.1168117e-39
0.1625000238 -0.4875000119 0.3249999881 3.662643861e-40
-0.07499998808 -0.287499994 -0.02500000596 5.031579337e-39
0.02499997616 -0.4875000119 0.2250000238 3.662643861e-40
0.3874999881 -0.3000000119 0.1750000119 4.757149046e-39
-0.07499998808 -0.4499999881 -0.03749999404 1.18955526e-39
-0.0625 -0.375 0.1875 3.019090535e-39
0.1750000119 -0.400000006 -0.162499994 2.378753189e-39
0.1374999881 -0.4875000119 -0.150000006 3.662643861e-40
-0.08750000596 -0.212500006 0.1999999881 6.769637849e-39
0.1750000119 -0.412499994 -0.1125000119 2.104322897e-39
0.1499999762 -0.412499994 -0.162499994 2.104322897e-39
-0.125 -0.4875000119 0.1125000119 3.662643861e-40
0.03750002384 -0.4875000119 0.3249999881 3.662643861e-40
0.125 -0.4875000119 -0.02500000596 3.662643861e-40
-0.0625 -0.1999999881 0.05000001192 7.04406814e-39
0.1999999881 -0.4875000119 -0.03749999404 3.662643861e-40
-0.125 -0.4875000119 0.3374999762 3.662643861e-40
0.1750000119 -0.4875000119 0.125 3.662643861e-40
0.2124999762 -0.400000006 -0.09999999404 2.378753189e-39
-0.02500000596 -0.1875 -0.162499994 7.409975195e-39
-0.07499998808 -0.1999999881 -0.125 7.04406814e-39
-0.1125000119 -0.4875000119 0.2375000119 3.662643861e-40
-0.07499998808 -0.4499999881 0.05000001192 1.18955526e-39
-0.03749999404 -0.224999994 0.2375000119 6.495207557e-39
-0.07499998808 -0.287499994 0 5.031579337e-39
-0.0625 -0.4875000119 -0.05000001192 3.662643861e-40
0.2624999881 -0.162499994 -0.162499994 7.958835777e-39
-0.03749999404 -0.4875000119 0.2624999881 3.662643861e-40
-0.07499998808 -0.1999999881 0.1875 7.04406814e-39
0.2250000238 -0.3874999881 -0.1125000119 2.65318348e-39
0 -0.4875000119 0.3500000238 3.662643861e-40
0.2124999762 -0.400000006 -0.150000006 2.378753189e-39
0 -0.4875000119 0.3374999762 3.662643861e-40
-0.07499998808 -0.4375 0.25 1.555462315e-39
-0.08750000596 -0.4875000119 0 3.662643861e-40
-0.07499998808 -0.400000006 0.3500000238 2.378753189e-39
0.07499998808 -0.4875000119 0.3374999762 3.662643861e-40
-0.07499998808 -0.337500006 0.2624999881 3.842381409e-39
-0.0625 -0.275000006 0.125 5.306009629e-39
-0.07499998808 -0.4875000119 0.25 3.662643861e-40
-0.07499998808 -0.4875000119 -0.0625 3.662643861e-40
-0.0625 -0.3249999881 0.08749997616 4.1168117e-39
-0.07499998808 -0.3125 0.2875000238 4.482718755e-39
-0.07499998808 -0.162499994 -0.162499994 7.958835777e-39
0.01249998808 -0.474999994 -0.150000006 6.406946774e-40
-0.0625 -0.3874999881 0.2749999762 2.65318348e-39
-0.03749999404 -0.3000000119 -0.162499994 4.757149046e-39
0.2124999762 -0.3874999881 -0.1374999881 2.65318348e-39
-0.0625 -0.275000006 0.2749999762 5.306009629e-39
-0.0625 -0.4375 0.3500000238 1.555462315e-39
0.1875 -0.4875000119 0.1000000238 3.662643861e-40
0.1750000119 -0.400000006 -0.125 2.378753189e-39
-0.05000001192 -0.4375 -0.162499994 1.555462315e-39
-0.0625 -0.4499999881 -0.07499998808 1.18955526e-39
0.2749999762 -0.224999994 -0.162499994 6.495207557e-39
-0.07499998808 -0.275000006 0.2375000119 5.306009629e-39
-0.0625 -0.275000006 0.1999999881 5.306009629e-39
-0.5 -0.162499994 -0.162499994 7.958835777e-39
0.2624999881 -0.224999994 -0.162499994 6.495207557e-39
0.0625 -0.4875000119 0.2250000238 3.662643861e-40
0 -0.4875000119 0.08749997616 3.662643861e-40
0.3999999762 -0.3000000119 0.1750000119 4.757149046e-39
-0.02500000596 -0.400000006 -0.162499994 2.378753189e-39
-0.0625 -0.400000006 0.3125 2.378753189e-39
-0.0625 -0.1875 -0.05000001192 7.409975195e-39
-0.01249998808 -0.4875000119 0.1875 3.662643861e-40
-0.07499998808 -0.2624999881 -0.09999999404 5.58043992e-39
-0.07499998808 -0.3125 0.25 4.482718755e-39
-0.0625 -0.224999994 -0.03749999404 6.495207557e-39
0.1374999881 -0.4875000119 -0.07499998808 3.662643861e-40
-0.0625 -0.4875000119 0.1499999762 3.662643861e-40
-0.0625 -0.2624999881 -0.125 5.58043992e-39
-0.0625 -0.3000000119 0.05000001192 4.757149046e-39
-0.0625 -0.349999994 -0.162499994 3.567951117e-39
-0.07499998808 -0.4250000119 0.2250000238 1.829892606e-39
0.2375000119 -0.150000006 -0.162499994 8.233266069e-39
0.0625 -0.4875000119 0.4125000238 3.662643861e-40
-0.07499998808 -0.287499994 -0.0625 5.031579337e-39
-0.07499998808 -0.337500006 0.3500000238 3.842381409e-39
-0.07499998808 -0.462500006 -0.05000001192 9.151249686e-40
-0.07499998808 -0.462500006 -0.09999999404 9.151249686e-40
0.1999999881 -0.4875000119 0.05000001192 3.662643861e-40
0.1999999881 -0.4875000119 0.01249998808 3.662643861e-40
-0.07499998808 -0.287499994 0.125 5.031579337e-39
0.2250000238 -0.3874999881 -0.09999999404 2.65318348e-39
0.125 -0.4875000119 0.3500000238 3.662643861e-40
-0.07499998808 -0.349999994 0.2250000238 3.567951117e-39
-0.07499998808 -0.412499994 0.3625000119 2.104322897e-39
0.1750000119 -0.337500006 -0.162499994 3.842381409e-39
0.2875000238 -0.25 -0.162499994 5.946346975e-39
0.02499997616 -0.4875000119 -0.0625 3.662643861e-40
0.4250000119 -0.3249999881 0.1999999881 4.1168117e-39
0.2624999881 -0.349999994 -0.162499994 3.567951117e-39
0.1125000119 -0.4875000119 0.1374999881 3.662643861e-40
-0.0625 -0.2624999881 -0.08750000596 5.58043992e-39
-0.01249998808 -0.4875000119 0.125 3.662643861e-40
-0.0625 -0.25 0.2624999881 5.946346975e-39
0.2875000238 -0.375 -0.150000006 3.019090535e-39
-0.03749999404 -0.4250000119 -0.162499994 1.829892606e-39
-0.1125000119 -0.4875000119 0.1875 3.662643861e-40
0.3249999881 -0.412499994 -0.0625 2.104322897e-39
0.1875 -0.3874999881 -0.150000006 2.65318348e-39
0.2124999762 -0.412499994 -0.150000006 2.104322897e-39
0.2375000119 -0.275000006 -0.162499994 5.306009629e-39
-0.162499994 -0.162499994 -0.162499994 7.958835777e-39
-0.07499998808 -0.4250000119 -0.05000001192 1.829892606e-39
-0.0625 -0.400000006 0.1625000238 2.378753189e-39
0.03750002384 -0.4875000119 0.2624999881 3.662643861e-40
-0.07499998808 -0.4499999881 0.3000000119 1.18955526e-39
-0.07499998808 -0.412499994 0.1000000238 2.104322897e-39
0.07499998808 -0.4875000119 0.02499997616 3.662643861e-40
-0.0625 -0.3874999881 -0.01249998808 2.65318348e-39
-0.0625 -0.1750000119 -0.125 7.684405486e-39
-0.0625 -0.4499999881 0.1750000119 1.18955526e-39
0.1625000238 -0.4875000119 -0.162499994 3.662643861e-40
-0.07499998808 -0.2375000119 0.1499999762 6.220777266e-39
-0.07499998808 -0.375 0.1625000238 3.019090535e-39
0.05000001192 -0.4875000119 0.2749999762 3.662643861e-40
-0.0625 -0.474999994 -0.150000006 6.406946774e-40
-0.03749999404 -0.2624999881 -0.150000006 5.58043992e-39
0.03750002384 -0.4875000119 0.3374999762 3.662643861e-40
-0.0625 -0.349999994 0.05000001192 3.567951117e-39
0.07499998808 -0.4875000119 0.3625000119 3.662643861e-40
0.05000001192 -0.4875000119 0.2124999762 3.662643861e-40
0 -0.4875000119 0.3874999881 3.662643861e-40
-0.0625 -0.4499999881 0.2375000119 1.18955526e-39
-0.07499998808 -0.474999994 -0.01249998808 6.406946774e-40
-0.0625 -0.375 0.03750002384 3.019090535e-39
0.2250000238 -0.3874999881 -0.125 2.65318348e-39
0.3249999881 -0.375 -0.125 3.019090535e-39
0.125 -0.4875000119 0.1625000238 3.662643861e-40
-0.0625 -0.3874999881 -0.125 2.65318348e-39
0.08749997616 -0.4875000119 -0.09999999404 3.662643861e-40
-0.125 -0.4875000119 0.2624999881 3.662643861e-40
0.2624999881 -0.25 -0.162499994 5.946346975e-39
-0.05000001192 -0.4875000119 0.1000000238 3.662643861e-40
0 -0.4875000119 0.2250000238 3.662643861e-40
-0.1374999881 -0.4875000119 0.3625000119 3.662643861e-40
-0.08750000596 -0.1750000119 0.1875 7.684405486e-39
-0.07499998808 -0.287499994 0.1625000238 5.031579337e-39
0.05000001192 -0.4875000119 -0.150000006 3.662643861e-40
-0.0625 -0.412499994 0.1000000238 2.104322897e-39
0.1750000119 -0.3249999881 -0.162499994 4.1168117e-39
0.4125000238 -0.3249999881 0.25 4.1168117e-39
-0.07499998808 -0.3125 -0.1374999881 4.482718755e-39
-0.0625 -0.412499994 0.2875000238 2.104322897e-39
0.1999999881 -0.375 -0.150000006 3.019090535e-39
-0.07499998808 -0.1875 0.07499998808 7.409975195e-39
-0.01249998808 -0.4875000119 -0.02500000596 3.662643861e-40
-0.0625 -0.3125 0.125 4.482718755e-39
0.1625000238 -0.349999994 -0.150000006 3.567951117e-39
-0.0625 -0.375 0.3374999762 3.019090535e-39
0.3000000119 -0.375 -0.1374999881 3.019090535e-39
-0.03749999404 -0.162499994 -0.162499994 7.958835777e-39
-0.01249998808 -0.4875000119 -0.1374999881 3.662643861e-40
-0.09999999404 -0.4875000119 0.25 3.662643861e-40
0.1625000238 -0.4875000119 0.125 3.662643861e-40
-0.0625 -0.3249999881 0.1374999881 4.1168117e-39
-0.07499998808 -0.1374999881 0 8.50769636e-39
-0.07499998808 -0.4250000119 0.1374999881 1.829892606e-39
-0.05000001192 -0.4875000119 0.125 3.662643861e-40
0.1125000119 -0.474999994 -0.162499994 6.406946774e-40
-0.07499998808 -0.2624999881 0.3249999881 5.58043992e-39
-0.0625 -0.3249999881 -0.01249998808 4.1168117e-39
-0.02500000596 -0.224999994 -0.150000006 6.495207557e-39
0.3249999881 -0.375 -0.08750000596 3.019090535e-39
-0.07499998808 -0.1999999881 0.3000000119 7.04406814e-39
0.07499998808 -0.4875000119 0.3249999881 3.662643861e-40
0.02499997616 -0.4875000119 0.2749999762 3.662643861e-40
-0.0625 -0.2375000119 -0.08750000596 6.220777266e-39
-0.01249998808 -0.4875000119 0.03750002384 3.662643861e-40
-0.125 -0.4875000119 0.1374999881 3.662643861e-40
-0.05000001192 -0.4875000119 0.2124999762 3.662643861e-40
-0.07499998808 -0.25 0.02499997616 5.946346975e-39
-0.08750000596 -0.4250000119 -0.162499994 1.829892606e-39
-0.1125000119 -0.4875000119 -0.162499994 3.662643861e-40
0.1999999881 -0.4875000119 0.1499999762 3.662643861e-40
-0.07499998808 -0.275000006 0.1499999762 5.306009629e-39
0.1125000119 -0.4875000119 -0.05000001192 3.662643861e-40
0.1374999881 -0.4875000119 0.0625 3.662643861e-40
-0.0625 -0.3874999881 -0.05000001192 2.65318348e-39
-0.08750000596 -0.4875000119 0.2375000119 3.662643861e-40
-0.0625 -0.287499994 0.1125000119 5.031579337e-39
-0.08750000596 -0.2624999881 0.1625000238 5.58043992e-39
0.125 -0.4875000119 0 3.662643861e-40
-0.07499998808 -0.4375 -0.09999999404 1.555462315e-39
0.05000001192 -0.4875000119 0.2375000119 3.662643861e-40
-0.03749999404 -0.4875000119 0.375 3.662643861e-40
0.03750002384 -0.4875000119 0.07499998808 3.662643861e-40
-0.05000001192 -0.4250000119 -0.162499994 1.829892606e-39
-0.03749999404 -0.1999999881 0.2375000119 7.04406814e-39
-0.07499998808 -0.4875000119 0.08749997616 3.662643861e-40
-0.0625 -0.375 0.08749997616 3.019090535e-39
0.1499999762 -0.4875000119 0.1750000119 3.662643861e-40
-0.05000001192 -0.1750000119 -0.150000006 7.684405486e-39
-0.0625 -0.3625000119 -0.1125000119 3.293520826e-39
0.0625 -0.4875000119 0.375 3.662643861e-40
0.3000000119 -0.3000000119 -0.162499994 4.757149046e-39
-0.07499998808 -0.212500006 0.3000000119 6.769637849e-39
0.1750000119 -0.4875000119 -0.162499994 3.662643861e-40
0.1374999881 -0.4875000119 -0.09999999404 3.662643861e-40
-0.07499998808 -0.3625000119 0.1000000238 3.293520826e-39
0.3000000119 -0.375 -0.05000001192 3.019090535e-39
-0.0625 -0.3125 0.1750000119 4.482718755e-39
0.1499999762 -0.4875000119 0.125 3.662643861e-40
0.1750000119 -0.3874999881 -0.162499994 2.65318348e-39
0.0625 -0.4875000119 0.3999999762 3.662643861e-40
-0.0625 -0.162499994 -0.01249998808 7.958835777e-39
-0.03749999404 -0.4875000119 -0.05000001192 3.662643861e-40
-0.0625 -0.4499999881 0.03750002384 1.18955526e-39
-0.0625 -0.375 0.2124999762 3.019090535e-39
-0.07499998808 -0.337500006 -0.03749999404 3.842381409e-39
0.1750000119 -0.400000006 -0.150000006 2.378753189e-39
-0.07499998808 -0.3874999881 -0.150000006 2.65318348e-39
-0.0625 -0.462500006 -0.02500000596 9.151249686e-40
0.3374999762 -0.412499994 -0.07499998808 2.104322897e-39
-0.05000001192 -0.25 0.1625000238 5.946346975e-39
-0.0625 -0.400000006 -0.05000001192 2.378753189e-39
-0.0625 -0.212500006 0.125 6.769637849e-39
0.02499997616 -0.4875000119 0.02499997616 3.662643861e-40
0.1625000238 -0.25 -0.150000006 5.946346975e-39
-0.07499998808 -0.4375 0.1374999881 1.555462315e-39
0.1999999881 -0.4875000119 0.2124999762 3.662643861e-40
0.05000001192 -0.4875000119 0.01249998808 3.662643861e-40
0.03750002384 -0.4875000119 0.4125000238 3.662643861e-40
0.08749997616 -0.4875000119 0.2749999762 3.662643861e-40
-0.125 -0.4875000119 0.3625000119 3.662643861e-40
0.05000001192 -0.4875000119 0.125 3.662643861e-40
0.4250000119 -0.3249999881 0.2124999762 4.1168117e-39
-0.03749999404 -0.412499994 -0.150000006 2.104322897e-39
-0.0625 -0.2624999881 0.1000000238 5.58043992e-39
-0.09999999404 -0.4875000119 0.3249999881 3.662643861e-40
-0.07499998808 -0.337500006 0.2124999762 3.842381409e-39
0.3000000119 -0.375 -0.03749999404 3.019090535e-39
-0.07499998808 -0.287499994 -0.08750000596 5.031579337e-39
-0.07499998808 -0.4250000119 0.25 1.829892606e-39
-0.07499998808 -0.287499994 0.2749999762 5.031579337e-39
-0.02500000596 -0.375 -0.162499994 3.019090535e-39
0.07499998808 -0.4875000119 0 3.662643861e-40
-0.02500000596 -0.150000006 -0.150000006 8.233266069e-39
-0.07499998808 -0.224999994 0.08749997616 6.495207557e-39
-0.0625 -0.4375 -0.05000001192 1.555462315e-39
-0.07499998808 -0.474999994 0.3249999881 6.406946774e-40
-0.0625 -0.4875000119 0.1000000238 3.662643861e-40
-0.0625 -0.3125 0.2624999881 4.482718755e-39
-0.01249998808 -0.4875000119 -0.03749999404 3.662643861e-40
-0.07499998808 -0.2375000119 0.1625000238 6.220777266e-39
0.1374999881 -0.4875000119 0.01249998808 3.662643861e-40
-0.0625 -0.3874999881 0.3500000238 2.65318348e-39
-0.0625 -0.2375000119 -0.02500000596 6.220777266e-39
0.2749999762 -0.375 -0.08750000596 3.019090535e-39
-0.07499998808 -0.474999994 0.1125000119 6.406946774e-40
-0.0625 -0.349999994 -0.09999999404 3.567951117e-39
-0.07499998808 -0.3625000119 0.07499998808 3.293520826e-39
-0.07499998808 -0.3874999881 -0.09999999404 2.65318348e-39
-0.0625 -0.3000000119 0.1875 4.757149046e-39
0.1499999762 -0.1999999881 -0.162499994 7.04406814e-39
-0.0625 -0.462500006 -0.08750000596 9.151249686e-40
0.2375000119 -0.3874999881 -0.162499994 2.65318348e-39
0.4375 -0.3125 0.25 4.482718755e-39
0.1875 -0.275000006 -0.162499994 5.306009629e-39
-0.0625 -0.337500006 0.1499999762 3.842381409e-39
-0.07499998808 -0.3625000119 0.2124999762 3.293520826e-39
-0.05000001192 -0.4875000119 0.2624999881 3.662643861e-40
-0.125 -0.4875000119 0.25 3.662643861e-40
0.4375 -0.3000000119 0.2624999881 4.757149046e-39
-0.1125000119 -0.4875000119 0.3625000119 3.662643861e-40
0.3625000119 -0.3125 0.3000000119 4.482718755e-39
-0.0625 -0.400000006 0.07499998808 2.378753189e-39
-0.07499998808 -0.4250000119 0.02499997616 1.829892606e-39
-0.02500000596 -0.4875000119 -0.09999999404 3.662643861e-40
-0.0625 -0.400000006 0.2875000238 2.378753189e-39
0.1125000119 -0.4875000119 0.08749997616 3.662643861e-40
-0.07499998808 -0.4375 -0.02500000596 1.555462315e-39
-0.07499998808 -0.349999994 0.2749999762 3.567951117e-39
-0.07499998808 -0.3874999881 -0.162499994 2.65318348e-39
-0.07499998808 -0.3874999881 -0.02500000596 2.65318348e-39
-0.08750000596 -0.162499994 -0.162499994 7.958835777e-39
0.1875 -0.4875000119 0.1875 3.662643861e-40
-0.0625 -0.3000000119 -0.05000001192 4.757149046e-39
-0.0625 -0.412499994 0.125 2.104322897e-39
0.1125000119 -0.4875000119 0.1750000119 3.662643861e-40
-0.07499998808 -0.4875000119 0.03750002384 3.662643861e-40
0.3125 -0.349999994 -0.162499994 3.567951117e-39
-0.07499998808 -0.3000000119 0.1499999762 4.757149046e-39
0.2250000238 -0.412499994 -0.125 2.104322897e-39
-0.0625 -0.2375000119 0.3125 6.220777266e-39
-0.0625 -0.212500006 0.1999999881 6.769637849e-39
0.08749997616 -0.4875000119 0.08749997616 3.662643861e-40
-0.0625 -0.3000000119 -0.1125000119 4.757149046e-39
-0.0625 -0.4375 0.02499997616 1.555462315e-39
0.01249998808 -0.4875000119 -0.05000001192 3.662643861e-40
-0.07499998808 -0.4875000119 -0.1374999881 3.662643861e-40
-0.0625 -0.4375 0.2624999881 1.555462315e-39
0.1750000119 -0.4875000119 -0.150000006 3.662643861e-40
-0.0625 -0.224999994 -0.07499998808 6.495207557e-39
0.1875 -0.4875000119 0.1499999762 3.662643861e-40
0.1625000238 -0.4875000119 0.2749999762 3.662643861e-40
0.2749999762 -0.337500006 -0.162499994 3.842381409e-39
0.1374999881 -0.4875000119 -0.02500000596 3.662643861e-40
-0.07499998808 -0.4875000119 -0.02500000596 3.662643861e-40
-0.07499998808 -0.4499999881 -0.05000001192 1.18955526e-39
-0.02500000596 -0.4875000119 -0.162499994 3.662643861e-40
-0.0625 -0.212500006 -0.0625 6.769637849e-39
-0.07499998808 -0.162499994 0.01249998808 7.958835777e-39
-0.09999999404 -0.4875000119 -0.0625 3.662643861e-40
-0.07499998808 -0.150000006 0.08749997616 8.233266069e-39
-0.07499998808 -0.4499999881 0.1750000119 1.18955526e-39
0.125 -0.4875000119 -0.0625 3.662643861e-40
-0.07499998808 -0.4499999881 0.08749997616 1.18955526e-39
-0.07499998808 -0.224999994 -0.162499994 6.495207557e-39
