# .PCD v0.7 - Point Cloud Data file format
VERSION 0.7
FIELDS x y z rgb
SIZE 4 4 4 4
TYPE F F F F
COUNT 1 1 1 1
WIDTH 897
HEIGHT 1
VIEWPOINT 0 0 0 1 0 0 0
POINTS 897
DATA ascii
0.1625000238 -0.4875000119 0.3000000119 9.183409486e-41
0.07499998808 -0.474999994 0.3249999881 3.662643861e-40
0 -0.3000000119 0.2875000238 4.482718755e-39
-0.02500000596 -0.349999994 0.3249999881 3.293520826e-39
0.1374999881 -0.400000006 0.3249999881 2.104322897e-39
-0.07499998808 -0.4250000119 0.3874999881 1.555462315e-39
0.3125 -0.3125 0.1374999881 4.1168117e-39
0.03750002384 -0.3125 0.3249999881 4.1168117e-39
-0.08750000596 -0.3874999881 0.4875000119 2.378753189e-39
0.1625000238 -0.3125 0.2749999762 4.1168117e-39
0.07499998808 -0.349999994 0.3249999881 3.293520826e-39
-0.0625 -0.400000006 0.3249999881 2.104322897e-39
0.1499999762 -0.4875000119 0.3125 9.183409486e-41
0.08749997616 -0.3000000119 0.3125 4.482718755e-39
0.3125 -0.4375 0.1750000119 1.18955526e-39
0.125 -0.3000000119 0.2375000119 4.482718755e-39
-0.162499994 -0.3874999881 0.2749999762 2.378753189e-39
0.1374999881 -0.3000000119 0.2875000238 4.482718755e-39
0.1125000119 -0.3874999881 0.3249999881 2.378753189e-39
0.125 -0.3000000119 0.3249999881 4.482718755e-39
-0.03749999404 -0.3249999881 0.3249999881 3.842381409e-39
0 -0.349999994 0.3249999881 3.293520826e-39
-0.07499998808 -0.3874999881 0.4750000238 2.378753189e-39
-0.150000006 -0.349999994 0.3249999881 3.293520826e-39
0.3374999762 -0.400000006 0.1374999881 2.104322897e-39
0.0625 -0.474999994 0.2749999762 3.662643861e-40
-0.02500000596 -0.375 0.4875000119 2.65318348e-39
0.1625000238 -0.3874999881 0.2875000238 2.378753189e-39
0.08749997616 -0.3000000119 0.2875000238 4.482718755e-39
0.1625000238 -0.4250000119 0.3125 1.555462315e-39
0.1000000238 -0.3000000119 0.3000000119 4.482718755e-39
0.1125000119 -0.474999994 0.2749999762 3.662643861e-40
0.3125 -0.4250000119 0.1750000119 1.555462315e-39
-0.1374999881 -0.337500006 0.3249999881 3.567951117e-39
0.2875000238 -0.3000000119 0.1499999762 4.482718755e-39
-0.09999999404 -0.3000000119 0.2375000119 4.482718755e-39
0.1625000238 -0.3249999881 0.3125 3.842381409e-39
-0.162499994 -0.337500006 0.3125 3.567951117e-39
-0.07499998808 -0.4499999881 0.4375 9.151249686e-40
0.03750002384 -0.3625000119 0.3249999881 3.019090535e-39
-0.1374999881 -0.3000000119 0.2875000238 4.482718755e-39
0.1125000119 -0.4375 0.3249999881 1.18955526e-39
-0.08750000596 -0.3125 0.3249999881 4.1168117e-39
-0.0625 -0.3000000119 0.2749999762 4.482718755e-39
0.3249999881 -0.400000006 0.1499999762 2.104322897e-39
0.01249998808 -0.3000000119 0.3249999881 4.482718755e-39
0.02499997616 -0.3000000119 0.25 4.482718755e-39
0.02499997616 -0.474999994 0.3125 3.662643861e-40
0.1000000238 -0.3000000119 0.2875000238 4.482718755e-39
0 -0.3874999881 0.4875000119 2.378753189e-39
-0.02500000596 -0.3000000119 0.25 4.482718755e-39
0.07499998808 -0.3000000119 0.2624999881 4.482718755e-39
0.1125000119 -0.3000000119 0.2624999881 4.482718755e-39
0.0625 -0.3000000119 0.2375000119 4.482718755e-39
0.125 -0.3874999881 0.3249999881 2.378753189e-39
0.1625000238 -0.3625000119 0.2875000238 3.019090535e-39
0.01249998808 -0.474999994 0.3249999881 3.662643861e-40
0.25 -0.3125 0.1750000119 4.1168117e-39
0.1625000238 -0.4250000119 0.2749999762 1.555462315e-39
-0.02500000596 -0.4250000119 0.3249999881 1.555462315e-39
0.0625 -0.3000000119 0.2749999762 4.482718755e-39
-0.162499994 -0.3125 0.3249999881 4.1168117e-39
-0.03749999404 -0.4375 0.3249999881 1.18955526e-39
-0.01249998808 -0.412499994 0.3249999881 1.829892606e-39
-0.07499998808 -0.400000006 0.4250000119 2.104322897e-39
0.1499999762 -0.3000000119 0.2749999762 4.482718755e-39
-0.09999999404 -0.4250000119 0.3874999881 1.555462315e-39
-0.01249998808 -0.375 0.4750000238 2.65318348e-39
-0.08750000596 -0.3000000119 0.2749999762 4.482718755e-39
0.3249999881 -0.462500006 0.1750000119 6.406946774e-40
-0.07499998808 -0.4250000119 0.3249999881 1.555462315e-39
-0.09999999404 -0.3249999881 0.4499999881 3.842381409e-39
-0.0625 -0.400000006 0.3874999881 2.104322897e-39
-0.0625 -0.400000006 0.4375 2.104322897e-39
0 -0.462500006 0.3249999881 6.406946774e-40
0.1000000238 -0.474999994 0.2875000238 3.662643861e-40
-0.162499994 -0.3625000119 0.2749999762 3.019090535e-39
0.1125000119 -0.3000000119 0.25 4.482718755e-39
-0.07499998808 -0.412499994 0.375 1.829892606e-39
0.08749997616 -0.474999994 0.3249999881 3.662643861e-40
0.1625000238 -0.3125 0.2624999881 4.1168117e-39
-0.0625 -0.3874999881 0.4499999881 2.378753189e-39
0.1625000238 -0.400000006 0.3125 2.104322897e-39
-0.05000001192 -0.3000000119 0.3249999881 4.482718755e-39
-0.08750000596 -0.349999994 0.3374999762 3.293520826e-39
-0.08750000596 -0.3874999881 0.3874999881 2.378753189e-39
-0.01249998808 -0.4250000119 0.3249999881 1.555462315e-39
0.1625000238 -0.462500006 0.3000000119 6.406946774e-40
-0.125 -0.400000006 0.4499999881 2.104322897e-39
-0.0625 -0.3000000119 0.3125 4.482718755e-39
-0.09999999404 -0.3625000119 0.4875000119 3.019090535e-39
-0.162499994 -0.3874999881 0.3000000119 2.378753189e-39
-0.162499994 -0.412499994 0.3249999881 1.829892606e-39
0.1125000119 -0.3000000119 0.2375000119 4.482718755e-39
0.1000000238 -0.474999994 0.3000000119 3.662643861e-40
0.08749997616 -0.474999994 0.3125 3.662643861e-40
0.125 -0.400000006 0.3249999881 2.104322897e-39
-0.162499994 -0.375 0.3000000119 2.65318348e-39
0.1000000238 -0.3874999881 0.3249999881 2.378753189e-39
0.1625000238 -0.349999994 0.3000000119 3.293520826e-39
0.1125000119 -0.375 0.3249999881 2.65318348e-39
0.1625000238 -0.400000006 0.3249999881 2.104322897e-39
0 -0.3125 0.3249999881 4.1168117e-39
-0.125 -0.3000000119 0.3249999881 4.482718755e-39
-0.09999999404 -0.412499994 0.3874999881 1.829892606e-39
-0.05000001192 -0.3125 0.3249999881 4.1168117e-39
0.08749997616 -0.3125 0.3249999881 4.1168117e-39
-0.08750000596 -0.3000000119 0.3249999881 4.482718755e-39
-0.05000001192 -0.3000000119 0.2624999881 4.482718755e-39
0.05000001192 -0.474999994 0.3125 3.662643861e-40
0.01249998808 -0.3000000119 0.25 4.482718755e-39
0.3249999881 -0.474999994 0.1750000119 3.662643861e-40
0.07499998808 -0.3000000119 0.3249999881 4.482718755e-39
-0.09999999404 -0.3625000119 0.4750000238 3.019090535e-39
-0.162499994 -0.349999994 0.2875000238 3.293520826e-39
0.1625000238 -0.3000000119 0.2875000238 4.482718755e-39
-0.08750000596 -0.400000006 0.4375 2.104322897e-39
0.125 -0.474999994 0.3125 3.662643861e-40
0.3125 -0.3000000119 0.1374999881 4.482718755e-39
-0.162499994 -0.3000000119 0.3125 4.482718755e-39
-0.07499998808 -0.400000006 0.4375 2.104322897e-39
0.05000001192 -0.474999994 0.3249999881 3.662643861e-40
-0.09999999404 -0.4375 0.375 1.18955526e-39
0.01249998808 -0.4499999881 0.3249999881 9.151249686e-40
-0.0625 -0.3874999881 0.4875000119 2.378753189e-39
-0.03749999404 -0.462500006 0.3249999881 6.406946774e-40
0.2624999881 -0.3000000119 0.1499999762 4.482718755e-39
0.1625000238 -0.412499994 0.2624999881 1.829892606e-39
-0.0625 -0.4375 0.375 1.18955526e-39
0.3125 -0.474999994 0.1625000238 3.662643861e-40
-0.0625 -0.4250000119 0.3874999881 1.555462315e-39
0.07499998808 -0.3000000119 0.3000000119 4.482718755e-39
-0.09999999404 -0.3000000119 0.4875000119 4.482718755e-39
-0.09999999404 -0.337500006 0.4250000119 3.567951117e-39
-0.0625 -0.400000006 0.4750000238 2.104322897e-39
-0.162499994 -0.3125 0.3125 4.1168117e-39
0.03750002384 -0.474999994 0.2875000238 3.662643861e-40
-0.0625 -0.375 0.3249999881 2.65318348e-39
0.1000000238 -0.3000000119 0.2624999881 4.482718755e-39
0.1625000238 -0.3874999881 0.3249999881 2.378753189e-39
0.01249998808 -0.4250000119 0.3249999881 1.555462315e-39
-0.09999999404 -0.3249999881 0.4624999762 3.842381409e-39
0.2749999762 -0.3000000119 0.1499999762 4.482718755e-39
0.08749997616 -0.3000000119 0.2749999762 4.482718755e-39
-0.01249998808 -0.474999994 0.3000000119 3.662643861e-40
0.1625000238 -0.337500006 0.3125 3.567951117e-39
0.05000001192 -0.375 0.3249999881 2.65318348e-39
0.01249998808 -0.3000000119 0.2875000238 4.482718755e-39
-0.03749999404 -0.375 0.3249999881 2.65318348e-39
0.08749997616 -0.4499999881 0.3249999881 9.151249686e-40
-0.03749999404 -0.3000000119 0.2250000238 4.482718755e-39
0.03750002384 -0.462500006 0.3249999881 6.406946774e-40
0.1625000238 -0.3625000119 0.2624999881 3.019090535e-39
-0.07499998808 -0.400000006 0.4624999762 2.104322897e-39
-0.01249998808 -0.3874999881 0.4499999881 2.378753189e-39
-0.162499994 -0.3625000119 0.3000000119 3.019090535e-39
-0.1374999881 -0.349999994 0.3249999881 3.293520826e-39
0.3249999881 -0.4499999881 0.1750000119 9.151249686e-40
0.1625000238 -0.462500006 0.3249999881 6.406946774e-40
-0.09999999404 -0.400000006 0.4375 2.104322897e-39
-0.09999999404 -0.3874999881 0.4750000238 2.378753189e-39
-0.09999999404 -0.400000006 0.4624999762 2.104322897e-39
-0.02500000596 -0.474999994 0.2875000238 3.662643861e-40
0.05000001192 -0.3000000119 0.3249999881 4.482718755e-39
-0.07499998808 -0.3000000119 0.3125 4.482718755e-39
-0.03749999404 -0.474999994 0.2875000238 3.662643861e-40
0.25 -0.3125 0.1499999762 4.1168117e-39
-0.150000006 -0.3125 0.3249999881 4.1168117e-39
0.1000000238 -0.4375 0.3249999881 1.18955526e-39
-0.162499994 -0.375 0.3125 2.65318348e-39
0.08749997616 -0.4375 0.3249999881 1.18955526e-39
0.05000001192 -0.474999994 0.3000000119 3.662643861e-40
0.01249998808 -0.3125 0.3249999881 4.1168117e-39
-0.125 -0.3000000119 0.2624999881 4.482718755e-39
-0.02500000596 -0.412499994 0.3249999881 1.829892606e-39
-0.162499994 -0.4375 0.3249999881 1.18955526e-39
-0.162499994 -0.3874999881 0.2624999881 2.378753189e-39
-0.125 -0.3000000119 0.2375000119 4.482718755e-39
-0.09999999404 -0.400000006 0.4750000238 2.104322897e-39
0.1000000238 -0.4250000119 0.3249999881 1.555462315e-39
0.02499997616 -0.3000000119 0.2749999762 4.482718755e-39
0.3125 -0.462500006 0.1750000119 6.406946774e-40
0.1000000238 -0.375 0.3249999881 2.65318348e-39
0.1499999762 -0.349999994 0.3249999881 3.293520826e-39
-0.0625 -0.400000006 0.4125000238 2.104322897e-39
0.0625 -0.3000000119 0.2624999881 4.482718755e-39
-0.09999999404 -0.400000006 0.4125000238 2.104322897e-39
-0.01249998808 -0.3000000119 0.2749999762 4.482718755e-39
0.1374999881 -0.3000000119 0.2375000119 4.482718755e-39
0.0625 -0.375 0.3249999881 2.65318348e-39
-0.09999999404 -0.3874999881 0.4250000119 2.378753189e-39
0.03750002384 -0.3000000119 0.2624999881 4.482718755e-39
-0.0625 -0.3874999881 0.4750000238 2.378753189e-39
0.01249998808 -0.3000000119 0.2749999762 4.482718755e-39
0.02499997616 -0.349999994 0.3249999881 3.293520826e-39
0.1625000238 -0.3625000119 0.3249999881 3.019090535e-39
-0.0625 -0.3874999881 0.4375 2.378753189e-39
0.08749997616 -0.3000000119 0.3000000119 4.482718755e-39
-0.162499994 -0.3125 0.2749999762 4.1168117e-39
-0.162499994 -0.3000000119 0.2875000238 4.482718755e-39
0.02499997616 -0.3000000119 0.2375000119 4.482718755e-39
0.02499997616 -0.3000000119 0.2624999881 4.482718755e-39
-0.0625 -0.3249999881 0.3249999881 3.842381409e-39
-0.08750000596 -0.3000000119 0.2250000238 4.482718755e-39
0.07499998808 -0.3249999881 0.3249999881 3.842381409e-39
0.02499997616 -0.3874999881 0.3249999881 2.378753189e-39
0.1625000238 -0.4875000119 0.3125 9.183409486e-41
0.1499999762 -0.4875000119 0.4125000238 9.183409486e-41
0.1625000238 -0.474999994 0.2749999762 3.662643861e-40
-0.03749999404 -0.3000000119 0.3125 4.482718755e-39
0.0625 -0.3000000119 0.3000000119 4.482718755e-39
0.1125000119 -0.474999994 0.3000000119 3.662643861e-40
-0.03749999404 -0.3000000119 0.2624999881 4.482718755e-39
0.1625000238 -0.3625000119 0.3000000119 3.019090535e-39
0.01249998808 -0.474999994 0.2749999762 3.662643861e-40
-0.0625 -0.349999994 0.3249999881 3.293520826e-39
0.25 -0.3000000119 0.1625000238 4.482718755e-39
-0.09999999404 -0.3000000119 0.4624999762 4.482718755e-39
0.07499998808 -0.3125 0.3249999881 4.1168117e-39
-0.03749999404 -0.400000006 0.4624999762 2.104322897e-39
0.1499999762 -0.462500006 0.4125000238 6.406946774e-40
0.1625000238 -0.349999994 0.2624999881 3.293520826e-39
-0.1374999881 -0.400000006 0.4125000238 2.104322897e-39
0.125 -0.3000000119 0.2875000238 4.482718755e-39
0.1625000238 -0.4375 0.3000000119 1.18955526e-39
0.1000000238 -0.3000000119 0.3249999881 4.482718755e-39
0.1000000238 -0.474999994 0.3125 3.662643861e-40
0.1625000238 -0.4499999881 0.3125 9.151249686e-40
0.02499997616 -0.4375 0.3249999881 1.18955526e-39
-0.0625 -0.3125 0.3249999881 4.1168117e-39
-0.09999999404 -0.3874999881 0.4624999762 2.378753189e-39
0.02499997616 -0.3000000119 0.3125 4.482718755e-39
0.1499999762 -0.462500006 0.3249999881 6.406946774e-40
-0.09999999404 -0.3249999881 0.4375 3.842381409e-39
0.3374999762 -0.474999994 0.1374999881 3.662643861e-40
-0.08750000596 -0.3874999881 0.4624999762 2.378753189e-39
0.0625 -0.474999994 0.3249999881 3.662643861e-40
-0.162499994 -0.3125 0.2875000238 4.1168117e-39
-0.09999999404 -0.3125 0.4750000238 4.1168117e-39
0.05000001192 -0.3000000119 0.3125 4.482718755e-39
0.3000000119 -0.412499994 0.1750000119 1.829892606e-39
0.1625000238 -0.4875000119 0.3249999881 9.183409486e-41
0.1000000238 -0.349999994 0.3374999762 3.293520826e-39
0.125 -0.3000000119 0.2624999881 4.482718755e-39
-0.03749999404 -0.3000000119 0.2749999762 4.482718755e-39
0.03750002384 -0.412499994 0.3249999881 1.829892606e-39
0.3000000119 -0.3625000119 0.1750000119 3.019090535e-39
0.1125000119 -0.349999994 0.3374999762 3.293520826e-39
-0.05000001192 -0.375 0.3249999881 2.65318348e-39
0.3374999762 -0.462500006 0.1625000238 6.406946774e-40
-0.08750000596 -0.400000006 0.4250000119 2.104322897e-39
0.08749997616 -0.3000000119 0.25 4.482718755e-39
0.1125000119 -0.4250000119 0.3249999881 1.555462315e-39
0.1625000238 -0.337500006 0.2624999881 3.567951117e-39
0.1499999762 -0.3625000119 0.3249999881 3.019090535e-39
-0.162499994 -0.3249999881 0.2749999762 3.842381409e-39
-0.125 -0.400000006 0.4624999762 2.104322897e-39
0.1625000238 -0.3125 0.3000000119 4.1168117e-39
-0.150000006 -0.3000000119 0.2250000238 4.482718755e-39
-0.162499994 -0.349999994 0.3249999881 3.293520826e-39
-0.07499998808 -0.3874999881 0.4375 2.378753189e-39
0.1374999881 -0.3000000119 0.3249999881 4.482718755e-39
-0.162499994 -0.3000000119 0.2624999881 4.482718755e-39
0.05000001192 -0.349999994 0.3249999881 3.293520826e-39
0.1000000238 -0.3125 0.3249999881 4.1168117e-39
0.0625 -0.3000000119 0.2875000238 4.482718755e-39
0.3374999762 -0.4250000119 0.1499999762 1.555462315e-39
-0.05000001192 -0.3249999881 0.3249999881 3.842381409e-39
-0.05000001192 -0.3874999881 0.3249999881 2.378753189e-39
0.25 -0.3000000119 0.1499999762 4.482718755e-39
-0.01249998808 -0.400000006 0.4875000119 2.104322897e-39
-0.09999999404 -0.4250000119 0.3374999762 1.555462315e-39
-0.162499994 -0.4250000119 0.3125 1.555462315e-39
0.02499997616 -0.375 0.3249999881 2.65318348e-39
-0.08750000596 -0.3874999881 0.4250000119 2.378753189e-39
-0.09999999404 -0.3125 0.4499999881 4.1168117e-39
0.2749999762 -0.3000000119 0.1625000238 4.482718755e-39
0.0625 -0.3625000119 0.3249999881 3.019090535e-39
0.0625 -0.474999994 0.2875000238 3.662643861e-40
0.02499997616 -0.3000000119 0.3249999881 4.482718755e-39
-0.08750000596 -0.4375 0.375 1.18955526e-39
-0.05000001192 -0.400000006 0.3249999881 2.104322897e-39
0.05000001192 -0.412499994 0.3249999881 1.829892606e-39
-0.1374999881 -0.3000000119 0.3249999881 4.482718755e-39
-0.09999999404 -0.337500006 0.3374999762 3.567951117e-39
-0.01249998808 -0.400000006 0.4750000238 2.104322897e-39
0.1625000238 -0.4499999881 0.2875000238 9.151249686e-40
-0.03749999404 -0.3874999881 0.4624999762 2.378753189e-39
-0.09999999404 -0.400000006 0.4499999881 2.104322897e-39
0.07499998808 -0.3000000119 0.3125 4.482718755e-39
0.1125000119 -0.3000000119 0.125 4.482718755e-39
0.05000001192 -0.337500006 0.3249999881 3.567951117e-39
0.08749997616 -0.474999994 0.3000000119 3.662643861e-40
0.3000000119 -0.4499999881 0.1750000119 9.151249686e-40
-0.08750000596 -0.3000000119 0.25 4.482718755e-39
-0.125 -0.3000000119 0.2875000238 4.482718755e-39
0.02499997616 -0.3000000119 0.3000000119 4.482718755e-39
-0.03749999404 -0.474999994 0.3125 3.662643861e-40
-0.02500000596 -0.3000000119 0.3125 4.482718755e-39
0.1499999762 -0.3125 0.3249999881 4.1168117e-39
-0.162499994 -0.375 0.2749999762 2.65318348e-39
-0.1125000119 -0.400000006 0.4624999762 2.104322897e-39
0.1625000238 -0.3249999881 0.3249999881 3.842381409e-39
-0.162499994 -0.3000000119 0.3249999881 4.482718755e-39
0.1625000238 -0.3000000119 0.125 4.482718755e-39
0.02499997616 -0.474999994 0.3249999881 3.662643861e-40
-0.08750000596 -0.412499994 0.3874999881 1.829892606e-39
0.01249998808 -0.3000000119 0.2624999881 4.482718755e-39
-0.1125000119 -0.3000000119 0.2375000119 4.482718755e-39
0.3374999762 -0.4375 0.1499999762 1.18955526e-39
-0.08750000596 -0.3000000119 0.2375000119 4.482718755e-39
0.02499997616 -0.462500006 0.3249999881 6.406946774e-40
0.05000001192 -0.3874999881 0.3249999881 2.378753189e-39
-0.125 -0.3000000119 0.2250000238 4.482718755e-39
-0.08750000596 -0.3000000119 0.2624999881 4.482718755e-39
-0.03749999404 -0.3000000119 0.25 4.482718755e-39
-0.1125000119 -0.3000000119 0.3125 4.482718755e-39
0.07499998808 -0.4499999881 0.3249999881 9.151249686e-40
-0.1125000119 -0.400000006 0.4875000119 2.104322897e-39
0.1625000238 -0.375 0.3125 2.65318348e-39
-0.01249998808 -0.3625000119 0.3249999881 3.019090535e-39
0.08749997616 -0.4250000119 0.3249999881 1.555462315e-39
0.07499998808 -0.3000000119 0.125 4.482718755e-39
-0.0625 -0.3000000119 0.2375000119 4.482718755e-39
0.1125000119 -0.3125 0.3249999881 4.1168117e-39
0.1625000238 -0.3874999881 0.3000000119 2.378753189e-39
0.1625000238 -0.400000006 0.3000000119 2.104322897e-39
-0.0625 -0.4375 0.3874999881 1.18955526e-39
-0.09999999404 -0.3625000119 0.4375 3.019090535e-39
-0.05000001192 -0.412499994 0.3249999881 1.829892606e-39
-0.1125000119 -0.3000000119 0.2250000238 4.482718755e-39
-0.09999999404 -0.3125 0.3249999881 4.1168117e-39
0.03750002384 -0.3000000119 0.2875000238 4.482718755e-39
-0.07499998808 -0.3000000119 0.25 4.482718755e-39
-0.0625 -0.337500006 0.3249999881 3.567951117e-39
-0.01249998808 -0.3000000119 0.2250000238 4.482718755e-39
0.07499998808 -0.462500006 0.3249999881 6.406946774e-40
0.1499999762 -0.4375 0.3249999881 1.18955526e-39
0.1625000238 -0.337500006 0.3000000119 3.567951117e-39
-0.1374999881 -0.3874999881 0.4750000238 2.378753189e-39
0.03750002384 -0.474999994 0.3249999881 3.662643861e-40
-0.125 -0.3874999881 0.4624999762 2.378753189e-39
0.02499997616 -0.3000000119 0.2875000238 4.482718755e-39
0.1374999881 -0.3000000119 0.25 4.482718755e-39
0.1625000238 -0.400000006 0.2624999881 2.104322897e-39
0.03750002384 -0.3249999881 0.3249999881 3.842381409e-39
-0.09999999404 -0.337500006 0.4375 3.567951117e-39
0.1499999762 -0.3000000119 0.2875000238 4.482718755e-39
0.01249998808 -0.3249999881 0.3249999881 3.842381409e-39
0.1374999881 -0.462500006 0.3249999881 6.406946774e-40
-0.02500000596 -0.3874999881 0.4750000238 2.378753189e-39
-0.07499998808 -0.400000006 0.375 2.104322897e-39
-0.09999999404 -0.3874999881 0.4125000238 2.378753189e-39
-0.08750000596 -0.337500006 0.3249999881 3.567951117e-39
0.1125000119 -0.3000000119 0.3249999881 4.482718755e-39
0.1125000119 -0.462500006 0.3249999881 6.406946774e-40
0.0625 -0.349999994 0.3249999881 3.293520826e-39
0.1625000238 -0.4875000119 0.2875000238 9.183409486e-41
-0.03749999404 -0.3000000119 0.3249999881 4.482718755e-39
-0.0625 -0.3000000119 0.2624999881 4.482718755e-39
0.07499998808 -0.375 0.3249999881 2.65318348e-39
0.1625000238 -0.337500006 0.3249999881 3.567951117e-39
-0.09999999404 -0.337500006 0.4750000238 3.567951117e-39
-0.162499994 -0.3625000119 0.3125 3.019090535e-39
0.1625000238 -0.474999994 0.3000000119 3.662643861e-40
0.3249999881 -0.375 0.1374999881 2.65318348e-39
-0.02500000596 -0.462500006 0.3249999881 6.406946774e-40
-0.03749999404 -0.4250000119 0.3249999881 1.555462315e-39
-0.162499994 -0.400000006 0.3249999881 2.104322897e-39
0.05000001192 -0.474999994 0.2749999762 3.662643861e-40
-0.07499998808 -0.3874999881 0.3999999762 2.378753189e-39
-0.0625 -0.4499999881 0.4375 9.151249686e-40
0.3374999762 -0.4250000119 0.1374999881 1.555462315e-39
0.01249998808 -0.474999994 0.2875000238 3.662643861e-40
0.1374999881 -0.3000000119 0.3000000119 4.482718755e-39
0 -0.474999994 0.3249999881 3.662643861e-40
-0.07499998808 -0.412499994 0.3874999881 1.829892606e-39
-0.02500000596 -0.3874999881 0.4624999762 2.378753189e-39
0.1625000238 -0.3000000119 0.3249999881 4.482718755e-39
0.03750002384 -0.3000000119 0.2749999762 4.482718755e-39
-0.09999999404 -0.337500006 0.4875000119 3.567951117e-39
-0.162499994 -0.349999994 0.3000000119 3.293520826e-39
0.1625000238 -0.400000006 0.2749999762 2.104322897e-39
0.1374999881 -0.474999994 0.3000000119 3.662643861e-40
-0.162499994 -0.3249999881 0.3000000119 3.842381409e-39
-0.07499998808 -0.400000006 0.4499999881 2.104322897e-39
0.125 -0.4250000119 0.3249999881 1.555462315e-39
-0.01249998808 -0.474999994 0.3249999881 3.662643861e-40
-0.150000006 -0.3000000119 0.2875000238 4.482718755e-39
0.1125000119 -0.3249999881 0.3249999881 3.842381409e-39
0.3000000119 -0.4375 0.1750000119 1.18955526e-39
0 -0.400000006 0.4624999762 2.104322897e-39
-0.09999999404 -0.3249999881 0.4250000119 3.842381409e-39
-0.02500000596 -0.3874999881 0.3249999881 2.378753189e-39
0.3249999881 -0.474999994 0.1625000238 3.662643861e-40
0.3125 -0.375 0.1625000238 2.65318348e-39
0.07499998808 -0.3000000119 0.2875000238 4.482718755e-39
-0.05000001192 -0.4250000119 0.3249999881 1.555462315e-39
-0.1374999881 -0.400000006 0.4375 2.104322897e-39
-0.1374999881 -0.400000006 0.4750000238 2.104322897e-39
-0.03749999404 -0.400000006 0.3249999881 2.104322897e-39
-0.07499998808 -0.412499994 0.3249999881 1.829892606e-39
0.1374999881 -0.4375 0.3249999881 1.18955526e-39
0.2624999881 -0.3000000119 0.1625000238 4.482718755e-39
0.02499997616 -0.412499994 0.3249999881 1.829892606e-39
0 -0.3000000119 0.3000000119 4.482718755e-39
-0.0625 -0.3000000119 0.3249999881 4.482718755e-39
-0.02500000596 -0.3000000119 0.2624999881 4.482718755e-39
0 -0.474999994 0.3000000119 3.662643861e-40
-0.02500000596 -0.3000000119 0.2749999762 4.482718755e-39
0.03750002384 -0.349999994 0.3249999881 3.293520826e-39
-0.07499998808 -0.3625000119 0.3249999881 3.019090535e-39
0.1374999881 -0.3625000119 0.3249999881 3.019090535e-39
-0.09999999404 -0.337500006 0.4499999881 3.567951117e-39
0.1625000238 -0.375 0.2749999762 2.65318348e-39
0.3374999762 -0.3874999881 0.1374999881 2.378753189e-39
0.3125 -0.4499999881 0.1750000119 9.151249686e-40
-0.09999999404 -0.3000000119 0.4499999881 4.482718755e-39
-0.08750000596 -0.400000006 0.375 2.104322897e-39
0.3125 -0.3625000119 0.1499999762 3.019090535e-39
0.3000000119 -0.474999994 0.1625000238 3.662643861e-40
0.2624999881 -0.3125 0.1750000119 4.1168117e-39
0.01249998808 -0.3000000119 0.2250000238 4.482718755e-39
0.1750000119 -0.3000000119 0.125 4.482718755e-39
-0.162499994 -0.375 0.2875000238 2.65318348e-39
-0.09999999404 -0.375 0.4875000119 2.65318348e-39
-0.0625 -0.3874999881 0.4250000119 2.378753189e-39
0.1625000238 -0.462500006 0.2749999762 6.406946774e-40
0.3000000119 -0.3249999881 0.1625000238 3.842381409e-39
-0.1374999881 -0.3000000119 0.2749999762 4.482718755e-39
0.1374999881 -0.3000000119 0.2624999881 4.482718755e-39
-0.1374999881 -0.3000000119 0.2250000238 4.482718755e-39
0 -0.4499999881 0.3249999881 9.151249686e-40
-0.0625 -0.3000000119 0.2875000238 4.482718755e-39
-0.162499994 -0.3249999881 0.2624999881 3.842381409e-39
0.1625000238 -0.3249999881 0.2624999881 3.842381409e-39
0 -0.3000000119 0.2375000119 4.482718755e-39
0.03750002384 -0.3000000119 0.2250000238 4.482718755e-39
0.3000000119 -0.3125 0.1625000238 4.1168117e-39
0.2875000238 -0.3000000119 0.1750000119 4.482718755e-39
-0.03749999404 -0.3874999881 0.4875000119 2.378753189e-39
0.07499998808 -0.3000000119 0.2250000238 4.482718755e-39
0.07499998808 -0.400000006 0.3249999881 2.104322897e-39
-0.09999999404 -0.400000006 0.4250000119 2.104322897e-39
-0.09999999404 -0.400000006 0.4875000119 2.104322897e-39
0 -0.400000006 0.4750000238 2.104322897e-39
-0.0625 -0.412499994 0.3249999881 1.829892606e-39
0.125 -0.4375 0.3249999881 1.18955526e-39
-0.01249998808 -0.3125 0.3249999881 4.1168117e-39
0.05000001192 -0.3000000119 0.2749999762 4.482718755e-39
0.3500000238 -0.462500006 0.1374999881 6.406946774e-40
0.1374999881 -0.474999994 0.3125 3.662643861e-40
0.0625 -0.3874999881 0.3249999881 2.378753189e-39
-0.01249998808 -0.3000000119 0.2624999881 4.482718755e-39
-0.162499994 -0.3125 0.2624999881 4.1168117e-39
-0.150000006 -0.3000000119 0.3000000119 4.482718755e-39
-0.0625 -0.400000006 0.3999999762 2.104322897e-39
0.0625 -0.400000006 0.3249999881 2.104322897e-39
-0.02500000596 -0.474999994 0.3000000119 3.662643861e-40
0.02499997616 -0.4250000119 0.3249999881 1.555462315e-39
0.25 -0.3125 0.1625000238 4.1168117e-39
-0.09999999404 -0.4375 0.3874999881 1.18955526e-39
0.1374999881 -0.337500006 0.3249999881 3.567951117e-39
-0.08750000596 -0.400000006 0.4499999881 2.104322897e-39
0.0625 -0.4499999881 0.3249999881 9.151249686e-40
0 -0.474999994 0.2875000238 3.662643861e-40
0.05000001192 -0.3000000119 0.2375000119 4.482718755e-39
-0.02500000596 -0.3000000119 0.3249999881 4.482718755e-39
0.3249999881 -0.4375 0.1625000238 1.18955526e-39
0.08749997616 -0.3000000119 0.2375000119 4.482718755e-39
-0.162499994 -0.3874999881 0.3125 2.378753189e-39
-0.1125000119 -0.3000000119 0.2875000238 4.482718755e-39
0.2875000238 -0.474999994 0.1750000119 3.662643861e-40
-0.1125000119 -0.3874999881 0.4875000119 2.378753189e-39
0.05000001192 -0.3125 0.3249999881 4.1168117e-39
0.07499998808 -0.4250000119 0.3249999881 1.555462315e-39
0 -0.3000000119 0.25 4.482718755e-39
0.1000000238 -0.474999994 0.2749999762 3.662643861e-40
-0.01249998808 -0.3874999881 0.4875000119 2.378753189e-39
-0.05000001192 -0.3000000119 0.2375000119 4.482718755e-39
0.1374999881 -0.3000000119 0.2250000238 4.482718755e-39
-0.07499998808 -0.375 0.3249999881 2.65318348e-39
0.07499998808 -0.3625000119 0.3249999881 3.019090535e-39
-0.125 -0.3000000119 0.25 4.482718755e-39
0.125 -0.4499999881 0.3249999881 9.151249686e-40
0.125 -0.412499994 0.3249999881 1.829892606e-39
-0.08750000596 -0.3000000119 0.3125 4.482718755e-39
0.1625000238 -0.4499999881 0.3249999881 9.151249686e-40
-0.02500000596 -0.400000006 0.3249999881 2.104322897e-39
0.02499997616 -0.3125 0.3249999881 4.1168117e-39
-0.09999999404 -0.375 0.4624999762 2.65318348e-39
-0.1125000119 -0.3874999881 0.4750000238 2.378753189e-39
0.01249998808 -0.3000000119 0.3125 4.482718755e-39
0.1625000238 -0.462500006 0.2875000238 6.406946774e-40
0.1625000238 -0.412499994 0.2875000238 1.829892606e-39
0.125 -0.3000000119 0.25 4.482718755e-39
0.1625000238 -0.4250000119 0.3000000119 1.555462315e-39
0.1499999762 -0.3000000119 0.125 4.482718755e-39
-0.02500000596 -0.3625000119 0.3249999881 3.019090535e-39
0.1499999762 -0.3000000119 0.3125 4.482718755e-39
0.1625000238 -0.4375 0.2749999762 1.18955526e-39
-0.05000001192 -0.3000000119 0.2875000238 4.482718755e-39
-0.1374999881 -0.400000006 0.4250000119 2.104322897e-39
0.3500000238 -0.474999994 0.1374999881 3.662643861e-40
0.1625000238 -0.3000000119 0.2250000238 4.482718755e-39
0.3125 -0.3249999881 0.1374999881 3.842381409e-39
-0.162499994 -0.4250000119 0.3249999881 1.555462315e-39
0.1625000238 -0.3625000119 0.3125 3.019090535e-39
0.1625000238 -0.462500006 0.3125 6.406946774e-40
0.08749997616 -0.3249999881 0.3249999881 3.842381409e-39
0.3500000238 -0.4499999881 0.1374999881 9.151249686e-40
-0.162499994 -0.3249999881 0.2875000238 3.842381409e-39
-0.162499994 -0.3249999881 0.3249999881 3.842381409e-39
0.125 -0.3000000119 0.3125 4.482718755e-39
0.1374999881 -0.3000000119 0.2749999762 4.482718755e-39
0.3000000119 -0.3125 0.1499999762 4.1168117e-39
-0.09999999404 -0.3125 0.4250000119 4.1168117e-39
-0.08750000596 -0.3000000119 0.3000000119 4.482718755e-39
-0.1125000119 -0.3125 0.3249999881 4.1168117e-39
-0.09999999404 -0.400000006 0.375 2.104322897e-39
0.03750002384 -0.3000000119 0.3249999881 4.482718755e-39
-0.162499994 -0.3000000119 0.2250000238 4.482718755e-39
0.2749999762 -0.3125 0.1750000119 4.1168117e-39
-0.07499998808 -0.400000006 0.4875000119 2.104322897e-39
-0.07499998808 -0.3000000119 0.2375000119 4.482718755e-39
0.07499998808 -0.474999994 0.2749999762 3.662643861e-40
-0.1374999881 -0.3000000119 0.2624999881 4.482718755e-39
-0.0625 -0.400000006 0.4875000119 2.104322897e-39
-0.09999999404 -0.3249999881 0.4750000238 3.842381409e-39
0.1625000238 -0.474999994 0.3249999881 3.662643861e-40
0.3000000119 -0.400000006 0.1750000119 2.104322897e-39
-0.08750000596 -0.3874999881 0.4375 2.378753189e-39
0.03750002384 -0.3000000119 0.2375000119 4.482718755e-39
0 -0.3000000119 0.2624999881 4.482718755e-39
0.1000000238 -0.3000000119 0.2749999762 4.482718755e-39
0.1499999762 -0.3000000119 0.2624999881 4.482718755e-39
-0.03749999404 -0.4499999881 0.3249999881 9.151249686e-40
0.2875000238 -0.3000000119 0.1374999881 4.482718755e-39
-0.09999999404 -0.3000000119 0.2875000238 4.482718755e-39
-0.162499994 -0.3000000119 0.2375000119 4.482718755e-39
-0.07499998808 -0.3000000119 0.2250000238 4.482718755e-39
0.1125000119 -0.3000000119 0.2749999762 4.482718755e-39
-0.07499998808 -0.4375 0.3874999881 1.18955526e-39
-0.02500000596 -0.400000006 0.4750000238 2.104322897e-39
0 -0.3874999881 0.4750000238 2.378753189e-39
0.1625000238 -0.3625000119 0.2749999762 3.019090535e-39
-0.162499994 -0.3625000119 0.3249999881 3.019090535e-39
-0.05000001192 -0.337500006 0.3249999881 3.567951117e-39
0.1374999881 -0.474999994 0.2875000238 3.662643861e-40
0.1625000238 -0.412499994 0.3125 1.829892606e-39
0.1625000238 -0.474999994 0.3125 3.662643861e-40
-0.09999999404 -0.3625000119 0.4624999762 3.019090535e-39
-0.162499994 -0.3874999881 0.2875000238 2.378753189e-39
-0.1125000119 -0.3000000119 0.2749999762 4.482718755e-39
0.02499997616 -0.337500006 0.3249999881 3.567951117e-39
-0.08750000596 -0.3874999881 0.4499999881 2.378753189e-39
0.03750002384 -0.400000006 0.3249999881 2.104322897e-39
0.1499999762 -0.400000006 0.3249999881 2.104322897e-39
0.01249998808 -0.474999994 0.3125 3.662643861e-40
0.05000001192 -0.4375 0.3249999881 1.18955526e-39
0.08749997616 -0.349999994 0.3249999881 3.293520826e-39
-0.01249998808 -0.3000000119 0.3000000119 4.482718755e-39
-0.03749999404 -0.3000000119 0.3000000119 4.482718755e-39
-0.09999999404 -0.349999994 0.4499999881 3.293520826e-39
-0.125 -0.3249999881 0.3249999881 3.842381409e-39
-0.07499998808 -0.3874999881 0.3874999881 2.378753189e-39
0 -0.4375 0.3249999881 1.18955526e-39
-0.09999999404 -0.3249999881 0.3249999881 3.842381409e-39
0.25 -0.3000000119 0.1750000119 4.482718755e-39
0.0625 -0.4250000119 0.3249999881 1.555462315e-39
-0.09999999404 -0.375 0.4375 2.65318348e-39
-0.08750000596 -0.3874999881 0.4125000238 2.378753189e-39
-0.162499994 -0.337500006 0.3249999881 3.567951117e-39
-0.1374999881 -0.400000006 0.4624999762 2.104322897e-39
0 -0.412499994 0.3249999881 1.829892606e-39
0.1625000238 -0.337500006 0.2875000238 3.567951117e-39
-0.09999999404 -0.3874999881 0.4375 2.378753189e-39
0.1625000238 -0.4375 0.3249999881 1.18955526e-39
-0.07499998808 -0.400000006 0.4750000238 2.104322897e-39
0.1625000238 -0.3249999881 0.3000000119 3.842381409e-39
0.1625000238 -0.349999994 0.3249999881 3.293520826e-39
-0.08750000596 -0.375 0.3249999881 2.65318348e-39
-0.07499998808 -0.3249999881 0.3249999881 3.842381409e-39
0.1000000238 -0.412499994 0.3374999762 1.829892606e-39
0.05000001192 -0.4250000119 0.3249999881 1.555462315e-39
0 -0.3000000119 0.3249999881 4.482718755e-39
-0.01249998808 -0.400000006 0.4499999881 2.104322897e-39
-0.07499998808 -0.3000000119 0.2875000238 4.482718755e-39
0.125 -0.3000000119 0.125 4.482718755e-39
0.1000000238 -0.3625000119 0.3374999762 3.019090535e-39
-0.02500000596 -0.400000006 0.4624999762 2.104322897e-39
0.1000000238 -0.3000000119 0.2250000238 4.482718755e-39
-0.03749999404 -0.474999994 0.3249999881 3.662643861e-40
0.0625 -0.3000000119 0.2250000238 4.482718755e-39
0.1374999881 -0.4499999881 0.3249999881 9.151249686e-40
0.3000000119 -0.462500006 0.1750000119 6.406946774e-40
-0.125 -0.3125 0.3249999881 4.1168117e-39
0.1625000238 -0.4875000119 0.4125000238 9.183409486e-41
0.125 -0.3625000119 0.3249999881 3.019090535e-39
0.02499997616 -0.3000000119 0.2250000238 4.482718755e-39
0.01249998808 -0.349999994 0.3249999881 3.293520826e-39
-0.0625 -0.3000000119 0.25 4.482718755e-39
0.25 -0.3125 0.1374999881 4.1168117e-39
-0.07499998808 -0.3000000119 0.3249999881 4.482718755e-39
-0.01249998808 -0.337500006 0.3249999881 3.567951117e-39
0.1625000238 -0.3000000119 0.3000000119 4.482718755e-39
-0.1374999881 -0.3125 0.3249999881 4.1168117e-39
-0.08750000596 -0.3249999881 0.3249999881 3.842381409e-39
-0.09999999404 -0.3000000119 0.4750000238 4.482718755e-39
0.3125 -0.400000006 0.1750000119 2.104322897e-39
0.01249998808 -0.3874999881 0.3374999762 2.378753189e-39
-0.08750000596 -0.4375 0.3874999881 1.18955526e-39
0.3249999881 -0.3874999881 0.1499999762 2.378753189e-39
0.03750002384 -0.4250000119 0.3249999881 1.555462315e-39
0 -0.3249999881 0.3249999881 3.842381409e-39
0.05000001192 -0.3000000119 0.2624999881 4.482718755e-39
-0.0625 -0.3874999881 0.4125000238 2.378753189e-39
-0.02500000596 -0.3000000119 0.2875000238 4.482718755e-39
-0.09999999404 -0.375 0.4750000238 2.65318348e-39
0.1625000238 -0.349999994 0.2875000238 3.293520826e-39
-0.1374999881 -0.3874999881 0.4375 2.378753189e-39
0.3374999762 -0.474999994 0.1499999762 3.662643861e-40
-0.0625 -0.3000000119 0.3000000119 4.482718755e-39
-0.09999999404 -0.3125 0.4375 4.1168117e-39
0.03750002384 -0.474999994 0.3000000119 3.662643861e-40
0.1125000119 -0.474999994 0.2875000238 3.662643861e-40
0.02499997616 -0.474999994 0.2749999762 3.662643861e-40
-0.05000001192 -0.349999994 0.3249999881 3.293520826e-39
0.1625000238 -0.4499999881 0.2749999762 9.151249686e-40
-0.07499998808 -0.400000006 0.3249999881 2.104322897e-39
0.01249998808 -0.4375 0.3249999881 1.18955526e-39
-0.150000006 -0.3000000119 0.3249999881 4.482718755e-39
-0.01249998808 -0.3874999881 0.3374999762 2.378753189e-39
0.03750002384 -0.3000000119 0.25 4.482718755e-39
-0.07499998808 -0.3000000119 0.2749999762 4.482718755e-39
0.1000000238 -0.462500006 0.3249999881 6.406946774e-40
-0.162499994 -0.3125 0.25 4.1168117e-39
-0.09999999404 -0.3000000119 0.2250000238 4.482718755e-39
-0.162499994 -0.3249999881 0.25 3.842381409e-39
-0.09999999404 -0.3000000119 0.25 4.482718755e-39
0.1625000238 -0.412499994 0.3000000119 1.829892606e-39
-0.09999999404 -0.349999994 0.4250000119 3.293520826e-39
0.3125 -0.3874999881 0.1625000238 2.378753189e-39
0.0625 -0.474999994 0.3125 3.662643861e-40
0.125 -0.3000000119 0.2250000238 4.482718755e-39
-0.03749999404 -0.3125 0.3249999881 4.1168117e-39
0.3000000119 -0.3874999881 0.1750000119 2.378753189e-39
-0.150000006 -0.337500006 0.3249999881 3.567951117e-39
0.05000001192 -0.3000000119 0.2250000238 4.482718755e-39
0 -0.337500006 0.3249999881 3.567951117e-39
-0.09999999404 -0.349999994 0.3374999762 3.293520826e-39
0.3374999762 -0.4499999881 0.1499999762 9.151249686e-40
0.1625000238 -0.375 0.2875000238 2.65318348e-39
-0.0625 -0.3874999881 0.3874999881 2.378753189e-39
-0.08750000596 -0.400000006 0.4125000238 2.104322897e-39
0.1625000238 -0.4375 0.3125 1.18955526e-39
0.1000000238 -0.3000000119 0.3125 4.482718755e-39
0.3249999881 -0.349999994 0.1374999881 3.293520826e-39
-0.05000001192 -0.3000000119 0.3000000119 4.482718755e-39
-0.02500000596 -0.4499999881 0.3249999881 9.151249686e-40
0.3000000119 -0.375 0.1750000119 2.65318348e-39
0.03750002384 -0.337500006 0.3249999881 3.567951117e-39
-0.08750000596 -0.4250000119 0.3374999762 1.555462315e-39
0.0625 -0.462500006 0.3249999881 6.406946774e-40
0 -0.4250000119 0.3249999881 1.555462315e-39
-0.05000001192 -0.3000000119 0.3125 4.482718755e-39
0.1499999762 -0.3000000119 0.3249999881 4.482718755e-39
0.0625 -0.474999994 0.3000000119 3.662643861e-40
-0.03749999404 -0.474999994 0.2749999762 3.662643861e-40
-0.03749999404 -0.412499994 0.3249999881 1.829892606e-39
-0.1374999881 -0.3000000119 0.2375000119 4.482718755e-39
0.125 -0.474999994 0.2875000238 3.662643861e-40
-0.01249998808 -0.375 0.3374999762 2.65318348e-39
0.2624999881 -0.3000000119 0.1374999881 4.482718755e-39
-0.03749999404 -0.3874999881 0.3249999881 2.378753189e-39
-0.09999999404 -0.400000006 0.3999999762 2.104322897e-39
0.125 -0.375 0.3249999881 2.65318348e-39
-0.02500000596 -0.375 0.3249999881 2.65318348e-39
0.03750002384 -0.4499999881 0.3249999881 9.151249686e-40
-0.07499998808 -0.400000006 0.4125000238 2.104322897e-39
0.1625000238 -0.4875000119 0.2749999762 9.183409486e-41
0.1625000238 -0.3249999881 0.2749999762 3.842381409e-39
-0.07499998808 -0.3874999881 0.4125000238 2.378753189e-39
-0.08750000596 -0.3874999881 0.3999999762 2.378753189e-39
-0.01249998808 -0.3249999881 0.3249999881 3.842381409e-39
0.1625000238 -0.412499994 0.3249999881 1.829892606e-39
0.05000001192 -0.3625000119 0.3249999881 3.019090535e-39
0.1625000238 -0.3000000119 0.25 4.482718755e-39
-0.01249998808 -0.3000000119 0.25 4.482718755e-39
0.1625000238 -0.337500006 0.2749999762 3.567951117e-39
0.3125 -0.474999994 0.1499999762 3.662643861e-40
-0.0625 -0.412499994 0.3874999881 1.829892606e-39
-0.02500000596 -0.3125 0.3249999881 4.1168117e-39
0.02499997616 -0.474999994 0.3000000119 3.662643861e-40
0.125 -0.474999994 0.3249999881 3.662643861e-40
0.01249998808 -0.3000000119 0.3000000119 4.482718755e-39
0.08749997616 -0.412499994 0.3249999881 1.829892606e-39
-0.02500000596 -0.337500006 0.3249999881 3.567951117e-39
-0.162499994 -0.375 0.2624999881 2.65318348e-39
0.1625000238 -0.400000006 0.2875000238 2.104322897e-39
0.1625000238 -0.3000000119 0.2749999762 4.482718755e-39
0.02499997616 -0.474999994 0.2875000238 3.662643861e-40
-0.162499994 -0.3874999881 0.3249999881 2.378753189e-39
0.08749997616 -0.3000000119 0.2250000238 4.482718755e-39
-0.08750000596 -0.4250000119 0.3874999881 1.555462315e-39
-0.01249998808 -0.3000000119 0.3125 4.482718755e-39
0.1000000238 -0.3000000119 0.2375000119 4.482718755e-39
-0.162499994 -0.3125 0.3000000119 4.1168117e-39
0.1374999881 -0.3000000119 0.3125 4.482718755e-39
-0.125 -0.3000000119 0.2749999762 4.482718755e-39
-0.09999999404 -0.349999994 0.4750000238 3.293520826e-39
-0.09999999404 -0.3874999881 0.4875000119 2.378753189e-39
-0.09999999404 -0.3874999881 0.4499999881 2.378753189e-39
0.125 -0.3249999881 0.3249999881 3.842381409e-39
-0.01249998808 -0.4499999881 0.3249999881 9.151249686e-40
-0.09999999404 -0.3000000119 0.3125 4.482718755e-39
-0.1374999881 -0.3000000119 0.25 4.482718755e-39
0.1499999762 -0.3000000119 0.2375000119 4.482718755e-39
-0.02500000596 -0.3874999881 0.4499999881 2.378753189e-39
-0.125 -0.3874999881 0.4875000119 2.378753189e-39
-0.0625 -0.400000006 0.4499999881 2.104322897e-39
0.0625 -0.3000000119 0.3249999881 4.482718755e-39
-0.125 -0.400000006 0.4750000238 2.104322897e-39
-0.162499994 -0.3000000119 0.2749999762 4.482718755e-39
0.1625000238 -0.375 0.3249999881 2.65318348e-39
0.3249999881 -0.412499994 0.1625000238 1.829892606e-39
0.08749997616 -0.337500006 0.3249999881 3.567951117e-39
-0.02500000596 -0.3000000119 0.2375000119 4.482718755e-39
0.05000001192 -0.400000006 0.3249999881 2.104322897e-39
0.125 -0.474999994 0.3000000119 3.662643861e-40
0.1000000238 -0.3000000119 0.25 4.482718755e-39
0.07499998808 -0.3000000119 0.25 4.482718755e-39
-0.07499998808 -0.3874999881 0.4875000119 2.378753189e-39
0.08749997616 -0.3874999881 0.3249999881 2.378753189e-39
-0.02500000596 -0.474999994 0.3249999881 3.662643861e-40
-0.08750000596 -0.412499994 0.3374999762 1.829892606e-39
-0.09999999404 -0.349999994 0.4375 3.293520826e-39
-0.09999999404 -0.3874999881 0.3999999762 2.378753189e-39
-0.01249998808 -0.474999994 0.2749999762 3.662643861e-40
-0.08750000596 -0.400000006 0.3999999762 2.104322897e-39
-0.07499998808 -0.337500006 0.3249999881 3.567951117e-39
0.07499998808 -0.3000000119 0.2375000119 4.482718755e-39
0 -0.474999994 0.2749999762 3.662643861e-40
-0.03749999404 -0.400000006 0.4875000119 2.104322897e-39
-0.1374999881 -0.3000000119 0.3125 4.482718755e-39
0.05000001192 -0.474999994 0.2875000238 3.662643861e-40
0.1499999762 -0.3249999881 0.3249999881 3.842381409e-39
-0.150000006 -0.3249999881 0.3249999881 3.842381409e-39
-0.1125000119 -0.3874999881 0.4624999762 2.378753189e-39
0.3374999762 -0.474999994 0.1625000238 3.662643861e-40
0.2624999881 -0.3000000119 0.1750000119 4.482718755e-39
-0.150000006 -0.3000000119 0.3125 4.482718755e-39
-0.08750000596 -0.400000006 0.4750000238 2.104322897e-39
-0.162499994 -0.337500006 0.3000000119 3.567951117e-39
-0.05000001192 -0.3000000119 0.2749999762 4.482718755e-39
0.25 -0.3000000119 0.1374999881 4.482718755e-39
0.125 -0.337500006 0.3249999881 3.567951117e-39
0.3125 -0.3625000119 0.1625000238 3.019090535e-39
-0.125 -0.400000006 0.4875000119 2.104322897e-39
-0.0625 -0.4250000119 0.375 1.555462315e-39
-0.09999999404 -0.3125 0.4624999762 4.1168117e-39
-0.05000001192 -0.3625000119 0.3249999881 3.019090535e-39
-0.1374999881 -0.3874999881 0.4250000119 2.378753189e-39
-0.02500000596 -0.400000006 0.4499999881 2.104322897e-39
-0.09999999404 -0.3000000119 0.4250000119 4.482718755e-39
0.1499999762 -0.375 0.3249999881 2.65318348e-39
-0.01249998808 -0.3000000119 0.2875000238 4.482718755e-39
-0.03749999404 -0.3000000119 0.2375000119 4.482718755e-39
0.01249998808 -0.474999994 0.3000000119 3.662643861e-40
0.1625000238 -0.3000000119 0.2624999881 4.482718755e-39
0.125 -0.3125 0.3249999881 4.1168117e-39
0.03750002384 -0.3874999881 0.3249999881 2.378753189e-39
-0.07499998808 -0.3125 0.3249999881 4.1168117e-39
0.125 -0.3000000119 0.2749999762 4.482718755e-39
0.1499999762 -0.337500006 0.3249999881 3.567951117e-39
0.2875000238 -0.3249999881 0.1750000119 3.842381409e-39
-0.01249998808 -0.462500006 0.3249999881 6.406946774e-40
0 -0.474999994 0.3125 3.662643861e-40
-0.03749999404 -0.400000006 0.4499999881 2.104322897e-39
0.07499998808 -0.474999994 0.3125 3.662643861e-40
-0.09999999404 -0.3000000119 0.2624999881 4.482718755e-39
0.01249998808 -0.337500006 0.3249999881 3.567951117e-39
0.1000000238 -0.3000000119 0.125 4.482718755e-39
-0.03749999404 -0.349999994 0.3249999881 3.293520826e-39
0.1499999762 -0.4250000119 0.3249999881 1.555462315e-39
-0.05000001192 -0.3000000119 0.25 4.482718755e-39
0.3125 -0.337500006 0.1499999762 3.567951117e-39
-0.08750000596 -0.3874999881 0.3249999881 2.378753189e-39
0.01249998808 -0.3000000119 0.2375000119 4.482718755e-39
-0.08750000596 -0.400000006 0.4875000119 2.104322897e-39
0.1625000238 -0.3125 0.3125 4.1168117e-39
0.1000000238 -0.4499999881 0.3249999881 9.151249686e-40
-0.150000006 -0.3000000119 0.2375000119 4.482718755e-39
0.1125000119 -0.337500006 0.3374999762 3.567951117e-39
0.1625000238 -0.474999994 0.4125000238 3.662643861e-40
-0.150000006 -0.3625000119 0.3249999881 3.019090535e-39
0.2875000238 -0.3125 0.1750000119 4.1168117e-39
0 -0.400000006 0.4499999881 2.104322897e-39
0.07499998808 -0.3874999881 0.3249999881 2.378753189e-39
-0.02500000596 -0.3249999881 0.3249999881 3.842381409e-39
0.02499997616 -0.3249999881 0.3249999881 3.842381409e-39
0.1374999881 -0.375 0.3249999881 2.65318348e-39
-0.02500000596 -0.474999994 0.3125 3.662643861e-40
-0.02500000596 -0.400000006 0.4875000119 2.104322897e-39
0.03750002384 -0.375 0.3249999881 2.65318348e-39
0.1125000119 -0.474999994 0.3125 3.662643861e-40
0.1125000119 -0.3000000119 0.3125 4.482718755e-39
0.3249999881 -0.375 0.1499999762 2.65318348e-39
-0.09999999404 -0.3625000119 0.4250000119 3.019090535e-39
0.2875000238 -0.462500006 0.1750000119 6.406946774e-40
0.05000001192 -0.3000000119 0.25 4.482718755e-39
0.1499999762 -0.474999994 0.4125000238 3.662643861e-40
-0.07499998808 -0.3874999881 0.4250000119 2.378753189e-39
-0.01249998808 -0.474999994 0.3125 3.662643861e-40
0.125 -0.474999994 0.2749999762 3.662643861e-40
-0.162499994 -0.349999994 0.2749999762 3.293520826e-39
0.08749997616 -0.3000000119 0.125 4.482718755e-39
-0.1374999881 -0.3874999881 0.4875000119 2.378753189e-39
0.0625 -0.3125 0.3249999881 4.1168117e-39
0.125 -0.3000000119 0.3000000119 4.482718755e-39
0 -0.3625000119 0.3249999881 3.019090535e-39
-0.162499994 -0.349999994 0.2624999881 3.293520826e-39
-0.02500000596 -0.3874999881 0.4875000119 2.378753189e-39
-0.09999999404 -0.375 0.4250000119 2.65318348e-39
-0.09999999404 -0.412499994 0.3374999762 1.829892606e-39
-0.0625 -0.3874999881 0.3999999762 2.378753189e-39
0 -0.3000000119 0.3125 4.482718755e-39
0.03750002384 -0.474999994 0.3125 3.662643861e-40
0.3000000119 -0.3000000119 0.1374999881 4.482718755e-39
-0.1125000119 -0.3000000119 0.2624999881 4.482718755e-39
0.125 -0.462500006 0.3249999881 6.406946774e-40
0.1374999881 -0.349999994 0.3249999881 3.293520826e-39
-0.03749999404 -0.400000006 0.4750000238 2.104322897e-39
0.07499998808 -0.474999994 0.3000000119 3.662643861e-40
-0.1374999881 -0.3874999881 0.4125000238 2.378753189e-39
0.05000001192 -0.3249999881 0.3249999881 3.842381409e-39
0.1374999881 -0.4250000119 0.3249999881 1.555462315e-39
0.1125000119 -0.400000006 0.3374999762 2.104322897e-39
-0.01249998808 -0.400000006 0.3249999881 2.104322897e-39
0.3374999762 -0.462500006 0.1499999762 6.406946774e-40
0.1000000238 -0.400000006 0.3374999762 2.104322897e-39
0.01249998808 -0.3625000119 0.3249999881 3.019090535e-39
-0.125 -0.3874999881 0.4750000238 2.378753189e-39
0.1499999762 -0.4875000119 0.4250000119 9.183409486e-41
-0.01249998808 -0.3874999881 0.4624999762 2.378753189e-39
0.1499999762 -0.4875000119 0.2749999762 9.183409486e-41
0.08749997616 -0.400000006 0.3249999881 2.104322897e-39
0.1625000238 -0.4250000119 0.3249999881 1.555462315e-39
0 -0.375 0.3374999762 2.65318348e-39
0.3125 -0.400000006 0.1625000238 2.104322897e-39
0.08749997616 -0.474999994 0.2749999762 3.662643861e-40
0.1625000238 -0.3874999881 0.2749999762 2.378753189e-39
0.3374999762 -0.412499994 0.1374999881 1.829892606e-39
0.08749997616 -0.3000000119 0.2624999881 4.482718755e-39
0.1000000238 -0.474999994 0.3249999881 3.662643861e-40
0.1625000238 -0.4375 0.2875000238 1.18955526e-39
0.1499999762 -0.4875000119 0.2875000238 9.183409486e-41
0.3249999881 -0.412499994 0.1499999762 1.829892606e-39
0.1625000238 -0.3125 0.2875000238 4.1168117e-39
0.05000001192 -0.462500006 0.3249999881 6.406946774e-40
0.3000000119 -0.474999994 0.1750000119 3.662643861e-40
0 -0.3874999881 0.4624999762 2.378753189e-39
-0.09999999404 -0.3625000119 0.4499999881 3.019090535e-39
0.3000000119 -0.349999994 0.1750000119 3.293520826e-39
0.3500000238 -0.4375 0.1374999881 1.18955526e-39
-0.0625 -0.3000000119 0.2250000238 4.482718755e-39
-0.09999999404 -0.3000000119 0.3000000119 4.482718755e-39
0.1625000238 -0.4250000119 0.2875000238 1.555462315e-39
-0.03749999404 -0.3625000119 0.3249999881 3.019090535e-39
0.1374999881 -0.3125 0.3249999881 4.1168117e-39
-0.07499998808 -0.3874999881 0.4624999762 2.378753189e-39
0.08749997616 -0.375 0.3249999881 2.65318348e-39
-0.1125000119 -0.3000000119 0.3249999881 4.482718755e-39
-0.09999999404 -0.400000006 0.3374999762 2.104322897e-39
-0.1374999881 -0.3874999881 0.4624999762 2.378753189e-39
-0.02500000596 -0.474999994 0.2749999762 3.662643861e-40
-0.0625 -0.3874999881 0.4624999762 2.378753189e-39
0.03750002384 -0.3000000119 0.3125 4.482718755e-39
0.3125 -0.474999994 0.1750000119 3.662643861e-40
-0.0625 -0.400000006 0.4624999762 2.104322897e-39
-0.09999999404 -0.3874999881 0.3249999881 2.378753189e-39
0.02499997616 -0.3625000119 0.3249999881 3.019090535e-39
0.3249999881 -0.4250000119 0.1625000238 1.555462315e-39
-0.1374999881 -0.3249999881 0.3249999881 3.842381409e-39
-0.1125000119 -0.400000006 0.4750000238 2.104322897e-39
-0.08750000596 -0.400000006 0.3249999881 2.104322897e-39
-0.07499998808 -0.3874999881 0.3249999881 2.378753189e-39
0.1625000238 -0.3249999881 0.2875000238 3.842381409e-39
0 -0.400000006 0.3374999762 2.104322897e-39
0.1499999762 -0.4875000119 0.3249999881 9.183409486e-41
0.1125000119 -0.474999994 0.3249999881 3.662643861e-40
-0.07499998808 -0.3000000119 0.3000000119 4.482718755e-39
-0.162499994 -0.3625000119 0.2624999881 3.019090535e-39
-0.162499994 -0.349999994 0.3125 3.293520826e-39
-0.01249998808 -0.349999994 0.3249999881 3.293520826e-39
0.08749997616 -0.474999994 0.2875000238 3.662643861e-40
-0.07499998808 -0.4250000119 0.375 1.555462315e-39
